# .PCD v0.7 - Point Cloud Data file format
VERSION 0.7
FIELDS x y z
SIZE 4 4 4
TYPE F F F
COUNT 1 1 1
WIDTH 1222
HEIGHT 1
VIEWPOINT 0 0 0 1 0 0 0
POINTS 1222
DATA ascii
-0.0095100934 0.00054428569 -0.0022696203
-0.0053602345 0.00018142856 -0.016541773
-0.029221924 0.00127 -0.0015734179
0.026801173 -0.00127 -0.015497469
0.027838638 0.00018142856 -0.0085354438
-0.014351596 0.00054428569 -0.017237976
-0.0053602345 0.00018142856 -0.00018101276
0.020576384 -0.00018142856 -0.0054025319
-0.030259389 -0.00018142856 -0.021067088
-0.0095100934 -0.00127 -0.0019215192
0.0025936619 -0.00018142856 -0.018978482
0.020230563 -0.00018142856 -0.022807596
0.033025961 -0.00018142856 -0.022111394
-0.00017291079 0.00018142856 -0.0036620256
-0.012622488 0.00090714288 -0.015149368
-0.01089338 -0.00054428569 -0.00052911404
-0.018847277 -0.00054428569 -0.0022696203
0.006051878 0.00054428569 -0.00052911404
-0.028530281 0.00090714288 -0.015497469
-0.0070893425 -0.00127 -0.016541773
-0.0036311268 0.00018142856 -0.016541773
-0.018155634 0.00018142856 -0.017237976
-0.035446715 -0.00090714288 -0.016193671
-0.010201737 0.00018142856 -0.0060987347
0.020230563 0.00018142856 0.0019075949
-0.0098559158 0.00127 -0.0019215192
0.022997135 0.00018142856 -0.019674685
-0.0022478404 0.00127 -0.015497469
-0.035792533 -0.00018142856 -0.0036620256
0.012622488 -0.00018142856 -0.01027595
0.01953892 -0.00018142856 -0.015149368
0.012276666 0.00054428569 -0.015845571
0.025417887 -0.00018142856 -0.020022785
0.021959672 0.00090714288 -0.00018101276
-0.025417887 0.00127 -0.00087721529
0.018155634 0.00090714288 -0.0022696203
0.0098559158 -0.00127 -0.016193671
-0.012622488 -0.00018142856 0.0012113923
0.011239202 -0.00127 -0.017237976
-0.0053602345 -0.00018142856 -0.0033139242
-0.033025961 -0.00054428569 -0.0022696203
0.022997135 -0.00018142856 -0.012364557
0.023688778 0.00127 -0.015845571
-0.017809812 0.00018142856 -0.014105064
-0.0091642719 0.00127 -0.015845571
0.025417887 0.00018142856 0.0015594936
0.0098559158 -0.00018142856 -0.019326583
-0.031988498 0.00018142856 -0.016193671
0.030259389 0.00018142856 -0.019326583
-0.0091642719 0.00054428569 -0.0022696203
0.029567746 0.00127 -0.00018101276
0.028876103 -0.00127 -0.00087721529
-0.0046685915 0.00127 -0.015497469
0.023688778 0.00090714288 -0.015845571
0.010201737 0.00054428569 -0.017237976
-0.02610953 0.00018142856 -0.015497469
0.017118169 0.00127 -0.00087721529
0.030951032 -0.00054428569 -0.00052911404
-0.014005775 -0.00018142856 -0.017237976
-0.0025936619 0.00054428569 -0.015149368
0.025417887 0.00018142856 -0.0071430383
-0.0019020188 0.00127 -0.00087721529
0.030951032 -0.00090714288 -0.016193671
0.025417887 0.00090714288 -0.0022696203
-0.025763709 -0.00054428569 -0.0022696203
-0.035100892 0.00018142856 -0.00018101276
0.0046685915 -0.00054428569 -0.0022696203
-0.022651315 0.00018142856 -0.009579747
-0.010201737 0.00018142856 -0.023503799
-0.0077809859 0.00018142856 -0.017934177
0.025417887 -0.00018142856 -0.014453165
0.015389061 0.00018142856 -0.0043582283
0.021959672 -0.00127 -0.016193671
0.030259389 -0.00018142856 -0.021067088
0.010201737 0.00018142856 -0.0047063292
0.0019020188 -0.00127 -0.016889874
0.022651315 -0.00018142856 -0.002965823
-0.020922206 0.00054428569 -0.017237976
0.0098559158 -0.00127 -0.00052911404
-0.0022478404 -0.00127 -0.00018101276
0.014697418 -0.00054428569 -0.015845571
-0.013659953 -0.00054428569 -0.015497469
0.0019020188 0.00018142856 -0.00018101276
-0.012622488 -0.00018142856 -0.009579747
0.0077809859 0.00018142856 -0.012364557
-0.033025961 -0.00127 -0.0015734179
0.035446715 -0.00090714288 -0.017237976
0.0088184504 0.00127 -0.0015734179
0.02818446 0.00018142856 -0.012712658
-0.033717606 -0.00090714288 -0.015845571
-0.0053602345 -0.00018142856 -0.013756962
-0.027838638 0.00018142856 -0.012364557
-0.033025961 0.00018142856 -0.0078392411
0.0029394836 0.00127 -0.00087721529
-0.02818446 -0.00018142856 -0.012016457
0.0098559158 -0.00018142856 -0.017237976
0.025417887 -0.00018142856 -0.009579747
-0.02610953 -0.00127 -0.00087721529
0.012276666 0.00127 -0.0012253165
-0.015043239 -0.00018142856 -0.017934177
0.0022478404 0.00018142856 0.0019075949
-0.0046685915 -0.00127 -0.0019215192
0.0074351644 -0.00090714288 -0.017237976
-0.032680139 -0.00127 -0.00087721529
-0.020230563 0.00018142856 -0.0092316456
-0.017809812 0.00018142856 -0.021763291
0.030605212 0.00018142856 0.0019075949
-0.01089338 -0.00018142856 -0.017237976
-0.0032853051 -0.00054428569 -0.015149368
0.030605212 0.00018142856 -0.018978482
0.034063429 -0.00127 -0.016889874
-0.020576384 -0.00018142856 -0.013408861
-0.027838638 -0.00018142856 -0.006794937
0.025763709 -0.00127 -0.016193671
-0.017809812 -0.00018142856 -0.009579747
0.0025936619 -0.00054428569 -0.015845571
-0.031642675 0.00018142856 -0.015845571
-0.011585023 0.00127 -0.015845571
-0.027492817 -0.00054428569 -0.00052911404
-0.030605212 0.00018142856 -0.013756962
0.00017291079 -0.00018142856 -0.0040101269
-0.030605212 -0.00054428569 -0.017586077
-0.01089338 0.00090714288 -0.015497469
-0.025417887 -0.00054428569 -0.015845571
0.0036311268 0.00054428569 -0.00052911404
0.021959672 -0.00127 -0.015845571
-0.0088184504 0.00127 -0.00087721529
-0.0053602345 -0.00018142856 -0.011668355
-0.020576384 0.00018142856 -0.0036620256
0.022997135 -0.00018142856 -0.013756962
-0.0091642719 -0.00090714288 -0.016541773
0.0091642719 -0.00127 -0.0015734179
-0.020576384 -0.00018142856 -0.0040101269
0.01089338 0.00018142856 -0.0022696203
0.015389061 -0.00018142856 -0.0064468356
-0.0081268074 0.00090714288 -0.00018101276
-0.035792533 0.00018142856 -0.0064468356
0.027838638 -0.00018142856 -0.021763291
-0.0074351644 0.00018142856 -0.01027595
-0.025417887 -0.00018142856 -0.015149368
0.010201737 0.00127 -0.0022696203
0.022651315 -0.00018142856 -0.021415191
-0.016426526 -0.00127 -0.016889874
-0.0091642719 -0.00127 -0.0022696203
0.016772347 0.00090714288 -0.0022696203
-0.028876103 -0.00127 -0.016541773
-0.029567746 0.00018142856 -0.00018101276
0.02610953 -0.00090714288 -0.0022696203
-0.010201737 0.00018142856 -0.0026177217
-0.025417887 -0.00018142856 0.0015594936
0.0053602345 -0.00054428569 -0.016193671
0.025417887 -0.00018142856 -0.022111394
-0.03475507 0.00127 -0.0019215192
0.017809812 0.00018142856 -0.011668355
-0.0070893425 -0.00127 -0.015845571
0.029221924 -0.00127 -0.0012253165
-0.010201737 0.00018142856 -0.006794937
-0.015389061 0.00090714288 -0.015149368
0.023688778 0.00018142856 -0.017237976
0.017809812 -0.00090714288 -0.00018101276
0.017809812 -0.00018142856 -0.018978482
-0.033025961 0.00018142856 -0.0036620256
0.014005775 -0.00018142856 -0.017237976
-0.029221924 -0.00018142856 -0.015149368
-0.027146995 -0.00127 -0.016193671
0.030605212 -0.00018142856 -0.011320254
-0.030259389 -0.00127 -0.016193671
-0.022651315 0.00090714288 -0.017237976
0.005014413 -0.00018142856 0.00086329109
-0.036484178 -0.00018142856 -0.016889874
0.00017291079 -0.00054428569 -0.015149368
0.020230563 -0.00018142856 -0.012364557
-0.034409247 -0.00127 -0.0019215192
0.018155634 0.00127 -0.0015734179
0.0025936619 -0.00127 -0.00087721529
0.021268029 -0.00090714288 -0.015845571
-0.012622488 0.00018142856 -0.002965823
0.024726244 0.00018142856 -0.0022696203
0.016772347 0.00018142856 -0.015149368
0.027492817 0.00127 -0.016889874
0.0057060565 0.00127 -0.00052911404
-0.0025936619 -0.00018142856 -0.022807596
0.020230563 -0.00018142856 -0.0071430383
0.0029394836 0.00090714288 -0.017237976
0.022305492 0.00090714288 -0.017237976
-0.025417887 0.00018142856 -0.0074911397
0.015389061 0.00018142856 -0.014801267
0.02610953 0.00127 -0.015845571
0.011239202 0.00127 -0.0012253165
0.0046685915 0.00127 -0.00018101276
0.019884741 0.00127 -0.0019215192
0.030259389 -0.00018142856 -0.010972152
-0.0025936619 0.00018142856 -0.0050544306
-0.021268029 -0.00054428569 -0.0022696203
-0.025072066 -0.00127 -0.0012253165
0.0053602345 0.00018142856 -0.023155697
0.010201737 -0.00018142856 -0.020022785
0.026801173 -0.00127 -0.00087721529
0.035792533 0.00127 -0.0022696203
0.03475507 -0.00127 -0.00018101276
-0.00017291079 -0.00054428569 -0.016193671
-0.0046685915 0.00018142856 -0.016541773
0.030259389 0.00127 -0.0015734179
-0.030259389 -0.00127 -0.015845571
0.027838638 0.00018142856 -0.0026177217
0.036830001 0.00018142856 -0.015497469
-0.022997135 0.00018142856 0.0022556961
-0.023342958 -0.00127 -0.015845571
-0.0019020188 0.00127 -0.017237976
0.027838638 -0.00018142856 -0.0047063292
-0.030259389 0.00054428569 -0.0022696203
-0.022305492 -0.00127 -0.016889874
0.035792533 -0.00018142856 -0.0050544306
-0.026801173 0.00090714288 -0.017237976
-0.030605212 0.00018142856 -0.0074911397
0.030259389 0.00018142856 0.00051518978
0.020576384 -0.00018142856 -0.0040101269
0.015389061 0.00054428569 -0.00052911404
0.0046685915 0.00090714288 -0.0022696203
-0.021959672 -0.00127 -0.017237976
0.013659953 -0.00127 -0.016541773
0.0022478404 0.00018142856 -0.011320254
0.005014413 0.00018142856 -0.022807596
-0.016772347 0.00018142856 -0.015845571
-0.0057060565 0.00018142856 -0.015845571
-0.035100892 -0.00127 -0.015497469
-0.006743521 0.00090714288 -0.016889874
0.005014413 0.00018142856 -0.012364557
-0.023342958 0.00127 -0.0019215192
0.0070893425 0.00054428569 -0.017237976
-0.035446715 0.00018142856 -0.0085354438
0.0019020188 -0.00127 -0.00052911404
0.010201737 -0.00127 -0.016541773
0.0077809859 -0.00018142856 -0.01306076
-0.010201737 -0.00054428569 -0.00052911404
-0.031296853 0.00127 -0.016889874
-0.015389061 0.00018142856 -0.015149368
-0.022651315 0.00018142856 -0.0074911397
0.0084726289 -0.00127 -0.0022696203
0.01953892 0.00127 -0.016193671
0.0039769481 -0.00127 -0.00018101276
0.0077809859 0.00018142856 -0.00018101276
-0.029913567 0.00127 -0.0015734179
0.0074351644 -0.00018142856 -0.013756962
-0.01296831 -0.00018142856 -0.020370888
0.025417887 -0.00054428569 -0.015497469
0.0019020188 0.00018142856 -0.017237976
-0.015043239 0.00018142856 -0.0033139242
-0.022997135 0.00018142856 -0.011320254
-0.027838638 -0.00018142856 -0.012364557
-0.0012103756 0.00127 -0.00052911404
0.0012103756 -0.00127 -0.016889874
0.025763709 -0.00127 -0.00018101276
-0.03233432 -0.00054428569 -0.00052911404
0.022997135 -0.00127 -0.016193671
0.015389061 -0.00018142856 -0.012016457
0.025417887 0.00018142856 -0.0092316456
0.0095100934 0.00127 -0.0015734179
-0.033025961 0.00127 -0.0019215192
0.020922206 0.00054428569 -0.015149368
-0.022651315 0.00018142856 -0.018282279
-0.022651315 -0.00018142856 -0.0088835442
-0.0053602345 0.00018142856 -0.015149368
0.0015561972 -0.00127 -0.015497469
-0.0095100934 0.00090714288 -0.016889874
-0.025417887 0.00018142856 -0.020022785
0.026455352 -0.00127 -0.0015734179
0.030259389 0.00018142856 -0.014801267
-0.027838638 -0.00054428569 -0.00052911404
0.029221924 -0.00090714288 -0.015845571
0.010201737 0.00018142856 -0.018282279
0.0088184504 -0.00127 -0.016889874
0.015043239 0.00127 -0.015845571
0.010201737 0.00018142856 -0.019674685
0.017809812 -0.00127 -0.00052911404
0.024034601 -0.00054428569 -0.017237976
-0.016426526 0.00090714288 -0.017237976
0.027838638 -0.00018142856 -0.01306076
0.014005775 -0.00054428569 -0.017237976
0.033025961 -0.00018142856 -0.01027595
-0.0046685915 -0.00127 -0.015497469
-0.0074351644 -0.00018142856 -0.011320254
-0.027492817 -0.00018142856 -0.00018101276
0.006743521 0.00127 -0.00052911404
-0.036138356 -0.00127 -0.015497469
-0.033025961 0.00018142856 -0.0064468356
0.005014413 0.00090714288 -0.00018101276
0.0074351644 0.00018142856 -0.012016457
0.018155634 -0.00054428569 -0.015845571
0.021268029 0.00054428569 -0.015149368
-0.031988498 -0.00018142856 -0.00018101276
-0.022997135 0.00018142856 0.0015594936
-0.020576384 0.00018142856 -0.017586077
-0.03475507 -0.00054428569 -0.015149368
0.034409247 -0.00018142856 -0.0022696203
-0.025417887 0.00018142856 -0.01027595
0.033371784 -0.00127 -0.017237976
0.0053602345 0.00018142856 -0.01027595
0.024034601 0.00054428569 -0.017237976
-0.035792533 0.00018142856 -0.002965823
0.017809812 0.00018142856 0.0015594936
-0.020576384 0.00018142856 -0.0085354438
0.006051878 0.00127 -0.016889874
0.014005775 0.00018142856 -0.00018101276
-0.035792533 0.00090714288 -0.0012253165
-0.012622488 -0.00018142856 0.0015594936
0.0077809859 -0.00018142856 0.0012113923
-0.0025936619 -0.00018142856 0.0022556961
-0.0074351644 -0.00018142856 0.0012113923
0.035792533 0.00018142856 -0.0047063292
-0.024726244 0.00127 -0.00052911404
0.023342958 0.00090714288 -0.0022696203
0.0091642719 -0.00018142856 -0.00018101276
-0.033025961 -0.00018142856 -0.020718988
0.010201737 0.00018142856 -0.014453165
0.00051873241 -0.00090714288 -0.017237976
0.018155634 -0.00090714288 -0.017237976
0.01953892 0.00054428569 -0.00052911404
-0.013314132 -0.00018142856 -0.015149368
0.033025961 0.00018142856 -0.0043582283
0.01296831 0.00054428569 -0.016193671
0.020576384 -0.00018142856 0.0026037975
0.014005775 0.00054428569 -0.016193671
0.014005775 -0.00090714288 -0.016541773
0.01089338 0.00127 -0.0022696203
0.033025961 0.00018142856 -0.0088835442
-0.030605212 -0.00018142856 -0.0074911397
0.025417887 0.00018142856 -0.010972152
-0.0012103756 0.00090714288 -0.015149368
0.020576384 -0.00018142856 -0.013408861
-0.030259389 -0.00018142856 -0.022807596
0.015043239 -0.00018142856 -0.020370888
-0.02818446 0.00018142856 0.0015594936
-0.027838638 0.00018142856 -0.022459494
-0.025417887 0.00018142856 -0.002965823
0.033025961 0.00018142856 -0.01306076
-0.018847277 0.00054428569 -0.00052911404
0.022997135 0.00018142856 -0.01306076
-0.017118169 -0.00018142856 -0.017237976
-0.025417887 0.00018142856 -0.0078392411
0.0077809859 -0.00127 -0.0022696203
-0.020230563 0.00127 -0.00052911404
0.033717606 -0.00127 -0.00052911404
0.0036311268 0.00127 -0.0012253165
0.034409247 0.00018142856 -0.00018101276
-0.018847277 -0.00127 -0.00087721529
-0.015043239 -0.00018142856 -0.012364557
-0.022997135 -0.00018142856 -0.011668355
0.031642675 -0.00090714288 -0.00018101276
-0.010201737 -0.00018142856 -0.021763291
0.01953892 0.00127 -0.0012253165
-0.034409247 -0.00127 -0.00018101276
-0.021613849 -0.00090714288 -0.017237976
-0.0036311268 0.00018142856 -0.015497469
-0.020576384 -0.00018142856 -0.015497469
-0.027492817 -0.00018142856 -0.0022696203
0.020230563 0.00018142856 -0.0092316456
-0.030259389 0.00018142856 -0.0026177217
-0.016080704 0.00018142856 -0.015149368
0.0022478404 0.00018142856 -0.0085354438
-0.019193098 0.00018142856 -0.017237976
0.013314132 -0.00018142856 -0.00018101276
0.021613849 -0.00127 -0.0012253165
0.0098559158 -0.00018142856 -0.020022785
0.012622488 0.00018142856 -0.019326583
0.010201737 0.00018142856 -0.0057506333
-0.02610953 -0.00054428569 -0.017237976
-0.028530281 -0.00127 -0.015149368
0.022997135 -0.00018142856 -0.0071430383
-0.0053602345 -0.00054428569 -0.0022696203
-0.0098559158 0.00090714288 -0.015497469
-0.0088184504 0.00090714288 -0.015497469
0.011239202 -0.00090714288 -0.016541773
-0.0029394836 0.00054428569 -0.017237976
0.035792533 0.00018142856 -0.0033139242
0.00017291079 0.00018142856 -0.012364557
0.017809812 -0.00018142856 0.0012113923
-0.015389061 -0.00018142856 0.0019075949
0.015043239 0.00018142856 -0.021067088
0.024380423 -0.00127 -0.015845571
-0.0022478404 -0.00127 -0.015845571
0.012276666 0.00054428569 -0.017237976
-0.026455352 0.00054428569 -0.015497469
-0.02818446 -0.00018142856 -0.0057506333
0.028876103 0.00127 -0.0012253165
-0.031988498 -0.00127 -0.0012253165
-0.023688778 0.00054428569 -0.015845571
0.01296831 0.00018142856 -0.00018101276
-0.028876103 -0.00127 -0.00087721529
-0.02818446 0.00018142856 -0.01306076
-0.027146995 0.00018142856 -0.015149368
-0.00017291079 0.00018142856 -0.006794937
0.018501455 0.00127 -0.00087721529
-0.01746399 0.00054428569 -0.017237976
-0.0074351644 -0.00018142856 -0.01027595
0.027838638 -0.00018142856 0.0022556961
0.01746399 -0.00127 -0.015497469
0.020230563 0.00018142856 -0.0047063292
-0.00017291079 0.00018142856 -0.022111394
-0.0077809859 0.00090714288 -0.00018101276
-0.006743521 -0.00018142856 -0.017237976
-0.0074351644 0.00018142856 -0.0074911397
-0.022997135 0.00127 -0.0022696203
-0.027492817 0.00127 -0.00087721529
-0.0057060565 0.00018142856 -0.00018101276
0.021268029 -0.00127 -0.016889874
-0.030951032 -0.00054428569 -0.0022696203
-0.021268029 0.00127 -0.016541773
-0.030951032 0.00018142856 -0.015149368
0.024380423 -0.00127 -0.00087721529
0.0046685915 -0.00127 -0.0022696203
0.012276666 -0.00054428569 -0.015845571
0.031296853 0.00127 -0.0015734179
-0.012622488 0.00018142856 -0.01863038
0.00017291079 -0.00127 -0.0015734179
0.0095100934 0.00127 -0.0022696203
0.033717606 -0.00090714288 -0.00018101276
-0.01296831 -0.00018142856 -0.021415191
0.018847277 0.00127 -0.016193671
-0.00086455396 0.00127 -0.0022696203
0.016080704 -0.00090714288 -0.016193671
0.0032853051 -0.00127 -0.00087721529
-0.0074351644 -0.00018142856 -0.0050544306
-0.020576384 0.00018142856 -0.00018101276
-0.018155634 -0.00127 -0.017237976
-0.010547559 -0.00054428569 -0.015845571
0.0053602345 -0.00018142856 -0.022807596
-0.030259389 0.00018142856 0.00086329109
0.030605212 0.00127 -0.0022696203
0.0025936619 -0.00018142856 -0.020370888
0.031988498 0.00090714288 -0.016193671
-0.015734883 0.00127 -0.015845571
0.006743521 0.00127 -0.00087721529
0.013314132 -0.00127 -0.0022696203
0.022651315 0.00090714288 -0.0022696203
-0.025072066 0.00090714288 -0.0022696203
-0.019884741 -0.00018142856 -0.00018101276
-0.026455352 0.00127 -0.016193671
-0.0053602345 -0.00127 -0.016889874
0.024726244 -0.00018142856 -0.015149368
-0.023688778 -0.00090714288 -0.017237976
-0.0081268074 0.00127 -0.017237976
0.030605212 0.00018142856 -0.020370888
0.030605212 0.00018142856 -0.0081873424
-0.00017291079 -0.00127 -0.0019215192
0.033025961 -0.00127 -0.00018101276
0.024380423 -0.00127 -0.015497469
-0.028530281 0.00054428569 -0.015497469
-0.017809812 0.00018142856 -0.0099278484
0.020230563 0.00127 -0.016889874
-0.017809812 0.00090714288 -0.0022696203
0.027838638 0.00018142856 0.0012113923
-0.0053602345 -0.00018142856 0.0022556961
-0.0091642719 0.00018142856 -0.015149368
0.022997135 0.00127 -0.015845571
-0.03233432 0.00018142856 -0.015845571
0.027838638 -0.00018142856 -0.009579747
-0.0098559158 0.00127 -0.015845571
-0.020230563 -0.00018142856 -0.022459494
-0.015043239 0.00018142856 -0.0036620256
-0.021959672 -0.00018142856 -0.015149368
0.021959672 0.00054428569 -0.015149368
0.020576384 -0.00018142856 0.00086329109
0.005014413 -0.00018142856 -0.0099278484
0.025417887 0.00054428569 -0.015149368
-0.0095100934 0.00018142856 -0.0022696203
-0.010201737 0.00018142856 -0.017934177
-0.00051873241 -0.00090714288 -0.017237976
0.006743521 0.00054428569 -0.016541773
-0.024380423 -0.00054428569 -0.015845571
0.030605212 0.00018142856 0.0015594936
0.035792533 0.00018142856 -0.013756962
-0.011930845 -0.00127 -0.015497469
0.01296831 -0.00127 -0.00018101276
0.015043239 -0.00090714288 -0.00018101276
-0.027838638 -0.00018142856 -0.023155697
0.031988498 0.00090714288 -0.0022696203
-0.012622488 -0.00127 -0.015497469
0.029567746 0.00127 -0.017237976
0.017118169 -0.00127 -0.016193671
0.034409247 0.00090714288 -0.00018101276
0.020230563 0.00018142856 0.00016708851
-0.0095100934 0.00127 -0.0012253165
-0.0077809859 0.00018142856 -0.0064468356
0.024034601 -0.00127 -0.015497469
-0.022305492 0.00127 -0.0022696203
0.027492817 -0.00127 -0.016541773
-0.01296831 0.00127 -0.0015734179
0.010201737 0.00018142856 0.00016708851
-0.027838638 -0.00018142856 0.0015594936
-0.005014413 0.00018142856 0.0019075949
0.0025936619 0.00018142856 -0.014801267
-0.035100892 -0.00127 -0.0022696203
-0.0077809859 0.00018142856 -0.019326583
0.029221924 0.00018142856 -0.0022696203
-0.015043239 0.00018142856 -0.0040101269
-0.025072066 0.00127 -0.017237976
-0.030605212 -0.00127 -0.00087721529
-0.00017291079 -0.00127 -0.0012253165
0.022651315 0.00018142856 -0.019674685
0.021268029 -0.00018142856 -0.015149368
-0.018847277 0.00054428569 -0.017237976
0.0098559158 -0.00018142856 -0.0050544306
0.020576384 -0.00018142856 -0.0078392411
0.035792533 0.00018142856 -0.020370888
-0.021959672 0.00054428569 -0.017237976
-0.005014413 -0.00018142856 -0.0040101269
0.022651315 -0.00018142856 -0.010972152
-0.025417887 -0.00018142856 0.00016708851
-0.035792533 -0.00018142856 -0.002965823
0.034063429 0.00127 -0.00018101276
0.0077809859 -0.00018142856 -0.021067088
-0.028530281 0.00054428569 -0.00052911404
0.031296853 -0.00090714288 -0.015497469
0.035792533 -0.00054428569 -0.016193671
-0.0053602345 0.00127 -0.00087721529
-0.0091642719 -0.00018142856 -0.0022696203
0.0025936619 0.00018142856 -0.016193671
-0.012276666 0.00127 -0.0015734179
0.012276666 0.00090714288 -0.00018101276
0.00051873241 -0.00127 -0.015497469
-0.022651315 0.00090714288 -0.015845571
0.032680139 -0.00127 -0.0019215192
-0.021959672 -0.00090714288 -0.015845571
-0.027492817 0.00018142856 -0.015149368
0.015734883 0.00054428569 -0.015845571
0.017118169 -0.00054428569 -0.015497469
-0.01296831 0.00018142856 -0.014801267
0.030605212 -0.00018142856 -0.00018101276
0.031296853 0.00127 -0.00087721529
0.01089338 0.00127 -0.0015734179
-0.025417887 -0.00054428569 -0.00052911404
0.010201737 0.00127 -0.00018101276
-0.0070893425 0.00127 -0.0019215192
0.018847277 0.00018142856 -0.015149368
-0.0039769481 0.00127 -0.0012253165
0.010201737 -0.00054428569 -0.00052911404
0.017809812 0.00018142856 -0.01027595
0.029221924 0.00127 -0.0022696203
0.0043227701 -0.00018142856 -0.0022696203
-0.018847277 0.00018142856 -0.0022696203
-0.031296853 -0.00127 -0.0019215192
0.006743521 0.00090714288 -0.016889874
-0.015389061 0.00018142856 -0.0064468356
0.01746399 -0.00018142856 -0.0022696203
-0.010201737 0.00018142856 -0.0043582283
-0.029913567 -0.00018142856 -0.0022696203
-0.027492817 0.00127 -0.016541773
-0.027146995 -0.00127 -0.0015734179
-0.028530281 0.00090714288 -0.017237976
0.030605212 -0.00018142856 -0.018282279
-0.010201737 0.00018142856 -0.00018101276
-0.03233432 0.00127 -0.016889874
-0.033371784 -0.00127 -0.0022696203
-0.0070893425 0.00054428569 -0.017237976
0.029913567 0.00127 -0.00087721529
0.022997135 -0.00127 -0.0015734179
-0.022997135 -0.00018142856 -0.0050544306
0.029567746 0.00054428569 -0.0022696203
-0.0091642719 -0.00054428569 -0.016193671
-0.011239202 0.00018142856 -0.0022696203
0.036138356 -0.00090714288 -0.016889874
-0.011585023 0.00127 -0.017237976
0.0043227701 0.00127 -0.016889874
0.033371784 0.00090714288 -0.015497469
-0.0070893425 0.00018142856 -0.016541773
-0.02818446 0.00018142856 -0.01863038
0.0088184504 0.00090714288 -0.016541773
0.0095100934 0.00127 -0.017237976
-0.025763709 -0.00127 -0.015497469
-0.005014413 -0.00018142856 -0.0092316456
-0.033717606 0.00054428569 -0.015497469
-0.035792533 0.00018142856 -0.0060987347
-0.011585023 0.00127 -0.00018101276
0.029567746 -0.00127 -0.016541773
-0.027838638 0.00054428569 -0.0022696203
-0.016426526 0.00090714288 -0.0022696203
-0.027838638 0.00127 -0.017237976
0.014005775 -0.00090714288 -0.0022696203
0.011239202 -0.00054428569 -0.0022696203
-0.035792533 -0.00018142856 -0.0099278484
-0.016772347 -0.00127 -0.0012253165
0.035792533 0.00018142856 -0.018978482
-0.006051878 -0.00127 -0.016541773
0.034409247 0.00127 -0.00018101276
0.0091642719 -0.00054428569 -0.017237976
0.030951032 0.00054428569 -0.00052911404
0.025417887 -0.00127 -0.016193671
-0.010547559 0.00018142856 -0.0022696203
0.017809812 -0.00018142856 -0.023503799
-0.0077809859 0.00018142856 -0.0085354438
0.010201737 -0.00127 -0.0012253165
0.035446715 -0.00018142856 -0.0060987347
-0.027838638 0.00018142856 -0.014453165
-0.0063976995 0.00127 -0.0022696203
-0.022305492 0.00018142856 -0.0022696203
-0.020230563 -0.00018142856 0.00051518978
-0.035792533 0.00018142856 -0.021067088
-0.024034601 0.00018142856 -0.00018101276
-0.029221924 0.00090714288 -0.00018101276
-0.0074351644 0.00018142856 -0.019326583
-0.0032853051 0.00127 -0.0012253165
-0.035446715 -0.00018142856 -0.019326583
-0.02818446 0.00127 -0.00018101276
-0.0095100934 -0.00127 -0.0022696203
0.030951032 0.00018142856 -0.0022696203
0.0077809859 0.00018142856 0.00086329109
-0.035446715 -0.00090714288 -0.0022696203
0.005014413 0.00018142856 -0.017934177
0.01953892 -0.00127 -0.0012253165
-0.036138356 -0.00054428569 -0.017237976
0.020922206 -0.00127 -0.00052911404
0.0084726289 -0.00127 -0.0019215192
-0.02610953 -0.00127 -0.0015734179
0.031296853 -0.00090714288 -0.00018101276
-0.0077809859 0.00018142856 0.00016708851
-0.013659953 -0.00018142856 -0.017237976
-0.030605212 -0.00018142856 0.00016708851
-0.0074351644 -0.00127 -0.0019215192
-0.036484178 -0.00018142856 -0.0022696203
-0.021268029 0.00090714288 -0.017237976
0.027838638 -0.00018142856 -0.0057506333
-0.006743521 0.00018142856 -0.015845571
-0.030259389 0.00054428569 -0.015497469
-0.0029394836 -0.00054428569 -0.0022696203
-0.0025936619 -0.00018142856 0.0015594936
-0.010547559 0.00018142856 -0.016193671
0.0074351644 -0.00054428569 -0.017237976
-0.020576384 0.00018142856 -0.006794937
-0.035446715 0.00018142856 -0.020370888
-0.01296831 -0.00018142856 0.0022556961
0.035446715 -0.00018142856 0.0022556961
-0.035446715 0.00018142856 -0.020022785
0.035792533 0.00090714288 -0.00052911404
-0.021268029 0.00090714288 -0.015845571
-0.022997135 -0.00018142856 -0.022807596
-0.0032853051 0.00090714288 -0.017237976
-0.015389061 -0.00018142856 -0.0040101269
0.014697418 -0.00127 -0.016889874
0.01089338 0.00054428569 -0.015497469
0.01746399 0.00054428569 -0.017237976
-0.0070893425 0.00127 -0.016541773
-0.026455352 -0.00127 -0.016193671
0.026455352 0.00127 -0.0015734179
-0.0077809859 -0.00127 -0.0015734179
0.00017291079 0.00018142856 -0.002965823
0.026455352 0.00090714288 -0.015497469
-0.023342958 -0.00018142856 -0.017237976
-0.033717606 0.00090714288 -0.0022696203
-0.0022478404 0.00127 -0.00087721529
0.033025961 0.00018142856 -0.011320254
-0.0019020188 -0.00018142856 -0.015149368
0.03475507 -0.00090714288 -0.0022696203
0.0081268074 0.00054428569 -0.016541773
0.0025936619 0.00018142856 -0.014453165
0.005014413 -0.00054428569 -0.016541773
0.020230563 -0.00018142856 -0.0081873424
-0.014005775 -0.00054428569 -0.017237976
-0.032680139 -0.00090714288 -0.0022696203
-0.022997135 0.00018142856 -0.009579747
-0.036138356 0.00018142856 -0.00018101276
0.025763709 -0.00054428569 -0.015149368
0.023688778 -0.00018142856 -0.0022696203
0.028530281 0.00054428569 -0.00052911404
-0.029567746 -0.00127 -0.0019215192
0.033025961 0.00018142856 -0.0081873424
-0.030605212 -0.00018142856 -0.0047063292
0.0012103756 0.00127 -0.0022696203
-0.030259389 0.00054428569 -0.016193671
0.019193098 0.00054428569 -0.00052911404
-0.019193098 0.00054428569 -0.00052911404
0.0084726289 0.00090714288 -0.00018101276
0.0095100934 0.00090714288 -0.0022696203
-0.031642675 0.00127 -0.00018101276
-0.015043239 0.00018142856 -0.022807596
0.015043239 0.00018142856 0.0012113923
-0.019884741 0.00090714288 -0.00018101276
0.035446715 0.00018142856 -0.011668355
0.016426526 -0.00127 -0.016193671
0.021268029 0.00090714288 -0.015845571
-0.030605212 0.00090714288 -0.017237976
-0.0046685915 -0.00018142856 -0.015149368
-0.0057060565 0.00127 -0.0012253165
-0.0053602345 -0.00054428569 -0.016541773
0.030259389 0.00018142856 -0.020370888
-0.0088184504 0.00018142856 -0.015845571
0.013314132 0.00054428569 -0.015845571
-0.0039769481 0.00054428569 -0.016889874
-0.015734883 -0.00018142856 -0.015497469
0.020576384 0.00018142856 -0.002965823
-0.025417887 -0.00018142856 -0.014453165
0.020230563 -0.00054428569 -0.015845571
0.0046685915 0.00127 -0.00087721529
-0.023342958 -0.00054428569 -0.0022696203
0.029221924 -0.00018142856 -0.017237976
0.020576384 -0.00090714288 -0.017237976
0.015043239 0.00018142856 -0.01306076
-0.022651315 -0.00018142856 -0.022459494
-0.030259389 0.00018142856 -0.011320254
-0.01746399 0.00018142856 -0.015497469
-0.015389061 -0.00018142856 -0.018282279
0.0081268074 0.00054428569 -0.00052911404
0.020576384 0.00127 -0.016889874
0.015389061 -0.00018142856 -0.014801267
-0.01746399 -0.00054428569 -0.00052911404
0.029913567 -0.00090714288 -0.016193671
0.0025936619 -0.00018142856 -0.023155697
-0.022997135 0.00018142856 -0.0026177217
-0.033025961 -0.00127 -0.015497469
-0.036484178 -0.00018142856 -0.017237976
-0.01296831 -0.00018142856 -0.018282279
0.0053602345 0.00018142856 -0.0088835442
0.032680139 -0.00090714288 -0.015845571
0.010201737 0.00018142856 -0.012712658
-0.022651315 0.00054428569 -0.015845571
-0.0057060565 0.00127 -0.0019215192
0.026801173 -0.00054428569 -0.017237976
-0.010201737 0.00127 -0.0012253165
-0.035446715 0.00127 -0.0012253165
-0.0036311268 -0.00054428569 -0.0022696203
-0.030259389 0.00127 -0.00087721529
0.0098559158 -0.00054428569 -0.017237976
0.012622488 0.00018142856 -0.0054025319
0.00017291079 -0.00127 -0.0019215192
-0.0081268074 -0.00054428569 -0.0022696203
-0.016426526 0.00054428569 -0.00052911404
-0.027838638 -0.00018142856 -0.0085354438
-0.032680139 -0.00054428569 -0.0022696203
-0.0057060565 0.00090714288 -0.0022696203
0.020576384 0.00127 -0.0015734179
-0.018155634 0.00127 -0.0012253165
-0.005014413 -0.00018142856 -0.017934177
0.00017291079 0.00018142856 -0.017934177
0.025072066 0.00127 -0.00087721529
0.035446715 0.00018142856 0.0022556961
-0.024380423 -0.00090714288 -0.017237976
-0.032680139 -0.00127 -0.016889874
-0.0081268074 0.00090714288 -0.017237976
-0.0022478404 -0.00054428569 -0.016193671
-0.033025961 0.00018142856 -0.0074911397
-0.0029394836 -0.00090714288 -0.016889874
0.035446715 0.00018142856 -0.019674685
-0.027838638 0.00018142856 -0.0085354438
-0.0074351644 -0.00018142856 -0.014105064
0.028530281 -0.00127 -0.016889874
-0.0057060565 -0.00054428569 -0.0022696203
-0.030259389 0.00018142856 -0.012016457
0.017809812 -0.00054428569 -0.015149368
0.022651315 0.00018142856 0.00051518978
0.017809812 0.00127 -0.00018101276
-0.0070893425 0.00127 -0.016889874
-0.033717606 -0.00054428569 -0.017237976
0.0029394836 0.00018142856 -0.016193671
0.0012103756 0.00090714288 -0.00018101276
0.0012103756 0.00127 -0.015149368
-0.0074351644 0.00018142856 -0.011320254
0.022651315 0.00018142856 -0.021763291
-0.015389061 0.00127 -0.00087721529
-0.03475507 -0.00127 -0.016541773
0.00017291079 -0.00054428569 -0.017237976
0.00051873241 -0.00018142856 -0.017237976
-0.020576384 0.00018142856 -0.021763291
0.029567746 -0.00054428569 -0.00052911404
0.030605212 -0.00018142856 -0.018978482
0.0025936619 -0.00127 -0.015497469
0.010201737 0.00018142856 -0.020022785
0.0077809859 -0.00018142856 -0.0085354438
-0.011239202 0.00127 -0.015845571
0.0095100934 0.00054428569 -0.00052911404
0.010201737 -0.00018142856 -0.017934177
0.016426526 -0.00018142856 -0.017237976
0.014697418 0.00018142856 -0.017237976
0.011930845 0.00127 -0.0012253165
0.030259389 0.00054428569 -0.015149368
-0.00017291079 -0.00054428569 -0.017237976
-0.015043239 -0.00127 -0.0019215192
-0.033717606 -0.00127 -0.016889874
-0.027838638 -0.00127 -0.016889874
-0.0025936619 -0.00018142856 -0.0088835442
-0.022651315 -0.00018142856 -0.020718988
-0.016772347 -0.00018142856 -0.015149368
-0.0077809859 -0.00018142856 0.00086329109
0.005014413 -0.00018142856 -0.012364557
-0.011239202 0.00127 -0.017237976
0.01953892 0.00127 -0.0019215192
-0.0025936619 -0.00018142856 -0.014801267
0.035792533 0.00018142856 -0.021763291
0.0022478404 0.00018142856 -0.013756962
0.0025936619 0.00018142856 -0.0050544306
-0.01089338 -0.00090714288 -0.00018101276
0.024726244 0.00018142856 -0.017237976
0.022997135 0.00127 -0.00018101276
-0.028530281 0.00127 -0.016193671
0.021268029 -0.00090714288 -0.00018101276
0.020230563 0.00018142856 -0.009579747
-0.01296831 -0.00054428569 -0.015497469
0.035100892 -0.00090714288 -0.016193671
-0.02818446 -0.00018142856 -0.0092316456
-0.030605212 0.00018142856 -0.012364557
-0.014697418 -0.00054428569 -0.015845571
-0.011239202 -0.00018142856 -0.00018101276
0.0025936619 -0.00054428569 -0.015149368
-0.034063429 -0.00018142856 -0.016193671
-0.012622488 0.00018142856 -0.0071430383
-0.018501455 -0.00018142856 -0.015497469
0.025072066 0.00127 -0.0012253165
-0.028530281 0.00127 -0.00087721529
-0.026801173 0.00127 -0.0022696203
0.0057060565 0.00127 -0.0015734179
-0.0091642719 -0.00127 -0.016541773
0.029913567 0.00018142856 -0.017237976
-0.032680139 0.00127 -0.0022696203
-0.0095100934 0.00018142856 -0.015845571
-0.020922206 -0.00127 -0.00052911404
-0.013314132 0.00054428569 -0.00052911404
-0.022997135 -0.00018142856 -0.020370888
0.027146995 -0.00090714288 -0.017237976
0.0077809859 0.00018142856 -0.01306076
0.030259389 -0.00018142856 -0.0040101269
0.023688778 -0.00018142856 -0.017237976
0.0057060565 0.00054428569 -0.016889874
0.0025936619 -0.00018142856 -0.0036620256
-0.0019020188 0.00127 -0.0015734179
0.021613849 -0.00127 -0.0022696203
0.033025961 0.00018142856 -0.002965823
0.024726244 0.00127 -0.017237976
-0.0063976995 0.00018142856 -0.016193671
-0.0029394836 -0.00127 -0.016193671
-0.0015561972 0.00090714288 -0.0022696203
0.0032853051 -0.00018142856 -0.0022696203
0.005014413 0.00018142856 0.0015594936
0.031642675 -0.00090714288 -0.016541773
-0.033025961 -0.00018142856 -0.013756962
-0.017118169 -0.00090714288 -0.00018101276
0.035792533 -0.00018142856 -0.021067088
0.00017291079 0.00090714288 -0.015149368
-0.022997135 0.00018142856 -0.0081873424
-0.035446715 0.00018142856 -0.01027595
0.036484178 0.00090714288 -0.017237976
0.01296831 -0.00127 -0.017237976
-0.016426526 0.00127 -0.0015734179
0.035100892 0.00127 -0.0015734179
0.020576384 -0.00018142856 -0.002965823
0.00051873241 -0.00054428569 -0.016889874
0.0077809859 -0.00018142856 -0.0088835442
0.012622488 0.00018142856 -0.017586077
0.033025961 0.00018142856 -0.0060987347
0.0015561972 0.00018142856 -0.016193671
-0.0025936619 0.00018142856 0.0019075949
0.018155634 -0.00127 -0.00018101276
0.014005775 0.00090714288 -0.017237976
-0.0046685915 0.00127 -0.016541773
-0.014697418 0.00018142856 -0.015845571
-0.0098559158 0.00090714288 -0.0022696203
0.015389061 -0.00127 -0.0012253165
-0.035792533 0.00018142856 -0.019326583
-0.020576384 -0.00018142856 -0.017934177
0.017809812 0.00127 -0.0012253165
-0.018501455 -0.00090714288 -0.017237976
-0.016080704 0.00018142856 -0.0022696203
-0.035446715 0.00018142856 -0.011320254
-0.015389061 -0.00018142856 0.00016708851
0.015043239 -0.00018142856 -0.014105064
0.015734883 -0.00127 -0.0015734179
-0.011585023 -0.00127 -0.016541773
-0.025417887 -0.00127 -0.016541773
0.027838638 -0.00090714288 -0.017237976
0.0098559158 0.00054428569 -0.016541773
-0.0077809859 0.00127 -0.0012253165
0.035446715 -0.00127 -0.0015734179
0.0053602345 -0.00018142856 0.0022556961
0.035446715 0.00018142856 0.0029518986
0.0012103756 -0.00054428569 -0.016889874
0.0019020188 0.00054428569 -0.00052911404
0.017809812 -0.00054428569 -0.0022696203
0.035100892 0.00054428569 -0.0022696203
-0.01296831 0.00090714288 -0.017237976
0.031642675 -0.00090714288 -0.0022696203
0.0022478404 0.00127 -0.016889874
-0.00017291079 -0.00018142856 -0.0060987347
0.027838638 0.00054428569 -0.00052911404
-0.020576384 0.00018142856 -0.022111394
0.015389061 -0.00054428569 -0.015497469
0.027838638 -0.00127 -0.016889874
0.00017291079 -0.00018142856 -0.01027595
-0.015043239 -0.00054428569 -0.0022696203
0.0098559158 -0.00018142856 -0.019674685
-0.015389061 0.00018142856 -0.014801267
0.014351596 -0.00127 -0.016193671
0.0025936619 -0.00018142856 -0.00018101276
-0.030605212 -0.00090714288 -0.0022696203
-0.0074351644 -0.00018142856 -0.020370888
-0.0015561972 -0.00054428569 -0.015845571
0.017809812 0.00018142856 -0.0040101269
-0.0095100934 -0.00127 -0.00087721529
-0.024726244 0.00018142856 -0.00018101276
-0.017809812 -0.00018142856 -0.012712658
-0.018501455 -0.00090714288 -0.00018101276
0.017809812 -0.00127 -0.00087721529
0.026801173 -0.00018142856 -0.015149368
0.0039769481 -0.00018142856 -0.017237976
-0.020576384 0.00018142856 -0.020022785
0.011930845 -0.00127 -0.015845571
-0.027838638 -0.00018142856 -0.0033139242
0.00086455396 0.00090714288 -0.00018101276
-0.03475507 -0.00127 -0.0022696203
-0.0095100934 -0.00018142856 -0.017237976
-0.022651315 0.00054428569 -0.0022696203
0.030605212 -0.00090714288 -0.0022696203
-0.027146995 -0.00054428569 -0.017237976
-0.030605212 0.00018142856 0.0026037975
0.012622488 -0.00018142856 -0.023155697
-0.024726244 0.00018142856 -0.015497469
-0.02818446 0.00127 -0.016193671
0.027146995 0.00127 -0.015149368
0.018155634 0.00054428569 -0.015497469
-0.017809812 -0.00018142856 -0.020370888
0.025072066 0.00127 -0.015845571
-0.0063976995 0.00054428569 -0.015149368
-0.00017291079 0.00018142856 -0.0064468356
-0.013659953 -0.00090714288 -0.0022696203
0.0070893425 -0.00127 -0.016193671
-0.015389061 -0.00018142856 0.0022556961
0.010547559 0.00127 -0.00018101276
-0.014005775 0.00127 -0.0022696203
-0.024034601 -0.00018142856 -0.00018101276
-0.011930845 0.00127 -0.015845571
-0.0019020188 -0.00127 -0.017237976
-0.0077809859 -0.00018142856 -0.018282279
-0.01089338 0.00018142856 -0.017237976
0.00017291079 0.00018142856 -0.023155697
0.019884741 0.00090714288 -0.00018101276
0.0098559158 0.00018142856 -0.00018101276
-0.015043239 -0.00018142856 -0.01027595
0.0077809859 -0.00018142856 -0.021415191
0.035446715 0.00018142856 -0.0033139242
0.030605212 -0.00018142856 -0.020370888
-0.034063429 -0.00090714288 -0.016541773
0.0081268074 -0.00018142856 -0.015149368
-0.036138356 0.00018142856 -0.015845571
0.011930845 0.00054428569 -0.00052911404
-0.023688778 -0.00127 -0.016889874
-0.01953892 0.00018142856 -0.015845571
-0.0036311268 0.00054428569 -0.016889874
0.035792533 0.00018142856 -0.0081873424
-0.028530281 0.00127 -0.0019215192
0.035100892 0.00127 -0.0019215192
0.011239202 -0.00054428569 -0.017237976
-0.016080704 -0.00127 -0.016541773
-0.0043227701 -0.00018142856 -0.0022696203
-0.014697418 -0.00127 -0.015845571
-0.015389061 -0.00018142856 -0.020718988
0.0091642719 0.00090714288 -0.016541773
0.012622488 0.00018142856 -0.019674685
0.0057060565 -0.00054428569 -0.015497469
0.0053602345 0.00127 -0.00052911404
-0.0074351644 -0.00018142856 -0.017586077
-0.0029394836 -0.00127 -0.00087721529
0.0032853051 0.00127 -0.0012253165
-0.01746399 -0.00127 -0.00087721529
0.033025961 0.00018142856 -0.021415191
0.015043239 -0.00018142856 -0.018282279
-0.022997135 -0.00018142856 0.0012113923
0.033025961 -0.00054428569 -0.0022696203
0.020230563 -0.00054428569 -0.015497469
0.020576384 -0.00018142856 -0.014453165
0.0025936619 -0.00018142856 -0.0064468356
-0.022997135 -0.00018142856 -0.012712658
-0.0019020188 0.00127 -0.015149368
0.0077809859 -0.00018142856 -0.014105064
0.014697418 -0.00090714288 -0.0022696203
-0.025417887 -0.00018142856 -0.023503799
0.03475507 -0.00018142856 -0.00018101276
-0.020230563 -0.00054428569 -0.017586077
0.0039769481 -0.00127 -0.00052911404
-0.0077809859 -0.00018142856 -0.0057506333
0.015389061 0.00018142856 0.00051518978
-0.031642675 0.00018142856 -0.016541773
0.022651315 0.00018142856 -0.010972152
-0.033025961 0.00018142856 -0.017934177
0.01953892 -0.00018142856 -0.017237976
-0.0029394836 -0.00054428569 -0.017237976
0.010547559 -0.00090714288 -0.016541773
-0.016080704 -0.00090714288 -0.017237976
0.031642675 0.00090714288 -0.015845571
-0.0077809859 0.00018142856 0.00051518978
-0.0015561972 -0.00127 -0.016193671
0.010547559 0.00127 -0.00087721529
-0.027838638 -0.00127 -0.00087721529
-0.013659953 0.00018142856 -0.015149368
-0.022651315 -0.00018142856 -0.012364557
0.021613849 0.00127 -0.017237976
0.0012103756 0.00090714288 -0.015149368
0.023342958 -0.00090714288 -0.0022696203
-0.017118169 -0.00127 -0.0019215192
0.01089338 0.00127 -0.016889874
-0.0057060565 -0.00127 -0.00087721529
-0.00017291079 0.00018142856 -0.022459494
-0.030259389 0.00018142856 0.0012113923
0.017118169 0.00018142856 -0.015149368
0.00017291079 -0.00018142856 -0.0057506333
-0.0091642719 -0.00090714288 -0.017237976
-0.0091642719 0.00127 -0.0019215192
-0.0032853051 0.00127 -0.015497469
-0.01746399 -0.00090714288 -0.0022696203
-0.020576384 -0.00018142856 -0.021415191
0.0077809859 0.00018142856 -0.0047063292
0.029913567 0.00127 -0.0022696203
-0.029913567 -0.00127 -0.0019215192
-0.02818446 -0.00018142856 -0.014453165
-0.022651315 -0.00018142856 -0.022111394
0.0074351644 0.00018142856 -0.012364557
-0.0074351644 0.00018142856 -0.0092316456
0.023688778 -0.00018142856 -0.00018101276
0.027146995 -0.00127 -0.017237976
-0.031642675 -0.00127 -0.016889874
-0.0070893425 0.00018142856 -0.015845571
-0.029221924 -0.00018142856 -0.017237976
-0.020922206 -0.00054428569 -0.0022696203
-0.00017291079 -0.00018142856 -0.011320254
0.017809812 0.00018142856 -0.01863038
-0.028530281 0.00127 -0.016541773
0.018155634 -0.00090714288 -0.016193671
-0.028876103 0.00090714288 -0.00018101276
-0.005014413 -0.00054428569 -0.01863038
0.0077809859 0.00018142856 -0.010624051
0.020576384 -0.00018142856 0.0012113923
0.0074351644 -0.00018142856 -0.0064468356
0.028876103 0.00018142856 -0.017237976
0.023342958 0.00127 -0.0012253165
0.020576384 -0.00127 -0.0022696203
0.015043239 -0.00018142856 -0.0036620256
0.030605212 -0.00018142856 -0.0043582283
-0.027838638 0.00018142856 -0.0088835442
-0.036484178 0.00054428569 -0.00052911404
0.015389061 -0.00018142856 -0.017586077
0.029221924 -0.00018142856 -0.00018101276
-0.027838638 0.00127 -0.016193671
-0.020576384 -0.00127 -0.015845571
-0.0022478404 -0.00127 -0.016541773
-0.025417887 -0.00018142856 0.0022556961
0.023342958 0.00127 -0.00018101276
-0.028530281 -0.00127 -0.00087721529
-0.022305492 0.00127 -0.016193671
0.0084726289 0.00054428569 -0.015149368
-0.0046685915 0.00127 -0.0015734179
0.00086455396 -0.00054428569 -0.015149368
0.030951032 0.00054428569 -0.0022696203
0.015389061 0.00018142856 -0.006794937
0.035100892 -0.00127 -0.0019215192
0.030259389 -0.00090714288 -0.00018101276
-0.0074351644 -0.00090714288 -0.017237976
-0.025763709 -0.00127 -0.017237976
-0.02818446 -0.00018142856 -0.002965823
-0.018501455 -0.00127 -0.00018101276
-0.011930845 -0.00127 -0.017237976
0.02818446 0.00127 -0.0015734179
0.027146995 0.00054428569 -0.00052911404
-0.030605212 -0.00127 -0.016541773
0.0019020188 -0.00054428569 -0.0022696203
-0.017809812 0.00018142856 -0.0047063292
0.0046685915 -0.00127 -0.016541773
-0.016426526 0.00127 -0.0022696203
-0.0025936619 0.00054428569 -0.016889874
0.018501455 -0.00054428569 -0.017237976
0.006051878 -0.00054428569 -0.015149368
-0.015389061 0.00054428569 -0.00052911404
-0.01089338 -0.00127 -0.0022696203
0.011585023 -0.00054428569 -0.015497469
0.0032853051 -0.00127 -0.00052911404
-0.0022478404 0.00054428569 -0.0022696203
-0.022997135 -0.00018142856 -0.0081873424
-0.024380423 -0.00090714288 -0.015845571
-0.030605212 0.00018142856 -0.017934177
0.015043239 0.00018142856 -0.022807596
-0.010547559 0.00090714288 -0.016541773
0.033371784 -0.00054428569 -0.016889874
0.036138356 0.00018142856 -0.0022696203
-0.03475507 -0.00054428569 -0.017237976
0.021613849 0.00127 -0.0015734179
-0.015389061 0.00054428569 -0.017237976
-0.0074351644 0.00127 -0.00087721529
-0.0074351644 0.00090714288 -0.015497469
0.020230563 0.00018142856 -0.022459494
-0.00017291079 0.00127 -0.016541773
0.022651315 -0.00018142856 -0.006794937
0.0084726289 -0.00054428569 -0.0022696203
-0.025417887 0.00018142856 0.0026037975
-0.025417887 0.00018142856 -0.010624051
0.015043239 -0.00090714288 -0.016193671
-0.030259389 -0.00018142856 0.0015594936
-0.020230563 -0.00018142856 -0.0099278484
0.0077809859 -0.00018142856 -0.012364557
-0.022651315 0.00018142856 -0.002965823
-0.015043239 0.00018142856 -0.01027595
0.031296853 0.00090714288 -0.0022696203
-0.035792533 0.00018142856 -0.011668355
0.027838638 -0.00018142856 -0.018282279
-0.030951032 0.00127 -0.016541773
-0.00086455396 0.00054428569 -0.0022696203
-0.012622488 0.00127 -0.0022696203
0.0025936619 -0.00054428569 -0.017586077
-0.03475507 -0.00127 -0.017237976
-0.031642675 -0.00127 -0.0019215192
0.012622488 0.00018142856 -0.010972152
-0.023342958 0.00127 -0.00087721529
-0.0053602345 -0.00018142856 0.00051518978
-0.0025936619 0.00018142856 0.0022556961
0.01746399 0.00054428569 -0.015497469
0.015389061 -0.00018142856 -0.021067088
-0.0070893425 -0.00090714288 -0.017237976
-0.02818446 0.00018142856 -0.0081873424
-0.025763709 -0.00127 -0.016193671
-0.027838638 0.00018142856 0.0019075949
0.0095100934 -0.00018142856 -0.015149368
0.035792533 -0.00090714288 -0.00087721529
-0.0070893425 0.00090714288 -0.0022696203
-0.022651315 0.00018142856 -0.021067088
-0.029567746 0.00127 -0.00052911404
-0.031296853 -0.00127 -0.016541773
0.032680139 -0.00090714288 -0.015497469
0.01296831 0.00018142856 -0.014453165
-0.035446715 -0.00018142856 -0.022459494
0.0036311268 0.00090714288 -0.016889874
-0.03233432 -0.00127 -0.0022696203
-0.0074351644 -0.00018142856 -0.022807596
0.0022478404 0.00018142856 -0.012364557
0.035792533 0.00018142856 0.00016708851
0.019884741 0.00018142856 -0.0022696203
-0.021613849 0.00054428569 -0.015497469
0.0043227701 -0.00054428569 -0.015845571
0.035100892 -0.00018142856 -0.0022696203
-0.00051873241 0.00018142856 -0.0022696203
0.017118169 -0.00018142856 -0.017237976
-0.036484178 -0.00054428569 -0.016541773
0.024034601 -0.00127 -0.0019215192
0.018847277 -0.00054428569 -0.00052911404
0.0022478404 0.00018142856 0.00086329109
-0.012622488 -0.00018142856 -0.013756962
-0.012622488 0.00018142856 -0.018978482
-0.018155634 -0.00018142856 -0.0022696203
0.03475507 0.00090714288 -0.016193671
-0.025417887 0.00018142856 -0.020370888
0.022305492 -0.00127 -0.0019215192
-0.0015561972 -0.00127 -0.016541773
0.020576384 -0.00018142856 -0.023155697
-0.023342958 -0.00127 -0.0019215192
-0.024726244 0.00090714288 -0.00018101276
-0.01296831 -0.00018142856 -0.0081873424
0.024380423 0.00090714288 -0.00018101276
0.0098559158 -0.00018142856 -0.0064468356
0.0095100934 0.00018142856 -0.0022696203
-0.010547559 -0.00054428569 -0.016193671
0.021613849 0.00090714288 -0.00018101276
-0.0081268074 -0.00127 -0.00087721529
-0.036138356 0.00090714288 -0.00018101276
-0.0074351644 -0.00127 -0.017237976
-0.005014413 -0.00018142856 -0.020718988
-0.0053602345 -0.00018142856 -0.010972152
0.035446715 0.00018142856 -0.0099278484
-0.033371784 0.00054428569 -0.015497469
-0.016080704 -0.00127 -0.0019215192
-0.0074351644 0.00018142856 -0.0060987347
-0.02818446 -0.00018142856 -0.021415191
-0.018501455 -0.00018142856 -0.00018101276
-0.030951032 -0.00127 -0.0022696203
0.010201737 -0.00018142856 -0.023503799
0.035100892 -0.00054428569 -0.017237976
0.030951032 0.00090714288 -0.016193671
-0.0036311268 -0.00127 -0.017237976
0.029913567 0.00090714288 -0.016889874
-0.035446715 0.00018142856 -0.0088835442
-0.0081268074 -0.00127 -0.0012253165
0.018847277 -0.00018142856 -0.017237976
-0.024726244 0.00054428569 -0.0022696203
0.0074351644 -0.00018142856 -0.018282279
0.0070893425 -0.00090714288 -0.00018101276
0.036830001 0.00054428569 -0.00087721529
-0.0077809859 -0.00018142856 -0.0064468356
-0.014351596 -0.00018142856 -0.015149368
0.033371784 0.00090714288 -0.016193671
-0.035446715 0.00054428569 -0.015497469
0.011930845 -0.00090714288 -0.0022696203
-0.015389061 0.00018142856 -0.013756962
-0.011930845 -0.00054428569 -0.017237976
-0.011239202 0.00127 -0.016889874
-0.00086455396 -0.00054428569 -0.015149368
0.00017291079 -0.00018142856 -0.017586077
-0.00017291079 0.00054428569 -0.015149368
-0.01953892 0.00018142856 -0.0022696203
-0.0070893425 -0.00054428569 -0.016541773
0.0043227701 0.00018142856 -0.00018101276
0.00086455396 0.00127 -0.00018101276
0.027838638 0.00018142856 -0.002965823
0.020230563 0.00018142856 -0.018978482
-0.00017291079 -0.00018142856 0.0015594936
-0.00051873241 0.00018142856 -0.015845571
-0.035792533 -0.00127 -0.0012253165
0.022997135 -0.00018142856 -0.020370888
-0.011239202 0.00127 -0.0019215192
0.030605212 0.00018142856 -0.013408861
0.0039769481 0.00127 -0.00052911404
0.025763709 0.00090714288 -0.017237976
0.0074351644 -0.00018142856 -0.0099278484
-0.027146995 -0.00090714288 -0.017237976
0.020230563 0.00090714288 -0.00018101276
0.0070893425 -0.00127 -0.017237976
0.028530281 -0.00127 -0.0022696203
0.0074351644 -0.00018142856 -0.014105064
-0.0039769481 -0.00127 -0.015497469
-0.018501455 0.00018142856 -0.00018101276
-0.020230563 -0.00018142856 0.0022556961
-0.019884741 -0.00018142856 -0.0022696203
0.0098559158 -0.00018142856 0.0015594936
0.016080704 0.00090714288 -0.016193671
-0.0077809859 -0.00054428569 -0.015149368
0.028876103 -0.00127 -0.016541773
-0.022997135 0.00018142856 -0.012712658
0.00017291079 -0.00018142856 -0.0033139242
0.011239202 -0.00127 -0.0022696203
0.0057060565 0.00090714288 -0.0022696203
-0.030259389 0.00018142856 -0.021067088
