# .PCD v0.7 - Point Cloud Data file format
VERSION 0.7
FIELDS x y z
SIZE 4 4 4
TYPE F F F
COUNT 1 1 1
WIDTH 1338
HEIGHT 1
VIEWPOINT 0 0 0 1 0 0 0
POINTS 1338
DATA ascii
0.016011722 -0.00084666669 -0.0016493974
0.027690861 0 0.0017771085
-0.017518708 0 -0.01649759
-0.003579091 0 -0.021066265
0.020532679 -0.00084666669 -0.020685542
0.024676891 -0.00042333335 -0.021446988
-0.028821101 -0.00084666669 -0.019924095
-0.017895455 0 -0.02449277
-0.028067607 -0.00127 -0.021066265
-0.0084767947 -0.00127 -0.00050722883
-0.035602536 0 -0.025254216
-0.0050860764 0 -0.020685542
-0.00094186602 0.00042333335 -0.02030482
-0.0028255982 0 -0.0016493974
0.022793159 0.00042333335 -0.021827711
0.026183875 -0.00127 -0.0020301202
0.0073465551 0.00042333335 -0.0012686746
0.019779187 -0.00127 -0.021446988
0.0032023445 0.00127 -0.021446988
0.020909427 -0.00127 -0.020685542
0.037863016 0.00084666669 -0.021066265
-0.026937369 0.00084666669 -0.019924095
0.023546651 0 -0.00050722883
0.014881483 0.00042333335 -0.00050722883
-0.026560623 0 -0.021066265
0.0050860764 -0.00042333335 -0.02449277
-0.023923397 0.00127 -0.0012686746
0.03108158 -0.00042333335 -0.02030482
0.020155933 0.00042333335 -0.018781926
0.016765216 0.00127 -0.0024108433
0.0050860764 0.00127 -0.0012686746
0.0069698086 -0.00127 -0.02030482
0.035979282 0.00127 -0.0008879517
-0.0001883732 -0.00042333335 -0.0024108433
0.03522579 0.00084666669 -0.019924095
-0.028821101 0.00042333335 -0.019543372
0.029197847 0.00084666669 -0.020685542
0.03710952 0.00084666669 -0.020685542
-0.015634976 0 -0.0012686746
0.013374498 0.00084666669 -0.00050722883
-0.005462823 -0.00042333335 -0.0024108433
-0.017895455 -0.00042333335 -0.02030482
-0.029574594 0.00042333335 -0.02030482
-0.028067607 -0.00127 -0.019543372
-0.0050860764 -0.00042333335 -0.0016493974
0.025430383 0.00127 -0.020685542
0.011490766 -0.00042333335 -0.0012686746
-0.03334206 -0.00084666669 -0.0008879517
0.0088535408 0.00042333335 -0.019543372
0.0032023445 -0.00042333335 -0.019162649
0.023546651 0.00127 -0.019924095
0.0050860764 0.00042333335 -0.021446988
0.015634976 0 -0.021446988
0.036356028 0.00042333335 -0.019543372
0.0096070338 0 -0.0008879517
0.0081000477 0.00127 -0.021066265
-0.020155933 0.00042333335 -0.018781926
-0.021662919 -0.00127 -0.0024108433
-0.03296531 0 -0.019543372
0.024300143 0 -0.0008879517
-0.025807129 0.00042333335 -0.019924095
0.0043325839 -0.00042333335 -0.020685542
0.014504737 -0.00042333335 -0.019543372
-0.012621005 0 -0.024873493
0.034849044 0 -0.00050722883
0.02995134 -0.00042333335 -0.0016493974
0.0077233016 -0.00042333335 -0.016878312
0.032211818 0.00042333335 -0.020685542
-0.016011722 0 -0.00050722883
-0.0032023445 -0.00042333335 -0.0008879517
0.026937369 0.00084666669 -0.021066265
-0.00056511961 -0.00127 -0.0024108433
0.021662919 0 -0.021446988
-0.0028255982 -0.00042333335 -0.021066265
0.0077233016 0 -0.015736144
0.034849044 0.00042333335 -0.0012686746
0.03108158 -0.00084666669 -0.0012686746
-0.027314115 -0.00042333335 -0.0008879517
0.028067607 0 -0.015355421
-0.037863016 0.00042333335 -0.0016493974
0.03522579 -0.00127 -0.021446988
0.011114019 -0.00042333335 -0.0024108433
-0.012621005 -0.00084666669 -0.0008879517
0.014881483 0.00127 -0.021446988
-0.025807129 0.00042333335 -0.00050722883
-0.016765216 0.00042333335 -0.021066265
0.012244259 -0.00042333335 -0.019543372
-0.006216316 0.00127 -0.0020301202
-0.020532679 0 -0.017259035
0.025430383 0 0.0013963856
-0.005462823 -0.00127 -0.00050722883
0.029574594 0.00084666669 -0.00050722883
0.011490766 -0.00127 -0.0012686746
-0.0077233016 0 -0.024873493
-0.019025695 0.00084666669 -0.0020301202
0.003579091 0.00042333335 -0.021446988
0.03522579 0.00127 -0.0008879517
-0.0043325839 0 -0.019162649
0.022793159 -0.00042333335 -0.018401204
0.015634976 0 -0.021066265
0.020909427 0.00127 -0.00050722883
-0.03748627 -0.00127 -0.0016493974
-0.023169905 -0.00127 -0.0020301202
-0.017895455 0 -0.013451807
-0.028444355 -0.00127 -0.0008879517
-0.020155933 0 -0.023350602
-0.025430383 -0.00084666669 -0.019924095
0.017895455 0 -0.0096445782
0.0050860764 0.00127 -0.021446988
-0.031835072 0.00084666669 -0.0024108433
0.016388468 -0.00042333335 -0.019924095
-0.027314115 -0.00042333335 -0.0024108433
0.020532679 0 -0.015355421
0.016011722 0.00127 -0.0024108433
-0.0001883732 0 -0.011548192
-0.035602536 0 0.0025385541
-0.010360527 0 0.00025421695
0.020155933 0 -0.015736144
0.0088535408 0.00084666669 -0.00050722883
-0.037863016 0 0.0010156627
-0.029574594 0.00042333335 -0.0020301202
0.022793159 -0.00127 -0.019924095
0.017895455 0.00084666669 -0.0016493974
-0.0024488517 0 -0.0043144575
0.038239762 -0.00127 -0.019924095
0.020909427 -0.00084666669 -0.00050722883
0.013751244 -0.00042333335 -0.019924095
-0.023169905 0.00084666669 -0.0016493974
0.026183875 0 -0.02030482
0.0043325839 0.00042333335 -0.0024108433
-0.0077233016 0 -0.0012686746
0.031835072 -0.00127 -0.019543372
-0.0099837799 0 -0.0027915661
0.028821101 0 -0.0020301202
0.020155933 0 -0.0008879517
-0.022793159 0 -0.021066265
0.03108158 0 -0.0016493974
0.017518708 0 -0.0043144575
0.0077233016 0 0.0017771085
0.012997751 0 -0.0008879517
-0.017518708 -0.00042333335 -0.0008879517
-0.038239762 -0.00042333335 -0.019924095
0.0039558373 -0.00084666669 -0.0016493974
-0.0099837799 0.00042333335 -0.021066265
0.01525823 0 -0.0054566264
0.0039558373 0.00084666669 -0.00012650594
0.0092302868 0 -0.021066265
-0.00094186602 -0.00127 -0.0008879517
0.0001883732 0 -0.014593976
-0.0099837799 0 -0.0077409637
0.024300143 0 -0.0012686746
0.014504737 -0.00127 -0.019924095
0.013751244 0.00127 -0.00050722883
-0.011867512 0.00127 -0.0020301202
0.03334206 0.00084666669 -0.021066265
-0.020532679 0.00127 -0.00012650594
0.011114019 -0.00084666669 -0.0020301202
0.019025695 0.00042333335 -0.0020301202
-0.0058395695 0.00084666669 -0.00050722883
-0.0084767947 -0.00084666669 -0.0016493974
0.0039558373 -0.00084666669 -0.0008879517
0.0077233016 0 -0.010406024
-0.026937369 0 -0.019162649
0.027690861 0 -0.014593976
-0.025430383 0.00084666669 -0.00012650594
0.0001883732 -0.00042333335 -0.021827711
-0.023169905 0 -0.0020301202
0.027314115 0.00127 -0.021066265
-0.020155933 0 -0.02449277
0.0073465551 0 -0.015736144
-0.025053637 0.00127 -0.0016493974
0.017518708 0 -0.021446988
0.035602536 0.00127 -0.0008879517
-0.034472298 0.00042333335 -0.020685542
-0.012997751 0 -0.019924095
-0.0039558373 0 -0.02030482
0.0096070338 0.00127 -0.021066265
-0.0024488517 -0.00084666669 -0.0012686746
0.0077233016 0 -0.023350602
-0.0024488517 0.00042333335 -0.021446988
0.0024488517 0 -0.0054566264
-0.01525823 -0.00084666669 -0.00012650594
0.034472298 -0.00042333335 -0.00050722883
0.0065930621 0.00127 -0.02030482
0.021286173 0.00042333335 -0.019924095
0.016011722 -0.00127 -0.0008879517
0.032588564 0.00127 -0.0020301202
-0.0013186125 -0.00042333335 -0.00050722883
-0.03108158 0.00127 -0.0016493974
0.025053637 0.00127 -0.021066265
0.0092302868 0.00042333335 -0.020685542
0.026183875 -0.00084666669 -0.019924095
0.025430383 -0.00042333335 -0.00050722883
-0.020155933 0.00127 -0.0020301202
0.0077233016 0.00084666669 -0.0012686746
-0.038239762 0.00042333335 -0.0008879517
0.02995134 0.00084666669 -0.020685542
-0.03710952 0.00084666669 -0.0012686746
0.0043325839 0.00042333335 -0.0016493974
-0.021662919 0.00042333335 -0.021066265
0.028067607 0 -0.0077409637
0.0077233016 0 -0.019162649
-0.025807129 -0.00084666669 -0.019924095
0.0050860764 -0.00042333335 -0.00050722883
-0.034849044 -0.00084666669 -0.0024108433
-0.028067607 0.00084666669 -0.0020301202
-0.03748627 0 -0.019924095
-0.019025695 -0.00084666669 -0.00050722883
0.0077233016 -0.00084666669 -0.021446988
-0.014504737 -0.00084666669 -0.021066265
0.025807129 -0.00127 -0.00012650594
-0.012621005 0 -0.023731325
-0.014504737 0.00084666669 -0.0020301202
-0.03296531 0 0.0017771085
-0.0081000477 0 -0.0020301202
0.036356028 0.00084666669 -0.00050722883
0.023546651 -0.00042333335 -0.00050722883
-0.031458326 0.00042333335 -0.0016493974
-0.011490766 -0.00042333335 -0.019543372
0.0092302868 -0.00042333335 -0.02030482
0.035602536 0 -0.022589156
0.012621005 0 -0.023350602
-0.010737273 0.00084666669 -0.021066265
0.0039558373 0.00084666669 -0.0012686746
0.036356028 -0.00084666669 -0.019924095
-0.010360527 -0.00127 -0.0016493974
-0.027314115 0 -0.0020301202
0.021662919 -0.00042333335 -0.019924095
-0.035979282 -0.00127 -0.0008879517
0.0039558373 -0.00127 -0.019543372
0.025430383 0 -0.022589156
-0.017141962 0.00084666669 -0.0012686746
-0.012244259 0 -0.00050722883
0.018648949 -0.00127 -0.0024108433
0.019025695 -0.00084666669 -0.0024108433
0.017895455 0.00042333335 -0.0012686746
-0.0050860764 0 -0.0081216861
-0.026560623 -0.00127 -0.00012650594
0.019779187 -0.00127 -0.020685542
-0.031458326 -0.00084666669 -0.02030482
-0.025053637 0.00127 -0.021066265
-0.020155933 0 -0.026015662
0.037863016 0 -0.020685542
-0.017895455 -0.00127 -0.00050722883
-0.0065930621 -0.00042333335 -0.019162649
-0.024300143 -0.00042333335 -0.021446988
-0.0024488517 0 -0.0046951803
-0.00056511961 0 -0.00012650594
0.018272201 0 -0.0008879517
0.025807129 0.00127 -0.0024108433
0.017518708 -0.00042333335 -0.020685542
-0.0032023445 -0.00042333335 -0.020685542
-0.013374498 -0.00127 -0.0024108433
0.025053637 -0.00127 -0.020685542
0.0039558373 0.00042333335 -0.0020301202
0.036356028 0.00084666669 -0.021066265
0.024300143 -0.00084666669 -0.0008879517
-0.019779187 0.00084666669 -0.0024108433
-0.0058395695 0 -0.0024108433
0.030328088 0 -0.0016493974
0.0073465551 -0.00127 -0.021066265
0.0028255982 0.00042333335 -0.021066265
0.036356028 -0.00084666669 -0.00050722883
-0.038239762 0 -0.010406024
0.020155933 0 -0.024112048
-0.030704834 0 -0.0020301202
0.005462823 -0.00084666669 -0.019162649
0.025807129 0.00042333335 -0.0012686746
-0.028821101 0 -0.019162649
0.03296531 -0.00127 -0.0008879517
-0.020532679 0 -0.012309638
0.0050860764 0 -0.0092638554
0.031835072 0.00127 -0.0024108433
-0.038239762 0.00127 -0.0012686746
-0.0001883732 -0.00042333335 -0.020685542
-0.0073465551 -0.00084666669 -0.021446988
-0.03296531 -0.00084666669 -0.021066265
0.034472298 -0.00042333335 -0.019924095
-0.028821101 0.00127 -0.02030482
-0.017895455 0 -0.02715783
-0.018648949 -0.00127 -0.020685542
0.012997751 0.00127 -0.00012650594
0.021286173 -0.00127 -0.00050722883
0.028444355 -0.00127 -0.021446988
0.016388468 0 -0.0020301202
0.022793159 0 -0.0092638554
0.0073465551 -0.00127 -0.0012686746
-0.014881483 -0.00042333335 -0.021446988
0.03108158 0.00042333335 -0.0016493974
0.036732774 0 -0.0008879517
0.015634976 -0.00042333335 -0.0020301202
0.0099837799 0 -0.019162649
-0.038239762 0 -0.0054566264
-0.03334206 0.00127 -0.0008879517
-0.014504737 -0.00042333335 -0.0020301202
0.030328088 0.00127 -0.0020301202
-0.030328088 0.00127 -0.0016493974
0.029197847 -0.00127 -0.0020301202
-0.034095552 0.00042333335 -0.0024108433
-0.011867512 0.00084666669 -0.00012650594
0.010360527 -0.00127 -0.019924095
0.0043325839 -0.00127 -0.0012686746
0.0016953589 -0.00084666669 -0.019162649
0.022793159 0 -0.024873493
0.034472298 -0.00127 -0.0008879517
0.03748627 0.00127 -0.0012686746
-0.022793159 0 -0.011167469
-0.025430383 -0.00084666669 -0.0008879517
-0.0069698086 0.00042333335 -0.0024108433
-0.021662919 0 -0.021066265
-0.01525823 0 -0.0012686746
0.026937369 0.00127 -0.0020301202
-0.0096070338 -0.00042333335 -0.020685542
0.025430383 0 0.0017771085
0.025807129 0 -0.0012686746
-0.017895455 0.00084666669 -0.021066265
0.020532679 -0.00042333335 -0.00050722883
-0.030704834 0 -0.0054566264
-0.03296531 0 -0.01383253
-0.016388468 -0.00084666669 -0.021066265
-0.010360527 0.00042333335 -0.02030482
-0.0020721052 0.00042333335 -0.020685542
0.031835072 0.00127 -0.021446988
-0.0013186125 0.00042333335 -0.019924095
-0.020909427 0 -0.0016493974
0.01525823 0.00127 -0.021066265
0.020909427 0.00042333335 -0.021066265
0.0050860764 0.00042333335 -0.0008879517
0.024676891 -0.00127 -0.021066265
-0.019402441 0.00127 -0.0008879517
0.03296531 -0.00042333335 -0.0012686746
-0.029197847 -0.00042333335 -0.0024108433
0.034095552 0.00042333335 -0.021066265
-0.025430383 -0.00127 -0.0024108433
0.022039665 0 -0.021446988
-0.031458326 -0.00127 -0.019543372
-0.022793159 -0.00084666669 -0.0016493974
-0.0024488517 0 -0.010406024
0.016011722 0.00084666669 -0.020685542
-0.029574594 0.00042333335 -0.019924095
0.030328088 0 -0.013071083
-0.0024488517 0.00127 -0.00012650594
0.036732774 -0.00127 -0.020685542
0.012997751 0 -0.0073602409
0.02995134 -0.00084666669 -0.0008879517
-0.022416411 0.00084666669 -0.0016493974
-0.010360527 0 -0.0092638554
-0.0020721052 0.00042333335 -0.021446988
-0.032211818 0.00127 -0.0008879517
-0.035979282 -0.00084666669 -0.02030482
0.012997751 0.00127 -0.020685542
0.006216316 0.00042333335 -0.019924095
0.011867512 0.00042333335 -0.021066265
-0.038616508 0.00042333335 -0.02030482
-0.0084767947 -0.00042333335 -0.0024108433
-0.03937 -0.00042333335 -0.0012686746
-0.032588564 -0.00042333335 -0.021066265
-0.034095552 0.00127 -0.0020301202
0.03108158 -0.00042333335 -0.021066265
-0.0050860764 0 -0.015736144
0.025053637 -0.00127 -0.021446988
0.0096070338 0.00084666669 -0.0020301202
0.0077233016 0 -0.014213253
-0.011114019 -0.00127 -0.0012686746
-0.019402441 -0.00084666669 -0.0016493974
-0.013751244 0 -0.020685542
0.0024488517 0.00042333335 -0.022969879
0.028067607 0 -0.0020301202
-0.025807129 0.00127 -0.019543372
-0.0073465551 0 -0.021827711
0.0050860764 0 -0.015736144
0.022416411 -0.00127 -0.019924095
0.024300143 0 -0.00050722883
0.019402441 -0.00042333335 -0.019162649
0.0047093304 -0.00127 -0.00050722883
-0.037863016 0 -0.0085024098
-0.03334206 0.00127 -0.00050722883
-0.037863016 0.00084666669 -0.019543372
-0.022793159 0.00084666669 -0.0016493974
-0.0020721052 0 -0.0024108433
0.005462823 -0.00127 -0.019543372
-0.023923397 0.00127 -0.0008879517
-0.038239762 0 -0.018020481
-0.029574594 0.00042333335 -0.0012686746
-0.0088535408 0 -0.02030482
-0.022793159 0 0.0013963856
0.030704834 -0.00084666669 -0.00050722883
-0.0024488517 0 -0.012309638
-0.0050860764 0 -0.0020301202
-0.029574594 0 -0.0008879517
-0.038239762 0 -0.0043144575
0.012244259 0 -0.00012650594
0.028821101 0.00042333335 -0.0024108433
0.0077233016 0 -0.016116867
-0.0020721052 0.00042333335 -0.0012686746
-0.017518708 0 -0.0077409637
-0.032588564 -0.00084666669 -0.0020301202
0.028067607 0 -0.017639758
-0.030704834 0 -0.019162649
-0.020909427 0.00127 -0.0008879517
0.026560623 -0.00127 -0.0016493974
-0.0050860764 -0.00127 -0.021066265
0.032588564 0.00084666669 -0.00012650594
-0.010360527 0 -0.0054566264
0.0013186125 -0.00042333335 -0.021446988
0.016011722 0.00127 -0.0012686746
0.03710952 0.00084666669 -0.019162649
-0.012621005 0.00084666669 -0.00050722883
-0.025430383 0 -0.022969879
-0.028067607 0.00127 -0.0016493974
-0.00056511961 -0.00127 -0.00050722883
0.018272201 0.00084666669 -0.0016493974
0.038239762 0.00042333335 -0.0016493974
0.019779187 -0.00042333335 -0.0024108433
0.01412799 0.00127 -0.00050722883
0.027690861 0 0.0021578313
0.0024488517 -0.00127 -0.00050722883
-0.022039665 -0.00127 -0.0024108433
-0.0081000477 0 -0.020685542
0.0028255982 0.00042333335 -0.0020301202
0.034095552 0.00084666669 -0.02030482
0.02995134 0.00042333335 -0.021446988
0.0013186125 -0.00042333335 -0.019924095
0.019025695 0.00084666669 -0.019162649
0.016765216 -0.00127 -0.00050722883
0.036732774 0.00042333335 -0.0020301202
-0.018272201 0.00127 -0.0024108433
-0.02995134 -0.00127 -0.0012686746
0.016388468 0.00127 -0.0024108433
-0.011867512 -0.00084666669 -0.0012686746
0.0092302868 0 -0.019924095
0.025430383 -0.00042333335 -0.018781926
-0.023923397 0.00042333335 -0.021446988
-0.012621005 -0.00127 -0.020685542
0.0065930621 -0.00084666669 -0.0008879517
-0.022416411 0 -0.0024108433
-0.022039665 0.00084666669 -0.0012686746
-0.0058395695 -0.00084666669 -0.0016493974
0.030704834 -0.00127 -0.019543372
0.021286173 0.00042333335 -0.020685542
0.02995134 -0.00127 -0.0012686746
0.0073465551 0 -0.0092638554
0.019779187 0 -0.021446988
0.025430383 0 -0.0077409637
-0.020532679 0.00127 -0.021066265
-0.01525823 -0.00127 -0.0012686746
0.033718806 -0.00042333335 -0.02030482
-0.025430383 -0.00042333335 -0.020685542
-0.005462823 0.00042333335 -0.019543372
-0.0084767947 -0.00042333335 -0.019543372
-0.019402441 0.00127 -0.00012650594
-0.024676891 -0.00127 -0.0012686746
0.0084767947 0 -0.019162649
0.024676891 -0.00127 -0.020685542
-0.038616508 0 -0.02030482
-0.022039665 0.00084666669 -0.00012650594
0.025807129 0.00084666669 -0.021066265
0.024676891 0.00084666669 -0.0012686746
0.01412799 -0.00084666669 -0.0024108433
-0.035602536 -0.00042333335 -0.0008879517
0.020532679 0 -0.02030482
-0.034095552 -0.00084666669 -0.021066265
-0.020155933 0 -0.0012686746
0.018648949 -0.00084666669 -0.021066265
0.00094186602 0 -0.021446988
0.0024488517 0 -0.021066265
-0.00056511961 -0.00084666669 -0.0024108433
0.022416411 0.00084666669 -0.0008879517
-0.029574594 0.00127 -0.019924095
0.026560623 -0.00084666669 -0.0008879517
-0.0050860764 -0.00042333335 -0.019543372
0.03748627 0.00042333335 -0.00050722883
0.024300143 0.00042333335 -0.020685542
-0.037863016 0.00042333335 -0.02030482
-0.038239762 0 -0.027538553
0.0032023445 0.00042333335 -0.019924095
-0.028444355 0 -0.019543372
-0.0039558373 0.00042333335 -0.0012686746
-0.0099837799 0 -0.0050759036
0.016765216 0.00084666669 -0.0024108433
-0.029197847 0.00127 -0.00012650594
0.0039558373 0 -0.0020301202
0.010737273 0.00127 -0.02030482
0.028821101 0.00084666669 -0.020685542
0.016388468 -0.00042333335 -0.021446988
0.031835072 0.00127 -0.0008879517
-0.024676891 -0.00042333335 -0.0016493974
0.034095552 -0.00042333335 -0.0012686746
-0.028067607 -0.00127 -0.019924095
-0.017895455 -0.00127 -0.021446988
-0.021286173 -0.00084666669 -0.0020301202
-0.020155933 0 -0.026396384
0.0016953589 -0.00084666669 -0.0024108433
0.0058395695 0 -0.00050722883
0.037863016 -0.00042333335 -0.021066265
-0.012621005 0 -0.020685542
-0.0092302868 0.00042333335 -0.0016493974
0.026937369 0.00084666669 -0.02030482
-0.0099837799 0 -0.0046951803
0.020155933 0 -0.013071083
-0.012621005 0 0.00063493982
-0.0065930621 -0.00127 -0.0016493974
-0.012621005 0.00042333335 -0.020685542
0.0084767947 0.00127 -0.0012686746
0.022793159 0 -0.0073602409
-0.0092302868 -0.00084666669 -0.021446988
0.019779187 0.00127 -0.0012686746
0.027690861 0 -0.0020301202
-0.037863016 0.00127 -0.019543372
0.020155933 0 -0.018020481
0.018648949 -0.00084666669 -0.020685542
0.025430383 0 -0.014974698
0.03296531 0 -0.013071083
-0.022793159 -0.00127 -0.0016493974
0.0024488517 0 0.0021578313
0.033718806 0 -0.0020301202
0.035979282 0.00042333335 -0.02030482
0.0020721052 0.00127 -0.0024108433
0.020532679 0 -0.0050759036
-0.005462823 0.00084666669 -0.0024108433
-0.034095552 0.00084666669 -0.00050722883
0.0001883732 -0.00127 -0.019543372
-0.0032023445 -0.00042333335 -0.019924095
0.0099837799 0.00042333335 -0.0024108433
0.0013186125 -0.00042333335 -0.0020301202
0.0024488517 0 -0.014213253
-0.03522579 -0.00084666669 -0.021446988
-0.0084767947 -0.00127 -0.0008879517
0.0028255982 -0.00127 -0.0020301202
-0.026937369 0.00042333335 -0.021446988
0.026937369 -0.00084666669 -0.00012650594
0.038239762 0.00127 -0.02030482
0.023546651 0.00084666669 -0.019543372
-0.031835072 -0.00084666669 -0.0012686746
0.025430383 0 -0.027538553
0.01525823 0 -0.0050759036
-0.03522579 0.00042333335 -0.02030482
-0.0020721052 0.00042333335 -0.00050722883
-0.0050860764 -0.00084666669 -0.0024108433
-0.036356028 -0.00127 -0.021446988
0.010737273 -0.00127 -0.019924095
-0.012997751 0.00042333335 -0.0008879517
-0.0084767947 0 -0.02030482
0.026560623 -0.00042333335 -0.021446988
0.0043325839 0.00127 -0.021066265
0.0084767947 0 -0.00012650594
-0.020909427 -0.00127 -0.0020301202
0.019025695 0.00127 -0.021066265
-0.0016953589 0.00127 -0.0012686746
-0.0001883732 0 -0.006218072
0.027690861 0 -0.018781926
-0.022039665 -0.00127 -0.00012650594
0.035602536 0 -0.013451807
-0.0073465551 0.00042333335 -0.0024108433
-0.018648949 0.00127 -0.0012686746
0.0024488517 0 0.0029192772
-0.023546651 0 -0.019543372
0.0073465551 0 -0.022969879
-0.034849044 -0.00042333335 -0.0008879517
0.027690861 0 -0.024112048
0.020155933 0.00127 -0.02030482
0.017518708 0 -0.01649759
-0.038239762 0.00084666669 -0.0016493974
0.0092302868 0.00042333335 -0.021446988
0.0081000477 0.00084666669 -0.0008879517
-0.03334206 -0.00042333335 -0.019162649
-0.026183875 0.00084666669 -0.0020301202
-0.03296531 -0.00084666669 -0.02030482
0.017518708 0 -0.023350602
-0.0001883732 -0.00042333335 -0.02030482
0.024300143 -0.00042333335 -0.020685542
-0.022793159 0 -0.0092638554
0.0016953589 0.00127 -0.00050722883
-0.022416411 0.00084666669 -0.0020301202
0.020909427 0.00084666669 -0.019162649
0.022039665 -0.00127 -0.0012686746
-0.03710952 0 -0.019924095
0.033718806 0 -0.0008879517
0.032588564 0 -0.0008879517
-0.03296531 -0.00042333335 -0.00050722883
-0.023169905 0.00042333335 -0.0020301202
0.030704834 0 0.0010156627
-0.00056511961 0 -0.02030482
-0.026937369 0 -0.019543372
0.014504737 -0.00042333335 -0.019162649
-0.0043325839 0.00042333335 -0.0012686746
-0.019025695 -0.00084666669 -0.0020301202
-0.026937369 -0.00042333335 -0.0016493974
0.019402441 0 -0.00050722883
0.020909427 0 -0.00012650594
-0.034849044 0.00127 -0.0020301202
-0.017895455 0 -0.01383253
0.0001883732 0 -0.0096445782
0.038616508 0.00127 -0.00050722883
0.021286173 -0.00084666669 -0.020685542
-0.0069698086 0.00042333335 -0.021066265
0.034472298 -0.00127 -0.02030482
0.03334206 0.00127 -0.019924095
0.012997751 0 -0.021066265
0.005462823 -0.00127 -0.00012650594
-0.034472298 0 -0.021446988
0.0013186125 0.00042333335 -0.019924095
0.027690861 0.00042333335 -0.02030482
0.0058395695 -0.00084666669 -0.0024108433
-0.026560623 -0.00042333335 -0.019543372
0.023169905 0 -0.0020301202
-0.03710952 -0.00127 -0.020685542
-0.03710952 0.00042333335 -0.0012686746
0.031458326 -0.00042333335 -0.021446988
0.027314115 -0.00127 -0.020685542
-0.012244259 -0.00042333335 -0.02030482
-0.0050860764 0 -0.0024108433
0.026183875 -0.00042333335 -0.019543372
-0.030704834 0 -0.0058373492
-0.025430383 0.00042333335 -0.020685542
0.025053637 -0.00084666669 -0.020685542
-0.030328088 0 0.0010156627
-0.0092302868 -0.00042333335 -0.00050722883
-0.030328088 -0.00084666669 -0.019924095
-0.022416411 0 -0.021446988
0.025053637 0 -0.019162649
-0.020532679 0.00042333335 -0.0016493974
-0.0032023445 0.00042333335 -0.019162649
-0.0024488517 0 -0.0024108433
-0.0013186125 -0.00084666669 -0.00050722883
-0.028067607 0.00084666669 -0.0024108433
0.017141962 0.00084666669 -0.019924095
-0.025430383 0 -0.0085024098
0.035979282 0.00084666669 -0.0016493974
-0.00094186602 -0.00127 -0.0012686746
-0.020155933 0.00084666669 -0.00050722883
-0.025430383 -0.00042333335 -0.021446988
0.016388468 -0.00042333335 -0.019543372
0.013374498 -0.00127 -0.019924095
0.018272201 0 -0.019162649
0.006216316 0 -0.021066265
0.0050860764 -0.00127 -0.019924095
-0.014504737 0 -0.0012686746
-0.025053637 0.00127 -0.0008879517
-0.010360527 0.00084666669 -0.0024108433
0.013751244 -0.00084666669 -0.00050722883
0.03296531 -0.00084666669 -0.00012650594
-0.016765216 0.00127 -0.0016493974
0.03748627 0.00042333335 -0.02030482
-0.011490766 0.00084666669 -0.021066265
0.019779187 0.00042333335 -0.019162649
-0.016765216 0.00127 -0.0008879517
0.012244259 -0.00127 -0.0012686746
-0.038616508 0 -0.0008879517
-0.025430383 0 -0.017639758
0.03522579 -0.00084666669 -0.021446988
0.035602536 -0.00084666669 -0.00050722883
-0.027314115 -0.00127 -0.00050722883
0.0099837799 0 -0.0050759036
-0.033718806 -0.00084666669 -0.00012650594
0.032211818 -0.00127 -0.0008879517
0.015634976 -0.00042333335 -0.0016493974
0.014504737 0.00127 -0.00012650594
-0.0001883732 0.00042333335 -0.0012686746
-0.011490766 -0.00084666669 -0.021446988
0.0084767947 -0.00084666669 -0.0008879517
0.0099837799 0 -0.0088831326
0.0077233016 0 0.0029192772
0.0077233016 0.00084666669 -0.00012650594
0.031458326 0.00084666669 -0.0016493974
-0.016765216 0.00084666669 -0.0008879517
0.0099837799 0.00084666669 -0.0008879517
-0.017895455 0 -0.0035530119
0.020532679 0 -0.022969879
-0.017518708 -0.00084666669 -0.0012686746
-0.013374498 0.00084666669 -0.00050722883
-0.0099837799 0 0.0025385541
0.026560623 -0.00127 -0.021066265
0.0032023445 -0.00042333335 -0.0008879517
-0.023546651 0.00084666669 -0.0016493974
0.006216316 -0.00127 -0.020685542
0.025807129 0.00084666669 -0.019543372
0.028444355 0.00084666669 -0.0012686746
0.013751244 0.00042333335 -0.019162649
0.028067607 -0.00127 -0.021066265
0.028444355 0.00084666669 -0.0024108433
-0.022416411 -0.00084666669 -0.0024108433
-0.028067607 0.00127 -0.021066265
-0.00094186602 -0.00084666669 -0.0012686746
-0.030328088 0.00042333335 -0.0020301202
0.033718806 -0.00084666669 -0.019924095
0.0058395695 0.00127 -0.00012650594
0.0016953589 0.00042333335 -0.0020301202
-0.011490766 0.00127 -0.0016493974
0.022416411 -0.00084666669 -0.0020301202
0.021662919 0.00042333335 -0.020685542
0.014504737 0.00084666669 -0.00012650594
0.013374498 0.00084666669 -0.019924095
-0.03108158 -0.00084666669 -0.021446988
-0.03937 -0.00042333335 -0.0008879517
-0.032211818 -0.00127 -0.019543372
0.038239762 0 -0.023731325
-0.00056511961 0.00127 -0.0016493974
0.03296531 0 -0.0073602409
0.026937369 0.00127 -0.0008879517
0.016765216 0.00127 -0.021446988
-0.024676891 0 -0.02030482
0.03937 0.00042333335 -0.019543372
-0.031835072 0.00084666669 -0.0020301202
-0.027690861 0 -0.024112048
0.024300143 0.00084666669 -0.020685542
-0.014504737 -0.00042333335 -0.02030482
-0.03296531 -0.00127 -0.021066265
0.035979282 0.00042333335 -0.0020301202
-0.025053637 -0.00084666669 -0.0016493974
-0.019402441 -0.00042333335 -0.021066265
0.011490766 0.00042333335 -0.0020301202
0.028067607 0 0.0021578313
-0.022039665 -0.00042333335 -0.019543372
0.038239762 0.00127 -0.00050722883
-0.0088535408 0.00042333335 -0.019924095
-0.010360527 0.00127 -0.0016493974
-0.028444355 0.00084666669 -0.00050722883
-0.014504737 0 -0.019162649
0.023923397 0.00127 -0.00012650594
-0.022793159 0.00042333335 -0.021827711
-0.0020721052 -0.00042333335 -0.019543372
-0.019025695 -0.00042333335 -0.00050722883
0.010737273 0.00084666669 -0.019543372
0.022793159 0 -0.0008879517
0.014504737 0.00042333335 -0.00050722883
0.035602536 0 -0.018401204
0.0001883732 -0.00042333335 -0.023731325
-0.035979282 -0.00084666669 -0.0008879517
0.030704834 0.00127 -0.0016493974
-0.005462823 0.00084666669 -0.0020301202
0.025430383 0 -0.021827711
0.017518708 0 -0.0008879517
0.016765216 0.00042333335 -0.0008879517
-0.023546651 0 -0.0020301202
0.0058395695 0.00084666669 -0.021446988
-0.035602536 0 -0.02030482
0.018648949 -0.00042333335 -0.020685542
-0.0096070338 -0.00042333335 -0.019162649
-0.017895455 0.00127 -0.0020301202
0.027690861 0 -0.0058373492
0.025807129 0.00084666669 -0.0024108433
0.027314115 0.00084666669 -0.02030482
-0.03334206 0.00042333335 -0.00050722883
-0.016388468 -0.00084666669 -0.021446988
0.023923397 0.00042333335 -0.0012686746
-0.022793159 0 -0.0046951803
-0.031458326 0 -0.0012686746
0.01412799 -0.00042333335 -0.0012686746
0.012244259 0.00042333335 -0.019162649
0.012621005 0.00042333335 -0.022589156
0.0073465551 0 -0.01383253
0.017518708 0.00127 -0.020685542
-0.0016953589 0.00042333335 -0.02030482
0.026560623 0.00042333335 -0.0008879517
-0.0065930621 0.00127 -0.0024108433
0.012244259 0.00042333335 -0.0016493974
0.0073465551 0.00127 -0.021446988
-0.01525823 0 -0.0016493974
0.018648949 0.00042333335 -0.019924095
-0.0001883732 0.00127 -0.0024108433
-0.037863016 0.00084666669 -0.02030482
0.03522579 0.00084666669 -0.0020301202
0.033718806 -0.00127 -0.021066265
0.03296531 0 -0.00012650594
0.012621005 0 -0.022208434
0.0028255982 -0.00127 -0.020685542
-0.0047093304 -0.00042333335 -0.019924095
-0.0032023445 -0.00042333335 -0.019543372
0.0088535408 0.00042333335 -0.0016493974
0.032588564 0.00084666669 -0.0020301202
-0.028821101 -0.00127 -0.0020301202
0.020532679 0.00042333335 -0.021446988
-0.015634976 0.00042333335 -0.020685542
0.0050860764 -0.00127 -0.00012650594
0.019402441 -0.00084666669 -0.00050722883
0.03748627 -0.00127 -0.019543372
0.0013186125 0.00084666669 -0.0020301202
0.014881483 -0.00084666669 -0.00050722883
0.030328088 0.00127 -0.0008879517
-0.035979282 -0.00084666669 -0.021066265
0.035602536 0 0.00025421695
0.028067607 0 -0.026015662
0.012621005 0.00127 -0.00050722883
0.018648949 0 -0.02030482
-0.022039665 -0.00042333335 -0.0012686746
-0.014881483 0 -0.02030482
-0.0099837799 -0.00084666669 -0.021446988
0.025807129 0 -0.0016493974
-0.025430383 0 -0.013451807
-0.011114019 0.00084666669 -0.0012686746
-0.0001883732 -0.00127 -0.0024108433
0.028821101 -0.00084666669 -0.0012686746
0.014504737 -0.00127 -0.020685542
-0.031835072 -0.00042333335 -0.0012686746
0.02995134 0.00042333335 -0.019924095
-0.010360527 0 0.0010156627
-0.0073465551 0 -0.0043144575
0.030328088 0.00084666669 -0.02030482
-0.038239762 0 -0.019162649
-0.023546651 0.00084666669 -0.02030482
0.025807129 0.00127 -0.021446988
-0.020532679 0 -0.02030482
0.00056511961 -0.00127 -0.019162649
-0.023546651 0.00127 -0.02030482
0.023169905 -0.00042333335 -0.021066265
-0.022039665 0.00042333335 -0.0012686746
-0.010360527 0 -0.022208434
-0.020155933 0 -0.024873493
0.025430383 0 0.0010156627
-0.019402441 0 -0.021446988
0.019402441 -0.00042333335 -0.0020301202
0.016765216 0 -0.00012650594
0.0099837799 0 -0.0077409637
-0.029574594 -0.00042333335 -0.02030482
0.038993254 0.00084666669 -0.00012650594
-0.035602536 0 -0.012690361
-0.023169905 -0.00042333335 -0.020685542
-0.0073465551 0 -0.018401204
0.00094186602 0.00084666669 -0.0024108433
-0.0001883732 0 -0.017639758
0.023923397 -0.00084666669 -0.0020301202
0.027314115 -0.00127 -0.019543372
-0.0032023445 0.00042333335 -0.021446988
-0.036356028 0.00127 -0.00050722883
-0.020155933 -0.00042333335 -0.018401204
-0.00056511961 0 -0.0016493974
0.029197847 0 -0.0020301202
0.022793159 0 0.00063493982
-0.013374498 0.00042333335 -0.019543372
-0.01412799 -0.00127 -0.021066265
0.013751244 0.00042333335 -0.0008879517
-0.031458326 -0.00084666669 -0.00012650594
0.016765216 -0.00042333335 -0.0024108433
-0.0058395695 -0.00084666669 -0.0024108433
0.0081000477 0.00042333335 -0.019543372
-0.031835072 0.00127 -0.020685542
0.017895455 -0.00084666669 -0.021066265
-0.017895455 0.00084666669 -0.0020301202
0.026937369 0.00042333335 -0.00050722883
-0.020532679 0 -0.01649759
0.03522579 0 -0.015736144
-0.025807129 -0.00042333335 -0.0016493974
-0.03937 -0.00042333335 -0.019924095
-0.03108158 -0.00127 -0.020685542
0.015634976 -0.00084666669 -0.020685542
-0.025807129 0.00042333335 -0.019162649
-0.03296531 0 -0.021827711
-0.023169905 0.00127 -0.0012686746
0.025807129 0 -0.019543372
0.020532679 -0.00042333335 -0.0020301202
-0.028067607 0.00042333335 -0.019162649
0.024300143 0.00084666669 -0.019162649
0.01525823 0 -0.02449277
-0.0039558373 0.00084666669 -0.00050722883
-0.011114019 0.00042333335 -0.019543372
0.027690861 0 -0.011928915
0.033718806 0.00084666669 -0.0012686746
0.003579091 0.00127 -0.021446988
-0.013374498 0 -0.020685542
0.0069698086 0.00084666669 -0.0016493974
0.0096070338 -0.00084666669 -0.019543372
-0.024676891 -0.00042333335 -0.0008879517
0.0084767947 0.00127 -0.021446988
0.0013186125 -0.00042333335 -0.021066265
-0.032588564 -0.00127 -0.0020301202
0.0081000477 -0.00084666669 -0.0008879517
0.014881483 0 -0.0020301202
0.011114019 0.00127 -0.00012650594
-0.028821101 0.00042333335 -0.0024108433
0.025807129 0 -0.0020301202
-0.018272201 0 -0.021066265
0.0084767947 -0.00042333335 -0.0008879517
0.018272201 0.00127 -0.021066265
-0.0047093304 -0.00042333335 -0.0008879517
0.032211818 0 -0.021066265
-0.025807129 -0.00084666669 -0.0012686746
0.0065930621 0 -0.02030482
0.0099837799 0 -0.0039337347
0.032588564 0.00042333335 -0.02030482
0.036356028 0.00127 -0.00012650594
-0.020909427 0.00084666669 -0.00012650594
0.020155933 -0.00042333335 -0.021066265
0.01525823 -0.00042333335 -0.021066265
-0.034095552 -0.00084666669 -0.02030482
0.031835072 0.00042333335 -0.00050722883
-0.024300143 0.00042333335 -0.0008879517
-0.0001883732 0.00042333335 -0.017639758
0.0077233016 0 -0.0081216861
0.026560623 -0.00084666669 -0.020685542
-0.01525823 0 -0.0065987948
-0.01525823 0 -0.011548192
0.0001883732 0 -0.019543372
0.0084767947 -0.00042333335 -0.021066265
-0.03334206 -0.00084666669 -0.0020301202
-0.0065930621 0.00084666669 -0.0012686746
0.0099837799 0 -0.021827711
-0.024300143 0.00042333335 -0.0016493974
-0.0016953589 -0.00042333335 -0.021446988
-0.0073465551 0 -0.0058373492
0.0050860764 0.00042333335 -0.023731325
0.028821101 -0.00127 -0.019543372
-0.0073465551 0.00042333335 -0.0008879517
-0.037863016 0 -0.021446988
0.034849044 -0.00042333335 -0.0020301202
0.024300143 0.00042333335 -0.0016493974
0.012244259 -0.00042333335 -0.021066265
-0.036356028 0.00127 -0.020685542
0.029574594 0.00127 -0.0024108433
0.03710952 0.00084666669 -0.02030482
0.0065930621 -0.00127 -0.020685542
-0.0016953589 0.00127 -0.019543372
0.0043325839 0.00127 -0.0008879517
-0.005462823 0.00127 -0.00050722883
0.011490766 -0.00084666669 -0.00050722883
0.025807129 -0.00127 -0.00050722883
-0.037863016 0 -0.0016493974
0.0043325839 0.00127 -0.0016493974
0.017895455 0.00127 -0.021066265
-0.032588564 -0.00127 -0.0008879517
-0.025053637 -0.00127 -0.00050722883
-0.034849044 -0.00084666669 -0.0016493974
-0.021662919 0.00042333335 -0.0012686746
0.0073465551 0 -0.0016493974
-0.014881483 0 -0.0016493974
-0.005462823 -0.00127 -0.019924095
-0.0039558373 -0.00084666669 -0.0012686746
-0.03108158 -0.00084666669 -0.0024108433
0.0099837799 0 -0.0046951803
-0.022416411 -0.00084666669 -0.02030482
-0.0043325839 -0.00127 -0.019924095
-0.0077233016 0.00127 -0.0008879517
0.0073465551 0.00084666669 -0.021446988
0.0081000477 -0.00042333335 -0.021066265
0.011114019 -0.00127 -0.0008879517
-0.026560623 0.00042333335 -0.021066265
-0.0043325839 0.00042333335 -0.00050722883
0.0024488517 0 -0.025634939
0.019402441 0.00127 -0.00012650594
-0.0016953589 0 -0.019543372
-0.038239762 0 -0.022589156
0.017518708 0 -0.015736144
-0.022793159 0.00084666669 -0.0012686746
0.033718806 0.00042333335 -0.0024108433
-0.024676891 0 -0.0020301202
0.025430383 0.00127 -0.019924095
-0.029197847 0 -0.0012686746
-0.022793159 0.00127 -0.0008879517
0.0065930621 0.00127 -0.00012650594
-0.033718806 0.00127 -0.0024108433
-0.014504737 -0.00042333335 -0.021446988
-0.028067607 0.00042333335 -0.0012686746
-0.015634976 -0.00127 -0.0008879517
0.023923397 0.00127 -0.00050722883
0.013751244 0.00127 -0.0020301202
-0.0088535408 -0.00042333335 -0.020685542
-0.026560623 0.00127 -0.0012686746
-0.0084767947 0 -0.0008879517
0.018648949 -0.00042333335 -0.019162649
-0.02995134 0.00127 -0.019924095
0.034472298 0.00127 -0.0008879517
-0.01525823 0 0.0025385541
0.027690861 0.00127 -0.019543372
0.031458326 0.00084666669 -0.020685542
0.029574594 -0.00084666669 -0.020685542
0.022416411 0.00042333335 -0.019543372
0.031835072 0.00042333335 -0.019924095
0.028821101 0 -0.021066265
-0.012997751 0 -0.0016493974
0.032588564 0.00084666669 -0.0012686746
0.0024488517 0.00042333335 -0.019924095
0.018272201 0.00127 -0.02030482
-0.03522579 0 -0.0016493974
0.01525823 -0.00042333335 -0.0008879517
-0.03296531 0 -0.006218072
0.014881483 -0.00042333335 -0.0020301202
0.017895455 0 -0.0085024098
0.020532679 0 0.00063493982
0.031835072 0.00042333335 -0.02030482
0.033718806 -0.00042333335 -0.021446988
-0.0039558373 -0.00084666669 -0.021446988
0.020155933 0.00042333335 -0.00050722883
0.0077233016 -0.00127 -0.019543372
-0.013751244 0 -0.0020301202
0.0092302868 0 -0.0016493974
0.03334206 -0.00127 -0.0020301202
-0.0088535408 -0.00127 -0.0016493974
-0.037863016 0 -0.019924095
0.0084767947 -0.00042333335 -0.0016493974
0.024676891 0.00084666669 -0.020685542
-0.020155933 -0.00127 -0.0024108433
0.028444355 -0.00084666669 -0.0008879517
0.0024488517 0.00127 -0.021066265
-0.0028255982 0.00042333335 -0.0012686746
0.0039558373 -0.00084666669 -0.00012650594
0.029574594 0.00127 -0.021446988
0.011490766 -0.00084666669 -0.0020301202
-0.00094186602 0 -0.0008879517
-0.011867512 0 -0.0012686746
0.016765216 -0.00127 -0.019924095
-0.010737273 -0.00042333335 -0.019543372
0.038239762 -0.00127 -0.0020301202
0.017518708 0 -0.014974698
-0.022793159 0.00042333335 -0.022208434
-0.020532679 0 -0.010406024
-0.024300143 -0.00042333335 -0.0016493974
0.023169905 -0.00084666669 -0.00012650594
-0.019779187 -0.00042333335 -0.019924095
-0.028444355 0.00042333335 -0.0024108433
0.023169905 -0.00127 -0.00012650594
-0.012621005 0.00042333335 -0.00050722883
-0.0016953589 -0.00084666669 -0.0012686746
0.003579091 -0.00127 -0.0016493974
-0.034472298 -0.00127 -0.019543372
-0.0065930621 0.00127 -0.00012650594
-0.0077233016 -0.00042333335 -0.021446988
-0.0013186125 -0.00127 -0.019162649
-0.012621005 0 -0.027538553
-0.034472298 0.00084666669 -0.019543372
0.02995134 -0.00127 -0.00050722883
0.0043325839 0.00084666669 -0.0024108433
0.023169905 -0.00127 -0.02030482
0.0081000477 -0.00127 -0.019543372
0.019025695 0.00127 -0.00050722883
0.024676891 0 -0.0020301202
0.034095552 -0.00127 -0.02030482
0.012621005 0 0.0025385541
-0.027314115 0.00084666669 -0.019924095
0.023923397 0.00084666669 -0.020685542
0.016765216 -0.00127 -0.020685542
0.005462823 -0.00042333335 -0.021066265
0.010360527 0.00042333335 -0.00050722883
-0.0028255982 0.00042333335 -0.0008879517
-0.034849044 -0.00127 -0.0016493974
-0.0073465551 0 -0.0031722889
0.013751244 -0.00042333335 -0.019543372
0.005462823 0.00127 -0.0008879517
-0.031458326 0.00042333335 -0.021446988
0.010360527 0 -0.0016493974
-0.019402441 -0.00042333335 -0.019162649
0.036356028 -0.00127 -0.021066265
0.020532679 -0.00042333335 -0.0012686746
-0.020155933 -0.00042333335 -0.019543372
-0.037863016 0.00042333335 -0.0024108433
0.023169905 0.00127 -0.0016493974
-0.012997751 -0.00084666669 -0.0020301202
-0.038993254 -0.00084666669 -0.00012650594
-0.030704834 0.00084666669 -0.020685542
-0.0096070338 -0.00042333335 -0.0008879517
-0.034849044 0.00042333335 -0.021446988
-0.027690861 0 -0.01383253
0.021286173 0.00127 -0.021066265
-0.022039665 0.00042333335 -0.0020301202
0.025430383 0.00042333335 -0.017259035
-0.037863016 0.00042333335 -0.020685542
-0.038616508 -0.00084666669 -0.020685542
0.027690861 0 -0.0077409637
-0.026183875 -0.00084666669 -0.00012650594
0.026937369 -0.00127 -0.00012650594
0.017518708 0 -0.017639758
-0.037863016 0 -0.00050722883
-0.014881483 -0.00084666669 -0.0012686746
0.028821101 -0.00127 -0.0012686746
0.0050860764 -0.00042333335 -0.024112048
-0.014504737 0.00042333335 -0.019924095
0.017895455 0 -0.0046951803
0.023169905 -0.00084666669 -0.0016493974
0.021662919 0.00084666669 -0.00050722883
-0.024676891 0.00042333335 -0.0020301202
0.030704834 -0.00042333335 -0.019924095
0.011114019 -0.00084666669 -0.0012686746
-0.033718806 -0.00084666669 -0.0020301202
0.03296531 0 0.00063493982
-0.019025695 -0.00042333335 -0.019543372
-0.0092302868 -0.00084666669 -0.0012686746
0.0084767947 0.00084666669 -0.00050722883
0.034472298 0 -0.0020301202
0.011114019 -0.00042333335 -0.019924095
0.018272201 0.00127 -0.00012650594
0.030704834 -0.00042333335 -0.020685542
0.017518708 0 -0.0092638554
0.035979282 -0.00127 -0.0012686746
-0.019402441 0.00042333335 -0.0012686746
-0.0077233016 0 -0.0081216861
-0.034849044 0 -0.019162649
-0.025430383 -0.00084666669 -0.021066265
0.011490766 0 -0.021446988
0.021662919 0.00042333335 -0.0024108433
0.014881483 -0.00042333335 -0.019924095
-0.033718806 0.00127 -0.0012686746
-0.030704834 0.00127 -0.019924095
-0.028444355 0 -0.02030482
0.03710952 0 -0.021066265
-0.01525823 -0.00042333335 -0.0012686746
-0.03522579 -0.00042333335 -0.02030482
-0.026560623 0.00042333335 -0.019162649
0.031835072 0.00127 -0.021066265
0.0050860764 0 -0.019543372
0.037863016 0 -0.010025301
-0.014881483 -0.00042333335 -0.020685542
0.017895455 0.00084666669 -0.021446988
0.02995134 0 -0.00012650594
-0.03296531 0 -0.013451807
0.0099837799 -0.00042333335 -0.019924095
0.012621005 -0.00042333335 -0.022208434
-0.03710952 0.00127 -0.019543372
-0.03710952 -0.00127 -0.00012650594
-0.030328088 0 -0.0096445782
-0.019402441 0.00042333335 -0.0020301202
-0.028067607 0.00084666669 -0.02030482
0.020909427 0 -0.0020301202
-0.016388468 0.00042333335 -0.020685542
0.03334206 0 -0.026396384
-0.017895455 0 -0.015736144
0.028067607 0.00042333335 -0.0012686746
0.014881483 0.00084666669 -0.0012686746
0.0020721052 -0.00084666669 -0.0008879517
-0.022416411 -0.00127 -0.0008879517
0.022793159 -0.00127 -0.0016493974
-0.026183875 -0.00042333335 -0.019924095
-0.034849044 -0.00042333335 -0.021446988
-0.036732774 -0.00084666669 -0.0016493974
-0.003579091 -0.00084666669 -0.0020301202
-0.035602536 0.00042333335 -0.023731325
-0.038616508 -0.00127 -0.0008879517
0.0020721052 -0.00084666669 -0.0012686746
-0.016011722 0.00084666669 -0.0016493974
0.023169905 0 -0.0024108433
-0.03334206 0.00042333335 -0.0016493974
-0.020532679 0 -0.025254216
0.021662919 0 -0.0016493974
0.023169905 0 -0.019924095
0.0099837799 0 -0.024873493
0.034849044 0.00042333335 -0.020685542
0.0024488517 0.00042333335 -0.018020481
0.036356028 0.00042333335 -0.021446988
-0.01525823 0 -0.0008879517
0.021286173 0.00127 -0.00012650594
0.0099837799 0 -0.026015662
-0.031458326 -0.00084666669 -0.019543372
0.03937 0.00042333335 -0.02030482
-0.0084767947 0.00042333335 -0.02030482
-0.028067607 -0.00042333335 -0.0016493974
0.010360527 0 -0.0046951803
-0.03710952 -0.00127 -0.019543372
-0.03522579 -0.00084666669 -0.0020301202
-0.026183875 0.00042333335 -0.0020301202
0.0084767947 -0.00042333335 -0.021446988
-0.00094186602 0.00084666669 -0.00012650594
0.03334206 0.00042333335 -0.020685542
-0.0088535408 0.00042333335 -0.0012686746
0.023923397 0.00042333335 -0.02030482
0.025430383 0 -0.0027915661
-0.023169905 0.00127 -0.00050722883
-0.025430383 0 -0.010406024
0.038993254 -0.00042333335 -0.020685542
-0.038616508 -0.00127 -0.019924095
-0.0013186125 -0.00042333335 -0.0008879517
0.022793159 -0.00042333335 -0.021827711
-0.0096070338 0.00042333335 -0.02030482
-0.022793159 -0.00042333335 -0.022208434
-0.0099837799 0 -0.019543372
0.017895455 -0.00042333335 -0.022969879
0.0039558373 0.00042333335 -0.019543372
-0.021286173 0 -0.00050722883
0.034095552 -0.00127 -0.0016493974
0.011490766 0 -0.0016493974
-0.0032023445 0 -0.021066265
-0.025430383 -0.00127 -0.021066265
0.026183875 -0.00042333335 -0.0020301202
0.0020721052 0.00042333335 -0.019162649
0.03296531 -0.00084666669 -0.0012686746
-0.0096070338 -0.00127 -0.0012686746
0.0028255982 0.00127 -0.0016493974
0.012621005 0 -0.011928915
-0.014881483 0.00042333335 -0.020685542
0.017895455 -0.00127 -0.00012650594
-0.034472298 0.00042333335 -0.019162649
0.02995134 0.00042333335 -0.019162649
-0.0084767947 0 -0.019162649
-0.014504737 0.00084666669 -0.0016493974
-0.026560623 -0.00127 -0.019924095
0.010360527 0.00084666669 -0.0024108433
-0.025807129 0.00127 -0.019924095
0.037863016 0.00084666669 -0.0016493974
-0.028821101 0 -0.0008879517
-0.0092302868 0 -0.020685542
-0.012244259 -0.00127 -0.020685542
0.010360527 0 -0.022208434
0.030704834 -0.00127 -0.0008879517
0.0043325839 0.00127 -0.0012686746
0.019779187 -0.00042333335 -0.02030482
0.019779187 -0.00042333335 -0.0020301202
-0.026183875 -0.00084666669 -0.0020301202
-0.025053637 0.00042333335 -0.020685542
0.028067607 0 -0.0035530119
-0.016388468 -0.00127 -0.020685542
0.0050860764 0 0.0025385541
0.019402441 0.00042333335 -0.0008879517
-0.026560623 0 -0.02030482
0.018648949 -0.00042333335 -0.00050722883
0.0028255982 -0.00042333335 -0.0012686746
0.0050860764 -0.00084666669 -0.0020301202
-0.0001883732 0 -0.012690361
0.027314115 -0.00127 -0.0020301202
0.017141962 -0.00084666669 -0.021066265
-0.0081000477 -0.00042333335 -0.02030482
-0.026560623 0.00042333335 -0.021446988
0.0092302868 -0.00042333335 -0.021066265
-0.037863016 0.00084666669 -0.00012650594
-0.028444355 0.00084666669 -0.0016493974
-0.013751244 0.00127 -0.0024108433
0.034095552 0.00084666669 -0.00012650594
0.034472298 0 -0.0016493974
0.034849044 0.00127 -0.019543372
0.025430383 0.00127 -0.00050722883
0.0088535408 0 -0.019162649
0.024676891 0.00127 -0.0016493974
-0.033718806 0.00127 -0.019924095
0.019025695 0.00042333335 -0.0024108433
-0.014504737 -0.00042333335 -0.019543372
0.033718806 0.00042333335 -0.00050722883
-0.030328088 0 -0.013451807
-0.028821101 0.00042333335 -0.02030482
0.013374498 0.00042333335 -0.0008879517
-0.017518708 0 -0.0081216861
-0.012621005 -0.00042333335 -0.0024108433
-0.00094186602 -0.00084666669 -0.00012650594
0.014881483 -0.00042333335 -0.019162649
0.011114019 -0.00127 -0.0020301202
-0.021286173 -0.00084666669 -0.00050722883
-0.020532679 0 0.0013963856
0.0028255982 -0.00127 -0.00050722883
0.03522579 0.00127 -0.019543372
-0.026183875 0.00042333335 -0.019543372
0.027314115 0 -0.00012650594
-0.005462823 0.00127 -0.0012686746
0.037863016 0 -0.015736144
0.032588564 -0.00042333335 -0.0012686746
0.022793159 0.00127 -0.02030482
-0.030704834 -0.00084666669 -0.0020301202
0.011490766 0 -0.0012686746
-0.0024488517 0.00084666669 -0.00050722883
-0.0016953589 0.00084666669 -0.0012686746
-0.0081000477 0.00084666669 -0.0024108433
0.0065930621 0.00042333335 -0.0012686746
-0.0020721052 -0.00042333335 -0.0020301202
0.0047093304 0.00127 -0.00050722883
0.027690861 0.00084666669 -0.0008879517
-0.031458326 -0.00127 -0.0024108433
0.0050860764 -0.00127 -0.02030482
0.015634976 0.00042333335 -0.021446988
0.019779187 0.00127 -0.0024108433
0.020532679 0.00127 -0.0016493974
0.033718806 -0.00084666669 -0.019543372
0.03522579 -0.00127 -0.0016493974
0.0073465551 0 -0.0065987948
-0.026560623 -0.00042333335 -0.0016493974
-0.037863016 0 -0.02715783
0.0099837799 -0.00127 -0.0020301202
0.0073465551 0 -0.02030482
-0.034472298 -0.00084666669 -0.00012650594
-0.012621005 -0.00042333335 -0.019162649
0.037863016 -0.00042333335 -0.0020301202
-0.037863016 0.00127 -0.0020301202
-0.013374498 0 -0.0024108433
0.020909427 0.00127 -0.02030482
0.0050860764 0 -0.0058373492
0.031458326 0 -0.0020301202
-0.0088535408 -0.00127 -0.00050722883
-0.020909427 0.00127 -0.0016493974
-0.025430383 -0.00042333335 -0.022589156
-0.035602536 0 -0.0092638554
-0.03710952 0.00042333335 -0.021066265
0.012997751 0.00042333335 -0.00050722883
0.017141962 0 -0.020685542
0.030704834 0 -0.0092638554
0.037863016 0.00042333335 -0.021066265
-0.011490766 0.00084666669 -0.00012650594
-0.005462823 -0.00084666669 -0.0016493974
0.022039665 0.00042333335 -0.021066265
-0.029574594 0.00127 -0.0016493974
-0.0001883732 0 -0.0081216861
-0.0001883732 0.00127 -0.019543372
-0.03937 0.00042333335 -0.00050722883
-0.019779187 -0.00127 -0.020685542
-0.028067607 0.00042333335 -0.021066265
0.027314115 0 -0.00050722883
-0.0001883732 -0.00042333335 -0.023731325
-0.027314115 0 -0.020685542
0.020155933 0.00042333335 -0.022208434
-0.027690861 0.00042333335 -0.019924095
0.027690861 -0.00127 -0.00050722883
0.027314115 0 -0.019924095
-0.017895455 -0.00042333335 -0.021066265
0.035979282 0.00127 -0.0020301202
-0.032588564 0.00127 -0.0012686746
0.028067607 0 -0.021066265
0.017518708 0 -0.02030482
0.0081000477 0.00042333335 -0.019924095
0.0077233016 0 -0.0016493974
-0.024676891 -0.00127 -0.021446988
-0.034849044 -0.00042333335 -0.00050722883
-0.018648949 -0.00084666669 -0.0024108433
-0.031835072 0.00042333335 -0.0008879517
-0.0096070338 -0.00042333335 -0.0016493974
-0.031835072 -0.00084666669 -0.00050722883
-0.0084767947 -0.00042333335 -0.02030482
-0.011490766 0 -0.00012650594
-0.0020721052 0 -0.019924095
-0.024676891 -0.00042333335 -0.019543372
-0.0077233016 0.00127 -0.00050722883
-0.0001883732 0 -0.0050759036
-0.030704834 0 -0.02449277
0.021662919 0 -0.021066265
-0.03522579 0.00084666669 -0.0016493974
-0.03334206 0.00042333335 -0.019924095
0.0065930621 0 -0.020685542
-0.020155933 -0.00042333335 -0.021446988
-0.017518708 0 -0.014974698
0.024300143 0 -0.0016493974
-0.038239762 0.00042333335 -0.0016493974
-0.022416411 0.00042333335 -0.0024108433
0.032588564 0.00042333335 -0.019543372
0.020155933 0 -0.00050722883
0.034472298 0.00084666669 -0.00050722883
0.006216316 0.00127 -0.0012686746
0.038239762 0 -0.019543372
0.029197847 0.00127 -0.0020301202
-0.0050860764 0.00042333335 -0.02030482
0.006216316 -0.00084666669 -0.0008879517
-0.016011722 0.00084666669 -0.0012686746
-0.037863016 0 -0.0046951803
0.00094186602 -0.00084666669 -0.00050722883
0.0039558373 0.00127 -0.0020301202
-0.025430383 0 -0.0077409637
0.031835072 0.00084666669 -0.02030482
0.01412799 -0.00042333335 -0.00050722883
