# .PCD v0.7 - Point Cloud Data file format
VERSION 0.7
FIELDS x y z
SIZE 4 4 4
TYPE F F F
COUNT 1 1 1
WIDTH 1348
HEIGHT 1
VIEWPOINT 0 0 0 1 0 0 0
POINTS 1348
DATA ascii
-0.0003672289 0.00127 -0.034750793
-0.027174938 -0.00042333335 -0.034019046
0.0018361445 -0.00042333335 -0.00035873009
0.0018361445 0.00084666669 -0.035848413
0.0029378312 0.00042333335 -0.0021880951
0.014321927 0.00084666669 -0.0021880951
-0.021666506 0 -0.010603175
-0.0014689156 0 -0.025238095
0.019095903 0.00042333335 -0.029262697
-0.013954698 0 -0.0087738093
0.024237107 0 -0.020847619
-0.013954698 0 -0.015725397
-0.0051412047 -0.00084666669 -0.034384921
-0.025706023 -0.00042333335 -0.0014563492
-0.030112771 -0.00084666669 -0.033653174
0.0066101202 -0.00084666669 -0.034384921
-0.021666506 0 -0.010969047
0.026807711 0 -0.017188888
-0.026440481 0.00042333335 -0.00072460313
-0.011384096 -0.00042333335 -0.034384921
0.026807711 0 -0.031457935
0.013954698 0 -0.016823016
0.011384096 0 -0.0073103174
-0.027542168 0.00084666669 -0.0018222221
-0.0011016867 0.00127 -0.00072460313
0.011384096 -0.00042333335 -0.0025539682
-0.0095479516 0.00042333335 -0.00035873009
0.015423615 0.00127 -0.0021880951
-0.014689156 -0.00084666669 -0.0014563492
-0.0077118073 0.00084666669 -0.0014563492
0.026807711 0 -0.024506349
-0.0029378312 0 -0.035116665
-0.029011084 0 -0.026701586
0.0080790361 0.00042333335 -0.0014563492
0.0069773491 0.00127 -0.035482541
0.021666506 0 -0.004383333
-0.02386988 0 -0.041336507
0.0011016867 0.00127 -0.0021880951
-0.0029378312 0.00084666669 -0.0021880951
0.029378312 0 -0.0036515873
-0.0088134939 0 -0.026701586
0.0088134939 0.00042333335 -0.019384127
-0.0088134939 -0.00042333335 -0.038409524
0.0014689156 -0.00042333335 -0.0021880951
0.01689253 0.00084666669 -0.0014563492
0.011751325 -0.00084666669 -0.0014563492
0.026440481 0 -0.011700793
0.024237107 -0.00084666669 -0.034019046
0.0011016867 0.00042333335 -0.021213492
0.017259758 0.00127 -0.00035873009
-0.003672289 0 -0.034019046
0.021666506 0 -0.0062126983
-0.024237107 0.00084666669 -0.035848413
0.0044067469 -0.00127 -0.035116665
0.0040395181 -0.00042333335 -0.0014563492
-0.0058756624 0.00127 -0.035116665
0.024971565 0.00042333335 -0.035116665
0.022400964 0.00127 -0.035482541
-0.021299277 0.00084666669 -0.0010904761
0.018728673 0.00084666669 -0.035116665
0.02350265 0 -0.034384921
0.021666506 0.00042333335 -0.00072460313
-0.0007344578 -0.00127 -0.035116665
-0.008446265 0.00042333335 -0.0018222221
0.013587469 0.00084666669 -0.035116665
-0.011751325 0.00084666669 -0.035482541
-0.01689253 -0.00042333335 -0.0010904761
-0.020564819 -0.00127 -0.0021880951
0.01322024 0 -0.034750793
-0.0022033735 -0.00042333335 -0.0021880951
-0.029378312 0 -0.013164286
-0.003672289 0.00042333335 -0.00035873009
-0.0003672289 -0.00084666669 -0.0021880951
0.019095903 0.00042333335 -0.013530158
0.011751325 -0.00084666669 -0.034750793
-0.012118554 0.00042333335 -0.034750793
-0.018361446 0.00042333335 -0.00035873009
-0.021299277 -0.00042333335 -0.034750793
-0.0091807228 0 -0.0018222221
0.019095903 0 -0.03182381
-0.026440481 0.00127 -0.034750793
-0.020197591 0.00084666669 -0.0014563492
0.017994216 0 -0.035848413
-0.011751325 0.00127 -0.034750793
0.023135422 -0.00084666669 -0.0018222221
0.011751325 0.00127 -0.0018222221
0.022768192 0.00127 -0.00035873009
0.011751325 -0.00084666669 -0.00072460313
-0.013587469 0.00127 -0.00072460313
-0.030479999 0 -0.034019046
0.011384096 0 -0.0040174602
0.028276626 0.00084666669 -0.035116665
0.0055084336 0.00084666669 -0.034019046
0.019463131 0.00084666669 -0.035482541
-0.024237107 0 -0.029628571
0.025706023 0.00042333335 -0.0014563492
-0.028276626 0.00042333335 -0.0014563492
0.0066101202 0 -0.038775396
-0.018728673 -0.00084666669 -0.00035873009
-0.022400964 0.00127 -0.035116665
0.019095903 0.00042333335 -0.024140475
0.022033734 0 -0.035848413
-0.0051412047 0.00127 -0.0018222221
0.0022033735 -0.00084666669 -0.034019046
0.021666506 0.00127 -0.0010904761
-0.012853011 0 -0.034019046
-0.018728673 0 -0.035482541
-0.026440481 0 -0.019749999
0.029378312 -0.00127 -0.035482541
0.019830361 0 -0.00035873009
0.01322024 -0.00084666669 -0.00035873009
-0.0073445779 0.00042333335 -0.00035873009
-0.011384096 -0.00042333335 -0.033653174
0.0080790361 0 -0.00072460313
0 0.00042333335 -0.035848413
0.021666506 -0.00042333335 -0.035848413
0.019095903 0.00042333335 -0.031457935
-0.024237107 0.00127 -0.0018222221
0.013954698 0.00127 -0.034019046
0.020197591 -0.00084666669 -0.0010904761
-0.014689156 0.00127 -0.00035873009
0.028643854 -0.00042333335 -0.0010904761
-0.0069773491 -0.00127 -0.034750793
-0.021299277 -0.00084666669 -0.00035873009
0.024237107 0.00042333335 -0.036214285
-0.0011016867 0 -0.015725397
0.0066101202 0 -0.015359524
0.017259758 0.00084666669 -0.035848413
0.020564819 0.00042333335 -0.00072460313
-0.020564819 -0.00042333335 -0.034384921
-0.0029378312 -0.00084666669 -0.035116665
-0.021666506 0.00127 -0.035482541
-0.019095903 0 -0.017920634
0.017626988 -0.00127 -0.0018222221
0.015423615 0.00127 -0.00035873009
-0.0022033735 -0.00127 -0.0018222221
-0.0044067469 0.00127 -0.0010904761
0.0091807228 -0.00127 -0.034750793
0.029378312 0.00127 -0.035482541
0.026073253 0.00127 -0.034384921
-0.010282409 -0.00084666669 -0.0021880951
0.0018361445 0 -0.035116665
-0.017626988 -0.00042333335 -0.0014563492
0.0077118073 0.00084666669 -0.035482541
0.0018361445 -0.00127 -0.0010904761
-0.0003672289 -0.00042333335 -0.034750793
-0.0029378312 -0.00042333335 -0.035482541
0.0047739758 0.00042333335 -0.00035873009
0.015423615 -0.00127 -0.0021880951
0.0165253 -0.00042333335 -0.035116665
-0.024237107 0 -0.028530952
0.0014689156 0 -0.00035873009
0.0029378312 0.00084666669 -0.035848413
-0.018361446 0.00127 -0.00035873009
-0.0025706023 0 -0.035116665
0.014321927 -0.00127 -0.00072460313
-0.017626988 -0.00042333335 -0.0010904761
0.029378312 0 -0.033287302
0.027909396 -0.00042333335 -0.0010904761
0.022768192 -0.00127 -0.00072460313
0.013954698 0.00084666669 -0.034750793
-0.015056386 0.00127 -0.0021880951
0.011384096 -0.00127 -0.00035873009
-0.011751325 -0.00127 -0.0010904761
-0.0066101202 0 -0.02340873
0.0022033735 0.00084666669 -0.00035873009
-0.019095903 -0.00042333335 -0.029262697
-0.003672289 0.00127 -0.00072460313
-0.02386988 0.00127 -0.0021880951
0.0007344578 0.00127 -0.0018222221
-0.0091807228 0 -0.027433332
-0.030112771 0 -0.034384921
0.0069773491 0 -0.035116665
0.0051412047 0 -0.034750793
-0.0073445779 0.00042333335 -0.035482541
-0.0069773491 0.00084666669 -0.033653174
0.0014689156 0.00127 -0.034750793
-0.0099151805 0.00042333335 -0.035116665
-0.022768192 -0.00042333335 -0.034019046
-0.027909396 0.00042333335 -0.035482541
0.029011084 0.00084666669 -0.034384921
-0.030112771 -0.00084666669 -0.035482541
-0.02386988 0.00127 -0.034019046
-0.0073445779 -0.00084666669 -0.0018222221
-0.0018361445 0.00042333335 -0.034019046
-0.020197591 -0.00127 -0.034750793
0 0 -0.035482541
0.003672289 0.00042333335 -0.039873015
-0.0058756624 0.00127 -0.034750793
0.029011084 0 -0.019018253
0.02386988 -0.00127 -0.035116665
-0.0066101202 0 0.0018365079
-0.003672289 0 -0.02816508
-0.015423615 -0.00127 -0.035116665
0.01689253 -0.00042333335 -0.00072460313
0.017259758 0.00127 -0.0018222221
0.0011016867 0 -0.025238095
0.010649638 -0.00127 -0.034019046
-0.026073253 -0.00084666669 -0.0021880951
0.024971565 0.00042333335 -0.00035873009
0.0066101202 0 -0.0032857142
0.010282409 0.00084666669 -0.00035873009
0.011016867 -0.00042333335 -0.035848413
-0.020197591 -0.00042333335 -0.00035873009
-0.024237107 0 -0.032189682
-0.011384096 0 -0.021213492
-0.0165253 0.00042333335 -0.024506349
0.0091807228 0 -0.00072460313
0.003672289 0.00042333335 -0.02816508
0.027174938 0.00084666669 -0.034019046
0.019095903 0 -0.015725397
0.01689253 0.00042333335 -0.033653174
0.0014689156 0 -0.03182381
-0.0029378312 0 -0.034019046
-0.021299277 0 -0.039873015
0.012853011 0.00084666669 -0.035116665
-0.0040395181 0.00127 -0.0010904761
0.010649638 0 -0.0010904761
0 0 -0.0010904761
-0.019463131 -0.00042333335 -0.035848413
-0.0033050601 0.00127 -0.034384921
-0.0080790361 0.00042333335 -0.034384921
0.026807711 0.00042333335 -0.035482541
-0.012485783 0.00084666669 -0.00072460313
0.012118554 -0.00127 -0.034019046
0.030479999 0 -0.0021880951
-0.003672289 0.00042333335 -0.0014563492
-0.026440481 -0.00084666669 -0.0014563492
0.013587469 -0.00042333335 -0.035116665
0.0062428913 0 -0.0098714279
-0.026440481 0.00127 -0.00035873009
0.003672289 0.00127 -0.00035873009
-0.020197591 0.00084666669 -0.034750793
0.012118554 0.00042333335 -0.0010904761
0.0165253 -0.00042333335 -0.039141268
0.0011016867 0 -0.016457142
0.024604337 -0.00084666669 -0.0010904761
-0.024237107 -0.00084666669 -0.0018222221
-0.0058756624 0.00042333335 -0.034019046
-0.028643854 -0.00084666669 -0.00035873009
-0.016158072 0.00042333335 -0.0018222221
-0.0047739758 -0.00042333335 -0.00072460313
-0.015423615 0.00084666669 -0.0018222221
-0.003672289 0 -0.018652381
0.024971565 0 -0.0018222221
0.022400964 -0.00042333335 -0.034019046
0.003672289 0.00042333335 -0.024872221
0.0062428913 0 -0.0058468254
0.0066101202 0.00042333335 -0.034384921
0.013954698 0 -0.0054809521
-0.0040395181 0 -0.026701586
0.015423615 0.00084666669 -0.035848413
0.027174938 0.00127 -0.033653174
-0.026440481 0 -0.0025539682
-0.015790842 0.00127 -0.0010904761
0.011384096 0.00127 -0.033653174
0.008446265 0 -0.0014563492
-0.019095903 -0.00042333335 -0.03292143
-0.012853011 0.00127 -0.034384921
-0.003672289 0.00042333335 7.1429145e-06
-0.0165253 0 -0.0047492064
-0.0080790361 -0.00084666669 -0.034384921
0.0066101202 0 -0.01133492
-0.030479999 0 -0.034750793
-0.003672289 0 -0.035482541
-0.018361446 -0.00042333335 -0.00072460313
-0.029745542 -0.00042333335 -0.033653174
-0.017626988 0.00127 -0.0021880951
0.020932049 0.00084666669 -0.0014563492
-0.026440481 -0.00042333335 -0.035116665
0.013954698 -0.00042333335 -0.038775396
-0.019830361 0 -0.0010904761
0.011016867 -0.00127 -0.00035873009
0.017994216 0.00042333335 -0.035482541
0.027909396 -0.00127 -0.035116665
-0.0058756624 -0.00084666669 -0.0018222221
0.027909396 0 -0.0014563492
-0.022768192 -0.00127 -0.0014563492
-0.020932049 -0.00127 -0.0018222221
-0.019095903 0 -0.02231111
-0.024237107 0 -0.0058468254
-0.021666506 -0.00042333335 -0.036580157
-0.019095903 0 -0.021579364
0.0077118073 -0.00127 -0.035482541
0.021299277 0 -0.029262697
0.012853011 -0.00127 -0.00035873009
0.013587469 -0.00127 -0.034750793
-0.0099151805 0 -0.035482541
-0.025338795 0.00127 -0.035482541
-0.026807711 -0.00084666669 -0.00035873009
-0.024604337 0.00127 -0.034384921
0.003672289 0.00042333335 -0.020481745
-0.0040395181 0 -0.0051150792
-0.0062428913 0 -0.037311904
0.01689253 0.00127 -0.0014563492
0.0047739758 0 -0.035848413
-0.017994216 0.00084666669 -0.035482541
-0.0099151805 0 -0.0018222221
-0.028643854 0 -0.035116665
0.0011016867 0.00127 -0.0014563492
-0.024604337 -0.00042333335 -0.00072460313
0.024237107 0 -0.021579364
-0.024237107 0 0.002568254
0.021666506 -0.00042333335 -0.034384921
-0.0014689156 0.00084666669 -0.00035873009
0.030112771 0.00084666669 -0.0014563492
-0.0165253 0.00042333335 -0.02231111
0.0099151805 0.00084666669 -0.034384921
-0.0062428913 0 -0.031457935
0.020932049 0.00042333335 -0.034384921
-0.0051412047 -0.00042333335 -0.035482541
-0.028643854 -0.00127 -0.00035873009
-0.0069773491 -0.00084666669 -0.00072460313
-0.0018361445 0.00084666669 -0.00072460313
-0.011751325 0.00127 -0.00072460313
-0.029378312 0.00084666669 -0.0021880951
-0.020564819 0.00084666669 -0.00035873009
-0.022400964 -0.00127 -0.0010904761
0.014321927 0.00084666669 -0.00035873009
-0.012485783 0.00042333335 -0.0014563492
0.019463131 -0.00042333335 -0.035482541
-0.0165253 0 -0.0087738093
-0.011384096 0 -0.024506349
-0.013587469 0 -0.033653174
-0.027909396 -0.00042333335 -0.034750793
0.0088134939 0.00042333335 -0.015725397
-0.029745542 -0.00042333335 -0.0021880951
0.0099151805 0.00042333335 -0.034384921
-0.0165253 0.00042333335 -0.018286508
0.014689156 0.00127 -0.0014563492
0.0058756624 0.00127 -0.035482541
-0.011751325 0.00127 -0.0014563492
0.019095903 0 -0.0014563492
-0.003672289 0 -0.0062126983
-0.026807711 0 -0.0080420636
0.027542168 -0.00042333335 -0.035848413
0.027542168 -0.00084666669 -0.035116665
-0.0025706023 0.00084666669 -0.00072460313
0.0165253 0 0.002568254
0.0091807228 0.00042333335 -0.0014563492
0.012118554 -0.00127 -0.0018222221
0.029378312 0 -0.010237302
0.026807711 0 -0.014993651
0.018728673 0.00127 -0.00035873009
-0.0066101202 0 -0.0073103174
0.027542168 -0.00042333335 -0.035482541
0.011384096 0 -0.036214285
-0.013954698 0.00127 -0.00035873009
0.01689253 -0.00042333335 -0.034384921
-0.029378312 0.00084666669 -0.00072460313
0.013954698 0 0.0014706349
0.024237107 -0.00084666669 -0.00072460313
0.0051412047 0.00127 -0.035482541
0 0.00084666669 -0.0010904761
-0.0066101202 0.00127 -0.033653174
0.028643854 0.00127 -0.0018222221
0.022033734 -0.00042333335 -0.035482541
0.027174938 0.00127 -0.034384921
-0.0003672289 0.00084666669 -0.0018222221
-0.0025706023 0.00084666669 -0.033653174
0.017994216 0 -0.034750793
-0.023135422 -0.00127 -0.0014563492
0.0165253 -0.00084666669 -0.00035873009
-0.011016867 0.00127 -0.0018222221
0.024237107 -0.00084666669 -0.034750793
0.003672289 0 -0.012066666
-0.02386988 -0.00084666669 -0.035482541
-0.0088134939 0.00042333335 -0.029262697
-0.026440481 0 -0.0058468254
-0.027542168 -0.00042333335 -0.034750793
0.025338795 0.00084666669 -0.035116665
0.015423615 0 -0.034384921
0.0080790361 0.00127 -0.0021880951
0.018728673 0.00042333335 -0.034384921
0.011384096 0.00042333335 -0.031092063
-0.028643854 0.00084666669 -0.034384921
-0.02350265 0.00042333335 -0.034750793
0.0088134939 0.00127 -0.033653174
0.0040395181 0 -0.00072460313
0.012853011 0 -0.035482541
-0.013954698 -0.00042333335 -0.0018222221
-0.008446265 0 -0.035848413
0.0062428913 0 -0.023042856
0.0011016867 0.00084666669 -0.0018222221
0.029011084 0 -0.0018222221
-0.021666506 0 -0.025238095
-0.0011016867 0 -0.022676984
-0.003672289 -0.00042333335 -0.038409524
-0.030479999 0.00042333335 -0.035116665
0.012118554 -0.00127 -0.00035873009
0.003672289 0 -0.014627777
0.027174938 0.00127 -0.0014563492
0.017259758 0.00127 -0.0021880951
-0.0047739758 -0.00042333335 -0.033653174
0.0011016867 0.00042333335 -0.027799206
0.011384096 0.00042333335 -0.035848413
0.0022033735 -0.00127 -0.0018222221
-0.026807711 0.00084666669 -0.0021880951
-0.027174938 -0.00127 -0.0018222221
0.013587469 0.00084666669 -0.0014563492
-0.021299277 -0.00084666669 -0.0021880951
0.017259758 0.00084666669 -0.034384921
-0.024237107 0 -0.0062126983
-0.0062428913 0.00127 -0.0021880951
0.0058756624 0 -0.00035873009
-0.026440481 0 -0.014261904
0.012485783 0 -0.033653174
-0.012485783 0.00084666669 -0.035116665
-0.0040395181 -0.00084666669 -0.033653174
-0.018728673 -0.00084666669 -0.0014563492
-0.0095479516 0.00084666669 -0.035116665
-0.0018361445 0.00127 -0.0021880951
-0.029745542 -0.00084666669 -0.034750793
0.0165253 0.00127 -0.0021880951
0.008446265 0.00084666669 -0.035848413
0.026807711 -0.00042333335 -0.0021880951
0.0040395181 0 0.0018365079
0.0018361445 0.00084666669 -0.0021880951
-0.024604337 0.00127 -0.034019046
0.010649638 -0.00042333335 -0.035848413
-0.013587469 0 -0.034019046
0.023135422 0.00084666669 -0.035482541
0.012118554 -0.00084666669 -0.0010904761
0.016158072 0 -0.0010904761
0.024971565 0.00042333335 -0.0018222221
0.0080790361 0 -0.034019046
0.0066101202 0 -0.03292143
-0.008446265 -0.00084666669 -0.034019046
-0.018728673 0.00084666669 -0.0014563492
0.018361446 0.00042333335 -0.00035873009
-0.024971565 -0.00042333335 -0.00072460313
-0.0014689156 0.00084666669 -0.033653174
0.010649638 0 -0.00035873009
0.011384096 0.00042333335 -0.03182381
-0.0165253 0.00042333335 -0.024872221
-0.013954698 0 -0.020115873
-0.003672289 0 -0.0021880951
-0.010282409 0.00127 -0.035482541
-0.024237107 0 -0.0069444445
-0.024604337 -0.00084666669 -0.034750793
-0.0062428913 0 -0.01609127
0.0088134939 -0.00042333335 -0.00072460313
0.029378312 0.00084666669 -0.00035873009
0.021666506 0 -0.027799206
-0.0040395181 -0.00084666669 -0.0021880951
0.02386988 0 -0.035482541
-0.012485783 0.00042333335 -0.034019046
0.024237107 0 -0.041336507
-0.0165253 0.00042333335 -0.0047492064
0.0088134939 -0.00042333335 -0.036214285
-0.029745542 -0.00042333335 -0.00035873009
0 0.00084666669 -0.0021880951
0.0014689156 0 -0.0018222221
0.013587469 -0.00084666669 -0.034750793
0.0165253 0 -0.040970635
0.012485783 -0.00084666669 -0.0010904761
-0.029378312 -0.00084666669 -0.0010904761
-0.003672289 0 -0.040238887
0.030112771 -0.00042333335 -0.033653174
-0.0011016867 0 -0.036580157
-0.0165253 -0.00042333335 -0.00035873009
-0.020932049 0 -0.034019046
-0.0040395181 0.00042333335 -0.0018222221
0.0044067469 0.00084666669 -0.00072460313
-0.011751325 -0.00084666669 -0.0010904761
0.026073253 0.00127 -0.035116665
0.0051412047 0 -0.00072460313
0.003672289 0.00042333335 0.0014706349
0.0066101202 -0.00042333335 -0.035116665
0.028276626 0.00084666669 -0.0010904761
0.019095903 0 -0.032555554
0.010649638 0 -0.00072460313
-0.029378312 0 -0.025603969
0.015423615 -0.00042333335 -0.0021880951
0.0088134939 0.00042333335 -0.038775396
-0.0088134939 0 -0.019018253
-0.0029378312 0.00042333335 -0.035482541
0.018361446 0.00042333335 -0.00072460313
-0.0062428913 0.00127 -0.035116665
0.0011016867 0.00042333335 -0.021579364
0.003672289 0 -0.0021880951
0.026807711 0 -0.037311904
0.0165253 0 -0.036946032
-0.011016867 0.00042333335 -0.033653174
-0.015056386 -0.00042333335 -0.00072460313
0.027909396 0 -0.035482541
0.023135422 0.00084666669 -0.0021880951
0.011384096 0 0.0022023809
-0.027909396 0.00042333335 -0.035116665
-0.016158072 0 -0.0014563492
0.0165253 0.00042333335 -0.032189682
0.010282409 0 -0.0014563492
0.011751325 -0.00084666669 -0.034384921
-0.020197591 0.00127 -0.0021880951
0.026807711 0 -0.013896031
0.015790842 -0.00042333335 -0.034750793
0.024604337 0.00042333335 -0.0010904761
-0.0066101202 0 -0.029262697
0.013587469 0.00042333335 -0.034019046
0.020564819 0.00042333335 -0.033653174
0.028276626 0 -0.0018222221
-0.003672289 0 -0.017188888
-0.0165253 0 -0.034019046
-0.012118554 0 -0.0018222221
-0.020197591 -0.00127 -0.0018222221
-0.0165253 0.00042333335 -0.018652381
0.027909396 -0.00084666669 -0.0018222221
0.026073253 -0.00042333335 -0.0010904761
0.029745542 0.00042333335 -0.00072460313
-0.018361446 0.00127 -0.0014563492
-0.015790842 0.00042333335 -0.033653174
0.020197591 0.00084666669 -0.035482541
0.0044067469 0.00084666669 -0.0014563492
-0.0066101202 0 -0.014261904
0.0040395181 0 -0.021213492
0.02350265 0 -0.0018222221
-0.0014689156 -0.00127 -0.0018222221
0.0062428913 0.00042333335 -0.035116665
0.0018361445 0 -0.035482541
-0.014321927 0 -0.035482541
-0.018361446 0.00042333335 -0.034019046
-0.010649638 0.00127 -0.034384921
-0.015790842 0.00084666669 -0.0014563492
0.0088134939 0 -0.037677776
-0.017994216 -0.00084666669 -0.00035873009
0.0062428913 0 -0.015725397
-0.017259758 0.00042333335 -0.034384921
-0.017259758 -0.00084666669 -0.035116665
-0.0073445779 0.00084666669 -0.00072460313
0.01689253 -0.00127 -0.035116665
0.015790842 0 -0.034384921
0.0165253 0 -0.00035873009
-0.026440481 0 -0.015359524
-0.0069773491 -0.00042333335 -0.034750793
0.026807711 -0.00084666669 -0.0010904761
0.0047739758 0.00042333335 -0.035116665
-0.0066101202 0 -0.023042856
0.003672289 0.00042333335 -0.0098714279
-0.019463131 0.00127 -0.00035873009
0.024971565 -0.00127 -0.035116665
-0.024237107 0 -0.020481745
-0.024971565 0.00084666669 -0.034384921
0.0165253 0 -0.0091396822
-0.026807711 0.00042333335 -0.034019046
-0.025706023 -0.00042333335 -0.035482541
-0.026440481 0 -0.035482541
-0.0014689156 0 -0.028530952
-0.029745542 0.00042333335 -0.0018222221
-0.029011084 0 -0.037311904
0.011384096 0.00042333335 -0.032189682
0.0091807228 0.00127 -0.0014563492
-0.020564819 0 -0.034384921
0.011384096 0 -0.0062126983
-0.0066101202 -0.00084666669 -0.00035873009
0.012485783 0.00042333335 -0.0014563492
0.0088134939 0.00084666669 -0.035116665
0.012118554 -0.00042333335 -0.033653174
-0.0018361445 0.00084666669 -0.0014563492
0.029011084 -0.00042333335 -0.035482541
0.0003672289 0.00042333335 -0.0021880951
0.0040395181 0 -0.025969841
0.013587469 0.00042333335 -0.033653174
-0.014321927 -0.00042333335 -0.0018222221
0.0003672289 0.00084666669 -0.0010904761
0.0018361445 -0.00084666669 -0.0010904761
0.026807711 -0.00042333335 -0.035116665
0.0014689156 0 -0.009505555
0.01322024 0 -0.034019046
0.0073445779 0.00127 -0.0010904761
0.0007344578 -0.00042333335 -0.0014563492
0.0062428913 0 -0.036946032
-0.0165253 0 -0.034750793
-0.018361446 0.00127 -0.0010904761
-0.0003672289 0.00084666669 -0.034019046
-0.0069773491 0 -0.0021880951
-0.01689253 0 -0.035116665
-0.011016867 0.00127 -0.034019046
-0.024604337 0.00127 -0.0010904761
0.0018361445 0.00127 -0.0021880951
0.011384096 0.00127 -0.035482541
0.0025706023 0.00127 -0.0010904761
-0.012118554 -0.00127 -0.035482541
0.019095903 0 -0.00072460313
0.016158072 0.00127 -0.0010904761
0.011384096 0.00084666669 -0.0010904761
-0.019463131 -0.00042333335 -0.0014563492
0.0033050601 0.00127 -0.00035873009
0.024237107 0 -0.013164286
0.010282409 0.00127 -0.0021880951
-0.02350265 0.00042333335 -0.034019046
-0.0011016867 0 -0.039873015
0.0088134939 0 -0.03292143
-0.0029378312 0.00084666669 -0.0018222221
-0.0066101202 0 -0.037677776
0.003672289 0.00042333335 -0.040970635
-0.0055084336 -0.00084666669 -0.034019046
-0.027909396 -0.00084666669 -0.034384921
-0.0044067469 -0.00042333335 -0.0010904761
0.029011084 0 -0.0036515873
-0.015423615 0.00042333335 -0.00035873009
-0.022033734 0 -0.035848413
0.027542168 -0.00127 -0.034750793
0.019095903 0 -0.024872221
0.0029378312 0 -0.034384921
-0.011384096 0.00042333335 -0.039873015
0.0088134939 0.00042333335 0.0018365079
-0.029011084 -0.00084666669 -0.0010904761
0.014321927 -0.00042333335 -0.034019046
-0.014689156 0.00084666669 -0.0021880951
0.0165253 0.00042333335 -0.040604763
-0.0066101202 0 -0.036946032
0.024604337 -0.00127 -0.0014563492
0.030112771 0.00042333335 -0.0014563492
-0.014689156 0.00042333335 -0.00035873009
-0.0011016867 0.00084666669 -0.0014563492
0.0003672289 -0.00127 -0.034750793
-0.0058756624 0 -0.035848413
-0.020932049 0.00084666669 -0.0021880951
0.0044067469 0.00127 -0.00035873009
0.026807711 0 -0.009505555
-0.017994216 0.00042333335 -0.033653174
0.012485783 0.00127 -0.0014563492
0.029378312 0 -0.036580157
-0.028276626 0.00127 -0.0014563492
-0.017626988 0.00127 -0.00072460313
-0.018728673 0 -0.034019046
0.028276626 -0.00084666669 -0.0014563492
0.029378312 0 -0.040970635
0.0055084336 0 -0.035116665
0.0033050601 -0.00084666669 -0.00072460313
-0.015056386 0.00042333335 -0.00072460313
-0.022033734 0.00042333335 -0.035482541
-0.0073445779 0.00127 -0.034384921
0.024237107 0.00084666669 -0.00035873009
-0.0066101202 -0.00042333335 -0.00035873009
0.029745542 0.00127 -0.00035873009
-0.026807711 -0.00127 -0.00035873009
0.0011016867 0 -0.033653174
0.0033050601 -0.00084666669 -0.0014563492
-0.026440481 0 -0.024872221
-0.0066101202 0 -0.038043652
-0.0069773491 -0.00042333335 -0.0018222221
0.003672289 0.00084666669 -0.034019046
-0.029378312 0 -0.018286508
0.027174938 0.00042333335 -0.0021880951
-0.0165253 0.00042333335 -0.019018253
0.019463131 -0.00042333335 -0.035848413
0.01322024 0.00127 -0.0010904761
0.003672289 0.00042333335 -0.00072460313
-0.025338795 0.00084666669 -0.035116665
-0.015790842 0.00084666669 -0.035116665
0.0088134939 0.00042333335 -0.0076761902
0.020197591 -0.00042333335 -0.0021880951
-0.0066101202 0 -0.033653174
0.0165253 0 -0.032555554
0.024604337 0.00042333335 -0.035482541
-0.025706023 0.00084666669 -0.035482541
-0.026807711 0 -0.014627777
0.020197591 -0.00042333335 -0.034384921
0.019463131 0.00127 -0.0018222221
0.0077118073 -0.00042333335 -0.034019046
-0.024237107 0 -0.040604763
-0.026807711 0 -0.0076761902
-0.013954698 -0.00042333335 -0.029628571
0.011016867 0.00042333335 -0.00035873009
-0.0095479516 0.00127 -0.0010904761
0.013954698 0 -0.028530952
-0.019463131 -0.00084666669 -0.035482541
0.0055084336 0 -0.033653174
0.024237107 0 -0.0069444445
-0.020197591 0.00042333335 -0.00035873009
-0.027909396 0 -0.034384921
0.022400964 0 -0.0021880951
-0.0029378312 -0.00084666669 -0.0021880951
0.003672289 0 -0.0076761902
-0.015790842 -0.00042333335 -0.00072460313
-0.017259758 -0.00042333335 -0.035482541
-0.027909396 -0.00084666669 -0.033653174
0.003672289 0 -0.02231111
0.029011084 -0.00127 -0.035482541
-0.027909396 -0.00127 -0.035116665
0.0040395181 -0.00042333335 -0.0021880951
-0.0165253 0 -0.018286508
0.011384096 0 -0.029262697
-0.0069773491 -0.00127 -0.0010904761
0.024971565 -0.00042333335 -0.035116665
-0.010282409 0.00084666669 -0.0018222221
-0.0040395181 0 0.0022023809
-0.013954698 0 -0.029262697
0.013954698 -0.00127 -0.0010904761
0.0011016867 0.00042333335 7.1429145e-06
-0.0018361445 0.00127 -0.034384921
-0.0047739758 -0.00042333335 -0.034384921
0.0099151805 -0.00084666669 -0.034384921
-0.0025706023 -0.00084666669 -0.0018222221
0.0011016867 -0.00042333335 -0.035116665
0.020564819 0.00084666669 -0.035482541
-0.010282409 -0.00127 -0.0021880951
-0.026807711 0 -0.019018253
0.015790842 0.00127 -0.0014563492
0.0091807228 -0.00084666669 -0.00035873009
-0.024237107 0 -0.0054809521
0.028643854 0 -0.0018222221
-0.020564819 0.00042333335 -0.0021880951
0.021666506 0.00084666669 -0.034750793
-0.0014689156 0 -0.027433332
0.029378312 -0.00042333335 -0.0010904761
-0.0088134939 0 -0.02231111
0.0088134939 0.00042333335 -0.0032857142
0.0011016867 0.00084666669 -0.034019046
0.029011084 0 -0.036214285
-0.0165253 0 -0.032189682
0.0091807228 0.00042333335 -0.035482541
0.026807711 0.00127 -0.034019046
0.0099151805 0 -0.0018222221
0.010282409 0.00042333335 -0.034384921
0.026073253 -0.00127 -0.00035873009
0.0088134939 0 -0.029628571
0.0066101202 0 -0.021579364
-0.011384096 -0.00042333335 -0.029262697
0.0033050601 0.00042333335 -0.00035873009
-0.011016867 -0.00127 -0.034384921
0.0165253 0 0.00037301594
0.024604337 -0.00042333335 -0.00072460313
0.0011016867 0.00042333335 -0.00072460313
-0.0066101202 0 -0.017554762
-0.018361446 -0.00084666669 -0.035116665
-0.029378312 0 -0.034384921
0.024604337 -0.00127 -0.034019046
-0.013954698 0 -0.019018253
0.0044067469 0.00084666669 -0.035848413
0.019830361 0.00084666669 -0.0018222221
-0.013587469 -0.00084666669 -0.0018222221
0.026807711 0 -0.021945238
-0.012118554 0.00084666669 -0.0018222221
-0.015790842 -0.00127 -0.035116665
0.0165253 0 -0.021945238
0.0011016867 0 -0.0062126983
-0.026073253 0.00084666669 -0.0010904761
0.0066101202 0.00127 -0.0018222221
0.024604337 -0.00042333335 -0.0018222221
-0.024604337 0 -0.0014563492
-0.030112771 0.00084666669 -0.035116665
0.0095479516 0.00127 -0.0021880951
-0.003672289 0 -0.02706746
-0.012853011 -0.00042333335 -0.0014563492
-0.027174938 -0.00042333335 -0.0010904761
-0.0055084336 -0.00084666669 -0.034750793
0.02386988 0.00084666669 -0.00035873009
0.0014689156 -0.00042333335 -0.034019046
0.014689156 -0.00042333335 -0.0021880951
-0.0011016867 0 -0.0025539682
-0.0044067469 -0.00042333335 -0.035848413
0.013954698 0 -0.030726191
-0.018361446 0 -0.033653174
-0.0069773491 0.00042333335 -0.0018222221
0.010282409 0.00084666669 -0.0018222221
-0.0095479516 0.00127 -0.0018222221
-0.027174938 -0.00127 -0.034384921
0.019095903 0 -0.018286508
-0.015423615 0.00127 -0.035482541
-0.008446265 0.00127 -0.034019046
0.0003672289 -0.00084666669 -0.033653174
0.010282409 0 -0.0010904761
0.029011084 0.00127 -0.033653174
-0.017259758 0.00042333335 -0.034750793
0.028643854 0.00127 -0.034019046
-0.003672289 0.00084666669 -0.034019046
-0.008446265 0.00127 -0.035116665
0.024237107 0.00084666669 -0.0021880951
0.0066101202 0 -0.013164286
-0.013954698 0.00084666669 -0.0010904761
-0.010282409 -0.00127 -0.0014563492
-0.0088134939 0 -0.010969047
-0.0099151805 0.00127 -0.034384921
-0.029745542 0 -0.0018222221
-0.0055084336 -0.00042333335 -0.0021880951
0.017994216 -0.00042333335 -0.034750793
0.024971565 -0.00084666669 -0.035482541
0.0018361445 0.00127 -0.0014563492
-0.021666506 0 -0.019749999
0.0066101202 0 -0.010237302
-0.0025706023 0 -0.034750793
0.013954698 0.00042333335 -0.024872221
0.0088134939 -0.00042333335 -0.0021880951
0.024971565 0.00042333335 -0.034384921
0.0011016867 0.00042333335 -0.0014563492
0.0003672289 -0.00127 -0.0014563492
0.015423615 0.00084666669 -0.034019046
0.026073253 0 -0.033653174
-0.018361446 -0.00042333335 -0.0018222221
-0.021666506 0 -0.020481745
-0.011751325 0.00084666669 -0.00035873009
0.021299277 0.00127 -0.035482541
-0.020932049 0 -0.033653174
-0.024604337 -0.00127 -0.035116665
0.023135422 -0.00042333335 -0.034019046
0.003672289 0.00042333335 -0.031092063
0.013954698 0 -0.014627777
0.010282409 0.00127 -0.00072460313
0.027174938 0 -0.035116665
-0.0040395181 -0.00042333335 -0.0014563492
-0.013954698 -0.00042333335 -0.038775396
-0.027909396 -0.00084666669 -0.035116665
0.0014689156 -0.00042333335 -0.033287302
-0.0091807228 -0.00084666669 -0.00035873009
0.003672289 -0.00127 -0.00035873009
0.020564819 0.00127 -0.034384921
0.024971565 0 -0.0021880951
0.015790842 0.00042333335 -0.033653174
0.013954698 0 -0.0058468254
-0.012853011 0.00127 -0.034750793
0.003672289 0.00042333335 -0.019018253
-0.0062428913 0 -0.01243254
-0.020197591 0 -0.0010904761
-0.0077118073 -0.00042333335 -0.0018222221
0 0.00042333335 -0.0010904761
-0.0066101202 0 -0.015359524
-0.015423615 -0.00084666669 -0.00072460313
0.0033050601 0.00042333335 -0.0010904761
-0.022400964 0 -0.0010904761
0.026807711 0 0.0022023809
0.029378312 0 -0.01609127
0.0044067469 0.00084666669 -0.0010904761
0.024237107 0 -0.0062126983
-0.0066101202 0 -0.015725397
0.0029378312 0 -0.00035873009
-0.0165253 0.00042333335 -0.039873015
-0.024604337 0.00084666669 -0.034019046
0.023135422 -0.00127 -0.00072460313
-0.0066101202 0 -0.027799206
0.0165253 0 0.0014706349
-0.015790842 -0.00042333335 -0.035482541
-0.016158072 0.00084666669 -0.0018222221
0.016158072 0.00127 -0.0018222221
-0.0014689156 0 -0.0047492064
0.016158072 -0.00084666669 -0.0014563492
0.011384096 0 -0.035116665
-0.0165253 0.00042333335 -0.013530158
0.0069773491 -0.00127 -0.0018222221
0.024604337 0.00042333335 -0.00072460313
-0.021666506 0 -0.02231111
-0.0066101202 -0.00127 -0.00035873009
-0.027174938 -0.00042333335 -0.0018222221
0.026073253 0.00042333335 -0.034750793
-0.026440481 -0.00127 -0.00072460313
-0.0014689156 0 -0.0076761902
-0.017994216 0.00042333335 -0.034750793
-0.003672289 0 -0.028530952
0.012485783 -0.00042333335 -0.033653174
-0.003672289 0 -0.039873015
-0.0099151805 -0.00127 -0.0010904761
0.019095903 0.00042333335 -0.029994443
-0.014321927 -0.00127 -0.034384921
0.02386988 0.00084666669 -0.0018222221
-0.0044067469 0.00084666669 -0.034019046
0.016158072 0.00042333335 -0.0010904761
-0.021666506 -0.00084666669 -0.034750793
-0.015056386 -0.00042333335 -0.00035873009
-0.0058756624 -0.00042333335 -0.0014563492
0.0062428913 0 -0.040970635
-0.026440481 -0.00042333335 -0.0014563492
0.0040395181 0 -0.036214285
-0.0033050601 0.00084666669 -0.033653174
0.0011016867 -0.00042333335 -0.0021880951
-0.020564819 -0.00042333335 -0.0018222221
-0.012118554 0.00127 -0.00035873009
0.024237107 0.00084666669 -0.00072460313
0.011384096 0.00084666669 -0.00072460313
0.003672289 0 -0.018652381
0.029011084 0 -0.0062126983
0.020932049 -0.00084666669 -0.035116665
-0.003672289 0 -0.0054809521
0.027542168 -0.00084666669 -0.034750793
0.027909396 0.00042333335 -0.035848413
0.029011084 0 -0.034019046
-0.0011016867 0.00042333335 -0.033653174
-0.0095479516 -0.00084666669 -0.0010904761
-0.003672289 0 -0.010237302
0.026073253 -0.00084666669 -0.0014563492
-0.016158072 -0.00084666669 -0.035482541
-0.0066101202 0 -0.033287302
-0.0029378312 0.00084666669 -0.00072460313
-0.021666506 0 -0.041336507
-0.0091807228 0.00127 -0.034019046
0.017626988 0.00084666669 -0.0010904761
0.024971565 -0.00127 -0.034750793
0.025338795 0.00127 -0.00072460313
-0.013954698 -0.00127 -0.00035873009
0.0022033735 -0.00042333335 -0.034019046
-0.0014689156 0.00084666669 -0.034384921
-0.0088134939 -0.00042333335 -0.036946032
-0.025338795 -0.00127 -0.033653174
0.0044067469 0.00084666669 -0.034750793
0.011016867 -0.00084666669 -0.0018222221
-0.019463131 0.00042333335 -0.034019046
0.0040395181 0 -0.011700793
-0.029011084 -0.00042333335 -0.00072460313
0.003672289 0.00042333335 -0.0091396822
0.024604337 0.00084666669 -0.035116665
-0.025338795 0.00127 -0.0014563492
0.013954698 0.00042333335 -0.013164286
-0.020932049 0 -0.034384921
0.02386988 -0.00084666669 -0.00035873009
-0.0091807228 0 -0.02816508
-0.0011016867 0 -0.025969841
0.011384096 0 -0.03292143
0.0088134939 0.00042333335 -0.033653174
-0.0088134939 0 -0.017188888
-0.0069773491 0.00127 -0.0010904761
0.015423615 0.00084666669 -0.0014563492
0.0165253 -0.00042333335 -0.033287302
0.0029378312 -0.00127 -0.034750793
-0.008446265 0.00084666669 -0.00072460313
-0.003672289 0 -0.025603969
0.021666506 0 -0.00035873009
0.012853011 -0.00042333335 -0.0014563492
-0.01322024 -0.00042333335 -0.0018222221
0.028643854 0 -0.0021880951
-0.019830361 -0.00127 -0.035116665
-0.022033734 -0.00127 -0.00035873009
0.01322024 -0.00042333335 -0.034750793
0.0069773491 0.00042333335 -0.00035873009
0.013954698 0.00127 -0.0018222221
-0.011016867 -0.00042333335 -0.035482541
-0.029011084 0 -0.013530158
-0.0044067469 0 -0.034019046
0.0062428913 0.00084666669 -0.0010904761
-0.027174938 0.00127 -0.035482541
0.011016867 0.00084666669 -0.035482541
-0.029378312 0 -0.017920634
0.0069773491 0.00042333335 -0.0021880951
0.003672289 0 -0.040970635
-0.0040395181 0 -0.019384127
-0.021666506 0 -0.012798413
-0.01322024 -0.00084666669 -0.0010904761
0.0165253 0.00042333335 -0.0025539682
0.024604337 -0.00042333335 -0.0021880951
0.0095479516 -0.00042333335 -0.0021880951
-0.01322024 -0.00127 -0.0010904761
-0.026807711 0.00127 -0.035116665
-0.0066101202 -0.00084666669 -0.00072460313
0.027174938 -0.00127 -0.0021880951
-0.020932049 0 -0.0010904761
0.024237107 0.00127 -0.00072460313
0.0069773491 -0.00042333335 -0.00072460313
0.01689253 -0.00127 -0.0014563492
0.015790842 -0.00042333335 -0.0018222221
0.0011016867 0 -0.014993651
0.015790842 0.00042333335 -0.035848413
-0.029011084 0 -0.013896031
0.019830361 -0.00127 -0.00035873009
0.013954698 0 -0.013896031
-0.0058756624 0 -0.0018222221
0.029011084 0 -0.027799206
0.029011084 0 -0.035848413
-0.010282409 -0.00042333335 -0.00072460313
0.021299277 0 -0.025238095
0.0073445779 -0.00042333335 -0.034019046
0.026807711 0 -0.027799206
0 -0.00127 -0.0010904761
0.0011016867 -0.00127 -0.035482541
0.012485783 -0.00084666669 -0.00072460313
-0.019830361 0.00042333335 -0.0014563492
0.024971565 0 -0.033653174
-0.022033734 0.00127 -0.0014563492
0.0003672289 -0.00042333335 -0.034750793
0.017994216 0 -0.034019046
0.0011016867 0 -0.00072460313
-0.021666506 -0.00084666669 -0.0021880951
0.024237107 0.00127 -0.035116665
-0.003672289 0 -0.024506349
0.013587469 0.00042333335 -0.034384921
0.030112771 0 -0.034019046
0.010282409 0.00084666669 -0.034750793
-0.0003672289 0.00127 -0.00035873009
0.0025706023 -0.00127 -0.034750793
0.0073445779 -0.00042333335 -0.0018222221
0.026440481 0 -0.041336507
0.02350265 -0.00042333335 -0.035116665
0.003672289 0 -0.0058468254
-0.019830361 0.00084666669 -0.00072460313
0.014689156 0.00127 -0.034019046
-0.026440481 0.00042333335 -0.00035873009
-0.0018361445 0 -0.035482541
-0.015056386 0.00042333335 -0.035482541
-0.0099151805 -0.00084666669 -0.00035873009
0.0088134939 -0.00042333335 -0.033653174
0.0088134939 0 -0.023774603
-0.0058756624 0.00127 -0.0010904761
0.018361446 -0.00042333335 -0.0018222221
-0.0047739758 -0.00042333335 -0.00035873009
-0.019095903 -0.00042333335 -0.034750793
-0.025706023 0.00042333335 -0.0010904761
0.0062428913 -0.00127 -0.0018222221
-0.0077118073 -0.00127 -0.00072460313
-0.0062428913 0 -0.03182381
-0.020932049 0 -0.00035873009
0.0040395181 -0.00042333335 -0.035116665
-0.026440481 -0.00084666669 -0.00072460313
0.018361446 0 -0.035848413
-0.0029378312 0 -0.0014563492
-0.0088134939 0 -0.024140475
0.027909396 0.00084666669 -0.035482541
0.024237107 0 -0.0076761902
-0.0018361445 -0.00084666669 -0.033653174
-0.017626988 0 -0.034019046
0.013954698 0.00042333335 -0.01609127
-0.017259758 -0.00127 -0.035482541
-0.026440481 -0.00127 -0.035116665
0.011384096 0.00042333335 -0.036946032
-0.013954698 -0.00042333335 -0.040604763
0.0014689156 0 -0.021579364
-0.030479999 0 -0.035116665
-0.0062428913 0 -0.025969841
0.015790842 0.00084666669 -0.035116665
0.011751325 0.00127 -0.00035873009
0.0073445779 0.00042333335 -0.034019046
-0.011384096 0.00042333335 -0.0018222221
-0.017259758 -0.00042333335 -0.034750793
-0.025338795 -0.00042333335 -0.00035873009
-0.010649638 0 -0.034750793
0.016158072 0.00042333335 -0.035848413
-0.029378312 -0.00042333335 -0.0018222221
0.020564819 0.00084666669 -0.034019046
0.0088134939 0 -0.029994443
-0.022400964 0.00127 -0.00035873009
-0.011384096 0.00042333335 -0.036214285
0.0007344578 0.00042333335 -0.033653174
0.019830361 -0.00084666669 -0.0021880951
0.0088134939 0 -0.013530158
0.019095903 0 -0.012066666
-0.008446265 -0.00084666669 -0.00072460313
-0.0165253 0 0.001104762
-0.029378312 0.00084666669 -0.034750793
0.026073253 0.00084666669 -0.0014563492
-0.0099151805 0.00127 -0.034750793
0.017626988 0.00127 -0.034384921
-0.014689156 0.00084666669 -0.0010904761
-0.025706023 0 -0.0014563492
0.0055084336 -0.00127 -0.035116665
-0.003672289 -0.00084666669 -0.034384921
-0.026807711 0 -0.035482541
-0.015423615 0.00042333335 -0.035116665
-0.0018361445 -0.00084666669 -0.00072460313
-0.019830361 0.00127 -0.034750793
0.02386988 -0.00127 -0.0010904761
0.027909396 -0.00042333335 -0.033653174
0.011384096 0 -0.025603969
-0.0025706023 -0.00127 -0.034750793
0.0018361445 0.00042333335 -0.035116665
0.019095903 0 -0.030360317
-0.0073445779 -0.00127 -0.0010904761
0.0165253 0 -0.01609127
-0.020932049 0.00084666669 -0.00035873009
-0.0007344578 0.00127 -0.0021880951
0.027174938 0 -0.034019046
0.019095903 -0.00042333335 -0.0025539682
0.01689253 -0.00042333335 -0.035848413
0.0095479516 -0.00042333335 -0.035482541
-0.020564819 0.00127 -0.034750793
0.0088134939 0.00042333335 -0.015359524
0.0044067469 -0.00084666669 -0.0010904761
-0.0073445779 0.00084666669 -0.0010904761
-0.0088134939 0 -0.014993651
0.028643854 0.00084666669 -0.0021880951
0.0040395181 0 -0.010237302
0.0062428913 0 -0.010969047
-0.027909396 -0.00042333335 -0.00035873009
-0.026440481 0 -0.0076761902
0.0165253 0 -0.01243254
0.026073253 -0.00127 -0.0021880951
0.019095903 0.00084666669 -0.035482541
-0.01322024 0.00084666669 -0.00072460313
-0.024237107 0.00042333335 -0.0010904761
-0.0044067469 -0.00042333335 -0.00072460313
-0.0025706023 0 -0.034384921
-0.0095479516 -0.00127 -0.0010904761
-0.017259758 0.00042333335 -0.00035873009
-0.028276626 -0.00042333335 -0.0021880951
0.0011016867 0.00042333335 -0.033653174
0.024237107 0 -0.0032857142
-0.0040395181 0 -0.010237302
0.0007344578 0.00127 -0.035482541
0.021299277 0 0.0014706349
0.02386988 0 -0.035116665
-0.011016867 0 -0.035482541
0.015790842 0 -0.033653174
-0.0088134939 0.00042333335 -0.034750793
-0.026440481 0 -0.036946032
0.011384096 0 -0.017554762
-0.0051412047 0 -0.0018222221
0.0058756624 0.00084666669 -0.034384921
-0.019463131 0 -0.034750793
0.011384096 0 -0.01133492
-0.011384096 0.00084666669 -0.034384921
-0.020932049 -0.00084666669 -0.00072460313
0.0088134939 0.00042333335 -0.029262697
-0.011751325 0 -0.036214285
0.0080790361 -0.00042333335 -0.035848413
0.0022033735 0.00084666669 -0.0010904761
-0.022768192 0.00127 -0.035116665
0.0014689156 0 -0.012066666
0.0066101202 0.00042333335 -0.035848413
-0.011384096 0 -0.041336507
-0.0165253 0.00042333335 -0.028896825
0.028643854 0.00042333335 -0.034750793
0.028643854 0.00127 -0.034750793
0.003672289 0.00042333335 -0.010603175
-0.013954698 0 -0.025603969
0.018361446 -0.00084666669 -0.00035873009
-0.0165253 0.00042333335 -0.015725397
-0.0044067469 0 -0.00072460313
0.020932049 -0.00084666669 -0.034384921
-0.0165253 0.00042333335 -0.027433332
0.016158072 -0.00127 -0.0021880951
0.011751325 -0.00042333335 -0.0021880951
-0.028276626 0.00042333335 -0.035482541
-0.0003672289 0.00042333335 -0.0021880951
-0.029011084 0 -0.0073103174
0.0051412047 0.00042333335 -0.0021880951
0.003672289 -0.00042333335 -0.034019046
0.011751325 -0.00042333335 -0.035482541
-0.003672289 0 -0.031092063
-0.010649638 0 -0.00072460313
-0.013954698 0 -0.010237302
0.0044067469 0.00042333335 -0.034384921
0.022768192 0.00042333335 -0.035482541
0.026807711 0.00127 -0.034384921
0.029378312 0.00127 -0.0021880951
0.013954698 0 -0.040604763
-0.012118554 0.00042333335 -0.0014563492
-0.017626988 0 -0.035848413
0.021299277 0 -0.031457935
0.029011084 -0.00084666669 -0.035482541
0.021299277 0 -0.03182381
-0.029378312 0 -0.038043652
0.003672289 0.00042333335 -0.0032857142
0.0055084336 0.00127 -0.0014563492
-0.015790842 -0.00084666669 -0.0021880951
0.020564819 0.00084666669 -0.034384921
-0.0014689156 -0.00042333335 -0.035848413
-0.02386988 0 -0.0025539682
0.022033734 -0.00042333335 -0.0018222221
-0.0022033735 -0.00084666669 -0.00072460313
0.024237107 -0.00042333335 -0.0021880951
0.026807711 0.00042333335 -0.0021880951
-0.010282409 0.00042333335 -0.0018222221
-0.003672289 0 -0.004383333
0.022033734 0 -0.033653174
-0.019463131 0.00042333335 -0.0018222221
-0.0077118073 -0.00127 -0.034750793
-0.003672289 -0.00042333335 -0.034019046
0.029011084 0 -0.035116665
0.010649638 -0.00127 -0.0021880951
-0.014321927 0.00127 -0.0021880951
-0.0073445779 -0.00042333335 -0.00035873009
0.013954698 0.00042333335 -0.036580157
-0.017994216 -0.00042333335 -0.00072460313
-0.0051412047 -0.00084666669 -0.033653174
-0.0080790361 -0.00127 -0.0021880951
-0.020932049 -0.00084666669 -0.0021880951
-0.022768192 0.00042333335 -0.035482541
0.027174938 -0.00127 -0.00072460313
0.019095903 0 -0.00035873009
0.01322024 -0.00084666669 -0.034750793
0.016158072 -0.00042333335 -0.035116665
0.003672289 0 -0.019749999
0.024237107 0.00084666669 -0.0018222221
0.0040395181 0.00127 -0.035482541
0.011384096 -0.00084666669 -0.0010904761
0.0066101202 -0.00042333335 -0.0010904761
-0.024971565 0.00042333335 -0.0021880951
-0.012853011 0.00127 -0.0018222221
-0.0066101202 0 -0.034750793
0.014689156 0.00127 -0.0010904761
-0.0040395181 -0.00042333335 -0.033653174
0.0062428913 0 -0.019384127
0.017994216 0.00127 -0.034384921
0.0014689156 0 -0.013896031
0.029011084 0.00084666669 -0.00035873009
0.026440481 0 -0.025603969
0.0066101202 0.00042333335 -0.0014563492
0.0033050601 -0.00042333335 -0.035116665
0.026807711 0 -0.039507143
-0.028276626 -0.00084666669 -0.033653174
0.027542168 0.00127 -0.035482541
-0.021666506 0 -0.040238887
-0.023135422 0.00042333335 -0.035482541
0.0040395181 0 -0.01243254
0.0069773491 0 -0.0010904761
0.024237107 -0.00084666669 -0.0018222221
-0.017626988 0.00084666669 -0.0010904761
-0.0051412047 -0.00042333335 -0.00035873009
-0.027174938 0.00084666669 -0.035482541
0.019830361 -0.00127 -0.0010904761
-0.017994216 -0.00127 -0.033653174
-0.0011016867 0 -0.034019046
-0.025706023 0 -0.0018222221
0.023135422 0.00084666669 -0.034019046
0.0022033735 0.00084666669 -0.0014563492
0.023135422 0.00042333335 -0.00035873009
-0.015423615 0.00127 -0.035116665
-0.0047739758 -0.00042333335 -0.0010904761
-0.011016867 -0.00042333335 -0.0021880951
0.014689156 -0.00042333335 -0.034019046
-0.028276626 0 -0.00072460313
0.028276626 -0.00084666669 -0.035116665
0.0011016867 0 -0.029994443
-0.0165253 0.00042333335 -0.0087738093
0.029011084 0 -0.013896031
0.02350265 0.00042333335 -0.00072460313
-0.024237107 0.00042333335 -0.035482541
0.0088134939 0.00042333335 -0.0084079364
-0.019830361 0 -0.0021880951
0.0003672289 -0.00127 -0.035116665
0.013954698 0 -0.013530158
-0.0069773491 -0.00084666669 -0.00035873009
0.020932049 -0.00127 -0.034384921
-0.0011016867 0 -0.019749999
0.022768192 0.00127 -0.035482541
0.011016867 0.00127 -0.00035873009
0.0165253 0.00042333335 -0.036214285
-0.0040395181 0 -0.014993651
-0.012118554 -0.00127 -0.033653174
-0.014689156 -0.00127 -0.035116665
-0.028643854 0.00084666669 -0.035116665
-0.017259758 0 -0.00072460313
-0.0088134939 0 -0.01133492
-0.019463131 -0.00084666669 -0.035116665
0.014321927 -0.00084666669 -0.00035873009
0.022400964 0 -0.00072460313
-0.011016867 -0.00042333335 -0.033287302
-0.003672289 -0.00127 -0.034384921
0.003672289 0.00042333335 -0.0021880951
0.0014689156 0.00127 -0.035116665
-0.027174938 -0.00127 -0.033653174
-0.0088134939 -0.00127 -0.0021880951
0.0095479516 0 -0.0014563492
-0.029378312 0 -0.040604763
0.0051412047 -0.00084666669 -0.034019046
0.011384096 0 -0.039873015
-0.0014689156 0.00042333335 -0.034019046
-0.0040395181 0 -0.0065785712
0.0033050601 0.00127 -0.033653174
0.0062428913 0 -0.029994443
-0.0033050601 0.00042333335 -0.033653174
-0.019463131 -0.00042333335 -0.033287302
-0.0088134939 0.00127 -0.034384921
-0.026073253 -0.00084666669 -0.035482541
-0.024604337 0.00084666669 -0.00072460313
0.0088134939 -0.00042333335 -0.034384921
-0.0088134939 0 -0.0014563492
0.012118554 -0.00084666669 -0.00035873009
-0.01689253 -0.00042333335 -0.0021880951
0.029378312 0.00084666669 -0.033653174
-0.0062428913 0.00042333335 -0.035116665
0.022400964 0.00127 -0.00072460313
-0.012485783 0.00084666669 -0.0018222221
-0.0011016867 0.00042333335 -0.0010904761
0.0062428913 0 0.0029341269
-0.029011084 0 -0.012798413
-0.021666506 0.00127 -0.035116665
0.029011084 0 -0.026701586
-0.022768192 0 -0.00035873009
0.024237107 0 -0.013896031
0.027909396 -0.00127 -0.033653174
0.015423615 -0.00127 -0.00072460313
-0.0165253 0.00042333335 -0.0021880951
0.019095903 -0.00127 -0.034750793
0.019095903 -0.00042333335 -0.036580157
0.013954698 0.00084666669 -0.0014563492
0.030479999 0.00042333335 -0.034019046
0.003672289 0.00042333335 -0.021945238
0.0066101202 0 -0.033653174
-0.0088134939 -0.00084666669 -0.00035873009
-0.024237107 0 -0.013164286
0.021666506 0 -0.037311904
0.025338795 -0.00127 -0.034384921
-0.023135422 -0.00042333335 -0.033653174
0.029378312 0 0.00073888892
0.0165253 -0.00084666669 -0.035482541
-0.0047739758 -0.00127 -0.035482541
0.024971565 0.00084666669 -0.034384921
0.020197591 -0.00042333335 -0.035116665
-0.011384096 0 -0.036214285
0.022400964 -0.00084666669 -0.0010904761
-0.027174938 0.00127 -0.0010904761
0.015056386 0.00127 -0.0014563492
0.027542168 -0.00127 -0.0010904761
0.026440481 0 -0.0010904761
0.029378312 0 -0.019749999
-0.011384096 0.00042333335 -0.032555554
0.027174938 -0.00042333335 -0.035482541
-0.020564819 0 -0.033653174
-0.0040395181 0 -0.018286508
0.018361446 0.00127 -0.00072460313
0.003672289 0 -0.019018253
-0.0014689156 0 -0.029262697
0.020197591 0 -0.034019046
-0.0058756624 -0.00042333335 -0.00072460313
0.0088134939 0.00042333335 -0.020481745
0.0040395181 0.00084666669 -0.0021880951
0.003672289 0 0.001104762
0.0088134939 -0.00127 -0.033653174
-0.0014689156 0 -0.021213492
0.023135422 -0.00042333335 -0.034384921
0.0011016867 0.00042333335 -0.034019046
0.0099151805 -0.00127 -0.00072460313
0.028276626 0.00127 -0.0010904761
0.015056386 -0.00084666669 -0.0021880951
0.0095479516 0 -0.0010904761
-0.010282409 0.00084666669 -0.0010904761
0.027542168 -0.00084666669 -0.034019046
0.008446265 0 -0.035482541
0 -0.00042333335 -0.00072460313
-0.0165253 0.00042333335 -0.010237302
0.0040395181 0.00042333335 -0.0018222221
0.0066101202 -0.00127 -0.0010904761
0.010282409 0 -0.035848413
0.0077118073 0 -0.00072460313
-0.0077118073 0.00084666669 -0.034019046
-0.0033050601 0.00042333335 -0.035482541
-0.014689156 0.00084666669 -0.00072460313
0.0022033735 -0.00042333335 -0.0021880951
0.0025706023 -0.00127 -0.035482541
0.0165253 -0.00042333335 -0.034750793
0.025706023 0 -0.0014563492
-0.026073253 -0.00042333335 -0.035482541
-0.0165253 0 -0.026335714
-0.0040395181 -0.00127 -0.034384921
-0.0022033735 0.00042333335 -0.0014563492
0.019095903 -0.00042333335 -0.035848413
-0.029745542 -0.00042333335 -0.035482541
-0.012485783 0 -0.0018222221
-0.020932049 0.00084666669 -0.0010904761
0.0088134939 0 -0.034019046
-0.0077118073 -0.00042333335 -0.033653174
0.003672289 0 0.0018365079
0.0165253 0.00042333335 -0.0010904761
0.019095903 0 -0.0032857142
0.021299277 0 -0.01133492
-0.029745542 0 -0.035848413
-0.027909396 -0.00127 -0.00035873009
-0.026073253 0 -0.0018222221
0.019095903 0.00084666669 -0.0010904761
0.016158072 0.00084666669 -0.00035873009
0.019095903 0.00042333335 -0.0018222221
