# .PCD v0.7 - Point Cloud Data file format
VERSION 0.7
FIELDS x y z
SIZE 4 4 4
TYPE F F F
COUNT 1 1 1
WIDTH 1394
HEIGHT 1
VIEWPOINT 0 0 0 1 0 0 0
POINTS 1394
DATA ascii
-0.010746154 0.00127 -0.026479591
-0.033020001 -0.00127 -0.027263263
-0.01738923 -0.00127 -0.0014020406
0.033020001 0.00042333335 -0.026087753
0.018952308 0 -0.0029693875
-0.029893845 0.00042333335 -0.002185714
-0.0037123077 0.00127 -0.00061836716
-0.028721539 -0.00127 -0.0017938773
0.02325077 0.00042333335 -0.002185714
0.031847693 0 -0.015508163
-0.0099646151 0.00127 -0.0276551
0.026767692 0 -0.016291836
0.034973845 0.00127 -0.028046938
0.0029307692 0.00084666669 -0.026479591
0.0091830771 0.00127 -0.00022653048
0.014263077 0.00084666669 -0.00022653048
-0.031847693 0 0.00016530625
0.027939999 0.00042333335 -0.00022653048
-0.011918462 0.00127 -0.0017938773
-0.024423078 -0.00042333335 -0.028046938
-0.0052753845 0.00042333335 -0.00022653048
-0.036536925 -0.00127 -0.026479591
-0.021296924 0 -0.013548979
-0.010355385 -0.00042333335 -0.026479591
-0.006056923 -0.00127 -0.002185714
-0.021296924 0.00042333335 -0.026087753
0.011527692 -0.00127 -0.00061836716
0.0068384614 0.00084666669 -0.002185714
-0.034192309 0 -0.012373469
0.011527692 0 -0.015508163
0.011527692 -0.00084666669 -0.002185714
0.00097692304 0 -0.010806122
0.025986154 -0.00127 -0.026871428
-0.032629229 -0.00084666669 -0.00022653048
-0.006056923 0 -0.030789794
0.035755385 -0.00042333335 -0.00022653048
0.033801537 -0.00127 -0.028046938
-0.029112307 -0.00127 -0.0014020406
0.011918462 0.00127 -0.026871428
0.014263077 0.00127 -0.026871428
-0.00097692304 -0.00127 -0.001010204
0.015435385 -0.00042333335 -0.026479591
0.030284615 0.00042333335 -0.028046938
-0.016607692 0.00042333335 -0.028438775
0.031847693 0 -0.033532653
-0.035755385 -0.00127 -0.00022653048
0.018952308 -0.00127 -0.028046938
-0.034192309 0 -0.015116326
0.0064476924 0 -0.0080632651
-0.015044616 0.00127 -0.0014020406
0.0037123077 0 -0.0076714279
0.033801537 0.00084666669 -0.00022653048
-0.0087923082 0 -0.014332652
-0.0087923082 0.00042333335 -0.029614285
0.0099646151 0.00084666669 -0.026871428
-0.029503077 0 -0.028438775
-0.029893845 -0.00127 -0.027263263
-0.0044938461 0.00127 -0.026087753
-0.0099646151 0.00042333335 -0.026087753
0.0064476924 0 -0.023344897
0.020906154 0.00084666669 -0.028046938
0.0037123077 0.00042333335 -0.030397957
0.0041030771 0.00084666669 -0.00022653048
0.033410769 0.00127 -0.0017938773
-0.0064476924 0 -0.017075509
-0.0064476924 0 -0.010806122
0.015435385 -0.00127 -0.026479591
0.023641538 0.00127 -0.026479591
0.014653847 -0.00127 -0.00022653048
0.018952308 -0.00042333335 -0.033532653
0.0076199998 -0.00127 -0.001010204
-0.027549231 0.00084666669 -0.027263263
-0.0029307692 -0.00127 -0.002185714
-0.036927693 -0.00127 -0.00022653048
-0.015044616 -0.00127 -0.002185714
-0.023641538 -0.00127 -0.0276551
-0.029893845 0.00084666669 -0.0276551
-0.033801537 0.00042333335 -0.026087753
-0.037318461 0 -0.026087753
0.026376924 0 -0.0096306121
0.026376924 0 -0.024912244
0.035364617 0.00084666669 -0.002185714
-0.013090769 -0.00042333335 -0.026479591
0.026767692 0 -0.034316324
-0.00058615382 0.00042333335 -0.028046938
0.015435385 0.00127 -0.00022653048
0.018170768 0.00127 -0.027263263
-0.011136923 0 -0.030397957
0.034192309 0 -0.0088469386
-0.014653847 -0.00084666669 -0.002185714
-0.02325077 0.00127 -0.001010204
-0.02325077 -0.00127 -0.028046938
0.031847693 -0.00127 -0.00022653048
-0.011527692 0.00042333335 -0.029222447
-0.019343076 -0.00042333335 -0.002185714
0.026376924 -0.00127 -0.0017938773
-0.00097692304 -0.00084666669 -0.00022653048
-0.0013676923 0 -0.030006122
0.023641538 0 -0.002185714
-0.036927693 0 -0.011589795
0.028330769 -0.00084666669 -0.002185714
-0.0048846155 -0.00042333335 -0.00061836716
-0.034192309 0 -0.0041448977
0.00097692304 0 -0.033532653
0.018952308 0 -0.030006122
0.0068384614 0.00042333335 -0.026087753
-0.021687692 0 -0.0068877549
-0.011918462 -0.00127 -0.00022653048
-0.0076199998 0.00084666669 -0.00022653048
-0.012309231 0.00042333335 -0.0276551
0.020515384 0.00084666669 -0.002185714
0.0052753845 0 -0.00022653048
-0.016998462 0.00042333335 -0.00022653048
-0.018170768 0 -0.002185714
0.018952308 0 -0.020210203
0.029112307 -0.00042333335 -0.02883061
0.027158462 0.00127 -0.0014020406
0.0064476924 0 -0.010414286
-0.024032308 0.00084666669 -0.00022653048
-0.031066153 0.00042333335 -0.027263263
0.006056923 -0.00084666669 -0.002185714
0.024032308 0.00127 -0.027263263
-0.016607692 0 -0.01942653
-0.034192309 0 -0.014724489
-0.013872308 -0.00042333335 -0.022561224
-0.035364617 -0.00042333335 -0.002185714
0.006056923 0 -0.0080632651
0.021296924 -0.00084666669 -0.00022653048
-0.018952308 0.00042333335 -0.029222447
0.024032308 -0.00127 -0.028046938
-0.0013676923 0.00042333335 -0.02883061
-0.0076199998 0.00084666669 -0.026871428
0.0127 -0.00084666669 -0.026871428
0.031847693 0 -0.022561224
0.026376924 0 -0.016291836
-0.0029307692 0.00127 -0.0276551
0.018952308 0 -0.013548979
-0.036927693 0 0.0029081632
0.034192309 0 -0.0096306121
0.032238461 -0.00084666669 -0.026871428
-0.005666154 0.00042333335 -0.028046938
-0.00097692304 0 -0.0088469386
-0.0087923082 0.00042333335 -0.025304081
0.0013676923 0 -0.030006122
0.030284615 -0.00042333335 -0.028046938
-0.00097692304 0.00127 -0.0014020406
-0.00097692304 0.00084666669 -0.026087753
-0.026376924 -0.00127 -0.028046938
-0.026376924 0 -0.012765305
0.033020001 -0.00042333335 -0.028046938
-0.026767692 0 0.0021244898
0.020515384 0.00127 -0.028046938
-0.010746154 0.00127 -0.0014020406
-0.036927693 0.00084666669 -0.00022653048
-0.0080107693 0.00042333335 -0.0276551
-0.018952308 0 -0.0037530609
0.0029307692 -0.00127 -0.00061836716
0.0037123077 0 -0.0033612242
0.0091830771 -0.00042333335 -0.026087753
0.0064476924 0 -0.022169387
0.015044616 -0.00127 -0.001010204
-0.023641538 0.00127 -0.0276551
0.026376924 0 -0.0033612242
-0.037709232 -0.00084666669 -0.00061836716
-0.037709232 0 -0.026087753
-0.005666154 -0.00127 -0.028046938
-0.0087923082 0 -0.031573467
0.011918462 0.00127 -0.0017938773
-0.029112307 0.00127 -0.028046938
0.013090769 0.00127 -0.001010204
-0.024423078 -0.00084666669 -0.002185714
-0.0099646151 -0.00042333335 -0.00022653048
0.005666154 0 -0.026087753
-0.0080107693 0.00127 -0.027263263
-0.0127 0.00042333335 -0.026087753
0.015826155 -0.00127 -0.0014020406
0.0064476924 0.00042333335 -0.0025775507
0.0076199998 -0.00127 -0.028046938
0.005666154 0.00042333335 -0.00022653048
-0.0087923082 -0.00042333335 -0.0025775507
0.0064476924 0 -0.013940816
-0.011918462 0.00042333335 -0.00022653048
0.0029307692 -0.00127 -0.026087753
-0.020515384 -0.00127 -0.0276551
-0.034192309 0 -0.013157142
-0.0068384614 -0.00127 -0.0017938773
-0.029112307 0 -0.0061040814
-0.010746154 -0.00042333335 -0.026479591
-0.032238461 0.00042333335 -0.026871428
-0.012309231 -0.00042333335 -0.026087753
0.034192309 0 -0.0057122447
0.036146153 -0.00042333335 -0.028046938
0.014653847 0.00127 -0.00061836716
0.024032308 0 -0.0072795916
0.029112307 0 -0.024128571
-0.0072292308 0.00042333335 -0.026479591
-0.022078462 -0.00084666669 -0.00022653048
0.021687692 -0.00042333335 -0.0029693875
0.0076199998 -0.00127 -0.0014020406
0.015044616 -0.00042333335 -0.026087753
0.011918462 0 -0.002185714
0.033410769 -0.00084666669 -0.0276551
-0.031456925 0.00042333335 -0.026087753
0.026376924 0 -0.02295306
0.016216923 0 -0.0041448977
0.026767692 0 -0.015508163
0.018170768 -0.00127 -0.00061836716
-0.012309231 0.00127 -0.00022653048
-0.0087923082 0 -0.0064959181
0.036927693 0 -0.011981632
-0.006056923 -0.00127 -0.00022653048
-0.021687692 0.00042333335 -0.024520406
-0.0064476924 0.00042333335 -0.0276551
-0.0017584616 0.00127 -0.026871428
0.0044938461 0.00127 -0.0017938773
0.032238461 0 -0.026087753
0.00097692304 0.00127 -0.001010204
0.036146153 0.00042333335 -0.002185714
-0.024032308 0 -0.0033612242
-0.028330769 -0.00084666669 -0.028046938
0.00058615382 0.00127 -0.0276551
0.027158462 -0.00084666669 -0.026479591
-0.021687692 0 -0.0029693875
-0.033410769 0.00084666669 -0.026479591
-0.032238461 0.00084666669 -0.026087753
-0.022078462 -0.00127 -0.027263263
0.016216923 -0.00127 -0.0014020406
-0.018952308 -0.00042333335 -0.028438775
-0.016216923 -0.00042333335 -0.002185714
0.013481539 0.00042333335 -0.0276551
0.021687692 0 -0.0049285712
-0.034192309 0 -0.0080632651
-0.016607692 0 -0.032748979
0.020906154 -0.00127 -0.026087753
-0.015826155 -0.00042333335 -0.027263263
-0.0013676923 0 0.0029081632
0.011527692 -0.00042333335 -0.025695918
-0.0084015382 0.00127 -0.027263263
-0.0072292308 0.00127 -0.026479591
-0.00097692304 0 -0.012373469
0.018952308 0 -0.0025775507
-0.0013676923 0 -0.012765305
0.00097692304 0.00042333335 -0.026479591
0.0013676923 0.00042333335 -0.024912244
0.0087923082 0 -0.031965304
-0.036146153 0 -0.002185714
0.0099646151 -0.00127 -0.027263263
0.0087923082 0 -0.030397957
0.0052753845 -0.00084666669 -0.002185714
0.016607692 0.00042333335 -0.032357141
0.011136923 0 -0.033924486
0.011918462 -0.00127 -0.026871428
0.027939999 -0.00127 -0.0017938773
0.020124616 0.00127 -0.001010204
-0.0017584616 -0.00127 -0.026087753
-0.035364617 -0.00127 -0.00061836716
-0.013872308 -0.00084666669 -0.00022653048
-0.018952308 0 -0.0029693875
0.036536925 0 -0.02883061
0.021687692 0 -0.031965304
-0.026767692 0 -0.012373469
0.025595386 -0.00084666669 -0.026871428
-0.0041030771 -0.00127 -0.0014020406
0.033801537 -0.00042333335 -0.00022653048
-0.0087923082 -0.00042333335 -0.031965304
-0.021687692 0.00127 -0.0014020406
-0.0021492308 -0.00042333335 -0.026871428
-0.016607692 -0.00042333335 -0.023736734
-0.033410769 -0.00127 -0.002185714
0.021687692 0 -0.012765305
-0.005666154 0.00127 -0.026479591
-0.021296924 0 -0.030397957
-0.0091830771 0.00084666669 -0.002185714
-0.034192309 0 -0.033140816
-0.0091830771 0 -0.031181632
0.011527692 -0.00042333335 -0.0276551
-0.029893845 -0.00042333335 -0.002185714
0.021687692 0.00042333335 -0.0025775507
0.0064476924 0 -0.022561224
-0.00058615382 -0.00084666669 -0.002185714
-0.0041030771 0 0.0025163265
-0.011136923 0 -0.0068877549
0.029112307 0.00042333335 -0.002185714
-0.011136923 0.00042333335 -0.028046938
-0.0041030771 0 -0.0068877549
-0.025204616 0.00127 -0.0014020406
0.006056923 -0.00127 -0.002185714
-0.013481539 -0.00127 -0.002185714
0.021296924 0.00127 -0.028046938
-0.028330769 -0.00127 -0.027263263
0.021296924 0.00042333335 -0.026871428
0.010746154 0 -0.002185714
0.00254 0.00084666669 -0.026087753
0.0013676923 0.00127 -0.028046938
0.018561538 -0.00127 -0.0276551
-0.024032308 0 -0.02177755
0.020124616 -0.00127 -0.002185714
-0.018561538 0 -0.00022653048
-0.0084015382 -0.00127 -0.0014020406
-0.02286 0.00127 -0.026871428
-0.0087923082 -0.00127 -0.00022653048
-0.034583077 -0.00127 -0.00061836716
0.0087923082 -0.00084666669 -0.026871428
-0.0087923082 0.00042333335 -0.022561224
-0.018952308 0.00127 -0.027263263
0.02325077 0.00127 -0.002185714
-0.011136923 0.00042333335 -0.0276551
-0.015435385 0.00042333335 -0.027263263
0.0099646151 0.00042333335 -0.00022653048
-0.00097692304 0.00042333335 -0.027263263
0.0048846155 -0.00084666669 -0.026087753
0.013481539 0.00042333335 -0.028046938
-0.0013676923 0 -0.033140816
0.016607692 0 -0.010414286
-0.0029307692 0 -0.002185714
-0.018561538 -0.00042333335 -0.026479591
-0.024032308 0 -0.018642856
-0.0127 0 -0.028046938
-0.031066153 0.00127 -0.00022653048
-0.013872308 0 -0.02883061
0.033801537 0.00084666669 -0.028046938
-0.021296924 -0.00042333335 -0.026479591
-0.014263077 0.00127 -0.027263263
-0.0037123077 -0.00127 -0.0276551
0.035364617 -0.00127 -0.00061836716
0.01778 0.00042333335 -0.00022653048
-0.027939999 0.00127 -0.0276551
-0.0052753845 -0.00042333335 -0.026479591
-0.0099646151 0 -0.00022653048
0.036927693 0 -0.030397957
-0.0041030771 0 -0.033140816
-0.021687692 0.00042333335 -0.033140816
0.020515384 0.00042333335 -0.026479591
0.0064476924 0 -0.017467346
0.032629229 0.00127 -0.00061836716
-0.0127 -0.00084666669 -0.028046938
0.00019538462 0.00042333335 -0.00022653048
-0.013872308 -0.00042333335 -0.025304081
0.022078462 -0.00127 -0.0014020406
0.026767692 0 -0.017859183
-0.031847693 0 -0.030789794
0.005666154 -0.00127 -0.0276551
0.0029307692 0.00127 -0.00061836716
-0.0080107693 0.00127 -0.026479591
0.036927693 0.00042333335 -0.028046938
-0.036536925 0.00127 -0.0014020406
-0.0087923082 -0.00042333335 -0.028046938
-0.013872308 0 -0.0076714279
0.0064476924 0 -0.010806122
0.026767692 0 -0.025695918
0.00097692304 0.00084666669 -0.00022653048
-0.0099646151 0.00127 -0.001010204
-0.015435385 0.00042333335 -0.002185714
0.0041030771 0.00127 -0.00022653048
-0.036927693 -0.00084666669 -0.026871428
-0.034192309 0 -0.023736734
-0.034973845 0.00127 -0.001010204
-0.0084015382 -0.00127 -0.027263263
-0.023641538 -0.00042333335 -0.002185714
-0.018952308 0.00042333335 -0.028438775
0.024032308 0.00127 -0.001010204
-0.0037123077 0 -0.0061040814
0.036927693 0 -0.030006122
-0.0013676923 0.00042333335 -0.026871428
-0.034192309 0 -0.0025775507
0.0076199998 0.00042333335 -0.00022653048
0.018952308 0 -0.014332652
0.036536925 0.00084666669 -0.026871428
-0.006056923 0 0.0021244898
-0.0080107693 0.00084666669 -0.002185714
-0.034583077 -0.00127 -0.026479591
-0.021687692 0 -0.024128571
-0.0029307692 0.00084666669 -0.00022653048
0.026767692 0 -0.033924486
-0.032629229 0 -0.028046938
0.013872308 0 -0.031573467
0.015435385 0.00084666669 -0.002185714
-0.010746154 0.00127 -0.028046938
0.014263077 -0.00042333335 -0.002185714
-0.016607692 0 -0.030006122
-0.0080107693 -0.00042333335 -0.002185714
-0.0048846155 0.00084666669 -0.002185714
-0.034192309 0.00084666669 -0.002185714
0.031456925 0.00084666669 -0.002185714
-0.011136923 0 -0.0088469386
0.013872308 0 0.00094897969
0.0037123077 0 -0.0053204079
-0.036927693 0 0.00016530625
0.035364617 -0.00127 -0.001010204
0.024813846 0.00042333335 -0.026479591
0.0064476924 0 -0.033140816
0.0037123077 0 -0.022169387
-0.030284615 0.00042333335 -0.00061836716
0.011527692 0 -0.02883061
-0.0127 0.00084666669 -0.028046938
-0.019343076 -0.00042333335 -0.026479591
-0.01738923 -0.00127 -0.00022653048
0.021296924 0.00042333335 -0.025695918
0.025986154 0.00084666669 -0.026871428
-0.033801537 0.00127 -0.00061836716
0.034583077 0.00127 -0.001010204
0.026767692 0.00127 -0.026087753
-0.015826155 0.00084666669 -0.0276551
-0.027549231 0.00042333335 -0.026087753
-0.0068384614 0.00127 -0.026087753
0.025595386 -0.00127 -0.0017938773
-0.011136923 0 -0.0072795916
-0.026376924 0.00042333335 -0.028046938
-0.011527692 0 -0.031181632
0.016998462 -0.00127 -0.0017938773
-0.0068384614 -0.00127 -0.026871428
0.0013676923 -0.00127 -0.002185714
-0.037709232 -0.00084666669 -0.00022653048
0.013872308 0 -0.033532653
-0.013481539 -0.00084666669 -0.028046938
-0.027158462 0.00127 -0.027263263
0.029112307 -0.00127 -0.00061836716
0.019343076 0.00127 -0.0276551
-0.00097692304 -0.00127 -0.0017938773
-0.018952308 0 -0.029614285
0.0381 0.00042333335 -0.00061836716
0.015435385 -0.00127 -0.0014020406
0.0091830771 0.00127 -0.028046938
0.02325077 0 -0.028046938
-0.006056923 0.00127 -0.0017938773
-0.026376924 0 -0.025304081
-0.0072292308 0.00127 -0.0014020406
-0.011527692 0 -0.034316324
0.025986154 0.00127 -0.0276551
-0.02286 0.00127 -0.0017938773
-0.035755385 0 -0.002185714
-0.00097692304 0 -0.02177755
0.033020001 0.00084666669 -0.028046938
-0.013872308 0 -0.032357141
0.034192309 0 -0.013940816
-0.021687692 0 -0.016291836
0.031847693 0.00084666669 -0.026087753
0.024032308 0 -0.020993877
-0.00019538462 0 -0.00022653048
-0.027158462 -0.00127 -0.00061836716
0.0064476924 -0.00084666669 -0.002185714
0.0381 0.00042333335 -0.0276551
0.035364617 -0.00084666669 -0.028046938
-0.013090769 0.00127 -0.028046938
-0.015826155 -0.00084666669 -0.028046938
-0.013872308 0 -0.030789794
-0.033020001 -0.00042333335 -0.026087753
-0.024032308 0 -0.0053204079
0.02246923 0.00084666669 -0.028046938
0.006056923 0 -0.02883061
-0.011136923 0.00127 -0.028046938
-0.00097692304 0 -0.020993877
-0.034192309 0 -0.011197959
0.035364617 0 -0.002185714
-0.018952308 -0.00042333335 -0.02177755
0.036927693 0 -0.02295306
-0.026376924 0 -0.0064959181
-0.011918462 -0.00127 -0.028046938
0.032238461 0.00042333335 -0.026087753
-0.0068384614 0.00127 -0.026871428
-0.01738923 -0.00127 -0.0017938773
0.031847693 0 -0.029222447
0.0080107693 -0.00127 -0.027263263
-0.034192309 0 -0.02883061
0.00019538462 0.00084666669 -0.00022653048
0.0087923082 0 0.0025163265
-0.013090769 0 -0.00022653048
0.020906154 -0.00127 -0.002185714
-0.010746154 -0.00127 -0.00061836716
0.013872308 0 -0.0092387749
0.020124616 -0.00084666669 -0.00022653048
0.020906154 -0.00042333335 -0.00022653048
-0.026376924 0 -0.030397957
-0.010746154 0.00127 -0.00061836716
-0.027158462 -0.00127 -0.00022653048
0.0037123077 -0.00127 -0.00061836716
-0.0084015382 0 -0.002185714
-0.010746154 -0.00042333335 -0.026087753
-0.018952308 0.00042333335 -0.026087753
0.037318461 0.00084666669 -0.00022653048
0.034192309 0 -0.018642856
-0.005666154 0.00127 -0.0276551
0.00254 0.00127 -0.00061836716
0.034973845 0 -0.00022653048
0.027158462 0.00084666669 -0.028046938
0.02286 -0.00127 -0.026087753
-0.00097692304 0 -0.013157142
-0.013872308 0.00127 -0.0017938773
-0.035755385 -0.00127 -0.026479591
0.0013676923 -0.00084666669 -0.002185714
-0.015044616 -0.00127 -0.028046938
0.011136923 0.00084666669 -0.026871428
-0.031847693 0 -0.029222447
-0.0084015382 0 -0.025695918
-0.016998462 0 -0.002185714
0.0087923082 -0.00127 -0.001010204
0.021687692 0 -0.013548979
-0.024032308 0 -0.031573467
-0.026376924 -0.00042333335 -0.026087753
0.033020001 -0.00084666669 -0.00022653048
-0.0013676923 0 -0.021385713
-0.034192309 0.00042333335 -0.026087753
-0.021296924 0 -0.032357141
-0.036536925 -0.00084666669 -0.026871428
-0.010355385 -0.00127 -0.0014020406
0.023641538 -0.00127 -0.026087753
0.0041030771 0.00042333335 -0.0276551
-0.006056923 -0.00084666669 -0.00022653048
0.016607692 0.00042333335 -0.033532653
0.024032308 0 -0.013548979
-0.006056923 0 -0.0092387749
-0.024813846 0 -0.002185714
0.0052753845 -0.00084666669 -0.026479591
-0.014263077 0.00127 -0.026871428
0.032238461 0.00084666669 -0.002185714
-0.0064476924 0.00042333335 -0.025304081
-0.0037123077 0 -0.0068877549
0.018952308 0 -0.033532653
0.026376924 0.00042333335 -0.00022653048
-0.018952308 0 -0.032748979
0.0021492308 0.00127 -0.026871428
-0.034973845 -0.00127 -0.00022653048
-0.016216923 0 -0.033140816
-0.013090769 -0.00127 -0.0017938773
0.037709232 0.00084666669 -0.00061836716
-0.0041030771 0.00042333335 -0.027263263
0.014263077 -0.00127 -0.0276551
-0.020906154 -0.00084666669 -0.00022653048
0.025595386 0.00084666669 -0.00022653048
0.020906154 -0.00127 -0.0014020406
-0.030284615 -0.00127 -0.027263263
0.016216923 0 -0.012373469
0.011527692 0 -0.022169387
-0.0037123077 0 -0.010806122
0.0072292308 -0.00084666669 -0.00022653048
-0.0037123077 0 -0.024912244
0.022078462 0.00084666669 -0.002185714
0.016607692 0 -0.034316324
0.031847693 0 -0.031573467
-0.0013676923 -0.00042333335 -0.029614285
-0.018952308 0 -0.032357141
-0.021687692 0.00127 -0.001010204
-0.035755385 -0.00127 -0.0017938773
0.006056923 0 -0.031181632
0.00254 -0.00042333335 -0.026871428
-0.024423078 -0.00127 -0.002185714
-0.0087923082 0 0.00016530625
0.014263077 -0.00084666669 -0.002185714
-0.011136923 0.00127 -0.026871428
0.02286 -0.00127 -0.027263263
0.030284615 -0.00042333335 -0.00022653048
-0.036927693 0 -0.0053204079
-0.013481539 0.00042333335 -0.027263263
-0.011527692 -0.00084666669 -0.00022653048
-0.026767692 0 -0.0041448977
-0.020906154 -0.00127 -0.002185714
-0.026376924 0.00127 -0.027263263
0.0037123077 0.00127 -0.026479591
0.023641538 0.00084666669 -0.002185714
0.029112307 0 -0.010806122
-0.021296924 0 -0.018642856
0.028330769 0.00127 -0.002185714
0.011136923 0 -0.029222447
0.016216923 0 -0.0061040814
0.00097692304 0.00042333335 -0.027263263
0.024032308 0 -0.021385713
-0.013872308 0.00084666669 -0.002185714
-0.018561538 -0.00084666669 -0.002185714
-0.0087923082 0 -0.0033612242
0.016216923 0 -0.023344897
0.011136923 0 -0.033532653
-0.0013676923 -0.00127 -0.027263263
0.024032308 0 -0.017467346
0.011918462 0.00084666669 -0.002185714
0.024032308 0 -0.0025775507
-0.0072292308 0.00042333335 -0.028046938
0.010355385 0.00042333335 -0.028046938
-0.00254 -0.00127 -0.0017938773
0.013090769 -0.00127 -0.0017938773
-0.014653847 0.00042333335 -0.026871428
-0.019343076 -0.00127 -0.027263263
-0.033410769 0.00042333335 -0.0276551
0.00097692304 0 0.00055714295
0.0013676923 0 -0.021385713
-0.016216923 0.00042333335 -0.026479591
-0.0064476924 0 -0.0029693875
0.029112307 0 -0.01825102
-0.026376924 0 -0.013548979
0.0072292308 0.00084666669 -0.00022653048
-0.029112307 0 -0.01942653
0.031847693 -0.00042333335 -0.0025775507
0.018561538 0 -0.002185714
0.0013676923 0 -0.017859183
0.0127 -0.00127 -0.00022653048
-0.033020001 0.00042333335 -0.002185714
0.0064476924 0 -0.0061040814
-0.0013676923 0 -0.025695918
0.016607692 0.00042333335 -0.033140816
0.016607692 0 -0.020993877
0.0076199998 0.00127 -0.001010204
0.0041030771 0.00127 -0.028046938
0.036536925 0.00084666669 -0.026479591
0.033410769 0.00084666669 -0.026479591
0.029112307 -0.00127 -0.00022653048
-0.011136923 -0.00084666669 -0.002185714
0.0037123077 -0.00042333335 -0.0276551
0.013872308 0 0.00016530625
0.023641538 -0.00042333335 -0.002185714
-0.035755385 0.00042333335 -0.0276551
-0.00019538462 -0.00127 -0.00022653048
-0.027158462 0.00127 -0.026087753
-0.02325077 -0.00127 -0.00022653048
-0.0064476924 0.00042333335 -0.024128571
0.01738923 -0.00042333335 -0.026479591
0.028330769 -0.00127 -0.026087753
-0.026376924 0 -0.011981632
0.016607692 -0.00042333335 -0.02295306
0.016607692 -0.00127 -0.028046938
-0.018170768 -0.00084666669 -0.028046938
0.036536925 -0.00127 -0.0017938773
-0.022078462 0.00127 -0.0017938773
-0.021687692 0 0.0013408164
-0.019733846 0.00127 -0.00061836716
-0.027158462 0.00042333335 -0.027263263
-0.024032308 -0.00084666669 -0.00022653048
-0.035364617 -0.00127 -0.001010204
0.022078462 -0.00127 -0.028046938
0.025204616 -0.00127 -0.0017938773
-0.015435385 -0.00084666669 -0.00022653048
0.016607692 0.00042333335 -0.0029693875
0.013872308 0 -0.019818366
-0.026767692 0.00042333335 -0.026479591
0.0091830771 0.00042333335 -0.027263263
-0.021687692 0 -0.0057122447
0.022078462 0.00042333335 -0.026479591
-0.018170768 0 -0.026087753
0.020515384 0.00127 -0.002185714
0.025204616 0 -0.028046938
0.02246923 -0.00127 -0.026871428
0.0037123077 0 -0.01942653
0.036927693 0.00127 -0.001010204
-0.025595386 -0.00084666669 -0.00022653048
0.029503077 0.00084666669 -0.026479591
0.016216923 0 -0.0072795916
-0.01738923 0 -0.028046938
0.023641538 0.00127 -0.027263263
0.0041030771 0.00127 -0.002185714
0.010355385 -0.00127 -0.027263263
-0.0087923082 0 -0.02060204
-0.037709232 0.00084666669 -0.0017938773
0.016216923 0.00042333335 -0.026087753
0.010746154 0.00084666669 -0.026871428
0.031847693 0 -0.019818366
-0.020515384 0.00042333335 -0.028046938
-0.011136923 0 -0.0053204079
-0.0048846155 0.00127 -0.002185714
0.026767692 0 -0.0061040814
-0.0052753845 -0.00042333335 -0.027263263
0.020906154 0.00084666669 -0.00022653048
0.00097692304 0 -0.018642856
0.016216923 0 -0.011197959
0.026767692 0.00042333335 -0.028438775
0.0381 0.00042333335 -0.027263263
0.0091830771 0.00084666669 -0.00022653048
-0.028721539 -0.00127 -0.002185714
-0.0037123077 0 -0.030789794
0.031456925 0.00127 -0.00022653048
0.00097692304 0 -0.016291836
-0.0087923082 -0.00042333335 -0.030006122
0.0064476924 0 -0.015508163
0.024032308 0.00042333335 -0.026479591
-0.029112307 0 -0.02177755
-0.02286 0.00127 -0.027263263
0.0048846155 0.00127 -0.001010204
0.016607692 0 -0.01825102
-0.006056923 0 -0.0061040814
0.018561538 -0.00127 -0.027263263
0.020515384 0.00042333335 -0.002185714
0.026376924 0 0.00016530625
0.0013676923 -0.00127 -0.027263263
0.0021492308 0 -0.002185714
0.019343076 -0.00127 -0.028046938
-0.021296924 0 -0.029222447
-0.012309231 -0.00127 -0.028046938
-0.011527692 0.00127 -0.0017938773
-0.0064476924 0 0.00016530625
-0.033020001 0.00084666669 -0.026871428
-0.023641538 -0.00042333335 -0.026479591
-0.014653847 -0.00127 -0.0276551
0.036927693 0 -0.0041448977
-0.0013676923 -0.00127 -0.00022653048
0.029112307 -0.00127 -0.027263263
0.006056923 0.00042333335 -0.00022653048
0.035364617 0.00084666669 -0.00022653048
-0.0087923082 -0.00042333335 -0.0276551
0.00097692304 0 -0.023344897
0.0072292308 0 -0.00022653048
0.013872308 -0.00127 -0.001010204
0.026376924 0 -0.030397957
-0.0087923082 -0.00042333335 -0.00022653048
-0.015044616 0.00127 -0.002185714
0.0087923082 0.00127 -0.026479591
0.018170768 0.00127 -0.0276551
0.00097692304 0.00127 -0.027263263
-0.026767692 -0.00127 -0.0276551
-0.006056923 0.00127 -0.001010204
0.0095738461 -0.00127 -0.0276551
0.019343076 0.00042333335 -0.00022653048
0.021687692 0.00042333335 -0.028438775
0.033801537 0 -0.00022653048
-0.015044616 -0.00127 -0.0014020406
0.020515384 -0.00042333335 -0.028046938
0.015435385 -0.00042333335 -0.026087753
0.033410769 -0.00084666669 -0.026087753
-0.035755385 -0.00084666669 -0.026087753
-0.0072292308 0.00127 -0.028046938
0.0029307692 -0.00127 -0.0276551
-0.027939999 0.00084666669 -0.027263263
0.021687692 -0.00042333335 -0.026479591
-0.01778 0.00127 -0.0014020406
-0.018952308 0 -0.0076714279
-0.0048846155 0.00042333335 -0.026871428
-0.034192309 0 -0.0096306121
0.021687692 -0.00127 -0.026479591
0.01778 -0.00084666669 -0.00022653048
0.010355385 0.00042333335 -0.00022653048
-0.0013676923 0 -0.0037530609
0.011527692 0 -0.028438775
-0.019733846 -0.00127 -0.027263263
-0.029503077 -0.00127 -0.026479591
-0.033410769 -0.00127 -0.028046938
0.011918462 -0.00127 -0.027263263
0.013872308 0 -0.018642856
0.035755385 -0.00127 -0.027263263
0.036146153 0.00127 -0.00061836716
-0.032629229 -0.00127 -0.0017938773
0.034973845 0.00127 -0.00061836716
-0.031847693 0 -0.021385713
-0.0037123077 -0.00127 -0.001010204
-0.026376924 0.00127 -0.026479591
-0.013090769 -0.00127 -0.00022653048
0.027939999 0.00042333335 -0.002185714
-0.021296924 0 -0.0076714279
0.011527692 0 0.0029081632
0.005666154 0.00127 -0.027263263
-0.037318461 -0.00127 -0.00061836716
0.022078462 0 -0.028046938
-0.0087923082 0.00127 -0.028046938
-0.029893845 0.00127 -0.028046938
0.020124616 -0.00127 -0.001010204
0.0037123077 0 -0.010022448
-0.0072292308 0.00127 -0.00061836716
-0.00254 0.00042333335 -0.027263263
0.035755385 -0.00084666669 -0.0276551
0.020515384 0.00127 -0.026871428
0.0013676923 0.00042333335 -0.02295306
-0.029893845 0.00042333335 -0.027263263
-0.0087923082 0 -0.011589795
-0.011136923 0 -0.023344897
-0.015044616 0.00127 -0.028046938
0.019343076 -0.00042333335 -0.026087753
0.016607692 0 -0.0080632651
0.020124616 -0.00084666669 -0.027263263
-0.016998462 0.00042333335 -0.026087753
0.024032308 0 -0.02295306
0.033410769 -0.00042333335 -0.027263263
-0.0064476924 0 -0.014724489
0.0037123077 0 -0.02883061
-0.029112307 0 0.0029081632
-0.027549231 0.00127 -0.028046938
-0.031456925 -0.00084666669 -0.00022653048
-0.031066153 0.00042333335 -0.028046938
0.012309231 0.00127 -0.001010204
-0.0087923082 0.00042333335 -0.0025775507
-0.025595386 0.00127 -0.028046938
0.031847693 0 -0.030789794
0.024423078 0.00042333335 -0.026087753
-0.006056923 0 -0.0037530609
0.018170768 0 -0.028046938
-0.016607692 0 -0.015116326
-0.016998462 -0.00042333335 -0.002185714
-0.031847693 0 0.0025163265
-0.0064476924 0 -0.017467346
-0.025986154 0.00127 -0.026479591
-0.0095738461 -0.00127 -0.001010204
0.00019538462 -0.00042333335 -0.026871428
0.024423078 0.00042333335 -0.00022653048
-0.016607692 -0.00042333335 -0.026479591
0.011527692 0 -0.0037530609
0.016607692 0 -0.0068877549
0.013872308 0 -0.02060204
-0.011918462 -0.00127 -0.002185714
0.0087923082 0 -0.013940816
0.030675385 0.00127 -0.00022653048
-0.021296924 0 0.0021244898
0.021687692 0 -0.033924486
0.0099646151 -0.00042333335 -0.00022653048
0.024032308 0 -0.033532653
-0.037709232 0.00042333335 -0.001010204
-0.036927693 0 -0.0080632651
0.028721539 -0.00127 -0.0017938773
0.00019538462 -0.00042333335 -0.002185714
-0.010746154 0 -0.00022653048
0.011527692 0.00127 -0.002185714
-0.034192309 0 -0.022169387
0.013872308 0 -0.02177755
0.0095738461 0.00127 -0.0017938773
-0.015435385 0.00042333335 -0.00022653048
0.037709232 -0.00084666669 -0.026479591
-0.016998462 -0.00084666669 -0.0276551
-0.034192309 0 -0.033532653
-0.029503077 0.00127 -0.0276551
-0.006056923 0 -0.014332652
-0.034192309 0 -0.030006122
0.026767692 0.00127 -0.00061836716
-0.013872308 0 -0.013548979
0.011918462 0.00127 -0.00022653048
-0.025595386 -0.00042333335 -0.026479591
-0.0080107693 0.00042333335 -0.027263263
-0.020906154 0.00127 -0.00022653048
0.0091830771 0.00127 -0.002185714
0.0087923082 0.00042333335 -0.00022653048
-0.036927693 0 -0.022561224
0.021687692 0 -0.017859183
0.024423078 0 -0.02883061
-0.021296924 0.00042333335 -0.026871428
-0.010746154 0.00127 -0.0276551
0.011918462 -0.00127 -0.002185714
0.014263077 -0.00127 -0.026871428
0.0084015382 0.00127 -0.0014020406
0.016998462 -0.00127 -0.026871428
0.026767692 0 0.00016530625
-0.021687692 0 -0.033140816
-0.031847693 0.00127 -0.001010204
0.011136923 0 -0.022561224
-0.018170768 0.00127 -0.0276551
0.028721539 0.00042333335 -0.00022653048
0.02286 0.00084666669 -0.002185714
0.00097692304 0 -0.033924486
-0.00097692304 0 -0.02883061
-0.006056923 0 -0.016683673
0.0091830771 -0.00127 -0.026871428
0.014653847 0.00127 -0.028046938
-0.033410769 -0.00127 -0.026479591
-0.026767692 0 -0.014724489
0.0076199998 0.00127 -0.00061836716
-0.031066153 -0.00127 -0.026479591
0.016216923 -0.00127 -0.028046938
-0.00058615382 0.00127 -0.00061836716
0.036536925 0.00042333335 -0.002185714
0.026767692 0 -0.0053204079
-0.0064476924 -0.00127 -0.026479591
-0.033801537 0 -0.026087753
-0.032238461 0.00084666669 -0.026479591
-0.0099646151 -0.00042333335 -0.002185714
0.023641538 -0.00042333335 -0.00022653048
-0.0064476924 0.00127 -0.026087753
-0.032629229 0.00042333335 -0.002185714
0.0080107693 0.00042333335 -0.002185714
-0.031066153 0.00084666669 -0.002185714
0.0013676923 0 -0.025304081
0.010355385 0.00127 -0.0017938773
-0.010746154 -0.00127 -0.0014020406
0.035364617 -0.00127 -0.0014020406
-0.036927693 -0.00084666669 -0.0276551
-0.019343076 -0.00127 -0.0014020406
0.00019538462 -0.00127 -0.0017938773
0.026767692 0 -0.0064959181
0.011527692 -0.00042333335 -0.00022653048
-0.025204616 0.00084666669 -0.028046938
-0.0037123077 0 -0.034316324
-0.014263077 -0.00127 -0.00061836716
-0.033020001 -0.00042333335 -0.028046938
0.010355385 0.00127 -0.0276551
-0.024032308 0.00042333335 -0.026479591
-0.028330769 0.00127 -0.00022653048
0.021296924 0.00127 -0.0014020406
-0.0072292308 -0.00042333335 -0.002185714
-0.034192309 0 -0.019034693
0.0029307692 -0.00127 -0.026479591
-0.0064476924 0.00084666669 -0.026871428
-0.018952308 0.00084666669 -0.002185714
0.019343076 0.00042333335 -0.026871428
-0.020124616 0.00127 -0.028046938
0.013872308 0 -0.0088469386
-0.0048846155 0.00127 -0.028046938
0.028330769 0.00127 -0.0276551
0.00254 -0.00084666669 -0.00022653048
0.020124616 0.00127 -0.026479591
0.011136923 0 -0.030006122
-0.011527692 0 -0.0041448977
0.016607692 0 -0.014332652
0.0033215384 0.00127 -0.0014020406
-0.0087923082 0 -0.022169387
0.026376924 0 -0.024128571
0.016216923 0.00084666669 -0.027263263
0.026767692 0 -0.031965304
0.034973845 0.00084666669 -0.026479591
-0.031847693 0 -0.030397957
0.011527692 0 -0.019034693
-0.027549231 0.00084666669 -0.002185714
0.021687692 0 -0.031573467
-0.020515384 -0.00084666669 -0.00022653048
0.011136923 0 -0.014332652
-0.013090769 0.00042333335 -0.002185714
-0.030284615 -0.00084666669 -0.026479591
-0.020124616 -0.00127 -0.001010204
-0.032238461 0 -0.002185714
0.034192309 0 -0.033924486
-0.016216923 -0.00084666669 -0.00022653048
-0.036927693 0 -0.024128571
0.022078462 -0.00127 -0.0276551
0.00097692304 0 0.0017326531
0.011136923 -0.00042333335 -0.026087753
0.034192309 -0.00084666669 -0.026479591
-0.011527692 0 -0.030397957
0.006056923 0 -0.022169387
0.014653847 -0.00127 -0.001010204
0.023641538 -0.00084666669 -0.028046938
-0.00097692304 0 -0.015508163
-0.014653847 0.00127 -0.026871428
0.0064476924 0 -0.0064959181
0.032238461 -0.00084666669 -0.028046938
-0.0041030771 -0.00042333335 -0.00061836716
-0.031847693 -0.00042333335 -0.00061836716
-0.022078462 0.00084666669 -0.00022653048
-0.037709232 0.00084666669 -0.026871428
0.013872308 0 -0.024520406
-0.0041030771 0 -0.017467346
-0.01778 0.00042333335 -0.00022653048
0.0064476924 0 -0.017859183
-0.0068384614 0.00127 -0.00022653048
-0.031847693 0.00084666669 -0.026479591
0.0068384614 0.00042333335 -0.002185714
-0.029503077 0.00127 -0.00061836716
-0.011136923 0 -0.0033612242
0.011136923 0 -0.023344897
-0.031847693 -0.00127 -0.026871428
-0.016216923 0 -0.029614285
-0.0041030771 0 -0.017075509
-0.023641538 0.00127 -0.027263263
-0.018952308 0 -0.0045367344
0.018952308 0 -0.0033612242
-0.0091830771 0 0.0025163265
0.026767692 0 0.00055714295
-0.037709232 0.00084666669 -0.001010204
0.028330769 -0.00127 -0.0276551
0.011136923 0 -0.012765305
-0.00254 0.00042333335 -0.028046938
0.027549231 0.00127 -0.026871428
0.013872308 0 -0.022561224
-0.0064476924 0 -0.020210203
0.033020001 0.00127 -0.027263263
0.025204616 0.00127 -0.026871428
0.034583077 0 -0.028046938
-0.022078462 -0.00127 -0.0017938773
-0.036146153 0.00042333335 -0.026087753
0.0095738461 0.00042333335 -0.026087753
-0.033801537 0 -0.002185714
-0.026767692 -0.00127 -0.0014020406
0.021687692 0 -0.011589795
0.021687692 0.00084666669 -0.00022653048
0.013872308 0 0.0029081632
-0.00097692304 0 -0.033924486
0.0017584616 -0.00042333335 -0.002185714
0.024032308 0.00127 -0.028046938
-0.019733846 0.00127 -0.027263263
0.02246923 -0.00127 -0.026479591
-0.011527692 0 -0.022169387
0.013090769 0.00127 -0.0017938773
0.026376924 0 -0.015508163
-0.029112307 0 -0.023344897
-0.028721539 0.00127 -0.00061836716
0.0127 0.00042333335 -0.00022653048
0.032629229 0.00042333335 -0.002185714
0.026767692 0 -0.0080632651
-0.013872308 0 -0.015508163
0.006056923 0 0.00055714295
0.033020001 0.00084666669 -0.026479591
0.0064476924 0.00127 -0.00022653048
0.018561538 0.00042333335 -0.026087753
-0.005666154 0 -0.026087753
0.0013676923 0 -0.014332652
0.021296924 -0.00084666669 -0.027263263
0.021296924 0.00127 -0.0017938773
0.0076199998 -0.00127 -0.026871428
0.026767692 0 -0.019034693
0.015044616 0.00042333335 -0.00022653048
-0.035755385 -0.00084666669 -0.028046938
0.016607692 0 -0.0037530609
-0.034192309 -0.00042333335 -0.028046938
0.027158462 -0.00127 -0.028046938
-0.0127 -0.00127 -0.001010204
0.011527692 0 -0.031573467
-0.020906154 -0.00042333335 -0.026479591
-0.026376924 0 -0.014332652
0.026767692 0 -0.01825102
0.0048846155 0.00127 -0.028046938
0.019343076 -0.00127 -0.001010204
-0.036927693 -0.00127 -0.002185714
0.021687692 0 0.0021244898
-0.00254 -0.00042333335 -0.027263263
0.016607692 -0.00127 -0.002185714
-0.012309231 -0.00127 -0.0017938773
0.029112307 0.00127 -0.0014020406
0.029112307 0 -0.0041448977
0.026376924 0 -0.029222447
0.0044938461 0.00042333335 -0.002185714
0.006056923 0.00084666669 -0.002185714
0.010746154 -0.00042333335 -0.026087753
0.006056923 0 -0.030397957
0.035755385 0.00084666669 -0.026479591
-0.024423078 0.00084666669 -0.00022653048
-0.0037123077 0 -0.02060204
0.00058615382 0.00127 -0.00061836716
-0.025986154 0.00127 -0.028046938
-0.011918462 0 -0.026087753
0.0033215384 -0.00042333335 -0.00061836716
-0.035755385 0.00042333335 -0.026087753
0.021687692 0 -0.024520406
0.025986154 -0.00084666669 -0.00022653048
0.02286 0.00127 -0.026871428
-0.011527692 -0.00042333335 -0.00022653048
-0.011136923 0.00042333335 -0.027263263
-0.016607692 0 0.0013408164
-0.018952308 0 -0.0025775507
0.026767692 0 -0.033140816
0.036927693 0 -0.0092387749
0.016607692 0 -0.019034693
0.013481539 -0.00127 -0.00061836716
-0.0041030771 0.00042333335 -0.026087753
-0.0013676923 0 -0.029614285
0.036146153 0.00127 -0.028046938
0.013872308 0 -0.011589795
0.030284615 0.00127 -0.0014020406
-0.016607692 0 -0.023736734
-0.018952308 0 0.00094897969
-0.005666154 -0.00042333335 -0.002185714
0.0037123077 0 0.0013408164
0.015826155 0.00084666669 -0.00022653048
-0.034192309 0 -0.021385713
0.021687692 0 0.0013408164
0.021687692 -0.00042333335 -0.029614285
0.036536925 0.00084666669 -0.028046938
-0.0037123077 0 -0.013940816
0.02286 -0.00084666669 -0.028046938
-0.024032308 -0.00042333335 -0.00022653048
-0.026767692 0.00127 -0.026479591
0.013481539 0.00127 -0.0014020406
-0.025986154 -0.00042333335 -0.026479591
0.034192309 0 -0.025304081
-0.0037123077 -0.00084666669 -0.00022653048
-0.020124616 0.00127 -0.0014020406
0.026767692 -0.00127 -0.00061836716
-0.006056923 0.00127 -0.0276551
-0.02325077 -0.00042333335 -0.026479591
0.0013676923 0 -0.032748979
0.0087923082 0 -0.033924486
-0.0041030771 0 -0.022169387
-0.005666154 -0.00084666669 -0.002185714
-0.0037123077 0.00127 -0.026479591
0.00097692304 -0.00127 -0.026479591
-0.028330769 -0.00127 -0.001010204
-0.027939999 0.00127 -0.00022653048
0.015826155 -0.00042333335 -0.028046938
-0.031847693 0 -0.031573467
0.013481539 0 -0.026087753
-0.010355385 -0.00127 -0.0276551
-0.032629229 0.00127 -0.00022653048
0.0021492308 -0.00042333335 -0.026871428
0.021687692 0 -0.0092387749
0.016607692 0.00127 -0.0017938773
0.018561538 0.00042333335 -0.00022653048
0.014263077 0 -0.00022653048
0.0037123077 0.00042333335 -0.030789794
-0.026767692 -0.00042333335 -0.00022653048
0.033801537 -0.00042333335 -0.026087753
0.006056923 0.00084666669 -0.00022653048
-0.006056923 -0.00042333335 -0.0276551
0.01738923 -0.00042333335 -0.00022653048
-0.036536925 0.00127 -0.00061836716
-0.0052753845 0.00127 -0.026087753
-0.0013676923 0.00042333335 -0.028438775
0.011918462 0.00127 -0.001010204
-0.034192309 0 -0.019818366
0.0087923082 -0.00042333335 -0.030397957
0.011136923 0 -0.0053204079
0.024423078 -0.00127 -0.028046938
-0.011527692 0 -0.0076714279
0.019733846 -0.00042333335 -0.00022653048
0.034192309 0 -0.020210203
-0.029503077 -0.00127 -0.0014020406
0.023641538 -0.00084666669 -0.026871428
0.0037123077 0 -0.029614285
0.015826155 -0.00127 -0.028046938
-0.0127 0.00127 -0.00061836716
0.013872308 0 -0.02295306
0.037318461 0.00127 -0.001010204
0.016607692 0.00042333335 -0.02883061
-0.0037123077 0.00042333335 -0.025695918
0.0064476924 0.00042333335 -0.030397957
0.021687692 0.00127 -0.002185714
-0.005666154 0.00084666669 -0.00022653048
-0.015435385 -0.00127 -0.0276551
-0.015044616 0.00042333335 -0.026871428
0.024032308 0 -0.025695918
0.0017584616 0.00042333335 -0.026087753
-0.013872308 0 -0.011197959
-0.011527692 0 -0.014332652
0.016607692 -0.00042333335 -0.0029693875
-0.0052753845 -0.00127 -0.027263263
-0.011136923 0 -0.032748979
0.010355385 -0.00127 -0.026871428
0.020124616 0 -0.026087753
-0.028330769 0.00042333335 -0.026087753
-0.024032308 0.00084666669 -0.026871428
-0.034583077 -0.00127 -0.0017938773
-0.027158462 0.00127 -0.001010204
-0.020515384 -0.00084666669 -0.027263263
0.027158462 0.00127 -0.026087753
0.020906154 -0.00084666669 -0.00022653048
0.01778 0.00127 -0.027263263
0.018952308 0 -0.01942653
-0.0037123077 0 -0.019034693
0.006056923 -0.00127 -0.026871428
-0.025595386 -0.00127 -0.0276551
-0.00097692304 -0.00042333335 -0.0025775507
-0.035755385 -0.00127 -0.027263263
0.036927693 0 -0.013548979
0.029112307 0 -0.019034693
0.031847693 0.00042333335 -0.00022653048
-0.026767692 0 -0.0064959181
0.026767692 -0.00127 -0.026871428
-0.036536925 -0.00042333335 -0.026087753
0.00097692304 -0.00127 -0.00022653048
0.032238461 0.00127 -0.001010204
-0.018952308 0 -0.034316324
-0.024813846 0.00127 -0.00061836716
-0.016607692 -0.00042333335 -0.0025775507
-0.00058615382 -0.00042333335 -0.002185714
-0.011527692 0.00042333335 -0.024128571
0.0068384614 -0.00042333335 -0.027263263
0.031847693 0 -0.01942653
-0.014263077 -0.00042333335 -0.002185714
-0.026767692 -0.00042333335 -0.0025775507
-0.026376924 0 -0.019818366
0.0095738461 -0.00042333335 -0.026087753
0.00058615382 -0.00127 -0.0014020406
-0.0048846155 0.00127 -0.026479591
-0.034192309 0 -0.032357141
0.021687692 -0.00042333335 -0.031181632
0.0013676923 0 -0.0064959181
-0.021687692 0 -0.0053204079
-0.025595386 0 -0.00022653048
0.0052753845 0.00127 -0.028046938
0.0087923082 -0.00127 -0.026871428
0.021687692 -0.00084666669 -0.027263263
-0.015435385 -0.00127 -0.001010204
0.010746154 0.00127 -0.002185714
-0.029112307 0 -0.0072795916
0.016607692 0 0.0025163265
-0.018952308 0 -0.022561224
-0.005666154 0.00042333335 -0.027263263
-0.018561538 0.00084666669 -0.028046938
0.006056923 0.00127 -0.001010204
-0.019733846 0.00127 -0.002185714
0.026767692 -0.00084666669 -0.002185714
-0.013872308 0 0.00055714295
0.0087923082 0 -0.011981632
0.019343076 0.00084666669 -0.027263263
0.025595386 -0.00127 -0.026087753
-0.019733846 0.00042333335 -0.026087753
0.0013676923 -0.00042333335 -0.030006122
-0.029893845 0 -0.026087753
-0.00097692304 0 -0.00022653048
0.037709232 -0.00084666669 -0.001010204
0.029893845 -0.00084666669 -0.026871428
-0.021687692 0 -0.016683673
-0.0072292308 0.00084666669 -0.00022653048
0.036927693 0 -0.0096306121
-0.018952308 0 -0.021385713
0.00097692304 0 -0.0053204079
0.013872308 0 -0.034316324
-0.023641538 0.00042333335 -0.002185714
0.030675385 0.00042333335 -0.026087753
0.0087923082 0 0.00055714295
-0.029112307 -0.00127 -0.00061836716
-0.026767692 0 -0.0061040814
0.0052753845 -0.00127 -0.00061836716
-0.02246923 0.00084666669 -0.002185714
-0.029503077 0.00042333335 -0.00061836716
-0.037709232 -0.00042333335 -0.0014020406
0.034192309 0 -0.010022448
0.0052753845 0.00127 -0.0017938773
-0.020515384 -0.00042333335 -0.026087753
0.025595386 0.00042333335 -0.026479591
0.026376924 0 0.00094897969
-0.011136923 0 -0.017467346
-0.02246923 0.00084666669 -0.028046938
0.033801537 0.00042333335 -0.028046938
0.022078462 0.00127 -0.002185714
0.031066153 0.00084666669 -0.026479591
-0.034192309 -0.00127 -0.00061836716
-0.011527692 0 -0.013548979
0.0127 0.00127 -0.001010204
-0.00097692304 0 -0.010414286
0.028330769 0.00084666669 -0.026479591
0.005666154 0.00127 -0.00061836716
0.023641538 0 -0.00022653048
-0.006056923 0 -0.0029693875
-0.01738923 -0.00042333335 -0.002185714
-0.0041030771 0 -0.032357141
0.029112307 0 -0.0049285712
-0.0021492308 0.00042333335 -0.00022653048
-0.033410769 -0.00127 -0.00061836716
-0.036536925 0.00042333335 -0.026871428
-0.037709232 0 -0.00061836716
-0.0127 -0.00042333335 -0.002185714
-0.021687692 0 -0.011981632
-0.0080107693 -0.00127 -0.0014020406
0.006056923 0.00127 -0.0017938773
0.0064476924 -0.00127 -0.001010204
0.013872308 0 -0.025695918
-0.033801537 0.00042333335 -0.027263263
0.0052753845 -0.00042333335 -0.0276551
-0.0013676923 -0.00127 -0.0014020406
0.0041030771 -0.00127 -0.0017938773
-0.013481539 0 -0.026087753
-0.0029307692 0 -0.00022653048
0.035364617 0.00084666669 -0.027263263
-0.006056923 0.00127 -0.026871428
-0.016607692 0.00042333335 -0.022169387
-0.0064476924 -0.00127 -0.026871428
-0.026767692 0 -0.030006122
-0.0037123077 0 -0.0057122447
-0.0013676923 0 -0.020210203
0.0064476924 0 -0.029614285
0.0068384614 0.00127 -0.0276551
-0.01778 -0.00042333335 -0.002185714
0.014653847 0.00084666669 -0.028046938
0.030675385 0.00042333335 -0.00022653048
0.0072292308 -0.00127 -0.002185714
-0.018561538 0.00084666669 -0.00022653048
0.029112307 0 -0.032357141
-0.034583077 -0.00084666669 -0.026087753
0.024423078 0.00042333335 -0.002185714
0.00097692304 0 -0.024912244
0.018952308 -0.00127 -0.0276551
0.0127 -0.00042333335 -0.002185714
0.025595386 -0.00127 -0.026479591
0.0076199998 -0.00127 -0.0017938773
0.019733846 0.00084666669 -0.002185714
-0.014653847 -0.00084666669 -0.00022653048
-0.036927693 -0.00127 -0.027263263
-0.035755385 0.00127 -0.0014020406
0.029112307 0 -0.015508163
-0.0013676923 0.00042333335 -0.028046938
0.013872308 -0.00127 -0.026871428
-0.00254 -0.00042333335 -0.00061836716
0.032629229 -0.00127 -0.002185714
-0.0064476924 0 -0.011589795
-0.031847693 0 -0.012765305
0.021687692 0 -0.02177755
0.024813846 -0.00127 -0.001010204
0.020906154 -0.00127 -0.026479591
0.0064476924 0 -0.029222447
0.021687692 -0.00127 -0.026871428
0.019733846 0.00127 -0.0014020406
0.016216923 0.00042333335 -0.026479591
0.027158462 0.00127 -0.0276551
0.031847693 0 -0.012765305
0.0048846155 0 -0.026087753
-0.021687692 0 0.00094897969
-0.018561538 0.00127 -0.002185714
0.020515384 -0.00127 -0.026479591
0.0076199998 0.00042333335 -0.026087753
-0.037709232 0.00042333335 -0.0276551
-0.013481539 -0.00127 -0.0276551
0.013872308 -0.00084666669 -0.028046938
0.031456925 -0.00127 -0.00061836716
-0.028330769 -0.00127 -0.00061836716
-0.031066153 0.00084666669 -0.026479591
0.026376924 0 -0.01942653
-0.0037123077 0 -0.020993877
-0.034973845 -0.00042333335 -0.00061836716
0.033410769 -0.00042333335 -0.002185714
0.011136923 0 -0.02177755
0.011136923 0 0.0013408164
0.016216923 0 -0.011981632
-0.010355385 0.00127 -0.026479591
0.0017584616 -0.00042333335 -0.0276551
-0.030675385 0.00084666669 -0.028046938
-0.0087923082 0.00127 -0.027263263
-0.029112307 0 -0.017075509
0.00254 -0.00127 -0.027263263
0.0021492308 -0.00084666669 -0.002185714
-0.0072292308 -0.00042333335 -0.026087753
0.033020001 0.00127 -0.0276551
0.0021492308 0.00127 -0.026479591
-0.0044938461 0 -0.002185714
-0.0037123077 0 -0.032748979
-0.00254 0.00042333335 -0.0276551
-0.0087923082 -0.00042333335 -0.027263263
0.025986154 0.00127 -0.0017938773
0.0029307692 -0.00084666669 -0.002185714
-0.01738923 0.00127 -0.028046938
0.016607692 -0.00084666669 -0.027263263
-0.0033215384 0 -0.025695918
0.0013676923 0 -0.025695918
-0.022078462 -0.00084666669 -0.002185714
0.0064476924 0 -0.031181632
0.0064476924 0 -0.02883061
-0.036927693 0 -0.023344897
0.0041030771 0.00042333335 -0.028046938
0.022078462 0.00127 -0.00061836716
0.011136923 0 -0.024520406
0.018561538 -0.00127 -0.028046938
0.0048846155 -0.00042333335 -0.028046938
0.021687692 -0.00127 -0.002185714
0.0091830771 -0.00127 -0.0276551
-0.0072292308 0.00042333335 -0.0276551
-0.029112307 0 0.0025163265
0.034583077 0.00127 -0.002185714
0.026376924 0 -0.029614285
-0.00097692304 -0.00127 -0.026479591
0.015826155 -0.00042333335 -0.00022653048
0.036146153 -0.00084666669 -0.026087753
-0.0052753845 -0.00084666669 -0.002185714
0.016607692 0 -0.013157142
0.0017584616 0.00127 -0.026087753
-0.0033215384 -0.00127 -0.00061836716
0.019733846 -0.00127 -0.0017938773
-0.028330769 0.00042333335 -0.027263263
0.021687692 0 -0.0053204079
-0.021296924 0.00042333335 -0.002185714
-0.0095738461 0 -0.00022653048
0.005666154 0.00127 -0.0017938773
0.034583077 0.00042333335 -0.00022653048
-0.026767692 0.00127 -0.0276551
0.0064476924 0 -0.024520406
0.021296924 0.00127 -0.00022653048
-0.029112307 0 0.0021244898
0.0087923082 -0.00042333335 -0.030789794
-0.0041030771 0 -0.02177755
0.026376924 0.00127 -0.0014020406
0.013090769 -0.00127 -0.0276551
-0.012309231 0 -0.028046938
0.030675385 0 -0.026087753
-0.024813846 -0.00084666669 -0.026871428
0.015044616 -0.00127 -0.002185714
-0.0099646151 -0.00084666669 -0.002185714
-0.024032308 -0.00127 -0.027263263
0.025595386 0.00127 -0.027263263
0.018561538 0.00127 -0.0014020406
-0.011918462 0.00084666669 -0.00022653048
0.0013676923 0.00042333335 -0.029222447
-0.031847693 -0.00042333335 -0.026087753
-0.016216923 0.00042333335 -0.028046938
-0.0084015382 -0.00127 -0.001010204
0.0037123077 -0.00042333335 -0.002185714
0.016607692 -0.00042333335 -0.029614285
0.031847693 -0.00127 -0.027263263
0.024032308 -0.00127 -0.026871428
0.0064476924 0 -0.0053204079
0.01738923 0.00127 -0.0276551
0.024032308 0 -0.011197959
0.013872308 0 -0.019034693
0.016607692 0.00084666669 -0.002185714
-0.025986154 0.00127 -0.002185714
-0.013872308 0 -0.017075509
-0.025595386 -0.00127 -0.001010204
-0.034192309 0.00127 -0.00022653048
-0.026767692 0 -0.0096306121
0.018952308 0 -0.031573467
-0.0095738461 -0.00084666669 -0.002185714
-0.0064476924 0 -0.02295306
0.033801537 -0.00127 -0.00022653048
0.0037123077 0.00042333335 -0.029614285
0.021687692 0.00127 -0.0014020406
0.030284615 0.00127 -0.00061836716
-0.011136923 0 -0.025695918
0.031456925 -0.00084666669 -0.00022653048
-0.025204616 0.00127 -0.026479591
0.0072292308 -0.00127 -0.0276551
0.034583077 -0.00127 -0.00061836716
-0.031456925 -0.00127 -0.027263263
0.018952308 -0.00042333335 -0.0025775507
0.028330769 0.00084666669 -0.028046938
0.0087923082 0 -0.0072795916
0.011527692 0.00084666669 -0.026871428
-0.02325077 0.00084666669 -0.00022653048
0.0013676923 0 -0.013940816
0.026767692 0 -0.032748979
-0.031847693 -0.00127 -0.00061836716
