# .PCD v0.7 - Point Cloud Data file format
VERSION 0.7
FIELDS x y z
SIZE 4 4 4
TYPE F F F
COUNT 1 1 1
WIDTH 1216
HEIGHT 1
VIEWPOINT 0 0 0 1 0 0 0
POINTS 1216
DATA ascii
0.040547073 -0.00025400001 -0.010227272
-0.035776827 -0.00025400001 -0.017645454
-0.025802681 0.00076199998 -0.002372727
-0.015394878 0.00025400001 -0.016772727
-0.010190975 -0.00025400001 -0.0049909088
0.033608537 0.00076199998 -0.027245453
-0.031006584 -0.00076199998 -0.00019090895
-0.010190975 -0.00025400001 -0.0010636362
-0.039246097 -0.00076199998 -0.027245453
-0.0023851218 0.00025400001 -0.024190908
0.03534317 0.00025400001 -0.019827273
-0.017996829 0.00076199998 -0.0014999998
0.036210485 0.00076199998 -0.002372727
0.017129513 0.00076199998 -0.0010636362
-0.028404633 -0.00025400001 -0.0019363634
-0.0023851218 -0.00025400001 -0.018081818
0.0019514634 -0.00025400001 -0.0019363634
-0.01756317 0.00025400001 -0.029863635
-0.033174876 -0.00025400001 -0.030299999
0.022767073 -0.00025400001 -0.020699998
-0.014961219 -0.00025400001 -0.02200909
-0.043149024 0.00025400001 -0.028990908
0.014093902 0.00127 -0.027245453
-0.0088900002 -0.00025400001 -0.0019363634
0.01756317 -0.00076199998 -0.0014999998
0.0097573167 -0.00076199998 -0.0014999998
-0.021899756 -0.00025400001 -0.00019090895
0.01756317 0.00025400001 -0.025936363
0.039679755 0.00127 -0.00019090895
0.0067217071 -0.00127 -0.027681816
0.0093236584 -0.00076199998 -0.0010636362
0.029271951 -0.00025400001 -0.002372727
0.014961219 -0.00025400001 -0.025063636
0.0049870731 0.00025400001 -0.029427271
-0.025802681 0.00127 -0.027681816
0.0054207314 -0.00127 -0.00019090895
-0.017996829 -0.00025400001 -0.0067363633
-0.010190975 -0.00127 -0.00062727259
-0.027103657 -0.00127 -0.00019090895
0.015394878 0.00025400001 -0.021572726
0.042715363 0.00127 -0.027245453
-0.035776827 -0.00025400001 -0.013718181
0.010190975 -0.00025400001 -0.011972726
-0.031440243 0.00025400001 -0.026809089
0.0067217071 0.00025400001 -0.026809089
-0.034475852 -0.00025400001 -0.00062727259
0.040113412 0.00025400001 -0.0019363634
0.030572927 0.00025400001 0.00024545466
-0.021899756 -0.00025400001 -0.00062727259
-0.035776827 -0.00025400001 0.0024272727
-0.041848049 0.00127 -0.0014999998
0.028404633 0.00076199998 -0.02811818
-0.00021682926 0.00025400001 -0.0041181813
0.017996829 0.00025400001 -0.0076090903
-0.01192561 -0.00076199998 -0.0019363634
0.0023851218 -0.00025400001 -0.0097909085
0.010190975 -0.00025400001 -0.020263635
-0.041414388 -0.00025400001 -0.02811818
-0.012792926 0.00127 -0.0019363634
-0.0028187805 -0.00127 -0.027681816
-0.029271951 -0.00025400001 -0.0019363634
0.024068048 0.00025400001 -0.0010636362
0.043149024 -0.00025400001 -0.033354543
0.037945122 0.00025400001 -0.018954545
0.029271951 0.00076199998 -0.002372727
-0.035776827 -0.00025400001 -0.031609088
-0.040547073 -0.00127 -0.027681816
-0.033174876 0.00025400001 -0.028554544
-0.027537316 0.00025400001 -0.026372727
-0.0028187805 0.00025400001 -0.027245453
-0.037945122 -0.00025400001 -0.032481816
-0.010190975 0.00127 -0.027681816
-0.01756317 -0.00025400001 -0.012845454
-0.00065048778 -0.00127 -0.025936363
-0.008456341 0.00025400001 -0.0010636362
-0.014961219 -0.00025400001 -0.018518182
-0.012792926 0.00025400001 -0.014590909
0.0067217071 0.00127 -0.00019090895
0.032307561 0.00076199998 -0.00019090895
-0.020165121 0.00025400001 -0.018954545
-0.013660244 0.00127 -0.026809089
-0.027970975 -0.00127 -0.0014999998
0.0071553658 0.00127 -0.0010636362
-0.01756317 0.00076199998 -0.002372727
-0.0010841463 -0.00127 -0.00062727259
-0.018864146 -0.00025400001 -0.027245453
-0.022767073 0.00127 -0.00062727259
0.013226585 -0.00127 -0.027245453
-0.035776827 0.00025400001 -0.0054272725
0.025369024 0.00025400001 -0.029427271
-0.034909513 -0.00025400001 -0.026809089
-0.030572927 0.00025400001 0.0015545455
-0.020165121 -0.00025400001 -0.02811818
-0.00065048778 -0.00025400001 -0.026372727
-0.01192561 -0.00127 -0.027245453
0.037945122 0.00025400001 -0.027245453
-0.0036860975 -0.00127 -0.00019090895
0.017129513 0.00025400001 -0.0014999998
-0.014961219 -0.00127 -0.02811818
-0.003252439 0.00025400001 -0.002372727
-0.024501707 -0.00127 -0.0014999998
-0.030139267 0.00076199998 -0.02811818
-0.012792926 0.00025400001 -0.027681816
-0.0067217071 -0.00025400001 -0.027681816
0.019297805 -0.00025400001 -0.025936363
-0.010190975 0.00025400001 0.0024272727
0.011058292 -0.00127 -0.027245453
0.028838292 -0.00127 -0.02811818
-0.027537316 -0.00025400001 -0.0019363634
-0.017996829 -0.00025400001 -0.032918181
-0.020165121 0.00025400001 -0.007172727
0.0023851218 0.00025400001 -0.032481816
-0.012792926 0.00025400001 -0.0014999998
-0.036210485 0.00025400001 -0.0010636362
-0.017996829 -0.00127 -0.002372727
0.024068048 0.00076199998 -0.02811818
-0.007589024 0.00025400001 -0.032918181
-0.014961219 -0.00025400001 -0.02811818
0.007589024 0.00025400001 -0.029427271
0.025802681 0.00025400001 -0.0010636362
-0.0049870731 -0.00025400001 -0.017645454
0.012792926 -0.00025400001 -0.016772727
-0.025369024 -0.00127 -0.027245453
0.033608537 -0.00076199998 -0.02811818
0.037945122 0.00025400001 -0.026372727
-0.014961219 -0.00127 -0.027245453
0.012792926 -0.00025400001 -0.025936363
0.025369024 0.00025400001 -0.026372727
0.018864146 -0.00127 -0.00062727259
0.015394878 0.00025400001 -0.014154545
0.02059878 0.00025400001 -0.026372727
-0.010190975 -0.00025400001 -0.024190908
-0.01192561 -0.00127 -0.027681816
0.025369024 -0.00025400001 -0.0041181813
0.013226585 0.00127 -0.002372727
-0.013226585 -0.00025400001 -0.026372727
0.017996829 0.00025400001 -0.004554545
-0.0049870731 0.00025400001 -0.019827273
0.0023851218 0.00025400001 -0.0049909088
0.00021682926 0.00127 -0.02811818
-0.027103657 0.00076199998 -0.00062727259
-0.036644146 -0.00076199998 -0.026372727
0.033174876 -0.00025400001 -0.030736363
-0.036210485 0.00076199998 -0.027681816
-0.030572927 0.00025400001 -0.023318181
0.024935365 -0.00076199998 -0.0014999998
0.030572927 0.00025400001 -0.0076090903
0.043149024 0.00025400001 -0.013281818
0.025369024 -0.00025400001 -0.033790909
0.03534317 0.00025400001 -0.00062727259
0.017996829 -0.00025400001 -0.010227272
-0.033608537 -0.00076199998 -0.0019363634
-0.00021682926 0.00025400001 -0.022445453
-0.024935365 0.00127 -0.002372727
0.011058292 -0.00127 -0.002372727
0.0067217071 -0.00076199998 -0.026372727
0.025369024 0.00025400001 -0.0093545448
-0.033174876 0.00025400001 -0.023754545
0.0015178048 -0.00025400001 -0.0014999998
0.02059878 0.00127 -0.026809089
0.039679755 0.00076199998 -0.0014999998
-0.0080226827 -0.00127 -0.0014999998
-0.010190975 0.00025400001 -0.01720909
-0.00021682926 -0.00025400001 -0.0255
0.0318739 -0.00076199998 -0.0019363634
0.031440243 -0.00076199998 -0.0014999998
0.012792926 -0.00127 -0.026809089
0.022767073 -0.00025400001 -0.016336363
0.0067217071 -0.00025400001 -0.027681816
0.043582682 0.00076199998 -0.0019363634
0.014961219 0.00025400001 -0.014590909
0.003252439 0.00025400001 -0.026809089
-0.037945122 0.00025400001 -0.003681818
0.022333413 -0.00127 -0.027245453
-0.013226585 -0.00127 -0.026809089
-0.0023851218 -0.00025400001 -0.022881817
-0.012792926 0.00127 -0.027681816
0.0023851218 -0.00025400001 -0.0089181811
-0.0028187805 0.00025400001 -0.02811818
-0.008456341 -0.00076199998 -0.002372727
-0.015394878 0.00025400001 -0.0049909088
-0.0088900002 -0.00076199998 -0.0014999998
-0.0041197562 -0.00127 -0.002372727
0.016262194 0.00025400001 -0.0019363634
0.0080226827 -0.00025400001 -0.02811818
-0.003252439 0.00076199998 -0.00019090895
-0.028404633 0.00127 -0.0014999998
-0.01756317 -0.00025400001 -0.031609088
0.012792926 0.00025400001 -0.007172727
-0.010190975 0.00025400001 -0.00062727259
-0.032741219 0.00025400001 -0.030299999
-0.017996829 -0.00025400001 -0.029863635
0.017129513 -0.00076199998 -0.00019090895
-0.034475852 0.00076199998 -0.0014999998
0.016695853 0.00025400001 -0.00062727259
-0.033174876 -0.00025400001 -0.015899999
-0.027970975 0.00025400001 0.0028636365
-0.0049870731 0.00025400001 -0.00019090895
0.042281706 -0.00076199998 -0.0019363634
0.037077803 0.00127 -0.0019363634
0.038378779 0.00025400001 -0.027681816
-0.043582682 -0.00025400001 -0.026372727
-0.038378779 0.00127 -0.0019363634
-0.03534317 0.00025400001 -0.021572726
0.015394878 -0.00025400001 -0.033790909
-0.02667 0.00076199998 -0.0019363634
-0.013660244 0.00025400001 -0.00019090895
0.0015178048 0.00025400001 -0.026372727
-0.03751146 -0.00076199998 -0.0014999998
-0.0010841463 -0.00127 -0.026372727
0.03534317 0.00025400001 -0.0041181813
0.027970975 0.00025400001 -0.019390909
-0.007589024 0.00025400001 -0.0049909088
-0.037945122 -0.00025400001 -0.022881817
0.0049870731 0.00025400001 -0.0019363634
0.007589024 -0.00127 -0.0019363634
0.025369024 0.00025400001 -0.015027272
0.021899756 -0.00076199998 -0.0019363634
0.0071553658 0.00025400001 -0.0019363634
-0.013660244 0.00076199998 -0.0019363634
-0.01452756 -0.00127 -0.00062727259
0.010190975 0.00025400001 -0.024627272
-0.007589024 -0.00127 -0.00062727259
0.0019514634 -0.00025400001 -0.0014999998
0.035776827 0.00076199998 -0.00062727259
-0.027970975 -0.00076199998 -0.02811818
0.021466097 0.00025400001 -0.026372727
-0.017996829 -0.00025400001 -0.0019363634
0.029705608 -0.00025400001 -0.026809089
-0.02059878 0.00127 -0.0019363634
-0.008456341 0.00025400001 -0.025936363
-0.012359268 -0.00127 -0.002372727
-0.022767073 0.00025400001 -0.028554544
0.035776827 -0.00127 -0.00062727259
0.0062880488 -0.00025400001 -0.027681816
-0.00021682926 -0.00025400001 -0.02811818
-0.043149024 0.00025400001 0.0011181819
0.012792926 -0.00025400001 -0.014154545
-0.027970975 0.00025400001 -0.027245453
0.015394878 -0.00025400001 -0.0014999998
-0.0049870731 -0.00127 -0.00062727259
-0.025802681 -0.00025400001 -0.025936363
0.043149024 0.00025400001 -0.011536364
0.04098073 -0.00127 -0.0014999998
0.036210485 0.00076199998 -0.026809089
-0.010190975 0.00025400001 -0.033790909
-0.034475852 0.00127 -0.00062727259
-0.030572927 0.00025400001 -0.0032454543
0.022767073 -0.00025400001 -0.014154545
-0.0023851218 0.00025400001 0.0019909092
-0.032741219 -0.00025400001 -0.02811818
-0.037945122 0.00127 -0.00062727259
0.023200732 0.00076199998 -0.00062727259
0.025369024 0.00127 -0.026809089
-0.01756317 -0.00127 -0.02811818
-0.020165121 -0.00025400001 -0.023754545
0.0019514634 -0.00076199998 -0.002372727
0.040547073 0.00025400001 -0.0010636362
0.035776827 -0.00076199998 -0.00062727259
-0.025369024 -0.00025400001 -0.032481816
-0.0023851218 -0.00025400001 -0.029863635
-0.030572927 -0.00025400001 -0.007172727
-0.022767073 0.00025400001 -0.021136362
-0.01452756 0.00127 -0.02811818
-0.010190975 -0.00025400001 -0.033790909
-0.040547073 -0.00025400001 -0.0054272725
0.018430486 0.00076199998 -0.0019363634
0.037945122 0.00076199998 -0.00062727259
-0.0023851218 -0.00025400001 -0.015027272
-0.043149024 -0.00076199998 -0.0014999998
-0.030572927 0.00025400001 0.00068181829
0.039246097 0.00025400001 -0.026809089
-0.040547073 0.00025400001 -0.0093545448
0.022767073 0.00025400001 -0.0067363633
0.041848049 0.00025400001 -0.027245453
0.0088900002 0.00076199998 -0.00062727259
0.043149024 0.00025400001 -0.027681816
-0.025802681 0.00127 -0.026372727
0.032741219 0.00025400001 -0.00062727259
-0.01192561 -0.00025400001 -0.0014999998
0.016695853 -0.00076199998 -0.002372727
-0.043149024 -0.00025400001 -0.015027272
0.041414388 -0.00025400001 -0.026372727
-0.016262194 0.00025400001 -0.002372727
0.037945122 -0.00025400001 -0.0049909088
0.01756317 0.00025400001 -0.029863635
0.01452756 -0.00127 -0.0014999998
0.014961219 0.00025400001 -0.0010636362
0.031006584 -0.00127 -0.027245453
0.0318739 -0.00025400001 -0.0019363634
0.043149024 0.00127 -0.0010636362
-0.0028187805 0.00025400001 -0.027681816
-0.0041197562 0.00025400001 -0.02811818
-0.01192561 0.00127 -0.0010636362
0.010190975 -0.00076199998 -0.0014999998
0.033174876 -0.00025400001 -0.020699998
-0.0023851218 0.00025400001 -0.0111
0.012792926 -0.00025400001 -0.011536364
0.015394878 -0.00127 -0.00019090895
0.0080226827 0.00025400001 -0.026372727
-0.032741219 0.00025400001 -0.013718181
-0.038378779 -0.00076199998 -0.026809089
0.030572927 -0.00076199998 -0.02811818
0.030572927 -0.00025400001 -0.018518182
0.01756317 -0.00025400001 -0.0032454543
-0.013660244 -0.00127 -0.0019363634
-0.010624634 0.00076199998 -0.0019363634
0.040547073 -0.00076199998 -0.0019363634
-0.0015178048 -0.00127 -0.027681816
-0.00065048778 0.00076199998 -0.0010636362
0.010624634 0.00127 -0.027245453
-0.0045534144 -0.00076199998 -0.00019090895
-0.02667 0.00025400001 -0.026809089
0.037077803 -0.00025400001 -0.0014999998
-0.043149024 -0.00025400001 -0.033790909
-0.037945122 0.00025400001 -0.0093545448
0.022767073 0.00025400001 -0.004554545
-0.018430486 0.00076199998 -0.00062727259
0.02059878 -0.00076199998 -0.002372727
0.015394878 -0.00025400001 -0.030299999
-0.043149024 0.00025400001 -0.015027272
0.025369024 0.00025400001 -0.0010636362
-0.014961219 0.00076199998 -0.0014999998
0.025369024 -0.00025400001 -0.00019090895
0.0062880488 0.00025400001 -0.02811818
-0.033174876 0.00127 -0.027681816
-0.041414388 0.00076199998 -0.0014999998
0.022767073 -0.00025400001 -0.023318181
-0.025369024 -0.00025400001 -0.0089181811
0.025802681 -0.00127 -0.00019090895
0.042715363 -0.00076199998 -0.02811818
-0.022767073 -0.00025400001 -0.031172726
0.003252439 -0.00076199998 -0.0010636362
-0.037945122 -0.00127 -0.027245453
0.03534317 -0.00025400001 -0.0041181813
-0.015828537 -0.00076199998 -0.0019363634
-0.043149024 -0.00025400001 0.0024272727
-0.027103657 -0.00076199998 -0.0014999998
-0.011058292 -0.00127 -0.027681816
0.012792926 -0.00025400001 -0.029863635
0.035776827 -0.00025400001 -0.0255
-0.036644146 0.00025400001 -0.027681816
-0.034909513 0.00076199998 -0.002372727
-0.0010841463 -0.00025400001 -0.02811818
-0.0028187805 -0.00076199998 -0.0014999998
-0.043149024 -0.00025400001 -0.029427271
0.027537316 0.00025400001 -0.027245453
-0.018864146 -0.00025400001 -0.02811818
-0.040547073 -0.00127 -0.026372727
0.007589024 -0.00025400001 -0.027681816
-0.0080226827 -0.00025400001 -0.0019363634
-0.016695853 -0.00127 -0.0019363634
0.00065048778 -0.00076199998 -0.0010636362
0.036644146 0.00127 -0.0019363634
0.010190975 -0.00025400001 -0.0010636362
0.037077803 -0.00025400001 -0.00062727259
0.037945122 0.00025400001 -0.011972726
-0.021466097 0.00127 -0.0010636362
0.043149024 -0.00076199998 -0.00062727259
0.011058292 -0.00127 -0.0010636362
-0.013660244 -0.00025400001 -0.0019363634
0.03534317 0.00127 -0.002372727
-0.038378779 0.00025400001 -0.0010636362
-0.024068048 0.00076199998 -0.0014999998
-0.00021682926 0.00025400001 -0.0084818173
-0.012792926 -0.00025400001 -0.022881817
-0.024501707 0.00076199998 -0.002372727
0.030572927 -0.00127 -0.0019363634
-0.021466097 -0.00025400001 -0.00019090895
-0.016262194 0.00076199998 -0.0014999998
0.015394878 -0.00025400001 -0.0067363633
0.030572927 -0.00025400001 -0.029427271
-0.018430486 0.00076199998 -0.00019090895
0.029705608 0.00127 -0.0014999998
0.01192561 0.00025400001 -0.00019090895
0.01756317 -0.00025400001 -0.01720909
0.037077803 -0.00076199998 -0.027681816
0.037077803 -0.00076199998 -0.0010636362
-0.010190975 0.00025400001 -0.013281818
-0.013226585 0.00076199998 -0.00062727259
-0.034475852 0.00025400001 -0.026809089
-0.02059878 0.00127 -0.0014999998
-0.00065048778 -0.00127 -0.026372727
-0.041848049 0.00076199998 -0.00019090895
0.017996829 -0.00025400001 -0.023318181
0.02059878 -0.00127 -0.00062727259
0.017996829 0.00025400001 -0.015899999
0.017129513 0.00127 -0.0019363634
0.021899756 0.00076199998 -0.0014999998
-0.038812436 -0.00025400001 -0.027245453
0.030139267 -0.00025400001 -0.00062727259
0.015828537 0.00025400001 -0.0010636362
0.014961219 -0.00025400001 -0.0255
0.010190975 0.00025400001 -0.0097909085
0.0023851218 0.00025400001 -0.018518182
-0.01756317 -0.00025400001 -0.02811818
0.030572927 0.00025400001 -0.015463635
0.025802681 0.00025400001 -0.02811818
-0.025369024 -0.00127 -0.00062727259
-0.0049870731 -0.00025400001 -0.0111
-0.030572927 0.00025400001 -0.015899999
0.033608537 -0.00076199998 -0.027245453
-0.00021682926 -0.00025400001 0.00024545466
0.025369024 0.00025400001 -0.011536364
0.027537316 -0.00025400001 -0.002372727
-0.0097573167 -0.00025400001 -0.00019090895
-0.0049870731 0.00025400001 -0.017645454
0.033174876 -0.00025400001 -0.026809089
0.030572927 0.00127 -0.00062727259
-0.0023851218 -0.00127 -0.002372727
0.007589024 -0.00025400001 -0.025936363
0.041414388 0.00025400001 -0.027245453
0.0023851218 -0.00025400001 -0.0019363634
-0.0049870731 0.00127 -0.0010636362
-0.04098073 -0.00127 -0.026372727
0.011058292 0.00127 -0.027681816
0.025369024 0.00127 -0.0019363634
-0.015394878 -0.00025400001 -0.0076090903
-0.038378779 -0.00127 -0.027245453
-0.0036860975 -0.00127 -0.026372727
-0.037945122 -0.00025400001 -0.025936363
0.030572927 -0.00025400001 -0.027681816
0.010190975 0.00025400001 -0.028554544
0.010624634 0.00076199998 -0.0014999998
-0.027970975 -0.00025400001 -0.030736363
0.027537316 -0.00025400001 -0.027681816
-0.022767073 0.00076199998 -0.02811818
-0.031440243 -0.00025400001 -0.027681816
-0.015394878 0.00025400001 -0.022881817
-0.015394878 -0.00025400001 -0.030299999
-0.040113412 -0.00025400001 -0.02811818
0.024935365 -0.00127 -0.02811818
0.013226585 0.00076199998 -0.0014999998
0.0049870731 -0.00025400001 -0.032045454
0.038812436 0.00076199998 -0.0010636362
-0.0049870731 -0.00025400001 0.0019909092
0.007589024 -0.00025400001 -0.0062999995
-0.022333413 -0.00127 -0.025936363
-0.037077803 -0.00025400001 -0.02811818
-0.027103657 0.00076199998 -0.027681816
-0.015394878 -0.00025400001 -0.033790909
-0.023634389 0.00127 -0.00019090895
0.0067217071 -0.00127 -0.00019090895
0.025369024 -0.00025400001 0.0015545455
-0.00021682926 0.00025400001 -0.021136362
-0.0049870731 0.00127 -0.002372727
-0.041414388 0.00127 -0.027681816
0.030572927 -0.00025400001 -0.01240909
-0.012359268 0.00127 -0.027681816
-0.033174876 0.00025400001 -0.018081818
0.020165121 -0.00025400001 -0.0089181811
-0.00021682926 -0.00025400001 -0.029863635
-0.03751146 -0.00076199998 -0.00019090895
-0.00065048778 0.00076199998 -0.002372727
0.021899756 -0.00127 -0.0019363634
0.029271951 0.00127 -0.0014999998
0.015394878 0.00025400001 -0.031609088
0.020165121 -0.00025400001 -0.02200909
-0.013226585 0.00127 -0.002372727
-0.039246097 -0.00127 -0.00019090895
0.015394878 -0.00025400001 -0.033354543
0.021032438 0.00076199998 -0.00062727259
0.018864146 0.00127 -0.027245453
0.0019514634 0.00127 -0.0010636362
-0.03751146 0.00025400001 -0.02811818
-0.029271951 0.00025400001 -0.00019090895
-0.033174876 -0.00025400001 0.0011181819
-0.02667 -0.00025400001 -0.0014999998
-0.010190975 0.00025400001 -0.024190908
-0.030139267 -0.00127 -0.0014999998
0.014961219 0.00025400001 -0.015899999
-0.023200732 -0.00025400001 -0.00019090895
0.043149024 0.00025400001 -0.00062727259
0.0010841463 -0.00025400001 -0.00019090895
-0.025369024 0.00025400001 -0.0054272725
0.017996829 -0.00025400001 -0.011972726
-0.007589024 -0.00025400001 -0.0084818173
-0.024501707 0.00025400001 -0.002372727
-0.010190975 -0.00025400001 -0.0076090903
0.007589024 -0.00025400001 -0.01720909
-0.010190975 -0.00025400001 -0.027681816
0.00021682926 0.00025400001 -0.027245453
0.0049870731 -0.00025400001 -0.01720909
0.007589024 -0.00025400001 -0.00062727259
-0.03534317 0.00025400001 -0.014590909
0.023634389 -0.00076199998 -0.027681816
-0.03534317 -0.00076199998 -0.0010636362
-0.012792926 -0.00025400001 -0.012845454
0.036644146 -0.00076199998 -0.0010636362
0.04098073 0.00025400001 -0.026809089
-0.030572927 -0.00025400001 -0.0093545448
0.01192561 0.00076199998 -0.002372727
0.040547073 -0.00076199998 -0.02811818
0.014093902 0.00127 -0.002372727
0.029271951 0.00076199998 -0.025936363
-0.0049870731 -0.00025400001 -0.010663636
0.007589024 0.00025400001 -0.015899999
-0.035776827 -0.00025400001 -0.007172727
0.041414388 -0.00127 -0.0014999998
0.033174876 -0.00025400001 -0.011536364
-0.031006584 -0.00127 -0.0010636362
0.012792926 0.00025400001 -0.018518182
0.040113412 -0.00127 -0.027245453
0.029705608 -0.00025400001 -0.00019090895
0.033174876 -0.00076199998 -0.0010636362
-0.0045534144 -0.00127 -0.02811818
-0.0080226827 0.00127 -0.002372727
-0.017996829 0.00025400001 0.0024272727
0.038378779 -0.00127 -0.00019090895
-0.007589024 -0.00025400001 -0.029427271
0.025369024 0.00025400001 -0.025063636
0.043149024 -0.00025400001 -0.026372727
-0.025802681 -0.00076199998 -0.00019090895
-0.022333413 -0.00025400001 -0.02811818
0.0010841463 0.00127 -0.002372727
0.00021682926 0.00025400001 -0.028554544
-0.00021682926 0.00025400001 -0.018081818
0.043149024 -0.00025400001 -0.032918181
-0.018864146 0.00025400001 -0.0010636362
-0.036644146 -0.00076199998 -0.02811818
-0.025369024 -0.00025400001 0.0019909092
-0.036210485 -0.00025400001 -0.02811818
0.040113412 0.00076199998 -0.0019363634
-0.00065048778 -0.00025400001 -0.027681816
-0.03534317 -0.00127 -0.002372727
-0.015828537 0.00076199998 -0.002372727
-0.02667 -0.00127 -0.00062727259
0.017996829 -0.00025400001 -0.028990908
0.033174876 -0.00025400001 -0.02200909
-0.00021682926 0.00025400001 -0.032918181
-0.033174876 0.00025400001 -0.027681816
-0.0028187805 0.00127 -0.027245453
-0.015394878 -0.00025400001 -0.026809089
0.0023851218 -0.00025400001 0.00024545466
0.028838292 0.00076199998 -0.002372727
0.04098073 0.00076199998 -0.00019090895
-0.025369024 0.00025400001 -0.0058636358
0.0318739 0.00127 -0.0019363634
-0.033174876 -0.00025400001 -0.0014999998
0.020165121 0.00025400001 -0.018081818
-0.0041197562 -0.00127 -0.0014999998
0.040547073 -0.00025400001 -0.0080454545
-0.030572927 -0.00025400001 0.0011181819
0.007589024 0.00025400001 -0.015027272
-0.034475852 -0.00076199998 -0.00062727259
-0.031440243 0.00127 -0.002372727
-0.031440243 0.00076199998 -0.0014999998
0.027103657 -0.00076199998 -0.0014999998
0.037077803 0.00076199998 -0.025936363
0.0049870731 0.00025400001 -0.01720909
0.01756317 -0.00076199998 -0.026372727
-0.040113412 -0.00076199998 -0.00019090895
-0.027970975 -0.00025400001 -0.010663636
0.029705608 0.00076199998 -0.02811818
-0.022767073 -0.00025400001 -0.013718181
0.025369024 -0.00025400001 -0.018954545
-0.01756317 -0.00076199998 -0.0019363634
-0.039246097 -0.00127 -0.026372727
0.01192561 -0.00025400001 -0.027245453
0.00021682926 0.00025400001 -0.029427271
0.018430486 -0.00025400001 -0.0010636362
-0.02667 -0.00127 -0.026809089
-0.0049870731 -0.00025400001 -0.032045454
0.010190975 -0.00025400001 -0.031172726
0.025369024 -0.00025400001 -0.0062999995
-0.037945122 0.00025400001 -0.016772727
0.0036860975 -0.00025400001 -0.025936363
-0.003252439 0.00127 -0.0014999998
0.040113412 -0.00025400001 -0.0019363634
0.038378779 0.00076199998 -0.0014999998
0.036210485 0.00076199998 -0.0010636362
0.033174876 0.00127 -0.027681816
0.0049870731 0.00025400001 -0.0089181811
-0.0097573167 0.00025400001 -0.02811818
-0.042715363 0.00076199998 -0.002372727
-0.036210485 -0.00025400001 -0.0019363634
0.024501707 -0.00025400001 -0.0019363634
-0.014093902 0.00127 -0.027681816
0.020165121 0.00025400001 -0.0010636362
0.0010841463 0.00025400001 -0.026809089
-0.0067217071 0.00076199998 -0.00062727259
0.021466097 0.00127 -0.00062727259
-0.012792926 0.00025400001 -0.020699998
0.0080226827 -0.00025400001 -0.027245453
0.014961219 0.00025400001 -0.0014999998
-0.012359268 0.00025400001 -0.025936363
0.021466097 0.00127 -0.026809089
0.0071553658 -0.00025400001 -0.026809089
0.0041197562 0.00076199998 -0.00019090895
0.03534317 0.00127 -0.00062727259
0.01756317 -0.00025400001 -0.029427271
0.017996829 0.00025400001 -0.033354543
0.037945122 0.00025400001 -0.018081818
0.03534317 -0.00025400001 -0.032045454
-0.012792926 -0.00025400001 0.0024272727
0.023634389 0.00025400001 -0.02811818
0.012792926 -0.00025400001 -0.019827273
-0.010190975 -0.00025400001 -0.029427271
-0.027970975 0.00025400001 -0.019827273
0.029705608 -0.00127 -0.00019090895
-0.03751146 -0.00025400001 -0.0019363634
0.00021682926 0.00127 -0.002372727
-0.0045534144 -0.00127 -0.0019363634
0.010624634 0.00076199998 -0.00019090895
0.010624634 0.00076199998 -0.026809089
-0.007589024 0.00025400001 -0.014590909
0.037945122 -0.00127 -0.002372727
-0.021899756 -0.00076199998 -0.0019363634
-0.00021682926 0.00025400001 -0.026809089
-0.007589024 -0.00025400001 -0.034227271
-0.020165121 -0.00025400001 0.0019909092
-0.020165121 0.00025400001 -0.030299999
-0.012792926 0.00025400001 -0.033354543
0.0041197562 -0.00076199998 -0.025936363
-0.036210485 -0.00076199998 -0.027681816
0.016695853 -0.00076199998 -0.00019090895
0.037945122 0.00025400001 -0.0010636362
-0.016695853 0.00025400001 -0.026809089
-0.0023851218 0.00025400001 -0.028990908
-0.02059878 0.00127 -0.00019090895
-0.023634389 0.00076199998 -0.00019090895
-0.0058543901 0.00127 -0.002372727
-0.007589024 0.00025400001 -0.029427271
0.039679755 -0.00025400001 -0.025936363
-0.007589024 -0.00076199998 -0.002372727
-0.015394878 0.00025400001 -0.0111
0.0062880488 -0.00076199998 -0.0019363634
0.039246097 0.00127 -0.025936363
0.022767073 -0.00127 -0.02811818
-0.007589024 0.00127 -0.027681816
-0.01756317 -0.00025400001 -0.026809089
-0.015394878 0.00025400001 -0.031172726
0.011491951 0.00076199998 -0.026809089
-0.00021682926 0.00025400001 -0.015027272
-0.021466097 -0.00076199998 -0.00062727259
-0.037077803 -0.00127 -0.026809089
0.034042194 0.00076199998 -0.00019090895
-0.037945122 -0.00025400001 -0.030299999
0.00021682926 0.00025400001 -0.022445453
-0.022333413 0.00127 -0.0014999998
0.0097573167 -0.00076199998 -0.0019363634
0.033174876 0.00127 -0.02811818
0.03534317 0.00025400001 -0.01240909
-0.0049870731 -0.00025400001 -0.029863635
-0.037077803 0.00025400001 -0.0014999998
-0.011491951 0.00025400001 -0.00062727259
0.029705608 0.00076199998 -0.027245453
-0.032741219 -0.00076199998 -0.002372727
-0.037945122 -0.00025400001 0.0024272727
-0.015828537 0.00076199998 -0.0014999998
0.012792926 -0.00025400001 -0.002372727
-0.027970975 -0.00025400001 -0.01720909
-0.024501707 -0.00076199998 -0.02811818
-0.0028187805 -0.00025400001 -0.027681816
0.024068048 -0.00025400001 -0.002372727
-0.0080226827 0.00127 -0.0014999998
0.038812436 -0.00025400001 -0.026809089
-0.0067217071 -0.00076199998 -0.0019363634
0.012792926 0.00025400001 -0.028554544
0.029705608 0.00076199998 -0.027681816
0.015394878 -0.00025400001 -0.0255
-0.0054207314 0.00127 -0.026809089
0.012792926 -0.00025400001 -0.0067363633
0.017996829 -0.00025400001 -0.022881817
-0.00021682926 0.00025400001 -0.014590909
0.038378779 0.00025400001 -0.00062727259
-0.040547073 -0.00025400001 -0.0049909088
-0.012792926 0.00025400001 -0.013281818
-0.032741219 -0.00076199998 -0.027681816
0.010190975 -0.00025400001 -0.02811818
-0.0036860975 -0.00127 -0.0010636362
0.021466097 -0.00127 -0.0014999998
-0.040547073 -0.00076199998 -0.0010636362
0.012792926 -0.00127 -0.002372727
-0.011491951 -0.00076199998 -0.00019090895
0.010624634 0.00025400001 -0.027245453
-0.039246097 -0.00025400001 -0.025936363
0.013660244 -0.00076199998 -0.026809089
0.024501707 -0.00127 -0.0019363634
0.0067217071 -0.00076199998 -0.0010636362
-0.010190975 0.00025400001 -0.028554544
0.017129513 -0.00127 -0.00062727259
-0.040547073 -0.00025400001 -0.025063636
0.025369024 -0.00025400001 -0.025936363
0.007589024 -0.00025400001 -0.002372727
-0.022767073 0.00025400001 0.0015545455
0.038812436 -0.00076199998 -0.00062727259
0.0071553658 -0.00127 -0.0010636362
-0.031440243 0.00025400001 -0.00062727259
0.024935365 -0.00025400001 -0.0019363634
-0.033174876 0.00025400001 -0.026809089
0.018430486 0.00127 -0.027681816
-0.038812436 0.00025400001 -0.027681816
0.010624634 0.00076199998 -0.0010636362
0.041414388 0.00076199998 -0.002372727
0.0041197562 0.00025400001 -0.0019363634
-0.015394878 0.00127 -0.00062727259
0.015394878 0.00025400001 -0.0097909085
0.012792926 -0.00076199998 -0.025936363
0.0062880488 -0.00025400001 -0.00062727259
-0.042281706 -0.00025400001 -0.026809089
0.030572927 -0.00025400001 -0.015463635
-0.017129513 -0.00076199998 -0.002372727
-0.017129513 -0.00076199998 -0.00062727259
0.019731462 -0.00025400001 -0.0014999998
0.0097573167 -0.00127 -0.002372727
-0.0067217071 0.00025400001 -0.02811818
-0.042715363 -0.00076199998 -0.0010636362
-0.040547073 0.00025400001 -0.011972726
-0.0049870731 -0.00025400001 -0.0019363634
0.027537316 0.00025400001 -0.026372727
-0.0049870731 0.00025400001 -0.032918181
0.032307561 -0.00025400001 -0.025936363
-0.018864146 -0.00127 -0.02811818
-0.010190975 -0.00025400001 -0.030736363
0.017996829 0.00025400001 -0.0255
0.011491951 0.00076199998 -0.0010636362
0.0028187805 -0.00025400001 -0.02811818
-0.0067217071 0.00076199998 -0.0019363634
0.025802681 0.00076199998 -0.002372727
0.041414388 0.00076199998 -0.026809089
-0.027537316 0.00127 -0.00062727259
0.032307561 -0.00025400001 -0.0010636362
-0.027103657 -0.00025400001 -0.027681816
-0.02623634 0.00025400001 -0.00062727259
-0.0045534144 0.00127 -0.00019090895
0.017996829 0.00025400001 -0.0111
0.007589024 -0.00076199998 -0.00062727259
0.043149024 0.00025400001 -0.016336363
0.030572927 -0.00025400001 -0.00062727259
-0.037945122 -0.00025400001 -0.033790909
-0.010190975 -0.00025400001 0.0028636365
-0.027103657 0.00025400001 -0.00062727259
-0.012792926 -0.00025400001 0.00068181829
0.010624634 -0.00025400001 -0.026809089
0.00021682926 -0.00025400001 -0.026809089
0.0049870731 -0.00025400001 -0.0089181811
-0.0058543901 0.00025400001 -0.026809089
-0.0028187805 -0.00076199998 -0.0019363634
0.0045534144 0.00025400001 -0.0019363634
0.017996829 0.00025400001 -0.013281818
-0.0023851218 0.00025400001 -0.02811818
0.0054207314 -0.00127 -0.00062727259
0.024068048 -0.00025400001 -0.0019363634
-0.00021682926 0.00025400001 -0.0014999998
0.03751146 -0.00127 -0.0014999998
-0.0049870731 0.00076199998 -0.0019363634
0.043149024 -0.00076199998 -0.026372727
0.015394878 -0.00025400001 -0.021572726
0.00065048778 -0.00025400001 -0.026372727
0.028404633 -0.00076199998 -0.0010636362
0.0010841463 0.00025400001 -0.0010636362
-0.008456341 0.00076199998 -0.00062727259
0.027970975 0.00025400001 -0.019827273
-0.030572927 0.00025400001 -0.013281818
0.0028187805 -0.00127 -0.026809089
-0.0318739 0.00127 -0.027245453
0.0054207314 -0.00025400001 -0.02811818
-0.010190975 0.00025400001 -0.032045454
-0.012792926 0.00025400001 -0.02811818
0.019731462 -0.00025400001 -0.02811818
0.015394878 -0.00025400001 -0.029863635
0.038812436 -0.00127 -0.0010636362
-0.0023851218 -0.00025400001 -0.0076090903
0.020165121 0.00025400001 -0.032045454
-0.03534317 0.00025400001 -0.01240909
-0.038378779 -0.00025400001 -0.00019090895
0.015394878 0.00127 -0.02811818
0.015394878 0.00025400001 -0.011972726
-0.041848049 0.00025400001 -0.00062727259
0.03534317 -0.00025400001 -0.025063636
-0.025369024 0.00025400001 -0.019390909
-0.0015178048 0.00025400001 -0.026372727
-0.043149024 -0.00025400001 -0.033354543
0.039246097 -0.00025400001 -0.0019363634
0.00021682926 0.00025400001 -0.015463635
0.040547073 0.00025400001 -0.02811818
-0.030139267 -0.00127 -0.00019090895
-0.0049870731 -0.00127 -0.002372727
-0.0318739 -0.00076199998 -0.00019090895
0.039679755 0.00025400001 -0.0019363634
-0.024935365 0.00025400001 -0.026809089
0.029705608 -0.00076199998 -0.027245453
0.01192561 -0.00076199998 -0.002372727
-0.032307561 0.00076199998 -0.02811818
-0.013226585 0.00025400001 -0.026372727
0.00021682926 -0.00025400001 -0.034227271
0.0054207314 -0.00025400001 -0.027245453
-0.007589024 0.00025400001 -0.0255
-0.0062880488 0.00025400001 -0.0010636362
-0.027970975 0.00076199998 -0.0019363634
-0.043149024 0.00025400001 -0.0093545448
0.0049870731 -0.00025400001 -0.012845454
-0.007589024 0.00025400001 -0.007172727
-0.040547073 -0.00025400001 -0.032481816
-0.0088900002 0.00025400001 -0.027245453
0.030139267 -0.00076199998 -0.02811818
-0.01192561 -0.00127 -0.02811818
0.022333413 -0.00025400001 -0.0019363634
-0.0062880488 -0.00025400001 -0.0014999998
-0.031006584 -0.00127 -0.00062727259
-0.023200732 0.00076199998 -0.0019363634
0.010190975 0.00025400001 -0.0014999998
-0.007589024 -0.00025400001 -0.004554545
-0.012792926 -0.00025400001 -0.016336363
-0.038378779 -0.00076199998 -0.02811818
0.018430486 -0.00076199998 -0.00062727259
-0.031006584 -0.00076199998 -0.02811818
-0.022767073 0.00025400001 -0.025936363
-0.014093902 0.00025400001 -0.0010636362
0.010190975 0.00025400001 -0.031609088
-0.038378779 -0.00025400001 -0.02811818
-0.015394878 -0.00025400001 -0.0255
0.01756317 0.00025400001 -0.023318181
-0.0093236584 0.00025400001 -0.002372727
0.037945122 0.00025400001 -0.015027272
0.0036860975 -0.00025400001 -0.0014999998
0.02059878 -0.00127 -0.027681816
-0.030572927 -0.00025400001 -0.030299999
-0.032741219 -0.00025400001 -0.032918181
0.027537316 -0.00076199998 -0.02811818
-0.031006584 -0.00127 -0.026809089
0.00065048778 0.00025400001 -0.0010636362
-0.02623634 -0.00025400001 -0.026809089
-0.0028187805 0.00076199998 -0.0014999998
-0.036210485 -0.00076199998 -0.00062727259
-0.0318739 0.00025400001 -0.026809089
-0.034042194 -0.00076199998 -0.0014999998
0.010190975 0.00025400001 -0.01240909
0.00065048778 0.00127 -0.002372727
-0.031006584 0.00076199998 -0.00019090895
0.0049870731 -0.00025400001 -0.028554544
0.02059878 -0.00076199998 -0.027245453
-0.038812436 0.00076199998 -0.0019363634
-0.025369024 -0.00025400001 -0.028554544
0.032741219 -0.00025400001 -0.00062727259
0.021032438 -0.00025400001 -0.0010636362
-0.0318739 0.00076199998 -0.00019090895
0.0062880488 0.00025400001 -0.0014999998
0.032307561 -0.00127 -0.00019090895
0.03534317 0.00025400001 -0.0019363634
-0.022767073 0.00025400001 -0.024627272
-0.025369024 -0.00025400001 -0.013281818
-0.013660244 -0.00025400001 -0.025936363
0.016262194 -0.00025400001 -0.027245453
0.039246097 -0.00076199998 -0.0019363634
0.025369024 0.00025400001 0.0015545455
-0.040113412 0.00025400001 -0.026372727
-0.037945122 -0.00025400001 -0.018518182
0.037077803 0.00025400001 -0.025936363
-0.01756317 0.00025400001 -0.01720909
0.04098073 -0.00076199998 -0.027245453
0.013226585 0.00025400001 -0.0010636362
0.043149024 0.00025400001 -0.0255
0.040547073 0.00025400001 -0.011972726
0.028838292 0.00076199998 -0.0014999998
0.023200732 -0.00025400001 -0.0010636362
0.027537316 0.00076199998 -0.0014999998
0.023200732 -0.00127 -0.0019363634
0.020165121 -0.00025400001 -0.01720909
0.023200732 -0.00076199998 -0.00019090895
-0.007589024 0.00025400001 -0.027681816
-0.024501707 -0.00025400001 -0.0010636362
-0.027970975 -0.00025400001 0.0028636365
0.01756317 -0.00025400001 -0.0080454545
-0.021032438 0.00025400001 -0.0019363634
0.00021682926 -0.00025400001 -0.017645454
0.033174876 -0.00025400001 -0.022881817
0.032307561 0.00025400001 -0.00019090895
0.010190975 -0.00025400001 -0.013718181
-0.014093902 -0.00025400001 -0.0010636362
0.014093902 0.00025400001 -0.002372727
-0.0010841463 -0.00076199998 -0.00019090895
0.007589024 -0.00025400001 -0.0111
-0.0067217071 -0.00127 -0.0019363634
-0.0318739 -0.00127 -0.02811818
-0.019731462 -0.00076199998 -0.00019090895
-0.029271951 -0.00025400001 -0.002372727
-0.003252439 -0.00076199998 -0.0014999998
-0.040547073 -0.00025400001 -0.0097909085
0.035776827 -0.00025400001 -0.0041181813
0.037945122 -0.00025400001 -0.01720909
0.010190975 0.00025400001 -0.0028090908
-0.0023851218 0.00025400001 -0.0014999998
0.041848049 -0.00025400001 -0.027681816
0.017996829 0.00025400001 -0.023754545
-0.032307561 0.00025400001 -0.02811818
0.027970975 0.00127 -0.027681816
-0.025802681 0.00025400001 -0.00019090895
0.033174876 0.00025400001 -0.0062999995
0.012792926 -0.00025400001 -0.032918181
0.039246097 -0.00127 -0.027245453
0.023200732 -0.00076199998 -0.00062727259
-0.033174876 0.00025400001 -0.024190908
0.007589024 -0.00025400001 -0.00019090895
0.0045534144 0.00127 -0.002372727
0.00021682926 -0.00025400001 -0.007172727
-0.010190975 0.00025400001 -0.012845454
-0.022333413 -0.00025400001 -0.0019363634
0.035776827 -0.00025400001 -0.023754545
-0.035776827 -0.00076199998 -0.02811818
-0.0036860975 -0.00076199998 -0.00062727259
-0.042715363 -0.00076199998 -0.0019363634
0.021899756 0.00025400001 -0.0019363634
0.043149024 -0.00025400001 0.0028636365
-0.04098073 -0.00076199998 -0.0019363634
-0.0041197562 0.00127 -0.025936363
0.027103657 0.00076199998 -0.00019090895
-0.007589024 0.00025400001 -0.013718181
-0.032307561 -0.00076199998 -0.027245453
0.023634389 0.00025400001 -0.0014999998
-0.038378779 -0.00127 -0.002372727
-0.010190975 -0.00025400001 -0.00062727259
0.0045534144 0.00076199998 -0.00062727259
-0.0049870731 0.00025400001 -0.02811818
0.0023851218 -0.00025400001 -0.0093545448
0.02059878 -0.00025400001 -0.024190908
0.003252439 -0.00076199998 -0.00019090895
-0.020165121 0.00025400001 -0.019390909
0.01756317 0.00025400001 -0.032481816
-0.0062880488 0.00127 -0.00019090895
0.0023851218 -0.00025400001 -0.017645454
-0.0028187805 -0.00076199998 -0.0010636362
0.024935365 0.00076199998 -0.0019363634
-0.040113412 -0.00025400001 -0.025936363
-0.01756317 0.00025400001 -0.018954545
-0.019731462 0.00076199998 -0.02811818
-0.03751146 -0.00025400001 -0.00019090895
-0.035776827 0.00025400001 -0.025936363
0.017996829 0.00025400001 -0.0067363633
0.025369024 -0.00025400001 -0.0058636358
0.003252439 0.00025400001 -0.002372727
0.020165121 -0.00025400001 -0.011972726
-0.015394878 0.00025400001 -0.015027272
-0.042281706 -0.00127 -0.0010636362
0.014093902 0.00076199998 -0.002372727
-0.018864146 -0.00127 -0.00019090895
-0.0010841463 0.00127 -0.0019363634
0.039246097 0.00076199998 -0.025936363
-0.033174876 -0.00025400001 -0.012845454
0.036644146 0.00025400001 -0.026372727
0.027970975 -0.00025400001 -0.025936363
0.025369024 0.00025400001 -0.0097909085
-0.0049870731 -0.00025400001 -0.034227271
-0.010190975 0.00025400001 -0.0080454545
-0.0049870731 -0.00025400001 -0.0010636362
0.037945122 -0.00025400001 -0.021136362
0.015394878 0.00076199998 -0.0014999998
-0.032741219 0.00025400001 -0.020263635
0.025802681 0.00025400001 -0.026372727
-0.015394878 0.00025400001 -0.0014999998
0.017996829 -0.00127 -0.00019090895
0.012792926 0.00127 -0.02811818
-0.030572927 0.00025400001 0.00024545466
0.022767073 0.00127 -0.02811818
-0.0019514634 0.00127 -0.026809089
0.041848049 -0.00076199998 -0.02811818
-0.01756317 0.00025400001 -0.028990908
0.018864146 0.00025400001 -0.025936363
0.00021682926 0.00025400001 -0.0080454545
-0.03534317 -0.00127 -0.00019090895
-0.02623634 -0.00076199998 -0.027681816
0.038378779 -0.00076199998 -0.0019363634
-0.032307561 -0.00076199998 -0.0019363634
-0.027970975 -0.00025400001 -0.032918181
0.028838292 0.00127 -0.0010636362
0.012792926 0.00025400001 -0.019827273
-0.020165121 0.00076199998 -0.00062727259
-0.0071553658 -0.00076199998 -0.00019090895
0.036644146 0.00076199998 -0.027681816
-0.011491951 0.00076199998 -0.0014999998
0.030572927 0.00127 -0.002372727
-0.035776827 -0.00025400001 -0.027681816
-0.01452756 -0.00076199998 -0.002372727
0.030572927 -0.00127 -0.00062727259
0.037945122 -0.00025400001 -0.030736363
-0.033174876 0.00025400001 -0.0041181813
0.031006584 -0.00127 -0.002372727
0.040547073 0.00025400001 -0.028554544
0.027970975 0.00025400001 -0.032045454
-0.025369024 -0.00025400001 -0.021572726
0.012792926 0.00025400001 -0.0067363633
0.038812436 -0.00076199998 -0.027681816
0.018430486 -0.00127 -0.0014999998
-0.037945122 -0.00025400001 -0.011972726
0.007589024 -0.00025400001 -0.030299999
-0.0010841463 0.00025400001 -0.0019363634
0.043582682 -0.00076199998 -0.0010636362
-0.017996829 -0.00025400001 -0.0084818173
0.035776827 -0.00025400001 -0.0080454545
-0.01756317 0.00025400001 -0.030299999
0.0023851218 0.00025400001 -0.026372727
-0.0023851218 0.00025400001 -0.004554545
0.011491951 -0.00025400001 -0.0019363634
-0.01756317 0.00025400001 -0.027681816
-0.014961219 -0.00127 -0.026809089
-0.0049870731 0.00025400001 -0.033790909
0.020165121 -0.00025400001 -0.01240909
0.035776827 0.00025400001 0.00024545466
0.022767073 -0.00127 -0.0010636362
-0.019297805 -0.00127 -0.00019090895
-0.028404633 -0.00127 -0.0014999998
-0.012792926 0.00127 -0.026809089
-0.04098073 -0.00025400001 -0.0019363634
-0.041414388 0.00127 -0.0014999998
0.012792926 -0.00025400001 0.0011181819
0.041414388 0.00127 -0.027681816
-0.00021682926 0.00025400001 -0.0089181811
0.023200732 0.00025400001 -0.02811818
-0.037945122 0.00025400001 -0.018518182
-0.0088900002 0.00025400001 -0.02811818
0.0062880488 0.00076199998 -0.002372727
0.030139267 -0.00076199998 -0.0019363634
0.0036860975 0.00127 -0.026372727
0.027537316 -0.00127 -0.0019363634
-0.00021682926 -0.00025400001 -0.028554544
0.037945122 0.00025400001 -0.022881817
-0.03751146 -0.00076199998 -0.0019363634
0.0045534144 -0.00025400001 -0.026809089
0.025369024 -0.00127 -0.0014999998
-0.042281706 0.00025400001 -0.00019090895
-0.019297805 0.00025400001 -0.026809089
0.034475852 -0.00025400001 -0.0019363634
0.03751146 -0.00127 -0.026372727
0.025369024 -0.00025400001 -0.025063636
0.0088900002 -0.00025400001 -0.025936363
0.013660244 0.00076199998 -0.00062727259
0.017996829 -0.00025400001 -0.027681816
-0.008456341 0.00025400001 -0.00019090895
0.012359268 -0.00076199998 -0.0010636362
-0.024935365 0.00025400001 -0.026372727
0.040547073 0.00025400001 -0.0097909085
-0.01192561 -0.00076199998 -0.00062727259
0.01756317 0.00025400001 -0.024190908
0.034042194 -0.00076199998 -0.0019363634
0.041848049 0.00025400001 -0.00062727259
-0.008456341 -0.00025400001 -0.00019090895
-0.019297805 -0.00025400001 -0.026372727
0.0088900002 0.00127 -0.00019090895
0.0097573167 0.00076199998 -0.0019363634
0.039246097 -0.00076199998 -0.026809089
0.02623634 0.00127 -0.027681816
0.036644146 0.00025400001 -0.00062727259
-0.0062880488 0.00127 -0.0014999998
0.0041197562 0.00025400001 -0.0014999998
0.035776827 0.00076199998 -0.0010636362
-0.033608537 0.00127 -0.026372727
-0.017996829 -0.00025400001 -0.018081818
-0.022767073 0.00025400001 -0.0028090908
-0.037077803 -0.00025400001 -0.026809089
0.03534317 0.00025400001 -0.013718181
0.012792926 0.00025400001 -0.025063636
-0.039246097 0.00076199998 -0.0010636362
0.01452756 -0.00025400001 -0.00019090895
0.014093902 0.00076199998 -0.0010636362
0.029705608 0.00025400001 -0.027245453
0.029271951 0.00025400001 -0.0019363634
-0.0023851218 0.00127 -0.0010636362
0.0049870731 0.00076199998 -0.0019363634
0.008456341 -0.00127 -0.0010636362
0.021466097 0.00025400001 -0.027681816
0.020165121 0.00025400001 -0.027245453
0.007589024 -0.00127 -0.00019090895
-0.014961219 -0.00025400001 -0.033790909
0.029271951 -0.00025400001 -0.0010636362
0.023200732 -0.00076199998 -0.026809089
-0.043149024 0.00025400001 -0.0255
-0.030572927 0.00025400001 -0.002372727
0.014961219 -0.00025400001 -0.026809089
0.0045534144 -0.00025400001 -0.0019363634
-0.0023851218 0.00025400001 -0.029427271
-0.010190975 -0.00025400001 -0.023318181
0.011491951 0.00025400001 -0.002372727
0.036210485 0.00025400001 -0.025936363
-0.037945122 0.00025400001 -0.00062727259
0.039246097 -0.00076199998 -0.0014999998
0.0058543901 -0.00025400001 -0.026372727
0.0097573167 -0.00127 -0.0019363634
-0.036644146 0.00025400001 -0.00062727259
0.040113412 0.00076199998 -0.002372727
-0.013226585 0.00025400001 -0.00062727259
-0.032741219 0.00025400001 -0.031609088
0.003252439 0.00025400001 -0.026372727
-0.023634389 -0.00025400001 -0.00062727259
0.022767073 0.00025400001 -0.014590909
0.042715363 0.00076199998 -0.00019090895
-0.0049870731 -0.00025400001 -0.021572726
0.043149024 -0.00025400001 -0.0041181813
0.00065048778 -0.00127 -0.026809089
-0.030572927 -0.00025400001 -0.020263635
-0.039246097 0.00076199998 -0.0014999998
-0.034042194 -0.00025400001 -0.00062727259
0.010190975 -0.00025400001 -0.027681816
-0.025369024 -0.00025400001 -0.026809089
-0.021466097 0.00127 -0.026372727
-0.020165121 0.00025400001 -0.032045454
-0.010624634 -0.00025400001 -0.0014999998
-0.031006584 0.00127 -0.027681816
0.0010841463 -0.00025400001 -0.026809089
-0.040547073 -0.00025400001 -0.024190908
-0.02667 0.00076199998 -0.02811818
-0.013660244 0.00076199998 -0.0014999998
0.042715363 0.00076199998 -0.0019363634
-0.01756317 0.00025400001 -0.02200909
-0.031440243 -0.00127 -0.02811818
0.018864146 0.00076199998 -0.02811818
0.030572927 -0.00025400001 -0.023318181
-0.01756317 -0.00025400001 -0.015899999
0.03534317 0.00025400001 -0.013281818
0.0010841463 0.00127 -0.026809089
-0.031006584 -0.00025400001 -0.0019363634
-0.022333413 -0.00025400001 -0.027681816
-0.04098073 -0.00076199998 -0.00062727259
0.020165121 0.00127 -0.0010636362
0.0093236584 -0.00025400001 -0.027245453
0.012792926 0.00025400001 -0.018954545
-0.010624634 -0.00127 -0.002372727
-0.0036860975 -0.00127 -0.0019363634
0.036210485 -0.00025400001 -0.002372727
-0.015828537 -0.00025400001 -0.0019363634
0.033608537 0.00127 -0.027245453
-0.040547073 0.00025400001 -0.00062727259
0.036644146 -0.00076199998 -0.00019090895
-0.033174876 0.00076199998 -0.002372727
-0.012792926 -0.00025400001 -0.0014999998
0.01756317 0.00127 -0.00062727259
-0.010190975 0.00025400001 -0.0041181813
-0.033608537 -0.00127 -0.02811818
0.03751146 0.00127 -0.00019090895
0.018864146 -0.00025400001 -0.0010636362
0.035776827 -0.00025400001 -0.032481816
0.033174876 -0.00025400001 -0.01240909
-0.0019514634 0.00127 -0.027681816
-0.010190975 0.00025400001 0.0015545455
-0.013226585 -0.00025400001 -0.027681816
0.02059878 0.00025400001 -0.00062727259
0.033174876 -0.00025400001 -0.004554545
-0.0088900002 0.00127 -0.00062727259
0.012792926 -0.00025400001 -0.013281818
0.018430486 0.00076199998 -0.00062727259
0.040547073 0.00127 -0.026809089
-0.021466097 0.00127 -0.027245453
-0.03751146 0.00076199998 -0.0010636362
-0.039246097 0.00076199998 -0.002372727
0.038378779 0.00127 -0.0010636362
-0.01452756 0.00025400001 -0.027681816
0.0062880488 -0.00127 -0.027681816
-0.021899756 -0.00025400001 -0.027245453
-0.027103657 0.00127 -0.026372727
0.037945122 0.00025400001 -0.012845454
0.0023851218 -0.00025400001 -0.0080454545
0.029271951 -0.00025400001 -0.027681816
-0.00021682926 -0.00025400001 0.0019909092
-0.040547073 0.00025400001 -0.019390909
0.013660244 0.00076199998 -0.00019090895
0.027970975 0.00127 -0.027245453
-0.020165121 0.00025400001 -0.024190908
0.016695853 0.00076199998 -0.0019363634
0.038812436 0.00076199998 -0.027681816
0.03751146 0.00076199998 -0.00019090895
-0.014961219 -0.00025400001 -0.022881817
-0.023634389 0.00127 -0.0014999998
-0.019297805 0.00127 -0.00019090895
0.025802681 0.00025400001 -0.025936363
-0.027103657 0.00025400001 -0.026372727
-0.012792926 -0.00127 -0.026372727
0.031440243 0.00076199998 -0.026372727
-0.015828537 0.00127 -0.002372727
-0.042281706 0.00127 -0.0010636362
0.039679755 -0.00076199998 -0.002372727
0.021032438 -0.00076199998 -0.002372727
0.033174876 -0.00025400001 0.00024545466
0.040547073 0.00025400001 -0.01720909
0.017996829 -0.00076199998 -0.00019090895
-0.01756317 0.00025400001 -0.00062727259
0.007589024 0.00025400001 -0.023318181
0.025369024 -0.00025400001 -0.011536364
-0.022767073 -0.00025400001 -0.014154545
0.030572927 -0.00025400001 -0.011536364
-0.0023851218 0.00025400001 -0.0041181813
0.042281706 0.00127 -0.026372727
-0.00021682926 -0.00025400001 -0.032481816
0.0093236584 0.00127 -0.027245453
-0.025369024 0.00025400001 -0.003681818
0.00021682926 0.00025400001 -0.0028090908
-0.00021682926 -0.00025400001 -0.026372727
-0.014093902 -0.00127 -0.027681816
-0.023634389 -0.00025400001 -0.00019090895
0.013660244 -0.00076199998 -0.0010636362
-0.025802681 -0.00076199998 -0.0014999998
-0.018864146 -0.00076199998 -0.00019090895
-0.0045534144 0.00127 -0.02811818
0.015394878 0.00025400001 -0.011536364
-0.015394878 -0.00025400001 -0.00019090895
-0.017996829 -0.00025400001 -0.023318181
-0.012792926 -0.00025400001 -0.0067363633
-0.0067217071 -0.00025400001 -0.0010636362
-0.022767073 -0.00025400001 -0.018518182
0.012792926 0.00025400001 -0.004554545
-0.014093902 0.00076199998 -0.00062727259
0.013660244 -0.00025400001 -0.002372727
-0.0019514634 0.00076199998 -0.025936363
-0.035776827 0.00025400001 -0.030299999
0.0088900002 0.00025400001 -0.027245453
-0.0049870731 0.00076199998 -0.0010636362
-0.036210485 0.00127 -0.0019363634
0.0023851218 -0.00076199998 -0.0019363634
0.02623634 -0.00127 -0.00019090895
0.024935365 0.00127 -0.027245453
-0.008456341 -0.00076199998 -0.00019090895
0.036644146 -0.00025400001 -0.026372727
-0.014093902 -0.00076199998 -0.00019090895
-0.02059878 -0.00025400001 -0.002372727
-0.03534317 -0.00076199998 -0.02811818
0.0071553658 -0.00127 -0.027681816
0.020165121 0.00025400001 -0.023318181
