# .PCD v0.7 - Point Cloud Data file format
VERSION 0.7
FIELDS x y z
SIZE 4 4 4
TYPE F F F
COUNT 1 1 1
WIDTH 1230
HEIGHT 1
VIEWPOINT 0 0 0 1 0 0 0
POINTS 1230
DATA ascii
-0.0090269605 -0.00054428569 -0.020309195
0.010110196 -0.00018142856 -0.0072333328
0.010832353 -0.00127 -0.0021482757
-0.014443137 0.00018142856 -0.00033218382
-0.035746764 0.00018142856 -0.016677011
-0.0086658821 -0.00127 -0.0010586206
-0.028525196 -0.00127 -0.00033218382
0.012637745 0.00018142856 -0.026120689
-0.018053921 0.00127 -0.021035632
-0.035385687 0.00018142856 -0.026120689
-0.035385687 0.00018142856 -0.018856321
0.035385687 0.00018142856 -0.027210344
0.027803039 0.00018142856 -0.026483906
-0.015165294 -0.00018142856 -0.022125287
-0.017692843 0.00018142856 -0.022488505
0.017331764 0.00090714288 -0.0021482757
-0.031052744 0.00127 -0.00033218382
0.035385687 0.00018142856 -0.024667816
0.0050550979 0.00018142856 -0.010502298
0.014082058 -0.00127 -0.020672413
0.0093880389 -0.00090714288 -0.0021482757
0.035385687 0.00018142856 -0.013771264
-0.0018053921 0.00127 -0.0017850574
0.019137157 -0.00127 -0.020672413
-0.0064994115 0.00127 -0.021035632
-0.01372098 -0.00018142856 -0.02139885
-0.00036107842 0.00127 -0.0017850574
-0.0072215684 0.00054428569 -0.02139885
0.032858137 0.00018142856 -0.015587356
0.024553332 -0.00127 -0.019945977
-0.033580292 -0.00018142856 -0.0021482757
-0.025636569 -0.00018142856 -0.018129885
0.017692843 -0.00054428569 -0.00033218382
-0.0028886274 -0.00127 -0.0021482757
-0.026719803 0.00127 -0.019945977
0.0010832353 -0.00054428569 -0.0021482757
-0.017692843 -0.00018142856 -0.015950574
-0.022386862 0.00127 -0.020309195
0.012637745 -0.00018142856 -0.0094126435
-0.0018053921 -0.00054428569 -0.00033218382
0.0028886274 -0.00018142856 -0.02139885
-0.031774901 -0.00127 -0.00033218382
0.026719803 0.00127 -0.020309195
-0.0075826468 0.00018142856 0.0029367816
0.031774901 -0.00090714288 -0.019582758
-0.020581471 -0.00018142856 0.0018471265
-0.030691667 -0.00018142856 -0.022488505
-0.0075826468 -0.00018142856 3.1034564e-05
-0.0075826468 -0.00018142856 -0.015587356
-0.0050550979 -0.00127 -0.00033218382
0.018415 -0.00127 -0.020672413
-0.00072215684 0.00127 -0.02139885
0.028164117 -0.00054428569 -0.02139885
-0.02744196 -0.00054428569 -0.0021482757
0.0090269605 -0.00127 -0.0010586206
0.00036107842 -0.00127 -0.0010586206
-0.0075826468 -0.00127 -0.020672413
-0.020581471 0.00018142856 -0.013044828
-0.0061383331 -0.00054428569 -0.00033218382
0.030330587 0.00090714288 -0.020309195
-0.012998823 -0.00054428569 -0.02139885
0.035385687 -0.00018142856 -0.012681609
0.020581471 -0.00018142856 -0.016677011
0.029247353 0.00054428569 -0.00033218382
0.015526372 0.00018142856 -0.017040228
-0.0079437252 -0.00018142856 -0.0046908045
-0.020220391 -0.00018142856 -0.0090494249
-0.01588745 -0.00127 -0.021035632
-0.016970687 -0.00127 -0.019582758
-0.02996951 0.00090714288 -0.0021482757
-0.010110196 -0.00018142856 0.0018471265
0.035746764 -0.00018142856 -0.012681609
0.035385687 0.00090714288 -0.019582758
-0.012637745 -0.00018142856 -0.017403448
0.017692843 0.00090714288 -0.00033218382
0.030691667 0.00018142856 -0.018856321
-0.0090269605 0.00018142856 -0.020309195
0.0064994115 0.00127 -0.0021482757
-0.016970687 -0.00018142856 -0.00033218382
-0.0057772547 -0.00054428569 -0.00033218382
-0.018776078 -0.00127 -0.001421839
0.0025275489 0.00018142856 -0.016677011
-0.017331764 0.00127 -0.02139885
-0.028886274 0.00127 -0.00069540221
-0.012637745 0.00018142856 -0.006143678
0.0025275489 0.00018142856 -0.026847126
0.02744196 -0.00054428569 -0.0021482757
0.020220391 -0.00018142856 -0.016313793
0.0032497058 0.00018142856 -0.02139885
0.036468923 -0.00090714288 -0.020672413
-0.0039718626 0.00054428569 -0.00033218382
-0.018415 0.00090714288 -0.020309195
0.015526372 -0.00127 -0.020672413
-0.027803039 -0.00018142856 -0.015587356
-0.033219215 0.00018142856 0.0011206897
-0.0075826468 0.00018142856 0.001483908
-0.012276666 0.00127 -0.0021482757
0.030330587 0.00018142856 -0.0086862063
0.0075826468 0.00018142856 -0.016313793
-0.034663528 0.00018142856 -0.01921954
0.023831176 -0.00127 -0.019945977
0.0090269605 -0.00090714288 -0.00033218382
0.018415 0.00127 -0.0021482757
0.022747941 0.00018142856 -0.018129885
0.0061383331 -0.00018142856 -0.0021482757
-0.012276666 -0.00127 -0.00033218382
0.016970687 -0.00090714288 -0.020672413
0.02744196 -0.00127 -0.019582758
0.028164117 0.00018142856 -0.014497701
-0.016970687 -0.00127 -0.020309195
-0.0097491173 0.00090714288 -0.00033218382
-0.010471274 0.00090714288 -0.021035632
0.028164117 0.00018142856 -0.0072333328
-0.035024609 0.00127 -0.0017850574
0.015165294 -0.00018142856 -0.02357816
0.0075826468 -0.00127 -0.02139885
-0.0075826468 -0.00127 -0.0017850574
-0.031052744 0.00090714288 -0.02139885
-0.0075826468 0.00018142856 -0.025757471
-0.015526372 -0.00018142856 -0.0065068961
0.032858137 -0.00054428569 -0.01921954
-0.015165294 -0.00018142856 -0.018493103
-0.0072215684 0.00127 -0.00033218382
0.0057772547 0.00090714288 -0.02139885
0.0050550979 -0.00018142856 -0.011228736
0.0075826468 0.00018142856 -0.015950574
-0.019498235 0.00054428569 -0.019945977
0.022025784 -0.00127 -0.0021482757
-0.020581471 0.00018142856 -0.0094126435
-0.031774901 -0.00018142856 -0.0021482757
-0.0018053921 0.00090714288 -0.02139885
-0.0097491173 -0.00018142856 -0.00033218382
0.036830001 0.00054428569 -0.020672413
0.012637745 0.00018142856 -0.014497701
-0.017692843 0.00054428569 -0.01921954
-0.0050550979 0.00018142856 -0.018493103
-0.015526372 -0.00018142856 -0.0054172412
-0.025636569 -0.00018142856 -0.010865517
-0.011193431 0.00018142856 -0.01921954
0.022747941 -0.00018142856 -0.016677011
-0.0086658821 0.00018142856 -0.00033218382
-0.0014443137 0.00127 -0.0021482757
-0.022025784 0.00127 -0.0021482757
0.018053921 -0.00127 -0.001421839
0.024914412 -0.00018142856 -0.02139885
-0.035746764 0.00018142856 -0.0032379308
0.0075826468 0.00018142856 -0.0039643678
-0.035746764 0.00018142856 -0.027210344
-0.028525196 -0.00054428569 -0.00033218382
-0.032135978 -0.00127 -0.0010586206
0.011915588 -0.00054428569 -0.019582758
-0.0075826468 -0.00018142856 -0.0086862063
0.017331764 0.00054428569 -0.02139885
0.030330587 0.00018142856 -0.0090494249
-0.033219215 -0.00127 -0.019582758
-0.032858137 0.00018142856 -0.0094126435
-0.0054161763 -0.00090714288 -0.00033218382
-0.020581471 0.00018142856 -0.010865517
0.031413823 0.00054428569 -0.01921954
0.0018053921 0.00054428569 -0.019582758
0.035746764 0.00018142856 0.0022103449
-0.033941373 0.00054428569 -0.019582758
-0.017692843 -0.00127 -0.001421839
-0.014082058 -0.00054428569 -0.019582758
-0.022747941 -0.00018142856 -0.0050540227
0.035746764 -0.00018142856 -0.011228736
-0.0075826468 -0.00018142856 -0.013044828
-0.02960843 0.00127 -0.001421839
0.015526372 0.00054428569 -0.020309195
0.010832353 -0.00054428569 -0.019945977
0.027080882 -0.00090714288 -0.00033218382
-0.0075826468 0.00127 -0.021035632
-0.014443137 0.00127 -0.00069540221
0.004332941 -0.00127 -0.00069540221
0.032135978 -0.00090714288 -0.00033218382
0.024553332 0.00127 -0.0010586206
-0.027803039 0.00018142856 -0.014860919
0.0075826468 0.00018142856 0.00039425294
0.015526372 0.00018142856 -0.0097758621
-0.0083048036 0.00018142856 -0.019582758
-0.019137157 0.00090714288 -0.0021482757
-0.025275489 -0.00018142856 -0.016313793
-0.023109019 -0.00018142856 -0.026847126
0.035024609 0.00054428569 -0.02139885
-0.0083048036 -0.00018142856 -0.00033218382
0.0057772547 -0.00018142856 -0.02139885
0.015165294 0.00018142856 -0.0068701147
0.030330587 -0.00018142856 -0.0075965514
-0.015526372 -0.00018142856 -0.01231839
-0.0032497058 0.00090714288 -0.02139885
-0.028164117 -0.00090714288 -0.00033218382
-0.034302451 0.00054428569 -0.01921954
-0.030330587 0.00018142856 -0.0050540227
-0.035746764 -0.00127 -0.0021482757
0.0025275489 -0.00127 -0.0017850574
0.027803039 -0.00018142856 3.1034564e-05
-0.016970687 -0.00018142856 -0.0021482757
0 -0.00018142856 -0.006143678
-0.03249706 0.00018142856 -0.0021482757
-0.0064994115 0.00127 -0.001421839
0.015526372 0.00018142856 -0.015224137
-0.028164117 0.00018142856 0.0011206897
0.014082058 0.00018142856 -0.0021482757
-0.0032497058 -0.00054428569 -0.00033218382
0.031413823 0.00090714288 -0.019582758
0.019498235 -0.00127 -0.02139885
0.004332941 -0.00054428569 -0.02139885
-0.0075826468 0.00054428569 -0.00033218382
-0.033219215 -0.00018142856 -0.014497701
0.017692843 0.00018142856 -0.021762067
0.036107842 -0.00054428569 -0.021035632
0.022747941 0.00018142856 -0.010865517
-0.012637745 0.00018142856 -0.025394252
-0.036468923 -0.00054428569 -0.00033218382
-0.033219215 -0.00018142856 -0.02357816
-0.0025275489 -0.00018142856 -0.014134482
-0.0050550979 -0.00018142856 -0.013771264
-0.0050550979 0.00018142856 0.0029367816
-0.0032497058 0.00018142856 -0.019945977
0.031052744 0.00127 -0.019582758
-0.015526372 -0.00054428569 -0.019582758
-0.030691667 -0.00090714288 -0.019582758
0.0014443137 0.00090714288 -0.0021482757
-0.015165294 0.00018142856 0.001483908
0.025275489 0.00018142856 0.0022103449
-0.012637745 -0.00018142856 0.0018471265
-0.025275489 0.00018142856 -0.0050540227
-0.0093880389 0.00127 -0.001421839
0.028164117 0.00127 -0.01921954
-0.0025275489 -0.00090714288 -0.00033218382
-0.0079437252 -0.00018142856 -0.012681609
0.015526372 0.00018142856 -0.0043275859
-0.0050550979 -0.00018142856 0.00039425294
-0.015526372 0.00090714288 -0.00033218382
0.036468923 -0.00018142856 -0.0010586206
-0.01588745 -0.00127 -0.0010586206
-0.0018053921 -0.00018142856 -0.00033218382
-0.011193431 0.00054428569 -0.020309195
-0.015165294 -0.00127 -0.00069540221
-0.015165294 -0.00018142856 -0.0075965514
-0.015165294 -0.00090714288 -0.0021482757
-0.023109019 -0.00090714288 -0.00033218382
-0.023831176 0.00127 -0.0021482757
0.030330587 0.00018142856 0.00039425294
0.018415 0.00054428569 -0.0021482757
0.031052744 -0.00054428569 -0.0021482757
-0.035385687 0.00018142856 -0.0039643678
0.0025275489 -0.00018142856 -0.016677011
0.0057772547 0.00018142856 -0.01921954
0.020220391 0.00018142856 0.0011206897
-0.034663528 0.00127 -0.0010586206
0.015526372 0.00018142856 -0.016677011
0.035746764 0.00018142856 0.0011206897
0.017331764 -0.00127 -0.021035632
0.036830001 0.00054428569 -0.020309195
-0.0075826468 -0.00018142856 -0.017403448
0.0050550979 -0.00090714288 -0.02139885
0.0036107842 0.00127 -0.0017850574
-0.010832353 0.00127 -0.02139885
-0.025275489 0.00018142856 -0.014497701
-0.012276666 0.00018142856 -0.0021482757
-0.020942548 -0.00127 -0.0010586206
0.035385687 -0.00018142856 -0.0097758621
0.0021664705 0.00054428569 -0.019582758
0.0075826468 -0.00054428569 -0.020309195
-0.019498235 0.00018142856 -0.02139885
-0.0075826468 0.00090714288 -0.02139885
0.022386862 0.00127 -0.020309195
-0.0014443137 0.00054428569 -0.0021482757
-0.034663528 0.00090714288 -0.00033218382
-0.028886274 -0.00054428569 -0.02139885
-0.035385687 -0.00018142856 -0.018493103
-0.019498235 -0.00054428569 -0.0021482757
0.023109019 -0.00054428569 -0.0021482757
-0.020581471 0.00127 -0.0021482757
-0.022025784 0.00127 -0.020672413
-0.031052744 -0.00018142856 -0.00033218382
-0.00072215684 -0.00054428569 -0.020309195
0.01588745 -0.00127 -0.019582758
-0.012998823 -0.00127 -0.0021482757
-0.029247353 -0.00127 -0.02139885
-0.030330587 0.00018142856 -0.016313793
-0.022747941 0.00018142856 0.0025735633
0.0086658821 -0.00018142856 -0.00033218382
-0.004332941 0.00018142856 -0.020672413
-0.018415 0.00018142856 -0.01921954
0.020220391 -0.00018142856 -0.0057804594
-0.034302451 0.00090714288 -0.0021482757
-0.025636569 0.00018142856 -0.026120689
-0.025275489 0.00018142856 -0.02357816
0.0057772547 -0.00054428569 -0.019945977
0.025997646 -0.00054428569 -0.0021482757
0.0083048036 -0.00090714288 -0.019582758
0.0075826468 0.00018142856 -0.010865517
0.021303628 -0.00054428569 -0.019945977
0.022747941 0.00018142856 -0.017403448
-0.025275489 -0.00018142856 -0.0065068961
0.024192255 -0.00127 -0.0017850574
-0.011193431 -0.00127 -0.0021482757
-0.021664705 -0.00127 -0.01921954
0.015165294 -0.00090714288 -0.019945977
0.0079437252 -0.00127 -0.001421839
0.026358726 0.00054428569 -0.00033218382
-0.0075826468 -0.00018142856 -0.023214942
-0.020581471 -0.00018142856 -0.017403448
-0.0075826468 -0.00018142856 -0.0039643678
-0.025997646 -0.00127 -0.00033218382
-0.0014443137 0.00090714288 -0.0021482757
-0.027803039 -0.00018142856 -0.011955172
0.023470098 0.00127 -0.0021482757
0.012998823 0.00127 -0.00069540221
-0.014804215 -0.00054428569 -0.00033218382
-0.0079437252 -0.00054428569 -0.02139885
-0.022025784 -0.00018142856 -0.0021482757
0.036468923 0.00090714288 -0.00033218382
0.0097491173 -0.00090714288 -0.021035632
0.018415 0.00127 -0.00033218382
-0.010110196 -0.00090714288 -0.00033218382
0.028525196 0.00127 -0.019945977
0.0050550979 0.00018142856 -0.0043275859
0 0.00018142856 -0.011955172
-0.016970687 0.00090714288 -0.00033218382
0 -0.00018142856 0.0022103449
0.036468923 -0.00090714288 -0.00069540221
-0.0083048036 0.00127 -0.00069540221
-0.0014443137 0.00054428569 -0.00033218382
0.021303628 -0.00090714288 -0.02139885
0.012637745 -0.00018142856 -0.0036011492
-0.018415 0.00127 -0.021035632
0.025275489 -0.00018142856 -0.021762067
-0.0079437252 -0.00018142856 -0.018856321
0.0050550979 -0.00018142856 -0.0054172412
0.0039718626 -0.00054428569 -0.00033218382
-0.010110196 0.00018142856 -0.018129885
-0.035746764 0.00018142856 -0.011955172
-0.024553332 0.00127 -0.00069540221
-0.025636569 0.00018142856 -0.014860919
0.0072215684 0.00127 -0.001421839
0.025275489 0.00018142856 -0.016677011
0.025275489 -0.00054428569 -0.0021482757
0.022747941 -0.00054428569 -0.01921954
-0.0057772547 0.00054428569 -0.01921954
0.036468923 0.00090714288 -0.020309195
0.010471274 0.00054428569 -0.019945977
-0.012276666 0.00127 -0.020672413
0.031774901 -0.00127 -0.019582758
-0.017692843 0.00018142856 3.1034564e-05
-0.015165294 -0.00054428569 -0.020309195
-0.035746764 0.00018142856 0.0011206897
-0.032858137 -0.00018142856 -0.013044828
-0.0032497058 -0.00127 -0.0010586206
-0.01372098 -0.00127 -0.00033218382
0.014443137 0.00054428569 -0.00033218382
-0.01588745 0.00127 -0.001421839
0.027080882 0.00127 -0.021035632
0.0018053921 -0.00127 -0.020309195
0.018053921 -0.00090714288 -0.00033218382
0.028164117 0.00054428569 -0.01921954
-0.020220391 0.00018142856 -0.0083229886
-0.019859314 0.00090714288 -0.0021482757
0.010110196 -0.00018142856 -0.024304597
-0.023470098 -0.00090714288 -0.01921954
0.030691667 -0.00018142856 -0.018856321
0.020220391 -0.00018142856 -0.027573563
-0.035746764 -0.00018142856 -0.0083229886
-0.018776078 0.00090714288 -0.00033218382
0.0064994115 0.00018142856 -0.02139885
0.022386862 0.00127 -0.019582758
-0.015526372 0.00018142856 -0.022125287
-0.028886274 0.00127 -0.00033218382
-0.0079437252 -0.00018142856 -0.025031034
-0.0046940194 -0.00054428569 -0.0021482757
-0.017692843 0.00018142856 0.00075747131
-0.030330587 0.00018142856 0.0025735633
-0.020581471 -0.00018142856 -0.0028747125
-0.033219215 -0.00018142856 -0.011591953
-0.035385687 -0.00018142856 -0.0075965514
-0.025636569 0.00054428569 -0.019582758
-0.036107842 0.00054428569 -0.020309195
-0.020581471 0.00018142856 -0.01231839
0.025636569 0.00090714288 -0.01921954
0 -0.00127 -0.01921954
0.0054161763 0.00090714288 -0.02139885
0.034663528 -0.00054428569 -0.021035632
-0.019137157 0.00127 -0.001421839
-0.025275489 -0.00018142856 3.1034564e-05
-0.0050550979 -0.00018142856 0.0022103449
-0.020581471 0.00018142856 -0.0046908045
-0.035385687 -0.00018142856 -0.011228736
-0.033219215 -0.00127 -0.021035632
-0.036107842 -0.00127 -0.00069540221
0.030330587 0.00018142856 -0.010502298
-0.0050550979 -0.00090714288 -0.00033218382
0.035746764 -0.00018142856 -0.014860919
-0.017692843 -0.00018142856 -0.024667816
-0.030691667 -0.00018142856 -0.011228736
-0.014804215 0.00127 -0.0010586206
-0.017692843 -0.00054428569 -0.0025114941
0.025636569 0.00018142856 -0.00795977
0.015165294 0.00127 -0.020672413
0.0090269605 0.00090714288 -0.00033218382
0.020220391 -0.00127 -0.00069540221
0.012276666 -0.00054428569 -0.019582758
0.010471274 0.00054428569 -0.020309195
0.010110196 0.00018142856 -0.0046908045
0.024914412 0.00127 -0.001421839
-0.035746764 -0.00018142856 0.0018471265
0.02744196 0.00127 -0.0017850574
0.0018053921 0.00018142856 -0.00033218382
0.01624853 -0.00127 -0.020309195
0.010832353 0.00018142856 -0.0021482757
0.012637745 0.00018142856 -0.018493103
0.0014443137 0.00127 -0.02139885
0.021303628 0.00127 -0.020309195
0.025275489 -0.00018142856 -0.013408045
0.017692843 0.00018142856 -0.0036011492
-0.015165294 -0.00127 -0.021035632
0.033219215 -0.00018142856 -0.017403448
-0.0025275489 0.00018142856 -0.018129885
0.018415 0.00127 -0.0017850574
-0.020220391 0.00018142856 -0.0046908045
-0.0021664705 0.00018142856 -0.021035632
-0.0061383331 0.00054428569 -0.01921954
0.00686049 -0.00054428569 -0.0021482757
-0.035385687 0.00127 -0.0017850574
-0.025275489 -0.00018142856 -0.014860919
0.012637745 0.00018142856 -0.016313793
-0.017692843 -0.00018142856 -0.013408045
-0.030330587 0.00018142856 -0.022851724
-0.0050550979 -0.00018142856 3.1034564e-05
-0.026358726 0.00127 -0.00069540221
0.018053921 -0.00018142856 -0.01921954
0.022747941 0.00127 -0.0010586206
0.026719803 -0.00127 -0.00069540221
-0.015526372 -0.00018142856 -0.027210344
0.0025275489 0.00018142856 0.0011206897
0.0036107842 0.00054428569 -0.0021482757
-0.0057772547 -0.00127 -0.0017850574
0.010832353 -0.00127 -0.019945977
0.020220391 -0.00018142856 -0.00795977
-0.015165294 0.00018142856 -0.011955172
-0.014804215 0.00127 -0.020672413
-0.00036107842 -0.00127 -0.01921954
-0.025636569 -0.00127 -0.020309195
-0.0061383331 0.00054428569 -0.0021482757
0.036468923 0.00090714288 -0.02139885
-0.022747941 0.00018142856 -0.027573563
0.012998823 0.00127 -0.0017850574
-0.00686049 0.00090714288 -0.021035632
0.020220391 -0.00127 -0.001421839
0.020220391 0.00127 -0.021035632
-0.036468923 -0.00018142856 -0.019582758
-0.0072215684 -0.00018142856 -0.02139885
-0.035024609 0.00127 -0.019945977
-0.0057772547 -0.00127 -0.02139885
0.020581471 -0.00018142856 0.0011206897
-0.022747941 0.00127 -0.0021482757
0.033219215 0.00018142856 -0.021762067
0.0028886274 0.00018142856 -0.00033218382
-0.019498235 0.00054428569 -0.02139885
-0.023109019 0.00018142856 -0.018856321
-0.019859314 0.00127 -0.0010586206
0.00072215684 -0.00127 -0.00033218382
-0.020581471 0.00018142856 -0.027210344
-0.028525196 0.00127 -0.00033218382
0.036468923 -0.00018142856 -0.021035632
0.030330587 0.00018142856 -0.024667816
0.015526372 0.00127 -0.021035632
-0.025997646 0.00090714288 -0.020309195
-0.01372098 -0.00127 -0.0010586206
-0.022747941 -0.00018142856 -0.0072333328
-0.03249706 0.00090714288 -0.00033218382
-0.025997646 -0.00127 -0.01921954
0.012998823 0.00127 -0.001421839
-0.027803039 0.00018142856 -0.027210344
0.032858137 -0.00018142856 -0.017766666
0.010471274 0.00090714288 -0.0021482757
0.019859314 -0.00018142856 -0.02139885
-0.004332941 0.00090714288 -0.00033218382
-0.0079437252 -0.00018142856 -0.024667816
-0.020581471 0.00018142856 -0.0036011492
-0.032858137 0.00127 -0.001421839
0.0025275489 0.00018142856 -0.023941379
-0.020581471 -0.00018142856 -0.026483906
0.011915588 0.00090714288 -0.019582758
-0.015165294 0.00018142856 -0.016313793
0.013359901 -0.00127 -0.02139885
-0.032858137 0.00018142856 -0.025394252
-0.020942548 -0.00054428569 -0.019582758
-0.00686049 -0.00054428569 -0.0021482757
0.02744196 -0.00054428569 -0.02139885
0.012637745 -0.00018142856 -0.016313793
-0.0018053921 0.00054428569 -0.01921954
-0.01588745 -0.00054428569 -0.019582758
-0.010110196 -0.00018142856 -0.018493103
0.023109019 -0.00018142856 -0.022488505
-0.016609607 -0.00054428569 -0.00033218382
-0.027080882 0.00127 -0.00069540221
-0.0018053921 0.00127 -0.001421839
0.032135978 -0.00054428569 -0.01921954
-0.014804215 -0.00054428569 -0.02139885
-0.0018053921 0.00127 -0.00069540221
-0.0050550979 -0.00018142856 -0.015950574
-0.021303628 -0.00127 -0.0017850574
0.00072215684 -0.00127 -0.020309195
-0.00686049 0.00054428569 -0.00033218382
-0.030330587 -0.00018142856 -0.024667816
0.035385687 0.00018142856 -0.011228736
-0.027803039 0.00018142856 -0.011228736
-0.0093880389 0.00018142856 -0.019945977
-0.025636569 0.00054428569 -0.0021482757
-0.028886274 -0.00090714288 -0.0021482757
0.028525196 0.00018142856 -0.02139885
0.025275489 0.00018142856 -0.024667816
-0.0050550979 -0.00054428569 -0.018856321
0 -0.00018142856 -0.0050540227
0.0075826468 0.00127 -0.020672413
-0.01624853 -0.00127 -0.02139885
-0.035385687 -0.00018142856 0.0011206897
-0.0054161763 -0.00090714288 -0.0021482757
-0.0090269605 0.00127 -0.0021482757
0.030330587 -0.00090714288 -0.020309195
-0.00036107842 0.00090714288 -0.00033218382
0.019498235 -0.00127 -0.021035632
-0.011193431 0.00127 -0.0021482757
-0.028164117 -0.00018142856 -0.0083229886
0.010110196 0.00018142856 -0.01013908
-0.015165294 -0.00018142856 -0.024667816
0.026358726 -0.00127 -0.0017850574
-0.025275489 -0.00018142856 -0.027210344
0.025636569 0.00018142856 -0.011591953
-0.015165294 -0.00018142856 -0.013044828
-0.0086658821 0.00018142856 -0.02139885
0.020581471 0.00018142856 -0.0072333328
0.035385687 0.00090714288 -0.01921954
-0.022747941 -0.00018142856 -0.01013908
-0.033941373 0.00127 -0.0010586206
0.0046940194 0.00127 -0.00069540221
-0.025275489 0.00018142856 -0.023941379
-0.030691667 -0.00018142856 -0.0039643678
0.0050550979 -0.00127 -0.019582758
-0.015165294 0.00018142856 -0.00795977
0.015165294 0.00018142856 -0.011228736
-0.036468923 0.00054428569 -0.00033218382
0.016970687 -0.00127 -0.020309195
0.010110196 0.00127 -0.00069540221
0.025636569 -0.00018142856 -0.026120689
0.021303628 0.00127 -0.0021482757
0.010471274 -0.00127 -0.00033218382
-0.031774901 -0.00127 -0.001421839
-0.012998823 0.00054428569 -0.02139885
0.036107842 -0.00090714288 -0.020309195
-0.020581471 0.00018142856 -0.026120689
-0.0050550979 0.00054428569 -0.02139885
-0.025636569 0.00127 -0.020309195
-0.0083048036 0.00127 -0.0021482757
-0.011554509 0.00127 -0.001421839
-0.012998823 0.00018142856 -0.00033218382
-0.025275489 0.00018142856 -0.018129885
0.033219215 -0.00018142856 -0.0025114941
-0.014082058 -0.00090714288 -0.020672413
0.028164117 0.00018142856 -0.015224137
0.0050550979 0.00018142856 -0.0057804594
-0.036107842 -0.00018142856 -0.02139885
-0.017331764 -0.00018142856 -0.02139885
-0.0014443137 -0.00054428569 -0.019945977
0.02744196 0.00018142856 -0.0021482757
0.022386862 -0.00054428569 -0.0021482757
-0.0021664705 -0.00127 -0.0010586206
-0.0093880389 -0.00127 -0.019945977
0.016609607 0.00127 -0.001421839
-0.031052744 -0.00054428569 -0.02139885
-0.012637745 0.00018142856 -0.01013908
0.025275489 -0.00018142856 0.0025735633
-0.032858137 0.00018142856 -0.00795977
0.025636569 0.00018142856 -0.01231839
-0.012276666 0.00054428569 -0.00033218382
-0.036107842 0.00054428569 -0.020672413
-0.018776078 -0.00054428569 -0.019945977
0.035385687 0.00090714288 -0.00069540221
0.017692843 0.00018142856 -0.022488505
0.035746764 -0.00018142856 -0.022488505
-0.020942548 0.00018142856 -0.00033218382
0.018776078 -0.00090714288 -0.00033218382
-0.015165294 -0.00018142856 -0.0036011492
-0.027080882 0.00127 -0.001421839
-0.0083048036 -0.00054428569 -0.019582758
-0.010110196 -0.00018142856 -0.00795977
-0.033219215 -0.00018142856 -0.011228736
0.025275489 -0.00127 -0.020672413
0.0075826468 0.00090714288 -0.02139885
0.00036107842 -0.00054428569 -0.019582758
0.026358726 -0.00127 -0.0010586206
0.0079437252 0.00054428569 -0.0021482757
0.033941373 -0.00127 -0.00033218382
-0.022386862 -0.00090714288 -0.0021482757
-0.010832353 -0.00090714288 -0.00033218382
0.010110196 -0.00127 -0.00033218382
-0.019137157 0.00127 -0.0010586206
-0.025636569 -0.00018142856 -0.006143678
0.0083048036 -0.00054428569 -0.020309195
0.036107842 0.00090714288 -0.020309195
0.035385687 -0.00018142856 -0.0057804594
-0.030330587 0.00090714288 -0.021035632
0.022747941 -0.00018142856 0.0011206897
0.032858137 0.00018142856 -0.015950574
0.0036107842 -0.00127 -0.0010586206
0.017331764 0.00127 -0.019945977
-0.025275489 -0.00018142856 -0.0032379308
-0.0025275489 0.00018142856 -0.013044828
0.022747941 0.00018142856 -0.021762067
-0.018053921 -0.00127 -0.001421839
0.011554509 -0.00018142856 -0.02139885
-0.022025784 -0.00127 -0.00069540221
0.019498235 -0.00018142856 -0.01921954
0.0021664705 -0.00127 -0.02139885
0.019498235 -0.00054428569 -0.01921954
-0.025275489 0.00018142856 -0.027210344
-0.01588745 0.00127 -0.020672413
-0.0039718626 -0.00127 -0.020309195
0.0097491173 0.00054428569 -0.020672413
0.035746764 0.00018142856 -0.023941379
0.027803039 -0.00018142856 -0.0032379308
0.0072215684 0.00054428569 -0.020672413
0.015526372 0.00018142856 -0.011228736
-0.020581471 0.00018142856 -0.022488505
-0.035746764 -0.00018142856 -0.0097758621
-0.036468923 0.00090714288 -0.0017850574
0.0036107842 0.00127 -0.0021482757
-0.027803039 0.00127 -0.021035632
-0.035746764 -0.00018142856 -0.018129885
0.018776078 0.00127 -0.00069540221
-0.022747941 -0.00018142856 -0.022488505
-0.020220391 0.00090714288 -0.020309195
-0.030330587 0.00018142856 -0.01013908
0.027803039 -0.00018142856 -0.012681609
0.031774901 0.00018142856 -0.01921954
-0.018415 -0.00018142856 -0.01921954
-0.0079437252 -0.00018142856 -0.01231839
0.030330587 0.00018142856 -0.014860919
-0.01624853 0.00018142856 -0.01921954
0.014082058 0.00127 -0.020672413
0.016609607 0.00127 -0.0021482757
0.014443137 0.00127 -0.021035632
-0.011554509 -0.00054428569 -0.019582758
0.0036107842 -0.00090714288 -0.02139885
0.025997646 -0.00127 -0.001421839
0.0010832353 -0.00090714288 -0.00033218382
-0.004332941 0.00127 -0.0017850574
-0.0057772547 -0.00018142856 -0.02139885
-0.032858137 -0.00018142856 -0.0043275859
-0.015526372 -0.00018142856 -0.024667816
-0.004332941 -0.00127 -0.0017850574
-0.028164117 -0.00018142856 -0.023941379
0.035385687 0.00018142856 -0.0072333328
-0.0021664705 -0.00054428569 -0.0021482757
-0.034663528 -0.00127 -0.0010586206
0.032858137 -0.00018142856 0.00039425294
0.015526372 0.00018142856 -0.0032379308
-0.012637745 -0.00090714288 -0.020672413
0.022747941 0.00127 -0.020672413
0.022747941 -0.00018142856 -0.00795977
-0.020581471 0.00054428569 -0.019945977
0.02960843 -0.00127 -0.0010586206
-0.0064994115 0.00018142856 -0.02139885
-0.014443137 -0.00054428569 -0.020309195
0.033580292 0.00090714288 -0.01921954
0.033219215 -0.00018142856 -0.026120689
-0.0064994115 -0.00127 -0.00033218382
-0.027803039 -0.00054428569 -0.00033218382
0.0050550979 -0.00018142856 -0.011591953
-0.02744196 0.00054428569 -0.0021482757
0.0072215684 -0.00090714288 -0.0021482757
-0.023109019 -0.00054428569 -0.0021482757
-0.0032497058 0.00018142856 -0.02139885
-0.0064994115 0.00054428569 -0.019945977
0.026358726 -0.00054428569 -0.019582758
0.019137157 -0.00127 -0.02139885
-0.00072215684 -0.00054428569 -0.019582758
-0.0061383331 0.00127 -0.021035632
-0.020942548 0.00127 -0.021035632
0.023109019 -0.00018142856 -0.0097758621
-0.025275489 0.00018142856 -0.0054172412
-0.030691667 -0.00018142856 -0.0086862063
-0.0090269605 0.00018142856 -0.0021482757
-0.014082058 -0.00054428569 -0.02139885
0.004332941 -0.00018142856 -0.00033218382
0.01588745 -0.00018142856 -0.00033218382
0.012637745 -0.00054428569 -0.0025114941
0.027803039 -0.00018142856 -0.014134482
-0.030330587 -0.00090714288 -0.0021482757
0.017692843 0.00018142856 -0.015587356
0.036468923 0.00018142856 -0.00033218382
0.019498235 -0.00127 -0.001421839
0.035746764 0.00018142856 -0.011955172
0.017692843 0.00018142856 -0.024304597
-0.00036107842 0.00054428569 -0.00033218382
0.0075826468 -0.00018142856 -0.010865517
-0.025275489 -0.00090714288 -0.01921954
0.010110196 -0.00018142856 0.001483908
0.030330587 -0.00018142856 -0.0054172412
0.022747941 -0.00018142856 -0.012681609
-0.034302451 -0.00018142856 -0.01921954
0.0057772547 -0.00127 -0.020309195
0.016609607 -0.00018142856 -0.02139885
-0.022386862 0.00090714288 -0.00033218382
0.027803039 -0.00018142856 0.001483908
-0.030691667 -0.00127 -0.019945977
0.0028886274 -0.00127 -0.001421839
-0.0061383331 0.00127 -0.00033218382
-0.018053921 -0.00127 -0.00033218382
0.011554509 0.00127 -0.00069540221
0.0050550979 0.00018142856 -0.0050540227
0.028164117 -0.00018142856 -0.024667816
-0.017331764 -0.00054428569 -0.01921954
0.0079437252 0.00018142856 -0.0054172412
-0.019859314 -0.00127 -0.02139885
0.025636569 0.00018142856 -0.023941379
0 0.00018142856 -0.0046908045
-0.0050550979 -0.00018142856 0.00075747131
-0.025636569 -0.00018142856 -0.022851724
-0.020581471 -0.00018142856 0.0011206897
-0.0061383331 -0.00018142856 -0.01921954
0.034663528 0.00090714288 -0.01921954
0.023831176 0.00127 -0.021035632
0.0075826468 0.00018142856 -0.026120689
-0.0028886274 -0.00054428569 -0.020309195
-0.019859314 0.00127 -0.00069540221
-0.0025275489 -0.00018142856 -0.0068701147
-0.010110196 -0.00018142856 -0.0090494249
0.025636569 0.00018142856 -0.0057804594
-0.0075826468 0.00018142856 -0.00795977
0.024192255 -0.00018142856 -0.00033218382
-0.030330587 -0.00018142856 -0.0039643678
0.012998823 -0.00054428569 -0.019945977
-0.033580292 -0.00090714288 -0.00033218382
-0.0050550979 0.00018142856 -0.0039643678
0.033219215 0.00090714288 -0.020672413
-0.0025275489 -0.00018142856 -0.017766666
-0.0054161763 0.00090714288 -0.0021482757
-0.030691667 0.00018142856 0.00039425294
-0.010471274 -0.00127 -0.019945977
0.0018053921 -0.00127 -0.0017850574
0.020581471 -0.00090714288 -0.0021482757
0.035746764 0.00018142856 0.0025735633
-0.025275489 -0.00018142856 -0.0068701147
0.034663528 0.00090714288 -0.0021482757
0.016609607 0.00127 -0.020309195
0.032858137 0.00018142856 3.1034564e-05
-0.018776078 -0.00090714288 -0.0021482757
0.017692843 -0.00090714288 -0.020672413
0.0075826468 0.00018142856 -0.0068701147
0.02960843 -0.00127 -0.00033218382
-0.021664705 0.00054428569 -0.02139885
0.018776078 -0.00054428569 -0.02139885
-0.030330587 -0.00018142856 -0.022125287
-0.024192255 0.00090714288 -0.019945977
0.0010832353 0.00127 -0.019945977
0.025636569 0.00018142856 -0.018493103
0.0050550979 -0.00018142856 -0.024667816
0.020581471 0.00018142856 -0.00795977
0.022747941 -0.00018142856 -0.0094126435
0.035746764 0.00090714288 -0.01921954
0.016609607 0.00054428569 -0.020309195
0.015526372 0.00018142856 0.001483908
0.036468923 0.00018142856 -0.01921954
0.020220391 0.00018142856 -0.023214942
-0.017692843 0.00018142856 -0.023214942
0.010471274 0.00127 -0.02139885
-0.033941373 0.00054428569 -0.020309195
-0.00686049 -0.00090714288 -0.021035632
-0.019498235 -0.00090714288 -0.00033218382
0.025997646 -0.00127 -0.01921954
0.013359901 0.00090714288 -0.02139885
0.0075826468 -0.00018142856 -0.0097758621
0.022747941 0.00018142856 -0.0054172412
0.0075826468 -0.00018142856 -0.010502298
0.031052744 -0.00127 -0.0021482757
-0.004332941 0.00127 -0.0021482757
0.025275489 0.00018142856 -0.0065068961
-0.0050550979 0.00018142856 -0.0036011492
0.0032497058 0.00127 -0.0021482757
0.0075826468 -0.00127 -0.020309195
0.0028886274 -0.00127 -0.020309195
0.02996951 -0.00090714288 -0.00033218382
-0.018776078 0.00127 -0.021035632
-0.031052744 -0.00127 -0.020672413
-0.010110196 0.00018142856 -0.015224137
0.031774901 -0.00127 -0.0017850574
-0.030691667 0.00018142856 -0.0068701147
-0.015526372 -0.00127 -0.02139885
-0.020581471 -0.00127 -0.0021482757
-0.010110196 -0.00127 -0.021035632
-0.025275489 0.00127 -0.021035632
0.029247353 0.00127 -0.020672413
0.030691667 -0.00018142856 -0.024304597
0.025636569 -0.00018142856 0.001483908
-0.0083048036 -0.00054428569 -0.020309195
-0.029247353 -0.00054428569 -0.00033218382
0.030691667 0.00018142856 -0.015587356
-0.025636569 -0.00018142856 -0.022488505
0.020581471 0.00018142856 -0.027210344
-0.015526372 -0.00018142856 -0.0083229886
0.012998823 0.00127 -0.020672413
-0.0097491173 0.00127 -0.001421839
-0.0061383331 0.00018142856 -0.00033218382
0.00072215684 -0.00018142856 -0.00033218382
0.017692843 0.00054428569 -0.019582758
-0.030330587 0.00127 -0.019582758
-0.019498235 0.00018142856 -0.01921954
-0.019859314 0.00127 -0.001421839
0.028164117 0.00018142856 -0.017766666
-0.0079437252 -0.00018142856 -0.0043275859
0.024553332 -0.00018142856 -0.0021482757
-0.01588745 -0.00018142856 -0.02139885
0.035746764 0.00018142856 -0.01231839
-0.0014443137 0.00127 -0.00069540221
-0.0090269605 -0.00127 -0.0010586206
0.018053921 0.00127 -0.02139885
0.01624853 0.00090714288 -0.02139885
0.0075826468 -0.00127 -0.0010586206
0.034663528 0.00054428569 -0.0021482757
-0.029247353 -0.00127 -0.020309195
-0.032858137 0.00018142856 -0.025757471
-0.015165294 -0.00127 -0.019582758
0.010110196 -0.00018142856 -0.018129885
0.033219215 0.00018142856 -0.0097758621
0.023831176 0.00090714288 -0.01921954
0.0064994115 0.00090714288 -0.02139885
-0.020942548 -0.00127 -0.0017850574
-0.0093880389 0.00090714288 -0.021035632
-0.033219215 0.00127 -0.0021482757
0.030691667 -0.00018142856 -0.017403448
0.033580292 -0.00090714288 -0.021035632
-0.030691667 0.00090714288 -0.02139885
0.0083048036 -0.00054428569 -0.01921954
-0.020581471 -0.00018142856 -0.0072333328
0.028525196 -0.00018142856 -0.01921954
-0.035385687 0.00018142856 -0.016677011
0.0086658821 -0.00018142856 -0.02139885
-0.0018053921 0.00054428569 -0.0021482757
-0.011554509 0.00054428569 -0.02139885
0.016609607 0.00054428569 -0.019582758
-0.025275489 -0.00018142856 -0.022488505
0.031413823 0.00127 -0.021035632
0.025275489 0.00018142856 -0.011955172
-0.013359901 0.00127 -0.0017850574
0.0025275489 -0.00018142856 -0.017040228
-0.035746764 -0.00018142856 -0.0086862063
-0.033219215 0.00018142856 -0.0054172412
-0.0021664705 0.00018142856 -0.02139885
-0.025636569 0.00018142856 -0.02357816
0.025636569 0.00127 -0.0021482757
-0.029247353 -0.00090714288 -0.02139885
-0.024914412 -0.00018142856 -0.01921954
-0.030330587 -0.00018142856 -0.0075965514
-0.025997646 0.00127 -0.02139885
-0.014804215 0.00018142856 -0.02139885
-0.00036107842 0.00127 -0.019582758
-0.015165294 0.00018142856 -0.010502298
-0.0046940194 0.00054428569 -0.01921954
0.020581471 -0.00127 -0.01921954
0.032858137 -0.00018142856 -0.023941379
-0.015526372 -0.00127 -0.020672413
0.033219215 0.00018142856 -0.0072333328
0.019498235 0.00018142856 -0.00033218382
0.0083048036 0.00054428569 -0.00033218382
0.010110196 -0.00018142856 -0.014134482
0.025636569 -0.00018142856 -0.014860919
-0.020581471 -0.00018142856 -0.014134482
0.036468923 -0.00090714288 -0.00033218382
0 0.00018142856 -0.0057804594
-0.010110196 -0.00018142856 -0.016677011
-0.025997646 -0.00054428569 -0.00033218382
-0.035746764 0.00018142856 -0.024304597
0.015526372 0.00018142856 -0.016313793
-0.0025275489 -0.00018142856 -0.021762067
-0.028886274 0.00018142856 -0.00033218382
-0.012998823 -0.00090714288 -0.0021482757
0.027803039 0.00018142856 -0.024667816
-0.030330587 -0.00018142856 0.0025735633
-0.020220391 0.00018142856 -0.011228736
0.020581471 -0.00018142856 -0.013408045
0.028164117 0.00018142856 -0.013408045
-0.03249706 0.00054428569 -0.020672413
0.020220391 -0.00018142856 -0.0054172412
0.0090269605 -0.00090714288 -0.019582758
-0.0079437252 -0.00018142856 -0.006143678
0.023831176 -0.00127 -0.020309195
0.012998823 -0.00127 -0.0017850574
-0.0025275489 0.00018142856 -0.011591953
0.0075826468 -0.00090714288 -0.0021482757
0.035024609 -0.00090714288 -0.020309195
-0.0046940194 -0.00127 -0.0021482757
-0.030691667 0.00018142856 -0.018856321
-0.0075826468 -0.00018142856 -0.016677011
0.014804215 -0.00090714288 -0.02139885
0.030330587 -0.00018142856 -0.0039643678
-0.0021664705 -0.00054428569 -0.00033218382
-0.024914412 -0.00127 -0.00069540221
0.022747941 -0.00054428569 -0.019582758
0.028525196 -0.00018142856 -0.0021482757
-0.023109019 -0.00018142856 0.0022103449
-0.016970687 0.00127 -0.00069540221
-0.02960843 0.00090714288 -0.00033218382
-0.0050550979 -0.00018142856 -0.013408045
-0.012637745 0.00054428569 -0.02139885
-0.030330587 0.00127 -0.0017850574
-0.025275489 -0.00018142856 -0.00795977
-0.020942548 0.00018142856 -0.0021482757
0.010471274 -0.00090714288 -0.02139885
-0.012276666 -0.00127 -0.001421839
0.022025784 0.00127 -0.020672413
0.0090269605 0.00018142856 -0.0021482757
0.015165294 -0.00018142856 -0.0028747125
0.030691667 0.00018142856 -0.0075965514
-0.023109019 -0.00127 -0.0017850574
0.0072215684 0.00054428569 -0.01921954
-0.0079437252 -0.00018142856 -0.0097758621
0.028525196 -0.00018142856 -0.02139885
-0.032858137 0.00018142856 -0.0039643678
0.012637745 0.00018142856 0.00039425294
-0.020220391 -0.00018142856 -0.014134482
0.0028886274 0.00127 -0.00033218382
0.027803039 0.00018142856 0.001483908
0.015165294 -0.00018142856 -0.0090494249
0.0050550979 -0.00018142856 -0.0086862063
0.0079437252 0.00018142856 -0.016313793
-0.01624853 -0.00090714288 -0.020672413
-0.0079437252 -0.00018142856 -0.026483906
0.011915588 -0.00127 -0.020309195
0.025997646 -0.00090714288 -0.00033218382
-0.010832353 -0.00018142856 -0.00033218382
-0.011193431 -0.00054428569 -0.019582758
-0.035385687 -0.00018142856 -0.0036011492
0.016609607 -0.00127 -0.020672413
-0.025636569 -0.00018142856 -0.024667816
0.031774901 0.00018142856 -0.00033218382
-0.0064994115 0.00127 -0.00069540221
0.032858137 0.00018142856 -0.017766666
0.02744196 -0.00018142856 -0.0021482757
-0.024914412 -0.00090714288 -0.019582758
-0.019498235 0.00090714288 -0.0021482757
-0.033941373 0.00054428569 -0.02139885
0.010832353 -0.00127 -0.0017850574
0.035746764 0.00018142856 -0.022488505
-0.012637745 0.00018142856 -0.011228736
0.026358726 -0.00018142856 -0.01921954
0.031052744 0.00127 -0.0017850574
0.030330587 -0.00018142856 -0.027573563
0.028164117 -0.00018142856 -0.012681609
0.023470098 0.00127 -0.0010586206
0.0025275489 -0.00018142856 -0.025757471
0.023109019 -0.00127 -0.0017850574
0.028164117 -0.00018142856 -0.0032379308
0.0025275489 0.00054428569 -0.018856321
0.027803039 -0.00018142856 -0.022488505
0.012637745 0.00018142856 -0.0086862063
-0.0090269605 0.00018142856 -0.019582758
-0.035024609 0.00018142856 -0.02139885
-0.017692843 0.00127 -0.02139885
0.0090269605 0.00127 -0.02139885
-0.032135978 -0.00127 -0.00033218382
0.0054161763 0.00054428569 -0.0021482757
0.030691667 -0.00090714288 -0.02139885
0.0010832353 0.00127 -0.020309195
0.03249706 -0.00090714288 -0.0021482757
-0.0014443137 0.00018142856 -0.021035632
-0.0025275489 -0.00018142856 -0.016677011
0 -0.00018142856 0.00075747131
0.020581471 -0.00018142856 -0.0046908045
-0.01588745 0.00127 -0.021035632
0.024553332 -0.00127 -0.021035632
0.022747941 -0.00018142856 0.001483908
-0.015526372 -0.00018142856 -0.014497701
0.033941373 -0.00090714288 -0.019582758
0.0010832353 -0.00054428569 -0.020672413
0.030330587 0.00127 -0.020672413
0.022747941 0.00018142856 -0.0043275859
0.0097491173 -0.00054428569 -0.020309195
0.025636569 0.00018142856 -0.0032379308
-0.012637745 -0.00018142856 -0.0072333328
-0.030330587 0.00018142856 -0.018129885
0.030691667 -0.00018142856 -0.0054172412
-0.0036107842 0.00018142856 -0.00033218382
0.0097491173 0.00018142856 -0.0021482757
-0.016970687 -0.00127 -0.00033218382
0.015526372 -0.00127 -0.0010586206
0.030691667 -0.00018142856 -0.022488505
-0.025636569 -0.00018142856 -0.026847126
-0.0039718626 -0.00054428569 -0.01921954
0.02744196 0.00090714288 -0.02139885
0.033941373 0.00127 -0.00033218382
-0.028886274 0.00054428569 -0.00033218382
0.018053921 0.00054428569 -0.00033218382
-0.010110196 -0.00090714288 -0.02139885
0.011193431 -0.00054428569 -0.020309195
0.015165294 -0.00018142856 -0.026120689
0.022386862 -0.00127 -0.0021482757
0.025275489 0.00018142856 -0.0075965514
0.030691667 0.00018142856 -0.026847126
-0.010110196 -0.00018142856 -0.014134482
0.0010832353 -0.00054428569 -0.019582758
0.011554509 -0.00127 -0.019582758
-0.0090269605 0.00018142856 -0.019945977
-0.0061383331 0.00054428569 -0.020309195
-0.019498235 -0.00090714288 -0.020309195
0.016609607 -0.00127 -0.0017850574
0.028886274 -0.00127 -0.021035632
-0.023109019 0.00127 -0.0021482757
-0.023831176 0.00127 -0.020672413
-0.012998823 0.00127 -0.020672413
-0.012637745 0.00018142856 -0.014497701
0.0028886274 0.00090714288 -0.01921954
0.0025275489 -0.00054428569 -0.021035632
0.030691667 -0.00018142856 -0.010502298
-0.0010832353 0.00127 -0.020672413
-0.032858137 0.00018142856 -0.024304597
-0.0064994115 0.00127 -0.02139885
-0.030330587 0.00054428569 -0.020672413
0.030330587 0.00018142856 -0.0046908045
0.0079437252 0.00018142856 0.0022103449
0.0050550979 0.00090714288 -0.00033218382
0.0046940194 -0.00127 -0.019582758
0.025275489 0.00090714288 -0.0021482757
-0.031413823 0.00127 -0.00069540221
0.020942548 -0.00127 -0.00033218382
-0.011554509 -0.00127 -0.020309195
0.0028886274 0.00054428569 -0.019582758
0.0025275489 -0.00018142856 -0.018493103
0.0075826468 0.00018142856 -0.013771264
0.0079437252 -0.00127 -0.02139885
0.033219215 0.00018142856 -0.022125287
-0.028164117 0.00018142856 -0.026483906
0.030330587 0.00018142856 -0.0028747125
-0.024192255 0.00127 -0.00033218382
0.027803039 0.00018142856 -0.0054172412
0.022747941 0.00018142856 -0.015224137
-0.025636569 0.00018142856 -0.0072333328
-0.0025275489 -0.00018142856 -0.01013908
-0.015165294 -0.00018142856 0.0025735633
0.035385687 0.00018142856 -0.013044828
0.0079437252 -0.00018142856 -0.025757471
0.012637745 0.00018142856 -0.0068701147
0.028164117 -0.00127 -0.020309195
-0.0032497058 -0.00018142856 -0.01921954
0.035385687 -0.00018142856 -0.025394252
0.028164117 0.00018142856 -0.026847126
0.016609607 0.00127 -0.021035632
0.027803039 -0.00127 -0.00069540221
0.032135978 -0.00127 -0.02139885
-0.017692843 -0.00018142856 -0.014134482
0.02744196 0.00090714288 -0.01921954
-0.016609607 0.00054428569 -0.019945977
0.0010832353 -0.00054428569 -0.01921954
-0.02744196 0.00127 -0.001421839
0.018776078 0.00127 -0.020309195
0.0025275489 -0.00127 -0.019945977
-0.015165294 -0.00018142856 -0.0086862063
-0.035385687 -0.00018142856 -0.011591953
0.011915588 0.00127 -0.021035632
-0.022747941 0.00018142856 -0.023214942
0.015165294 -0.00018142856 -0.0097758621
0.025275489 -0.00018142856 -0.026483906
0.0021664705 -0.00127 -0.020672413
-0.025636569 -0.00018142856 -0.027210344
0.032858137 -0.00127 -0.0017850574
-0.027803039 0.00018142856 -0.01231839
-0.027803039 0.00018142856 -0.0032379308
0.0032497058 -0.00054428569 -0.01921954
0.025636569 -0.00018142856 -0.014497701
-0.027803039 0.00018142856 -0.026847126
-0.01624853 -0.00018142856 -0.0021482757
-0.032858137 -0.00018142856 -0.024667816
0.02960843 0.00127 -0.020672413
0.025275489 0.00018142856 0.0025735633
-0.025275489 0.00018142856 -0.022125287
-0.017692843 -0.00018142856 -0.027210344
0.031052744 0.00090714288 -0.0021482757
0.0028886274 -0.00127 -0.0017850574
-0.014804215 -0.00018142856 -0.00033218382
0.0064994115 -0.00127 -0.00069540221
-0.0079437252 -0.00018142856 -0.016677011
0.023109019 -0.00018142856 -0.010502298
-0.0075826468 0.00018142856 -0.018493103
0.0014443137 0.00127 -0.020309195
0.035385687 0.00018142856 0.0022103449
-0.0032497058 -0.00127 -0.00069540221
-0.033219215 0.00054428569 -0.0021482757
0.012637745 0.00018142856 -0.00795977
-0.027803039 -0.00018142856 -0.016677011
-0.01624853 0.00127 -0.0010586206
0.017331764 -0.00090714288 -0.0021482757
0.012637745 0.00018142856 -0.0075965514
0.0079437252 0.00018142856 -0.010865517
-0.0028886274 -0.00054428569 -0.00033218382
-0.011554509 0.00090714288 -0.00033218382
0 -0.00018142856 -0.012681609
0.030691667 0.00127 -0.001421839
0.032858137 -0.00018142856 -0.025757471
0.035385687 -0.00018142856 -0.022851724
-0.023470098 -0.00127 -0.020309195
0.027803039 0.00018142856 -0.014134482
0.032858137 -0.00127 -0.0021482757
-0.012637745 -0.00018142856 -0.015950574
0.030691667 -0.00018142856 -0.025394252
0.018776078 -0.00127 -0.02139885
-0.0090269605 -0.00018142856 -0.02139885
-0.024914412 0.00090714288 -0.00033218382
0.010110196 0.00018142856 -0.022125287
-0.015165294 -0.00127 -0.02139885
-0.036468923 -0.00018142856 -0.00069540221
0.020581471 0.00018142856 -0.025031034
0.010832353 0.00127 -0.00033218382
0.033219215 -0.00018142856 0.0022103449
-0.0061383331 -0.00090714288 -0.02139885
0.034302451 0.00018142856 -0.00033218382
0.028525196 -0.00090714288 -0.0021482757
-0.017692843 0.00018142856 -0.0068701147
-0.023831176 -0.00090714288 -0.019582758
0.025275489 0.00127 -0.019945977
-0.0093880389 0.00018142856 -0.00033218382
0.0093880389 0.00054428569 -0.02139885
-0.021303628 0.00127 -0.0017850574
-0.0079437252 0.00054428569 -0.01921954
0.0039718626 -0.00054428569 -0.02139885
0 -0.00018142856 -0.025394252
0.0050550979 0.00018142856 -0.0036011492
0.020581471 0.00018142856 -0.0083229886
-0.032858137 -0.00090714288 -0.0021482757
0.012637745 0.00090714288 -0.020672413
0.033580292 0.00090714288 -0.02139885
-0.017692843 0.00018142856 -0.024667816
-0.015165294 0.00018142856 -0.026120689
0.020581471 0.00018142856 0.0018471265
-0.010110196 -0.00054428569 -0.019582758
0.0075826468 0.00018142856 -0.022488505
0.0025275489 -0.00018142856 -0.006143678
0.030691667 0.00018142856 -0.014134482
0.031052744 0.00127 -0.001421839
-0.018053921 0.00054428569 -0.01921954
-0.021664705 0.00127 -0.00033218382
0.0018053921 0.00054428569 -0.01921954
0.020581471 -0.00018142856 -0.026120689
-0.010110196 0.00018142856 -0.0068701147
-0.020220391 0.00018142856 -0.015587356
0.028164117 0.00018142856 -0.017403448
0.0079437252 0.00018142856 -0.011955172
0.0086658821 0.00090714288 -0.021035632
-0.022747941 0.00018142856 -0.018129885
-0.017331764 0.00127 -0.020672413
0.0079437252 -0.00018142856 -0.02139885
0.019137157 0.00018142856 -0.00033218382
-0.030330587 0.00127 -0.0010586206
0.034302451 0.00090714288 -0.02139885
-0.027803039 0.00018142856 -0.021762067
-0.027803039 0.00018142856 -0.01921954
0.0093880389 0.00127 -0.00033218382
-0.0075826468 -0.00054428569 -0.00033218382
0.031052744 -0.00127 -0.019582758
0.034663528 0.00127 -0.001421839
-0.014443137 0.00054428569 -0.02139885
-0.025275489 0.00018142856 -0.025031034
-0.028886274 0.00127 -0.020672413
0.023470098 0.00127 -0.001421839
0.020581471 -0.00018142856 -0.0054172412
0.033941373 -0.00127 -0.0010586206
0.020942548 0.00054428569 -0.01921954
-0.015526372 -0.00018142856 -0.017766666
-0.015526372 0.00018142856 -0.0043275859
-0.031774901 -0.00090714288 -0.00033218382
-0.020581471 0.00018142856 -0.0057804594
0.010471274 0.00127 -0.020309195
0.018053921 0.00127 -0.0017850574
0.035385687 -0.00018142856 -0.021762067
-0.010110196 -0.00018142856 -0.016313793
-0.00686049 -0.00018142856 -0.01921954
-0.022747941 -0.00018142856 -0.0028747125
-0.030691667 -0.00018142856 -0.00795977
-0.017692843 -0.00018142856 -0.027573563
0.0090269605 -0.00127 -0.02139885
0.022747941 0.00127 -0.021035632
-0.015165294 0.00018142856 -0.0025114941
-0.0054161763 -0.00018142856 -0.02139885
0.0075826468 -0.00018142856 0.00039425294
0.035385687 0.00054428569 -0.00033218382
0.012998823 0.00054428569 -0.01921954
-0.030691667 -0.00018142856 -0.015950574
-0.015526372 -0.00018142856 -0.011228736
0.0079437252 0.00018142856 -0.018493103
0.014082058 0.00090714288 -0.02139885
0.0075826468 -0.00018142856 -0.026847126
0.018776078 0.00018142856 -0.02139885
0.022025784 -0.00127 -0.00069540221
-0.012637745 0.00018142856 0.0011206897
-0.0032497058 0.00018142856 -0.0021482757
0.031413823 -0.00018142856 -0.0021482757
0.014443137 0.00127 -0.0017850574
0.030691667 -0.00018142856 -0.0072333328
-0.012637745 -0.00018142856 0.0011206897
-0.019137157 -0.00090714288 -0.0021482757
-0.021664705 0.00127 -0.001421839
0.026358726 -0.00090714288 -0.00033218382
0.010110196 -0.00018142856 -0.024667816
-0.0050550979 -0.00018142856 -0.012681609
0.010110196 0.00018142856 -0.018493103
-0.0039718626 0.00018142856 -0.021035632
-0.027080882 -0.00127 -0.00069540221
-0.0072215684 -0.00090714288 -0.021035632
-0.010110196 -0.00018142856 -0.0050540227
-0.017692843 0.00018142856 -0.025757471
-0.033219215 -0.00018142856 -0.0046908045
-0.027803039 -0.00018142856 -0.022125287
-0.025275489 0.00127 -0.00033218382
0.012998823 -0.00127 -0.020309195
0.017692843 0.00018142856 -0.013408045
0.025275489 -0.00018142856 -0.0090494249
0.017331764 -0.00127 -0.020309195
0.028164117 -0.00018142856 -0.0050540227
-0.013359901 -0.00127 -0.0010586206
0.020581471 -0.00127 -0.00033218382
0.035385687 0.00018142856 -0.02139885
-0.027803039 -0.00127 -0.0010586206
0.017331764 0.00054428569 -0.019582758
0.01372098 0.00054428569 -0.01921954
-0.00072215684 0.00054428569 -0.019945977
-0.022747941 -0.00018142856 -0.02357816
-0.01624853 0.00127 -0.0017850574
0.028164117 0.00018142856 -0.018493103
-0.033219215 0.00018142856 -0.017403448
