# .PCD v0.7 - Point Cloud Data file format
VERSION 0.7
FIELDS x y z
SIZE 4 4 4
TYPE F F F
COUNT 1 1 1
WIDTH 1434
HEIGHT 1
VIEWPOINT 0 0 0 1 0 0 0
POINTS 1434
DATA ascii
0.0249936 -0.00127 -0.016866667
0.0188976 0.0003175 -0.0073944447
0.012192 -0.0003175 -0.015338889
-0.0030479999 0.0003175 -0.015033334
0.0073151998 -0.00095249998 -0.016255556
0.001524 0.0003175 -0.022672223
0.0109728 0.00095249998 -6.1111212e-05
-0.021031199 -0.0003175 -0.0022000002
-0.0140208 -0.0003175 -0.015644444
-0.0018288 -0.00095249998 -0.0022000002
0.0216408 0 -0.022061111
0.0140208 0.0003175 -0.014422223
-0.0265176 -0.0003175 -0.018394446
0.001524 0.0003175 -0.0064777778
0.0143256 -0.00095249998 -0.0022000002
-0.0024383999 -0.000635 -0.016561111
-0.0024383999 -0.00127 -0.00036666676
-0.026822399 0.00095249998 -0.00036666676
0.017678401 -0.00095249998 -6.1111212e-05
-0.0216408 0.0003175 -0.0073944447
0.016459201 -0.0003175 0.0023833334
-0.0237744 -0.000635 -0.00036666676
-0.0265176 -0.0003175 -0.019922223
0.0158496 0 -0.017172223
-0.0100584 0.0003175 -0.017172223
0.02286 -0.0003175 -0.015338889
-0.028346399 0.00095249998 -0.017172223
-0.0060959999 0 -0.022977779
0.0070103998 -0.00127 -0.016866667
0.0048767999 0.0003175 -0.015033334
0.0192024 0 0.0026888889
-0.0067055998 -0.000635 -0.017477779
0.0192024 0 -0.02145
-0.0252984 -0.00127 -0.00067222235
0.0216408 0.0003175 -6.1111212e-05
0.0115824 0 -0.0034222223
-0.0100584 -0.00127 -0.016255556
0.0240792 0 -0.0070888894
-0.0192024 0.00127 -0.0018944446
0.0079247998 0.0003175 -6.1111212e-05
0.0216408 -0.0003175 -0.0049500004
0.026822399 -0.0003175 0.00024444435
-0.012192 -0.00127 -0.017172223
-0.0262128 0.0003175 -0.0022000002
-0.013716 0 -0.0092277778
0.0134112 -0.0003175 -0.015338889
0.0039623999 0.0003175 -0.019311111
-0.027432 -0.00127 -0.016255556
-0.028346399 -0.000635 -0.00036666676
0.0088392003 0.000635 -0.017477779
-0.0042671999 0.00127 -0.00036666676
-0.027432 0.0003175 -0.00036666676
0.020726399 0.00127 -0.016255556
0.0249936 0.00127 -0.0018944446
-0.0103632 0.00127 -0.001588889
0.0039623999 0.0003175 0.0026888889
-0.0192024 0 -0.0077000004
-0.0216408 -0.0003175 -0.014422223
-0.0115824 0.0003175 -0.022672223
-0.0112776 0 -0.012588889
0.0115824 0.000635 -0.015644444
-0.0018288 0 -0.0022000002
0.0012192 -0.0003175 -0.0077000004
0.0188976 0.0003175 -0.0037277781
-0.023164799 0.00095249998 -0.015338889
-0.01524 -0.00095249998 -0.0022000002
-0.0155448 -0.00127 -0.0012833335
-0.010668 0.0003175 -0.017172223
0.024383999 0.00095249998 -0.0022000002
0.019811999 0.00095249998 -0.0022000002
-0.0118872 -0.00095249998 -0.017172223
0.027432 -0.0003175 -0.0022000002
0.0286512 0.00095249998 -0.00036666676
-0.018288 -0.00095249998 -0.015644444
-0.0155448 -0.00095249998 -0.017172223
0.027127199 0.00127 -0.00036666676
0.016154399 -0.00095249998 -0.017172223
-0.022250399 -0.000635 -0.0022000002
-0.0057911999 -0.000635 -0.0022000002
-0.0140208 0 0.0020777776
-0.0216408 0.0003175 0.00085555547
0.0039623999 0 -0.01045
0.0240792 0.0003175 -0.0070888894
0.0252984 0.00127 -0.015338889
0.0039623999 0 -0.023283334
0.022250399 -0.000635 -0.015338889
0.0021335999 0.00127 -0.00097777788
-0.0301752 0.000635 -0.016561111
0.0088392003 -0.0003175 -0.0067833336
0.0298704 0.0003175 -0.0022000002
-0.0091439998 0.0003175 -0.013200001
-0.0091439998 0.000635 -0.00036666676
0.013716 0 -0.014116667
-0.013716 0 -0.011366667
-0.0188976 0 -0.008922223
0.0188976 0 -0.010144445
-0.0195072 0.0003175 -0.015338889
-0.0085343998 0.0003175 -0.0022000002
0.0060959999 -0.00095249998 -0.016561111
-0.0064007998 0.0003175 -0.014422223
0.0225552 -0.000635 -0.015338889
0.0088392003 0 -0.013811111
-0.0076199998 -0.00127 -0.01595
0.029260799 -0.0003175 -0.014727779
-0.029260799 0.0003175 0.00054999994
0.021945599 -0.00127 -0.0018944446
0.0188976 0.0003175 -0.01045
0.0097535998 0.00127 -0.016866667
0.0225552 0.0003175 -6.1111212e-05
-0.0064007998 0.0003175 -0.008922223
-0.0265176 0.0003175 -0.0061722226
0.013716 0 -0.0040333336
0.0216408 -0.00127 -0.00067222235
0.016764 0 -0.02083889
0.030479999 -0.0003175 -0.00036666676
0.0195072 -0.00127 -0.016255556
0.028956 0 0.0023833334
0.0112776 0 -0.0034222223
-0.024383999 0 -0.0061722226
0 0.0003175 -0.015033334
-0.0240792 0 0.00024444435
0.0064007998 -0.0003175 -0.0064777778
-0.00091439998 0.0003175 -0.015644444
0.026822399 0.0003175 -0.014422223
0.0286512 0 -0.0022000002
0.0051815999 -0.00127 -0.015644444
0.001524 0.00095249998 -0.017477779
-0.0124968 -0.00095249998 -0.0022000002
-0.0036575999 0 -0.013505556
0.0036575999 -0.000635 -0.017477779
-0.0112776 0.0003175 -0.01045
0.0240792 0 -0.018394446
0.0115824 -0.0003175 -0.0070888894
0.0064007998 -0.0003175 -0.020533334
0.024383999 0 0.00085555547
-0.025907999 0 -6.1111212e-05
-0.0298704 0.00095249998 -0.016866667
0.0140208 0.0003175 -0.019005556
0.0045719999 0.00127 -0.016561111
-0.0201168 -0.00127 -0.00036666676
-0.0079247998 -0.00127 -0.0018944446
0.0192024 0 0.0020777776
-0.0039623999 -0.0003175 -0.0037277781
-0.026822399 -0.0003175 -0.0034222223
0.0112776 0 -0.008922223
0.022250399 0.00127 -0.016561111
0.0225552 0.00127 -0.00036666676
-0.00060959999 -0.00127 -0.016866667
-0.0036575999 0.0003175 -0.0061722226
0.025603199 -0.0003175 -0.017172223
-0.012192 -0.00127 -0.00067222235
-0.0112776 0 -0.0025055557
0.0057911999 0.000635 -0.015644444
0.0036575999 -0.0003175 -0.011061111
0.0265176 -0.0003175 -0.022061111
-0.0188976 0 -0.022977779
0.025603199 -0.00127 -0.0018944446
0.013716 0 -0.0025055557
-0.00060959999 -0.00127 -0.015338889
0.0240792 0.0003175 0.0017722222
-0.0216408 0 -0.0025055557
-0.0140208 0.0003175 -0.022977779
-0.0112776 0.0003175 -0.019922223
-0.0155448 -0.00127 -0.0022000002
0.020726399 0.00127 -0.017172223
0.0070103998 -0.00127 -0.00036666676
-0.0085343998 -0.00127 -0.016866667
-0.0216408 0.0003175 -0.0095333336
-0.016764 0.00127 -0.001588889
-0.001524 -0.000635 -0.0022000002
-0.0188976 0 -0.021144446
0.0140208 0.00095249998 -0.0022000002
0.0109728 0.00127 -0.0012833335
0.0088392003 0.00127 -0.017172223
0.0115824 0 -0.017477779
0.0112776 0 -0.017477779
-0.016154399 0.00127 -0.016866667
0.0252984 -0.0003175 -0.017172223
0.0298704 -0.0003175 -0.017172223
0.0030479999 0.000635 -0.017477779
0.024383999 0 -0.022366667
-0.0265176 -0.0003175 -0.0092277778
0.0112776 0 -0.0046444447
-0.0134112 -0.0003175 -0.015644444
0.0140208 0.0003175 -0.0092277778
0.016764 -0.00127 -0.0012833335
0.0064007998 0.00127 -0.016866667
-0.0237744 -0.000635 -0.017477779
0.0076199998 0.000635 -0.0022000002
-0.026822399 0.00127 -0.015644444
0.0039623999 -0.0003175 -0.015644444
-0.0064007998 -0.00095249998 -0.0022000002
0.0024383999 0.000635 -0.00036666676
-0.0128016 0.0003175 -0.0022000002
0.027127199 -0.000635 -0.00036666676
-0.0237744 0.0003175 -6.1111212e-05
0.0216408 -0.0003175 -0.0095333336
-0.0240792 0 -0.022366667
0.0115824 -0.0003175 0.0011611111
-0.030479999 0 -0.0018944446
-0.0124968 -0.00127 -0.001588889
0.0088392003 0 0.0023833334
0.0249936 0.00127 -6.1111212e-05
0.0067055998 0.00127 -0.00097777788
0.028041599 -0.000635 -0.0022000002
0.0140208 0 -0.021144446
0.0088392003 0 -0.019616667
-0.0012192 0 -0.022366667
-0.0265176 -0.00127 -0.0012833335
0.0088392003 0.0003175 0.00024444435
-0.001524 -0.00127 -0.017172223
0.0128016 -0.00095249998 -0.0022000002
-0.0112776 0 -0.019311111
-0.0094488002 -0.00127 -6.1111212e-05
-0.018592799 0.000635 -0.0022000002
-0.0054863999 0.00127 -0.00036666676
-0.021945599 0.00127 -0.017172223
-0.0146304 0.00127 -0.001588889
0.0085343998 -0.00127 -0.001588889
-0.027432 -0.00127 -0.001588889
0.0076199998 0.00127 -6.1111212e-05
-0.016154399 -0.0003175 -0.015338889
-0.0039623999 -0.0003175 -0.019616667
-0.0042671999 -0.0003175 -6.1111212e-05
0.023469599 -0.00095249998 -0.015338889
-0.0118872 -0.00127 -0.0018944446
0.0064007998 -0.0003175 -0.022977779
0.024383999 0.00127 -0.017172223
0.0204216 0.00127 -0.00097777788
0.0158496 -0.0003175 -6.1111212e-05
0.0216408 0 -0.011061111
-0.029260799 0.0003175 -0.015033334
0.0064007998 0.0003175 -0.0092277778
-0.0021335999 -0.00095249998 -0.0022000002
-0.0286512 -0.000635 -0.017172223
-0.027127199 0.00127 -0.0022000002
0.0216408 0.0003175 -0.0092277778
0.0170688 -0.00127 -0.016866667
-0.026822399 0 -0.0052555557
-0.0012192 0.00095249998 -0.017172223
-0.0073151998 0.0003175 -0.01595
-0.0188976 0 -0.022061111
0.029260799 0 -0.019005556
0.0012192 0.0003175 0.0026888889
0.0057911999 -0.0003175 -0.015644444
0.0240792 -0.0003175 -0.0077000004
0.016764 0 -0.0073944447
0.0036575999 0 -0.0061722226
-0.0195072 -0.0003175 -0.0022000002
0.0039623999 0.00127 -0.00097777788
-0.0027431999 -0.000635 -0.0022000002
0.0143256 -0.0003175 -0.015338889
0.0240792 0 -0.0187
0.0204216 -0.00127 -0.0012833335
0.0079247998 0.00127 -0.016561111
-0.0039623999 0.0003175 0.0026888889
0.0109728 -0.0003175 -6.1111212e-05
-0.0088392003 0 -0.0043388889
-0.020726399 -0.000635 -0.00036666676
0.020726399 0.00095249998 -0.017172223
0.021336 -0.00127 -6.1111212e-05
0.0094488002 -0.00127 -0.0022000002
0.0201168 0.0003175 -0.015033334
0.0039623999 0.0003175 -0.0028111113
0.0012192 0 -0.022672223
-0.027127199 -0.00095249998 -0.015338889
-0.0048767999 0 -0.0022000002
-0.0027431999 0.00127 -0.0012833335
-0.0140208 0 -0.01045
0.016459201 0.0003175 0.0023833334
-0.0109728 0.00127 -0.017172223
0.0237744 0.00095249998 -6.1111212e-05
-0.019811999 0.00127 -0.0022000002
-0.0188976 0 -0.011366667
0.020726399 0.00127 -0.001588889
-0.0076199998 0.00127 -0.0018944446
0.0240792 0.0003175 -0.01808889
0.018592799 -0.0003175 -0.015338889
-0.0204216 -0.00127 -0.001588889
0.0179832 0.0003175 -0.0022000002
-0.0134112 0.00127 -0.01595
-0.0112776 0.0003175 0.0017722222
-0.0188976 0.00127 -0.015644444
-0.00060959999 0.000635 -0.0022000002
0.0265176 0.00127 -0.016866667
0.0036575999 0.0003175 -0.0187
0.0070103998 0.00127 -0.0018944446
0.0064007998 0.0003175 -0.01808889
0.025907999 -0.0003175 -0.0022000002
-0.0188976 -0.0003175 -0.0034222223
0.0109728 -0.000635 -0.0022000002
-0.0201168 0.00127 -0.00067222235
0.028041599 0.00095249998 -0.017172223
-0.0112776 -0.0003175 -0.0092277778
-0.012192 0.0003175 -0.015644444
0.017373599 0.000635 -0.017477779
0.0021335999 0.00127 -0.016561111
0.0036575999 0.00095249998 -0.015338889
-0.026822399 0.0003175 -0.022672223
0.001524 0 -0.019616667
0.030479999 -0.000635 -0.016866667
-0.0179832 -0.00127 -0.01595
0.0134112 -0.000635 -0.0022000002
-0.0036575999 -0.00127 -0.0022000002
0.00060959999 -0.00127 -0.01595
0.017373599 0.000635 -0.0022000002
0.021031199 0.000635 -0.017172223
-0.0265176 0 -0.013811111
0.0088392003 -0.00127 -0.0018944446
-0.00030479999 0.00127 -0.015644444
0.016459201 0 -0.010755556
-0.0188976 -0.00127 -0.0018944446
-0.0039623999 0.0003175 -0.015644444
0.0079247998 0.00127 -0.016866667
0.013716 -0.00127 -0.016255556
0.0216408 -0.00127 -0.00097777788
0.0091439998 0.00095249998 -0.016255556
-0.0115824 0 -0.0077000004
0.0091439998 -0.00127 -0.0022000002
-0.026822399 0 0.0017722222
-0.0012192 0.0003175 -0.008922223
-0.0112776 0.0003175 -0.015644444
-0.0057911999 -0.00095249998 -6.1111212e-05
-0.0179832 -0.00127 -0.015644444
0.017373599 0.00095249998 -0.015033334
-0.0192024 0.0003175 -0.02145
-0.0079247998 0 -0.017477779
0.0298704 0.0003175 -0.015338889
-0.0012192 -0.0003175 -0.016255556
-0.0021335999 0.00127 -0.0022000002
0.00091439998 0.00127 -0.016866667
-0.021336 -0.00127 -0.01595
0.026822399 0.0003175 -0.0070888894
0.021031199 0.00127 -0.016561111
0.0054863999 0 -6.1111212e-05
0.025603199 -0.00127 -0.00036666676
-0.028956 0 -0.0046444447
0.018288 0 -0.017172223
0.0237744 -0.00095249998 -6.1111212e-05
0.0070103998 -0.00095249998 -0.0022000002
-0.0240792 0 -0.013811111
0.0115824 -0.0003175 0.00085555547
0.0265176 0.0003175 -0.014727779
0.0027431999 -0.000635 -0.016561111
-0.0042671999 -0.000635 -0.0022000002
-0.0115824 -0.0003175 -0.0061722226
0.001524 0.0003175 -0.022061111
0.0012192 -0.0003175 -6.1111212e-05
0.021031199 -0.000635 -0.00036666676
0.0097535998 -0.00127 -0.016255556
-0.0054863999 -0.000635 -0.017477779
0.0012192 0 -0.0080055557
0.0012192 -0.0003175 -0.0086166672
-0.0179832 -0.00127 -0.016561111
0.0045719999 0.000635 -0.016561111
0.0094488002 0.00127 -6.1111212e-05
-0.0201168 0.00127 -0.001588889
0.0085343998 -0.000635 -0.00036666676
-0.0112776 -0.0003175 0.0026888889
-0.0298704 0.00095249998 -0.01595
-0.0240792 0 -0.019616667
-0.0112776 0.0003175 -6.1111212e-05
0.019811999 0.00127 -0.016255556
-0.0060959999 0.000635 -0.017172223
0.0076199998 0.000635 -0.016255556
-0.024383999 0.00127 -0.015644444
-0.0021335999 0 -0.0022000002
0.0073151998 0.00095249998 -6.1111212e-05
-0.0091439998 0.0003175 -0.011672223
0.0064007998 0.0003175 -0.012588889
0.016764 0 -0.0052555557
-0.024383999 0 -0.012283334
0.024383999 -0.00127 -0.01595
0.0027431999 0.00095249998 -0.0022000002
-0.00060959999 0.00095249998 -0.015033334
-0.0240792 -0.0003175 -0.021144446
0.024688799 -0.0003175 -0.015338889
-0.00030479999 0.0003175 -0.016255556
-0.0240792 0 -0.0083111115
-0.0188976 -0.0003175 -0.0187
-0.0131064 -0.000635 -0.01595
-0.0094488002 0.00127 -0.001588889
-0.0045719999 -0.00095249998 -0.015338889
0.0036575999 0 -0.0092277778
-0.0115824 0.0003175 -0.012894445
-0.0140208 0.00127 -0.016255556
0.0054863999 -0.00127 -0.015338889
-0.01524 0.00127 -0.016866667
0.0054863999 0 -0.0022000002
0.0088392003 -0.0003175 -0.0058666668
-0.0301752 -0.000635 -0.0022000002
-0.0060959999 0 -0.019616667
-0.0216408 0.0003175 -0.020227779
-0.013716 0.00127 -0.0018944446
0.0064007998 0 -0.022977779
0.026822399 0.0003175 -0.0077000004
-0.001524 -0.0003175 -0.0067833336
0.0057911999 0.00127 -0.00067222235
0.0112776 0 -0.017783334
-0.024383999 0 -0.0095333336
0.0039623999 -0.00127 -0.017172223
0.0216408 0.00095249998 -0.017172223
0.0225552 -0.00095249998 -0.0022000002
-0.0188976 0 -0.0040333336
0.024383999 -0.00095249998 -0.017172223
0.0249936 -0.0003175 -0.015338889
0.021336 -0.0003175 -0.022977779
-0.0088392003 -0.00095249998 -0.017477779
-0.0012192 -0.0003175 -0.022977779
0.0140208 0 -0.02358889
-0.0265176 0 -0.013505556
0.0088392003 -0.0003175 -0.0046444447
-0.0146304 0.00127 -6.1111212e-05
0.0188976 -0.00127 -0.015338889
-0.0033527999 -0.00127 -0.0018944446
0.0155448 -0.00127 -0.016561111
-0.0265176 -0.0003175 -0.0037277781
-0.016764 0 -0.011672223
0.0018288 -0.000635 -0.017477779
-0.0085343998 0.0003175 -0.015644444
0.0079247998 -0.00095249998 -0.0022000002
-0.0030479999 -0.00127 -0.016561111
0.0112776 -0.0003175 -0.0061722226
0.024383999 0.00127 -0.01595
-0.013716 0 -0.023283334
-0.029260799 -0.0003175 -0.0046444447
0.016459201 0.0003175 -0.022672223
0.0146304 0.000635 -0.017477779
0 0.00095249998 -6.1111212e-05
0.0073151998 -0.00127 -0.0018944446
0.0192024 0.000635 -0.0022000002
0.028041599 0 -0.00036666676
-0.0100584 -0.00095249998 -0.017477779
-0.021336 0.00127 -0.0018944446
0.030479999 0 -0.015644444
-0.016154399 0.00127 -0.001588889
0.016459201 -0.0003175 -0.018394446
0.0103632 -0.00127 -0.015644444
0.0140208 0.0003175 -0.0040333336
-0.0192024 0 -0.022672223
0.029260799 0 -0.0064777778
-0.0042671999 0.00127 -6.1111212e-05
0.0140208 0.0003175 0.00054999994
0.027127199 0.00127 -0.017172223
0.0240792 0 -0.0086166672
0.00091439998 0.000635 -0.015338889
0.01524 0.000635 -0.017477779
-0.0277368 0.000635 -0.00036666676
0.0240792 -0.0003175 -0.0028111113
0.0067055998 0.00127 -0.0022000002
-0.0265176 0 0.0017722222
0.016459201 -0.00095249998 -0.017172223
0.0301752 -0.000635 -0.0022000002
-0.019811999 -0.00127 -0.017172223
0.0192024 0.0003175 -0.019311111
0.019811999 0.00095249998 -0.015033334
0.021031199 -0.000635 -0.015644444
-0.016764 -0.0003175 -0.017477779
0.0091439998 0 -6.1111212e-05
-0.0265176 -0.0003175 -0.020227779
0.016764 0 -0.019005556
0.0033527999 0 -6.1111212e-05
0.021336 0.00127 -0.0012833335
0.0188976 0.00127 -0.015338889
0.0134112 -0.00127 -0.0022000002
0.0088392003 -0.0003175 -0.019005556
0.018592799 -0.0003175 -6.1111212e-05
-0.0112776 0.0003175 -0.0061722226
-0.0204216 -0.000635 -0.017172223
-0.0192024 -0.00095249998 -0.017172223
-0.0042671999 -0.000635 -0.016255556
-0.016764 0.00127 -0.016561111
-0.023164799 0.0003175 -0.017172223
-0.022250399 0.00127 -0.00036666676
-0.00030479999 -0.00095249998 -0.0022000002
-0.0039623999 0.00127 -0.0022000002
-0.0057911999 0.0003175 -0.017172223
0.0064007998 0.00127 -0.017172223
-0.028956 0.00127 -0.017172223
0.0012192 -0.0003175 -0.015338889
0.017678401 0.00127 -0.00036666676
0.0143256 0 -6.1111212e-05
-0.0021335999 0.00127 -6.1111212e-05
-0.0070103998 0.0003175 -0.01595
0.0140208 -0.00127 -0.016255556
-0.0039623999 -0.0003175 -0.008922223
0.0018288 -0.00127 -0.01595
-0.0192024 -0.0003175 -0.012283334
0.00091439998 -0.00095249998 -0.015338889
0.0088392003 0.0003175 -0.0025055557
0.016154399 0.00127 -0.001588889
-0.0237744 -0.00127 -0.00067222235
0.0140208 -0.0003175 -0.019311111
-0.00030479999 0.0003175 -0.015033334
-0.0140208 0 -0.011977778
0.0115824 0.0003175 -0.02145
0.0216408 0 -0.010144445
-0.0149352 -0.00095249998 -0.017172223
-0.0143256 -0.00127 -0.016255556
-0.0249936 -0.000635 -0.00036666676
0.021031199 0.000635 -0.015644444
0.0204216 0.00127 -0.00067222235
0.0027431999 -0.00127 -0.0012833335
0.0195072 -0.0003175 -0.0022000002
0.0140208 0.0003175 -0.013811111
0.0036575999 0 -0.012894445
-0.0064007998 0.0003175 -0.011366667
-0.0240792 0.0003175 -0.008922223
0.0216408 -0.00127 -0.00036666676
0.0134112 0.0003175 -0.017477779
-0.0140208 0 0.0011611111
-0.01524 -0.0003175 -0.015033334
0.0048767999 0.000635 -0.0022000002
0.0057911999 -0.00095249998 -0.016561111
-0.0109728 0.00127 -0.016255556
0.012192 0.00127 -0.0018944446
-0.0012192 0.0003175 -0.013200001
-0.022250399 0.00095249998 -0.015338889
-0.0039623999 0.00127 -0.00036666676
0.0158496 0.00127 -0.00097777788
-0.021336 0.00127 -0.017172223
-0.0179832 -0.000635 -0.017172223
0.029565599 0.00127 -0.00067222235
0.0149352 -0.000635 -0.0022000002
-0.0033527999 -0.0003175 -0.0025055557
0.0216408 -0.0003175 -0.01045
0.0179832 0.0003175 -0.015644444
-0.0079247998 0.000635 -0.017477779
0.00030479999 0.000635 -0.017477779
0.0192024 -0.0003175 -0.0083111115
0.010668 -0.0003175 -6.1111212e-05
-0.0085343998 -0.0003175 -6.1111212e-05
-0.017678401 0 -0.017172223
-0.0195072 -0.00127 -0.015644444
-0.0021335999 -0.0003175 -0.016255556
0.0188976 0.0003175 -0.011672223
0.0240792 0 0.0014666666
0.0112776 -0.0003175 -0.020227779
-0.0060959999 0 -0.013505556
-0.0216408 0 -0.020227779
0.026822399 -0.0003175 -0.0187
0.01524 -0.00127 -0.00036666676
-0.0143256 0.00127 -0.016255556
0.0033527999 0.00127 -0.015644444
-0.0088392003 0 0.00054999994
0.0118872 0.00127 -0.0012833335
-0.0195072 -0.00127 -0.017172223
-0.0064007998 -0.00127 -0.0018944446
0.001524 0.0003175 -0.011672223
0.024383999 0 -0.0092277778
-0.0091439998 0.00127 -0.00036666676
0.00030479999 -0.00095249998 -6.1111212e-05
-0.0060959999 0 -0.01045
0.0094488002 -0.000635 -0.017172223
0.0115824 -0.0003175 -0.0040333336
-0.0109728 0.00127 -0.001588889
-0.0100584 -0.00127 -0.001588889
-0.027432 0.00127 -0.0018944446
0.0036575999 -0.0003175 -0.0028111113
0.0134112 0 -6.1111212e-05
0.0115824 0.0003175 -0.0092277778
-0.0240792 0 -0.013200001
0.025907999 0.000635 -0.015338889
-0.026822399 -0.0003175 -0.017783334
0.0115824 -0.00095249998 -0.0022000002
0.028041599 -0.000635 -0.017172223
-0.0088392003 0.00127 -0.00097777788
-0.0033527999 0.00127 -0.00036666676
0.0188976 0 -0.011977778
-0.010668 -0.00095249998 -0.017172223
0.00030479999 0.0003175 -6.1111212e-05
0.0054863999 -0.00095249998 -0.017172223
-0.0216408 0 -0.013200001
-0.0112776 -0.00127 -0.0022000002
0.0070103998 0.00127 -0.00036666676
0.0024383999 0.0003175 -0.015033334
0.0124968 0.00127 -0.015338889
-0.0143256 0.00127 -0.0022000002
-0.0018288 -0.0003175 -0.017477779
0.021031199 0.0003175 -0.017477779
-0.0192024 0.0003175 -0.018394446
0.0051815999 -0.000635 -0.0022000002
-0.0036575999 0.00127 -0.0022000002
0.028956 0 -0.019311111
0.010668 0 -6.1111212e-05
-0.0088392003 0 -0.011977778
0.016459201 0.0003175 0.0014666666
0.0140208 -0.0003175 -0.023283334
-0.0216408 -0.00127 -0.00097777788
0.0140208 -0.0003175 -0.012588889
-0.0118872 -0.00127 -0.016866667
0.026822399 0 -0.0034222223
-0.0036575999 0.00095249998 -0.017172223
-0.0115824 0.0003175 -0.022977779
0.0051815999 0 -0.015033334
0.0216408 0.0003175 -0.0055611115
0.0012192 -0.0003175 -0.019616667
0.016459201 0 0.00085555547
0.0115824 0 -0.020227779
-0.0298704 -0.0003175 -0.00036666676
-0.0012192 0.00127 -0.001588889
-0.0143256 0.00127 -0.0012833335
0.029565599 0.00127 -0.015644444
0.013716 0 -0.0070888894
0.0201168 0.00127 -6.1111212e-05
-0.0192024 -0.0003175 -0.018394446
0.00030479999 0.00127 -0.01595
-0.0188976 -0.0003175 -0.017783334
0.0091439998 -0.00127 -0.00036666676
0.0039623999 -0.00127 -0.00036666676
-0.0057911999 -0.0003175 -6.1111212e-05
0.020726399 0.00127 -0.00097777788
0.0012192 0.0003175 -0.019922223
-0.0057911999 0 -0.017477779
0.016459201 -0.000635 -0.0022000002
-0.001524 0 -0.017783334
-0.0240792 0 -0.020227779
0.0115824 0.0003175 -0.0025055557
0.0073151998 -0.00127 -0.016561111
0.0286512 0.00127 -0.0018944446
-0.029260799 0.00095249998 -0.016255556
0.0048767999 -0.00095249998 -0.016561111
0.0036575999 -0.0003175 0.0020777776
0.027432 -0.00095249998 -0.00036666676
0.0158496 0.00127 -0.0022000002
0.0030479999 -0.00127 -0.015644444
0.023469599 -0.00127 -0.001588889
0.019811999 -0.00127 -0.015644444
-0.0140208 0.0003175 -0.015033334
0.0109728 -0.00127 -0.0012833335
-0.0064007998 0.0003175 -0.021144446
-0.0097535998 0.000635 -0.0022000002
0.0140208 -0.0003175 -0.012283334
0.028956 0 -0.013200001
-0.026822399 0.0003175 0.0023833334
-0.029260799 0 0.0020777776
-0.0091439998 -0.0003175 -0.0022000002
-0.0097535998 0.00127 -0.015644444
0.016459201 -0.0003175 -0.010755556
0.0060959999 -0.0003175 -0.015644444
-0.0216408 -0.00127 -0.0012833335
-0.0073151998 0.00095249998 -0.0022000002
0.026822399 0 -0.017783334
0.021336 0 -0.021755556
0.0140208 -0.00095249998 -0.015338889
-0.0036575999 -0.00127 -0.0018944446
-0.030479999 -0.0003175 -0.015644444
-0.0188976 0 -0.013811111
-0.012192 0 -0.0022000002
-0.0012192 -0.0003175 -0.011672223
-0.0134112 -0.00127 -0.016866667
-0.024383999 -0.00127 -6.1111212e-05
0.00030479999 -0.000635 -0.00036666676
-0.0134112 0.00127 -0.0018944446
-0.0240792 -0.0003175 -0.011977778
0.0070103998 0.0003175 -0.017477779
-0.016459201 -0.0003175 -0.0073944447
-0.026822399 0.0003175 -0.017783334
0 0 -0.015033334
0.0265176 -0.0003175 -0.0052555557
-0.0091439998 0 -0.013200001
0.021945599 -0.0003175 -0.0022000002
-0.0298704 0.00095249998 -0.001588889
-0.028041599 0.00127 -0.00097777788
-0.0265176 0.0003175 -0.019311111
-0.0188976 -0.0003175 -0.022672223
-0.0265176 0.0003175 -0.0092277778
-0.0192024 0 -0.010144445
-0.030479999 -0.000635 -0.001588889
-0.0240792 -0.0003175 -0.010144445
-0.0070103998 0.0003175 -0.017172223
0.0158496 -0.000635 -0.0022000002
-0.0060959999 0.00127 -0.015644444
-0.0039623999 -0.0003175 -0.021144446
0.016459201 0.0003175 -0.018394446
0.016459201 0.0003175 -0.0086166672
0.0088392003 0 -0.013505556
-0.00060959999 0.000635 -0.00036666676
-0.0286512 0 -0.0022000002
0.0115824 0.0003175 -0.015338889
0.021031199 0.0003175 -0.015033334
-0.027127199 -0.00127 -0.00036666676
-0.0067055998 0.00127 -0.015338889
0.02286 0.00127 -0.0018944446
0.024383999 0 -0.0034222223
-0.0216408 -0.00127 -0.015338889
-0.0155448 0 -0.017477779
-0.0201168 0.00127 -0.00097777788
0.01524 0.00127 -0.016561111
-0.016764 -0.000635 -0.017477779
0.0024383999 -0.0003175 -0.016255556
0.0021335999 0.0003175 -0.015033334
-0.020726399 -0.00127 -0.0018944446
-0.0124968 -0.00095249998 -6.1111212e-05
-0.0012192 -0.00127 -0.017172223
-0.0237744 -0.00095249998 -0.017477779
-0.0216408 0.00095249998 -0.017172223
-0.0039623999 -0.0003175 -0.0098388894
0.0067055998 -0.00095249998 -0.016561111
-0.024383999 -0.000635 -0.017172223
0.0112776 0.0003175 -0.021144446
0.00060959999 -0.00127 -0.016561111
-0.0085343998 -0.00127 -0.0022000002
-0.018288 -0.000635 -0.017477779
-0.0265176 0.0003175 -0.011366667
-0.029260799 -0.0003175 -0.0043388889
0.0188976 0.0003175 -0.0095333336
-0.001524 0 -0.0040333336
0.0158496 -0.00127 -0.016255556
-0.0054863999 -0.000635 -0.0022000002
0.029260799 0.0003175 -0.013811111
0.029260799 0 -0.020227779
-0.0249936 0.000635 -0.015338889
-0.028956 -0.000635 -0.015338889
0.0225552 0.00127 -0.016866667
0.025603199 0.000635 -0.0022000002
-0.017678401 -0.00127 -0.017172223
0.0088392003 0.0003175 0.0023833334
0.0030479999 -0.00127 -6.1111212e-05
0.0134112 0.000635 -0.00036666676
0.0012192 0 -0.0046444447
-0.016459201 0.0003175 0.0014666666
0.0192024 0.0003175 -0.021144446
0.001524 0.0003175 -0.023283334
0.020726399 -0.00127 -0.016866667
0.018592799 0.00127 -0.00097777788
-0.023469599 0.00127 -0.016866667
0.00091439998 -0.000635 -0.016561111
0.0115824 0.00127 -6.1111212e-05
0.0192024 -0.0003175 -0.021755556
0.0012192 0.0003175 -0.0073944447
-0.0039623999 -0.0003175 -0.02145
0.028956 0 -0.017783334
0.017678401 -0.00127 -0.017172223
0.00030479999 -0.0003175 -0.015033334
0.0155448 0.00127 -0.0018944446
0.016459201 0 -0.014422223
-0.0103632 0.0003175 -0.015644444
0.0048767999 -0.0003175 -0.017477779
0.0039623999 -0.00127 -0.001588889
-0.0143256 -0.00127 -0.0012833335
-0.0216408 0.0003175 -0.011672223
-0.016154399 0.000635 -0.0022000002
0.0124968 0.00127 -0.016866667
-0.0124968 0.00095249998 -0.0022000002
-0.0079247998 0.00127 -0.016866667
0.0195072 -0.000635 -0.017172223
0.028041599 0.00127 -0.001588889
-0.02286 0.00127 -0.00097777788
-0.01524 -0.000635 -0.015644444
0.0216408 0.0003175 -0.01808889
0.0179832 -0.00127 -0.016866667
-0.016764 0 -0.008922223
-0.0216408 -0.0003175 -0.018394446
0.0170688 -0.0003175 -0.017172223
0.0216408 0.0003175 -0.014116667
-0.0091439998 0.0003175 0.00054999994
-0.016764 0 -0.014422223
-0.0201168 -0.00127 -0.001588889
0.0204216 0.00095249998 -0.015033334
-0.023164799 -0.00127 -0.001588889
-0.0036575999 0 0.0011611111
0.0115824 0.0003175 -0.014422223
-0.0140208 0 -0.0037277781
-0.0277368 -0.00095249998 -6.1111212e-05
-0.0192024 -0.0003175 -0.0070888894
0.0051815999 -0.000635 -0.016255556
-0.017373599 0.000635 -0.0022000002
0.0036575999 -0.0003175 -0.019616667
0.0179832 -0.00127 -0.0022000002
0.026822399 -0.00127 -0.00097777788
0.0091439998 -0.0003175 -0.01595
-0.013716 0.00127 -0.016866667
0.0192024 0.0003175 -0.0055611115
0.0140208 0.00127 -0.00036666676
0.0064007998 0.00095249998 -6.1111212e-05
0.0012192 -0.00095249998 -0.016561111
-0.0188976 0.0003175 -0.019005556
0.0079247998 0 -0.017172223
-0.0140208 -0.00127 -0.00067222235
0.0188976 0.0003175 0.00024444435
-0.010668 -0.00095249998 -0.0022000002
-0.021945599 -0.000635 -0.00036666676
-0.019811999 -0.000635 -0.0022000002
0.016459201 0.0003175 -0.014727779
0.0054863999 -0.00127 -0.01595
-0.0024383999 0.0003175 -0.01595
0.0265176 -0.0003175 -0.022672223
-0.00030479999 0.0003175 -0.017477779
-0.0192024 0.0003175 -0.0058666668
-0.0140208 0.0003175 -0.0073944447
0.023164799 0.000635 -0.00036666676
-0.0091439998 -0.00127 -0.016255556
0.0192024 -0.0003175 -0.0034222223
0.0240792 -0.0003175 -0.0098388894
-0.0064007998 -0.00127 -6.1111212e-05
-0.0112776 0.0003175 -0.014116667
-0.016764 0 -0.013811111
-0.025603199 0.00127 -0.01595
-0.017678401 0.00127 -0.015644444
0.0027431999 0.00127 -0.00097777788
-0.021031199 -0.00095249998 -0.0022000002
-0.0265176 0 -0.0067833336
0.0085343998 0 -0.015033334
0.028346399 0.00127 -0.01595
0.02286 0.00095249998 -6.1111212e-05
0.017678401 0.00095249998 -0.0022000002
0.001524 0.00127 -0.00097777788
-0.020726399 0.00095249998 -6.1111212e-05
-0.0286512 0.0003175 -0.015338889
0.0188976 0.0003175 -0.0098388894
0.010668 0.000635 -0.015644444
-0.028346399 -0.000635 -0.015338889
-0.01524 0 -0.0022000002
-0.0094488002 -0.0003175 -0.0022000002
-0.0039623999 0.00127 -6.1111212e-05
-0.0027431999 -0.0003175 -0.015338889
0.0112776 0 -0.020227779
0.025907999 0.00127 -0.017172223
-0.0012192 0.0003175 -0.0055611115
0.0088392003 -0.0003175 -0.022977779
0.0140208 -0.0003175 -0.0098388894
-0.017678401 -0.00127 -0.00097777788
-0.028956 -0.00095249998 -0.017172223
-0.0140208 0.0003175 0.0017722222
0.0240792 0 -0.01045
-0.0192024 0 -0.0028111113
-0.0170688 0.00127 -0.016255556
0.0060959999 0 -0.0073944447
-0.0088392003 0.0003175 -0.0095333336
0.0039623999 0 -0.0055611115
0.0128016 0.0003175 -0.0022000002
0.0115824 -0.000635 -0.0022000002
-0.0112776 -0.0003175 -0.0058666668
-0.0039623999 -0.0003175 -0.01045
-0.0188976 0.0003175 -0.0187
-0.0179832 -0.00095249998 -0.0022000002
-0.0265176 0.0003175 -0.0025055557
0.0192024 -0.0003175 -0.0040333336
-0.0039623999 0 0.00024444435
0.0286512 -0.00127 -0.016866667
-0.0067055998 0.0003175 -0.01595
-0.0298704 -0.0003175 -0.015338889
0.028346399 -0.000635 -0.00036666676
-0.0039623999 -0.0003175 -0.0092277778
-0.0064007998 0 -0.0083111115
-0.0064007998 0.0003175 -0.022061111
-0.0079247998 -0.00095249998 -0.017172223
-0.029260799 0 -0.0098388894
-0.0112776 0 -0.013811111
-0.0149352 -0.0003175 -0.017172223
0.016459201 -0.0003175 -0.011672223
0.016459201 0.0003175 -0.0067833336
0.001524 0.00127 -0.016561111
-0.029565599 -0.0003175 -0.0022000002
-0.0012192 -0.0003175 -0.0049500004
-0.00091439998 -0.00127 -0.0022000002
0.026822399 -0.0003175 -0.011061111
-0.027127199 -0.0003175 -0.015033334
-0.0140208 0.0003175 -0.0043388889
0.0192024 0.00127 -0.001588889
-0.0030479999 -0.00127 -0.0018944446
0.00030479999 0.0003175 -0.016255556
0.0097535998 0.000635 -0.016255556
0.0051815999 -0.00127 -0.0022000002
-0.0024383999 -0.00127 -0.015338889
0.0131064 -0.00127 -0.017172223
0.0088392003 0.0003175 -0.010144445
0.0036575999 0.0003175 -0.022977779
-0.0012192 -0.00127 -0.016561111
-0.021336 0 -0.020533334
-0.0054863999 0.0003175 -0.015033334
0.0094488002 -0.0003175 -0.015033334
0.0012192 -0.0003175 -0.0055611115
0.028041599 0.0003175 -0.017172223
0.030479999 0.0003175 -0.016561111
0.0143256 -0.0003175 -0.017172223
0.0036575999 0.0003175 -0.0028111113
0.02286 -0.000635 -0.00036666676
0.018592799 -0.000635 -0.017172223
0.0036575999 0.0003175 -0.013200001
0.0240792 0 -0.012894445
0.0036575999 0.0003175 -0.013505556
0.0134112 0.0003175 -6.1111212e-05
-0.025907999 0.00127 -6.1111212e-05
0.0252984 -0.00127 -0.00067222235
-0.001524 0.00127 -0.016255556
-0.026822399 0.0003175 -0.014422223
-0.0265176 0.000635 -0.015338889
-0.0188976 0 -0.0055611115
0.021336 0 -0.017783334
-0.0112776 0.00127 -0.0018944446
-0.0064007998 0.0003175 -0.022977779
-0.0094488002 0.00127 -0.00036666676
-0.0192024 0.0003175 -0.0040333336
-0.0143256 0 -0.017477779
0.016459201 -0.0003175 -0.01045
-0.0039623999 0 -0.019005556
0.029260799 0.0003175 -0.012283334
-0.0265176 0 -0.0083111115
-0.0042671999 -0.0003175 -0.01595
0.0188976 0.0003175 -0.019311111
0.016459201 0.0003175 -0.008922223
0.0039623999 -0.0003175 -0.0055611115
-0.0115824 0.0003175 -0.0055611115
0.0146304 -0.00127 -0.017172223
0.0188976 0.0003175 -6.1111212e-05
0.0091439998 -0.00127 -0.016561111
0.0192024 0.0003175 -0.0064777778
-0.0088392003 0 0.0011611111
-0.0030479999 -0.00095249998 -6.1111212e-05
-0.0237744 0 -0.0025055557
0.0188976 0 -0.0028111113
-0.016764 0 -0.019311111
-0.0036575999 -0.0003175 -0.0080055557
-0.013716 0 -0.014116667
0.030479999 0.0003175 -0.00036666676
0.0024383999 0.00127 -0.001588889
-0.0134112 0.00127 -6.1111212e-05
-0.0060959999 -0.0003175 -6.1111212e-05
0.0054863999 0.00095249998 -0.015033334
-0.0188976 -0.0003175 -0.010755556
-0.0170688 0 -0.015033334
-0.0070103998 -0.00095249998 -6.1111212e-05
-0.0216408 0 -0.0034222223
0.0301752 0 -0.015338889
-0.024688799 -0.00127 -6.1111212e-05
-0.016764 0.00095249998 -0.015644444
-0.021336 0 -0.013505556
-0.0115824 0 -0.018394446
0.027127199 0.00127 -6.1111212e-05
-0.0240792 -0.0003175 -0.021755556
0.027432 0.00127 -0.00097777788
-0.0100584 0.000635 -0.0022000002
0.0115824 0 -0.011061111
0.0216408 0 0.0026888889
0.016459201 0 -0.0028111113
0.0036575999 -0.00095249998 -0.01595
0.0012192 0.0003175 -0.012894445
-0.0301752 -0.00095249998 -0.00067222235
-0.029565599 -0.000635 -0.0022000002
-0.029260799 0 0.0023833334
0.0115824 0.00127 -0.015644444
0.0192024 0.0003175 -0.010755556
-0.0036575999 -0.0003175 -0.019616667
0.001524 0 0.0023833334
-0.0192024 0.0003175 -0.0061722226
0.029565599 0 -6.1111212e-05
0.001524 0 -0.0025055557
0.0100584 0.00127 -0.015644444
-0.02286 0.00127 -0.001588889
-0.021945599 -0.00127 -0.0018944446
0.019811999 0.00127 -6.1111212e-05
0.030479999 -0.0003175 -0.016866667
-0.001524 -0.00095249998 -0.015033334
-0.0115824 -0.0003175 -0.013505556
0.0128016 0.00127 -0.0022000002
-0.029565599 0.0003175 -0.015033334
-0.0262128 -0.00127 -0.001588889
-0.0076199998 0 -6.1111212e-05
0.0027431999 0.00127 -0.016866667
0.021336 -0.00127 -0.00097777788
-0.0140208 0.0003175 -0.0083111115
-0.0216408 -0.0003175 -0.014727779
-0.001524 -0.0003175 -0.020533334
-0.0091439998 0.0003175 -0.013811111
-0.0124968 -0.000635 -0.0022000002
0.001524 0.0003175 -0.0043388889
-0.0155448 0.00127 -0.0022000002
0.01524 -0.0003175 -0.017172223
0.0216408 -0.0003175 -6.1111212e-05
0.030479999 -0.0003175 -0.00097777788
0.0064007998 0.0003175 -0.013811111
-0.016459201 0 -0.01045
-0.0064007998 0.0003175 -0.012894445
0.0088392003 0.00127 -0.001588889
0.0036575999 -0.0003175 -0.014727779
0.017678401 0.0003175 -0.015644444
0.0064007998 0.0003175 -0.0049500004
-0.0045719999 -0.00095249998 -0.015033334
0.023469599 -0.00127 -0.0012833335
0.01524 0.00127 -0.017477779
-0.028956 0 -0.021144446
0.0216408 0.0003175 0.0014666666
0.0249936 0.00127 -0.017172223
0.012192 -0.000635 -0.01595
0.0085343998 0.00095249998 -0.016255556
-0.0039623999 0.0003175 -0.015338889
-0.0067055998 -0.0003175 -0.015338889
-0.013716 -0.00127 -0.01595
0.0216408 0 0.0023833334
0.0051815999 0.0003175 -0.017477779
-0.0112776 0.0003175 -0.011366667
-0.0115824 -0.0003175 0.0023833334
-0.0039623999 0.0003175 0.00024444435
0.0112776 -0.00095249998 -0.016255556
-0.018288 -0.00127 -0.00097777788
-0.0237744 -0.0003175 -6.1111212e-05
0.0091439998 0 -0.017477779
0.0140208 0.0003175 -0.012894445
-0.0109728 -0.000635 -0.0022000002
-0.021336 0 -0.023283334
-0.0115824 0.0003175 -0.019311111
0.0240792 0 0.0011611111
0.0036575999 -0.00127 -0.015644444
0.024383999 0 -0.018394446
-0.0115824 0.0003175 -0.020533334
-0.028956 0 -0.0086166672
0.016154399 0 -0.017477779
0.0112776 0.0003175 -0.014116667
0.0201168 -0.00127 -0.0018944446
-0.026822399 -0.0003175 0.00054999994
-0.0140208 0.00127 -0.015644444
-0.02286 -0.000635 -0.017172223
0.0240792 -0.0003175 -0.022061111
0.0036575999 0.0003175 -0.01595
-0.0070103998 0.00127 -0.015644444
0.026822399 -0.0003175 -0.015033334
0.026822399 -0.0003175 -0.012894445
0.0155448 -0.0003175 -0.017172223
-0.0115824 0.00127 -0.001588889
0.029260799 0 -0.022366667
0.0195072 0 -0.015033334
-0.021336 0.00127 -0.016866667
-0.024688799 -0.00127 -0.016561111
0.0124968 -0.00127 -0.00067222235
-0.0140208 0 -0.0034222223
-0.0140208 0 -0.0067833336
0.0036575999 -0.0003175 -0.0073944447
-0.0012192 0 -0.0080055557
0.016459201 0.0003175 -0.0187
0.0042671999 -0.00095249998 -0.015644444
-0.0012192 0 -0.01045
-0.02286 -0.00127 -0.00067222235
-0.0018288 -0.00127 -0.01595
0.026822399 -0.00095249998 -0.015338889
0.0079247998 -0.0003175 -0.015338889
0.0277368 0.00127 -0.016866667
-0.0192024 0.0003175 -0.0052555557
-0.021336 0 -0.0052555557
0.013716 0 -0.022672223
0.0051815999 0.00127 -0.0022000002
-0.0155448 0.00127 -0.016561111
-0.0115824 0.0003175 -0.0077000004
0.016459201 -0.00095249998 -0.015338889
0.025603199 -0.00127 -0.016866667
0.0064007998 0.0003175 -0.0040333336
0.021945599 0 -6.1111212e-05
-0.029260799 0 -0.014116667
-0.0115824 0 -0.021755556
0.024383999 0 -0.0037277781
0.0252984 -0.00127 -0.01595
0.0140208 0.0003175 -0.011061111
0.0237744 -0.00127 -0.016561111
-0.016459201 0 0.0017722222
0.0265176 -0.000635 -0.017172223
-0.021336 0 -0.012588889
-0.0076199998 0.00127 -0.001588889
-0.022250399 0.00127 -0.016255556
0.0216408 0 -0.010755556
0.0018288 -0.00095249998 -0.015644444
-0.0076199998 -0.0003175 -0.015644444
0.0115824 -0.00127 -0.00097777788
0.0192024 0 -0.019005556
0.0112776 0 -0.0040333336
-0.0060959999 0.00127 -0.015338889
-0.0140208 0.0003175 -0.022366667
0.0115824 0.0003175 -0.017477779
0.029260799 0 -0.0083111115
-0.0265176 -0.0003175 -0.013811111
0.0042671999 0.00127 -6.1111212e-05
-0.01524 -0.00095249998 -0.015644444
0.0027431999 -0.00127 -0.016866667
0.0140208 0 -0.0055611115
-0.0021335999 0 -6.1111212e-05
-0.0179832 0.00095249998 -0.0022000002
0.0237744 0.00127 -0.016561111
-0.0036575999 -0.0003175 -0.011672223
0.0103632 0 -0.015033334
-0.0064007998 0 -0.0028111113
0 -0.00095249998 -0.01595
-0.0057911999 0 -0.0022000002
-0.025907999 -0.00127 -0.0022000002
0.025907999 0.00095249998 -6.1111212e-05
0.012192 0.00127 -0.001588889
0.0301752 -0.00095249998 -0.016561111
-0.0240792 0 -0.0028111113
0.0094488002 -0.00127 -0.00067222235
-0.0265176 0.0003175 -0.021144446
0.00060959999 -0.0003175 -6.1111212e-05
-0.0195072 0.00127 -0.016255556
-0.0012192 0 -0.010755556
0.0298704 0.0003175 -0.017172223
0.0216408 0.0003175 -0.01045
-0.0082296003 0.00127 -0.016255556
0.0192024 0 -0.012588889
0.0045719999 0.00095249998 -0.017172223
-0.029260799 -0.0003175 -0.0037277781
0.029565599 -0.000635 -0.00036666676
-0.0216408 0 0.0014666666
0.0097535998 0.000635 -0.00036666676
-0.0179832 0.0003175 -6.1111212e-05
0.0155448 -0.0003175 -0.015644444
0.013716 0.00127 -0.0018944446
-0.010668 -0.00127 -0.001588889
0.0192024 0.0003175 -0.0095333336
-0.016459201 -0.0003175 -0.0058666668
-0.018592799 -0.00127 -0.0012833335
0.026822399 0 0.00054999994
0.021945599 -0.000635 -0.017172223
-0.024688799 0 -0.015338889
-0.021945599 0 -0.017477779
0.0192024 -0.0003175 -0.017783334
-0.0192024 -0.0003175 -0.020227779
0.023164799 0.00127 -0.017172223
0.001524 0.0003175 -0.019311111
0.018288 0.00127 -0.00036666676
0.010668 -0.0003175 -0.015644444
0.0140208 0 -0.014422223
-0.019811999 -0.00127 -0.015338889
0.0036575999 0.0003175 -0.0040333336
-0.021336 0 -0.0040333336
0.001524 0.0003175 -0.01045
-0.0115824 0 -0.0034222223
0.0240792 0.00127 -0.00067222235
-0.018288 -0.00127 -0.00067222235
-0.0115824 0 -0.02358889
-0.0188976 -0.0003175 -0.02145
-0.0088392003 -0.0003175 -0.0095333336
-0.0012192 0 -0.012588889
0.0079247998 -0.00127 -0.00097777788
-0.02286 0 -6.1111212e-05
0.0143256 0 -0.015033334
0.0192024 -0.0003175 -0.013811111
0.001524 0.0003175 -0.020533334
-0.023469599 0 -0.0022000002
0.025907999 -0.000635 -0.015338889
0.027432 -0.000635 -0.015338889
-0.026822399 0 -0.02083889
0.025907999 0.0003175 -0.0022000002
0.0088392003 0.0003175 -0.0049500004
0.016154399 -0.00127 -0.016866667
-0.016764 0 -0.022977779
0.016154399 0.000635 -0.01595
-0.016459201 -0.00127 -0.0018944446
-0.027127199 0.00127 -0.016255556
-0.0216408 0 -0.0061722226
0.0030479999 -0.00095249998 -0.015338889
0.0192024 0.0003175 -0.0070888894
-0.028956 0.0003175 -0.015033334
0.0155448 -0.00095249998 -0.0022000002
0.0225552 -0.0003175 -0.017172223
0.013716 0.000635 -0.015338889
0.0140208 -0.0003175 -0.021144446
-0.001524 -0.00095249998 -0.015644444
0.0060959999 0 -0.0028111113
0.0048767999 0.0003175 -0.016255556
-0.0039623999 0.0003175 -0.0055611115
0.0201168 0.000635 -0.015644444
-0.0073151998 0.00127 -0.015338889
0.0088392003 0 -0.011977778
-0.0109728 -0.00127 -0.0018944446
0.024688799 -0.00127 -0.00036666676
-0.0073151998 -0.0003175 -0.0022000002
-0.0112776 -0.0003175 -0.0043388889
-0.016459201 -0.0003175 0.0014666666
0.0131064 -0.0003175 -0.0022000002
-0.0036575999 -0.000635 -0.0025055557
-0.016764 0.00127 -6.1111212e-05
0.023469599 -0.00095249998 -0.017172223
-0.0012192 0 -0.0077000004
0.027127199 0.00095249998 -0.00036666676
-0.0252984 -0.00127 -0.017172223
-0.013716 -0.0003175 -0.015644444
0.018592799 -0.00127 -6.1111212e-05
-0.0036575999 0.0003175 -0.0067833336
0.0039623999 0 -0.020533334
-0.0024383999 -0.00095249998 -0.0022000002
-0.023164799 -0.00127 -0.015644444
0.0039623999 -0.0003175 -0.0080055557
0.029260799 0.0003175 -0.014116667
0.0088392003 -0.0003175 -0.010755556
0.0249936 0.000635 -0.017172223
0.0201168 0 -0.015338889
-0.0012192 -0.0003175 -0.021144446
-0.0097535998 -0.00127 -0.001588889
-0.023164799 0 -0.017172223
-0.026822399 -0.0003175 -0.012283334
0.0051815999 -0.0003175 -0.015338889
0.016459201 -0.0003175 0.00085555547
-0.0237744 -0.00095249998 -0.0022000002
-0.0225552 0.00127 -0.0012833335
-0.0112776 0.0003175 -0.014422223
-0.0012192 -0.0003175 -0.014727779
-0.0036575999 -0.00127 -0.001588889
-0.0018288 -0.00127 -0.0018944446
0.0265176 -0.0003175 -0.011672223
-0.012192 -0.00127 -6.1111212e-05
0.016764 0 0.0014666666
-0.016764 -0.00127 -0.016255556
-0.023469599 0.00127 -0.0022000002
0.0112776 0 -0.022977779
0.0064007998 -0.0003175 -0.02083889
0.0265176 0 0.0023833334
0.0204216 0.000635 -0.015644444
-0.00060959999 -0.00127 -0.016255556
-0.027432 0.00127 -0.016561111
0.0170688 -0.000635 -0.015644444
-0.0039623999 0.0003175 -0.022977779
-0.00030479999 0.00095249998 -0.0022000002
0.030479999 -0.000635 -0.0018944446
0.020726399 -0.000635 -0.015644444
-0.0240792 0.00127 -0.0018944446
0.0088392003 -0.0003175 -0.011061111
0.00091439998 0.0003175 -0.015033334
-0.028956 0 0.0017722222
0.0240792 -0.0003175 -0.011366667
-0.0060959999 0 -0.0077000004
0.0051815999 -0.00127 -0.016561111
0.0301752 -0.00095249998 -0.016255556
0.017678401 -0.00127 -0.00036666676
-0.0192024 0 -0.019922223
-0.0073151998 -0.00127 -0.017477779
0.0012192 0 -0.0187
-0.0036575999 0.0003175 -0.0086166672
-0.0131064 0.0003175 -6.1111212e-05
0.0039623999 -0.0003175 -0.021755556
-0.0094488002 -0.00127 -0.016561111
-0.0036575999 0.0003175 -0.0046444447
0.017678401 0 -0.0022000002
-0.0021335999 -0.000635 -0.016561111
-0.0027431999 0.0003175 -0.0022000002
-0.0124968 0 -0.017172223
-0.0094488002 0.0003175 -0.015033334
0.0192024 -0.00127 -0.001588889
-0.0045719999 0.00095249998 -0.0022000002
0.0134112 -0.00127 -0.01595
-0.016459201 0 -0.019616667
-0.00060959999 -0.0003175 -0.015033334
0.024383999 0 -0.019922223
-0.0140208 0.0003175 -0.011672223
-0.024383999 0 -0.015033334
0.0054863999 -0.000635 -0.0022000002
0.0188976 0.0003175 -0.021755556
0.0115824 0.0003175 -0.0040333336
0.0112776 -0.0003175 -0.0025055557
-0.0201168 0.00127 -0.0012833335
-0.013716 0.0003175 -0.0022000002
-0.0216408 -0.0003175 -0.0037277781
0.016764 0 -0.008922223
-0.024383999 0.000635 -0.00036666676
-0.0021335999 -0.00127 -0.016866667
0.0064007998 -0.0003175 -0.019005556
0.025907999 0.00127 -0.001588889
-0.0115824 -0.0003175 -0.013200001
0.0039623999 0 -0.012283334
-0.026822399 0 -0.0028111113
-0.018592799 -0.00127 -0.0022000002
-0.0140208 0 -0.019311111
0.024688799 -0.00127 -0.01595
-0.025907999 -0.00127 -0.017172223
0.021031199 0.00127 -0.001588889
-0.0225552 -0.00127 -0.015338889
0.0112776 0.0003175 -0.014422223
-0.0155448 0 -0.0022000002
0.0249936 -0.00127 -0.01595
0.0064007998 -0.0003175 0.00085555547
-0.0237744 0.00127 -0.00036666676
0.0036575999 0 -0.02145
0.016764 0 -0.014116667
-0.017373599 -0.000635 -0.0022000002
0.0179832 0.000635 -0.0022000002
0.024688799 0.00127 -0.017172223
0.0085343998 0 -0.0025055557
0.0012192 -0.00127 -0.015338889
-0.0088392003 -0.0003175 -0.015644444
-0.024383999 0 -0.0067833336
0.00060959999 0.00127 -0.017172223
-0.020726399 0.00127 -0.016866667
-0.0012192 0.0003175 0.0017722222
-0.0286512 0.000635 -0.017172223
0.0112776 -0.0003175 -6.1111212e-05
0.0079247998 0.00095249998 -0.016255556
-0.026822399 0.0003175 0.00024444435
0.0112776 0.00127 -0.016561111
0.016459201 0 0.0020777776
0.0039623999 -0.0003175 -0.0098388894
-0.0216408 -0.000635 -0.00036666676
-0.025603199 -0.00127 -0.015644444
-0.0188976 0 -0.0187
-0.024383999 -0.0003175 -0.0022000002
0 0.0003175 -0.0022000002
-0.020726399 0 -0.017172223
-0.025907999 -0.0003175 -0.0022000002
0.001524 0.0003175 -0.014727779
0.016764 0 -0.019311111
0.0237744 0.00127 -0.00036666676
-0.0158496 -0.00127 -0.016866667
-0.001524 -0.0003175 -0.02083889
-0.019811999 0.00127 -0.01595
0.0012192 0 -0.0092277778
0.0140208 0.00127 -0.0012833335
0.0094488002 -0.0003175 -0.015644444
-0.0240792 0 -0.022977779
0.0057911999 -0.00127 -0.00067222235
0.0195072 -0.00127 -0.017172223
0.0088392003 0.00127 -0.00097777788
0.0064007998 0 0.0029944445
-0.024383999 0 -0.0037277781
0.0216408 -0.0003175 -0.012283334
0.0146304 0.00127 -0.0018944446
-0.026822399 0.0003175 -0.015338889
-0.0103632 0.0003175 -6.1111212e-05
0.026822399 0 -0.010755556
-0.0018288 -0.000635 -0.016561111
0.0192024 0 -0.017783334
0.0064007998 0.0003175 -0.021144446
-0.029260799 -0.0003175 -0.022061111
0.0146304 0.00127 -0.001588889
0.0240792 0.0003175 -0.01045
-0.0240792 0.00127 -0.0022000002
0.0112776 -0.0003175 0.0023833334
-0.0115824 -0.00127 -0.016866667
-0.024688799 0.00127 -0.016561111
0.023164799 0.00095249998 -0.017477779
-0.0027431999 -0.00127 -0.016561111
-0.016459201 -0.0003175 -0.0025055557
0.021336 -0.0003175 -6.1111212e-05
0.0088392003 -0.0003175 0.00054999994
-0.0252984 0 -0.0022000002
0.0192024 0.0003175 -0.019005556
0.0109728 -0.0003175 -0.015033334
0.0033527999 0.00127 -0.0022000002
0.0088392003 0 -0.01045
-0.0249936 -0.00127 -0.00036666676
-0.0088392003 0.0003175 -0.019005556
0.0088392003 0.0003175 0.0020777776
0.0082296003 0 -0.0022000002
-0.0067055998 0.00127 -0.016255556
0.029260799 0 -0.0187
0.0088392003 0 -0.014422223
-0.0112776 -0.0003175 0.0020777776
-0.0265176 0 0.00054999994
-0.0140208 0.0003175 0.0014666666
-0.029260799 -0.0003175 -0.0077000004
0.001524 0 -0.0040333336
0.024688799 0.000635 -0.017172223
-0.0100584 -0.00127 -0.01595
0.0298704 0.00095249998 -0.00067222235
0.0240792 -0.00127 -0.017172223
-0.0128016 -0.0003175 -0.015033334
0.0237744 -0.0003175 -0.017477779
0.0012192 0 -0.0070888894
-0.0140208 0.0003175 -0.019311111
0.00060959999 -0.00095249998 -0.016561111
-0.028956 0 -0.01808889
-0.0237744 -0.00127 -0.00036666676
-0.0216408 0 -0.011061111
-0.0112776 0 -0.010144445
-0.0192024 -0.0003175 -0.0061722226
-0.0112776 0 -0.0098388894
0.023469599 0.000635 -0.0022000002
0.0045719999 -0.0003175 -0.015338889
0.0012192 0.00127 -0.017172223
-0.016764 0 -0.022672223
0.026822399 0 -0.020227779
0.0076199998 0 -0.017477779
-0.010668 0.00095249998 -6.1111212e-05
0.018288 0 -0.015033334
-0.0115824 0 -0.011977778
0.023164799 0.00127 -6.1111212e-05
0.029260799 0 -0.0037277781
0.021336 -0.000635 -0.0022000002
-0.0079247998 -0.0003175 -6.1111212e-05
0.0073151998 0.00127 -0.017172223
0.0128016 0.00127 -0.01595
0.0091439998 -0.00127 -0.016866667
0.001524 0 -0.0070888894
0.0039623999 -0.0003175 -0.019311111
0.0115824 0.0003175 -0.0028111113
0.0076199998 -0.00127 -0.0012833335
-0.0140208 0 -0.017783334
0.0097535998 0.0003175 -0.017477779
0.016154399 0.00127 -0.016561111
-0.021031199 0.000635 -0.00036666676
0.0115824 0 -0.02083889
0.0112776 -0.0003175 -0.0086166672
-0.0140208 0 -0.013200001
-0.0064007998 -0.0003175 -0.0052555557
0.0286512 0.00127 -0.016561111
-0.0033527999 0.0003175 -0.0022000002
-0.0149352 -0.0003175 -6.1111212e-05
-0.024383999 -0.00095249998 -0.017172223
0.0097535998 -0.0003175 -0.017172223
0.0030479999 -0.0003175 -0.0022000002
-0.0018288 0.000635 -0.00036666676
-0.0158496 0.00127 -0.016255556
-0.0027431999 -0.0003175 -0.015644444
0.028346399 0.00127 -0.015338889
0.0240792 -0.0003175 0.00054999994
-0.0103632 0.000635 -0.01595
0.0039623999 0.0003175 -0.0031166668
-0.0277368 0.00127 -0.0012833335
-0.0265176 -0.0003175 0.00054999994
0.025907999 0.000635 -0.0022000002
0.0042671999 0.00127 -0.00036666676
0.001524 0 -0.021755556
-0.020726399 0 -0.0022000002
-0.0012192 0 -0.0043388889
-0.0054863999 -0.00127 -0.015644444
-0.0252984 0.0003175 -0.017172223
0.00030479999 -0.00127 -0.001588889
-0.0012192 0.00127 -0.00067222235
-0.0109728 0.000635 -0.0022000002
0.0048767999 -0.000635 -0.017172223
0.0112776 0 -0.010755556
0.028346399 0 -0.017172223
0.0109728 -0.00095249998 -0.017172223
0.00030479999 0.00127 -0.0012833335
-0.029260799 -0.0003175 -0.017783334
-0.0201168 0.00127 -0.0018944446
-0.016459201 0 -0.012894445
-0.0128016 0.00127 -0.016866667
0.0115824 0.00127 -0.016255556
0.020726399 -0.00127 -0.016561111
-0.027432 -0.00127 -0.0022000002
0.0192024 -0.00127 -0.016255556
0.0124968 -0.0003175 -0.015338889
0.0192024 0 0.0017722222
0.0237744 -0.000635 -0.015338889
-0.001524 -0.0003175 -0.016255556
-0.00091439998 -0.0003175 -0.01595
-0.0039623999 0.0003175 -0.013200001
0.0134112 0.000635 -0.017477779
