# .PCD v0.7 - Point Cloud Data file format
VERSION 0.7
FIELDS x y z
SIZE 4 4 4
TYPE F F F
COUNT 1 1 1
WIDTH 1210
HEIGHT 1
VIEWPOINT 0 0 0 1 0 0 0
POINTS 1210
DATA ascii
-0.0089710634 -0.00034636364 -0.0053575342
-0.0065931911 0.00011545455 -0.026568493
-0.014807659 0.00011545455 -0.019209588
0.0029182979 0.00034636364 -0.0023273972
0.013942978 -0.00034636364 -0.018560274
0.0037829785 -0.00034636364 0.00091917813
-0.00054042554 0.00127 -0.019426027
-0.00032425532 -0.00127 -0.019858904
-0.011132766 -0.00011545455 -0.011850685
-0.0087548932 -0.00034636364 -0.004058904
0.014159149 -0.00057727273 -0.019426027
0.0035668083 -0.00127 -0.001028767
0.013294468 -0.00034636364 -0.0023273972
-0.013294468 -0.00127 -0.019426027
-0.002053617 -0.00127 -0.020941095
0.00075659569 -0.00080818182 -0.0023273972
0.013294468 0.0010390909 -0.019426027
-0.0001080851 0.00127 -0.0023273972
0.0096195741 -0.00127 -0.019642465
-0.0011889362 0.00011545455 0.0011356164
-0.0057285107 -0.00034636364 -0.021373972
-0.01524 -0.00057727273 -0.019642465
-0.0076740421 -0.0010390909 -0.00016301361
0.015023829 0.00057727273 -0.020291781
-0.0014051064 0.0010390909 -0.019426027
-0.0089710634 -0.00011545455 -0.0068726023
0.0042153192 0.00080818182 -0.019858904
-0.011348936 -0.00034636364 -0.011634246
0.0018374467 0.0010390909 -0.019858904
-0.014591489 0.0010390909 -0.00059589033
0.011565106 0.00127 -0.00081232865
0.00097276591 -0.00080818182 -0.021373972
-0.0011889362 -0.00034636364 -0.022239726
-0.0037829785 0.00034636364 -0.010552054
0.0029182979 0.00127 -0.021157533
0.0014051064 0.00034636364 -0.009902739
0.002053617 0.00127 -0.020075342
0.00097276591 -0.00011545455 -0.025269862
0.0065931911 -0.00011545455 -0.025919177
-0.0037829785 -0.00034636364 -0.0083876709
-0.0037829785 0.00034636364 -0.0036260271
0.0074578719 -0.00127 -0.0014616437
0.0011889362 0.00034636364 -0.01379863
0.0076740421 0.00127 -0.00037945196
-0.010700425 0.00057727273 -0.019209588
-0.011565106 0.00011545455 -0.0066561643
0.0091872336 0.00127 -0.020075342
0.0061608506 0.00011545455 0.00026986309
0.0037829785 -0.00034636364 0.0015684932
0.0089710634 0.00034636364 5.3424741e-05
0.013510638 -0.00127 -0.020291781
-0.0027021277 0.00011545455 -0.019209588
-0.0014051064 0.00011545455 -0.018343834
-0.003999149 0.00034636364 -0.022023287
0.0029182979 -0.00127 -0.020075342
0.0063770209 0.00080818182 -0.0023273972
0.0096195741 -0.00057727273 -0.021373972
-0.0029182979 0.00011545455 -0.021373972
-0.0089710634 -0.00011545455 -0.010984931
0.0052961702 -0.00127 -0.00081232865
0.0061608506 0.00011545455 -0.025053425
0.0089710634 0.00034636364 -0.025702739
-0.0078902123 0.00127 -0.001028767
0.010916595 0.00127 -0.021157533
0.012645957 -0.00127 -0.020508219
0.014159149 0.00011545455 -0.0047082189
0.0078902123 -0.00127 -0.0014616437
0.0061608506 -0.00011545455 -0.009469863
-0.0035668083 0.00127 -0.020508219
-0.013726808 0.00057727273 -0.021373972
0.0091872336 0.00011545455 -0.021806849
0.013942978 0.00034636364 -0.014231507
0.003999149 -0.00034636364 -0.022456164
-0.013078297 0.00127 -0.00016301361
0.0011889362 0.0010390909 -0.02159041
-0.0016212765 -0.00011545455 -0.023754794
-0.012645957 0.00011545455 -0.0023273972
0.0063770209 -0.00034636364 -0.017910959
0.011565106 -0.00127 -0.020075342
0.0014051064 -0.00034636364 -0.017045205
0.0087548932 0.00011545455 -0.01379863
0.0087548932 -0.00011545455 0.00026986309
0.0096195741 0.00057727273 -0.0023273972
-0.0087548932 -0.00034636364 -0.0088205477
-0.0037829785 -0.00127 -0.019426027
0.013726808 0.00034636364 -0.02159041
0.012429787 0.00057727273 -0.019209588
0.0065931911 0.00011545455 -0.0096863015
0.012429787 0.0010390909 -0.019642465
0.0001080851 0.00080818182 -0.00016301361
0.011565106 -0.00127 -0.020291781
0.0027021277 -0.00034636364 -0.019209588
-0.011565106 0.00127 -0.020291781
0.0057285107 -0.00127 -0.00081232865
-0.010916595 -0.0010390909 -0.00016301361
0.0046476596 -0.00127 -0.00059589033
0.0065931911 0.00011545455 -0.01120137
-0.011565106 0.00011545455 0.0026506849
-0.00097276591 0.00011545455 -0.014015068
0.010268085 -0.00057727273 -0.0023273972
0.013294468 -0.00034636364 -0.021373972
0.0089710634 -0.00011545455 -0.018560274
0.0087548932 -0.00011545455 0.0013520549
-0.015023829 0.00034636364 -0.00081232865
-0.011997446 0.00127 -0.00081232865
0.0061608506 0.00011545455 -0.0031931505
-0.010916595 0.00127 -0.00081232865
0.00097276591 0.00011545455 -0.0027602739
0.010268085 -0.0010390909 -0.00016301361
-0.0072417017 -0.0010390909 -0.019209588
0.003999149 0.00011545455 -0.0044917804
-0.0065931911 -0.00011545455 0.0026506849
-0.0011889362 -0.00034636364 -0.023538355
-0.0098357443 -0.00127 -0.020508219
-0.0063770209 -0.00127 -0.0014616437
-0.008538723 -0.00127 -0.0012452054
-0.0016212765 -0.00011545455 0.0026506849
0.0065931911 0.00011545455 -0.012283561
0.0001080851 -0.00057727273 -0.0023273972
-0.012429787 0.0010390909 -0.0023273972
0.015023829 -0.00011545455 -0.0014616437
-0.0063770209 0.00034636364 -0.0055739726
0.0087548932 -0.00034636364 0.0024342467
-0.013942978 0.00011545455 -0.006006849
0.00508 -0.00127 -0.0014616437
-0.008538723 0.00057727273 -0.0023273972
0.0035668083 0.00034636364 -0.014231507
-0.010268085 0.00127 -0.0014616437
0.013294468 -0.00127 -0.0018945204
0.0037829785 -0.00034636364 -0.014880821
-0.00097276591 0.0010390909 -0.0023273972
0.013942978 -0.00011545455 -0.0038424656
-0.011565106 -0.00034636364 -0.012932876
0.012429787 -0.00057727273 -0.021373972
-0.014375319 -0.00127 -0.0018945204
0.0035668083 -0.00127 -0.00037945196
-0.0076740421 0.00011545455 -0.019209588
-0.014159149 0.00011545455 0.0013520549
-0.008538723 0.00127 -0.00037945196
-0.0098357443 0.00127 -0.021157533
-0.0087548932 0.00011545455 0.0015684932
-0.0063770209 -0.00034636364 -0.014015068
0.013510638 -0.00127 -0.020724656
-0.0046476596 -0.0010390909 -0.021373972
0.0037829785 -0.00034636364 -0.022672603
0.0063770209 0.00034636364 -0.009902739
0.011132766 0.00011545455 -0.025269862
-0.0063770209 0.00034636364 -0.009469863
0.011997446 -0.00011545455 -0.021373972
0.013078297 0.00127 -0.00059589033
-0.011348936 -0.00034636364 -0.01769452
-0.0052961702 -0.00127 -0.021373972
-0.0016212765 0.00127 -0.0021109588
0.014159149 0.00011545455 -0.014015068
-0.003999149 0.00011545455 -0.010984931
0.011348936 -0.00034636364 -0.012067123
0.013942978 0.00034636364 -0.014015068
-0.0063770209 -0.00127 -0.020075342
0.0037829785 -0.00034636364 -0.01899315
-0.0087548932 0.00011545455 -0.0068726023
0.014159149 -0.00011545455 -0.016395889
0.0018374467 -0.00057727273 -0.0023273972
-0.0087548932 0.00127 -0.020508219
0.013078297 0.00057727273 -0.00037945196
-0.011348936 0.00127 -0.019426027
-0.0044314894 -0.00034636364 -0.019209588
0.0014051064 0.00034636364 -0.0083876709
-0.0057285107 -0.00127 -0.019642465
-0.012645957 0.00080818182 -0.021373972
-0.003999149 0.00011545455 -0.009902739
-0.003999149 -0.00034636364 -0.02159041
0.003999149 -0.00127 -0.00059589033
0.0018374467 0.0010390909 -0.019426027
-0.003999149 -0.00034636364 -0.025053425
-0.014591489 0.00011545455 -0.021373972
0.0096195741 0.0010390909 -0.019426027
0.011132766 0.00011545455 -0.006006849
0.0048638298 0.00057727273 -0.021373972
-0.013942978 0.00011545455 -0.024404109
0.014591489 -0.0010390909 -0.020941095
-0.013942978 -0.00011545455 -0.0081712324
0.011348936 -0.00127 -0.001028767
0.0098357443 -0.00034636364 -0.021373972
0.011565106 0.0010390909 -0.021373972
-0.00097276591 0.00011545455 -0.017261643
0.0014051064 -0.00011545455 -0.010335616
-0.0018374467 0.00127 -0.00081232865
-0.011132766 -0.00011545455 -0.0070890407
-0.00054042554 -0.00080818182 -0.021373972
-0.011132766 -0.00011545455 -0.010552054
0.00097276591 0.00080818182 -0.00016301361
0.0083225528 0.0010390909 -0.00016301361
-0.0074578719 -0.00127 -0.001028767
0.0042153192 0.00057727273 -0.019209588
-0.013942978 0.00011545455 -0.0036260271
0.011132766 0.00127 -0.001678082
0.0065931911 -0.00011545455 -0.012067123
0.0065931911 -0.00127 -0.00037945196
0.0065931911 -0.00011545455 -0.0031931505
-0.0048638298 -0.00080818182 -0.00016301361
-0.0027021277 -0.00127 -0.019209588
-0.0027021277 -0.00011545455 -0.00016301361
0.00097276591 0.00011545455 -0.012716438
-0.011565106 0.00011545455 -0.014231507
-0.011565106 -0.00011545455 -0.0029767121
0.0033506381 -0.00127 -0.0014616437
0.003999149 0.00034636364 -0.0062232874
-0.0016212765 0.00080818182 -0.019858904
-0.0024859575 -0.0010390909 -0.00016301361
0.0035668083 -0.00011545455 -0.0029767121
0.0070255315 0.00080818182 -0.019642465
0.0035668083 0.00011545455 -0.011850685
-0.013294468 -0.00034636364 -0.021373972
0.0011889362 -0.00034636364 -0.0086041093
-0.0087548932 0.00011545455 -0.007738356
-0.0061608506 -0.00011545455 -0.017478082
-0.0037829785 0.00034636364 -0.02288904
-0.0029182979 0.00127 -0.020724656
0.012213617 0.00127 -0.00016301361
-0.011781276 0.00034636364 -0.021373972
0.0089710634 0.00011545455 -0.0070890407
-0.0048638298 -0.00127 -0.00059589033
-0.0083225528 -0.0010390909 -0.021373972
-0.0065931911 0.00011545455 -0.0034095889
-0.0037829785 -0.00034636364 -0.010768493
0.0089710634 0.00127 -0.0023273972
-0.003999149 -0.00011545455 5.3424741e-05
0.0061608506 -0.00011545455 -0.023971232
0.003999149 0.00011545455 -0.024187671
-0.0059446809 0.00127 -0.019426027
0.0011889362 -0.0010390909 -0.019858904
-0.0087548932 0.00011545455 -0.0073054791
0.010051914 0.00080818182 -0.021373972
0.008538723 -0.00127 -0.019642465
0.011997446 -0.00127 -0.020508219
0.008538723 0.00127 -0.001028767
-0.0081063826 -0.00127 -0.00037945196
0.0089710634 0.00034636364 -0.017045205
-0.00054042554 -0.00127 -0.021157533
-0.0091872336 -0.00127 -0.020291781
-0.013510638 -0.00011545455 -0.0023273972
-0.013942978 0.00011545455 0.00048630143
0.0063770209 -0.00034636364 -0.0042753424
0.0037829785 0.00034636364 -0.015313698
-0.0061608506 0.00011545455 0.0024342467
-0.0014051064 -0.00034636364 -0.0068726023
-0.003999149 0.00034636364 -0.014447945
-0.0001080851 0.00127 -0.021157533
0.011565106 0.00011545455 -0.024620548
0.011565106 0.0010390909 -0.019426027
0.0035668083 0.00011545455 -0.009902739
-0.003999149 -0.00034636364 0.00026986309
0.00097276591 -0.00034636364 -0.021373972
-0.0063770209 0.00034636364 -0.012716438
0.00097276591 -0.00011545455 -0.015313698
0.015023829 -0.00034636364 -0.00037945196
0.012213617 0.00127 -0.00081232865
-0.011132766 0.00011545455 -0.024404109
-0.0063770209 -0.00127 -0.021157533
0.0037829785 -0.00034636364 -0.0096863015
-0.0035668083 -0.00011545455 -0.02159041
0.0065931911 -0.00011545455 -0.011850685
-0.0089710634 0.00011545455 -0.014664383
0.011348936 0.00034636364 -0.024187671
-0.0089710634 0.00127 -0.0018945204
-0.0057285107 0.00034636364 -0.0023273972
-0.011565106 -0.00011545455 -0.023971232
0.013942978 -0.00057727273 -0.021157533
-0.01524 -0.00034636364 -0.019426027
-0.0055123405 0.00057727273 -0.00037945196
0.003999149 0.00011545455 -0.0057904106
0.0087548932 -0.00011545455 -0.0044917804
0.014591489 -0.0010390909 -0.0018945204
0.0063770209 -0.00034636364 -0.0070890407
-0.010916595 0.00011545455 -0.0023273972
0.00054042554 0.00080818182 -0.019858904
-0.010051914 -0.00127 -0.019426027
-0.011565106 -0.00011545455 -0.017910959
0.0037829785 0.00034636364 -0.016179452
-0.013942978 0.00127 -0.020941095
0.013726808 0.00011545455 -0.012716438
0.002053617 0.00057727273 -0.019642465
-0.015023829 0.0010390909 -0.020291781
-0.013726808 -0.00011545455 -0.02159041
-0.0042153192 -0.00127 -0.001028767
-0.0074578719 -0.00080818182 -0.0023273972
0.011781276 -0.00127 -0.021373972
-0.0035668083 0.00011545455 -0.0042753424
0.0031344679 0.00034636364 -0.019209588
0.0018374467 -0.00127 -0.019642465
0.00097276591 0.00011545455 -0.023321917
0.0068093613 0.00127 -0.020291781
-0.0022697872 0.00127 -0.020941095
0.0011889362 0.00034636364 -0.010119177
0.0044314894 -0.00034636364 -0.019209588
0.013726808 0.00011545455 -0.025919177
0.0052961702 0.0010390909 -0.019209588
-0.014159149 -0.00011545455 -0.017045205
-0.0061608506 -0.00011545455 -0.0047082189
0.0061608506 0.00011545455 -0.01120137
-0.013726808 0.00011545455 -0.013365753
-0.0037829785 0.00034636364 -0.0070890407
0.0065931911 0.00011545455 -0.026568493
0.013942978 -0.00011545455 -0.014447945
-0.0014051064 0.00057727273 -0.019209588
-0.0011889362 0.00057727273 -0.021373972
0.003999149 0.00034636364 -0.013365753
-0.0072417017 -0.00127 -0.021373972
0.0083225528 -0.0010390909 -0.019209588
-0.0065931911 0.00011545455 -0.014447945
0.011348936 -0.00034636364 -0.007954794
-0.0089710634 -0.00034636364 -0.0075219176
-0.0065931911 -0.00011545455 -0.025053425
0.0087548932 0.00034636364 -0.016395889
0.011348936 0.00080818182 -0.0023273972
-0.010051914 0.00034636364 -0.0023273972
0.011348936 0.00034636364 0.0015684932
-0.011132766 0.00011545455 -0.015530136
0.003999149 -0.00011545455 -0.023538355
0.0055123405 0.00034636364 -0.019209588
-0.0065931911 0.00011545455 -0.017478082
0.0035668083 -0.00011545455 0.00070273981
0.0016212765 0.00127 -0.0021109588
-0.00097276591 -0.00057727273 -0.02159041
-0.0057285107 0.00011545455 -0.021373972
0.0089710634 -0.00127 -0.00059589033
-0.0037829785 -0.00034636364 -0.017478082
0.011132766 0.0010390909 -0.00016301361
-0.0065931911 0.00011545455 -0.024187671
0.0087548932 0.00011545455 -0.0066561643
0.011348936 -0.00034636364 0.00070273981
0.00097276591 0.00011545455 -0.0036260271
-0.011348936 -0.00034636364 -0.023754794
-0.003999149 0.00034636364 -0.017478082
-0.0046476596 -0.00127 -0.00016301361
0.0011889362 0.00057727273 -0.019426027
-0.0027021277 -0.00127 -0.00081232865
-0.011132766 -0.00011545455 -0.007738356
-0.011565106 -0.00034636364 -0.022456164
0.0052961702 0.0010390909 -0.021373972
-0.0035668083 0.00011545455 -0.026135616
-0.00032425532 -0.00127 -0.020941095
-0.0089710634 0.00034636364 -0.024187671
-0.011348936 0.00034636364 -0.016828766
0.013510638 0.00080818182 -0.0023273972
0.014159149 0.00011545455 -0.017910959
-0.014159149 -0.00011545455 0.00048630143
0.003999149 -0.00034636364 -0.022239726
-0.0061608506 -0.00011545455 -0.022239726
0.011132766 0.00127 -0.020724656
0.0042153192 0.00127 -0.021157533
0.0063770209 -0.00127 -0.00037945196
0.0065931911 0.00011545455 -0.016612329
0.0087548932 0.00011545455 -0.012067123
-0.0063770209 0.0010390909 -0.0023273972
0.013510638 -0.00080818182 -0.019209588
-0.011565106 0.00034636364 -0.0064397259
-0.011565106 0.00011545455 0.0017849315
0.0037829785 0.00034636364 -0.015530136
0.0089710634 0.00011545455 -0.01379863
-0.00032425532 0.00127 -0.019858904
0.0037829785 0.00034636364 -0.0092534246
-0.0048638298 0.00127 -0.0014616437
-0.011565106 0.00011545455 -0.015313698
-0.013726808 0.00057727273 -0.019209588
-0.011781276 0.00011545455 -0.01899315
-0.011781276 -0.00127 -0.019642465
-0.011565106 0.00011545455 -0.015530136
-0.0048638298 0.00034636364 -0.019209588
-0.013510638 0.00127 -0.021157533
0.0042153192 -0.00080818182 -0.021373972
0.00097276591 0.00011545455 -0.018127397
0.0016212765 0.00011545455 -0.011634246
0.013078297 -0.00127 -0.0018945204
0.00097276591 0.00011545455 -0.02288904
0.0014051064 -0.00057727273 -0.019209588
-0.013726808 -0.00011545455 -0.016612329
-0.010916595 -0.00127 -0.020075342
0.0076740421 -0.00011545455 -0.00016301361
-0.0063770209 -0.00011545455 -0.013582191
0.0068093613 -0.00127 -0.021373972
-0.0061608506 -0.00011545455 -0.010552054
-0.0061608506 0.00011545455 -0.017910959
0.008538723 -0.00011545455 -0.02159041
0.011132766 -0.00127 -0.00081232865
-0.011565106 -0.00011545455 -0.010768493
0.011565106 0.00011545455 -0.026352054
0.0048638298 -0.00034636364 -0.0023273972
-0.0061608506 0.00011545455 0.00091917813
-0.0014051064 -0.00034636364 -0.007738356
-0.010700425 -0.00080818182 -0.00016301361
-0.0014051064 0.00034636364 -0.01120137
0.0065931911 -0.00011545455 -0.023971232
-0.0089710634 0.00011545455 0.00070273981
-0.0044314894 0.00127 -0.001678082
-0.0065931911 0.00011545455 -0.010984931
0.0074578719 0.00127 -0.0014616437
0.0031344679 0.00057727273 -0.021373972
0.0016212765 0.00127 -0.0012452054
-0.0048638298 0.00011545455 -0.0023273972
0.0061608506 -0.00127 -0.0018945204
0.014591489 0.00011545455 -0.0023273972
-0.0052961702 -0.00011545455 -0.019209588
-0.0027021277 0.00127 -0.0023273972
-0.013078297 -0.0010390909 -0.00016301361
-0.003999149 0.00011545455 -0.023754794
0.0074578719 0.00127 -0.0023273972
0.0089710634 -0.00011545455 -0.010768493
0.003999149 -0.00034636364 -0.004058904
0.013294468 0.0010390909 -0.019209588
-0.00054042554 0.0010390909 -0.00016301361
0.003999149 -0.00034636364 -0.023105478
-0.0072417017 -0.00127 -0.0014616437
-0.011132766 0.00011545455 -0.0096863015
-0.0011889362 0.00034636364 -0.009469863
0.003999149 0.00011545455 -0.016612329
-0.0087548932 0.00011545455 -0.024836985
0.014159149 0.00057727273 -0.019209588
0.00097276591 -0.00127 -0.0018945204
0.0065931911 -0.0010390909 -0.00016301361
0.0061608506 -0.00011545455 -0.022672603
-0.0035668083 -0.00034636364 -0.01509726
-0.0072417017 -0.00080818182 -0.020075342
0.00054042554 -0.0010390909 -0.019642465
0.011348936 0.00011545455 -0.010335616
-0.0035668083 0.00080818182 -0.021373972
-0.012213617 -0.00034636364 -0.00016301361
-0.0089710634 0.00011545455 -0.017261643
0.0089710634 0.00011545455 -0.0036260271
0.003999149 0.00011545455 -0.017478082
-0.0014051064 -0.00127 -0.00016301361
-0.0014051064 0.00080818182 -0.0023273972
-0.0072417017 0.0010390909 -0.021373972
0.0087548932 -0.00127 -0.0014616437
-0.013726808 0.00127 -0.020724656
-0.010268085 0.0010390909 -0.021373972
0.0089710634 0.00127 -0.00081232865
-0.00032425532 0.00057727273 -0.00037945196
-0.0063770209 -0.00011545455 -0.0051410957
-0.0042153192 0.00034636364 -0.00016301361
0.0014051064 -0.00011545455 0.0022178083
0.0011889362 0.00034636364 0.0024342467
0.0089710634 0.00011545455 0.00091917813
-0.0087548932 0.00034636364 -0.018776711
0.013294468 0.00127 -0.0021109588
0.013942978 0.00127 -0.0014616437
0.0052961702 0.00127 -0.00016301361
0.013726808 -0.00057727273 -0.019209588
0.0091872336 -0.00011545455 -0.0023273972
-0.0078902123 0.0010390909 -0.0023273972
0.012429787 -0.00080818182 -0.021373972
-0.0052961702 -0.00080818182 -0.019642465
0.0024859575 -0.0010390909 -0.00016301361
0.0063770209 -0.00034636364 -0.0066561643
-0.0087548932 0.00011545455 -0.026352054
-0.011565106 -0.00011545455 -0.024620548
0.010916595 -0.0010390909 -0.021373972
0.013942978 0.00127 -0.00059589033
0.003999149 0.00011545455 -0.01509726
0.0001080851 0.00127 -0.020724656
-0.0076740421 -0.00057727273 -0.021373972
-0.0014051064 0.00011545455 0.00070273981
0.0044314894 -0.00127 -0.020291781
0.00097276591 -0.00011545455 -0.009902739
-0.0063770209 -0.00080818182 -0.019642465
-0.0083225528 0.00034636364 -0.0023273972
0.00075659569 0.00057727273 -0.0023273972
0.0087548932 -0.00011545455 0.0011356164
0.012862127 0.00127 -0.001678082
-0.0029182979 0.00127 -0.0021109588
-0.003999149 -0.00011545455 -0.012283561
-0.013294468 0.00057727273 -0.021373972
-0.00097276591 0.00011545455 -0.006006849
-0.0048638298 -0.00127 -0.0023273972
-0.0037829785 -0.00034636364 -0.0062232874
0.0014051064 0.00034636364 -0.014015068
-0.0016212765 -0.00011545455 -0.012067123
0.0027021277 0.00127 -0.00037945196
-0.0089710634 -0.00011545455 -0.0062232874
0.0037829785 -0.0010390909 -0.021373972
0.0055123405 0.00127 -0.019642465
0.011997446 0.00127 -0.0023273972
-0.0014051064 0.00034636364 -0.018127397
-0.014591489 -0.0010390909 -0.020291781
0.0024859575 0.0010390909 -0.0023273972
0.011348936 0.00034636364 0.00048630143
-0.0011889362 0.00034636364 0.00048630143
-0.003999149 -0.00034636364 -0.022672603
-0.0065931911 0.00011545455 -0.0064397259
-0.00032425532 -0.00127 -0.001678082
0.0048638298 -0.00011545455 -0.0023273972
0.0014051064 -0.00034636364 -0.0057904106
-0.0046476596 -0.0010390909 -0.019426027
0.013078297 0.00127 -0.021157533
-0.0087548932 -0.00034636364 -0.022456164
-0.0072417017 0.00127 -0.020941095
0.003999149 -0.00011545455 -0.026568493
-0.010700425 -0.00034636364 -0.021373972
-0.0024859575 -0.00127 -0.019858904
0.011132766 -0.00011545455 -0.016612329
0.00097276591 0.00034636364 -0.023105478
0.0022697872 -0.0010390909 -0.021373972
0.015023829 0.00080818182 -0.0014616437
-0.00032425532 -0.00127 -0.0012452054
-0.0065931911 -0.00011545455 0.0017849315
-0.0037829785 0.00034636364 -0.02678493
-0.0018374467 0.0010390909 -0.00016301361
0.011565106 -0.00011545455 -0.023105478
0.012645957 0.00011545455 -0.00016301361
0.0087548932 -0.00011545455 -0.009902739
-0.0065931911 0.00011545455 -0.027217807
-0.008538723 -0.00127 -0.020508219
-0.0035668083 0.00011545455 -0.011417808
0.013942978 0.00034636364 -0.015746575
0.0035668083 0.00011545455 -0.018560274
0.0011889362 -0.00034636364 -0.011417808
0.0059446809 -0.00127 -0.019858904
-0.013726808 0.00011545455 -0.014880821
-0.003999149 -0.00011545455 -0.015746575
0.0065931911 0.0010390909 -0.0023273972
0.002053617 0.00127 -0.00081232865
-0.014807659 0.00057727273 -0.00037945196
0.011348936 0.00034636364 -0.017910959
0.0087548932 0.00011545455 -0.022456164
-0.012645957 -0.00127 -0.00059589033
-0.0087548932 0.00011545455 -0.022023287
0.0083225528 -0.00127 -0.0023273972
0.0065931911 -0.00011545455 -0.017910959
0.012862127 -0.00011545455 -0.0023273972
0.013726808 0.00127 -0.00016301361
0.0074578719 -0.00127 -0.0021109588
0.0011889362 -0.00034636364 0.00091917813
-0.0037829785 -0.00034636364 -0.0029767121
0.0078902123 0.0010390909 -0.0023273972
-0.0065931911 0.00127 -0.001028767
0.0037829785 -0.00034636364 -0.0090369862
0.013942978 0.00127 -0.020724656
0.0029182979 -0.00127 -0.019642465
0.015023829 0.00034636364 -0.0023273972
-0.0094034038 0.00034636364 -0.00016301361
-0.013726808 0.00011545455 -0.01509726
-0.0035668083 -0.00011545455 -0.010335616
0.003999149 -0.00011545455 -0.016828766
-0.011348936 0.00127 -0.0021109588
-0.011348936 0.00034636364 -0.0044917804
0.00054042554 -0.00127 -0.001678082
0.0061608506 0.00011545455 -0.016395889
0.0070255315 -0.00127 -0.019642465
-0.011132766 -0.00011545455 -0.024187671
-0.0037829785 -0.00034636364 -0.0057904106
0.015023829 0.00011545455 -0.020075342
-0.003999149 -0.00034636364 -0.0053575342
-0.0018374467 -0.00057727273 -0.019209588
0.0059446809 0.00127 -0.020941095
-0.013726808 -0.00011545455 0.00026986309
0.0072417017 -0.00057727273 -0.00037945196
0.0083225528 -0.00057727273 -0.0023273972
-0.010484255 -0.00127 -0.020508219
-0.0076740421 0.00127 -0.021157533
-0.0065931911 -0.00011545455 0.0015684932
0.0016212765 0.00011545455 -0.017045205
-0.0033506381 0.0010390909 -0.019426027
0.0074578719 -0.00127 -0.020075342
-0.013942978 0.00011545455 -0.016179452
0.0089710634 0.0010390909 -0.021373972
0.0065931911 0.00127 -0.0012452054
-0.0061608506 0.00011545455 -0.014231507
0.0081063826 -0.00080818182 -0.0023273972
-0.014159149 0.0010390909 -0.00081232865
0.0022697872 0.00034636364 -0.021373972
-0.013942978 0.00127 -0.0014616437
-0.0016212765 0.00034636364 -0.00016301361
0.011348936 0.00080818182 -0.021373972
-0.011132766 0.00011545455 -0.022239726
0.0027021277 0.00127 -0.019426027
-0.0037829785 0.00034636364 -0.024404109
0.013942978 -0.00011545455 -0.014664383
0.0035668083 0.00034636364 0.0015684932
0.011565106 -0.00011545455 -0.0047082189
0.015023829 -0.00057727273 -0.00081232865
0.0081063826 -0.00011545455 -0.021373972
0.0037829785 0.00034636364 -0.017261643
-0.0022697872 -0.00127 -0.0021109588
0.013942978 -0.00011545455 -0.02678493
-0.0037829785 -0.00034636364 -0.01769452
0.012862127 -0.00080818182 -0.021373972
0.0087548932 0.00011545455 -0.01769452
0.010916595 -0.00127 -0.021157533
-0.003999149 -0.00034636364 0.00048630143
-0.011348936 -0.00034636364 -0.012932876
-0.00075659569 0.00127 -0.0018945204
0.00097276591 -0.00011545455 -0.02159041
-0.0057285107 -0.00011545455 -0.0023273972
-0.0011889362 0.00034636364 -0.02700137
0.0087548932 0.00034636364 -0.015313698
0.0061608506 -0.00011545455 -0.016395889
-0.0072417017 0.00127 -0.0021109588
-0.0078902123 -0.00034636364 -0.00016301361
-0.0089710634 -0.00127 -0.001678082
0.011348936 -0.00034636364 -0.01379863
0.013942978 -0.00011545455 -0.010552054
-0.011565106 -0.00011545455 0.0024342467
0.0027021277 -0.0010390909 -0.00016301361
-0.011348936 0.00034636364 -0.025053425
0.0076740421 -0.00127 -0.00016301361
0.011565106 -0.00127 -0.019858904
-0.011348936 0.00034636364 0.00070273981
0.0011889362 -0.00127 -0.0018945204
-0.014375319 -0.00080818182 -0.0023273972
-0.0087548932 -0.00034636364 -0.011850685
-0.013078297 -0.00127 -0.001678082
0.0014051064 -0.0010390909 -0.019426027
-0.0094034038 -0.00127 -0.020508219
0.0001080851 -0.00127 -0.0023273972
0.0072417017 0.00127 -0.0021109588
-0.014159149 -0.00011545455 -0.01769452
0.0011889362 -0.00127 -0.00059589033
0.0083225528 0.00127 -0.00016301361
0.011565106 0.00011545455 -0.01899315
0.014159149 -0.00057727273 -0.00037945196
0.010268085 -0.00034636364 -0.019209588
0.011132766 0.00011545455 -0.009469863
-0.003999149 0.00011545455 -0.0096863015
-0.00097276591 0.00011545455 -0.01509726
0.0065931911 -0.00011545455 -0.0096863015
0.0089710634 0.00011545455 -0.024187671
0.0011889362 -0.00034636364 -0.0092534246
0.0065931911 0.00011545455 -0.010552054
-0.00032425532 0.00080818182 -0.0023273972
-0.0018374467 -0.0010390909 -0.00016301361
0.015023829 0.00080818182 -0.020075342
0.0087548932 0.00011545455 -0.01509726
-0.0096195741 -0.00127 -0.020941095
0.0035668083 0.00034636364 -0.02700137
0.0063770209 0.00034636364 -0.015746575
0.0089710634 -0.00057727273 -0.019209588
-0.011997446 0.00034636364 -0.00016301361
0.0063770209 0.00034636364 -0.013365753
0.013942978 -0.00127 -0.001678082
0.0098357443 0.00127 -0.00016301361
-0.0014051064 0.00011545455 -0.012932876
-0.0087548932 0.00034636364 -0.018127397
-0.012213617 0.00011545455 -0.00016301361
0.0087548932 0.00011545455 -0.016395889
0.0037829785 0.00057727273 -0.019642465
-0.0037829785 0.00034636364 -0.018776711
0.0063770209 0.00034636364 -0.0042753424
-0.0014051064 -0.00034636364 -0.018776711
-0.012429787 -0.00127 -0.00059589033
-0.011565106 0.00011545455 -0.0068726023
-0.0072417017 0.00127 -0.00059589033
0.014159149 -0.00011545455 -0.022456164
-0.00097276591 -0.00011545455 -0.0092534246
0.0087548932 -0.00034636364 -0.022023287
0.013726808 -0.00011545455 -0.027434247
0.012213617 0.00127 -0.020724656
-0.0035668083 -0.00011545455 -0.0090369862
0.01524 0.00034636364 -0.0014616437
0.0089710634 0.00034636364 -0.025269862
0.012862127 0.00057727273 -0.00037945196
-0.0087548932 0.00011545455 -0.02678493
-0.010916595 -0.00080818182 -0.021373972
0.0011889362 0.00034636364 -0.015530136
0.0035668083 -0.00011545455 -0.01509726
-0.013078297 0.00011545455 -0.0023273972
-0.0063770209 0.00034636364 -0.0075219176
0.003999149 -0.00011545455 -0.02678493
-0.0016212765 -0.00011545455 -0.0038424656
-0.013942978 -0.00057727273 -0.019209588
0.0011889362 0.00034636364 0.0011356164
0.0089710634 0.00034636364 -0.011850685
0.002053617 0.00080818182 -0.021373972
-0.012645957 -0.00057727273 -0.019209588
0.0037829785 0.00127 -0.020075342
-0.0016212765 -0.00011545455 -0.011417808
-0.0061608506 0.0010390909 -0.019858904
0.0048638298 0.0010390909 -0.0023273972
-0.0027021277 0.00127 -0.001678082
-0.0087548932 0.00011545455 -0.025053425
-0.0037829785 -0.00080818182 -0.021373972
-0.0001080851 -0.00127 -0.021373972
0.011132766 0.00011545455 -0.0051410957
0.0059446809 0.0010390909 -0.00016301361
-0.00032425532 0.00127 -0.019426027
0.0035668083 -0.00011545455 -0.026135616
0.0087548932 -0.00034636364 -0.01769452
-0.0061608506 0.00011545455 -0.015746575
-0.011348936 -0.00127 -0.021373972
-0.0033506381 -0.00034636364 -0.019209588
0.0089710634 0.00034636364 -0.0070890407
0.0055123405 -0.00057727273 -0.00037945196
0.0014051064 0.00034636364 -0.01769452
-0.0078902123 -0.0010390909 -0.019209588
0.0063770209 -0.00011545455 -0.0081712324
-0.0061608506 -0.00011545455 -0.013365753
-0.011132766 -0.00011545455 -0.018776711
0.00032425532 -0.00127 -0.020724656
0.014159149 0.00011545455 -0.0053575342
-0.0014051064 -0.00127 -0.00037945196
-0.00097276591 0.00011545455 -0.0031931505
-0.013294468 0.00080818182 -0.0023273972
-0.013942978 -0.00034636364 -0.01120137
0.014591489 0.0010390909 -0.00016301361
-0.0078902123 -0.00127 -0.0014616437
-0.013942978 0.00011545455 -0.0083876709
-0.0074578719 -0.00011545455 -0.019209588
0.011348936 0.0010390909 -0.0023273972
-0.013726808 0.00011545455 -0.022023287
0.0048638298 0.00011545455 -0.00016301361
-0.0070255315 0.0010390909 -0.019209588
-0.0011889362 -0.00034636364 -0.0057904106
0.014159149 0.00011545455 -0.024187671
-0.003999149 0.0010390909 -0.021373972
-0.0027021277 0.00080818182 -0.00016301361
-0.00032425532 0.0010390909 -0.019426027
0.015023829 0.00057727273 -0.020508219
-0.0037829785 -0.00034636364 -0.015963012
0.0081063826 0.00127 -0.0012452054
0.00097276591 0.00011545455 -0.0025438354
0.0016212765 0.00127 -0.019209588
-0.0089710634 0.00011545455 0.00048630143
0.0037829785 0.00127 -0.00081232865
-0.01524 -0.00034636364 -0.001678082
-0.011565106 -0.00034636364 5.3424741e-05
-0.013942978 -0.00011545455 -0.007954794
0.0011889362 0.00034636364 -0.01769452
-0.013942978 -0.00011545455 -0.0064397259
-0.011997446 -0.00127 -0.0014616437
-0.010700425 -0.00011545455 -0.021373972
0.00054042554 0.0010390909 -0.019426027
-0.0014051064 -0.00034636364 -0.0034095889
0.0061608506 -0.00011545455 0.0017849315
-0.00508 -0.00127 -0.0023273972
0.010051914 0.00127 -0.020508219
-0.015023829 0.00034636364 -0.001678082
0.013726808 0.00011545455 -0.0051410957
-0.0070255315 0.00127 -0.019858904
-0.00097276591 -0.00011545455 -0.006006849
-0.0065931911 -0.0010390909 -0.00016301361
-0.0089710634 0.00011545455 -0.0075219176
0.0068093613 0.00057727273 -0.021373972
-0.0022697872 0.00127 -0.020075342
-0.015023829 0.00057727273 -0.020508219
-0.0063770209 0.00034636364 0.00048630143
-0.008538723 -0.00127 -0.00016301361
0.0087548932 0.00127 -0.00037945196
0.0098357443 -0.00057727273 -0.021373972
0.0035668083 -0.00127 -0.0012452054
0.0089710634 0.00011545455 -0.014880821
-0.0061608506 0.00011545455 -0.010119177
0.013078297 -0.00127 -0.020291781
0.00097276591 0.00011545455 -0.026568493
-0.0044314894 -0.0010390909 -0.021373972
-0.011565106 -0.00011545455 -0.02159041
-0.011132766 0.00011545455 -0.0049246573
0.0018374467 -0.00127 -0.0012452054
0.0027021277 -0.00127 -0.00016301361
0.0014051064 -0.00011545455 -0.014447945
-0.0059446809 -0.00034636364 -0.02159041
0.0027021277 -0.00034636364 -0.0023273972
-0.0037829785 0.00034636364 -0.0042753424
0.0087548932 -0.00011545455 -0.0070890407
0.0011889362 -0.00080818182 -0.020075342
0.0014051064 -0.00011545455 -0.024836985
0.012429787 -0.00127 -0.021373972
0.0087548932 0.00034636364 -0.014231507
-0.0087548932 -0.00034636364 -0.016179452
-0.0044314894 -0.00127 -0.001028767
0.013942978 -0.00011545455 -0.025269862
-0.014159149 0.00011545455 -0.01120137
-0.0096195741 0.00080818182 -0.021373972
-0.0029182979 -0.00127 -0.0021109588
-0.014159149 -0.00011545455 -0.0254863
-0.0014051064 0.00034636364 -0.010552054
0.0001080851 0.00011545455 -0.019209588
-0.014159149 0.0010390909 -0.0018945204
0.0035668083 -0.00057727273 -0.019426027
0.0018374467 -0.00057727273 -0.019209588
-0.0065931911 0.00011545455 -0.018560274
0.014159149 -0.00011545455 -0.024836985
-0.0016212765 0.00011545455 -0.0025438354
0.014591489 0.00080818182 -0.00016301361
-0.003999149 -0.00011545455 -0.01769452
-0.003999149 0.00011545455 -0.010119177
0.015023829 0.00080818182 -0.021373972
0.0042153192 -0.00057727273 -0.019426027
-0.01524 -0.00057727273 -0.00081232865
0.010484255 0.00080818182 -0.00016301361
0.015023829 0.0010390909 -0.020508219
-0.0091872336 0.00011545455 5.3424741e-05
-0.0063770209 -0.00011545455 -0.011417808
-0.0063770209 0.00034636364 -0.016179452
-0.0014051064 0.0010390909 -0.0023273972
-0.0029182979 -0.00127 -0.001028767
-0.008538723 -0.00127 -0.020075342
-0.011565106 0.00011545455 -0.0038424656
0.010916595 -0.00057727273 -0.0023273972
0.0098357443 0.00127 -0.00059589033
-0.011348936 -0.00034636364 -0.014880821
0.00054042554 0.00034636364 -0.019209588
-0.0055123405 0.00080818182 -0.021373972
-0.014591489 -0.00057727273 -0.019426027
-0.013726808 0.00011545455 -0.010552054
-0.012429787 -0.00011545455 -0.0023273972
0.0091872336 -0.00011545455 -0.01769452
0.002053617 -0.0010390909 -0.019858904
-0.0001080851 -0.00127 -0.00037945196
-0.013726808 -0.00057727273 -0.00037945196
-0.003999149 0.00011545455 -0.0036260271
0.00032425532 0.00127 -0.020724656
0.015023829 -0.00034636364 -0.020075342
0.011348936 0.00011545455 -0.0057904106
-0.013726808 0.00011545455 -0.006006849
-0.0014051064 0.00057727273 -0.019642465
-0.013294468 -0.00127 -0.020941095
0.0087548932 -0.00034636364 -0.018127397
0.003999149 0.00011545455 -0.0075219176
0.0001080851 -0.00127 -0.020941095
-0.0089710634 0.00011545455 -0.0053575342
0.0035668083 -0.00011545455 -0.022023287
0.0065931911 -0.00011545455 -0.013582191
-0.014159149 0.00011545455 -0.014231507
-0.011348936 -0.00034636364 -0.017478082
-0.013078297 -0.00127 -0.0023273972
0.0035668083 -0.00011545455 -0.024404109
-0.0035668083 0.00011545455 -0.007954794
0.0037829785 -0.00034636364 -0.0086041093
0.011348936 0.00034636364 0.0020013698
-0.0035668083 -0.00011545455 -0.0073054791
-0.0031344679 0.00127 -0.020724656
0.011565106 0.00011545455 -0.010984931
-0.0089710634 -0.00034636364 -0.023971232
0.0098357443 -0.0010390909 -0.00016301361
0.0094034038 -0.00034636364 -0.019209588
-0.011132766 0.00127 -0.020724656
-0.0018374467 -0.00034636364 -0.0023273972
-0.0022697872 0.0010390909 -0.019426027
-0.0046476596 0.0010390909 -0.021373972
-0.0035668083 0.00011545455 -0.0034095889
-0.013726808 -0.00011545455 -0.01379863
0.0089710634 0.00011545455 -0.0034095889
-0.011348936 0.00034636364 -0.007738356
0.00097276591 0.00034636364 0.0024342467
-0.0042153192 -0.00127 -0.001678082
0.0011889362 0.00034636364 -0.012716438
-0.0096195741 0.00080818182 -0.00016301361
0.011565106 0.00127 -0.001028767
0.003999149 -0.00127 -0.00037945196
-0.0037829785 0.00127 -0.00059589033
0.0011889362 -0.00127 -0.0021109588
0.0014051064 -0.00057727273 -0.00037945196
0.00097276591 0.00127 -0.00081232865
0.0091872336 0.00127 -0.00037945196
-0.0035668083 -0.00034636364 -0.018127397
-0.011781276 0.00127 -0.020724656
0.008538723 -0.00127 -0.020508219
0.0018374467 0.00080818182 -0.020075342
-0.003999149 -0.00034636364 -0.0027602739
-0.0057285107 0.00057727273 -0.019426027
-0.011348936 0.00034636364 -0.009902739
-0.011565106 -0.00057727273 -0.019209588
0.014159149 0.00011545455 -0.015313698
-0.011348936 -0.00034636364 0.00026986309
0.013942978 0.00034636364 -0.014880821
-0.0087548932 0.00011545455 -0.02700137
0.014591489 0.0010390909 -0.019209588
-0.014375319 -0.00127 -0.00081232865
0.0059446809 0.00127 -0.00016301361
0.0024859575 0.00127 -0.001678082
0.013726808 -0.00011545455 -0.022456164
-0.011348936 -0.00034636364 -0.0036260271
0.0065931911 -0.00127 -0.020291781
-0.0011889362 0.00034636364 -0.018343834
-0.0044314894 -0.00127 -0.0023273972
-0.0035668083 -0.00011545455 -0.013582191
0.0027021277 0.00011545455 -0.021373972
-0.013294468 0.00127 -0.00016301361
0.01524 0.00034636364 -0.0021109588
0.010700425 -0.00127 -0.00037945196
-0.012213617 0.0010390909 -0.0023273972
0.003999149 0.00011545455 -0.014015068
-0.013942978 0.00011545455 -0.022456164
0.014807659 -0.0010390909 -0.001678082
-0.002053617 -0.0010390909 -0.021373972
0.014591489 0.00080818182 -0.019209588
-0.014375319 -0.00127 -0.0012452054
-0.011781276 -0.00127 -0.0012452054
0.0061608506 -0.00011545455 0.00070273981
0.0014051064 0.00127 -0.020508219
-0.003999149 -0.00011545455 -0.027217807
0.0031344679 -0.00127 -0.0014616437
-0.0022697872 0.00011545455 -0.021373972
0.010484255 0.00080818182 -0.021373972
0.0035668083 0.00034636364 -0.0057904106
0.0016212765 0.00011545455 -0.024620548
-0.002053617 0.00127 -0.00081232865
0.0057285107 0.00127 -0.0021109588
-0.0087548932 -0.00127 -0.020724656
-0.0022697872 0.00127 -0.001678082
0.0018374467 -0.0010390909 -0.021373972
0.0078902123 -0.00057727273 -0.019209588
-0.0096195741 0.00127 -0.019642465
0.003999149 -0.00057727273 -0.0023273972
0.003999149 0.00011545455 -0.007954794
0.0089710634 0.00011545455 -0.022023287
0.0068093613 0.00034636364 -0.021373972
0.012213617 0.0010390909 -0.019209588
0.0065931911 -0.00011545455 -0.013149315
-0.0033506381 0.00034636364 -0.0023273972
0.013294468 0.00127 -0.020724656
-0.015023829 0.00057727273 -0.020291781
-0.0016212765 0.00057727273 -0.021373972
-0.003999149 0.00011545455 -0.006006849
0.011565106 0.00011545455 -0.026568493
-0.003999149 0.00034636364 -0.02678493
0.0089710634 -0.00011545455 -0.024404109
0.0089710634 0.00034636364 -0.0090369862
0.008538723 -0.00127 -0.00059589033
0.0029182979 0.0010390909 -0.019642465
0.011565106 0.00034636364 -0.011417808
-0.00032425532 0.00011545455 -0.01899315
0.0055123405 -0.00127 -0.019642465
-0.0087548932 -0.00034636364 -0.012499999
-0.011781276 0.00127 -0.00016301361
0.0089710634 -0.00011545455 -0.009902739
-0.0014051064 0.00011545455 -0.018560274
0.011565106 0.00011545455 -0.01379863
0.0029182979 0.00034636364 -0.019209588
0.0089710634 -0.00011545455 -0.010552054
-0.0035668083 -0.00034636364 -0.017910959
0.012429787 -0.00127 -0.001028767
-0.0083225528 -0.00080818182 -0.00016301361
-0.012862127 0.00127 -0.0021109588
-0.013942978 -0.00011545455 -0.0044917804
-0.0087548932 -0.0010390909 -0.00016301361
0.012862127 -0.00127 -0.0021109588
-0.0089710634 0.00011545455 -0.011850685
0.0035668083 0.00034636364 -0.009902739
0.011348936 0.0010390909 -0.00016301361
-0.0063770209 0.00034636364 -0.024404109
0.0024859575 0.00011545455 -0.00016301361
-0.0046476596 -0.00034636364 -0.0023273972
0.01524 0.00034636364 -0.00081232865
0.0011889362 -0.00034636364 -0.017045205
-0.0065931911 0.00011545455 -0.0044917804
-0.014375319 -0.00034636364 -0.021373972
0.0027021277 -0.00127 -0.021157533
-0.0098357443 -0.00057727273 -0.0023273972
-0.013294468 0.00011545455 -0.00016301361
-0.0057285107 0.0010390909 -0.00016301361
0.0063770209 -0.0010390909 -0.019426027
0.0018374467 -0.0010390909 -0.019858904
-0.013942978 -0.00011545455 -0.026352054
-0.0014051064 0.00034636364 0.00048630143
0.0057285107 -0.00127 -0.0018945204
0.0063770209 0.00034636364 -0.0064397259
0.011565106 0.00011545455 -0.0083876709
0.012213617 0.00034636364 -0.00016301361
0.0057285107 0.00127 -0.0023273972
0.014159149 -0.00011545455 -0.012067123
0.013942978 0.00034636364 -0.0075219176
-0.003999149 0.00034636364 -0.016395889
0.003999149 -0.00011545455 0.0024342467
-0.0011889362 0.00034636364 -0.024620548
0.0059446809 -0.00127 -0.00016301361
-0.011997446 -0.00127 -0.021373972
0.003999149 -0.00034636364 -0.026568493
-0.0065931911 0.00011545455 -0.023321917
-0.015023829 0.0010390909 -0.019858904
-0.014159149 -0.00011545455 -0.02288904
-0.008538723 -0.00057727273 -0.00037945196
0.0061608506 0.00011545455 -0.016612329
0.0014051064 -0.00034636364 -0.010768493
-0.0055123405 -0.0010390909 -0.00016301361
0.003999149 -0.00011545455 -0.018343834
0.00097276591 0.00034636364 -0.0096863015
-0.0089710634 -0.00011545455 -0.014880821
-0.013726808 0.00011545455 0.0022178083
0.0074578719 -0.00127 -0.0023273972
-0.0076740421 0.0010390909 -0.019426027
-0.0072417017 -0.00011545455 -0.019209588
0.0057285107 -0.00127 -0.001678082
-0.0001080851 0.00127 -0.0012452054
0.0061608506 -0.00011545455 -0.012067123
0.011997446 -0.00127 -0.020291781
-0.011565106 -0.00034636364 -0.01509726
-0.013726808 -0.00127 -0.00037945196
-0.012429787 -0.00127 -0.0023273972
-0.011348936 -0.00127 -0.020508219
-0.0063770209 0.00034636364 0.0015684932
-0.0083225528 0.00034636364 -0.021373972
0.0061608506 0.00011545455 -0.004058904
0.0061608506 -0.00011545455 -0.025053425
-0.014591489 0.00034636364 -0.019209588
-0.013294468 -0.00127 -0.001678082
0.010268085 -0.00127 -0.00081232865
-0.011348936 0.00034636364 -0.0073054791
-0.0014051064 -0.00034636364 -0.023538355
0.0046476596 -0.00127 -0.0018945204
0.0089710634 -0.00011545455 -0.014231507
-0.0022697872 0.00127 -0.00037945196
-0.012429787 0.00127 -0.00037945196
0.0065931911 0.00011545455 -0.015963012
0.0014051064 -0.00034636364 -0.014015068
-0.011565106 -0.00034636364 -0.014015068
0.008538723 0.00080818182 -0.00016301361
0.013294468 0.00080818182 -0.0023273972
-0.0063770209 -0.00127 -0.021373972
-0.0089710634 0.00034636364 0.00070273981
-0.010051914 0.0010390909 -0.019209588
-0.013726808 0.00011545455 -0.012716438
-0.0037829785 0.00034636364 -0.004058904
-0.011132766 0.00011545455 -0.0036260271
0.0035668083 0.00011545455 -0.0055739726
0.0074578719 -0.00127 -0.00081232865
-0.0096195741 -0.00057727273 -0.0023273972
0.010484255 -0.0010390909 -0.0023273972
0.0014051064 -0.00011545455 -0.012499999
0.0037829785 -0.00127 -0.0014616437
-0.0063770209 -0.00127 -0.0023273972
-0.0087548932 0.00011545455 -0.027217807
-0.0016212765 -0.00011545455 -0.01120137
0.010916595 -0.00011545455 -0.0023273972
0.014159149 0.00011545455 -0.0254863
-0.014159149 0.0010390909 -0.019858904
0.0035668083 0.00034636364 -0.010984931
-0.008538723 -0.00011545455 -0.023971232
-0.0063770209 0.00034636364 -0.011634246
-0.0048638298 -0.0010390909 -0.019642465
-0.0089710634 0.00034636364 0.0017849315
0.0070255315 0.00127 -0.021373972
-0.0089710634 -0.00011545455 0.0020013698
0.011565106 -0.00011545455 -0.010768493
-0.0061608506 -0.00011545455 -0.0029767121
-0.008538723 -0.00127 -0.020941095
-0.0035668083 -0.00127 -0.019209588
0.013294468 -0.00127 -0.019858904
-0.0063770209 -0.00034636364 -0.022672603
0.00097276591 0.00034636364 -0.011417808
-0.013726808 -0.00034636364 -0.00016301361
0.0001080851 0.0010390909 -0.019642465
-0.003999149 -0.00034636364 -0.0034095889
-0.014159149 -0.00011545455 -0.025269862
-0.013726808 0.00011545455 0.0024342467
0.0059446809 -0.0010390909 -0.019209588
0.0016212765 -0.00080818182 -0.00016301361
0.008538723 -0.00127 -0.021157533
-0.0035668083 0.00011545455 0.0015684932
-0.00075659569 0.00057727273 -0.019209588
-0.003999149 0.00011545455 -0.004058904
-0.0001080851 -0.00127 -0.00081232865
-0.008538723 -0.0010390909 -0.021373972
0.011565106 -0.00057727273 -0.019209588
-0.013942978 -0.00034636364 -0.022023287
0.0087548932 -0.00127 -0.00081232865
0.0072417017 0.00127 -0.0023273972
0.011348936 0.00034636364 -0.026568493
0.0063770209 0.00034636364 -0.0055739726
-0.0070255315 0.00057727273 -0.0023273972
0.013294468 -0.00011545455 -0.00016301361
-0.0083225528 0.00057727273 -0.00037945196
0.010700425 -0.00057727273 -0.021373972
0.003999149 0.00034636364 -0.02288904
0.00054042554 -0.00080818182 -0.0023273972
0.0063770209 -0.00034636364 -0.023538355
0.0052961702 -0.00127 -0.020291781
-0.0063770209 -0.00034636364 -0.0036260271
0.011132766 0.00057727273 -0.0023273972
-0.0061608506 0.00011545455 -0.011634246
0.0087548932 -0.00011545455 -0.015963012
-0.0042153192 -0.00034636364 -0.021373972
-0.015023829 0.00034636364 -0.0014616437
0.0014051064 -0.00011545455 -0.02288904
-0.0016212765 -0.00011545455 -0.017910959
-0.00097276591 -0.00127 -0.020508219
-0.0089710634 -0.00011545455 -0.007738356
0.0027021277 0.00127 -0.00016301361
0.013510638 -0.00057727273 -0.00037945196
0.0063770209 -0.00034636364 -0.012932876
-0.0035668083 0.00034636364 -0.00016301361
0.0061608506 -0.00127 -0.00037945196
0.0011889362 0.00034636364 -0.021806849
-0.011565106 -0.00034636364 -0.022239726
-0.0035668083 -0.00011545455 -0.025919177
0.011997446 0.00127 -0.020075342
-0.003999149 0.00034636364 -0.013149315
0.013942978 -0.00011545455 -0.024404109
-0.0029182979 -0.00127 -0.019209588
-0.0068093613 0.00011545455 -0.019209588
-0.013942978 -0.00034636364 -0.0096863015
0.0091872336 -0.0010390909 -0.019209588
0.0094034038 0.00011545455 -0.0023273972
-0.015023829 0.00080818182 -0.020724656
-0.014159149 0.00127 -0.0021109588
0.011132766 0.00011545455 -0.0029767121
-0.015023829 0.00011545455 -0.00081232865
0.003999149 -0.00011545455 -0.0053575342
-0.013942978 0.0010390909 -0.019642465
-0.013294468 -0.00127 -0.021157533
-0.011348936 -0.00034636364 5.3424741e-05
-0.003999149 0.00011545455 -0.0254863
0.013726808 -0.00127 -0.020724656
0.0087548932 -0.00034636364 -0.0096863015
0.003999149 -0.00034636364 -0.018127397
-0.0035668083 0.00127 -0.021373972
-0.0087548932 -0.00034636364 0.0017849315
-0.0027021277 -0.00034636364 -0.0023273972
0.011997446 -0.00034636364 -0.00016301361
0.013726808 0.00011545455 -0.025053425
-0.00097276591 -0.00011545455 -0.0083876709
-0.0046476596 0.00127 -0.020508219
-0.011132766 -0.00011545455 -0.0088205477
-0.0035668083 0.00011545455 0.0013520549
-0.0061608506 0.00011545455 -0.024404109
0.0035668083 0.00011545455 -0.0027602739
-0.0014051064 0.00011545455 -0.0051410957
0.00097276591 0.00034636364 -0.012932876
0.0063770209 -0.00034636364 0.00091917813
-0.00097276591 -0.00011545455 -0.025702739
-0.0081063826 -0.00057727273 -0.00037945196
-0.0052961702 -0.00127 -0.0018945204
-0.0016212765 -0.00127 -0.0023273972
-0.0014051064 -0.00034636364 0.00026986309
0.010051914 -0.0010390909 -0.00016301361
0.011565106 0.00011545455 -0.007954794
0.012429787 -0.00127 -0.020941095
-0.0037829785 -0.00034636364 -0.025053425
-0.011565106 -0.00034636364 -0.021806849
0.0089710634 0.00034636364 -0.0047082189
-0.0087548932 0.00034636364 -0.018343834
0.011348936 -0.00034636364 -0.02159041
-0.013726808 -0.00057727273 -0.021373972
-0.013726808 0.00011545455 0.00048630143
-0.014159149 -0.00011545455 -0.0075219176
-0.014159149 0.00011545455 -0.013149315
0.0070255315 -0.0010390909 -0.019209588
-0.012862127 -0.00127 -0.00016301361
-0.0089710634 -0.00011545455 -0.01769452
-0.0035668083 -0.00034636364 -0.0027602739
-0.0063770209 -0.00127 -0.019858904
-0.013294468 0.0010390909 -0.019426027
0.0061608506 -0.00011545455 -0.018776711
-0.0065931911 0.00127 -0.0014616437
0.00097276591 0.00011545455 -0.0086041093
-0.0089710634 0.00011545455 -0.027434247
-0.0083225528 -0.00127 -0.020508219
0.014159149 -0.0010390909 -0.0012452054
-0.0035668083 -0.00127 -0.001028767
-0.0068093613 -0.00127 -0.0014616437
0.011565106 0.00034636364 -0.010119177
0.0016212765 0.00011545455 -0.018127397
-0.0046476596 0.00057727273 -0.00037945196
-0.0061608506 -0.00080818182 -0.021373972
0.003999149 -0.00034636364 -0.0027602739
-0.0089710634 -0.00034636364 0.0024342467
-0.015023829 -0.00011545455 -0.0023273972
-0.0016212765 -0.00011545455 -0.006006849
0.015023829 0.00080818182 -0.00081232865
0.003999149 0.00011545455 -0.0070890407
-0.0011889362 0.00011545455 0.0017849315
-0.010268085 0.00080818182 -0.019209588
-0.00097276591 0.00011545455 -0.0027602739
0.0072417017 -0.00127 -0.001028767
0.0059446809 -0.00011545455 -0.0023273972
-0.0063770209 0.00034636364 -0.009902739
0.014591489 0.0010390909 -0.019642465
0.0078902123 0.00127 -0.019858904
-0.0061608506 -0.00011545455 -0.016828766
-0.010484255 -0.00127 -0.019642465
0.0089710634 0.00011545455 -0.0090369862
0.014159149 -0.00011545455 -0.004058904
-0.0089710634 -0.00127 -0.020508219
-0.0014051064 -0.00057727273 -0.019642465
0.0081063826 -0.00127 -0.0012452054
-0.0087548932 0.00011545455 -0.013365753
0.0087548932 0.00011545455 -0.01120137
-0.0068093613 -0.00011545455 -0.00016301361
-0.011132766 -0.00011545455 -0.0081712324
0.0087548932 0.00011545455 -0.004058904
-0.0063770209 -0.00034636364 -0.01899315
-0.0065931911 -0.00011545455 -0.006006849
0.0087548932 -0.00011545455 -0.026568493
0.0001080851 0.00127 -0.0012452054
-0.0061608506 -0.00011545455 -0.007954794
-0.010484255 0.0010390909 -0.021373972
-0.0014051064 -0.00034636364 -0.012716438
-0.012645957 0.0010390909 -0.0023273972
0.0035668083 0.00011545455 -0.016612329
-0.0048638298 -0.00080818182 -0.019642465
-0.00075659569 0.00127 -0.019858904
-0.011348936 0.00034636364 -0.013582191
-0.0046476596 0.00127 -0.0018945204
-0.013942978 0.00080818182 -0.0023273972
0.0098357443 -0.00011545455 -0.019209588
-0.002053617 0.00127 -0.0023273972
0.012645957 0.00127 -0.020291781
0.0087548932 0.00034636364 -0.012067123
0.014159149 0.00011545455 -0.01379863
-0.0035668083 0.00011545455 -0.0068726023
-0.003999149 -0.00127 -0.020075342
0.00054042554 0.00057727273 -0.021373972
-0.013942978 -0.00034636364 -0.021806849
0.011348936 0.00011545455 -0.015963012
-0.0061608506 -0.00127 -0.0014616437
-0.0061608506 0.00011545455 0.0011356164
0.0048638298 -0.00127 -0.019858904
0.003999149 -0.00011545455 -0.013582191
0.0022697872 0.0010390909 -0.0023273972
-0.0037829785 -0.00057727273 -0.02159041
-0.0027021277 -0.00127 -0.00059589033
