# .PCD v0.7 - Point Cloud Data file format
VERSION 0.7
FIELDS x y z
SIZE 4 4 4
TYPE F F F
COUNT 1 1 1
WIDTH 1414
HEIGHT 1
VIEWPOINT 0 0 0 1 0 0 0
POINTS 1414
DATA ascii
-0.033556223 0.00042333335 -0.033824779
0.010230555 0 -0.014242478
-0.015141222 0.00084666669 -0.035456635
-0.030282443 0 -0.0064911502
-0.0094121108 -0.00127 -0.034232743
0.027008666 -0.00042333335 -0.0024115043
-0.028645555 -0.00127 -0.035048671
-0.015550444 0 -0.028521238
-0.025371777 0 -0.032192919
-0.016778111 0.00127 -0.035456635
-0.030691667 -0.00127 -0.0015955751
-0.030691667 0 -0.040760174
-0.007775222 0 -0.021177875
0 0.00084666669 -0.0024115043
-0.035602335 0 -0.0056752209
0.012685888 0.00042333335 -0.036680531
0.032737777 -0.00127 -0.035048671
0.032737777 0.00084666669 -0.035456635
-0.0024553332 0 -0.038720354
-0.016778111 0 -0.033416815
0.0057291109 -0.00127 -0.0015955751
0.0053198887 -0.00127 -0.034640707
-0.0090028886 0.00084666669 -0.0024115043
-0.010230555 -0.00042333335 -0.00037168135
-0.018005777 0.00127 -0.034232743
0.031100888 -0.00127 -0.034640707
0.030691667 -0.00127 -0.035456635
0.022916444 0 -0.011386725
0 0.00127 -0.0011876106
-0.020051889 0 -0.025257522
0.00040922221 0.00127 -0.0020035398
-0.018824222 -0.00127 -0.0020035398
-0.035602335 0 -0.029745132
-0.020051889 0 -0.041168142
0.035602335 0 -0.0048592919
0.034783889 0.00127 -0.033824779
-0.02782711 0 -0.0048592919
-0.035602335 0 -0.041576106
0.0090028886 -0.00127 -0.0024115043
0.0085936664 -0.00127 -0.0020035398
0.032737777 -0.00042333335 -0.033824779
-0.018415 0.00127 -0.035048671
0.016368888 -0.00127 -0.035456635
0.012685888 -0.00042333335 -0.036680531
-0.010230555 0.00042333335 -0.030969026
0.036011554 -0.00084666669 -0.00077964592
-0.02782711 0.00127 -0.034640707
-0.026599444 -0.00042333335 -0.033416815
-0.019233445 0.00127 -0.035456635
0.021688778 0.00084666669 -0.034640707
0.033147 0 -0.028113274
0.017596556 0 -0.024033628
-0.0049106665 0 -0.019546017
0.015550444 0 -0.015058407
-0.021688778 0.00084666669 -0.0020035398
0.02046111 0 -0.0081230085
-0.030282443 0.00084666669 -0.033824779
-0.010230555 0 -0.018322123
-0.033147 0 -0.036680531
0.015141222 0.00084666669 -0.00037168135
-0.030691667 0 -0.041576106
0.018005777 -0.00127 -0.0015955751
-0.0024553332 0 -0.024441592
-0.013913555 -0.00127 -0.0024115043
-0.033147 0 -0.019138053
0.032737777 0 -0.017506195
0.015959667 -0.00084666669 -0.00037168135
-0.02782711 0 -0.002819469
0.0053198887 -0.00084666669 -0.035048671
-0.0012276666 0.00084666669 -0.033824779
0.014731999 -0.00084666669 -0.033824779
-0.034783889 -0.00127 -0.033824779
-0.030691667 0 -0.014650442
-0.0065475553 0.00127 -0.034232743
0.0081844442 0.00127 -0.00037168135
-0.013913555 -0.00127 -0.00037168135
0.030691667 0 -0.019953981
0.012685888 0 -0.030969026
-0.0061383331 0.00127 -0.0020035398
-0.012685888 0.00042333335 -0.035456635
-0.012685888 0 -0.019953981
-0.013095111 0.00042333335 -0.033416815
-0.0073659997 0 -0.015058407
-0.010639777 0.00127 -0.0020035398
0.0040922221 -0.00127 -0.0015955751
-0.015141222 -0.00127 -0.00077964592
0.015141222 0.00084666669 -0.034640707
0.0061383331 -0.00127 -0.00077964592
0.026599444 -0.00127 -0.033824779
-0.018005777 0.00127 -0.0020035398
-0.0069567775 -0.00084666669 -0.035456635
0.014731999 -0.00127 -0.0024115043
0.034374665 0 -0.035864603
-0.020870334 -0.00084666669 -0.034640707
-0.027008666 0 -0.033416815
0.0024553332 0 -0.012202655
0 0 -0.019138053
-0.024144111 0.00127 -0.035048671
-0.022916444 0 -0.016690265
-0.013913555 0.00084666669 -0.035048671
-0.010230555 0 -0.030969026
-0.019642666 -0.00084666669 -0.035456635
0.028236333 -0.00084666669 -0.00037168135
0.024962556 -0.00042333335 -0.0024115043
0.033965442 -0.00127 -0.034640707
-0.034783889 0 -0.035456635
0.011458222 -0.00127 -0.00037168135
0.0036829999 0 -0.033824779
0.02782711 0.00084666669 -0.0024115043
0.030282443 0.00127 -0.0015955751
0.010230555 0 -0.002819469
0.033147 0 -0.0048592919
0.007775222 -0.00127 -0.035456635
0.017187333 0.00084666669 -0.00037168135
-0.0085936664 0.00127 -0.00077964592
0.017596556 0 -0.010570796
0.012685888 0 -0.02607345
0.017187333 -0.00042333335 -0.034232743
0.035602335 0 -0.023625663
0.0016368888 0.00127 -0.0015955751
0.015550444 0 -0.014242478
0.023734888 -0.00042333335 -0.034232743
0.00040922221 -0.00084666669 -0.033416815
-0.017187333 -0.00042333335 -0.035864603
-0.022916444 0 -0.021585841
0.0057291109 -0.00127 -0.00037168135
-0.0024553332 -0.00127 -0.035048671
0.018005777 0 -0.019138053
-0.018005777 0 -0.035864603
0.0024553332 0.00042333335 -0.032600883
-0.028645555 0 -0.00037168135
0.011867444 -0.00127 -0.00037168135
0.015141222 -0.00084666669 -0.035456635
-0.0036829999 0.00084666669 -0.033824779
-0.00081844442 -0.00042333335 -0.0024115043
-0.018005777 0 -0.017914159
-0.00040922221 0.00127 -0.033824779
-0.028645555 -0.00127 -0.033824779
-0.035602335 -0.00127 -0.034232743
0.0024553332 -0.00084666669 -0.00037168135
0.018005777 0 -0.036680531
0.018824222 0.00042333335 -0.033824779
-0.0061383331 -0.00127 -0.035456635
-0.026190221 0.00127 -0.034640707
0.018005777 0 -0.022809735
-0.025371777 0 -0.025665486
0.030691667 0 -0.02770531
-0.015141222 0 -0.021177875
-0.013504333 -0.00127 -0.034232743
-0.030282443 0 -0.013426549
0.015141222 0 -0.019138053
0.0053198887 0 -0.029745132
0.036011554 0.00127 -0.00037168135
-0.012685888 0 -0.020361947
-0.017187333 0.00127 -0.034640707
0.035193112 0 -0.00037168135
-0.0073659997 0 -0.031784955
0.029873222 -0.00084666669 -0.035456635
-0.0049106665 -0.00042333335 -0.030153098
0.015141222 0.00042333335 -0.030153098
0.032737777 0 -0.02770531
0.010230555 -0.00127 -0.034640707
0.018824222 0 -0.0024115043
0.017596556 0.00127 -0.035048671
0.0053198887 0 -0.041168142
-0.027417889 0.00042333335 -0.033824779
0.023325667 -0.00084666669 -0.0024115043
-0.035602335 0.00127 -0.00077964592
0.0053198887 0 -0.013426549
0.00081844442 0.00084666669 -0.00037168135
0 0 -0.015466372
0.033147 0 -0.0081230085
-0.015141222 0 -0.0089389374
-0.0024553332 0 -0.0044513275
0.015141222 0.00042333335 -0.041168142
-0.02046111 0 -0.038720354
0.0061383331 -0.00084666669 -0.035048671
0.0057291109 -0.00042333335 -0.035864603
0.030691667 0 -0.01179469
0.0012276666 0.00084666669 -0.035456635
0.016368888 0 -0.0024115043
0.010230555 0 -0.037088495
-0.0053198887 0 -0.023217699
-0.019642666 0.00127 -0.035048671
0.026599444 -0.00127 -0.00077964592
-0.010639777 -0.00127 -0.034640707
0.015959667 0.00042333335 -0.034640707
-0.0049106665 0 -0.022401769
0.02782711 0.00084666669 -0.033416815
0.017187333 -0.00127 -0.00037168135
-0.033147 0 -0.015466372
-0.030691667 0 -0.041168142
-0.011049 -0.00127 -0.0011876106
-0.007775222 0 -0.028113274
0.025781 -0.00127 -0.0020035398
0.033147 -0.00084666669 -0.00037168135
-0.012276666 -0.00042333335 -0.00037168135
-0.02046111 0 -0.024441592
0.02782711 0 -0.038720354
-0.022916444 0 -0.0032274334
0.010230555 -0.00042333335 -0.031376991
-0.029054778 -0.00127 -0.035048671
-0.015550444 0 -0.031376991
0.010230555 0 -0.032192919
-0.027008666 0.00127 -0.035048671
0.017187333 -0.00084666669 -0.0024115043
0.0028645555 -0.00127 -0.00077964592
-0.029054778 0.00127 -0.00037168135
-0.030691667 0 0.00044424782
0.024144111 -0.00127 -0.0015955751
0.029463999 -0.00127 -0.00037168135
-0.012685888 0 -0.0056752209
0.025781 -0.00127 -0.00077964592
0.018824222 -0.00084666669 -0.0024115043
-0.010230555 0.00127 -0.0020035398
-0.023734888 0.00127 -0.00077964592
-0.02782711 0.00042333335 -0.033008847
0.0069567775 0.00042333335 -0.0024115043
0.015550444 0.00084666669 -0.035456635
-0.0094121108 -0.00042333335 -0.00037168135
0.015959667 0.00084666669 -0.033416815
-0.012685888 0.00042333335 -0.033824779
-0.025781 0 -0.0024115043
0.011458222 0.00127 -0.0024115043
-0.0016368888 -0.00084666669 -0.034232743
0.0016368888 -0.00042333335 -0.00037168135
0.032737777 0.00127 -0.035456635
-0.030691667 0 -0.022809735
0.017596556 0 -0.030153098
0.02046111 0.00042333335 -0.035864603
0.010230555 0 -0.038720354
-0.018005777 0 -0.040760174
0.02046111 -0.00127 -0.035048671
-0.011867444 0.00127 -0.00077964592
0.00081844442 0.00127 -0.0015955751
-0.010230555 0.00127 -0.034640707
0.010639777 0.00042333335 -0.033416815
0.035602335 0.00127 -0.034232743
0.0073659997 0.00127 -0.0020035398
-0.020051889 0 -0.028521238
0.0024553332 -0.00084666669 -0.0024115043
0.018005777 0 -0.0048592919
0.030282443 0 -0.014242478
-0.025371777 -0.00127 -0.033824779
0.017596556 -0.00127 -0.00077964592
-0.023325667 0.00042333335 -0.00037168135
0.028236333 -0.00127 -0.0024115043
-0.022097999 0.00127 -0.033824779
0.028236333 0.00127 -0.034640707
-0.02046111 0 -0.019953981
0.015959667 -0.00042333335 -0.034232743
0.020051889 -0.00127 -0.034640707
0.030691667 0.00127 -0.033416815
-0.033965442 0.00084666669 -0.035048671
-0.0049106665 0 -0.030561062
-0.016778111 0.00084666669 -0.033824779
-0.016368888 0.00042333335 -0.035048671
-0.025371777 0 -0.028929204
-0.018005777 0 -0.036272567
0.030691667 0 -0.013834513
0.022916444 0 -0.025257522
0.036830001 -0.00042333335 -0.033824779
0.017596556 0 -0.033008847
0.027008666 0.00127 -0.034640707
-0.015550444 0 -0.023625663
-0.0049106665 0 -0.039128318
-0.032737777 0 -0.011386725
-0.021279555 -0.00042333335 -0.00037168135
-0.012685888 0 -0.037088495
0.023325667 0.00127 -0.035048671
0.015550444 0 -0.031784955
-0.018415 -0.00084666669 -0.0020035398
-0.0057291109 0.00042333335 -0.00037168135
-0.030691667 0.00127 -0.0011876106
-0.015141222 0 -0.016690265
-0.036011554 0.00042333335 -0.035456635
-0.025371777 0 -0.027297344
0.013913555 -0.00042333335 -0.00037168135
-0.010230555 0 0.0020761061
0.017596556 0 -0.030561062
0.024962556 0 -0.033416815
-0.015141222 -0.00042333335 -0.040760174
0.010230555 0 -0.037904423
-0.020051889 -0.00084666669 -0.035048671
-0.015550444 0 -0.021585841
-0.009821333 -0.00127 -0.00037168135
0.035602335 0 -0.0036353981
0.027417889 -0.00042333335 -0.0024115043
0.017596556 0 -0.037088495
-0.020051889 0 0.00044424782
-0.0073659997 0 0.0020761061
0.007775222 0 -0.0060831858
-0.007775222 0 -0.03831239
-0.009821333 -0.00042333335 -0.00037168135
0.025371777 0 -0.022401769
-0.021279555 -0.00127 -0.00037168135
0.0012276666 0.00084666669 -0.00037168135
-0.011458222 0.00127 -0.0015955751
0.007775222 0 -0.036680531
-0.032737777 0 0.00085221243
0.035602335 0 -0.029745132
-0.035193112 0.00084666669 -0.033824779
0.0053198887 -0.00042333335 -0.035456635
-0.017596556 -0.00084666669 -0.035864603
0.0024553332 0 -0.015874336
0.015141222 -0.00084666669 -0.0024115043
0.02782711 0 -0.026481416
0.032328553 0.00127 -0.0024115043
0.030282443 0 -0.029745132
0.027417889 0.00127 -0.00037168135
0.0053198887 0 -0.026481416
-0.012685888 -0.00042333335 -0.0024115043
-0.036830001 0.00042333335 -0.034232743
-0.0061383331 0.00042333335 -0.034232743
-0.0024553332 0 -0.03831239
-0.023734888 0 -0.0020035398
-0.030691667 0 -0.024441592
0.0081844442 -0.00127 -0.034640707
-0.027008666 -0.00084666669 -0.034232743
-0.020870334 0 -0.035864603
0.015550444 -0.00127 -0.0011876106
0.0081844442 0.00127 -0.0015955751
-0.025371777 0 -0.031784955
0.033147 0 -0.0093469024
-0.009821333 0.00084666669 -0.035456635
-0.032737777 0 -0.0081230085
-0.011867444 0.00042333335 -0.033416815
-0.0016368888 0.00084666669 -0.035456635
0.0053198887 0 -0.022809735
-0.030282443 0 -0.023625663
-0.030691667 0 -0.032600883
-0.010230555 0.00084666669 -0.035456635
-0.012685888 -0.00127 -0.035048671
-0.010230555 0.00042333335 -0.040760174
-0.012685888 0 -0.0064911502
0.033147 0 -0.014650442
0.012685888 0 -0.011386725
0.031510111 -0.00084666669 -0.033824779
-0.0049106665 0 0.00044424782
0.0085936664 -0.00127 -0.034232743
-0.022507222 0.00042333335 -0.0024115043
0.032328553 0.00084666669 -0.0024115043
-0.029054778 0.00127 -0.033824779
-0.0040922221 -0.00042333335 -0.035456635
-0.02046111 0 0.00044424782
-0.02782711 0.00042333335 -0.032600883
0.0085936664 -0.00042333335 -0.0024115043
0 0 0.0020761061
0.031510111 0.00084666669 -0.033824779
0.00081844442 -0.00084666669 -0.00037168135
0.017596556 0.00084666669 -0.033824779
-0.013095111 -0.00084666669 -0.035456635
-0.036420777 -0.00042333335 -0.035456635
0.012685888 -0.00127 -0.00037168135
0.02782711 0.00127 -0.034232743
-0.015141222 0 0.0028920353
-0.02782711 -0.00042333335 -0.00037168135
0.007775222 0 0.0020761061
0.0036829999 0.00127 -0.033824779
0.024144111 0 -0.033416815
-0.028645555 0.00042333335 -0.033416815
-0.0049106665 0 -0.037088495
-0.031100888 0.00042333335 -0.033824779
0.014322777 0.00042333335 -0.033416815
-0.0024553332 0 -0.032192919
0.033147 0.00127 -0.035048671
-0.0090028886 -0.00127 -0.0024115043
0.0049106665 0 -0.0073070796
0.033556223 -0.00127 -0.035048671
-0.033147 0 -0.010162831
0.02046111 -0.00042333335 -0.034640707
0.0045014443 -0.00127 -0.0024115043
-0.0073659997 -0.00042333335 -0.0024115043
0.016778111 0.00127 -0.035456635
0.020051889 0 -0.010978761
0.035602335 0 -0.0060831858
-0.015550444 0 -0.010570796
0.02046111 -0.00127 -0.00077964592
-0.025371777 0.00127 -0.033824779
0.019233445 0.00084666669 -0.033416815
-0.0094121108 -0.00084666669 -0.034232743
-0.010230555 -0.00042333335 -0.033824779
0.0040922221 0 -0.033416815
0.027008666 0.00127 -0.0020035398
-0.033556223 -0.00127 -0.0015955751
-0.02782711 0 -0.04035221
0.0045014443 0 -0.0024115043
-0.0036829999 0.00084666669 -0.0024115043
-0.019233445 -0.00127 -0.0020035398
-0.012685888 0 -0.037904423
0.009821333 -0.00042333335 -0.0024115043
-0.0090028886 0.00127 -0.035456635
-0.016368888 -0.00042333335 -0.035864603
0.007775222 0 -0.041576106
-0.031100888 -0.00127 -0.0020035398
0.0053198887 0 0.00044424782
-0.012276666 0.00127 -0.034640707
0.02046111 0 -0.020769911
-0.0016368888 -0.00084666669 -0.00037168135
-0.032737777 0 -0.0032274334
0.025781 -0.00042333335 -0.034232743
0.0036829999 -0.00127 -0.0020035398
-0.035602335 0 -0.018322123
-0.0053198887 0.00042333335 -0.035864603
0.016368888 0.00127 -0.035456635
0.036011554 -0.00084666669 -0.00037168135
-0.0032737777 -0.00084666669 -0.033416815
-0.024553332 0.00127 -0.035048671
0.028236333 0.00127 -0.00037168135
-0.026599444 -0.00127 -0.00077964592
0.013504333 -0.00042333335 -0.033824779
0.007775222 0 -0.027297344
-0.032328553 -0.00127 -0.0015955751
-0.034374665 0 -0.00037168135
0.023325667 -0.00084666669 -0.00037168135
-0.032328553 -0.00084666669 -0.0024115043
-0.011867444 0.00042333335 -0.035456635
0.013504333 0 -0.033416815
0.025781 0 -0.033416815
0.012685888 0 -0.03831239
-0.0024553332 0 -0.0073070796
-0.0024553332 0 -0.028113274
0.021279555 -0.00042333335 -0.00037168135
-0.029054778 0.00084666669 -0.033416815
0.012685888 0.00042333335 -0.032192919
0.020051889 0 -0.03831239
0.030691667 0 -0.017098229
-0.010230555 0 -0.013834513
0.012685888 0 -0.0081230085
-0.02782711 0 -0.025257522
0.023325667 -0.00127 -0.0024115043
0.02782711 0 -0.010162831
-0.0073659997 0 -0.011386725
-0.018005777 0 -0.012610619
-0.011049 -0.00127 -0.034640707
-0.024553332 0.00127 -0.034232743
0.030691667 -0.00127 -0.00077964592
-0.0073659997 -0.00127 -0.035048671
-0.022916444 0 -0.0097548673
-0.024553332 0.00127 -0.0015955751
0.032737777 0.00127 -0.00037168135
-0.022916444 0 -0.012610619
0.034374665 -0.00127 -0.00077964592
0.009821333 0.00084666669 -0.035048671
-0.024553332 -0.00084666669 -0.033416815
-0.011049 0.00084666669 -0.00037168135
-0.022916444 -0.00084666669 -0.0024115043
-0.023325667 -0.00127 -0.035456635
-0.0024553332 0 -0.010978761
0.030691667 -0.00042333335 -0.0024115043
-0.017596556 0 -0.028521238
0.00081844442 0.00084666669 -0.0024115043
-0.018824222 0.00127 -0.00077964592
0.025781 0.00127 -0.00037168135
-0.017596556 0 -0.02607345
0.017187333 0.00084666669 -0.033416815
-0.0094121108 0 -0.00037168135
-0.017596556 0 -0.0064911502
-0.027417889 0.00084666669 -0.035456635
0.028645555 -0.00127 -0.00037168135
0.035193112 -0.00127 -0.00077964592
0.014322777 -0.00127 -0.00037168135
-0.0065475553 0.00127 -0.0015955751
-0.018415 -0.00127 -0.00037168135
0.013095111 0.00084666669 -0.035048671
0.024962556 0.00127 -0.0020035398
-0.027008666 0.00042333335 -0.0020035398
0.025371777 0.00127 -0.035048671
0.010230555 0 -0.010162831
0.030282443 0 -0.025665486
-0.019642666 0.00084666669 -0.00037168135
0.022097999 0.00127 -0.00077964592
-0.033147 -0.00042333335 -0.00037168135
-0.0085936664 -0.00127 -0.0020035398
-0.0036829999 0.00042333335 -0.035048671
-0.00040922221 0.00042333335 -0.0024115043
0.027008666 0 -0.035864603
-0.007775222 0 -0.024441592
-0.024144111 -0.00084666669 -0.034232743
-0.010639777 -0.00084666669 -0.00037168135
0.028236333 -0.00127 -0.00037168135
0.012685888 -0.00084666669 -0.0024115043
0.025371777 0.00127 -0.034232743
-0.021279555 0.00127 -0.0011876106
-0.012685888 0 -0.027297344
-0.015141222 0 -0.0073070796
0.031919334 -0.00084666669 -0.035456635
-0.0024553332 -0.00127 -0.0011876106
-0.009821333 0.00042333335 -0.033824779
0.0040922221 0.00084666669 -0.00037168135
0.025781 0.00127 -0.034640707
0.020870334 -0.00127 -0.035456635
-0.022507222 -0.00127 -0.0020035398
0.029054778 0.00084666669 -0.035456635
0.022097999 0 -0.00037168135
0.034783889 0.00084666669 -0.033824779
-0.015550444 0 -0.0044513275
-0.026599444 0.00042333335 -0.0024115043
-0.016368888 0.00084666669 -0.0020035398
0.0036829999 -0.00127 -0.035456635
-0.032737777 0 -0.040760174
-0.016778111 -0.00084666669 -0.0024115043
-0.02782711 -0.00127 -0.0020035398
0.0024553332 0 -0.023217699
-0.012685888 0.00084666669 -0.00037168135
0.0053198887 0 -0.03831239
0.011458222 -0.00127 -0.00077964592
0.02782711 0 -0.018730087
0.012685888 0.00042333335 -0.031784955
-0.026599444 0.00084666669 -0.0024115043
-0.033556223 -0.00127 -0.034232743
-0.016368888 0.00084666669 -0.033824779
0.030282443 -0.00127 -0.0015955751
0.014731999 -0.00084666669 -0.00037168135
-0.031100888 -0.00084666669 -0.00037168135
-0.017596556 0 -0.018322123
-0.007775222 0.00127 -0.0015955751
0.031919334 0.00084666669 -0.034640707
-0.019642666 0.00084666669 -0.035048671
-0.022507222 -0.00084666669 -0.033824779
0.007775222 0 -0.0040433626
0.016368888 -0.00084666669 -0.00037168135
0.035602335 -0.00042333335 -0.00037168135
-0.011049 0 -0.035864603
0 -0.00084666669 -0.033416815
-0.014731999 -0.00084666669 -0.034640707
0.007775222 0 0.00044424782
0.0016368888 -0.00127 -0.035048671
-0.030282443 0.00042333335 -0.0024115043
-0.035193112 -0.00042333335 -0.035456635
-0.030691667 0 -0.019953981
-0.032328553 -0.00127 -0.0020035398
0.012685888 0.00042333335 -0.037088495
0.0073659997 -0.00084666669 -0.035456635
-0.009821333 0.00127 -0.035048671
0.030282443 -0.00127 -0.035456635
0.010230555 -0.00127 -0.00077964592
-0.021688778 0.00042333335 -0.033824779
-0.013095111 -0.00127 -0.0015955751
-0.0085936664 -0.00127 -0.00037168135
-0.0024553332 0 -0.018730087
-0.018005777 -0.00042333335 -0.033824779
0.016778111 0.00042333335 -0.034640707
0.0012276666 0.00084666669 -0.0024115043
-0.014322777 0.00127 -0.0024115043
-0.031510111 0.00084666669 -0.033824779
-0.025781 -0.00127 -0.034232743
0.012685888 -0.00127 -0.00077964592
0.013095111 0.00084666669 -0.034640707
0.0040922221 0.00127 -0.0020035398
-0.010639777 -0.00042333335 -0.034232743
-0.032737777 0 -0.028521238
-0.0024553332 0 -0.013426549
0.018415 0.00127 -0.0011876106
-0.013095111 0.00127 -0.00077964592
0.020051889 0.00127 -0.0024115043
-0.0073659997 0.00127 -0.035456635
-0.025371777 0 0.0016681416
0.028645555 -0.00042333335 -0.033824779
-0.011867444 0.00127 -0.034232743
-0.034783889 -0.00127 -0.034232743
-0.0053198887 0 -0.024033628
0.018005777 0.00042333335 -0.033416815
-0.014322777 -0.00127 -0.0024115043
0.02046111 0 -0.017098229
-0.036011554 -0.00127 -0.00037168135
0.032328553 0.00084666669 -0.034640707
-0.00081844442 0.00127 -0.00037168135
-0.015550444 -0.00042333335 -0.00037168135
-0.033147 0.00127 -0.0020035398
0.0049106665 0 -0.015874336
0.0028645555 0.00127 -0.034232743
0.018415 0.00084666669 -0.035048671
0.021688778 0.00127 -0.0015955751
0.024962556 0.00127 -0.0024115043
0.015141222 0 -0.032600883
-0.021688778 -0.00127 -0.0011876106
0.031510111 0.00127 -0.035456635
0.009821333 0.00127 -0.0024115043
-0.035193112 0.00127 -0.00077964592
0.007775222 0 -0.025665486
-0.029463999 -0.00084666669 -0.033416815
-0.011867444 -0.00127 -0.0015955751
0.024144111 -0.00042333335 -0.033824779
-0.015959667 -0.00042333335 -0.033416815
0.0053198887 0 -0.037496459
-0.0045014443 -0.00127 -0.0011876106
0.0049106665 0 -0.02688938
0.0028645555 0.00127 -0.035456635
0.023734888 -0.00084666669 -0.035456635
-0.026190221 0.00127 -0.035456635
-0.011867444 0.00127 -0.0011876106
0.0053198887 0 -0.038720354
0.022916444 0 0.001260177
0.024144111 -0.00042333335 -0.035456635
0.009821333 -0.00084666669 -0.034232743
0.016778111 0.00042333335 -0.00037168135
-0.0053198887 0 -0.012202655
0.027008666 -0.00127 -0.0015955751
-0.030691667 -0.00127 -0.00037168135
0.007775222 0 -0.033008847
-0.0024553332 -0.00084666669 -0.033416815
-0.015141222 0 -0.012610619
0.034374665 0.00127 -0.00077964592
-0.021279555 -0.00127 -0.035456635
-0.015141222 0 -0.02607345
-0.02046111 0.00127 -0.0020035398
0.0016368888 0 -0.035864603
0.019642666 0.00084666669 -0.033824779
0.015141222 0.00084666669 -0.0024115043
0.0057291109 0.00084666669 -0.034640707
0.015141222 0 -0.022401769
-0.031919334 0.00042333335 -0.0024115043
-0.032737777 0.00084666669 -0.035456635
-0.010230555 -0.00127 -0.0015955751
0.030282443 -0.00127 -0.0011876106
0.015550444 0 -0.0068991147
-0.027008666 -0.00127 -0.0024115043
-0.010230555 0.00042333335 -0.031376991
0.0024553332 0 -0.036272567
0.018005777 0 -0.030561062
0.018005777 -0.00084666669 -0.035048671
0.026190221 -0.00127 -0.00077964592
0.010230555 0 -0.0060831858
-0.018415 0.00084666669 -0.0020035398
0.0028645555 0.00042333335 -0.033416815
-0.0073659997 0 -0.0040433626
0.022916444 0.00084666669 -0.00037168135
0.014731999 0.00084666669 -0.00037168135
0.0053198887 0 -0.0089389374
0.013095111 0.00127 -0.00077964592
-0.032737777 0 -0.010162831
0.0094121108 0.00127 -0.0015955751
-0.0090028886 -0.00127 -0.0015955751
0.020051889 0 -0.013834513
-0.035602335 0 -0.020361947
0.02782711 0 -0.0056752209
-0.032737777 0 -0.033008847
0.020051889 0 -0.037496459
-0.010230555 0 -0.030153098
0.010230555 0.00084666669 -0.035048671
0.033147 0 -0.027297344
-0.012276666 -0.00127 -0.034640707
0.010230555 0 -0.015466372
-0.018415 -0.00042333335 -0.0020035398
0.025371777 0.00042333335 -0.00037168135
-0.033147 0.00042333335 -0.033416815
0 -0.00042333335 -0.031784955
-0.020051889 0 0.0024840708
0.015550444 -0.00042333335 -0.00037168135
0.015550444 0 -0.020361947
0.0053198887 0 -0.015058407
-0.026190221 -0.00127 -0.0020035398
-0.016778111 0.00084666669 -0.034640707
-0.010230555 0 -0.028929204
0.030691667 -0.00084666669 -0.00037168135
-0.026190221 -0.00042333335 -0.00037168135
-0.016778111 -0.00042333335 -0.033824779
-0.018005777 0 -0.022809735
0.0016368888 0.00084666669 -0.033416815
-0.013504333 0.00127 -0.034640707
-0.035602335 0 -0.016282301
-0.032737777 0 -0.028113274
0.022916444 0 -0.029337168
0.0032737777 0.00127 -0.035456635
0.035602335 0 -0.04198407
0.036011554 0 -0.033416815
-0.0028645555 -0.00127 -0.00037168135
-0.00040922221 0.00127 -0.00077964592
-0.030691667 -0.00127 -0.033824779
-0.024144111 0.00042333335 -0.0020035398
0.02782711 -0.00084666669 -0.034232743
0.030282443 0 -0.038720354
-0.015550444 0.00084666669 -0.034232743
0.035193112 0.00084666669 -0.034232743
-0.033147 0 -0.039944246
0.013913555 -0.00127 -0.0011876106
0.019642666 0.00042333335 -0.00037168135
-0.035193112 -0.00127 -0.034232743
-0.022916444 0 -0.019546017
0.033147 0 0.0024840708
-0.0012276666 -0.00127 -0.0020035398
-0.020051889 0 -0.029745132
-0.030691667 0 3.6283243e-05
-0.0040922221 0.00084666669 -0.0024115043
-0.0045014443 0 -0.00037168135
-0.015959667 -0.00127 -0.035048671
0.014322777 -0.00042333335 -0.033416815
-0.017187333 0 -0.033416815
-0.027008666 -0.00127 -0.0015955751
-0.022097999 -0.00042333335 -0.033416815
-0.020870334 -0.00042333335 -0.035864603
0.0049106665 0 -0.024033628
-0.0053198887 0 -0.039536282
-0.0016368888 -0.00042333335 -0.033416815
-0.00040922221 0.00084666669 -0.033416815
0.030282443 0 -0.030561062
-0.033147 -0.00127 -0.00077964592
-0.017596556 0 -0.023625663
-0.0053198887 0 -0.030153098
0.025781 -0.00127 -0.034640707
0.0090028886 -0.00127 -0.035048671
-0.0053198887 0 -0.025257522
0.0049106665 0.00042333335 -0.035864603
0.02046111 0 -0.030969026
0.030691667 0 -0.0068991147
-0.010639777 0.00042333335 -0.00037168135
0 0 0.0028920353
-0.022507222 0.00084666669 -0.033824779
-0.024962556 0.00127 -0.033824779
-0.024144111 0.00127 -0.035456635
0.025371777 0 -0.04035221
0.0045014443 0.00127 -0.0020035398
-0.0061383331 0.00127 -0.00037168135
0.00081844442 -0.00084666669 -0.0024115043
0.013504333 0.00127 -0.035456635
-0.025371777 0 -0.014242478
-0.031510111 0.00127 -0.00077964592
-0.0053198887 0 0.001260177
0.0049106665 0 -0.037904423
-0.016368888 -0.00042333335 -0.00037168135
0.020870334 0.00084666669 -0.0024115043
0.023734888 0.00127 -0.0015955751
-0.021279555 -0.00084666669 -0.034232743
-0.032737777 0 0.0024840708
-0.0073659997 0 -0.02607345
0.020051889 0 -0.0068991147
-0.029873222 0.00042333335 -0.033416815
-0.011049 0 -0.00037168135
-0.026190221 -0.00127 -0.033824779
-0.036420777 0 -0.0020035398
0.0024553332 0.00042333335 -0.037496459
0.011458222 0.00127 -0.00037168135
0.036830001 0 -0.0020035398
0.025371777 -0.00127 -0.00077964592
0.014322777 0.00084666669 -0.00037168135
0.0061383331 -0.00084666669 -0.00037168135
-0.0024553332 0 -0.030561062
0.021688778 0.00084666669 -0.033824779
0.02046111 0.00084666669 -0.033824779
0.030282443 0 -0.012610619
0.0024553332 -0.00127 -0.035048671
-0.0065475553 0.00127 -0.034640707
-0.029873222 -0.00084666669 -0.00037168135
0.0069567775 0.00084666669 -0.035456635
-0.028645555 -0.00042333335 -0.033416815
-0.007775222 0.00084666669 -0.033824779
0.021688778 -0.00127 -0.035456635
0.0081844442 -0.00127 -0.0015955751
0.022916444 0 -0.028929204
-0.024553332 0.00084666669 -0.034640707
0.02782711 -0.00084666669 -0.0024115043
0.027417889 -0.00084666669 -0.0024115043
0.022507222 0.00042333335 -0.035864603
0.0045014443 0.00084666669 -0.034232743
0.019233445 0.00084666669 -0.0024115043
-0.0049106665 0.00042333335 -0.033416815
-0.020051889 0 0.0020761061
0.0073659997 -0.00042333335 -0.0024115043
-0.0073659997 0 -0.01179469
-0.030282443 0 -0.018322123
-0.0028645555 0.00127 -0.033824779
-0.0028645555 0.00127 -0.034232743
0.013504333 0.00084666669 -0.0024115043
0.018005777 0 -0.0097548673
-0.030691667 0 -0.015058407
-0.033147 0 -0.032192919
0.028645555 0.00127 -0.0011876106
0.019642666 0.00127 -0.0011876106
-0.0057291109 -0.00127 -0.0015955751
-0.015550444 0 -0.028113274
-0.030691667 0 -0.017098229
0 0 -0.028521238
-0.0049106665 0 -0.016690265
-0.026190221 0 -0.033416815
-0.0065475553 0 -0.033824779
-0.030282443 0 -0.032192919
0.011867444 -0.00127 -0.034640707
-0.030282443 0 -0.033008847
0 0 -0.041576106
-0.0057291109 -0.00127 -0.033824779
0.012685888 0 -0.018730087
0.033147 0 -0.020361947
0.012685888 -0.00084666669 -0.035456635
-0.015141222 0 -0.015058407
0.035602335 0 0.001260177
0.013095111 0.00042333335 -0.0024115043
0.0069567775 -0.00084666669 -0.00037168135
-0.026599444 0.00127 -0.0015955751
0.002046111 -0.00127 -0.033824779
0.030691667 0 -0.038720354
0.027417889 0.00127 -0.035048671
0.0012276666 -0.00127 -0.034640707
-0.034374665 0.00127 -0.0011876106
-0.033965442 -0.00127 -0.0015955751
0.027417889 0.00042333335 -0.0024115043
0.029873222 -0.00042333335 -0.00037168135
0.0085936664 0.00127 -0.034640707
0.025371777 0 -0.0077150441
0.019233445 -0.00084666669 -0.0024115043
0.031100888 -0.00127 -0.035456635
0.029463999 -0.00084666669 -0.035456635
-0.028236333 0.00127 -0.034640707
0.015550444 0 -0.028521238
-0.00040922221 0.00084666669 -0.035456635
0.025371777 0.00127 -0.0020035398
-0.012685888 0.00084666669 -0.035048671
0.0024553332 0.00127 -0.034640707
-0.0073659997 0 -0.029337168
0.033147 0 -0.0097548673
-0.027008666 0.00084666669 -0.035456635
0.0049106665 0 -0.0068991147
0.018005777 0 -0.002819469
0.0024553332 0.00042333335 -0.040760174
-0.012685888 -0.00084666669 -0.0024115043
0.033147 -0.00127 -0.033824779
-0.027417889 0.00127 -0.0024115043
0 0.00042333335 -0.030153098
-0.0049106665 -0.00042333335 -0.035456635
-0.0049106665 0.00127 -0.00077964592
0.0053198887 -0.00127 -0.033824779
-0.00081844442 -0.00084666669 -0.00037168135
0.02046111 0 -0.021177875
0.0016368888 0.00127 -0.00037168135
0.0028645555 -0.00042333335 -0.033416815
-0.012685888 0 -0.0073070796
-0.022916444 0 0.00085221243
0.009821333 0 -0.035864603
-0.031919334 -0.00084666669 -0.033416815
0.025371777 0 -0.028929204
-0.029463999 0.00042333335 -0.0024115043
-0.0090028886 -0.00127 -0.035048671
-0.022916444 0 -0.039944246
-0.015550444 -0.00042333335 -0.0024115043
-0.015550444 0.00042333335 -0.033416815
-0.012685888 0 -0.021585841
0.0073659997 0.00084666669 -0.033824779
0.033556223 0.00042333335 -0.0024115043
-0.0049106665 0 -0.038720354
0.015550444 0 -0.019953981
0.011867444 -0.00084666669 -0.035456635
0.007775222 0 -0.025257522
0.032737777 0 -0.039944246
-0.015141222 -0.00042333335 -0.039944246
0.0053198887 0 -0.022401769
0.012685888 0 -0.039128318
0.011867444 0.00127 -0.035456635
-0.022097999 0.00127 -0.034232743
-0.0012276666 -0.00042333335 -0.00037168135
0.017187333 0 -0.00037168135
-0.018824222 0.00042333335 -0.034640707
0.034374665 0 -0.00037168135
0.0053198887 0 -0.032192919
-0.022507222 -0.00084666669 -0.034640707
0.0024553332 0.00127 -0.0015955751
0.029463999 0 -0.033824779
-0.015550444 0.00084666669 -0.034640707
0.0094121108 0.00084666669 -0.033824779
-0.014731999 0.00042333335 -0.033824779
-0.0073659997 0 -0.039536282
0.016778111 0.00042333335 -0.0024115043
0.02782711 0 -0.020361947
-0.019233445 -0.00127 -0.00077964592
0.030691667 -0.00042333335 -0.035864603
-0.025371777 0.00042333335 -0.033824779
-0.032328553 0.00084666669 -0.0024115043
-0.015141222 0 0.0016681416
-0.0057291109 0.00084666669 -0.035456635
-0.030282443 0 -0.025257522
0.017596556 0.00127 -0.00077964592
0.012685888 0 -0.041576106
-0.018005777 0 -0.026481416
-0.026599444 -0.00127 -0.0020035398
-0.021279555 0.00127 -0.033824779
-0.015141222 -0.00042333335 -0.033008847
0.015141222 0 -0.029337168
-0.007775222 0 0.00044424782
0.033965442 -0.00127 -0.0015955751
-0.022916444 0.00127 -0.0020035398
-0.02046111 0.00127 -0.034640707
-0.0024553332 0 0.0024840708
0.014322777 -0.00127 -0.0015955751
0.0094121108 0.00042333335 -0.00037168135
0.030282443 0 -0.015466372
-0.029054778 0.00084666669 -0.035456635
-0.014322777 0.00127 -0.035048671
-0.033147 0 -0.040760174
0.032737777 0 -0.016690265
-0.018005777 0 -0.038720354
0.013504333 -0.00127 -0.00077964592
-0.031919334 0 -0.033824779
0.018005777 0 -0.0073070796
-0.0049106665 -0.00127 -0.035048671
-0.024553332 0.00084666669 -0.0024115043
-0.031919334 0.00042333335 -0.035048671
0.033965442 -0.00042333335 -0.035456635
0.0049106665 0 -0.031784955
0.034783889 0.00127 -0.00077964592
-0.010230555 0 -0.038720354
-0.009821333 -0.00127 -0.0015955751
-0.012685888 -0.00042333335 -0.037496459
0.026599444 -0.00127 -0.035048671
0.029054778 -0.00127 -0.035048671
0.015141222 0 -0.020361947
-0.027417889 -0.00084666669 -0.033824779
-0.014322777 0.00084666669 -0.033824779
0.032737777 0 -0.038720354
-0.0024553332 0 -0.016282301
0.0053198887 0 -0.0077150441
0.020051889 0 -0.026481416
-0.033556223 0 -0.0024115043
0.018005777 0 0.0020761061
-0.011867444 -0.00127 -0.035048671
0.017596556 0 -0.038720354
-0.032737777 0 -0.025665486
0.0049106665 0 -0.010978761
0.02782711 0 -0.037496459
-0.035193112 0 -0.035864603
0.02782711 0 -0.019546017
0.0049106665 -0.00127 -0.033824779
-0.015141222 0.00042333335 -0.036680531
0.025371777 0 -0.017914159
0.0090028886 -0.00084666669 -0.0024115043
0.015141222 0.00042333335 -0.029745132
-0.020870334 0.00042333335 -0.035864603
0.012685888 0 -0.010162831
0.017596556 -0.00084666669 -0.0024115043
-0.02782711 0 -0.01179469
0.0057291109 0.00084666669 -0.0024115043
0.0036829999 0.00127 -0.035048671
-0.0024553332 -0.00042333335 -0.0024115043
-0.0012276666 0.00084666669 -0.035456635
0.032737777 0.00127 -0.035048671
-0.02046111 0 -0.0081230085
0.007775222 0 -0.0036353981
-0.033556223 -0.00127 -0.035456635
-0.019233445 0 -0.0020035398
0.024553332 0.00042333335 -0.033416815
-0.024144111 -0.00084666669 -0.035864603
-0.010639777 0.00042333335 -0.035864603
0.021688778 -0.00127 -0.00077964592
-0.022916444 -0.00084666669 -0.035456635
-0.015550444 0.00127 -0.0020035398
-0.023325667 -0.00042333335 -0.0024115043
-0.018005777 0.00127 -0.0015955751
0.007775222 -0.00084666669 -0.00037168135
-0.012276666 -0.00127 -0.0015955751
0.035602335 0 0.0024840708
0.015550444 0 -0.0073070796
-0.025371777 0 0.00044424782
0.0053198887 0 0.001260177
0.0032737777 -0.00127 -0.00077964592
-0.022916444 0 0.00044424782
0.020870334 0 -0.00037168135
-0.034783889 -0.00127 -0.00077964592
0.031919334 -0.00127 -0.00037168135
0.02046111 0 -0.022809735
-0.020870334 0.00127 -0.034232743
0.0065475553 0.00127 -0.00037168135
0.032737777 0 -0.016282301
0.0049106665 0 -0.038720354
0.010230555 0 -0.01179469
0.027417889 -0.00042333335 -0.035864603
-0.030282443 0 -0.02688938
-0.0053198887 0 -0.0093469024
0 0 0.00085221243
-0.013913555 0.00084666669 -0.034232743
-0.020870334 0.00127 -0.00077964592
0.007775222 0.00127 -0.0015955751
-0.007775222 0.00127 -0.034640707
-0.032737777 0 -0.020361947
-0.0057291109 0 -0.00037168135
0.012685888 0 -0.039944246
0.033147 0 -0.016690265
0.022916444 -0.00127 -0.00037168135
-0.012685888 0.00127 -0.035456635
0.0045014443 0.00127 -0.034640707
0.009821333 -0.00127 -0.035048671
-0.002046111 0.00127 -0.035456635
0.02782711 0 -0.030561062
-0.033147 0 -0.010978761
-0.025781 0.00127 -0.034640707
-0.013913555 0.00042333335 -0.035456635
0 0 -0.016282301
-0.010230555 0 -0.012202655
0.036011554 0.00084666669 -0.00037168135
-0.0094121108 0.00127 -0.035048671
-0.0045014443 -0.00127 -0.0015955751
-0.0057291109 0.00127 -0.0015955751
-0.035193112 -0.00084666669 -0.034640707
-0.022507222 0.00127 -0.033824779
-0.015141222 0 -0.021993805
-0.029054778 0.00084666669 -0.00037168135
-0.02782711 0 -0.0052672564
-0.015141222 0 -0.04198407
-0.015959667 0.00127 -0.0020035398
0.015550444 0 -0.023217699
-0.022097999 -0.00127 -0.0015955751
-0.0049106665 0.00127 -0.035456635
0.032737777 -0.00127 -0.0020035398
-0.012685888 0.00042333335 -0.030969026
-0.00040922221 -0.00127 -0.033824779
0.036420777 0.00084666669 -0.0020035398
0.031510111 0.00084666669 -0.035456635
0.033147 0 -0.013018584
0.013913555 -0.00042333335 -0.035864603
-0.025371777 -0.00127 -0.035048671
0.011867444 -0.00127 -0.0024115043
-0.017596556 0 0.001260177
0.024144111 0 -0.00037168135
0.036011554 0.00084666669 -0.033824779
0.0049106665 -0.00042333335 -0.035456635
-0.011049 0.00127 -0.035048671
-0.0073659997 0 -0.0044513275
-0.0024553332 -0.00042333335 -0.033008847
-0.018824222 -0.00084666669 -0.035048671
-0.0016368888 0.00042333335 -0.00037168135
0.032737777 0 3.6283243e-05
0.016778111 0.00127 -0.0011876106
-0.030282443 0 -0.024441592
0.015141222 0 0.00044424782
-0.027417889 0.00042333335 -0.00037168135
-0.015141222 0 -0.040760174
0.021688778 0.00084666669 -0.035456635
0.02782711 0.00127 -0.00037168135
-0.00040922221 -0.00042333335 -0.0024115043
0.036420777 -0.00084666669 -0.00077964592
-0.035602335 0 -0.0032274334
-0.033556223 -0.00127 -0.033824779
0.022916444 0 -0.04198407
0.030282443 0 -0.024849556
-0.023734888 0 -0.033416815
-0.018824222 0.00127 -0.0015955751
0.032737777 0 -0.0024115043
0.025371777 0 -0.019953981
-0.033147 0.00127 -0.033824779
0.022097999 -0.00127 -0.035048671
0.030282443 0.00127 -0.035456635
0.032328553 0 -0.033416815
-0.030282443 0 -0.019953981
-0.033965442 -0.00127 -0.034232743
-0.022916444 0 -0.030969026
0.0024553332 0.00042333335 -0.030969026
0 -0.00084666669 -0.034640707
0.031919334 0.00127 -0.033824779
-0.0032737777 0.00042333335 -0.035048671
0.015141222 0 -0.019546017
0.02046111 0 0.00085221243
-0.022507222 0.00127 -0.034640707
0.019642666 0.00127 -0.00077964592
-0.030282443 0 0.00044424782
0.015141222 0 -0.024849556
0.036011554 0.00084666669 -0.0015955751
-0.0053198887 -0.00127 -0.00037168135
0.012685888 0 -0.002819469
0.028236333 -0.00084666669 -0.034232743
-0.0090028886 -0.00127 -0.0011876106
-0.0024553332 -0.00042333335 -0.030561062
0.0049106665 -0.00084666669 -0.0024115043
-0.021279555 -0.00127 -0.00077964592
-0.0061383331 -0.00127 -0.034640707
0.017187333 0.00042333335 -0.034232743
-0.0090028886 0.00042333335 -0.033416815
0.0040922221 0.00127 -0.035048671
-0.0049106665 -0.00127 -0.0020035398
0.00081844442 0.00127 -0.00077964592
0.020051889 0 -0.023625663
-0.022916444 -0.00042333335 -0.032600883
-0.025371777 0 -0.017098229
-0.016368888 0.00127 -0.0015955751
-0.02782711 0 -0.02770531
0.025371777 0.00127 -0.00077964592
0.02782711 0 -0.0044513275
0.02782711 0 -0.018322123
0.015550444 0 -0.021585841
0.030691667 0 -0.0064911502
-0.009821333 -0.00084666669 -0.0024115043
0.033965442 0.00127 -0.033824779
-0.015550444 0 -0.0068991147
0.022097999 -0.00127 -0.00077964592
0.016368888 0 -0.00037168135
0.020051889 0 -0.036272567
-0.018824222 -0.00127 -0.0024115043
-0.0028645555 0 -0.00037168135
-0.02782711 0 3.6283243e-05
0.010230555 0 -0.010978761
0.0085936664 0.00042333335 -0.00037168135
0.025371777 0 -0.036272567
-0.030691667 -0.00127 -0.0024115043
-0.0073659997 0 -0.026481416
-0.0053198887 0 0.00085221243
0.027417889 0.00127 -0.00077964592
0 -0.00042333335 -0.037088495
-0.0024553332 -0.00084666669 -0.00037168135
-0.018005777 0 -0.028929204
-0.0049106665 0 -0.021177875
0.009821333 -0.00127 -0.0015955751
0.0024553332 0 -0.0056752209
0.026190221 0.00127 -0.035048671
0.012685888 0.00084666669 -0.035048671
0.0069567775 -0.00127 -0.034640707
0 0 -0.014650442
0.028236333 -0.00127 -0.034232743
0.036420777 -0.00042333335 -0.035456635
-0.017596556 0 -0.013426549
0.035602335 0.00084666669 -0.035456635
-0.013504333 -0.00042333335 -0.033824779
0.016368888 0.00084666669 -0.035048671
-0.02046111 0 -0.039128318
0.013504333 0.00042333335 -0.0024115043
-0.0073659997 0 -0.010162831
0.032737777 0 -0.024441592
0.023325667 -0.00042333335 -0.033824779
0.010230555 0 -0.017098229
-0.012685888 0.00127 -0.0024115043
0.030282443 -0.00084666669 -0.0020035398
-0.017596556 0 -0.0036353981
-0.02782711 0 -0.013018584
0.031510111 -0.00127 -0.034640707
-0.032737777 0.00084666669 -0.0020035398
0.018415 0.00084666669 -0.033416815
-0.015141222 0 -0.012202655
-0.0040922221 -0.00127 -0.0024115043
0.009821333 0 -0.00037168135
0.0057291109 0.00042333335 -0.033416815
0.036420777 0.00084666669 -0.035048671
0.011867444 -0.00127 -0.035048671
-0.031919334 0.00127 -0.00037168135
0.007775222 0.00127 -0.034640707
-0.0073659997 0 -0.0085309735
-0.024553332 0.00127 -0.00077964592
0 0 -0.015874336
0.0049106665 0.00042333335 -0.036272567
-0.034783889 -0.00084666669 -0.0020035398
-0.007775222 0 -0.015466372
0.033965442 0.00084666669 -0.033824779
0.002046111 0.00042333335 -0.00037168135
0.020051889 0 -0.013426549
-0.036011554 0.00084666669 -0.0020035398
0.017596556 0 -0.013426549
0.033147 0.00084666669 -0.033824779
-0.022916444 0.00042333335 -0.032600883
-0.015141222 0 -0.0056752209
-0.012685888 0 -0.019546017
-0.010230555 0.00127 -0.0024115043
-0.011049 -0.00127 -0.00077964592
-0.020870334 0.00084666669 -0.035048671
-0.0049106665 0.00042333335 -0.034232743
-0.010230555 0 -0.041168142
0 0 -0.0085309735
-0.025371777 0 -0.010570796
0.009821333 -0.00127 -0.0020035398
0.035602335 0 -0.030969026
0.022916444 0.00084666669 -0.0024115043
0.015141222 0 -0.021585841
-0.02046111 0 -0.02770531
0.014322777 -0.00042333335 -0.034232743
-0.010230555 -0.00084666669 -0.0024115043
-0.018005777 0 -0.039128318
-0.0053198887 0 -0.037904423
0.018824222 -0.00042333335 -0.034640707
0.012276666 0.00127 -0.0015955751
-0.021279555 -0.00084666669 -0.035456635
-0.0028645555 0 -0.0024115043
0 0 -0.025257522
-0.02782711 0 -0.040760174
0.02782711 0 -0.028929204
-0.022916444 0 -0.025257522
-0.035602335 -0.00127 -0.00077964592
-0.033556223 0.00084666669 -0.00037168135
-0.018824222 0 -0.035456635
-0.026190221 -0.00042333335 -0.0024115043
-0.017596556 0.00042333335 -0.035048671
-0.0061383331 0.00127 -0.0024115043
-0.033965442 0.00127 -0.0020035398
0.033147 0 -0.03831239
-0.035602335 0 -0.017914159
0.022916444 -0.00127 -0.0020035398
0.010230555 0 -0.025257522
-0.024144111 -0.00127 -0.0011876106
-0.0032737777 0.00042333335 -0.033416815
-0.019233445 0.00084666669 -0.033824779
-0.0012276666 -0.00127 -0.00037168135
-0.0090028886 0 -0.00037168135
0.0085936664 -0.00042333335 -0.00037168135
-0.010230555 -0.00127 -0.034640707
-0.015141222 -0.00127 -0.035048671
-0.0028645555 -0.00084666669 -0.033416815
-0.0049106665 0 -0.037904423
0.0073659997 -0.00042333335 -0.00037168135
-0.010230555 -0.00127 -0.00077964592
-0.031100888 -0.00084666669 -0.0024115043
0.027417889 0.00127 -0.035456635
-0.021688778 -0.00084666669 -0.033824779
0.035602335 0 3.6283243e-05
-0.0040922221 -0.00042333335 -0.00037168135
-0.010230555 0.00042333335 -0.002819469
-0.035602335 0 -0.015466372
0.015141222 0 -0.023625663
-0.034783889 0 -0.00037168135
-0.018005777 0 -0.037904423
0.031919334 0.00127 -0.035048671
-0.022916444 -0.00042333335 -0.036680531
-0.026190221 0.00042333335 -0.0024115043
0.034783889 0.00127 -0.035048671
0.020051889 -0.00042333335 -0.00037168135
-0.010639777 0.00127 -0.035456635
0.019233445 0.00042333335 -0.033824779
0.0024553332 0.00042333335 -0.036272567
-0.032737777 0 -0.012202655
0.0036829999 -0.00084666669 -0.0024115043
-0.0024553332 0 -0.013834513
0.02046111 0 -0.0040433626
-0.0049106665 0 -0.02688938
0.020051889 -0.00127 -0.0011876106
-0.022097999 -0.00042333335 -0.035864603
0 0 -0.025665486
0.012685888 0 3.6283243e-05
-0.022916444 -0.00042333335 -0.035864603
-0.030282443 0 -0.024033628
0.022507222 0 -0.0024115043
-0.022916444 0.00127 -0.0015955751
-0.020051889 0 -0.027297344
0.02782711 0 -0.025257522
0.018824222 0.00127 -0.0011876106
0.030282443 0 -0.030969026
0.030282443 0.00084666669 -0.00037168135
-0.0085936664 -0.00127 -0.0015955751
0.00040922221 0 -0.035864603
-0.0065475553 -0.00127 -0.00037168135
0.035193112 0.00127 -0.0020035398
-0.020051889 -0.00127 -0.00037168135
0.0024553332 0 -0.028521238
0.0049106665 -0.00042333335 -0.00037168135
0.0045014443 -0.00042333335 -0.0024115043
0.015141222 0.00042333335 -0.037496459
-0.036830001 -0.00042333335 -0.0020035398
0.033965442 0.00127 -0.035456635
-0.022916444 0.00127 -0.034640707
0.02782711 0.00127 -0.0011876106
0.031919334 0.00127 -0.00037168135
-0.012685888 -0.00042333335 -0.030969026
-0.025371777 0 -0.030153098
-0.0032737777 -0.00084666669 -0.035456635
0.015141222 0.00084666669 -0.035864603
-0.0016368888 0 -0.035864603
0.019233445 -0.00127 -0.0015955751
0.029054778 0.00042333335 -0.035456635
0.033147 0 -0.0044513275
-0.012685888 0.00084666669 -0.034232743
0.0069567775 0.00084666669 -0.033824779
0.030282443 0 3.6283243e-05
0.030691667 0 -0.013018584
-0.029873222 -0.00084666669 -0.0024115043
-0.022507222 0.00127 -0.035456635
0.012276666 -0.00042333335 -0.034232743
-0.011867444 0.00127 -0.035048671
0.026190221 0.00127 -0.034640707
-0.017187333 0.00084666669 -0.0020035398
-0.033147 0 -0.021993805
-0.0028645555 -0.00084666669 -0.0024115043
0.0085936664 -0.00084666669 -0.034232743
0.032737777 -0.00127 -0.034232743
-0.019233445 0.00042333335 -0.033824779
-0.030691667 0 -0.021177875
-0.018824222 0.00084666669 -0.034232743
-0.026599444 0 -0.035456635
-0.0024553332 0 -0.037496459
-0.022097999 -0.00127 -0.00077964592
-0.0028645555 -0.00127 -0.034232743
0.015141222 -0.00042333335 -0.035864603
-0.024144111 -0.00084666669 -0.033416815
0.012685888 0 -0.01179469
-0.015550444 -0.00042333335 -0.035864603
0.016368888 0.00042333335 -0.00037168135
0.02782711 0 -0.04198407
0.014731999 0.00042333335 -0.00037168135
0.033965442 -0.00084666669 -0.035456635
0.025781 -0.00127 -0.0011876106
0.030282443 0 -0.0056752209
0.0049106665 0.00127 -0.0020035398
-0.0053198887 0 -0.028521238
-0.030282443 -0.00127 -0.0011876106
0.022507222 -0.00127 -0.00077964592
0.015141222 -0.00042333335 -0.036272567
-0.032737777 0 -0.03831239
0.031100888 0.00084666669 -0.034232743
0.012685888 0 -0.0036353981
0.007775222 0.00084666669 -0.00037168135
-0.021688778 0.00127 -0.0020035398
0.020051889 0 -0.039536282
-0.0069567775 0.00042333335 -0.0024115043
-0.035602335 0 -0.0052672564
0.014731999 0.00042333335 -0.0024115043
0.029873222 0.00042333335 -0.035864603
-0.029054778 -0.00084666669 -0.0024115043
0.024962556 -0.00042333335 -0.033824779
0.032737777 0 -0.013834513
0.0024553332 0.00127 -0.033824779
0.0053198887 0 -0.0060831858
-0.023325667 -0.00127 -0.0020035398
0.012685888 0 -0.0060831858
0.0045014443 0 -0.00037168135
0.019233445 -0.00042333335 -0.035048671
0.0012276666 -0.00127 -0.0024115043
0.032737777 0 -0.0032274334
-0.031919334 -0.00084666669 -0.00037168135
0.016368888 -0.00127 -0.0011876106
-0.022916444 0 -0.032600883
-0.0045014443 -0.00127 -0.035456635
0.0085936664 0.00084666669 -0.0024115043
0.028236333 0.00127 -0.035456635
0.015550444 0 -0.010978761
0.013095111 0.00084666669 -0.033416815
-0.0053198887 0.00084666669 -0.00037168135
-0.016778111 -0.00127 -0.00077964592
0.0053198887 0 -0.0097548673
-0.015141222 0 -0.038720354
-0.033147 0 -0.025257522
-0.030282443 -0.00084666669 -0.035864603
-0.0081844442 0.00084666669 -0.033824779
-0.0053198887 -0.00127 -0.035048671
-0.02046111 -0.00127 -0.0011876106
0.02782711 0 -0.024849556
-0.018005777 0 -0.019138053
0.024962556 -0.00042333335 -0.00037168135
-0.029463999 0.00127 -0.00077964592
0.015141222 0 -0.0073070796
0 0 -0.024849556
-0.012685888 0 -0.039536282
-0.0081844442 -0.00084666669 -0.033416815
-0.011049 0.00084666669 -0.0024115043
0.020051889 -0.00042333335 -0.035864603
0.032737777 0.00127 -0.00077964592
0.030691667 0 -0.010162831
-0.020051889 0 -0.030153098
-0.022507222 -0.00127 -0.00077964592
-0.018415 0.00042333335 -0.0020035398
-0.0024553332 0 -0.039128318
0.0016368888 -0.00084666669 -0.033416815
0 0.00127 -0.00077964592
0.015550444 0 -0.010570796
0.030282443 0 -0.0077150441
0.0024553332 0 -0.0081230085
-0.030282443 0 -0.020769911
0 0.00084666669 -0.00037168135
0.020051889 0 -0.018730087
-0.02782711 0 -0.038720354
0.025371777 0 -0.015466372
0.009821333 -0.00084666669 -0.0024115043
-0.022916444 0 -0.0068991147
-0.017187333 0.00042333335 -0.033416815
0.010639777 -0.00084666669 -0.00037168135
-0.018415 0.00127 -0.00077964592
0.011458222 0.00084666669 -0.035456635
-0.0073659997 0.00127 -0.0024115043
0.014731999 0.00127 -0.0011876106
0.035193112 0.00127 -0.00037168135
0.009821333 0.00042333335 -0.00037168135
0.030691667 0 -0.0077150441
0.0073659997 0.00127 -0.0011876106
-0.033556223 -0.00042333335 -0.035864603
-0.018005777 0 -0.0093469024
-0.0053198887 0 -0.016282301
0.022507222 0.00084666669 -0.0024115043
0.0053198887 0 0.0024840708
-0.015550444 -0.00127 -0.0020035398
0.031919334 -0.00127 -0.034232743
0.024144111 0.00127 -0.00077964592
0.022916444 0.00042333335 -0.035864603
-0.030282443 0 -0.038720354
-0.034374665 -0.00127 -0.0020035398
-0.024962556 0.00127 -0.0020035398
0.017596556 0 -0.017098229
0.02046111 0 -0.028521238
0.010230555 -0.00127 -0.0024115043
-0.030691667 0 -0.016690265
0.027008666 0.00127 -0.0024115043
-0.010230555 0 -0.019138053
0.016368888 -0.00127 -0.0024115043
0.034783889 0 -0.035456635
0.024962556 -0.00042333335 -0.034232743
0.0024553332 0 -0.0052672564
0 0.00042333335 -0.031376991
-0.0024553332 0 -0.031784955
0.028236333 0.00127 -0.035048671
-0.019233445 -0.00127 -0.0015955751
0.017596556 0 0.0020761061
-0.015550444 0 -0.024441592
-0.0065475553 -0.00042333335 -0.035456635
0.031919334 0.00084666669 -0.033824779
0.025781 0 -0.00037168135
0.0073659997 0.00127 -0.00077964592
0.010230555 0 -0.037496459
0.011867444 0 -0.0024115043
-0.028645555 -0.00127 -0.034232743
0.024553332 0.00042333335 -0.0024115043
0.0057291109 -0.00042333335 -0.035456635
-0.017596556 0 -0.012610619
-0.022916444 0 -0.002819469
0.017596556 0 -0.024849556
0.022507222 0 -0.00037168135
-0.012685888 0 -0.022401769
0.012276666 -0.00084666669 -0.035456635
0.016368888 0 -0.033824779
-0.019642666 0 -0.00037168135
0.0049106665 0 -0.021177875
-0.0065475553 -0.00127 -0.034640707
0.014731999 -0.00042333335 -0.034232743
0.0049106665 0 -0.01179469
0.010230555 0.00084666669 -0.033824779
-0.0094121108 -0.00042333335 -0.0024115043
-0.030282443 0 -0.041576106
-0.018005777 0 -0.018730087
