# .PCD v0.7 - Point Cloud Data file format
VERSION 0.7
FIELDS x y z
SIZE 4 4 4
TYPE F F F
COUNT 1 1 1
WIDTH 1394
HEIGHT 1
VIEWPOINT 0 0 0 1 0 0 0
POINTS 1394
DATA ascii
-0.013535527 -0.00127 -0.0021260867
-0.010527632 -0.00127 -0.001221739
-0.014738685 0.00127 -0.001221739
0.0084221056 -0.00127 -0.030763768
-0.0063165789 -0.0003175 -0.020815942
0.013836316 0 -0.033778261
0.0081213163 -0.0003175 -0.031366665
0.0018047369 -0.0003175 -0.0024275361
0.004511842 0.00095249998 -0.028955072
-0.0066173687 0 -0.032271013
-0.021656843 -0.0003175 -0.0099637676
0.021356054 0.00127 -0.00092028978
0.014137105 0.0003175 -0.028653622
0.0078205261 -0.00127 -0.0018246375
-0.0036094738 -0.00127 -0.030160869
0.0081213163 -0.000635 -0.00031739124
0.0039102631 0 0.0017927537
0.013535527 -0.00127 -0.0018246375
-0.0039102631 0.0003175 -0.003331884
-0.0039102631 0.0003175 0.0017927537
-0.017145 -0.00095249998 -0.0021260867
0.0087228948 0 -0.011772463
-0.0012031579 -0.0003175 -0.026242029
0.01143 0 -0.010868115
-0.0036094738 -0.0003175 -0.0084565217
0.013535527 0.00127 -0.030462319
0.010226842 0.00127 -0.00092028978
-0.0087228948 0.0003175 -0.026242029
-0.0012031579 0.0003175 -0.035285506
-0.0027071054 -0.0003175 -1.5941965e-05
0.014137105 0 -0.015088405
-0.0048126318 0.00095249998 -0.030462319
0.0015039474 0.0003175 -0.032572463
0.021656843 0.0003175 -0.032873914
-0.021356054 0.000635 -0.029256521
-0.021356054 0 -0.0060449275
-0.0015039474 0 -0.037094202
0.014137105 -0.00095249998 -1.5941965e-05
-0.0066173687 0 -0.018705796
-0.0087228948 0.00127 -0.030763768
-0.013836316 0.0003175 -0.020213043
0.021656843 0.0003175 -0.024433333
0.00030078948 0.000635 -0.029256521
0.0036094738 -0.0003175 -0.034381159
-0.0027071054 0.00127 -0.029256521
0.0063165789 0.00127 -0.0018246375
-0.0036094738 -0.0003175 -0.0051405798
0.012031579 0.00095249998 -0.031366665
-0.0036094738 -0.0003175 -0.015088405
-0.0018047369 0.00095249998 -0.0024275361
0.0063165789 -0.0003175 -0.0087579712
0.0036094738 -0.00127 -0.00031739124
0.00060157897 0.00127 -1.5941965e-05
-0.020152895 0.000635 -0.031065216
0.016543422 0.0003175 -0.022323187
-0.021055264 0.00095249998 -0.029256521
-0.016543422 -0.0003175 -0.0093608694
-0.0093244743 -0.00127 -0.0024275361
0.00060157897 -0.000635 -0.031366665
-0.01143 -0.00127 -0.030160869
0.0060157897 -0.000635 -0.029256521
0.0015039474 0.0003175 -0.02172029
-0.0081213163 -0.00095249998 -0.028955072
0.019250527 0.0003175 -0.035285506
0.0066173687 0 0.0023956522
-0.014137105 0.0003175 0.0020942029
0.011129211 0.00127 -0.0024275361
0.0078205261 0.00127 -0.030160869
0.010527632 -0.000635 -0.0021260867
0.0066173687 0.00095249998 -0.031065216
0.010226842 -0.00127 -0.030763768
0.022559211 0 -0.031065216
-0.018949738 -0.0003175 -0.019610144
0.016242633 -0.00095249998 -0.031366665
-0.011129211 0 -0.010868115
0.014137105 0.0003175 -0.027447825
-0.0090236841 -0.0003175 -0.018102897
-0.018949738 -0.0003175 -0.033476811
-0.015641052 0 -0.031366665
-0.0012031579 -0.00127 -0.030160869
-0.013234737 0.00127 -0.031065216
0.019250527 -0.0003175 -0.031366665
0.016242633 0 -0.0069492753
0.01173079 0.0003175 -0.028955072
0.013836316 0.00127 -0.031366665
0.016543422 0 -0.036491305
0.019852106 -0.00127 -0.001221739
-0.021356054 0 -0.0051405798
0.021356054 -0.0003175 -0.032873914
0.014137105 -0.0003175 -0.025036231
0.018949738 -0.000635 -0.031366665
0.016543422 -0.0003175 -0.0027289854
0.0036094738 -0.0003175 -0.015088405
0.0075197369 -0.00095249998 -0.0021260867
0.018949738 0 -0.0060449275
-0.011129211 0 -0.0175
0.021656843 0.0003175 -0.031969566
-0.0036094738 0 -0.016294202
-0.005715 0.000635 -0.00031739124
-0.0090236841 -0.0003175 -0.012676811
0.0066173687 0 -0.0081550721
0.018949738 0 -0.0066478257
-0.0090236841 0 -0.012073913
0.0054142107 -0.000635 -0.031366665
0.016543422 -0.0003175 -0.018102897
-0.0099260528 -0.00127 -0.030462319
-0.0081213163 -0.0003175 -1.5941965e-05
0.021656843 0.0003175 -0.015088405
0.021656843 0.0003175 0.0011898552
0.0066173687 0 -0.014786956
-0.021656843 -0.0003175 -0.022323187
0.0075197369 0.00127 -0.0024275361
-0.016543422 -0.0003175 -0.034381159
-0.0063165789 0.00095249998 -0.031366665
0.018949738 0 -0.011471014
-0.0078205261 0.000635 -0.029256521
-0.014137105 0.00127 -0.030160869
-0.0039102631 0 -0.0084565217
-0.021957632 -0.0003175 -0.0024275361
0.016543422 0 -0.016595652
-0.0063165789 -0.00095249998 -0.030462319
-0.0090236841 0 -0.013882608
0.0039102631 -0.0003175 -0.013882608
-0.0054142107 0.000635 -0.029256521
0.021656843 0 -0.0054420289
-0.0015039474 0 -0.0072507244
0.0066173687 0 -0.027447825
0.021356054 0.00095249998 -0.0021260867
-0.01143 0.00127 -0.02985942
-0.0078205261 0.00127 -0.0018246375
-0.014137105 0 -0.0081550721
-0.0033086843 -0.0003175 -0.028955072
0.0090236841 -0.00127 -0.0024275361
-0.013836316 0 -0.011471014
-0.021656843 0 0.0023956522
-0.0012031579 0 -0.025337681
0.0021055264 0.000635 -0.031366665
0.021055264 -0.00127 -0.0021260867
-0.0024063159 -0.00095249998 -0.031065216
0.0012031579 0.0003175 -0.025036231
0.0063165789 -0.00095249998 -0.02985942
-0.018047368 0.00095249998 -0.029256521
-0.021656843 -0.0003175 -0.026543478
0.0036094738 0.0003175 -0.010566667
0.016844211 -0.00127 -0.0018246375
-0.0066173687 0 -0.021117391
-0.0072189476 -0.00095249998 -0.031366665
0.0036094738 0.0003175 -0.032572463
-0.014137105 0 -0.020213043
-0.0042110528 0 -0.031366665
-0.016543422 0.0003175 -0.022021739
-0.017145 0.00095249998 -0.029256521
0.013836316 -0.00127 -1.5941965e-05
-0.013836316 -0.00127 -0.0018246375
0.0039102631 -0.0003175 -0.026543478
-0.0084221056 0.000635 -0.0024275361
-0.0039102631 -0.0003175 -0.0090594199
0.016543422 0 -0.010868115
-0.021957632 0.00095249998 -0.00061884051
-0.018949738 -0.0003175 -0.015691305
-0.010527632 -0.00095249998 -0.029256521
-0.013836316 0 -0.027146377
0.020453684 -0.00127 -0.030160869
0.018949738 0.0003175 -0.020213043
0.0090236841 -0.0003175 -0.0078536225
0.0087228948 0 -0.015088405
0.01744579 0 -1.5941965e-05
0.021055264 0.00127 -0.02985942
0.0063165789 0.0003175 -0.0027289854
0.016543422 0.0003175 -0.024131883
0.019551316 -0.00127 -0.0018246375
0.016242633 -0.0003175 -0.026844926
-0.010527632 -0.00095249998 -0.029557971
-0.0012031579 0.0003175 -0.018404348
-0.0090236841 0.00127 -0.001221739
0.0039102631 0 -0.017801449
0.0021055264 -0.00127 -0.030160869
-0.01744579 -0.00127 -0.00031739124
-0.0060157897 0.000635 -0.031366665
-0.0066173687 0 -0.02563913
0.00030078948 -0.00095249998 -0.029256521
-0.012933947 -0.00095249998 -0.02985942
-0.013836316 0.0003175 -0.026844926
0.0063165789 0 -0.019308696
0.01143 0 -0.0069492753
0.0069181579 0.000635 -0.028955072
0.018949738 0 -0.027749274
-0.0039102631 -0.00127 -0.030763768
-0.016242633 -0.00095249998 -0.0021260867
-0.0087228948 0 -0.015088405
0.0063165789 0 -0.033778261
-0.0066173687 0.00127 -0.030763768
0.016543422 0 -0.03317536
-0.0066173687 -0.0003175 -0.0024275361
-0.022559211 -0.00095249998 -0.00092028978
-0.016844211 0 -0.0024275361
-0.019250527 0.000635 -0.031366665
0.015039474 -0.000635 -0.031366665
-0.0015039474 -0.00127 -0.0015231883
0.013836316 -0.0003175 -0.036189854
0.0027071054 0.00095249998 -0.031366665
0.0087228948 0.0003175 -0.010868115
-0.018949738 0.0003175 -0.015088405
-0.01143 0 -0.025337681
-0.0078205261 -0.00127 -0.00061884051
0.018949738 -0.0003175 -0.014485507
0.0063165789 0.0003175 0.0026971016
0.016543422 -0.00127 -0.001221739
0.0063165789 0 -0.0075521739
-0.014738685 0.00127 -0.030462319
0.011129211 0 -0.019308696
0.0054142107 -0.00127 -0.00031739124
-0.004511842 0.000635 -0.031366665
-0.0021055264 0.0003175 -1.5941965e-05
-0.0063165789 0 -0.0054420289
0.005113421 0.000635 -0.029256521
0.022258421 -0.00095249998 -0.02985942
-0.016543422 -0.00127 -0.030160869
-0.019551316 0.00095249998 -0.031065216
0.019250527 0.0003175 -0.0078536225
0.018949738 0.00127 -0.030160869
0.004511842 -0.000635 -0.0021260867
0.0087228948 0 -0.014184058
0.016242633 0 -0.0060449275
0.0063165789 0 -0.010868115
-0.0048126318 -0.00127 -0.029557971
-0.0030078948 -0.00095249998 -0.0021260867
0.01173079 -0.00095249998 -0.02985942
0.0081213163 0.00127 -1.5941965e-05
-0.01143 0.0003175 -0.023227535
0.0078205261 -0.00095249998 -0.0021260867
-0.0066173687 -0.00127 -0.030763768
0.021957632 -0.000635 -0.0021260867
0.01143 -0.0003175 -0.034984056
0.018949738 -0.0003175 -0.02172029
0.0024063159 0.00127 -0.00031739124
-0.0012031579 0.0003175 -0.027749274
-0.0012031579 0 -0.028050724
-0.0063165789 0 -0.025337681
-0.014437895 -0.00095249998 -0.0024275361
-0.019250527 0.00127 -0.030763768
-0.017145 0.0003175 -0.0021260867
-0.0087228948 0.000635 -0.031366665
-0.00030078948 -0.00127 -0.029256521
-0.020453684 0.00095249998 -1.5941965e-05
0.014137105 0 -0.019007245
-3.469447e-18 -0.00095249998 -0.0021260867
0.014137105 -0.0003175 -0.035586957
0.02286 0 -0.0021260867
0.016844211 0.00127 -0.0015231883
0.021055264 -0.00095249998 -1.5941965e-05
-0.019852106 -0.000635 -0.029256521
-0.0036094738 0 -0.036189854
0.019551316 -0.0003175 -0.028955072
-0.0039102631 -0.0003175 0.0002855073
0.020453684 0.0003175 -0.0021260867
0.0087228948 0 -0.026242029
-0.004511842 0.0003175 -0.030160869
-0.0036094738 0 -0.023528986
0.0033086843 0.0003175 -0.0024275361
-0.012933947 -0.00127 -0.030160869
0.0036094738 -0.0003175 -0.032572463
-0.0066173687 0 -0.011772463
0.021055264 -0.00127 -0.001221739
-0.021656843 0 -0.012073913
0.0039102631 -0.0003175 -0.0063463766
-0.019250527 -0.0003175 -0.023528986
-0.0036094738 0 -0.019308696
-0.0084221056 -0.000635 -0.02985942
0.0012031579 -0.0003175 -0.025036231
-0.013836316 -0.0003175 -0.034381159
-0.018648949 -0.00095249998 -0.031065216
0.021656843 0 -0.0030304347
0.0036094738 0 -0.025940578
0.0036094738 -0.0003175 -0.0060449275
0.019551316 0.00127 -0.00031739124
-0.013836316 0.0003175 -0.031668115
0.0039102631 0.0003175 -0.0078536225
0.0063165789 0 -0.016294202
-0.011129211 0 -0.016595652
-0.0090236841 0.0003175 -0.032572463
0.0012031579 0.0003175 -0.012676811
-0.0036094738 -0.0003175 -0.032873914
0.015340263 0.000635 -0.00031739124
0.0036094738 0 -0.023528986
0.018047368 -0.0003175 -0.0021260867
-0.014137105 -0.0003175 -0.020213043
0.013836316 0.0003175 -0.034079708
0.005113421 0 -1.5941965e-05
0.0039102631 0 -0.035285506
0.0084221056 0 -1.5941965e-05
0.0012031579 -0.000635 -0.028955072
0.0039102631 -0.00127 -1.5941965e-05
-0.0090236841 0.0003175 -0.0042362316
-0.01143 0 -0.026844926
-0.0087228948 -0.00127 -0.0021260867
0.0066173687 0 -0.03317536
-0.0015039474 0.00127 -0.00031739124
0.0039102631 0.0003175 -0.022021739
-0.019250527 0 -0.0099637676
-0.016543422 -0.0003175 -0.010566667
0.013836316 0.0003175 -0.0066478257
-0.010527632 -0.0003175 -0.0024275361
0.0039102631 0 0.00058695656
-0.021957632 0.00127 -0.0015231883
-0.0012031579 0 -0.034984056
-0.02286 0.0003175 -0.030763768
0.0012031579 0.0003175 -0.028653622
0.018949738 0 -0.016897101
0.013234737 0.00095249998 -0.028955072
0.014137105 0 -0.022624638
-0.0090236841 0 -0.024433333
0.013836316 0.000635 -0.00031739124
-0.016543422 0.0003175 0.00088840583
0.016543422 0 -0.0048391302
0.012933947 0.000635 -0.00031739124
0.00090236845 -0.00127 -0.02985942
0.018949738 -0.0003175 -0.0036333331
0.0066173687 0 -0.028050724
-0.014137105 -0.0003175 -0.018404348
-0.016543422 -0.0003175 -0.024433333
-0.005715 -0.0003175 -1.5941965e-05
0.0048126318 -0.00127 -0.02985942
-0.0096252635 0.0003175 -0.029557971
0.0063165789 -0.0003175 -0.011772463
-0.01143 0.0003175 -0.022926087
-0.0087228948 0.0003175 -0.037094202
0.014137105 -0.0003175 -0.015992753
-0.0042110528 0.000635 -0.00031739124
-0.0090236841 0 -0.0099637676
-0.011129211 0 -0.011169565
0.0039102631 0 0.0014913044
0.021656843 0.0003175 -1.5941965e-05
0.0012031579 0 -0.0027289854
-0.0039102631 -0.00127 -0.00061884051
-0.014137105 0 -0.019308696
-0.005113421 -0.00127 -0.0018246375
0.01143 0.0003175 -0.0045376811
-0.0024063159 0.00095249998 -1.5941965e-05
0.018949738 -0.0003175 -0.028653622
0.018047368 -0.00127 -0.030763768
0.013836316 0 0.0023956522
0.014137105 0 -0.0075521739
-0.0066173687 0 -0.01327971
0.012633158 -0.00095249998 -0.031065216
0.019852106 -0.00127 -0.0015231883
-0.0063165789 0 -0.015992753
-0.0012031579 0 0.0014913044
-0.022258421 0.00095249998 -0.031065216
-0.0063165789 0.0003175 -1.5941965e-05
-0.021356054 -0.00127 -0.030160869
0.0066173687 0 -0.023830434
-0.016543422 0 -0.023528986
0.013535527 0.000635 -0.00031739124
-0.0039102631 0.0003175 -0.036189854
-0.0012031579 0 -0.021117391
0.0090236841 0 -0.025940578
-0.0024063159 0.00127 -0.00092028978
-0.021356054 0 -0.020213043
-0.0087228948 0.0003175 -0.028653622
-0.021356054 0 -0.035586957
0.016543422 0.0003175 -0.026242029
0.013836316 -0.0003175 -0.018102897
0.020152895 -0.0003175 -0.031065216
0.010828421 -0.00127 -0.0024275361
-0.022258421 0.0003175 -0.0021260867
-0.0024063159 0.000635 -0.030763768
-0.019250527 0 -0.031969566
0.0033086843 0.00127 -0.0021260867
0.011129211 0 -0.023528986
0.0066173687 0.0003175 -0.0024275361
0.0072189476 -0.000635 -0.031366665
0.0039102631 0 -0.022624638
0.0063165789 0.0003175 -0.034381159
-0.0039102631 0 -0.014184058
0.016543422 0.0003175 -0.022624638
-0.015340263 0.000635 -0.031065216
0.021957632 -0.00095249998 -0.02985942
-0.0087228948 -0.0003175 -0.015691305
0.013836316 0.0003175 -0.010868115
0.01744579 0.00127 -0.0021260867
-0.0015039474 -0.0003175 -0.0024275361
0.010828421 -0.00127 -0.0018246375
0.014137105 -0.0003175 -0.019007245
0.018949738 0.0003175 -0.012073913
0.00060157897 0.000635 -0.031366665
0.0039102631 0.0003175 -0.02172029
0.012332369 -0.000635 -0.029256521
-0.00090236845 0.00127 -0.0024275361
0.021356054 0.00095249998 -0.00031739124
-0.0015039474 -0.0003175 -0.032572463
-0.02286 0 -0.00092028978
-0.0063165789 0 -0.014786956
-0.022559211 -0.00095249998 -0.001221739
-0.0087228948 0.0003175 -0.021117391
-0.021356054 -0.0003175 -0.028955072
0.016543422 -0.0003175 -0.019911593
0.0036094738 0 -0.033778261
0.0039102631 -0.00127 -0.0021260867
0.018949738 0.0003175 -0.0175
-0.013836316 -0.0003175 -0.0175
-0.016543422 0.00127 -0.02985942
-0.0090236841 0 -0.0175
0.0036094738 0.0003175 -0.0045376811
-0.011129211 0 -0.0027289854
-0.016543422 0 -0.02141884
0.0039102631 0 -0.011772463
-0.012633158 0.00127 -0.0015231883
0.01143 -0.0003175 -0.017801449
-0.0078205261 -0.00127 -0.029557971
0.00060157897 -0.00127 -0.030763768
-0.021656843 0 -0.028352173
-0.011129211 0 -0.032271013
0.015039474 0 -1.5941965e-05
-0.0048126318 -0.00127 -0.0015231883
-0.02286 -0.0003175 -0.030160869
-0.0090236841 0 -0.033476811
0.013535527 -0.0003175 -0.029256521
-0.019250527 -0.0003175 -0.027146377
-0.011129211 0 -0.015088405
0.00060157897 0.00127 -0.0018246375
0.013836316 0 -0.028352173
-0.022559211 -0.000635 -0.030160869
0.0015039474 0 -0.0084565217
-0.014738685 0.00127 -0.00061884051
-0.0012031579 0.0003175 0.00088840583
0.011129211 0.00127 -1.5941965e-05
0.0024063159 0.00095249998 -0.031366665
-0.0012031579 -0.0003175 -0.019007245
-0.0087228948 0.0003175 -0.0081550721
0.0087228948 -0.0003175 -0.01327971
-0.0039102631 -0.0003175 -0.023830434
0.0042110528 -0.00127 -0.0024275361
0.018047368 -0.00127 -0.0015231883
-0.02286 0.0003175 -0.001221739
-0.016543422 0 -0.0051405798
0.014137105 0 -0.0036333331
-0.0072189476 -0.00127 -0.031065216
-0.016242633 0 0.0017927537
-0.014137105 0.0003175 0.00058695656
-0.0087228948 0.0003175 -0.036792751
-0.0018047369 0.00095249998 -1.5941965e-05
0.0042110528 -0.00127 -0.00061884051
-0.01173079 -0.000635 -0.031366665
0.012933947 0 -0.0021260867
-0.016543422 0.0003175 -0.011772463
-0.022559211 -0.0003175 -0.029256521
0.0087228948 0.0003175 0.0020942029
-0.0087228948 0 -0.015691305
0.0075197369 -0.000635 -0.0021260867
0.013836316 -0.00127 -0.0015231883
0.0066173687 0 -0.016595652
0.022258421 -0.00095249998 -0.00092028978
-0.0039102631 0 -0.0078536225
0.016242633 -0.0003175 -0.0024275361
0.015039474 0.00127 -0.001221739
-0.013836316 -0.0003175 -0.018705796
0.0015039474 0.0003175 -0.021117391
-0.0090236841 0.0003175 -0.033476811
0.0087228948 0.0003175 -0.0072507244
0.011129211 0 -0.018404348
0.019250527 0.0003175 -0.016595652
0.019250527 0.0003175 -0.036189854
-0.0012031579 0 -0.0081550721
0.013234737 0.0003175 -1.5941965e-05
-0.0087228948 0 -0.033778261
-0.0012031579 0.0003175 -0.0063463766
0.0087228948 0 -0.022624638
-0.0036094738 -0.0003175 -0.011169565
-0.012933947 -0.0003175 -0.0024275361
0.013836316 0.0003175 -0.022926087
-0.004511842 0.00127 -0.02985942
-0.0039102631 0.0003175 -0.0072507244
-0.010828421 -0.00127 -0.00031739124
-0.016844211 0.00095249998 -1.5941965e-05
-0.0093244743 0.00127 -0.00092028978
0.018949738 0 -0.0027289854
-0.0012031579 -0.0003175 -0.0054420289
0.0015039474 0.0003175 -0.009662319
-3.469447e-18 0.0003175 -0.029256521
0.0066173687 0.00127 -0.0024275361
0.0039102631 0 -0.0054420289
0.0090236841 0.0003175 -0.019610144
-0.0090236841 0.0003175 -0.028050724
0.019250527 0 -0.016897101
-0.011129211 0 -0.02563913
-0.018949738 0 -0.019610144
-0.017746579 0 -0.0021260867
-0.0066173687 0 -0.0093608694
-0.0021055264 0.00127 -0.0018246375
-0.00060157897 0 -0.031366665
0.018949738 0.00127 -0.02985942
0.01744579 0.000635 -0.00031739124
-0.0078205261 0.0003175 -0.028955072
-0.0063165789 0 -0.017801449
-0.0090236841 -0.0003175 -0.032271013
0.014437895 0.00127 -0.0021260867
-0.013535527 0.00095249998 -0.029557971
0.01744579 0.00095249998 -0.0024275361
0.021356054 0 -0.0084565217
-0.014137105 0 -0.022323187
-0.0033086843 0.00127 -0.02985942
0.013234737 0.000635 -0.00031739124
-0.0087228948 -0.0003175 -0.022624638
0.0039102631 -0.0003175 -0.0090594199
-0.0012031579 -0.0003175 0.0014913044
-0.011129211 -0.00127 -0.030160869
-0.0072189476 0.00127 -0.00061884051
-0.021656843 0.0003175 -0.028653622
-0.013234737 -0.00127 -0.030462319
-0.018047368 -0.00127 -0.0021260867
0.020152895 -0.000635 -0.031065216
-0.0039102631 0 -0.033476811
0.0054142107 -0.000635 -0.029557971
-0.018949738 0 -0.025940578
-0.016543422 -0.0003175 -0.020213043
0.016543422 0 -0.013882608
0.021356054 -0.0003175 -0.034381159
0.021356054 0 -0.032873914
0.0084221056 0.000635 -0.031366665
-0.005715 0.00127 -0.00092028978
-0.0066173687 0 -0.011169565
-0.014137105 0.0003175 0.0002855073
0.010226842 -0.00095249998 -0.031065216
-0.019250527 0 -0.02563913
-0.0012031579 -0.0003175 -0.026543478
-0.021957632 -0.00095249998 -0.02985942
-0.0099260528 -0.000635 -0.031065216
-0.018949738 0 -0.0045376811
0.0033086843 -0.00095249998 -0.0021260867
-0.016543422 -0.0003175 -0.034079708
0.016543422 0 -0.010265217
-0.012332369 0.00095249998 -0.031065216
-0.013836316 0 -0.026844926
0.015340263 -0.00127 -0.001221739
-0.018949738 -0.0003175 -0.015992753
0.013836316 0 -0.021117391
-0.013836316 -0.0003175 -0.032873914
-0.020754473 -0.00127 -0.00031739124
-0.018949738 0.00095249998 -0.031065216
0.0015039474 0 -0.036491305
-0.021356054 0 -0.01358116
0.013234737 0.000635 -0.031366665
-0.020754473 -0.0003175 -0.031366665
-0.018949738 -0.0003175 -0.011471014
-0.013836316 0.0003175 -0.005743478
-0.0087228948 -0.0003175 -0.01719855
0.0015039474 0 -0.034984056
-0.0039102631 0 -0.035285506
-0.004511842 0.00127 -0.029256521
0.018949738 0 -0.037094202
0.0039102631 0.0003175 -0.0054420289
-0.0060157897 0.00127 -0.0021260867
-0.0027071054 -0.00095249998 -0.029256521
0.0090236841 -0.0003175 -0.019007245
-0.0039102631 0 -0.019610144
-0.012933947 0.00095249998 -0.02985942
0.0039102631 0 -0.013882608
-0.0021055264 -0.00127 -0.00031739124
0.022559211 0 -0.0021260867
0.004511842 -0.00127 -1.5941965e-05
0.016242633 0 -0.02563913
-0.0012031579 -0.0003175 -0.025337681
0.0036094738 0.0003175 -0.0175
0.0087228948 0.0003175 -0.025036231
-0.0054142107 -0.0003175 -0.028955072
-0.0081213163 0.00127 -0.0018246375
0.01143 0.0003175 -0.028352173
-0.01143 -0.0003175 -0.012073913
-0.013836316 -0.0003175 -0.011169565
0.0012031579 -0.0003175 -0.023528986
0.013836316 -0.0003175 -0.015691305
0.011129211 -0.000635 -0.00031739124
-0.0036094738 0.0003175 0.0020942029
-0.0063165789 0.0003175 -0.031969566
0.013836316 0 -0.012375362
0.0036094738 -0.0003175 -0.014786956
-0.0012031579 -0.0003175 -0.0087579712
-0.015340263 -0.00127 -0.0015231883
-0.018949738 0 -0.016294202
0.0015039474 0.0003175 -0.034984056
-0.013836316 0 -0.028653622
0.015340263 0.00127 -0.00031739124
0.0063165789 -0.00095249998 -0.031366665
0.011129211 0 -0.036792751
0.019250527 0.0003175 -1.5941965e-05
-0.00030078948 0.0003175 -1.5941965e-05
-0.018949738 0.0003175 -0.022323187
-0.0063165789 -0.0003175 -0.0175
-0.014137105 0 -0.031969566
-0.0039102631 -0.0003175 -0.034984056
-0.0090236841 0 -0.028050724
-0.01143 0.00127 -0.00092028978
0.0063165789 -0.0003175 -0.022926087
-0.01173079 0.000635 -0.00031739124
-0.0090236841 0.0003175 -0.019610144
-0.0042110528 -0.00127 -0.02985942
-0.012031579 0.000635 -0.0021260867
0.021356054 0.0003175 -0.028955072
-0.01744579 0.00095249998 -0.029256521
-0.0015039474 0 -0.0084565217
-0.017145 -0.00127 -0.031065216
0.01744579 0.00127 -0.001221739
0.0099260528 -0.00095249998 -0.031065216
0.018949738 -0.0003175 -0.016294202
-0.013836316 0 0.00088840583
0.0036094738 0.0003175 -0.035285506
-0.00030078948 -0.000635 -0.029256521
0.0048126318 0.0003175 -0.0021260867
-0.013836316 -0.0003175 -0.0087579712
0.0096252635 0.00095249998 -1.5941965e-05
0.0066173687 0 -0.0069492753
-0.014137105 0 -0.028352173
0.0012031579 0.0003175 -0.025337681
-0.0054142107 0.00095249998 -0.031065216
0.0090236841 0.0003175 -0.0069492753
-0.021656843 -0.0003175 -0.020815942
0.0012031579 -0.0003175 -0.018705796
-0.021356054 0 -0.028955072
-0.018949738 0 -0.0090594199
-0.0036094738 0.00127 -0.00092028978
0.011129211 0 -0.03317536
-0.005715 -0.00127 -0.0021260867
-0.01143 0 -0.020213043
0.01143 0.0003175 -0.014485507
-0.0036094738 0.0003175 -0.023830434
0.018348157 -0.00127 -0.0021260867
-0.010527632 -0.00127 -0.0018246375
-0.0039102631 -0.0003175 -0.014184058
0.014137105 0 -0.017801449
0.018648949 -0.00127 -0.030763768
0.0042110528 0.000635 -0.00031739124
-0.018949738 0 -0.018705796
-0.016844211 -0.00127 -0.030160869
-0.0039102631 -0.0003175 -0.022021739
-0.019250527 0 -0.03317536
-0.0012031579 0 -0.0048391302
-0.016242633 0 -0.003331884
0.0012031579 0.0003175 -0.019007245
-0.014137105 0.0003175 -0.019308696
-0.013836316 -0.00095249998 -0.0024275361
0.021356054 0 -0.022624638
0.0012031579 0 -0.035888404
0.01143 -0.0003175 -0.035586957
-0.019250527 -0.00127 -0.00061884051
-0.0018047369 0 -0.031366665
-0.013836316 -0.0003175 -0.0069492753
0.016543422 0.00095249998 -1.5941965e-05
0.014137105 -0.0003175 -0.023830434
-0.018949738 -0.0003175 -0.027447825
0.004511842 -0.0003175 -0.0021260867
-0.016543422 0 -0.014786956
-0.0039102631 -0.00127 -0.00092028978
-0.0033086843 -0.00127 -0.00031739124
0.0012031579 0.00127 -0.0018246375
-0.0027071054 0.00095249998 -0.029256521
0.018949738 -0.00127 -0.0018246375
0.018949738 0.0003175 -0.03317536
-0.0060157897 0.000635 -0.00031739124
0.021055264 0.00127 -0.00061884051
0.00090236845 0 -0.031366665
0.0087228948 0.0003175 -0.014184058
-0.0093244743 -0.000635 -0.028955072
-0.0087228948 0.0003175 -0.020514492
-0.019250527 0 -0.027146377
-0.018949738 -0.0003175 -0.028050724
-0.014738685 -0.00127 -0.0024275361
0.0063165789 -0.00127 -0.00031739124
0.017746579 0.00127 -0.0018246375
-0.013535527 0.0003175 -1.5941965e-05
-0.0048126318 -0.000635 -0.029256521
-0.014137105 0.0003175 -0.022926087
-0.0012031579 0 -0.01719855
0.0012031579 0.0003175 -0.018102897
0.018949738 -0.0003175 -0.014786956
-0.0039102631 0.0003175 -0.015389855
0.01173079 0.00095249998 -0.029256521
0.0039102631 0.0003175 -0.022323187
-0.0039102631 -0.0003175 0.00088840583
0.0090236841 0 -0.0175
0.016543422 0 -0.015088405
0.021656843 0.0003175 -0.0054420289
0.0018047369 0.00127 -0.0015231883
-0.0090236841 -0.0003175 -0.010566667
-0.015641052 0.00127 -0.001221739
0.01143 0 0.00058695656
-0.01143 0 -0.019007245
-0.0039102631 0.0003175 -0.03317536
-0.016543422 0 -0.013882608
-0.0015039474 0 -0.014184058
0.0060157897 0 -0.031366665
0.0063165789 0 -0.027447825
0.018949738 -0.0003175 -0.036189854
-0.0063165789 -0.0003175 -0.018102897
-0.0066173687 0.000635 -0.029256521
0.0012031579 0 -0.026844926
-0.016844211 -0.00127 -0.00061884051
-0.0096252635 0.00127 -0.02985942
-0.016844211 0.0003175 -0.028955072
0.005715 -0.00127 -0.001221739
0.0048126318 -0.00127 -0.00031739124
-0.012933947 0.00127 -1.5941965e-05
-0.0096252635 0.000635 -0.00031739124
0.00090236845 -0.00127 -0.030160869
0.0039102631 0.0003175 -0.0066478257
0.0069181579 0.00127 -0.001221739
-0.016242633 -0.00127 -0.030462319
-0.0072189476 -0.00127 -0.00031739124
-0.016543422 0.0003175 -0.0051405798
-0.0039102631 -0.0003175 0.0026971016
-0.0015039474 0 -0.024433333
-0.018348157 -0.000635 -0.0021260867
-0.01173079 0.00127 -0.0021260867
0.019250527 0.0003175 -0.016897101
0.0090236841 0.0003175 -0.014485507
-0.021356054 0 -0.031668115
-0.014137105 0.0003175 -0.0030304347
0.013836316 0.0003175 -0.015088405
-0.0063165789 0.0003175 -0.035285506
-0.021656843 0 -0.0090594199
0.0063165789 0.0003175 -0.015389855
-0.0042110528 0 -0.0024275361
-0.016543422 0 -0.016294202
0.0066173687 -0.00127 -0.030462319
0.011129211 0 -0.01327971
0.0015039474 0.00127 -0.001221739
-0.019250527 0 -0.0048391302
-0.005715 -0.00127 -1.5941965e-05
-0.012332369 -0.000635 -0.031366665
0.012332369 0.00127 -0.029557971
0.01143 -0.0003175 0.00058695656
-0.0075197369 -0.0003175 -0.0024275361
0.016543422 -0.00127 -0.030763768
-0.020453684 0.00095249998 -0.029256521
-0.012332369 0.00095249998 -0.029256521
0.0015039474 0 -0.025036231
-0.010226842 0.00095249998 -0.029256521
0.012332369 0 -0.0021260867
-0.0012031579 -0.000635 -0.0024275361
-0.01143 0.0003175 -0.005743478
-0.013836316 0.0003175 -1.5941965e-05
-0.01143 0.0003175 -0.018404348
-0.021656843 0 0.0002855073
-0.022258421 -0.00095249998 -0.029557971
0.012332369 0 -1.5941965e-05
-0.021356054 -0.00127 -0.00031739124
0.018047368 0.00127 -0.00061884051
-0.021055264 0.00127 -0.00031739124
-0.018348157 0.00095249998 -1.5941965e-05
0.016242633 0.00127 -0.00092028978
0.0066173687 0 -0.034079708
0.0036094738 0.0003175 -0.028352173
-0.018648949 0 -0.0024275361
-0.0063165789 -0.00127 -1.5941965e-05
0.0066173687 0 -0.0063463766
-0.021656843 0 -0.023227535
0.015941842 -0.00127 -0.030160869
-0.016844211 0.00127 -0.031065216
-0.00090236845 -0.0003175 -0.0024275361
-0.0012031579 0 -0.0066478257
0.020754473 0.00095249998 -0.031366665
-0.0093244743 -0.00127 -1.5941965e-05
0.014137105 -0.0003175 -0.0069492753
0.021356054 0 -0.003331884
0.0015039474 0.0003175 -0.0078536225
-0.019250527 -0.0003175 -0.0090594199
0.0036094738 0 -0.0063463766
0.018949738 -0.0003175 -0.012375362
-0.021957632 -0.0003175 -0.028955072
-0.0063165789 0 -0.012375362
0.019250527 0 -0.024734782
0.0072189476 -0.00127 -0.030160869
-0.020152895 0.00127 -0.030462319
-0.018949738 -0.0003175 -0.011169565
0.016543422 0.0003175 -0.014184058
0.0036094738 0 -0.034079708
-0.00060157897 0 -0.0021260867
-0.0033086843 -0.00127 -0.0024275361
-0.0036094738 0.0003175 -0.028352173
-0.0012031579 0.0003175 -0.0045376811
-0.0087228948 -0.0003175 -0.020514492
0.0039102631 0 -0.0078536225
-0.0039102631 0 -0.027447825
-0.016543422 -0.0003175 -0.0175
0.0027071054 -0.00095249998 -0.0021260867
0.01173079 0 -0.031668115
-0.0069181579 0.000635 -0.029256521
0.016242633 0 -0.019911593
0.00090236845 0.00095249998 -1.5941965e-05
-0.019250527 -0.0003175 -0.021117391
-0.0090236841 0.0003175 -0.025337681
0.0063165789 0.0003175 -0.019308696
0.012031579 -0.0003175 -0.028955072
-0.018348157 -0.00127 -0.030763768
0.014137105 0 -0.0030304347
-0.0093244743 0.00127 -0.0021260867
0.012031579 0.00127 -0.0024275361
0.0093244743 -0.000635 -0.00031739124
-0.011129211 0 -0.023227535
-0.0033086843 -0.00127 -0.02985942
0.0012031579 -0.00127 -0.001221739
-0.0081213163 0 -0.0024275361
-0.013535527 0.00127 -1.5941965e-05
0.013836316 -0.0003175 0.0023956522
-0.0066173687 0 -0.01358116
0.0087228948 0.000635 -0.029557971
-0.021356054 0 -0.0072507244
0.0090236841 0 -0.0039347825
-0.0015039474 0.00127 -0.02985942
-0.0033086843 -0.000635 -0.030462319
0.0063165789 -0.0003175 -0.016595652
0.013836316 0.0003175 -0.032572463
0.0066173687 -0.000635 -0.029557971
-0.010527632 0.000635 -0.0024275361
-0.0087228948 0.0003175 -0.035586957
-0.0039102631 0.0003175 -0.022021739
-0.0012031579 0 -0.026242029
-0.019551316 -0.0003175 -0.0024275361
-0.021656843 -0.0003175 -0.022021739
-0.012031579 -0.0003175 -1.5941965e-05
-0.019551316 -0.00127 -0.001221739
-0.0039102631 0.0003175 -0.0081550721
0.0075197369 -0.00127 -0.031065216
-0.014137105 0 -0.023830434
0.0075197369 0 -0.028955072
-0.0063165789 0.0003175 -0.019911593
-0.0090236841 -0.0003175 -0.016897101
-0.014738685 0.0003175 -1.5941965e-05
0.015941842 0.00095249998 -0.029256521
-0.0090236841 -0.0003175 -0.034682609
0.0087228948 0.0003175 -0.0051405798
0.0036094738 0.0003175 -0.036491305
-0.019250527 0 -0.0090594199
0.0081213163 0.000635 -0.028955072
0.0039102631 0 -0.0048391302
0.0015039474 -0.00127 -0.00031739124
0.0039102631 0.0003175 -0.010265217
0.0066173687 0 -0.02141884
0.0060157897 0.00095249998 -0.031366665
-0.0072189476 0 -0.031366665
0.0024063159 -0.00127 -0.0015231883
-0.0012031579 0 -0.0075521739
-0.019250527 -0.0003175 -0.028352173
0.021656843 0 -0.02563913
-0.0030078948 -0.00127 -0.0018246375
0.021656843 0 0.0002855073
0.019250527 0.000635 -0.028955072
-0.011129211 -0.000635 -0.00031739124
0.0036094738 0.0003175 -0.0093608694
0.0036094738 -0.0003175 -0.027146377
0.0063165789 0.0003175 -0.011471014
-0.0036094738 0.00127 -0.00061884051
0.015941842 -0.000635 -0.0024275361
0.0090236841 0.0003175 -0.022021739
-0.013836316 0.0003175 -0.028653622
0.020453684 0.0003175 -0.031065216
-0.00090236845 -0.00095249998 -0.029256521
-0.016844211 -0.00127 -0.001221739
0.019250527 0 -0.02141884
0.0063165789 0.0003175 -0.026844926
-0.014437895 0 -0.031366665
0.021356054 0 -0.022926087
0.013535527 -0.0003175 -0.028955072
-0.0048126318 -0.00127 -0.00061884051
-0.0090236841 -0.0003175 -0.0042362316
-0.013234737 0 -0.029256521
-0.018949738 -0.0003175 -0.034984056
-0.016543422 -0.0003175 -0.015691305
-0.0030078948 -0.000635 -0.0024275361
0.011129211 0 -0.0075521739
-0.0039102631 -0.0003175 -0.020514492
-0.01173079 0.00095249998 -1.5941965e-05
-0.0090236841 -0.00095249998 -0.029557971
0.018949738 -0.0003175 -0.026844926
0.0069181579 0.0003175 -0.031366665
-0.015941842 0.000635 -0.029256521
-0.018047368 -0.00095249998 -0.029256521
0.0063165789 -0.0003175 -0.019308696
0.021356054 0 -0.011471014
-0.020453684 -0.00127 -0.0024275361
-0.01744579 -0.00095249998 -1.5941965e-05
0.0015039474 0 -0.0045376811
0.016543422 0.0003175 -0.028653622
-0.0063165789 -0.0003175 -0.0048391302
-0.0039102631 0.0003175 -0.016294202
0.0090236841 0 -0.0048391302
0.018949738 -0.0003175 -0.0039347825
0.0096252635 -0.00127 -0.0018246375
-0.0066173687 0 0.0014913044
-0.016543422 0 0.0017927537
-0.0039102631 -0.0003175 -0.035586957
0.0087228948 -0.0003175 -0.018705796
0.0063165789 0.0003175 -0.0042362316
0.016543422 -0.0003175 -0.0051405798
-0.0036094738 0 -0.0093608694
0.0042110528 0.00127 -0.031065216
0.0078205261 -0.00127 -0.030462319
0.016242633 0 -0.01297826
-0.018949738 0.0003175 -0.023830434
0.017145 0.00127 -0.031065216
-0.01143 0.0003175 0.0002855073
-0.021656843 0 -0.025036231
0.01143 0 -0.024433333
-0.012332369 -0.000635 -0.029557971
0.021356054 -0.0003175 -1.5941965e-05
-0.021656843 -0.0003175 -0.013882608
0.019250527 0.0003175 -0.020815942
-0.016242633 0 -0.028653622
-0.016543422 0.0003175 -0.0084565217
0.021356054 0 -0.0087579712
-0.016543422 0.0003175 -0.016294202
0.01143 0.0003175 -0.022926087
0.00030078948 0.00095249998 -0.0024275361
0.014137105 -0.0003175 -0.026543478
-0.017746579 0.00127 -0.030763768
0.0036094738 0 -0.031969566
-0.0087228948 0.0003175 -0.0036333331
0.021656843 0.0003175 -0.024734782
0.0015039474 0.0003175 -0.025036231
0.0015039474 0.0003175 0.0020942029
0.013836316 0 -0.0069492753
-0.016242633 -0.0003175 -0.031366665
0.018949738 -0.0003175 -0.0078536225
0.004511842 0.00127 -0.030160869
0.01143 0.0003175 0.0020942029
0.014137105 -0.0003175 -0.031668115
-0.0036094738 0.0003175 -0.022021739
0.014738685 -0.00127 -1.5941965e-05
-0.0015039474 -0.00127 -1.5941965e-05
-0.0063165789 -0.0003175 0.0020942029
-0.0027071054 0 -0.029256521
0.014437895 -0.000635 -0.00031739124
0.0039102631 0 -0.0175
-0.0012031579 0.0003175 -0.018102897
0.016242633 0 -0.018404348
-0.013836316 0 -0.012073913
-0.0060157897 0.00127 -0.001221739
0.01143 0.0003175 -0.024433333
-0.0054142107 0.00127 -0.02985942
-0.020152895 -0.00127 -0.031065216
0.010226842 0 -1.5941965e-05
0.0012031579 0 -0.034984056
-0.0030078948 0.000635 -0.029256521
0.0039102631 0.0003175 -0.003331884
0.004511842 0.000635 -0.029256521
0.011129211 0 -0.016294202
0.015039474 -0.00127 -0.00061884051
-0.0072189476 0.00127 -0.031065216
0.011129211 -0.00127 -0.0021260867
0.0030078948 0.00127 -0.0021260867
-0.0015039474 -0.0003175 -0.015691305
-0.0090236841 0 0.0014913044
-0.020453684 0 -0.029256521
0.0063165789 -0.0003175 -0.0072507244
0.019250527 0.0003175 -0.010265217
-0.016543422 -0.000635 -0.029256521
0.00090236845 -0.0003175 -0.028955072
-0.015641052 -0.00127 -0.0024275361
-0.019250527 0 0.0002855073
0.014738685 0.00095249998 -1.5941965e-05
-0.0087228948 0.0003175 -0.032572463
0.0087228948 0 -0.036189854
-0.022559211 -0.000635 -0.031065216
0.014437895 -0.00095249998 -0.029256521
0.0036094738 0.0003175 -0.019911593
-0.021055264 -0.00095249998 -0.029256521
0.021656843 0.0003175 -0.026543478
0.0039102631 0.0003175 -0.01297826
0.018648949 -0.00127 -0.030462319
0.011129211 -0.00127 -0.00031739124
0.0012031579 0 0.0029985507
0.013836316 -0.0003175 -0.022323187
-0.0048126318 -0.000635 -0.0024275361
-0.021656843 -0.0003175 -0.012676811
0.01173079 0 -0.0024275361
0.014137105 0.0003175 0.00058695656
0.021656843 0 0.0011898552
-0.014137105 -0.0003175 -0.028352173
-0.019250527 0 -0.005743478
0.0042110528 0.00127 -0.0018246375
0.0087228948 0.0003175 -0.024734782
0.0039102631 -0.0003175 -0.010868115
-0.01143 -0.000635 -0.02985942
-0.012933947 -0.00127 -0.030462319
-0.0039102631 0 -0.022926087
0.016242633 0 -0.0039347825
-0.00060157897 -0.00127 -0.001221739
0.0036094738 -0.00127 -0.029256521
-0.0099260528 -0.00127 -0.030763768
0.016543422 -0.00127 -0.0015231883
0.011129211 0 -0.0063463766
-0.0027071054 0 -0.031366665
0.0093244743 -0.00095249998 -0.031065216
-0.014738685 0.00095249998 -0.031065216
0.015039474 0.00127 -0.0021260867
-0.018949738 0 0.0011898552
0.0066173687 0 -0.012073913
-0.0036094738 0.00127 -0.030160869
-0.019250527 -0.0003175 -0.013882608
0.010527632 -0.00095249998 -0.031366665
0.013836316 0.0003175 -0.01719855
-0.005715 -0.00127 -0.030763768
0.0063165789 0 -0.0060449275
-0.013836316 -0.0003175 -0.0027289854
-0.0063165789 -0.0003175 -0.023227535
0.0015039474 0 -0.022624638
-0.018949738 -0.0003175 0.0020942029
-0.015340263 0 -0.0021260867
0.012031579 -0.00127 -0.00061884051
0.014137105 -0.00127 -0.001221739
0.0021055264 -0.00095249998 -1.5941965e-05
0.0087228948 0 -0.034682609
-0.014738685 -0.00127 -0.001221739
0.0093244743 -0.0003175 -1.5941965e-05
-0.0063165789 0 0.0014913044
0.0087228948 0 -0.0030304347
0.0054142107 -0.00127 -0.02985942
0.00030078948 0.0003175 -0.030462319
0.0069181579 0.0003175 -0.028955072
-0.018949738 -0.0003175 -0.034381159
0.0012031579 -0.0003175 -0.020514492
-0.0015039474 -0.0003175 -0.028050724
0.018949738 0.0003175 -0.028050724
0.0063165789 -0.0003175 -0.023227535
-0.0066173687 0 -0.019911593
0.013836316 0.0003175 -0.011772463
-0.015941842 0.000635 -0.031366665
0.0012031579 0 -0.032271013
0.0012031579 0.0003175 -0.02563913
-0.016844211 0 -1.5941965e-05
0.0012031579 -0.0003175 -0.019610144
-0.018949738 -0.0003175 -0.012375362
-0.01173079 -0.0003175 -1.5941965e-05
-0.0012031579 0 -0.020514492
0.0090236841 -0.0003175 -0.028653622
-0.010828421 0.0003175 -1.5941965e-05
0.020754473 0.00095249998 -0.029256521
0.021356054 0 -0.0060449275
-0.0039102631 -0.0003175 -0.028653622
-0.0087228948 -0.0003175 -0.036792751
-0.012633158 -0.00095249998 -0.031065216
-0.013836316 -0.0003175 -0.036491305
0.014137105 -0.0003175 -0.033476811
-0.0069181579 0.00127 -0.029557971
0.01744579 0 -0.031366665
-0.018949738 0.0003175 0.00058695656
0.021055264 -0.0003175 -0.029256521
-0.0012031579 0.0003175 -0.024131883
-0.019250527 0 -0.027447825
0.0084221056 0.00095249998 -0.02985942
-0.00060157897 0.000635 -0.00031739124
-0.0087228948 0.00127 -0.00061884051
0.021656843 -0.0003175 0.0014913044
0.013836316 -0.0003175 -0.0066478257
-0.019852106 -0.00095249998 -1.5941965e-05
0.0090236841 0 -0.027749274
-0.00090236845 0.000635 -0.030763768
0.021356054 0.0003175 -1.5941965e-05
-0.0093244743 -0.00127 -0.00092028978
-0.014137105 0 0.0023956522
-0.011129211 0 -0.031668115
-0.019250527 -0.0003175 -0.0093608694
-0.0027071054 -0.00127 -0.029557971
0.018348157 0.00127 -0.029557971
-0.0039102631 -0.00127 -0.02985942
0.0012031579 0 -0.02172029
0.0063165789 -0.0003175 -0.033476811
-0.0087228948 0 -0.0075521739
0.01143 -0.0003175 -0.01297826
0.021957632 0.00127 -0.00092028978
0.014137105 0 -0.035888404
-0.0087228948 0.0003175 0.0017927537
-0.015641052 0.00127 -0.0018246375
0.0012031579 0 -0.037094202
-0.013535527 -0.00127 -0.031366665
0.018949738 -0.0003175 -0.01358116
0.012332369 -0.00095249998 -1.5941965e-05
0.0087228948 -0.0003175 -0.036792751
-0.0090236841 -0.0003175 -0.016294202
-0.019250527 0.000635 -0.0021260867
-0.01143 -0.0003175 -0.0072507244
0.0036094738 0.0003175 -0.025036231
0.0033086843 0.00127 -0.001221739
-0.00060157897 0.00127 -0.001221739
-0.0087228948 0 -0.035285506
-0.017145 -0.000635 -0.0024275361
-0.021656843 0 -0.0039347825
0.0015039474 0.0003175 -0.014485507
-0.017746579 0.00095249998 -1.5941965e-05
-0.016543422 -0.0003175 -0.035888404
-0.012332369 -0.0003175 -0.0024275361
0.015941842 -0.0003175 -0.0021260867
0.0030078948 0.00127 -0.030462319
-0.01143 -0.0003175 -0.035888404
-0.021656843 -0.0003175 -0.0036333331
-0.0090236841 0 -0.020213043
-0.01143 0 -0.0072507244
0.0090236841 0 -0.016595652
0.021656843 0 -0.024734782
-0.0078205261 -0.00127 -0.0024275361
0.0063165789 0.0003175 -0.027749274
0.0087228948 0 -0.018705796
-0.012633158 -0.000635 -0.0024275361
0.004511842 0.00127 -0.0021260867
-0.0090236841 0.0003175 -0.029557971
0.018949738 0.0003175 -0.027447825
0.0012031579 0.00127 -0.029256521
0.0054142107 0.00127 -0.00092028978
0.010828421 0.00095249998 -0.02985942
0.0090236841 0 -0.0099637676
-0.018949738 0.00127 -0.02985942
-0.0075197369 -0.00095249998 -0.030462319
-0.0030078948 0.00095249998 -0.029256521
-0.0039102631 -0.0003175 -0.027749274
0.0063165789 -0.0003175 -0.0045376811
-0.0075197369 -0.00127 -0.0024275361
0.017145 -0.00127 -0.001221739
0.019250527 -0.00127 -0.031065216
0.013836316 -0.0003175 -0.019007245
0.0066173687 0 -0.014485507
-0.013836316 0 -0.0093608694
-0.0090236841 0 -0.035285506
-0.0039102631 -0.0003175 -0.0039347825
0.013836316 0.0003175 -0.031668115
0.0090236841 0 -0.023830434
0.021656843 -0.0003175 0.0002855073
-0.0099260528 -0.00095249998 -1.5941965e-05
0.0060157897 0.00127 -0.030763768
-0.0012031579 0.0003175 -0.025940578
-0.011129211 0.00095249998 -0.029256521
0.013535527 -0.00127 -0.031065216
-0.0027071054 0.00127 -0.00092028978
-0.0063165789 0.0003175 -0.009662319
0.0090236841 0.0003175 -0.036792751
0.018949738 0.0003175 -0.022624638
0.0087228948 -0.0003175 -0.025036231
-0.0039102631 -0.0003175 -0.0027289854
-0.018949738 -0.0003175 -0.0099637676
-0.0033086843 0.00095249998 -0.030160869
0.0090236841 0 -0.018404348
0.0015039474 0.0003175 -0.015389855
0.01143 0.000635 -0.0024275361
-0.016543422 0 -0.028653622
0.0090236841 0 -0.037395652
0.021656843 0 -0.021117391
0.0015039474 0.0003175 -1.5941965e-05
-0.01143 0.0003175 -0.019610144
0.021656843 0 -0.020815942
-0.020754473 -0.00127 -0.029557971
-0.0012031579 -0.00095249998 -1.5941965e-05
0.018047368 0.000635 -0.028955072
-0.0012031579 0.0003175 -0.027447825
0.0063165789 -0.0003175 -0.018705796
0.0036094738 -0.0003175 -0.011169565
-0.02286 0 -0.0015231883
-0.0012031579 -0.0003175 -0.036792751
0.00090236845 0.00127 -0.029256521
-0.0015039474 0.000635 -0.028955072
0.018047368 0.0003175 -0.0021260867
0.0039102631 0 -0.020815942
-0.01173079 -0.00095249998 -0.030160869
0.0063165789 0 -0.010566667
0.017746579 0.00127 -0.029256521
-0.0030078948 -0.00095249998 -1.5941965e-05
-0.0036094738 -0.0003175 -0.033476811
-0.015340263 0.00127 -1.5941965e-05
-0.0090236841 0 0.0017927537
0.0036094738 -0.0003175 -0.036189854
0.0099260528 0.000635 -0.0024275361
0.01744579 0.000635 -0.028955072
-0.015941842 0 -1.5941965e-05
0.017746579 -0.0003175 -0.0021260867
0.018949738 0 -0.0048391302
-0.0075197369 -0.00095249998 -0.029256521
0.0066173687 0 -0.034984056
-0.01143 -0.0003175 -0.0078536225
-0.014137105 0.00127 -0.031065216
0.021356054 0 -0.03317536
-0.016543422 -0.00127 -0.0015231883
-0.0012031579 0.0003175 -0.015389855
-0.0039102631 0 -0.036792751
-0.0078205261 -0.00095249998 -0.030462319
0.0054142107 -0.00127 -0.030763768
0.00030078948 -0.00127 -1.5941965e-05
0.021957632 0 -0.0024275361
-0.0090236841 0.0003175 -0.018705796
-0.021656843 -0.0003175 -0.032271013
-0.0063165789 0 -0.0042362316
-0.017746579 0.00127 -0.0021260867
-0.0087228948 0.0003175 -0.012375362
-0.016543422 -0.00127 -0.0024275361
0.0087228948 -0.00095249998 -1.5941965e-05
0.0093244743 -0.00127 -0.0021260867
0.0063165789 0 -0.032271013
-0.022258421 -0.00127 -0.0018246375
-0.0090236841 -0.0003175 -0.012375362
-0.0072189476 0.0003175 -0.0024275361
-0.0012031579 0.0003175 -0.028352173
-0.0087228948 0 -0.032271013
-0.005715 0.0003175 -0.0024275361
-0.016543422 0 -0.025940578
-0.0027071054 -0.00127 -0.031065216
-0.018949738 0.0003175 -0.01358116
0.0063165789 0.0003175 -0.017801449
0.0063165789 0 -0.025337681
0.00090236845 -0.00095249998 -0.029256521
0.0090236841 0.0003175 -0.0075521739
-0.0063165789 0 0.0026971016
-0.0036094738 -0.0003175 -0.027447825
0.019250527 0 -0.005743478
0.019852106 -0.0003175 -0.031366665
-0.014137105 -0.0003175 -0.032271013
-0.018648949 -0.00127 -0.0021260867
-0.0087228948 -0.0003175 -0.027749274
-0.0054142107 0.00095249998 -0.029256521
-0.0090236841 0 -0.024734782
-0.0012031579 -0.00127 -0.0021260867
0.021957632 -0.00127 -0.00031739124
-0.0099260528 -0.00127 -0.02985942
0.016543422 -0.0003175 0.0020942029
0.013836316 -0.00127 -0.00061884051
0.0087228948 0.0003175 -0.011772463
0.005113421 0.00127 -0.001221739
-0.00060157897 -0.00127 -0.0018246375
0.0039102631 0 -0.032271013
0.021356054 -0.00127 -0.001221739
-0.0090236841 0.0003175 -0.011471014
0.018348157 0.000635 -0.00031739124
0.011129211 0 -0.036491305
-0.010828421 0.00095249998 -0.029256521
0.0063165789 -0.00127 -0.00092028978
-0.011129211 0 -0.010265217
-0.0039102631 0.0003175 -0.014485507
-0.0081213163 -0.00095249998 -0.031366665
-0.00060157897 0.000635 -0.030763768
0.019551316 0.00127 -0.00061884051
-0.016543422 0 -0.0081550721
0.015039474 0.00095249998 -0.028955072
-0.005715 0.00095249998 -0.029256521
0.016242633 0 -0.0030304347
0.0012031579 -0.00095249998 -0.0021260867
0.0039102631 0 -0.0072507244
-0.0066173687 0 -0.023227535
-3.469447e-18 0.00127 -0.0015231883
0.0063165789 0.0003175 -0.037094202
-0.0027071054 -0.00095249998 -0.031366665
-0.0039102631 0.00095249998 -0.030462319
0.0036094738 -0.00127 -0.0018246375
0.0039102631 0.000635 -0.0024275361
-0.0066173687 0 -0.035285506
0.018949738 -0.00127 -0.030763768
-0.021957632 -0.00095249998 -0.029256521
-0.0090236841 0 -0.010566667
-0.0054142107 0.00095249998 -0.030763768
0.0063165789 -0.0003175 -1.5941965e-05
-0.0036094738 0.00127 -0.031065216
0.013836316 0 -0.031969566
-0.005113421 0 -0.0021260867
-0.0036094738 -0.0003175 -0.02172029
-0.015039474 -0.00127 -0.029256521
-0.0039102631 -0.0003175 -0.016294202
0.013836316 0.0003175 -0.0051405798
-0.0015039474 -0.0003175 -0.011169565
-0.021356054 0.00127 -0.031065216
-0.004511842 -0.00095249998 -0.02985942
-0.014137105 -0.0003175 -0.0060449275
-0.00030078948 -0.00127 -0.030763768
0.0012031579 0 -0.0060449275
-0.018949738 0.0003175 -0.023227535
-0.013836316 0.0003175 0.0020942029
-0.014137105 0.0003175 -0.019610144
-0.013836316 0 -0.010265217
-0.016543422 0.0003175 -0.024131883
0.018648949 0.0003175 -0.0021260867
-0.0084221056 0.00127 -0.0024275361
0.01143 -0.0003175 -0.0087579712
0.0063165789 -0.0003175 -0.0027289854
-0.0066173687 -0.000635 -0.0024275361
0.0015039474 0 -0.036189854
-0.016543422 -0.00127 -0.0018246375
0.018648949 0.00127 -0.030763768
-0.019250527 0 -0.020514492
-0.0060157897 0.000635 -0.029557971
-0.0090236841 0.0003175 -0.028955072
0.018949738 0.00127 -0.030763768
-0.010226842 -0.00095249998 -0.030160869
-0.0036094738 0.00127 -0.0018246375
-0.0063165789 -0.0003175 -0.025036231
-0.010828421 -0.00095249998 -1.5941965e-05
-0.018348157 0.0003175 -0.029256521
-0.021356054 0 -0.037395652
0.005113421 0 -0.0021260867
-0.01143 0.0003175 -0.0093608694
-0.021356054 0 -0.023528986
-0.0093244743 0 -0.028955072
-0.01143 0 -0.032271013
-0.01143 0.0003175 -0.020514492
-0.015941842 -0.00127 -0.00092028978
0.016543422 0.0003175 -0.031969566
0.015641052 -0.000635 -0.0021260867
0.0036094738 0.0003175 -0.024433333
0.0087228948 0 -0.0093608694
0.0024063159 -0.00127 -0.030160869
0.02286 -0.0003175 -0.029557971
0.0090236841 -0.0003175 -0.025940578
-0.018949738 -0.0003175 -0.0087579712
0.0087228948 0 -0.021117391
-0.016543422 0.0003175 -0.018102897
-0.01744579 -0.00127 -0.02985942
0.0090236841 0 -0.022926087
-0.0033086843 -0.00127 -0.030462319
-0.018949738 0 -0.014485507
0.015941842 -0.00127 -1.5941965e-05
-0.0039102631 -0.00127 -0.0018246375
-0.014137105 0.0003175 -0.0060449275
0.021656843 0 -0.0066478257
-0.0024063159 0.00127 -0.030160869
0.0090236841 0 -0.026844926
0.0039102631 -0.0003175 -0.020815942
-0.013836316 0.00095249998 -0.029557971
-0.010527632 0.00127 -0.0021260867
0.018949738 0 -0.0039347825
0.0087228948 0 -0.02172029
-0.012332369 0.00127 -0.031065216
-0.013234737 -0.000635 -0.029557971
0.0027071054 -0.00127 -0.00031739124
-0.0027071054 -0.000635 -0.00031739124
0.0039102631 0 -0.0045376811
-0.016543422 0 -0.024131883
0.0054142107 0.00095249998 -0.031366665
0.010828421 0.00127 -0.030462319
0.0036094738 0.0003175 -0.02172029
0.013836316 0.0003175 -0.020514492
-0.0039102631 0.0003175 0.0020942029
0.01143 -0.0003175 -0.02141884
0.017145 0.00095249998 -0.031065216
-0.014137105 0 -0.035888404
0.0012031579 0.0003175 -0.015992753
-0.019250527 0.00095249998 -0.0021260867
-0.022258421 0.000635 -0.0021260867
0.018949738 0.0003175 -0.031668115
-0.0072189476 -0.0003175 -0.028955072
0.0063165789 -0.0003175 -0.0039347825
-0.0081213163 0.00127 -0.0015231883
-0.0015039474 -0.0003175 -0.010265217
0.004511842 0.0003175 -0.031366665
-0.0036094738 -0.0003175 -0.0087579712
-0.018348157 0.00127 -0.00061884051
-0.014137105 0 -0.020815942
0.0024063159 0 -1.5941965e-05
-0.0075197369 -0.00127 -0.031065216
0.016543422 -0.0003175 -0.016294202
-0.015641052 0.00127 -1.5941965e-05
0.010527632 0.000635 -0.00031739124
-0.021957632 0.00095249998 -0.029256521
0.0063165789 -0.00127 -0.0024275361
-0.014137105 -0.00127 -0.029256521
0.0012031579 0 -0.012676811
-0.0015039474 -0.0003175 -0.022624638
-0.0033086843 -0.00095249998 -0.030763768
0.014437895 -0.00127 -0.031065216
0.021055264 -0.000635 -0.00031739124
0.0063165789 0 -0.0036333331
0.01143 0.0003175 -0.033778261
-0.0018047369 -0.000635 -0.029256521
-0.0063165789 0 0.0017927537
-0.0015039474 0 -0.027146377
-0.013836316 0.0003175 -0.035285506
-0.0063165789 -0.0003175 -0.0090594199
0.014437895 0.00127 -0.030462319
0.011129211 0 -0.024131883
0.013234737 -0.0003175 -0.029256521
0.015340263 -0.00127 -0.0021260867
-0.018949738 0 -0.033476811
0.0039102631 -0.0003175 -0.023830434
0.014137105 0 -0.015389855
0.021656843 0 -0.0099637676
-0.0087228948 -0.0003175 -0.034079708
0.012332369 0.0003175 -0.029256521
0.015941842 0.00127 -0.030160869
0.016543422 0.0003175 -0.011471014
-0.0018047369 -0.00127 -0.030763768
-0.00060157897 0.0003175 -0.031366665
-0.0054142107 0.000635 -0.00031739124
0.010527632 -0.00127 -0.00061884051
0.016242633 0 -0.03317536
-0.010527632 0.00127 -0.00061884051
0.0087228948 0 -0.019007245
0.013836316 0.0003175 -0.0075521739
-0.012332369 -0.000635 -0.00031739124
0.0039102631 0.00127 -0.001221739
-0.019250527 0.00127 -0.02985942
-0.014137105 0 -0.034984056
0.004511842 0.00095249998 -0.031366665
