# .PCD v0.7 - Point Cloud Data file format
VERSION 0.7
FIELDS x y z
SIZE 4 4 4
TYPE F F F
COUNT 1 1 1
WIDTH 1345
HEIGHT 1
VIEWPOINT 0 0 0 1 0 0 0
POINTS 1345
DATA ascii
-0.029330613 0 -0.013266372
0.029330613 0 -0.018788496
-0.0023981004 0 -0.0011176991
0.020476088 -0.00127 -0.0011176991
0.02010715 -0.00127 -1.3274273e-05
-0.018262457 -0.00127 -0.00074955745
-0.0090389941 0.00127 -0.0011176991
-0.030806366 0 -0.030569026
0.019000335 0 -0.011425664
0.031544246 0 -0.011793805
0.019000335 0.00127 -0.0014858407
-0.0068253628 -0.00127 -0.031305309
-0.018262457 -0.00127 -0.02909646
0.0020291619 0.00127 -0.030569026
-0.011252625 -0.00042333335 -0.033514157
0.026748043 0.00042333335 -0.030200884
-0.013835195 0 -0.0088486727
-0.026010167 -0.00084666669 -0.00038141586
-0.021951843 0.00127 -0.030569026
0.031913184 0.00042333335 -0.0018539822
0.0079321787 -0.00127 -0.0018539822
-0.010514748 0.00084666669 -0.0011176991
0.031913184 0 -0.0029584069
0.031913184 0 -0.016579645
-0.021951843 0.00042333335 -0.030937167
-0.019000335 0 -0.026519468
-0.026379105 -0.00127 -0.00038141586
-0.0031359775 -0.00127 -0.030937167
-0.023796534 0 -0.00038141586
0.026379105 0 -0.025415044
0.021951843 -0.00042333335 -0.02909646
0.019369273 0 -0.024678761
0.014204133 -0.00084666669 -0.030937167
-0.0046117315 -0.00127 -0.031305309
-0.0049806703 -0.00084666669 -0.0018539822
0.0057185474 0 -0.02909646
0.015679887 0.00127 -0.0011176991
0.0038738546 0.00042333335 -0.012161947
-0.0012912848 0.00042333335 -0.015843362
0.021582903 0 -0.0022221238
-0.021213965 0.00127 -0.029832743
0.0090389941 0.00042333335 -0.031305309
-0.023796534 0 -0.0018539822
-0.019000335 0 0.0018274337
0.024165474 0.00084666669 -0.030937167
-0.0031359775 0 -0.0018539822
0.030068491 0.00127 -0.030569026
0.0083011165 -0.00084666669 -0.00074955745
-0.00018446926 -0.00127 -0.030937167
0.014942011 0.00127 -0.00074955745
-0.024534412 0.00042333335 -0.031305309
-0.021582903 0.00084666669 -0.029832743
-0.026010167 0.00042333335 -0.00038141586
-0.0035049161 0 -0.0029584069
-0.012728379 -0.00042333335 -0.00074955745
0.021582903 -0.00127 -0.030569026
0.019000335 -0.00042333335 -0.027992034
-0.028961675 -0.00127 -0.030569026
-0.029330613 0 -0.0055353981
-0.026379105 0 -0.023942478
-0.00055340776 0.00127 -0.0022221238
-0.0038738546 0.00042333335 -0.0029584069
-0.020476088 0.00127 -0.00074955745
0.031175306 -0.00084666669 -0.00038141586
-0.0086700553 0.00084666669 -0.029464601
-0.013835195 -0.00084666669 -0.00038141586
-0.014204133 0 -0.030200884
0.026379105 0 -0.00074955745
-0.006456424 0 -0.0040628319
0.00055340776 -0.00084666669 -0.0022221238
0.026748043 -0.00084666669 -1.3274273e-05
0.0020291619 -0.00127 -0.029832743
0.0038738546 0.00042333335 -0.027992034
0.0079321787 0.00042333335 -0.029832743
-0.0038738546 0 -0.025783185
-0.026010167 0.00042333335 -0.00074955745
-0.011621564 0.00127 -0.030569026
0.00018446926 -0.00127 -0.029464601
-0.0042427932 -0.00084666669 -0.0014858407
-0.014204133 0 -0.032409735
0.0075632399 0.00084666669 -0.0011176991
-0.020476088 0.00042333335 -0.030937167
-0.0075632399 0.00084666669 -0.031305309
0.029699551 0 -1.3274273e-05
0.0094079329 -0.00042333335 -0.02909646
0.021582903 -0.00042333335 -0.030937167
0.010514748 0.00084666669 -0.029464601
0.010883686 0 -0.029464601
0.0097768707 0.00127 -1.3274273e-05
0.01973821 0 -0.00074955745
0.028961675 0.00127 -0.029832743
-0.029330613 0 -0.024678761
-0.011621564 -0.00042333335 -0.030200884
0.014204133 0 -0.0014858407
-0.0097768707 0 -0.030200884
-0.026379105 -0.00084666669 -0.0014858407
0.024534412 0.00084666669 -1.3274273e-05
0.030068491 0.00127 -0.0018539822
0.00018446926 -0.00042333335 -0.030569026
-0.011252625 0 -0.022469912
-0.014573072 -0.00127 -0.00074955745
0.016417764 0.00042333335 -0.031305309
0.0035049161 0 -0.033882301
-0.024165474 0 -0.018788496
0.0031359775 -0.00042333335 -0.029832743
0.024165474 0.00042333335 -0.034618583
0.014204133 0.00042333335 -0.031305309
-0.0035049161 0 -0.035723008
0.011252625 0 -0.019156637
0.0046117315 0.00127 -0.0018539822
0.015679887 0.00042333335 -0.02909646
-0.021213965 0.00084666669 -1.3274273e-05
0.019369273 0.00127 -0.029464601
-0.0079321787 0 -0.00074955745
0.0038738546 -0.00042333335 -0.027255751
0.0079321787 -0.00084666669 -0.00074955745
-0.025272289 -0.00127 -0.02909646
0.019000335 0 -0.033146016
-0.0012912848 0 -0.023574336
0.016048826 -0.00042333335 -0.031305309
0.024165474 0 -0.013266372
0.016048826 -0.00042333335 -0.030200884
-0.023058658 -0.00127 -1.3274273e-05
-0.030437429 -0.00127 -0.0018539822
-0.002767039 0.00042333335 -0.0022221238
-0.027116982 0.00127 -0.031305309
-0.0075632399 0.00084666669 -0.0014858407
0.0086700553 0.00127 -0.031305309
0.01235944 -0.00127 -0.031305309
0.00092234631 0.00084666669 -0.00038141586
-0.016417764 0 -0.0055353981
0.027116982 0 -0.0011176991
-0.0094079329 0 -0.029832743
-0.029699551 0.00042333335 -0.0022221238
0.023058658 0 -0.00038141586
0.019369273 0.00084666669 -0.00074955745
0.02785486 -0.00042333335 -0.030937167
-0.030437429 -0.00042333335 -0.0014858407
0.022320781 -0.00127 -0.0022221238
0.026748043 0 -0.0033265485
0.010883686 0.00084666669 -1.3274273e-05
0.026748043 0.00042333335 -0.00038141586
0.024534412 0.00042333335 -0.029832743
-0.006456424 0 0.00035486731
0.022320781 -0.00084666669 -0.030200884
-0.0068253628 0.00042333335 -0.0011176991
-0.014942011 -0.00042333335 -0.0011176991
0.030806366 0.00042333335 -0.00074955745
-0.030437429 0 -0.029832743
-0.026748043 0.00042333335 -0.0025902654
-0.016786704 0 -0.025783185
-0.0083011165 -0.00084666669 -1.3274273e-05
-0.0086700553 0 0.0010911505
0.01014581 0.00042333335 -0.00038141586
-0.023058658 0.00127 -1.3274273e-05
0.013835195 0.00084666669 -0.0011176991
-0.016417764 0 -0.010689381
0.026379105 -0.00084666669 -0.029464601
0.014573072 0 -0.0022221238
-0.026379105 0.00127 -0.030200884
-0.023796534 0.00042333335 -0.029464601
0.011621564 0 -0.033146016
0.018262457 0.00127 -0.030937167
0.023796534 0.00084666669 -0.02909646
0.0053496086 0.00042333335 -0.02909646
-0.0094079329 -0.00084666669 -1.3274273e-05
-0.026379105 0 -0.030937167
0.031544246 0.00127 -0.030200884
-0.031175306 0 -0.0011176991
-0.0068253628 0.00084666669 -1.3274273e-05
0.016417764 0 -0.036091149
-0.014573072 0.00084666669 -0.030937167
0.026379105 0.00084666669 -0.00038141586
-0.013466257 0 -1.3274273e-05
-0.016417764 0 -0.010321239
-0.030068491 -0.00042333335 -0.031305309
0.029699551 -0.00127 -0.0011176991
-0.011252625 0.00127 -0.030937167
0.026010167 -0.00042333335 -0.0022221238
0.0020291619 0.00042333335 -0.0022221238
-0.013835195 0.00084666669 -0.029832743
0.017893519 -0.00127 -0.030200884
0.013097318 0.00042333335 -0.031305309
-0.0060874857 -0.00127 -0.0018539822
-0.016048826 -0.00084666669 -0.0018539822
0.021582903 -0.00042333335 -0.03167345
-0.013835195 0 -0.037195574
0.02785486 0.00084666669 -0.029464601
-0.021213965 -0.00042333335 -0.030200884
-0.015310949 -0.00042333335 -0.029832743
0.0049806703 0.00042333335 -0.029464601
-0.017155642 -0.00084666669 -0.0014858407
0.025641227 0.00127 -0.030569026
-0.002767039 0.00042333335 -0.029832743
-0.0038738546 -0.00042333335 -0.00038141586
0.02748592 -0.00042333335 -0.0014858407
0.031544246 0.00084666669 -0.030569026
0.020476088 -0.00084666669 -0.00038141586
0.006456424 0 -0.0033265485
0.0071943011 0.00084666669 -0.00038141586
0.016786704 0 -0.019156637
0.02785486 0.00084666669 -0.0022221238
0.0068253628 0.00084666669 -0.0011176991
-0.017155642 0.00127 -0.00074955745
0.00055340776 -0.00084666669 -0.00038141586
-0.0023981004 0.00042333335 -0.0014858407
0.031175306 0.00127 -0.00074955745
-0.024534412 0 -0.029832743
0.021582903 -0.00042333335 -0.0018539822
-0.012728379 0.00042333335 -0.02909646
-0.0079321787 -0.00042333335 -0.00038141586
0.0079321787 0.00042333335 -0.030937167
-0.012728379 0.00127 -0.00074955745
0.031913184 0 -0.021365486
-0.0083011165 0.00084666669 -0.0022221238
0.0012912848 0.00042333335 -0.027255751
-0.0097768707 -0.00127 -0.0022221238
0.01973821 -0.00127 -0.0022221238
0.022689719 0.00042333335 -0.031305309
-0.019369273 -0.00042333335 -0.030200884
-0.00018446926 0.00127 -0.030200884
0.023796534 0.00084666669 -1.3274273e-05
0.022320781 -0.00042333335 -0.0014858407
0.0046117315 -0.00127 -0.030937167
-0.014942011 0.00042333335 -1.3274273e-05
-0.024165474 -0.00084666669 -0.0018539822
0.01235944 0 -0.00038141586
0.031913184 0 -0.026519468
0.0090389941 0.00042333335 -0.02909646
0.015679887 -0.00084666669 -0.0018539822
-0.011252625 -0.00084666669 -0.031305309
0.027116982 0.00042333335 -1.3274273e-05
-0.024534412 -0.00042333335 -0.029832743
0.0086700553 0 -0.0095849559
-0.0060874857 0 -0.027992034
0.021213965 -0.00042333335 -0.031305309
-0.031913184 0 -0.034986723
0.00018446926 0 -0.030937167
0.00092234631 0 -0.029832743
-0.025641227 -0.00084666669 -0.00074955745
-0.029699551 0.00042333335 -0.00038141586
-0.020845028 -0.00127 -0.00074955745
-0.019000335 0.00042333335 -0.0025902654
-0.018631395 0.00042333335 -0.031305309
0.023796534 -0.00127 -0.00038141586
-0.031913184 0 -0.035354868
-0.010514748 -0.00042333335 -0.00074955745
-0.026379105 -0.00042333335 -0.02909646
-0.017893519 -0.00084666669 -0.030569026
-0.0012912848 0 -0.030200884
-0.028961675 0 -0.024310619
-0.028223798 0.00084666669 -0.030569026
0.02785486 0.00084666669 -0.0018539822
0.024165474 0.00042333335 -0.013266372
-0.015679887 -0.00127 -0.029832743
0.019369273 -0.00084666669 -0.030569026
-0.029699551 -0.00127 -0.0018539822
-0.014942011 -0.00127 -0.0011176991
0.011621564 0 -0.015843362
0.01973821 -0.00084666669 -0.0014858407
0.031544246 0 -0.024678761
0.016786704 0 -0.027623894
0.0083011165 0.00042333335 -0.031305309
0.016048826 -0.00127 -0.030937167
-0.016786704 -0.00042333335 -0.029832743
-0.0012912848 0.00084666669 -0.029464601
0.0090389941 0 -0.031305309
0.031544246 -0.00084666669 -0.0011176991
-0.0079321787 0.00042333335 -0.0022221238
-0.013835195 0 -0.027623894
0.018631395 -0.00127 -0.00038141586
0.025641227 0.00042333335 -0.0014858407
-0.029330613 0 -0.0070079644
0.022689719 0.00042333335 -0.0022221238
-0.031913184 0 -0.026519468
0.027116982 0.00127 -0.029832743
-0.00092234631 -0.00127 -0.0018539822
0.024165474 0 -0.01289823
0.016048826 0 -0.02909646
-0.02748592 0.00127 -0.029832743
-0.017893519 0.00042333335 -0.00038141586
0.0053496086 0.00127 -0.00074955745
0.0038738546 0.00042333335 -0.021365486
0.0012912848 0.00042333335 -0.028360177
-0.013097318 0.00127 -0.031305309
0.018631395 -0.00042333335 -0.0014858407
0.023796534 0 -0.00074955745
-0.010514748 0 -0.00038141586
0.010883686 0.00042333335 -0.030200884
-0.0090389941 0.00042333335 -0.016579645
0.019000335 0 -0.023942478
-0.0012912848 0 -0.036459289
0.031175306 -0.00084666669 -0.030937167
0.0068253628 0 -1.3274273e-05
-0.029330613 -0.00127 -1.3274273e-05
-0.011252625 0 -0.0066398229
-0.011252625 0 -0.011057522
-0.016417764 0.00042333335 -0.025046902
0.0049806703 0.00127 -0.00038141586
0.0071943011 0.00084666669 -0.0018539822
0.016048826 0.00084666669 -0.030569026
0.0086700553 0 -0.013634513
0.024165474 0 -0.0062716813
-0.0097768707 -0.00042333335 -0.0014858407
-0.023427596 -0.00127 -1.3274273e-05
-0.0031359775 -0.00042333335 -0.0011176991
-0.01235944 0.00127 -0.0018539822
-0.0086700553 0 -0.0055353981
-0.028961675 0 -0.025415044
-0.028223798 0.00042333335 -0.0014858407
0.021213965 -0.00127 -0.029464601
-0.022320781 0.00042333335 -0.0011176991
0.030068491 -0.00042333335 -0.030937167
-0.010883686 -0.00084666669 -0.0011176991
0.031913184 0 -0.031305309
0.023058658 0 -0.0014858407
-0.0083011165 0.00042333335 -0.02909646
-0.010514748 -0.00042333335 -0.02909646
0.011621564 -0.00084666669 -0.030937167
0.025641227 -0.00084666669 -0.030200884
-0.017893519 0.00042333335 -0.029464601
0.0090389941 -0.00042333335 -0.030569026
-0.028592736 0.00127 -0.0011176991
-0.0057185474 0.00127 -0.0014858407
-0.030437429 0.00084666669 -0.030200884
0.021582903 -0.00042333335 -0.034986723
0.010883686 -0.00042333335 -0.0011176991
-0.027116982 -0.00127 -0.030937167
-0.025641227 0.00127 -0.00038141586
-0.0046117315 0 -0.00038141586
-0.01235944 -0.00084666669 -0.00074955745
-0.011621564 0.00084666669 -0.0011176991
-0.026748043 -0.00042333335 -0.00074955745
-0.025641227 0.00042333335 -0.029832743
-0.0031359775 0 -0.02909646
0.0031359775 0 -0.0014858407
0.0090389941 -0.00127 -0.0011176991
-0.0042427932 0.00042333335 -0.030937167
0.014942011 0.00084666669 -0.029464601
0.01014581 -0.00127 -0.0011176991
0.011621564 0 -0.020997345
-0.014942011 0.00084666669 -0.031305309
0.0038738546 -0.00042333335 -0.03167345
0.014942011 -0.00084666669 -0.0018539822
0.013097318 0.00127 -0.00038141586
0.029330613 0.00042333335 -0.0011176991
-0.019000335 0.00084666669 -0.030200884
-0.014942011 0.00127 -0.030937167
0.0046117315 0.00042333335 -0.00038141586
-0.025641227 -0.00084666669 -0.029832743
0.031913184 -0.00084666669 -0.030937167
-0.0060874857 -0.00127 -0.0022221238
-0.015679887 0.00042333335 -0.030937167
-0.026010167 0.00042333335 -0.0014858407
0.018262457 -0.00127 -0.00038141586
0.010514748 0.00042333335 -1.3274273e-05
0.016417764 0 -0.028360177
0.021582903 0 -0.021365486
-0.016786704 0 -0.025415044
-0.016417764 0 -0.026887611
0.021951843 -0.00127 -0.030200884
-0.013835195 0 -0.023942478
0.0031359775 0 -0.029832743
-0.014942011 0.00127 -0.0022221238
-0.028592736 0.00084666669 -0.030569026
-0.016417764 0 0.00035486731
-0.014573072 -0.00042333335 -0.031305309
0.0083011165 -0.00127 -0.030200884
0.021213965 0.00084666669 -0.00074955745
0.016786704 -0.00042333335 -0.0018539822
-0.013835195 -0.00084666669 -0.00074955745
0.031175306 -0.00042333335 -0.0018539822
0.011252625 0 -0.0025902654
0.016417764 0.00084666669 -0.029832743
0.018262457 -0.00127 -0.030200884
0.00092234631 0 -0.031305309
-0.0060874857 -0.00042333335 -0.0014858407
0.025641227 -0.00084666669 -0.0018539822
-0.019369273 -0.00084666669 -0.00038141586
0.0086700553 -0.00042333335 -0.0022221238
-0.021582903 0.00042333335 -1.3274273e-05
-0.022320781 0.00127 -0.029832743
0.024165474 -0.00042333335 -0.030569026
0.021951843 -0.00084666669 -0.030937167
0.0079321787 -0.00042333335 -0.029464601
0.020476088 0.00042333335 -0.0018539822
0.0049806703 0 -0.0014858407
0.011252625 0 -0.021365486
0.011252625 0.00042333335 -0.0011176991
0.0031359775 0.00084666669 -0.0018539822
0.012728379 -0.00042333335 -0.031305309
-0.028961675 0 -0.014370796
-0.031175306 0.00084666669 -0.00038141586
-0.020845028 -0.00127 -0.0011176991
0.026748043 -0.00127 -0.02909646
0.016417764 -0.00084666669 -0.00038141586
0.022320781 0.00084666669 -0.0018539822
0.02748592 -0.00127 -0.0011176991
0.014573072 0.00042333335 -0.0014858407
-0.030437429 -0.00042333335 -0.029464601
0.0049806703 0.00084666669 -0.00074955745
-0.0086700553 0.00042333335 -0.00038141586
-0.011252625 0 -0.0077442476
-0.0060874857 0 -0.010689381
-0.0023981004 0.00042333335 -0.00038141586
0.020845028 0 -0.00038141586
0.027116982 -0.00042333335 -0.00074955745
-0.01752458 -0.00127 -0.00038141586
-0.0031359775 0 -0.00038141586
-0.017893519 0.00084666669 -0.00038141586
0.0012912848 0 -0.0066398229
-0.0090389941 0.00042333335 -0.034250442
-0.0020291619 0 -0.031305309
-0.016417764 -0.00127 -0.00038141586
0.013097318 0.00084666669 -0.029832743
0.016048826 0.00042333335 -0.030937167
-0.0038738546 -0.00042333335 -0.00074955745
0.01235944 0 -0.02909646
0.020845028 -0.00042333335 -0.0014858407
0.0097768707 -0.00127 -0.030937167
-0.0060874857 0 -0.026151327
0.016048826 0 -0.030569026
0.019000335 0 -0.021365486
-0.0094079329 0.00127 -0.00074955745
0.0042427932 0 -0.029832743
-0.023058658 0 -0.030937167
0.021582903 0 -0.026519468
0.011621564 -0.00042333335 -0.02909646
0.029699551 -0.00084666669 -0.030200884
0.023427596 -0.00042333335 -0.00074955745
-0.0042427932 0.00042333335 -0.031305309
-0.0035049161 0.00084666669 -0.0011176991
0.0086700553 0 0.0010911505
-0.028592736 0.00042333335 -0.02909646
0.017893519 0.00084666669 -0.029832743
0.0090389941 0.00127 -0.0014858407
0.025272289 0.00127 -0.0022221238
0.030806366 -0.00084666669 -0.00038141586
-0.028961675 0.00042333335 -0.030200884
0.0097768707 -0.00042333335 -0.031305309
0.024903351 -0.00042333335 -0.029464601
-0.011990502 0.00084666669 -0.0014858407
0.018262457 -0.00084666669 -0.00038141586
-0.031913184 -0.00042333335 -0.030569026
-0.027116982 0.00042333335 -0.0018539822
-0.028592736 0 -0.0018539822
0.026748043 -0.00042333335 -0.030569026
-0.0090389941 0 -0.027992034
0.010514748 -0.00127 -0.0018539822
-0.014573072 0.00042333335 -0.0011176991
0.013835195 0 0.0018274337
-0.021582903 -0.00084666669 -0.00038141586
0.019000335 0 -0.013634513
0.023058658 -0.00042333335 -0.030937167
-0.031544246 -0.00084666669 -0.030569026
0.021213965 -0.00084666669 -0.0018539822
0.0068253628 0.00042333335 -0.0011176991
0.0012912848 -0.00084666669 -1.3274273e-05
-0.016786704 0 -0.00074955745
0.024165474 0 -0.016579645
-0.0038738546 -0.00084666669 -0.0014858407
0.010514748 0.00042333335 -0.0022221238
-0.023058658 -0.00127 -0.00074955745
0.0031359775 -0.00042333335 -0.030569026
0.013466257 0.00042333335 -0.030200884
-0.017155642 0.00127 -0.00038141586
0.0079321787 -0.00042333335 -0.0022221238
-0.0053496086 0.00127 -0.00038141586
0.0071943011 0 -0.030569026
-0.023796534 0.00084666669 -0.031305309
0.028223798 0.00127 -0.029832743
0.00018446926 0 -0.029832743
-0.024534412 -0.00042333335 -0.00038141586
-0.028961675 -0.00084666669 -1.3274273e-05
0.024903351 -0.00127 -0.0018539822
0.030068491 -0.00042333335 -0.0018539822
-0.021951843 0 -0.0011176991
0.026748043 0 -0.019524779
-0.024165474 -0.00084666669 -0.00074955745
-0.01752458 0.00042333335 -0.02909646
-0.030068491 -0.00127 -0.029464601
0.023796534 0 -0.031305309
0.0090389941 0 -0.0025902654
0.0038738546 0.00042333335 -0.029832743
0.023427596 0.00084666669 -0.00038141586
-0.016048826 0.00084666669 -0.031305309
0.0031359775 -0.00042333335 -0.0014858407
0.002767039 0.00127 -0.031305309
-0.028592736 0.00084666669 -0.0022221238
-0.00018446926 -0.00127 -0.029832743
0.01235944 0 -1.3274273e-05
-0.010514748 0 -0.030937167
0.026748043 0 -0.015107079
0.00018446926 -0.00084666669 -0.00038141586
-0.025641227 -0.00127 -0.030569026
-0.021213965 -0.00127 -0.029464601
-0.032282121 0 -0.030937167
0.002767039 -0.00127 -1.3274273e-05
0.024903351 0.00042333335 -0.0011176991
0.019369273 0 -0.026887611
-0.00092234631 -0.00084666669 -0.0018539822
-0.016417764 0.00084666669 -0.00038141586
0.010514748 -0.00127 -0.0014858407
-0.014204133 0.00127 -0.00074955745
-0.024165474 0 -0.011057522
-0.0086700553 0 -0.00074955745
0.031175306 0.00084666669 -0.0022221238
0.019369273 0.00042333335 -1.3274273e-05
-0.032282121 -0.00084666669 -0.029832743
0.0079321787 0.00127 -0.0022221238
0.002767039 -0.00127 -0.031305309
-0.024165474 0 -0.033514157
0.0031359775 -0.00127 -0.02909646
0.0086700553 0.00127 -0.00038141586
0.011621564 0 0.00072300888
0.0090389941 -0.00127 -0.0018539822
-0.022320781 -0.00042333335 -0.00074955745
0.013466257 -0.00042333335 -0.0018539822
-0.027116982 0.00127 -0.0022221238
-0.011621564 0 -0.010689381
-0.01235944 0.00042333335 -0.0022221238
-0.016417764 0.00084666669 -1.3274273e-05
0.028961675 -0.00084666669 -0.030200884
0.022689719 -0.00127 -0.0014858407
0.028961675 -0.00084666669 -0.0011176991
-0.0038738546 0.00042333335 -0.034618583
0.028961675 -0.00127 -0.030937167
0.0060874857 0 -0.036091149
-0.030806366 0.00084666669 -0.030200884
-0.016048826 -0.00127 -0.0011176991
-0.028223798 -0.00084666669 -0.0011176991
0.015310949 0.00127 -1.3274273e-05
0.024534412 0.00042333335 -0.0018539822
0.0038738546 0 -0.036459289
-0.010883686 -0.00127 -0.00074955745
0.011990502 -0.00127 -0.0022221238
0.016786704 -0.00084666669 -0.0022221238
-0.0038738546 -0.00042333335 -0.035354868
-0.0086700553 0 -0.035354868
-0.026010167 -0.00127 -0.0018539822
-0.002767039 -0.00042333335 -0.029464601
-0.023058658 -0.00042333335 -0.029832743
-0.014942011 -0.00127 -0.030937167
-0.031544246 0 0.0010911505
-0.00092234631 0.00042333335 -0.0014858407
-0.021582903 0 -0.016947787
0.0020291619 -0.00084666669 -1.3274273e-05
-0.024165474 0 -0.031305309
-0.027116982 -0.00127 -0.030200884
-0.0071943011 0.00042333335 -0.0018539822
-0.022689719 0.00084666669 -0.0014858407
0.0046117315 -0.00042333335 -0.030937167
-0.020845028 0.00127 -0.00074955745
-0.026748043 0.00042333335 -0.00074955745
0.0086700553 0 -0.016211504
-0.028223798 0 -0.02909646
0.013097318 -0.00127 -0.030200884
0.0016602234 -0.00042333335 -0.00074955745
-0.023058658 -0.00042333335 -0.0022221238
0.0023981004 0 -0.029464601
-0.026748043 0 -0.035723008
-0.01752458 -0.00084666669 -1.3274273e-05
0.0097768707 0 -0.030569026
0.029330613 0 -0.023574336
-0.02785486 0.00084666669 -0.02909646
-0.0023981004 0.00042333335 -0.029464601
-0.0090389941 0.00042333335 -0.029832743
0.0035049161 0 -0.0059035397
0.011252625 0.00127 -0.031305309
-0.010514748 0.00127 -0.0014858407
-0.031544246 0 -0.020997345
-0.017893519 0.00042333335 -0.0022221238
-0.01235944 0.00127 -0.0022221238
0.0090389941 0.00084666669 -0.030569026
0.0031359775 0 -0.00074955745
-0.02010715 -0.00127 -0.0018539822
0.0049806703 -0.00084666669 -1.3274273e-05
-0.024165474 0.00084666669 -0.0022221238
-0.013097318 0.00127 -0.0014858407
0.021582903 0 -0.014738938
-0.0075632399 0 -0.0022221238
0.013466257 0.00084666669 -0.0018539822
0.029699551 -0.00127 -0.030569026
0.029699551 0.00084666669 -0.0018539822
0.028961675 0 -0.020261062
-0.0023981004 0.00042333335 -0.029832743
-0.016417764 0 -0.00074955745
0.012728379 -0.00042333335 -0.029832743
-0.0012912848 0.00042333335 -0.020629203
0.025272289 -0.00042333335 -0.031305309
-0.028961675 -0.00042333335 -0.029832743
-0.032282121 -0.00084666669 -0.00074955745
0.010514748 0.00084666669 -0.02909646
0.0038738546 0 -0.036827434
-0.031913184 0 -0.028360177
-0.016417764 0 -0.0081123896
0.011252625 0 -0.022838052
0.012728379 -0.00042333335 -0.00038141586
0.0035049161 -0.00127 -0.030200884
-0.028961675 0 0.00072300888
-0.030068491 -0.00042333335 -0.02909646
-0.00018446926 -0.00127 -0.00074955745
0.0083011165 0.00127 -0.030569026
-0.0042427932 0.00127 -0.0014858407
0.019000335 0 -0.034618583
0.011252625 0 -0.037195574
0.0023981004 0.00127 -0.030200884
-0.0094079329 0.00042333335 -0.0014858407
0.02010715 -0.00084666669 -0.0018539822
-0.030437429 0.00084666669 -0.00074955745
-0.018262457 0 -0.02909646
0.031913184 0 0.00035486731
0.031913184 0 -0.013634513
0.029330613 0 -0.0033265485
-0.026379105 0 0.00035486731
0.0035049161 0.00127 -0.029464601
-0.030068491 0 -0.030200884
-0.015310949 0 -0.030569026
0.0012912848 0.00042333335 -0.033514157
0.016786704 -0.00042333335 -0.030200884
0.029699551 0 -0.030569026
-0.024165474 -0.00042333335 -0.029464601
-0.030068491 0 -0.00074955745
0.013835195 0.00084666669 -0.00038141586
0.00092234631 0.00127 -0.0022221238
0.023427596 -0.00127 -0.031305309
-0.015310949 -0.00127 -0.02909646
0.026748043 0 -0.023206195
0.028592736 0.00042333335 -0.029464601
0.025641227 0.00127 -0.030200884
-0.010514748 0 -0.029832743
-0.013835195 -0.00042333335 -0.030569026
0.0012912848 -0.00042333335 -0.033514157
-0.017155642 -0.00042333335 -0.030200884
-0.0038738546 0.00042333335 -0.033882301
0.025272289 0.00042333335 -0.0011176991
-0.012728379 -0.00127 -0.029464601
0.025641227 0.00127 -0.0011176991
-0.0042427932 0 -0.030937167
0.031913184 0.00127 -0.030569026
0.0083011165 0 -0.0022221238
0.0042427932 -0.00084666669 -0.0018539822
-0.0071943011 -0.00127 -0.0011176991
-0.01752458 0.00042333335 -0.029464601
-0.0060874857 0 -0.0099530974
0.015679887 0.00084666669 -0.031305309
-0.0071943011 -0.00084666669 -0.0011176991
0.023427596 -0.00042333335 -0.029832743
0.011252625 0 -0.023206195
0.006456424 0.00127 -0.00074955745
-0.0042427932 -0.00084666669 -0.0022221238
-0.011621564 0 -0.0077442476
-0.02785486 -0.00084666669 -0.0014858407
-0.0090389941 0 -0.0055353981
0.028961675 0 -0.026151327
-0.026379105 0.00042333335 -0.030937167
-0.018631395 -0.00127 -0.0011176991
-0.006456424 0.00127 -0.030569026
0.011621564 0 -0.02909646
0.0053496086 0.00042333335 -0.0022221238
0.0090389941 0.00127 -0.030937167
-0.031544246 0 -0.0040628319
-0.027116982 0.00042333335 -0.0022221238
-0.0020291619 0 -0.02909646
-0.014942011 0.00127 -0.00074955745
-0.0035049161 -0.00127 -0.0011176991
-0.006456424 -0.00127 -0.030200884
-0.031913184 0 -0.033514157
-0.02010715 0.00084666669 -0.030569026
-0.021582903 0 -0.035354868
-0.002767039 0.00127 -0.0022221238
-0.030437429 0 -0.030200884
0.031913184 0 -0.028728317
0.027116982 0 -0.0022221238
-0.0060874857 0 0.00072300888
0.019000335 0 -0.011057522
0.016048826 0 -0.0022221238
0.021582903 0.00042333335 -0.029464601
0.014204133 0 -0.032409735
-0.029330613 -0.00042333335 -0.029464601
0.031544246 -0.00084666669 -0.029464601
0.02010715 0.00084666669 -0.0022221238
0.021951843 -0.00127 -0.031305309
-0.015679887 -0.00127 -0.00074955745
-0.016417764 0.00042333335 -0.0018539822
-0.00055340776 0 -0.0018539822
-0.029330613 -0.00084666669 -0.030200884
0.0097768707 0.00042333335 -0.030200884
-0.02785486 0.00127 -0.0011176991
-0.010883686 0.00127 -0.030200884
0.013097318 -0.00127 -1.3274273e-05
0.006456424 0.00084666669 -0.02909646
0.0068253628 -0.00042333335 -0.029464601
-0.0086700553 -0.00084666669 -0.0011176991
0.0012912848 0.00127 -0.00074955745
-0.015310949 -0.00084666669 -0.030200884
-0.0016602234 0.00127 -0.030937167
-0.01973821 -0.00084666669 -0.030200884
-0.013466257 0.00127 -0.029464601
-0.026748043 0 -0.011425664
-0.015679887 0 -0.0018539822
0.0094079329 0.00127 -0.0014858407
-0.0012912848 -0.00042333335 -0.027992034
-0.024534412 0 -0.00038141586
-0.027116982 0 -0.02909646
-0.0038738546 0 -0.0033265485
0.0038738546 0.00127 -1.3274273e-05
-0.00055340776 0.00084666669 -0.029464601
0.031913184 0 -0.032409735
0.016786704 0 -0.0036946901
0.018262457 -0.00042333335 -0.030200884
-0.0086700553 -0.00042333335 -0.030200884
-0.018631395 -0.00084666669 -0.00038141586
-0.017893519 0.00042333335 -0.030937167
0.00018446926 -0.00127 -0.02909646
-0.032651059 -0.00042333335 -0.030200884
0.011621564 0 -0.00038141586
-0.00018446926 0.00042333335 -0.030200884
0.019369273 -0.00084666669 -0.030937167
0.0068253628 0.00042333335 -0.0022221238
0.021582903 0 -0.015475221
0.00055340776 0.00042333335 -0.029464601
-0.017155642 0 -0.031305309
-0.0090389941 0.00042333335 -0.015475221
-0.0057185474 -0.00042333335 -0.0011176991
0.006456424 0.00042333335 -0.029464601
-0.0012912848 0.00127 -0.030200884
-0.021582903 -0.00042333335 -0.027992034
-0.0038738546 0.00127 -0.030937167
0.024534412 0 -0.0022221238
0.00092234631 -0.00042333335 -0.0022221238
0.014573072 -0.00042333335 -0.029464601
-0.0012912848 -0.00042333335 -0.034986723
-0.02785486 0.00084666669 -0.00038141586
0.024165474 0.00042333335 -0.036827434
-0.015679887 0.00042333335 -1.3274273e-05
0.028961675 0.00127 -1.3274273e-05
0.028961675 0 -0.011793805
-0.0094079329 -0.00127 -0.0018539822
-0.013097318 0.00127 -0.0022221238
-0.022689719 0 -0.00038141586
0.030068491 -0.00127 -0.031305309
0.016417764 -0.00084666669 -0.0014858407
0.031913184 0 -0.019524779
0.026748043 0 -0.013266372
0.026748043 -0.00127 -0.030569026
-0.012728379 0.00042333335 -0.029464601
-0.023058658 0.00127 -0.029832743
-0.0071943011 0.00084666669 -0.0022221238
0.0035049161 -0.00127 -0.029464601
-0.017155642 0.00042333335 -0.030937167
-0.024903351 0.00127 -1.3274273e-05
-0.0060874857 0 -0.037195574
0.02785486 0.00042333335 -0.029832743
0.029699551 -0.00084666669 -0.02909646
0.015310949 0.00084666669 -0.02909646
-0.01752458 0.00127 -0.030937167
0.031544246 0 -0.013266372
-0.0068253628 -0.00084666669 -0.0014858407
-0.017155642 -0.00127 -0.030937167
-0.0090389941 -0.00084666669 -0.0018539822
0.029330613 -0.00127 -0.030937167
0.026748043 -0.00084666669 -0.030569026
0.0094079329 0.00127 -0.031305309
-0.024165474 0.00042333335 -0.0011176991
0.021582903 0 -0.011793805
-0.02748592 0.00127 -0.030569026
0.010514748 -0.00042333335 -0.030569026
0.023058658 0.00084666669 -0.030937167
0.0016602234 0 -0.02909646
-0.0097768707 -0.00084666669 -0.0011176991
0.030068491 0 -0.00074955745
-0.0023981004 -0.00127 -0.029464601
-0.023796534 0 -0.029832743
0.031913184 0 -0.037195574
0.00092234631 0.00127 -0.00074955745
0.011621564 0 -0.0036946901
-0.0016602234 0.00127 -0.029832743
0.00055340776 -0.00042333335 -0.00038141586
0.0097768707 0.00084666669 -0.029464601
0.028961675 0 -0.014738938
0.019000335 0.00042333335 -0.0011176991
0.031544246 -0.00127 -0.029832743
0.006456424 -0.00084666669 -0.0011176991
0.0094079329 0 -0.029832743
0.020845028 -0.00127 -0.00074955745
0.029330613 0 -0.015107079
-0.0071943011 -0.00084666669 -0.02909646
-0.031913184 0 -0.024678761
0.0083011165 0.00127 -0.031305309
-0.030806366 0.00084666669 -0.00074955745
-0.0049806703 0 -0.00038141586
-0.0046117315 0.00042333335 -0.00038141586
0.010883686 -0.00042333335 -0.030937167
0.029330613 0.00084666669 -0.0014858407
0.028961675 0 -0.01289823
-0.012728379 -0.00127 -0.00038141586
0.026748043 0 -0.037195574
-0.032651059 0.00084666669 -0.030200884
0.0079321787 0.00084666669 -0.031305309
0.019000335 0.00042333335 -0.025046902
0.01973821 0.00127 -0.0011176991
0.023427596 0.00042333335 -0.029832743
-0.0075632399 0.00127 -0.00074955745
-0.031913184 0 -0.025415044
-0.0060874857 0 -0.028728317
0.029330613 0.00084666669 -0.030937167
-0.0086700553 0 -0.032041591
0.02748592 0.00042333335 -0.0022221238
0.018262457 0.00084666669 -0.030937167
-0.029330613 0 -0.0040628319
-0.032282121 -0.00127 -0.00038141586
0.027116982 -0.00042333335 -0.02909646
-0.0071943011 -0.00127 -0.031305309
0.022689719 0.00042333335 -0.00074955745
0.028592736 0.00127 -0.0018539822
-0.028223798 -0.00042333335 -0.031305309
0.0086700553 0 -0.027255751
-0.030437429 -0.00084666669 -0.030200884
0.014573072 0.00084666669 -0.029464601
-0.0016602234 -0.00084666669 -0.00038141586
0.0060874857 0 -0.03167345
0.014942011 0.00127 -0.02909646
-0.022320781 -0.00042333335 -0.0018539822
0.0060874857 0.00042333335 -0.030569026
-0.006456424 -0.00084666669 -0.0014858407
-0.024165474 -0.00127 -0.030569026
0.023796534 -0.00127 -0.031305309
0.026379105 0 -0.032777876
0.011621564 -0.00127 -0.031305309
0.020845028 0 -0.0022221238
-0.011621564 0 -0.033882301
-0.0090389941 0 -0.025415044
0.024165474 0.00127 -0.030937167
0.0090389941 0 -1.3274273e-05
-0.011621564 0 -0.0051672566
0.013835195 -0.00084666669 -0.0022221238
0.019000335 0.00127 -0.0022221238
0.0075632399 0 -0.02909646
-0.021213965 0.00127 -0.030937167
0.0035049161 0 -0.0062716813
0.010883686 -0.00127 -0.029832743
0.013835195 0.00042333335 -0.0025902654
0.019369273 0 -0.0059035397
0.027116982 -0.00084666669 -1.3274273e-05
-0.014942011 -0.00084666669 -0.0014858407
0.031175306 -0.00042333335 -0.00074955745
0.00092234631 0.00042333335 -0.00038141586
0.016786704 0 -0.015475221
-0.024165474 0 -0.034250442
-0.006456424 0 -0.0055353981
-0.032282121 -0.00042333335 -0.0014858407
-0.00092234631 -0.00042333335 -0.030200884
0.030068491 -0.00127 -0.030937167
-0.030437429 0.00127 -0.00038141586
-0.0090389941 0 -0.030569026
0.0042427932 0 -0.029464601
-0.00092234631 0.00127 -0.0014858407
0.02010715 -0.00127 -0.0014858407
0.022320781 0.00127 -0.030569026
0.019000335 0 0.0029318584
-0.0035049161 0 -0.0084805312
0.0023981004 0.00042333335 -0.0014858407
-0.026010167 -0.00127 -1.3274273e-05
-0.01014581 0 -0.030569026
-0.011252625 0 -0.0092168143
-0.022320781 -0.00127 -0.0018539822
-0.011621564 0 -0.01768407
-0.00092234631 -0.00042333335 -0.030569026
0.030806366 -0.00084666669 -0.030569026
0.0086700553 0 -0.031305309
0.015679887 -0.00127 -0.00038141586
-0.016417764 0 -0.0044309734
0.0057185474 0 -0.0022221238
-0.0060874857 0 -0.023574336
-0.0049806703 -0.00127 -0.030200884
-0.0071943011 0 -0.0014858407
0.031913184 0 -0.007376106
-0.019000335 -0.00084666669 -0.031305309
0.028592736 0.00042333335 -0.0014858407
0.0053496086 -0.00127 -0.029832743
0.029330613 0 -0.027255751
-0.022320781 0 -0.030937167
-0.023796534 -0.00127 -0.030569026
-0.022689719 -0.00084666669 -1.3274273e-05
0.011252625 -0.00042333335 -0.031305309
-0.016048826 0.00084666669 -0.00074955745
0.016786704 0 -0.03167345
0.0083011165 0.00042333335 -0.0011176991
-0.029330613 0 -0.032041591
-0.016048826 0.00084666669 -0.00038141586
-0.026010167 0 -0.030200884
0.026748043 0 -0.022101769
0.0035049161 -0.00042333335 -0.0011176991
-0.016417764 0.00042333335 -0.030569026
-0.028961675 0.00084666669 -0.0014858407
0.02010715 0.00084666669 -0.030200884
-0.028592736 0.00127 -0.00038141586
-0.017155642 -0.00127 -0.00074955745
-0.0012912848 0 -0.0018539822
-0.011252625 0.00127 -0.029832743
-0.011990502 -0.00127 -0.029464601
0.01235944 -0.00042333335 -0.030569026
-0.00055340776 0 -0.029464601
0.010514748 0.00127 -0.0018539822
-0.023058658 -0.00084666669 -0.029832743
-0.01014581 -0.00127 -0.00038141586
-0.020845028 -0.00084666669 -0.031305309
-0.026748043 0 -0.031305309
-0.0035049161 0 -0.013634513
0.0035049161 0.00084666669 -0.0018539822
-0.028961675 0.00042333335 -0.030937167
-0.029330613 0 -0.0025902654
-0.0038738546 0 -0.028360177
-0.011621564 0 -0.0081123896
0.0075632399 -0.00042333335 -0.030937167
-0.02748592 0.00042333335 -0.030200884
-0.022689719 -0.00042333335 -0.029464601
-0.016786704 -0.00127 -1.3274273e-05
-0.031913184 0 -0.031305309
0.019000335 0.00042333335 -0.0066398229
0.031175306 -0.00127 -0.0011176991
-0.014573072 0.00127 -0.00074955745
-0.024165474 -0.00042333335 -0.030200884
-0.0071943011 0 -0.030937167
0.0094079329 0.00042333335 -0.030569026
0.023058658 0 -0.030200884
-0.015679887 0 -0.02909646
-0.015310949 0.00042333335 -0.029832743
0.019369273 0 0.0025637168
-0.019369273 0.00127 -0.0022221238
-0.024534412 0.00127 -0.00038141586
0.019000335 0.00084666669 -0.0014858407
0.020476088 -0.00042333335 -0.02909646
-0.0094079329 -0.00042333335 -0.030200884
-0.013835195 0 -0.013634513
-0.01752458 0.00127 -0.0018539822
-0.028961675 0 -0.028360177
0.0071943011 0.00127 -0.0018539822
0.0090389941 0 -0.033146016
-0.019000335 0 0.001459292
-0.02010715 0.00127 -0.030569026
0.0097768707 -0.00084666669 -0.030200884
-0.0090389941 0.00042333335 -0.033882301
-0.028223798 0.00127 -0.0011176991
0.024165474 0 0.001459292
0.0012912848 0 -0.012161947
0.017155642 -0.00084666669 -0.0022221238
0.014204133 0 -0.016211504
0.029699551 0.00127 -0.0022221238
0.011252625 -0.00127 -0.00038141586
-0.014204133 0.00084666669 -0.0011176991
0.021582903 0 0.00035486731
0.023058658 0.00084666669 -0.031305309
-0.0049806703 -0.00084666669 -0.0014858407
-0.011990502 0.00042333335 -0.0011176991
-0.013835195 0 -0.016947787
0.014573072 -0.00127 -0.00038141586
0.0038738546 0 -0.029832743
0.016786704 0 -0.0055353981
-0.021951843 -0.00084666669 -0.0022221238
0.0071943011 -0.00042333335 -0.02909646
0.011621564 0 -0.014002655
0.024903351 0.00042333335 -0.0022221238
0.006456424 0 -0.022838052
-0.0042427932 0.00127 -0.00074955745
-0.018262457 0.00127 -0.031305309
0.010514748 -0.00042333335 -0.0022221238
0.0016602234 0 -0.030200884
0.002767039 0.00127 -1.3274273e-05
0.028223798 0.00042333335 -0.02909646
-0.011252625 0 -0.026151327
0.029330613 0 -0.034618583
0.024165474 0 -0.016947787
0.0071943011 0.00084666669 -0.0011176991
-0.0079321787 0.00127 -1.3274273e-05
-0.02748592 -0.00042333335 -0.00074955745
0.031175306 0 -0.00074955745
-0.023058658 -0.00127 -0.030569026
-0.0016602234 0.00127 -0.0011176991
0.026379105 0.00127 -0.030200884
0.011990502 0.00127 -0.0018539822
-0.0090389941 0 0.0018274337
0.011990502 0 -0.0011176991
-0.013097318 0.00127 -1.3274273e-05
-0.028223798 -0.00084666669 -0.029832743
-0.0020291619 0.00084666669 -0.029464601
0.023796534 0.00084666669 -0.030937167
0.013835195 0.00084666669 -0.030200884
-0.0079321787 -0.00042333335 -0.0022221238
0.0042427932 0.00127 -1.3274273e-05
0.0031359775 -0.00084666669 -0.02909646
-0.031913184 0 -0.007376106
-0.030068491 0 -0.030937167
0.030068491 0.00127 -0.031305309
0.0090389941 -0.00042333335 -0.028728317
-0.011621564 0.00042333335 -0.0018539822
-0.006456424 0 -0.0066398229
-0.01014581 -0.00127 -0.029832743
-0.014573072 0 -0.0011176991
0.026748043 0.00127 -0.0018539822
-0.012728379 -0.00042333335 -0.030569026
0.031913184 0 -0.020261062
0.014204133 -0.00127 -0.029832743
-0.010883686 0.00042333335 -0.0014858407
-0.0012912848 0.00042333335 -0.0014858407
-0.0046117315 -0.00084666669 -0.02909646
-0.016417764 0.00042333335 0.001459292
-0.00055340776 0.00042333335 -0.029464601
0.026379105 -0.00084666669 -0.0011176991
0.023058658 0.00127 -0.029832743
0.023058658 -0.00084666669 -0.030937167
0.024165474 0 -0.0092168143
-0.016417764 0 -0.01768407
-0.016786704 0 -0.0018539822
-0.013466257 0.00042333335 -0.0018539822
0.0094079329 -0.00084666669 -0.00074955745
-0.02010715 0.00127 -0.0018539822
0.011621564 0 0.00035486731
-0.021582903 0 -0.024678761
-0.032282121 0.00042333335 -0.030937167
0.014942011 0 -0.0014858407
0.011252625 0 -0.036459289
-0.015679887 0.00042333335 -0.0011176991
0.011621564 0 -0.0095849559
-0.016786704 0 -0.029464601
0.02748592 -0.00127 -0.029464601
-0.00055340776 0.00127 -1.3274273e-05
0.030068491 0.00084666669 -0.00074955745
0.01752458 0 -1.3274273e-05
0.0060874857 0 -0.016579645
-0.0068253628 -0.00127 -0.0018539822
-0.0038738546 0 -0.018052213
-0.019000335 0 -0.0095849559
0.023796534 0 -0.0014858407
0.024903351 0 -0.030569026
0.028961675 0.00084666669 -0.0014858407
-0.023427596 -0.00084666669 -0.00074955745
-0.021951843 -0.00042333335 -0.029464601
0.032651059 -0.00084666669 -0.0014858407
-0.024165474 0.00084666669 -0.030937167
0.013466257 0.00127 -1.3274273e-05
-0.024165474 -0.00042333335 -0.03167345
0.0075632399 0.00042333335 -0.00038141586
-0.027116982 0 -0.030200884
0.02785486 -0.00127 -0.0022221238
-0.01014581 -0.00084666669 -0.031305309
-0.0057185474 -0.00042333335 -0.029464601
0.019369273 0 -0.030200884
-0.023058658 -0.00127 -0.0022221238
-0.030806366 0 -0.029464601
0.011252625 0.00042333335 -0.0022221238
0.00018446926 -0.00127 -0.00074955745
0.019000335 0 -0.022838052
-0.01973821 -0.00127 -0.031305309
0.00018446926 0.00042333335 -0.030569026
-0.021951843 0.00127 -0.00038141586
0.019369273 0.00127 -0.031305309
-0.0075632399 0.00127 -0.0014858407
-0.019000335 0 0.0021955753
0.011252625 0.00084666669 -0.031305309
-0.019369273 0 -0.0011176991
0.0086700553 0 -0.032409735
0.016786704 0 0.0025637168
0.021213965 0.00042333335 -0.029832743
0.013097318 0.00042333335 -0.0011176991
0.0068253628 -0.00042333335 -0.031305309
-0.0060874857 0 -0.023942478
0.011252625 0 -0.016211504
-0.012728379 0.00042333335 -0.0022221238
-0.0079321787 0.00127 -0.00074955745
0.025272289 -0.00127 -0.030569026
-0.0057185474 -0.00042333335 -0.031305309
0.023427596 0.00127 -0.00074955745
0.031544246 0.00127 -0.0018539822
-0.0068253628 0 -0.029464601
0.0079321787 0.00084666669 -0.0022221238
0.013835195 0.00042333335 -0.025046902
0.0012912848 0.00042333335 -0.014738938
0.017893519 -0.00127 -0.00038141586
-0.030437429 0.00042333335 -0.030200884
0.014204133 0.00042333335 -0.030569026
0.024165474 0.00042333335 -0.0059035397
-0.020845028 0 -0.029832743
0.026379105 0 -0.0051672566
-0.0090389941 0 -0.0081123896
0.014573072 0.00127 -1.3274273e-05
-0.011621564 -0.00084666669 -1.3274273e-05
0.018631395 -0.00084666669 -0.00038141586
0.032651059 0.00042333335 -0.0022221238
0.0083011165 0.00127 -0.00074955745
0.023796534 -0.00127 -0.0018539822
-0.026748043 0 -0.0011176991
-0.019369273 -0.00127 -0.0022221238
-0.018631395 -0.00084666669 -0.031305309
0.020845028 -0.00084666669 -0.030200884
0.0060874857 0.00084666669 -0.030569026
0.0046117315 0 -0.030937167
-0.016417764 0 -0.036827434
-0.0049806703 -0.00042333335 -0.0022221238
0.024534412 -0.00127 -0.0011176991
-0.0012912848 0.00042333335 -0.011425664
0.029699551 -0.00127 -0.031305309
-0.0038738546 0.00042333335 -0.028728317
0.014204133 0.00084666669 -0.00038141586
0.0038738546 0.00042333335 -0.025415044
-0.020476088 -0.00084666669 -0.030937167
0.014573072 0.00084666669 -0.02909646
-0.0097768707 -0.00042333335 -0.0018539822
-0.019000335 0 -0.0022221238
0.0079321787 -0.00084666669 -0.0011176991
-0.0038738546 0.00042333335 -0.015107079
-0.016417764 0 -0.023942478
0.0031359775 0.00084666669 -0.0011176991
0.031175306 0.00084666669 -0.0018539822
-0.019000335 0.00127 -0.030200884
0.002767039 -0.00042333335 -0.030200884
0.027116982 -0.00042333335 -0.030200884
-0.01973821 -0.00042333335 -0.029464601
0.0094079329 0.00042333335 -0.029464601
0.028961675 -0.00042333335 -0.029832743
0.014204133 0 -0.035354868
-0.021582903 0.00042333335 -0.02909646
-0.0075632399 -0.00084666669 -0.0014858407
0.013466257 0.00127 -0.0018539822
-0.012728379 0 -0.029832743
0.026010167 -0.00042333335 -0.0018539822
-0.016786704 0 -0.01989292
-0.018262457 -0.00084666669 -0.0011176991
0.032282121 -0.00127 -0.0014858407
0.026748043 -0.00042333335 -0.031305309
-0.020845028 -0.00084666669 -0.030569026
0.029330613 0 -0.012161947
0.0031359775 -0.00042333335 -0.00074955745
0.0046117315 -0.00042333335 -0.0014858407
0.021213965 -0.00084666669 -0.00074955745
-0.0012912848 0 -0.0036946901
0.028223798 0 -0.00038141586
0.026010167 0.00127 -0.0022221238
-0.02010715 -0.00084666669 -0.030569026
0.014942011 -0.00042333335 -0.00038141586
-0.026379105 0 -0.028360177
-0.01973821 -0.00127 -0.00074955745
0.0071943011 -0.00127 -0.029832743
0.0012912848 0.00042333335 -0.0014858407
-0.022320781 0.00042333335 -0.00038141586
0.031913184 0.00127 -0.00074955745
0.026010167 -0.00127 -0.0011176991
-0.006456424 -0.00084666669 -0.02909646
-0.021582903 -0.00084666669 -0.0018539822
-0.024903351 -0.00084666669 -0.0014858407
-0.025272289 0 -0.030569026
0.014204133 0 -0.033882301
0.0049806703 -0.00084666669 -0.029464601
-0.019000335 0 -0.034986723
0.014573072 0.00127 -0.031305309
0.031913184 0.00127 -0.030937167
-0.0049806703 0.00042333335 -0.0014858407
0.018631395 -0.00084666669 -0.030569026
0.019369273 0.00084666669 -0.030569026
0.0090389941 0 -0.012161947
0.00055340776 -0.00042333335 -0.02909646
-0.01235944 -0.00042333335 -0.0011176991
-0.006456424 0 -0.033882301
0.024165474 0 -0.018052213
0.0035049161 -0.00042333335 -0.030937167
-0.0020291619 0.00042333335 -0.00074955745
-0.018631395 0 -0.029464601
0.018262457 0.00084666669 -0.00074955745
-0.0079321787 0.00127 -0.030200884
-0.0038738546 0 -0.019156637
-0.011252625 0 -0.0011176991
0.028223798 -0.00127 -0.00074955745
0.013835195 0 -0.036827434
0.020476088 -0.00127 -0.0014858407
-0.015310949 0.00084666669 -0.0018539822
0.021582903 -0.00042333335 -0.028728317
0.024165474 0.00042333335 -0.015843362
-0.031175306 0.00084666669 -0.029464601
-0.012728379 -0.00042333335 -0.0022221238
0.028961675 -0.00042333335 -0.02909646
0.0086700553 0 -0.004799115
-0.027116982 -0.00127 -0.029832743
-0.025272289 0.00127 -0.029464601
0.016786704 0 -0.0044309734
0.0012912848 0 -0.015843362
-0.010514748 0 -0.00074955745
-0.016786704 0.00042333335 -0.030937167
-0.013835195 0.00127 -1.3274273e-05
-0.0031359775 0.00042333335 -0.00074955745
0.032282121 0.00042333335 -0.0022221238
-0.013466257 -0.00042333335 -0.029464601
0.0023981004 0.00127 -0.029832743
-0.0012912848 0.00042333335 -0.010689381
-0.023796534 0 -0.030937167
0.014204133 -0.00042333335 -0.029832743
-0.0086700553 0 -0.022101769
0.013835195 0 -0.029832743
-0.024903351 0.00127 -0.0014858407
-0.024165474 0.00127 -0.0014858407
0.025641227 0 -0.0014858407
0.025641227 -0.00127 -0.030569026
0.0060874857 0 -0.00074955745
0.021951843 0.00127 -0.030200884
-0.0075632399 0 -0.029832743
-0.031913184 -0.00042333335 -0.02909646
0.018262457 0.00127 -0.0011176991
-0.022320781 0.00127 -0.00038141586
0.018631395 -0.00084666669 -0.0014858407
0.016786704 -0.00084666669 -0.030937167
-0.021213965 0.00042333335 -0.02909646
-0.02010715 0.00127 -0.031305309
0.0079321787 -0.00127 -0.0011176991
0.0012912848 0.00042333335 -0.023942478
-0.026748043 0 0.0025637168
0.013466257 0.00042333335 -0.02909646
-0.011621564 0 -0.027623894
-0.030806366 -0.00084666669 -0.029832743
-0.0079321787 0 -0.0018539822
-0.021582903 0.00127 -0.0014858407
-0.0053496086 -0.00084666669 -0.02909646
0.024165474 0.00042333335 0.00035486731
0.0016602234 -0.00042333335 -0.029832743
0.0075632399 0.00042333335 -0.02909646
-0.026379105 -0.00127 -0.0011176991
-0.002767039 0 -0.0011176991
-0.028961675 0 0.001459292
0.032282121 -0.00084666669 -0.0011176991
-0.031544246 0 -0.025415044
0.021951843 -0.00042333335 -0.029464601
-0.017155642 0.00084666669 -0.0014858407
0.017155642 -0.00042333335 -0.00074955745
-0.028961675 0.00042333335 -0.0011176991
-0.030437429 0.00084666669 -0.0018539822
0.0038738546 0 0.0018274337
-0.019369273 0.00084666669 -0.00074955745
-0.018262457 0.00042333335 -0.0011176991
0.028961675 0.00127 -0.0022221238
0.016417764 0.00127 -0.0018539822
-0.0053496086 -0.00127 -0.00038141586
0.0060874857 -0.00042333335 -0.0018539822
-0.0038738546 0 -0.020629203
-0.031175306 -0.00084666669 -0.029832743
0.023427596 0 -0.030200884
0.011621564 -0.00084666669 -0.030569026
0.026010167 0 -0.00038141586
0.018262457 -0.00042333335 -0.0014858407
-0.014942011 -0.00127 -0.0022221238
-0.029699551 0 -0.02909646
0.002767039 -0.00127 -0.029832743
-0.019000335 0 -0.0029584069
0.031175306 -0.00084666669 -0.029832743
0.02748592 0.00084666669 -0.030200884
-0.006456424 0.00042333335 -0.029464601
-0.02785486 0.00042333335 -0.02909646
-0.016786704 0 -0.027992034
0.022320781 0.00042333335 -0.030937167
-0.032282121 -0.00127 -0.029832743
-0.011252625 -0.00127 -0.0014858407
0.02748592 -0.00127 -0.0014858407
0.018262457 -0.00042333335 -0.0022221238
-0.015310949 0 -0.029832743
-0.016417764 0 -0.023574336
0.0012912848 0.00042333335 -0.027992034
-0.0057185474 -0.00042333335 -0.0014858407
0.0053496086 0.00084666669 -0.030569026
0.031913184 0 -0.0040628319
0.0075632399 -0.00084666669 -0.029832743
-0.014204133 0 -0.03167345
0.01973821 -0.00084666669 -0.0011176991
0.0083011165 0 -0.030200884
0.016786704 0.00084666669 -0.0011176991
-0.021213965 0 -0.0014858407
-0.002767039 0.00127 -0.0014858407
0.029330613 0 -0.01989292
-0.0038738546 0.00042333335 -0.023942478
-0.00055340776 -0.00042333335 -0.029832743
-0.030806366 -0.00084666669 -0.031305309
-0.029330613 0.00042333335 -0.029832743
0.006456424 0 -0.01289823
-0.030437429 -0.00084666669 -0.0018539822
0.024165474 0.00084666669 -0.0022221238
-0.022320781 -0.00127 -1.3274273e-05
0.031175306 -0.00042333335 -0.029832743
0.031913184 0 -0.027992034
-0.0090389941 0 -0.007376106
-0.016786704 0 -0.033882301
0.031913184 0 -0.01989292
-0.014573072 0.00084666669 -0.00074955745
-0.026748043 0.00042333335 -0.02909646
0.02748592 -0.00127 -0.030569026
-0.028961675 0 0.0010911505
0.026748043 0 0.0010911505
0.021582903 0 -0.020261062
0.028961675 0 0.00072300888
-0.029330613 -0.00127 -0.00038141586
-0.013097318 0.00084666669 -0.00074955745
-0.013835195 -0.00127 -0.030937167
0.028223798 0 -0.0014858407
0.016417764 0 -0.018788496
0.024165474 -0.00084666669 -0.0014858407
0.0038738546 0.00042333335 -0.015843362
-0.010514748 -0.00127 -1.3274273e-05
0.006456424 -0.00127 -0.00038141586
-0.015679887 -0.00084666669 -1.3274273e-05
0.029699551 -0.00084666669 -0.0014858407
0.006456424 0.00042333335 -0.030937167
-0.014573072 0.00042333335 -0.030937167
0.028961675 0.00127 -0.029464601
0.026010167 -0.00084666669 -0.00074955745
-0.024903351 -0.00127 -0.029832743
-0.024165474 0.00127 -0.030937167
0.016417764 0 -0.022101769
-0.032651059 0.00042333335 -0.030569026
0.0038738546 0 -0.035723008
-0.014573072 -0.00127 -0.030200884
0.030437429 0.00084666669 -0.031305309
0.021213965 0 -0.0014858407
-0.0075632399 0.00042333335 -0.00038141586
0.0038738546 0.00042333335 -0.0011176991
0.026379105 0 0.001459292
0.012728379 0.00127 -0.029464601
-0.010883686 0.00084666669 -0.0018539822
-0.030068491 0 -0.030569026
0.011621564 -0.00042333335 -0.0018539822
0.01014581 -0.00042333335 -0.030200884
0.016786704 0 -0.025783185
-0.02010715 -0.00084666669 -0.00038141586
0.026748043 0 0.0025637168
0.016048826 -0.00127 -1.3274273e-05
-0.0031359775 0.00127 -0.029464601
0.025641227 0.00084666669 -0.00074955745
0.024903351 0.00127 -1.3274273e-05
-0.022689719 0.00127 -0.00038141586
0.01752458 -0.00084666669 -0.00074955745
0.0038738546 0 -0.019524779
0.026379105 0 -0.0081123896
0.0035049161 0 -0.007376106
-0.0068253628 0 -0.0018539822
-0.030068491 -0.00042333335 -0.030200884
-0.028961675 0 -0.017315928
0.032282121 0.00084666669 -0.029464601
0.0075632399 -0.00084666669 -0.029464601
-0.021582903 0.00042333335 -0.03167345
0.011252625 0 -0.032777876
