# .PCD v0.7 - Point Cloud Data file format
VERSION 0.7
FIELDS x y z
SIZE 4 4 4
TYPE F F F
COUNT 1 1 1
WIDTH 1193
HEIGHT 1
VIEWPOINT 0 0 0 1 0 0 0
POINTS 1193
DATA ascii
0.032793593 -0.0032083332 -0.0037159091
0.019905282 -0.0032083332 -0.00025227267
0.032793593 0.00058333331 -0.0016954545
0.022769351 0.0034999999 -0.0022727272
0.020478096 0.0034999999 -0.0042931815
-0.02105091 -0.0034999999 -0.0086227274
-0.001861645 -0.0020416665 -0.00025227267
0.025347013 -0.0034999999 -0.0031386362
0.022769351 0.00029166666 0.0011909092
0.0044393074 -0.0034999999 -0.0071795452
0.00014320346 0.0029166667 -0.0089113638
-0.017041212 -0.00058333331 -0.00025227267
-0.013604329 -0.0017499999 -0.00025227267
0.015036364 -0.0034999999 -0.00054090901
-0.0010024243 0.00058333331 -0.0092000002
-0.030788746 0 -0.0089113638
-0.011885888 -0.0034999999 -0.0031386362
0.026779048 -0.0034999999 -0.0057363636
-0.029070303 -0.00058333331 -0.0089113638
0.024774199 -0.0014583333 -0.00025227267
0.0087354118 -0.0034999999 -0.0074681817
0.027065456 0.0034999999 -0.0011181817
-0.016468398 -0.0017499999 -0.0089113638
-0.016181992 0.0032083332 -0.0089113638
-0.029356711 0.0020416665 -0.0089113638
0.029643117 0.0034999999 -0.0071795452
0.0073033767 -0.0034999999 -0.0031386362
-0.030215932 0.0020416665 -0.0089113638
-0.015322771 0.0034999999 -0.0045818179
0.017614026 0.0034999999 -0.0034272727
-0.018473247 0.0034999999 -0.0077568181
0.030502338 0.0034999999 -0.0080454545
-0.025633421 0.0020416665 -0.00025227267
0.0004296104 0.0034999999 -0.006025
-0.013317922 -0.0034999999 -0.006025
0.014749957 -0.0011666666 -0.00025227267
0.018473247 0.0017499999 -0.0089113638
-0.012745108 -0.0023333333 -0.0089113638
-0.0087354118 0.0034999999 -0.0068909088
0.01446355 -0.00029166666 -0.00025227267
0.024201386 -0.0014583333 -0.0089113638
-0.015036364 0.00058333331 0.0029227273
0.020191688 -0.0034999999 -0.0051590907
0.006730563 0.0034999999 -0.0086227274
0.018186839 -0.0034999999 -0.0066022724
-0.006730563 0.002625 -0.0089113638
-0.032507185 -0.00029166666 -0.00025227267
0.032793593 0.0011666666 -0.0086227274
-0.013031515 0.0034999999 -0.0089113638
-0.028497489 0.0032083332 -0.0074681817
0.032793593 -0.00029166666 -0.006025
-0.032793593 -0.0014583333 -0.0074681817
-0.0041529005 0.00029166666 0.00090227276
-0.016181992 -0.0034999999 -0.0031386362
-0.00014320346 -0.00058333331 -0.00025227267
-0.010167446 -0.0032083332 -0.00025227267
0.02763827 -0.0034999999 -0.0068909088
-0.018186839 0.0023333333 -0.00025227267
0.022482945 0.0034999999 -0.0025613636
-0.0038664935 -0.0034999999 -0.0074681817
0.018186839 0.0034999999 -0.0074681817
0.032507185 0.0017499999 -0.0042931815
-0.019905282 0.0034999999 -0.0066022724
-0.020478096 -0.00058333331 -0.0089113638
0.0081625972 0.0034999999 -0.0074681817
0.031647965 -0.0034999999 -0.0063136364
0.0038664935 -0.0034999999 -0.0063136364
0.005871342 -0.0034999999 -0.0019840908
-0.027351862 0.0034999999 -0.0028499998
0.031647965 -0.0034999999 -0.0074681817
0.019618874 -0.0032083332 -0.0089113638
0.031361558 -0.0034999999 -0.0042931815
0.0038664935 -0.0034999999 -0.0083340909
-0.019046061 -0.0034999999 -0.0016954545
0.013031515 -0.0034999999 -0.0068909088
-0.0041529005 0.00058333331 0.0011909092
0.019905282 -0.0034999999 -0.0022727272
0.0090218186 0.0034999999 -0.00025227267
-0.0035800866 -0.0034999999 -0.0034272727
-0.0052985284 -0.0034999999 -0.0048704543
0.0032936798 -0.0023333333 -0.0089113638
0.00071601733 0.0029166667 -0.00025227267
0.027351862 0.0023333333 -0.0089113638
0.013031515 0.0034999999 -0.0066022724
0.016181992 -0.0014583333 -0.0089113638
-0.020478096 0.0034999999 -0.0011181817
0.010453853 -0.0034999999 -0.0028499998
0.0041529005 0.0014583333 -0.0089113638
0.011599481 -0.0034999999 -0.0054477272
0.0090218186 0.00058333331 -0.00025227267
0.0047257142 -0.0034999999 -0.0016954545
0.019046061 0.0034999999 -0.0051590907
0.026779048 0.00029166666 0.0017681818
0.028783897 0.0011666666 -0.00025227267
-0.0044393074 -0.0034999999 -0.0077568181
-0.032793593 -0.0014583333 -0.0031386362
0.030788746 -0.0034999999 -0.0019840908
-0.023342164 0.0032083332 -0.0089113638
0.0078761904 0.0034999999 -0.0089113638
0.002148052 0.0034999999 -0.0014068182
-0.030502338 0.0032083332 -0.0066022724
-0.00071601733 0.0029166667 -0.00025227267
0.006730563 0.0034999999 -0.0077568181
0.016181992 0.0034999999 -0.0042931815
-0.012745108 -0.0034999999 -0.0054477272
-0.021337317 0.0034999999 -0.0016954545
-0.025633421 0.00087499997 -0.00025227267
-0.016754806 -0.0034999999 -0.0077568181
0.015895585 -0.002625 -0.0089113638
-0.015609178 0.0034999999 -0.0068909088
0.031361558 -0.0034999999 -0.00025227267
-0.011599481 0.00058333331 0.0026340908
0.032793593 -0.0017499999 -0.0031386362
0.0035800866 -0.00087499997 -0.0089113638
-0.011885888 0.0034999999 -0.0074681817
-0.012458702 -0.0034999999 -0.0040045455
-0.0004296104 0.00058333331 3.636369e-05
0.031647965 -0.0034999999 -0.0040045455
0.012172295 0.0034999999 -0.0042931815
0.00071601733 0.0034999999 -0.0040045455
0.016181992 -0.0034999999 -0.006025
-0.0032936798 0.0034999999 -0.0014068182
0.014177144 -0.0017499999 -0.00025227267
-0.0070169698 -0.0029166667 -0.0089113638
-0.02649264 0.00029166666 0.0011909092
-0.015895585 0.00058333331 -0.0089113638
-0.0087354118 -0.0029166667 -0.00025227267
0.0012888312 0.0034999999 -0.0028499998
0.011885888 -0.00087499997 -0.0089113638
-0.00071601733 0.0034999999 -0.0083340909
-0.0095946323 -0.0029166667 -0.00025227267
0.032220781 -0.0034999999 -0.0066022724
-0.027351862 -0.0034999999 -0.0083340909
0.031934373 -0.0034999999 -0.0071795452
-0.026206234 0.0034999999 -0.0071795452
-0.011599481 -0.0011666666 -0.0089113638
0.010167446 0.0034999999 -0.0031386362
0.017900433 -0.0034999999 -0.0042931815
0.014749957 0.0034999999 -0.0048704543
0.008449004 -0.0034999999 -0.0048704543
-0.0064441562 -0.0011666666 -0.00025227267
0.013890736 -0.0034999999 -0.0019840908
0.0055849352 -0.0034999999 -0.0051590907
-0.028211083 -0.0034999999 -0.0045818179
-0.0024344588 -0.0029166667 -0.00025227267
-0.017900433 0.00029166666 -0.00025227267
-0.024487793 0.0034999999 -0.0080454545
0.0044393074 -0.0011666666 -0.0089113638
-0.032793593 -0.0017499999 -0.0037159091
-0.027351862 0.0034999999 -0.0054477272
0.030215932 -0.0034999999 -0.0086227274
0.021623723 0.0034999999 -0.00082954537
0.013317922 -0.0034999999 -0.0066022724
-0.026779048 0.00029166666 0.0011909092
0.019332469 0.0034999999 -0.0011181817
-0.02649264 0.0034999999 -0.0040045455
0.0064441562 0.00058333331 -0.0089113638
-0.030788746 -0.00058333331 -0.0089113638
-0.013317922 0.0032083332 -0.00025227267
-0.0030072727 -0.0034999999 -0.0014068182
-0.026206234 0.0020416665 -0.0089113638
-0.016181992 -0.0034999999 -0.0011181817
0.032507185 0.0032083332 -0.006025
-0.006730563 0.0034999999 -0.0074681817
0.022196537 0.0034999999 -0.0083340909
0.00014320346 -0.0032083332 -0.00025227267
-0.032507185 -0.0017499999 -0.0089113638
0.025919827 0.0011666666 -0.0089113638
0.0032936798 0.0034999999 -0.006025
-0.014177144 0.0014583333 -0.00025227267
0.020478096 -0.0034999999 -0.0045818179
-0.0093082255 -0.0034999999 -0.0080454545
0.00014320346 -0.0034999999 -0.0048704543
0.0095946323 0.00029166666 -0.0089113638
0.0024344588 0.0034999999 -0.0057363636
-0.028211083 0.0034999999 -0.0063136364
-0.016181992 0.0034999999 -0.0016954545
-0.012172295 -0.0011666666 -0.0089113638
0.023055758 -0.0034999999 -0.0037159091
0.015895585 0.0034999999 -0.00082954537
-0.022196537 -0.0034999999 -0.00025227267
0.029929524 -0.00058333331 -0.0089113638
0.018759655 -0.0014583333 -0.00025227267
-0.0075897835 0.0011666666 0.0023454546
0.010167446 0.0020416665 -0.0089113638
0.027924675 0.0034999999 -0.0019840908
0.0095946323 0.0034999999 -0.0011181817
0.02763827 0.0034999999 -0.0025613636
-0.029356711 -0.00029166666 -0.0089113638
0.012458702 0.0034999999 -0.0071795452
0.031075152 0.00029166666 -0.00025227267
0.019046061 0.0011666666 0.0029227273
-0.0055849352 -0.0034999999 -0.0022727272
0.020478096 0.0020416665 -0.00025227267
0.0050121215 -0.0034999999 -0.0028499998
0.028497489 -0.0034999999 -0.0025613636
-0.013031515 -0.0034999999 -0.0028499998
-0.031361558 0.00087499997 -0.00025227267
-0.023628572 0.0034999999 -0.00025227267
-0.016754806 -0.0011666666 -0.0089113638
0.011885888 -0.0034999999 -0.0074681817
-0.028497489 -0.0017499999 -0.00025227267
0.0064441562 -0.0011666666 -0.00025227267
-0.019618874 -0.0034999999 -0.0034272727
0.0073033767 -0.0011666666 -0.0089113638
-0.018473247 0.00029166666 -0.0089113638
-0.029643117 0.0011666666 -0.00025227267
0.013031515 0.00087499997 -0.00025227267
-0.011026666 0.0020416665 -0.0089113638
0.029929524 -0.0034999999 -0.0063136364
-0.02649264 0.00087499997 3.636369e-05
0.0004296104 0.0034999999 -0.0034272727
0.0081625972 0.0034999999 -0.0022727272
-0.016468398 0.0034999999 -0.0057363636
-0.02105091 0.0034999999 -0.0028499998
0.023055758 -0.0034999999 -0.0051590907
0.012172295 0.00058333331 -0.0089113638
0.016468398 0.0023333333 -0.00025227267
-0.00014320346 0.0034999999 -0.0057363636
0.012745108 -0.00058333331 -0.0089113638
0.015322771 0.0017499999 -0.00025227267
-0.0093082255 0.0017499999 -0.00025227267
0.031075152 -0.0034999999 -0.0089113638
-0.025919827 0.0023333333 -0.0089113638
-0.021623723 0.0029166667 -0.0089113638
-0.030215932 0.00058333331 0.0014795455
-0.018186839 -0.0017499999 -0.0089113638
0.013031515 0.0034999999 -0.0040045455
-0.018186839 0.0034999999 -0.00054090901
0.023914978 0.0014583333 -0.00025227267
-0.018473247 -0.0017499999 -0.00025227267
-0.023342164 0.0034999999 -0.0089113638
-0.019046061 0.00029166666 0.00090227276
-0.023914978 0.002625 -0.00025227267
-0.020764502 0.00087499997 -0.00025227267
0.0098810392 0.0034999999 -0.0034272727
-0.023342164 -0.0023333333 -0.00025227267
0.027065456 0.0034999999 -0.0077568181
0.0038664935 0.0034999999 -0.0080454545
0.010167446 -0.0034999999 -0.00082954537
-0.0095946323 0 -0.00025227267
0.025060607 -0.0014583333 -0.0089113638
-0.0061577489 0.0034999999 -0.0066022724
-0.023055758 0.00058333331 0.0026340908
-0.031361558 -0.00087499997 -0.00025227267
0.032793593 -0.002625 -0.0037159091
-0.032793593 0.00087499997 -0.0014068182
-0.015609178 0.002625 -0.00025227267
-0.032793593 0.0020416665 -0.0068909088
-0.022196537 0.0034999999 -0.0051590907
-0.0035800866 0.0034999999 -0.0048704543
0.029070303 -0.0034999999 -0.0083340909
0.018473247 -0.0023333333 -0.00025227267
-0.021623723 -0.0034999999 -0.0028499998
-0.028211083 -0.0011666666 -0.00025227267
-0.0095946323 0.0034999999 -0.00054090901
-0.00071601733 -0.002625 -0.00025227267
0.025633421 -0.0034999999 -0.0034272727
-0.011026666 -0.002625 -0.00025227267
-0.02649264 0.00058333331 0.0026340908
0.026779048 0.00087499997 0.0029227273
-0.013604329 0.00029166666 -0.00025227267
0.024201386 0.0029166667 -0.0089113638
0.023628572 -0.0011666666 -0.00025227267
-0.011599481 -0.0034999999 -0.0068909088
-0.0050121215 -0.0014583333 -0.00025227267
-0.016181992 0.0034999999 -0.0042931815
0.017900433 -0.0034999999 -0.0063136364
0.030215932 0 -0.0089113638
-0.029356711 0.0034999999 -0.0014068182
0.028211083 -0.0020416665 -0.0089113638
0.013604329 -0.0034999999 -0.0063136364
0.022482945 0.0034999999 -0.0080454545
0.011313073 -0.0023333333 -0.0089113638
0.013317922 0.0034999999 -0.0074681817
0.0047257142 -0.0029166667 -0.00025227267
0.010167446 0.0034999999 -0.0068909088
0.026779048 0.0034999999 -0.0074681817
-0.0087354118 -0.0034999999 -0.0040045455
-0.028211083 0 -0.0089113638
-0.0044393074 -0.0034999999 -0.0051590907
-0.025347013 0.0014583333 -0.00025227267
0.020478096 0.00058333331 -0.0089113638
0.025347013 -0.0023333333 -0.0089113638
-0.0012888312 -0.00058333331 -0.0092000002
-0.015036364 0.0034999999 -0.0077568181
0.019905282 -0.0032083332 -0.0089113638
-0.025919827 -0.002625 -0.0089113638
0.0078761904 0.0034999999 -0.0063136364
-0.0030072727 -0.0017499999 -0.00025227267
-0.010453853 -0.0023333333 -0.0089113638
0.0081625972 0.0034999999 -0.0037159091
-0.032793593 -0.0011666666 -0.0025613636
-0.032220781 -0.0034999999 -0.0019840908
0.032793593 -0.0023333333 -0.0042931815
0.018759655 -0.0034999999 -0.0031386362
-0.023914978 -0.0034999999 -0.0040045455
0.013890736 0.0034999999 -0.00054090901
0.018473247 -0.0034999999 -0.0074681817
-0.030215932 0.00058333331 -0.0089113638
-0.0055849352 -0.0034999999 -0.0019840908
0.016754806 0.00058333331 -0.00025227267
-0.0038664935 0.0034999999 -0.0057363636
0.013604329 -0.002625 -0.00025227267
0.013604329 0.0011666666 -0.00025227267
-0.017900433 -0.0017499999 -0.0089113638
-0.0098810392 0.0034999999 -0.0034272727
0.028497489 0.0034999999 -0.0040045455
-0.0050121215 0.0034999999 -0.0042931815
-0.022196537 -0.0011666666 -0.0089113638
0.019905282 -0.0034999999 -0.00054090901
-0.016754806 -0.0034999999 -0.0016954545
-0.020764502 0.0034999999 -0.0031386362
0.015036364 0.0034999999 -0.0048704543
0.01074026 0.0034999999 -0.0086227274
0.015322771 0.0011666666 0.00090227276
0.02763827 -0.0034999999 -0.0031386362
-0.032507185 0.0032083332 -0.0068909088
-0.010167446 -0.0034999999 -0.0048704543
0.010167446 -0.0032083332 -0.0089113638
-0.019046061 0.0034999999 -0.0037159091
-0.023628572 -0.0034999999 -0.0074681817
-0.024201386 0.0011666666 -0.00025227267
0.02763827 -0.0034999999 -0.0045818179
-0.001861645 0.0011666666 -0.0089113638
0.011313073 0.0034999999 -0.0040045455
0.014749957 0.0017499999 -0.0089113638
-0.032793593 -0.002625 -0.00054090901
-0.02763827 0.0034999999 -0.0071795452
-0.02105091 -0.0034999999 -0.00082954537
-0.0064441562 -0.002625 -0.0089113638
-0.014749957 -0.002625 -0.0089113638
0.013890736 0.0034999999 -0.0063136364
-0.017041212 0.0023333333 -0.0089113638
0.031361558 -0.0014583333 -0.0089113638
0.020478096 0.0032083332 -0.00025227267
0.024201386 -0.0034999999 -0.0022727272
0.031075152 -0.0029166667 -0.0089113638
-0.0070169698 0.00087499997 -0.0089113638
-0.019905282 0.0020416665 -0.0089113638
-0.0050121215 -0.0034999999 -0.0031386362
0.01074026 0.0020416665 -0.00025227267
-0.015322771 0 -0.0089113638
-0.023055758 -0.0029166667 -0.00025227267
0.011885888 0.0023333333 -0.0089113638
0.031934373 0.0034999999 -0.0042931815
-0.005871342 0.0034999999 -0.0083340909
0.032793593 -0.0023333333 -0.00025227267
-0.014749957 0.0034999999 -0.0048704543
-0.015609178 -0.0034999999 -0.0089113638
0.032507185 -0.00087499997 -0.0089113638
0.015036364 0.0034999999 -0.0028499998
-0.022196537 0.0034999999 -0.0014068182
-0.0024344588 -0.0014583333 -0.00025227267
-0.00014320346 -0.00087499997 -0.00025227267
-0.032793593 -0.00087499997 -0.0051590907
-0.0010024243 -0.0034999999 -0.0011181817
-0.011313073 0.00029166666 0.0023454546
-0.032220781 0.0032083332 -0.0045818179
0.018473247 -0.0029166667 -0.0089113638
0.015609178 0.0034999999 -0.0077568181
0.0047257142 0.00029166666 -0.00025227267
0.0004296104 -0.0034999999 -0.0071795452
-0.015322771 0.0011666666 0.0011909092
0.032220781 -0.0017499999 -0.0089113638
-0.026779048 0.0034999999 -0.0031386362
-0.001861645 -0.0023333333 -0.00025227267
0.021623723 0.0011666666 -0.00025227267
-0.032220781 -0.0034999999 -0.0022727272
0.0032936798 -0.0034999999 -0.0037159091
0.015322771 0.0011666666 0.00032500006
0.00071601733 0.0014583333 -0.0089113638
-0.032793593 -0.0032083332 -0.0063136364
0.016468398 0.0014583333 -0.00025227267
-0.01446355 0.0020416665 -0.0089113638
0.031934373 -0.0034999999 -0.0045818179
-0.028783897 -0.0034999999 -0.0048704543
-0.030502338 0.0032083332 -0.0089113638
-0.030788746 0.00058333331 0.0023454546
0.025633421 -0.0034999999 -0.0019840908
-0.0041529005 0.0034999999 -0.0034272727
0.032220781 0.0034999999 -0.0066022724
-0.0070169698 0.00029166666 -0.0089113638
0.020191688 0.002625 -0.0089113638
0.0098810392 0.0034999999 -0.0054477272
0.021623723 0.0034999999 -0.0016954545
0.029643117 0.00029166666 -0.0089113638
0.023628572 -0.0034999999 -0.0019840908
-0.006730563 -0.00058333331 -0.0089113638
0.00014320346 0.0034999999 -0.0016954545
0.001861645 -0.0034999999 -0.0057363636
0.0075897835 0.0034999999 -0.006025
0.0035800866 -0.0034999999 -0.0086227274
-0.023055758 0.0034999999 -0.0074681817
0.0032936798 -0.0034999999 -0.0089113638
0.029929524 0.0034999999 -0.0022727272
0.030788746 0.002625 -0.0089113638
-0.022769351 0.0011666666 0.0017681818
0.030788746 0.0034999999 -0.0077568181
-0.027065456 -0.0032083332 -0.00025227267
0.019046061 -0.0034999999 -0.0054477272
-0.008449004 0.0034999999 -0.0080454545
0.016754806 -0.00029166666 -0.0089113638
0.022196537 0.0034999999 -0.00082954537
-0.023342164 0.00058333331 -0.00025227267
-0.0078761904 0.0034999999 -0.006025
-0.019332469 0.0034999999 -0.0016954545
-0.0027208659 0.0020416665 -0.00025227267
-0.0030072727 0.0017499999 -0.00025227267
-0.011313073 0.00058333331 0.0032113637
-0.021337317 -0.0034999999 -0.0022727272
0.0055849352 0.0034999999 -0.0083340909
0.019618874 0.00087499997 -0.0089113638
0.023055758 -0.0029166667 -0.00025227267
0.010453853 -0.0029166667 -0.0089113638
-0.029070303 0.0032083332 -0.0080454545
-0.032793593 -0.0029166667 -0.0063136364
-0.030502338 0.00029166666 0.0023454546
-0.008449004 0.0034999999 -0.0054477272
0.020191688 0.0034999999 -0.00025227267
0.030215932 0.0034999999 -0.0068909088
-0.0090218186 -0.00087499997 -0.00025227267
-0.0098810392 0.0020416665 -0.00025227267
0.030502338 -0.0034999999 -0.006025
0.032507185 -0.0017499999 -0.0089113638
0.023914978 0.0034999999 -0.0034272727
0.018186839 0.0029166667 -0.0089113638
-0.03308 0.0017499999 -0.0016954545
0.032220781 -0.0032083332 -0.0089113638
-0.032793593 -0.0017499999 -0.0054477272
0.020478096 0.0034999999 -0.00025227267
0.030502338 0.0020416665 -0.0089113638
0.018759655 -0.0029166667 -0.0089113638
0.022196537 0.0032083332 -0.00025227267
-0.026779048 0.0034999999 -0.0040045455
0.032793593 -0.00029166666 -0.0057363636
-0.025919827 0.0034999999 -0.0083340909
-0.0010024243 0.0020416665 -0.0089113638
0.030788746 -0.0034999999 -0.0080454545
0.0047257142 0.0034999999 -0.0071795452
0.015609178 -0.0034999999 -0.006025
0.01732762 0.0034999999 -0.0016954545
-0.0075897835 0.0011666666 0.0020568182
0.019905282 0.0034999999 -0.0051590907
0.0070169698 -0.00029166666 -0.0089113638
0.0070169698 -0.0034999999 -0.00082954537
-0.027924675 0.002625 -0.00025227267
0.012745108 0.0034999999 -0.0080454545
-0.0095946323 -0.00058333331 -0.00025227267
-0.022769351 -0.0023333333 -0.0089113638
-0.025919827 -0.00029166666 -0.0089113638
0.021337317 0.0034999999 -0.0031386362
-0.016181992 -0.00058333331 -0.0089113638
0.029070303 0.0020416665 -0.0089113638
0.01074026 0.0034999999 -0.0028499998
-0.013604329 0.0034999999 -0.0019840908
0.015036364 -0.0034999999 -0.0034272727
-0.021337317 0.0034999999 -0.0028499998
-0.001861645 0.0034999999 -0.0014068182
0.0032936798 0.002625 -0.00025227267
0.0078761904 -0.0034999999 -0.00025227267
-0.019618874 0.0034999999 -0.0080454545
0.0041529005 -0.0034999999 -0.0063136364
-0.0030072727 -0.0034999999 -0.0034272727
0.005871342 0.0034999999 -0.0066022724
-0.016181992 0.002625 -0.00025227267
0.019046061 0.0034999999 -0.0057363636
-0.019332469 -0.0034999999 -0.0057363636
0.0081625972 0.0034999999 -0.0083340909
0.008449004 -0.0032083332 -0.0089113638
-0.0035800866 0.00058333331 0.0026340908
-0.030502338 0.00029166666 0.00090227276
-0.016181992 0.0011666666 -0.00025227267
0.021623723 0.0034999999 -0.0074681817
0.019046061 -0.0032083332 -0.00025227267
0.018759655 -0.00058333331 -0.0089113638
0.029929524 0.0034999999 -0.0074681817
0.016754806 0.0034999999 -0.0071795452
-0.011313073 0.0011666666 0.0011909092
-0.028497489 -0.0034999999 -0.0054477272
0.0098810392 -0.0011666666 -0.0089113638
-0.011599481 -0.0034999999 -0.0077568181
-0.029070303 0.0029166667 -0.0089113638
-0.030502338 0.00087499997 -0.0089113638
0.014177144 0.0034999999 -0.0040045455
-0.014177144 -0.0034999999 -0.0054477272
0.0081625972 -0.0011666666 -0.00025227267
0.027924675 -0.0020416665 -0.00025227267
-0.03308 0.0011666666 -0.0028499998
-0.001861645 -0.0029166667 -0.00025227267
-0.023055758 -0.0032083332 -0.00025227267
0.024774199 0.00029166666 -0.0089113638
0.02763827 0.0034999999 -0.0066022724
-0.002148052 0.00087499997 -0.0089113638
0.017614026 0.00029166666 -0.0089113638
-0.0052985284 0.0032083332 -0.0089113638
-0.020478096 -0.0034999999 -0.00054090901
-0.012458702 0.0034999999 -0.0019840908
-0.024201386 -0.0034999999 -0.0019840908
0.0012888312 0.00087499997 -0.00025227267
-0.016181992 -0.0034999999 -0.0068909088
-0.0064441562 -0.00087499997 -0.00025227267
0.013604329 -0.0034999999 -0.0077568181
0.032793593 0.0014583333 -0.0054477272
0.022769351 0.00087499997 0.0006136364
-0.031361558 0.00087499997 -0.0089113638
-0.010453853 -0.0034999999 -0.006025
-0.001861645 0.0034999999 -0.0016954545
0.0024344588 0.0034999999 -0.0083340909
-0.010453853 -0.0034999999 -0.00025227267
0.032220781 0.0034999999 -0.0037159091
0.029643117 -0.0023333333 -0.00025227267
-0.028497489 -0.0029166667 -0.00025227267
-0.0073033767 0.0034999999 -0.0089113638
0.029356711 -0.0034999999 -0.0054477272
-0.002148052 -0.0032083332 -0.0089113638
-0.0050121215 -0.0032083332 -0.00025227267
-0.019046061 -0.0034999999 -0.006025
0.0044393074 -0.0023333333 -0.0089113638
0.018186839 -0.0034999999 -0.0086227274
0.018473247 0.0011666666 -0.0089113638
-0.0032936798 -0.0034999999 -0.0022727272
0.0024344588 -0.0034999999 -0.0089113638
-0.032793593 0.0011666666 -0.0066022724
0.032793593 0.0034999999 -0.0019840908
0.018759655 -0.0011666666 -0.0089113638
0.0041529005 0.0034999999 -0.0054477272
-0.027065456 0.0034999999 -0.0016954545
0.029643117 0.0034999999 -0.0089113638
-0.016754806 0.0034999999 -0.0040045455
-0.011313073 -0.0034999999 -0.0054477272
0.011885888 0.0034999999 -0.0031386362
0.032793593 -0.0020416665 -0.0016954545
-0.032220781 0.0032083332 -0.0048704543
-0.0004296104 -0.0034999999 -0.0048704543
-0.0090218186 -0.0034999999 -0.0057363636
-0.025919827 0.0020416665 -0.0089113638
-0.0044393074 -0.0034999999 -0.0028499998
0.010167446 -0.0017499999 -0.00025227267
0.031361558 -0.0034999999 -0.0074681817
0.0012888312 -0.0034999999 -0.0031386362
0.032793593 -0.00087499997 -0.0045818179
0.0047257142 -0.0034999999 -0.0063136364
-0.023055758 -0.00087499997 -0.00025227267
0.024487793 0.0011666666 -0.0089113638
0.025633421 0.0034999999 -0.00025227267
-0.0061577489 0.0014583333 -0.00025227267
-0.029643117 0.0029166667 -0.00025227267
0.01074026 -0.0034999999 -0.0011181817
-0.032220781 -0.0020416665 -0.0089113638
0.016468398 0.0020416665 -0.00025227267
-0.032793593 0.002625 -0.0074681817
-0.018186839 0.0034999999 -0.0037159091
-0.02649264 -0.00029166666 -0.00025227267
-0.0030072727 -0.0029166667 -0.0089113638
0.011313073 -0.0034999999 -0.0054477272
0.011599481 -0.0034999999 -0.00082954537
0.005871342 0.00087499997 -0.00025227267
0.0070169698 0.0034999999 -0.0080454545
-0.001861645 -0.00029166666 -0.0092000002
0.03308 -0.0032083332 -0.0045818179
-0.023628572 0.0034999999 -0.0014068182
-0.018759655 0.00058333331 0.00032500006
-0.0055849352 0.0023333333 -0.00025227267
-0.020764502 -0.0034999999 -0.0019840908
-0.022769351 -0.0034999999 -0.0054477272
0.013317922 -0.002625 -0.0089113638
0.020764502 -0.0034999999 -0.0011181817
-0.001861645 -0.0020416665 -0.0089113638
-0.0070169698 0.0032083332 -0.0089113638
-0.00071601733 0.0034999999 -0.0054477272
-0.011885888 -0.0034999999 -0.0048704543
0.0041529005 -0.00029166666 -0.00025227267
0.0095946323 -0.0034999999 -0.0083340909
0.017614026 -0.0034999999 -0.00025227267
0.0032936798 -0.0034999999 -0.006025
0.010167446 -0.0032083332 -0.00025227267
-0.028497489 0.00058333331 -0.00025227267
-0.013031515 0.0011666666 -0.0089113638
-0.0087354118 -0.0034999999 -0.0037159091
-0.011599481 -0.0023333333 -0.00025227267
-0.0052985284 0.0011666666 -0.00025227267
-0.026779048 -0.0034999999 -0.0077568181
0.015895585 0.0034999999 -0.0077568181
0.022482945 0.0014583333 -0.0089113638
0.0050121215 -0.0034999999 -0.0019840908
0.0055849352 -0.0034999999 -0.0063136364
-0.027065456 -0.0034999999 -0.0031386362
0.030788746 0.00087499997 0.00090227276
-0.011313073 -0.0034999999 -0.0086227274
-0.01446355 0.0034999999 -0.0045818179
0.020478096 0.0023333333 -0.0089113638
-0.019618874 -0.0034999999 -0.006025
0.032793593 -0.0014583333 -0.0031386362
0.028497489 -0.0034999999 -0.0083340909
0.017041212 0 -0.00025227267
-0.020478096 0.0034999999 -0.0025613636
0.024487793 0.0034999999 -0.0083340909
0.0030072727 0.0017499999 -0.00025227267
0.024201386 -0.0034999999 -0.0025613636
-0.028497489 -0.0034999999 -0.0019840908
0.029070303 -0.0020416665 -0.00025227267
-0.019618874 0.0020416665 -0.00025227267
-0.0098810392 0.00087499997 -0.0089113638
0.023342164 0.002625 -0.0089113638
-0.0064441562 0.0034999999 -0.0042931815
0.005871342 0.0034999999 -0.0063136364
0.023628572 -0.0034999999 -0.0083340909
0.0090218186 -0.0017499999 -0.00025227267
0.021910131 0.0034999999 -0.006025
0.015036364 0.00029166666 0.0026340908
-0.027351862 0.0034999999 -0.00082954537
-0.029643117 -0.0017499999 -0.0089113638
0.0052985284 0.0034999999 -0.0083340909
0.015609178 -0.00058333331 -0.00025227267
0.002148052 -0.0023333333 -0.00025227267
0.0038664935 0.0011666666 0.0029227273
0.017041212 -0.0034999999 -0.0074681817
0.020478096 0.0017499999 -0.00025227267
0.018473247 0.0034999999 -0.0014068182
-0.0032936798 0.002625 -0.00025227267
-0.022196537 -0.0034999999 -0.0025613636
-0.032793593 0.0032083332 -0.0042931815
-0.02105091 0.0034999999 -0.0048704543
0.020478096 0.0020416665 -0.0089113638
-0.0004296104 -0.002625 -0.0089113638
0.03308 0.002625 -0.00082954537
-0.021910131 -0.0023333333 -0.0089113638
0.0081625972 0.0034999999 -0.0045818179
0.027924675 -0.0023333333 -0.00025227267
0.022482945 0.0034999999 -0.0051590907
-0.002148052 -0.0034999999 -0.0011181817
0.019332469 -0.0032083332 -0.0089113638
-0.0004296104 0.0020416665 -0.00025227267
-0.00014320346 0 -0.0092000002
0.032793593 0.00087499997 -0.0034272727
-0.010167446 -0.0034999999 -0.0025613636
-0.021910131 0.0014583333 -0.00025227267
0.015322771 0.0011666666 0.0014795455
0.01446355 0.0017499999 -0.0089113638
0.028497489 -0.00029166666 -0.00025227267
0.013604329 -0.0034999999 -0.0083340909
0.0015752381 -0.0034999999 -0.0074681817
-0.008449004 0.0034999999 -0.0048704543
0.01446355 -0.0034999999 -0.0011181817
0.015609178 0.0034999999 -0.0025613636
-0.025633421 0.0034999999 -0.0054477272
-0.011885888 -0.0034999999 -0.00082954537
0.0015752381 0.0011666666 -0.0089113638
0.032793593 0.00058333331 -0.0042931815
0.017041212 0.0034999999 -0.0011181817
0.018759655 -0.0034999999 -0.0071795452
-0.0027208659 0.0034999999 -0.0083340909
-0.027351862 0.0034999999 -0.0014068182
-0.0064441562 0.0029166667 -0.00025227267
0.006730563 0.0034999999 -0.00082954537
-0.015036364 0.0034999999 -0.0071795452
0.029070303 0.00058333331 -0.00025227267
0.019332469 0.0034999999 -0.006025
0.0027208659 0.0029166667 -0.00025227267
0.032793593 0.0011666666 -0.0068909088
0.021910131 0.0034999999 -0.0077568181
0.0087354118 -0.0034999999 -0.0014068182
0.024201386 0.0034999999 -0.0022727272
-0.001861645 -0.0017499999 -0.0089113638
-0.012458702 -0.0034999999 -0.0083340909
0.017900433 -0.00058333331 -0.0089113638
0.016754806 -0.0034999999 -0.0014068182
-0.017041212 0.0023333333 -0.00025227267
-0.011599481 0.0034999999 -0.0054477272
0.011026666 -0.0034999999 -0.0025613636
0.017041212 -0.0023333333 -0.00025227267
-0.0087354118 -0.0034999999 -0.0080454545
0.010453853 0.00029166666 -0.0089113638
-0.021623723 0.0034999999 -0.0089113638
0.022196537 0.0034999999 -0.0028499998
0.019618874 0.0023333333 -0.0089113638
-0.032220781 -0.00058333331 -0.0089113638
0.029929524 -0.0034999999 -0.0037159091
0.0041529005 0.0020416665 -0.00025227267
0.030215932 -0.0034999999 -0.0034272727
-0.0055849352 -0.0011666666 -0.00025227267
-0.031934373 0.0032083332 -0.0063136364
0.013890736 -0.0034999999 -0.0077568181
0.021337317 0.0034999999 -0.0045818179
0.0012888312 -0.0034999999 -0.0040045455
-0.020191688 -0.00029166666 -0.0089113638
0.0050121215 0.0034999999 -0.0011181817
-0.0024344588 -0.002625 -0.0089113638
0.014177144 0.0034999999 -0.0028499998
-0.0073033767 0.0034999999 -0.0048704543
-0.013604329 -0.0034999999 -0.0048704543
-0.023055758 -0.0011666666 -0.00025227267
0.01446355 0.0034999999 -0.00082954537
-0.023342164 0.0034999999 -0.0037159091
-0.029929524 -0.0034999999 -0.0080454545
-0.031647965 0.0023333333 -0.00025227267
-0.015322771 -0.0034999999 -0.0011181817
0.019618874 -0.0034999999 -0.0031386362
0.0015752381 0.0034999999 -0.0066022724
-0.013604329 -0.0034999999 -0.0031386362
0.0012888312 0.0034999999 -0.00082954537
-0.023914978 -0.0034999999 -0.00025227267
0.011313073 0.00087499997 0.0029227273
-0.0078761904 0.00058333331 -0.0089113638
-0.0044393074 -0.0034999999 -0.006025
-0.010453853 0.0034999999 -0.0063136364
0.017900433 -0.00029166666 -0.00025227267
0.010167446 0.0034999999 -0.0074681817
-0.029643117 0.0032083332 -0.0080454545
-0.025060607 0 -0.00025227267
0.021623723 -0.00087499997 -0.0089113638
0.008449004 -0.0034999999 -0.0011181817
-0.031361558 -0.0034999999 -0.0037159091
-0.015609178 0.002625 -0.0089113638
0.014177144 0.0034999999 -0.0057363636
-0.0041529005 0.00087499997 0.0014795455
-0.014749957 0.0034999999 -0.006025
-0.032793593 0.0029166667 -0.0045818179
-0.023628572 -0.0032083332 -0.0089113638
-0.0064441562 -0.0034999999 -0.0011181817
-0.0055849352 -0.0034999999 -0.0025613636
-0.002148052 -0.0034999999 -0.0068909088
-0.032793593 -0.002625 -0.0063136364
-0.010167446 0.0014583333 -0.0089113638
-0.0075897835 0.00029166666 0.0014795455
0.02105091 0.0011666666 -0.00025227267
-0.031647965 -0.0034999999 -0.0083340909
-0.020191688 0.0034999999 -0.0074681817
-0.024201386 0.0014583333 -0.00025227267
-0.0027208659 0.0034999999 -0.00054090901
-0.017900433 -0.0034999999 -0.00082954537
0.030502338 -0.00058333331 -0.0089113638
-0.028211083 0.0034999999 -0.0016954545
0.011313073 -0.0034999999 -0.0077568181
0.0061577489 0.0034999999 -0.0074681817
0.010453853 0.00087499997 -0.00025227267
0.00014320346 -0.0034999999 -0.0077568181
0.0098810392 0.0034999999 -0.0042931815
-0.015322771 -0.0034999999 -0.0025613636
-0.0004296104 0.0034999999 -0.0037159091
-0.032793593 -0.0017499999 -0.0031386362
0.005871342 0.0034999999 -0.0051590907
-0.0090218186 -0.0011666666 -0.0089113638
-0.023628572 -0.00029166666 -0.00025227267
0.0093082255 -0.0034999999 -0.0068909088
-0.02649264 0.0034999999 -0.0016954545
0.021337317 -0.0034999999 -0.0074681817
-0.0012888312 0.0034999999 -0.0014068182
0.019618874 0.002625 -0.00025227267
0.016468398 -0.0034999999 -0.0048704543
0.0073033767 0.0014583333 -0.00025227267
-0.030502338 0.00029166666 0.0006136364
-0.01074026 0.0034999999 -0.0045818179
0.028211083 -0.0034999999 -0.0077568181
-0.026206234 0.0034999999 -0.0068909088
-0.0035800866 -0.0034999999 -0.0089113638
0.0004296104 0.0034999999 -0.0022727272
-0.022769351 0.00029166666 0.0017681818
0.023055758 0.0034999999 -0.0014068182
-0.015609178 0.00087499997 -0.0089113638
-0.024774199 -0.00058333331 -0.00025227267
-0.01446355 0.0034999999 -0.00025227267
0.030502338 -0.0017499999 -0.00025227267
0.026206234 0.0034999999 -0.0025613636
0.0070169698 0.0034999999 -0.00054090901
-0.011313073 0.0034999999 -0.0089113638
-0.008449004 0.0034999999 -0.0066022724
-0.032507185 -0.00029166666 -0.0089113638
-0.008449004 0.0032083332 -0.0089113638
-0.032507185 -0.0034999999 -0.0063136364
-0.027065456 0.0017499999 -0.00025227267
0.026779048 0.00087499997 -0.0089113638
0.02105091 -0.0034999999 -0.0016954545
0.011313073 0.002625 -0.00025227267
-0.013890736 -0.0034999999 -0.0025613636
0.021623723 -0.00029166666 -0.00025227267
-0.0015752381 -0.0034999999 -0.006025
0.021337317 0.0034999999 -0.0051590907
0.019618874 0.0034999999 -0.0068909088
-0.001861645 -0.0034999999 -0.0014068182
-0.029929524 -0.0034999999 -0.0083340909
-0.032793593 0 -0.0045818179
0.010167446 -0.0034999999 -0.0051590907
-0.0032936798 -0.00029166666 -0.00025227267
0.032793593 0.002625 -0.0031386362
-0.011026666 -0.00058333331 -0.0089113638
-0.021910131 -0.0034999999 -0.0048704543
0.029929524 -0.0029166667 -0.00025227267
-0.020478096 -0.0034999999 -0.0083340909
0.013890736 -0.0034999999 -0.0042931815
0.023055758 -0.0034999999 -0.0057363636
0.0032936798 0.0034999999 -0.0040045455
0.031075152 -0.0011666666 -0.00025227267
0.01446355 0.0034999999 -0.0014068182
-0.0004296104 0.0034999999 -0.0083340909
-0.0073033767 0.00029166666 0.0006136364
-0.029643117 0.00087499997 -0.0089113638
-0.032793593 -0.00087499997 -0.00025227267
-0.0064441562 -0.0034999999 -0.0040045455
0.030788746 -0.00058333331 -0.00025227267
-0.025633421 0 -0.00025227267
0.015322771 -0.002625 -0.0089113638
-0.014177144 -0.0034999999 -0.0016954545
0.013604329 -0.0034999999 -0.0031386362
0.0024344588 -0.0017499999 -0.0089113638
-0.01074026 -0.002625 -0.0089113638
0.031934373 0.0034999999 -0.0074681817
-0.025919827 -0.0034999999 -0.0028499998
0.029356711 -0.00058333331 -0.0089113638
-0.019332469 0.0017499999 -0.0089113638
-0.027924675 -0.0034999999 -0.006025
-0.012745108 -0.0034999999 -0.0025613636
0.0061577489 0.0034999999 -0.0068909088
0.018186839 0.0034999999 -0.0080454545
0.0064441562 -0.0029166667 -0.00025227267
0.0032936798 0.0034999999 -0.0014068182
0.006730563 0.0017499999 -0.0089113638
0.027351862 0.0034999999 -0.0016954545
0.012172295 0.0020416665 -0.00025227267
-0.024201386 -0.0034999999 -0.0083340909
-0.017900433 0.0034999999 -0.0086227274
-0.031934373 0.0017499999 -0.0089113638
-0.01446355 0.00058333331 -0.0089113638
0.032793593 -0.0017499999 -0.0086227274
-0.024774199 0.0034999999 -0.0037159091
0.032793593 -0.0017499999 -0.0089113638
-0.027924675 0.0034999999 -0.0051590907
-0.011885888 -0.00058333331 -0.0089113638
-0.032793593 -0.0034999999 -0.0066022724
-0.015895585 -0.0034999999 -0.0034272727
0.022196537 -0.0032083332 -0.00025227267
0.011313073 0.0034999999 -0.0011181817
0.015036364 -0.0034999999 -0.0051590907
0.01732762 0 -0.0089113638
-0.005871342 -0.002625 -0.00025227267
-0.014177144 0.0034999999 -0.0051590907
-0.0070169698 -0.0034999999 -0.006025
-0.01446355 0.0020416665 -0.00025227267
-0.032507185 -0.0032083332 -0.0011181817
-0.032793593 -0.00029166666 -0.0086227274
0.0073033767 0.0034999999 -0.0074681817
-0.0070169698 0.0034999999 -0.0054477272
-0.0061577489 0.0034999999 -0.0045818179
0.029070303 0.0032083332 -0.00025227267
-0.0070169698 -0.0034999999 -0.0089113638
-0.01732762 0.0034999999 -0.0066022724
-0.030502338 0.00029166666 3.636369e-05
0.0078761904 0.0034999999 -0.0066022724
0.017041212 -0.0034999999 -0.0068909088
0.0047257142 -0.00058333331 -0.0089113638
-0.022769351 -0.0034999999 -0.0074681817
0.017900433 0.0034999999 -0.0051590907
0.032793593 0.0014583333 -0.0051590907
0.011026666 -0.0034999999 -0.0086227274
0.031647965 0.0034999999 -0.0040045455
0.0064441562 -0.0034999999 -0.0063136364
0.030215932 0.0034999999 -0.0028499998
-0.032793593 -0.0023333333 -0.0057363636
-0.0047257142 0.0034999999 -0.0028499998
-0.02649264 -0.0011666666 -0.0089113638
-0.028783897 -0.0023333333 -0.00025227267
0.019046061 -0.0034999999 -0.0083340909
0.027924675 -0.002625 -0.00025227267
0.028783897 0.0034999999 -0.0089113638
-0.010453853 0.0034999999 -0.0042931815
0.030215932 0.0034999999 -0.006025
-0.019618874 0.0034999999 -0.0011181817
0.016468398 -0.0034999999 -0.006025
0.0081625972 -0.0034999999 -0.0054477272
-0.0012888312 -0.0032083332 -0.00025227267
-0.017900433 -0.0034999999 -0.00054090901
0.001861645 -0.0034999999 -0.0022727272
-0.026206234 -0.0034999999 -0.0025613636
0.0095946323 -0.00029166666 -0.0089113638
0.02649264 0.0014583333 -0.0089113638
-0.020764502 0.0023333333 -0.0089113638
-0.012172295 -0.00058333331 -0.0089113638
-0.017041212 0.0034999999 -0.0089113638
0.027924675 0.0034999999 -0.0016954545
-0.015036364 -0.0034999999 -0.0080454545
-0.031361558 0.00058333331 -0.00025227267
0.0081625972 0.00058333331 -0.00025227267
-0.028211083 -0.00029166666 -0.0089113638
0.016468398 0.0034999999 -0.0086227274
-0.01074026 0.0034999999 -0.0051590907
0.01732762 -0.0034999999 -0.0040045455
0.0075897835 -0.0034999999 -0.0042931815
0.0061577489 0.0020416665 -0.00025227267
0.027065456 -0.0034999999 -0.0071795452
0.021623723 0.0014583333 -0.0089113638
-0.027065456 -0.0034999999 -0.0022727272
0.023055758 -0.0034999999 -0.0025613636
-0.0052985284 0.0034999999 -0.0063136364
-0.0052985284 -0.0020416665 -0.00025227267
0.024487793 -0.0034999999 -0.0048704543
-0.017041212 -0.0034999999 -0.0014068182
0.0032936798 -0.0032083332 -0.0089113638
-0.02763827 0.0014583333 -0.00025227267
0.025060607 -0.00029166666 -0.00025227267
0.013890736 -0.0020416665 -0.00025227267
-0.019618874 -0.0014583333 -0.0089113638
-0.0012888312 -0.0034999999 -0.0025613636
0.012745108 0.002625 -0.0089113638
-0.024201386 0.0029166667 -0.0089113638
-0.027065456 0.00058333331 0.0026340908
0.0050121215 0.0034999999 -0.0086227274
0.0064441562 0 -0.00025227267
0.00071601733 -0.002625 -0.00025227267
-0.02105091 0.0032083332 -0.0089113638
0.0073033767 -0.0034999999 -0.0068909088
-0.0081625972 0.0034999999 -0.0051590907
-0.019332469 0.00029166666 -0.0089113638
0.03308 0.0017499999 -0.00082954537
-0.021910131 0.0034999999 -0.0034272727
0.023914978 -0.0034999999 -0.0054477272
0.0004296104 -0.0011666666 -0.00025227267
0.0052985284 0.0034999999 -0.0037159091
0.0038664935 0.0034999999 -0.0040045455
-0.019046061 -0.0017499999 -0.00025227267
0.020191688 0.0034999999 -0.0066022724
0.022196537 -0.0034999999 -0.0074681817
-0.011599481 0.0023333333 -0.00025227267
-0.0093082255 -0.0032083332 -0.0089113638
0.013604329 -0.0032083332 -0.0089113638
-0.0012888312 0.0023333333 -0.00025227267
0.027351862 0.0034999999 -0.0083340909
-0.013604329 0.0020416665 -0.0089113638
-0.015322771 0.00029166666 -0.0089113638
0.0073033767 0.0034999999 -0.0031386362
0.0032936798 -0.0020416665 -0.0089113638
0.031075152 -0.0034999999 -0.0031386362
0.015322771 -0.0034999999 -0.0066022724
0.012745108 0.0034999999 -0.0031386362
0.013031515 -0.0034999999 -0.00082954537
0.015609178 0.0034999999 -0.0022727272
0.0032936798 -0.0034999999 -0.0071795452
-0.0075897835 0.0034999999 -0.0054477272
-0.032793593 -0.0014583333 -0.00082954537
-0.0030072727 -0.0034999999 -0.0025613636
-0.013031515 -0.0034999999 -0.00025227267
-0.027924675 -0.0032083332 -0.0089113638
0.0038664935 0.00087499997 0.0026340908
-0.029643117 0.0032083332 -0.0057363636
-0.027351862 0.0023333333 -0.00025227267
-0.0052985284 -0.0011666666 -0.00025227267
0.011599481 0.00029166666 0.0011909092
-0.016181992 -0.0034999999 -0.0048704543
0.017041212 -0.0034999999 -0.0057363636
0.028783897 -0.0034999999 -0.0074681817
0.026779048 0.00058333331 3.636369e-05
-0.013031515 0 -0.0089113638
-0.0098810392 -0.0034999999 -0.0016954545
0.0052985284 -0.0020416665 -0.00025227267
-0.019905282 -0.00087499997 -0.0089113638
0.011313073 -0.00087499997 -0.00025227267
-0.0038664935 0.0032083332 -0.00025227267
0.032220781 -0.0034999999 -0.00082954537
0.015895585 0.0034999999 -0.0048704543
0.031934373 -0.0034999999 -0.0011181817
0.030215932 -0.0034999999 -0.0040045455
0.0015752381 0.0014583333 -0.00025227267
-0.018759655 -0.0034999999 -0.0028499998
0.01446355 -0.0034999999 -0.0040045455
0.026206234 0.0034999999 -0.00054090901
-0.012745108 -0.0034999999 -0.0042931815
0.023055758 -0.0034999999 -0.0028499998
-0.019618874 0.0034999999 -0.0022727272
0.012172295 -0.0034999999 -0.0011181817
-0.005871342 0.0034999999 -0.0086227274
-0.0050121215 -0.0034999999 -0.0077568181
-0.018473247 0.0034999999 -0.0028499998
0.01732762 0.0032083332 -0.00025227267
0.019905282 0.0034999999 -0.0089113638
-0.015895585 0.0034999999 -0.00082954537
0.025060607 0.0034999999 -0.0066022724
-0.0055849352 0.0034999999 -0.0057363636
0.019905282 0.00058333331 -0.00025227267
-0.020478096 -0.0032083332 -0.00025227267
-0.0015752381 0.0034999999 -0.0086227274
0.0044393074 0.0011666666 -0.0089113638
-0.021337317 -0.0034999999 -0.0045818179
0.028211083 -0.0011666666 -0.00025227267
-0.011313073 0.0034999999 -0.0034272727
-0.0015752381 -0.0034999999 -0.00082954537
0.012458702 0.0020416665 -0.0089113638
0.027924675 -0.0034999999 -0.0031386362
0.024201386 0.0034999999 -0.0019840908
-0.0010024243 0.0034999999 -0.0034272727
0.031075152 0.0034999999 -0.0066022724
-0.0035800866 -0.0032083332 -0.00025227267
-0.0090218186 0.0020416665 -0.0089113638
-0.025060607 0.002625 -0.00025227267
0.025060607 -0.0034999999 -0.0080454545
0.012745108 0.0011666666 -0.00025227267
-0.028497489 0.002625 -0.0089113638
-0.025919827 -0.0034999999 -0.0077568181
-0.012458702 -0.0034999999 -0.00054090901
-0.0012888312 -0.0023333333 -0.00025227267
-0.019332469 0.0034999999 -0.0057363636
0.00014320346 0.0034999999 -0.0063136364
-0.02105091 0.0034999999 -0.0040045455
-0.028783897 -0.0034999999 -0.0045818179
0.032507185 0.0023333333 -0.006025
-0.012172295 0.0034999999 -0.0057363636
-0.012172295 0.0017499999 -0.00025227267
-0.0024344588 -0.00087499997 -0.00025227267
0.018186839 0.00029166666 -0.0089113638
0.023342164 -0.00029166666 -0.0089113638
-0.0035800866 0.00029166666 0.0020568182
-0.0030072727 0.0034999999 -0.0025613636
-0.032793593 0.00058333331 -0.0034272727
0.0038664935 -0.0034999999 -0.0086227274
-0.024487793 0.0034999999 -0.0034272727
-0.00071601733 0.002625 -0.00025227267
-0.02649264 -0.0034999999 -0.006025
-0.03308 0.002625 -0.0089113638
-0.015609178 0.0034999999 -0.0040045455
-0.016468398 -0.00029166666 -0.00025227267
-0.0030072727 0.0034999999 -0.0080454545
0.031361558 0.002625 -0.0089113638
0.027065456 0.0034999999 -0.0025613636
0.028211083 0.0020416665 -0.00025227267
0.0075897835 0.00087499997 0.0029227273
0.0095946323 0.0034999999 -0.0077568181
0.0050121215 -0.0034999999 -0.0045818179
-0.022769351 -0.0034999999 -0.0077568181
-0.018759655 -0.0020416665 -0.0089113638
0.013317922 -0.0017499999 -0.0089113638
0.026206234 0.0020416665 -0.0089113638
-0.016468398 -0.0034999999 -0.0068909088
0.017041212 0.0034999999 -0.0066022724
-0.0073033767 0.0034999999 -0.0045818179
-0.021910131 -0.0034999999 -0.0074681817
-0.014177144 0.0034999999 -0.0011181817
-0.011313073 -0.0034999999 -0.0037159091
0.028783897 -0.00029166666 -0.0089113638
0.012458702 0.0023333333 -0.00025227267
-0.015036364 0.0034999999 -0.0068909088
0.027351862 -0.0034999999 -0.006025
-0.015322771 0.00087499997 0.0011909092
0.016468398 0.0034999999 -0.0016954545
0.0098810392 0.002625 -0.0089113638
0.014177144 0.0034999999 -0.0011181817
-0.0093082255 -0.0034999999 -0.0074681817
-0.031647965 0.0017499999 -0.0089113638
-0.018186839 0.0011666666 -0.0089113638
-0.031075152 -0.0034999999 -0.0031386362
0.031075152 -0.0034999999 -0.0016954545
0.0050121215 -0.0034999999 -0.0022727272
-0.010167446 0.0032083332 -0.0089113638
-0.027924675 -0.0011666666 -0.00025227267
0.018186839 0.0034999999 -0.0011181817
-0.028783897 -0.0017499999 -0.00025227267
-0.032793593 -0.0023333333 -0.00082954537
-0.028783897 -0.0034999999 -0.00082954537
-0.032793593 0.0029166667 -0.00082954537
-0.0038664935 0.0034999999 -0.0074681817
0.015609178 0.0034999999 -0.0066022724
-0.0078761904 0.0023333333 -0.0089113638
-0.028211083 -0.0034999999 -0.0054477272
-0.031075152 -0.0034999999 -0.0048704543
-0.032793593 0 -0.00054090901
0.01732762 -0.0020416665 -0.0089113638
0.0030072727 -0.0034999999 -0.00054090901
-0.012172295 -0.0034999999 -0.0028499998
-0.0027208659 -0.0034999999 -0.0086227274
0.011313073 0.00029166666 3.636369e-05
-0.0073033767 0.00087499997 -0.0089113638
0.016181992 0.0014583333 -0.00025227267
0.0073033767 0.0029166667 -0.00025227267
-0.030215932 -0.0034999999 -0.006025
-0.032507185 -0.0020416665 -0.00025227267
-0.025060607 0.0034999999 -0.0048704543
-0.027065456 0.00087499997 0.0017681818
0.008449004 0.0034999999 -0.00054090901
-0.013890736 0.0020416665 -0.00025227267
-0.019618874 -0.002625 -0.0089113638
-0.019618874 0.0023333333 -0.00025227267
-0.026779048 -0.0034999999 -0.0048704543
-0.0050121215 -0.0034999999 -0.0066022724
0.0047257142 0.0017499999 -0.00025227267
-0.0010024243 -0.002625 -0.00025227267
0.0078761904 -0.0034999999 -0.0011181817
0.020191688 -0.0034999999 -0.0089113638
-0.0073033767 -0.0034999999 -0.0071795452
0.025060607 0.0032083332 -0.0089113638
0.032507185 -0.0034999999 -0.0063136364
0.019046061 0.0034999999 -0.00054090901
0.015322771 -0.00029166666 -0.0089113638
-0.025347013 0.0034999999 -0.0054477272
-0.011599481 -0.0034999999 -0.0071795452
-0.014749957 -0.0034999999 -0.0074681817
-0.02649264 -0.0034999999 -0.0057363636
-0.011313073 0.00029166666 0.00090227276
-0.011313073 0.0034999999 -0.00054090901
0.011885888 0 -0.0089113638
-0.0035800866 0.0034999999 -0.0057363636
0.010453853 0.0029166667 -0.0089113638
0.030788746 0.0020416665 -0.0089113638
-0.011313073 0.00029166666 3.636369e-05
0.0073033767 0.0023333333 -0.00025227267
0.0061577489 -0.00058333331 -0.00025227267
-0.032793593 0 -0.00025227267
-0.0027208659 0.0020416665 -0.0089113638
-0.020764502 -0.0034999999 -0.0025613636
0.0010024243 -0.0034999999 -0.0086227274
0.032507185 0.0032083332 -0.0057363636
0.023342164 -0.0014583333 -0.0089113638
0.023628572 -0.00029166666 -0.00025227267
0.019332469 -0.00058333331 -0.00025227267
0.019046061 -0.0034999999 -0.0019840908
0.029643117 0.0034999999 -0.0040045455
0.010453853 0.0014583333 -0.00025227267
0.0093082255 0.002625 -0.0089113638
-0.018186839 0 -0.00025227267
0.02649264 0.0034999999 -0.0014068182
0.018473247 0.0034999999 -0.0048704543
-0.019046061 -0.0029166667 -0.00025227267
0.028211083 -0.0034999999 -0.0074681817
-0.019046061 0.0034999999 -0.0016954545
0.019618874 0.0034999999 -0.0054477272
-0.032793593 0.00058333331 -0.0054477272
0.028497489 0.0034999999 -0.0011181817
-0.022769351 0.0034999999 -0.0089113638
-0.013890736 -0.0034999999 -0.0014068182
0.0038664935 0.0034999999 -0.0083340909
-0.015322771 0.0011666666 3.636369e-05
-0.0087354118 -0.0034999999 -0.0016954545
-0.020764502 -0.00029166666 -0.0089113638
0.0070169698 -0.0034999999 -0.0077568181
0.016468398 0.0034999999 -0.0031386362
-0.010453853 -0.0034999999 -0.0037159091
-0.0041529005 -0.0034999999 -0.0074681817
0.006730563 0.0034999999 -0.0054477272
-0.03308 0.002625 -0.0019840908
0.028211083 0.0032083332 -0.00025227267
0.0015752381 0.0017499999 -0.0089113638
0.019332469 0.00087499997 0.0020568182
-0.0090218186 -0.0034999999 -0.0066022724
0.0035800866 0.00058333331 0.00090227276
0.026779048 -0.0020416665 -0.00025227267
0.03308 0.0014583333 -0.0022727272
0.018473247 -0.0034999999 -0.00025227267
-0.031934373 -0.0034999999 -0.00082954537
0.025347013 0.0034999999 -0.0025613636
-0.01074026 0.0034999999 -0.0014068182
-0.032793593 -0.0017499999 -0.0042931815
0.02649264 0.0023333333 -0.00025227267
0.030502338 0.00087499997 0.0026340908
-0.0098810392 -0.0034999999 -0.0068909088
-0.018186839 0.002625 -0.0089113638
0.0064441562 0.0034999999 -0.0019840908
0.032793593 -0.00029166666 -0.0016954545
0.029356711 -0.0034999999 -0.0074681817
-0.02763827 -0.0034999999 -0.0063136364
0.0044393074 0.0014583333 -0.00025227267
-0.02105091 -0.0034999999 -0.0080454545
-0.030788746 -0.002625 -0.0089113638
-0.029643117 -0.0034999999 -0.0063136364
-0.0050121215 0.00058333331 -0.00025227267
0.014749957 0.0034999999 -0.0083340909
-0.023914978 0.0011666666 -0.00025227267
-0.018759655 0.0017499999 -0.00025227267
0.002148052 0.0034999999 -0.0083340909
-0.017614026 -0.0034999999 -0.0011181817
0.00014320346 0.0011666666 0.0026340908
0.0047257142 -0.0034999999 -0.0074681817
0.016468398 -0.0014583333 -0.0089113638
0.032507185 0 -0.0089113638
0.010167446 -0.0034999999 -0.0068909088
0.005871342 0.00058333331 -0.00025227267
0.027351862 0.0017499999 -0.00025227267
-0.026779048 0.0034999999 -0.0066022724
-0.00071601733 -0.0034999999 -0.0068909088
-0.029356711 -0.0034999999 -0.0028499998
0.02105091 0.0034999999 -0.0028499998
0.012745108 -0.0014583333 -0.00025227267
0.029929524 0.0034999999 -0.0037159091
-0.025060607 0.0034999999 -0.0019840908
0.015895585 0.0034999999 -0.0042931815
-0.016754806 0.0034999999 -0.0034272727
-0.017041212 0.0034999999 -0.0086227274
-0.0041529005 -0.0034999999 -0.0054477272
-0.032793593 0.00029166666 -0.0068909088
0.0093082255 -0.0032083332 -0.00025227267
-0.032507185 -0.0034999999 -0.0028499998
0.032507185 0.0032083332 -0.0080454545
0.0061577489 0.0034999999 -0.0051590907
0.028497489 -0.0034999999 -0.0057363636
-0.002148052 0.0034999999 -0.0089113638
0.013317922 -0.00029166666 -0.0089113638
-0.025633421 -0.0034999999 -0.0077568181
