# .PCD v0.7 - Point Cloud Data file format
VERSION 0.7
FIELDS x y z
SIZE 4 4 4
TYPE F F F
COUNT 1 1 1
WIDTH 1197
HEIGHT 1
VIEWPOINT 0 0 0 1 0 0 0
POINTS 1197
DATA ascii
-0.0064205592 -0.015042453 -0.0056389752
0.0054327808 -0.00085607456 0.00076973328
0.0014816675 -0.015287046 -0.0090898182
-0.0064205592 -0.01651001 -0.00095568824
0.0012347229 0.014553268 0.0020021773
-0.0032102796 -0.0086830426 0.00076973328
0.00592667 0.012841118 0.0029881324
-0.0037041688 0.011128969 0.00076973328
-0.0014816675 -0.015287046 -0.0048995088
0.0061736149 0.0013452601 0.0024951547
-0.0027163904 -0.013085712 -0.00021622187
0.0081491712 -0.0094168205 0.0034811101
-0.00074083376 0.012107341 -0.00095568824
0.0079022264 -0.0025682237 0.007917908
-0.0039511132 -0.012596526 3.0266912e-05
0.002963335 -0.0077046715 -0.0016951546
-0.0088900048 0.014553268 0.0029881324
-0.0051858365 -0.008193857 0.00076973328
0.0014816675 0.0074600787 0.00076973328
-0.0017286121 -0.013330304 -0.00070919946
0.0049388916 -0.0037911874 0.00076973328
0.002963335 0.0079492638 0.00076973328
-0.0051858365 0.0030574093 -0.00095568824
-0.0039511132 0.0045249658 0.00076973328
-0.0014816675 0.0074600787 0.00076973328
0.0074083377 -0.0077046715 0.0049600429
0.0012347229 0.012841118 -0.001202177
-0.004198058 -0.011128969 0.00076973328
-0.007655282 0.0091722272 -0.00046271068
0.0012347229 0.015531639 0.0012627109
-0.0046919473 -0.0079492638 -0.00095568824
0.0064205592 0.010884377 0.0012627109
0 0.0030574093 0.00076973328
-0.0088900048 -0.005992522 0.00076973328
0.0088900048 0.0067263003 0.00076973328
0.0037041688 -0.015042453 -0.0085968403
0.0024694458 -0.0094168205 0.00076973328
-0.004198058 0.00061148184 0.0017556885
0.0012347229 0.0018344455 -0.00095568824
0.0081491712 0.009906006 0.0037275988
0.0022225012 0.0089276349 -0.00046271068
-0.0088900048 0.0086830426 0.00027675572
-0.0022225012 -0.010639784 -0.0016951546
0.00074083376 -0.0040357802 -0.00021622187
0.0088900048 -0.010395192 0.002248666
-0.0037041688 -0.010884377 0.00076973328
0.0012347229 -0.012107341 3.0266912e-05
-0.0083961161 -0.00061148184 -0.00070919946
0.007655282 0.0050141513 0.0047135539
0.007655282 -0.015042453 3.0266912e-05
0 -0.0040357802 -0.00070919946
0.0012347229 -0.014797861 -0.007117908
0.0014816675 -0.016265417 0.00076973328
-0.0039511132 -0.015531639 -0.0029275985
-0.0088900048 -0.0030574093 0.0027416437
0.0086430609 0.016020825 0.0024951547
0.0014816675 0.00012229636 0.0017556885
0.0056797257 -0.0050141513 -0.00095568824
-0.0061736149 -0.0069708931 0.0029881324
-0.0051858365 0.014553268 -0.00070919946
0.004198058 -0.00012229636 0.0017556885
0 -0.010884377 -0.00070919946
0.0027163904 -0.011128969 0.00076973328
-0.0066675036 0.01381949 -0.00046271068
0.0022225012 -0.013085712 0.00076973328
0.007655282 -0.014064083 -0.00021622187
0.0088900048 -0.0037911874 0.0024951547
0.0069144485 -0.0069708931 -0.001202177
-0.0012347229 -0.015042453 -0.0085968403
-0.0054327808 0.011373563 -0.00046271068
-0.0014816675 -0.015776232 0.0012627109
-0.00049388915 -0.01381949 -0.001202177
-0.0088900048 -0.0079492638 0.0005232445
0.0049388916 -0.0045249658 0.00076973328
-0.0054327808 0.0072154859 -0.00021622187
0.0064205592 0.011373563 0.0020021773
0.0074083377 0.0033020019 -0.00070919946
-0.0037041688 0.00085607456 0.0015091996
0.0088900048 0.013085712 0.0027416437
0.0061736149 -0.014797861 -0.0026811098
-0.00074083376 0.0089276349 -0.00046271068
0.0012347229 -0.015531639 0.0015091996
-0.0046919473 -0.0035465946 -0.00070919946
-0.0088900048 0.0018344455 0.0017556885
0.007655282 -0.012596526 0.010629285
0.0083961161 -0.0025682237 0.0034811101
0.0079022264 0.014553268 0.0034811101
-0.0034572242 -0.015287046 -0.0031740873
-0.0034572242 -0.01381949 -0.0019416434
0.0044450024 -0.0015898529 0.00076973328
0.0049388916 0.015042453 0.00076973328
-0.0034572242 0.010395192 0.00076973328
0.0061736149 -0.015287046 -0.0085968403
0.0074083377 0.012841118 -0.001202177
-0.0064205592 -0.0062371148 -0.00046271068
0.007655282 -0.012841118 0.0086573744
-0.0071613928 0.0074600787 -0.00095568824
-0.0019755566 -0.0086830426 0.00076973328
0.0064205592 0.016020825 0.0010162221
-0.0054327808 0.0064817076 -0.00021622187
-0.00074083376 -0.0064817076 -0.00095568824
-0.0054327808 -0.005992522 -0.00070919946
-0.0088900048 -0.0030574093 0.00076973328
0.0012347229 -0.01651001 -0.0014486659
0.0079022264 0.015042453 -0.001202177
0.002963335 -0.004280373 0.00076973328
0.0061736149 -0.0055033364 0.0027416437
0.0046919473 0.004280373 -0.00095568824
-0.0088900048 0.012107341 0.002248666
-0.0088900048 -0.0064817076 0.0027416437
0.0064205592 0.011618155 -0.00046271068
0.004198058 -0.009906006 -0.00070919946
0.0086430609 0.0074600787 3.0266912e-05
-0.0012347229 -0.015531639 -0.0061319531
-0.007655282 -0.0086830426 0.0034811101
-0.0079022264 0.012841118 0.0061924867
0.0039511132 0.0030574093 0.0010162221
-0.0024694458 0.0033020019 0.00076973328
-0.00024694458 -0.01651001 -0.00070919946
0.0044450024 -0.0015898529 -0.00070919946
0.004198058 0.004280373 0.0017556885
0.0088900048 0.0035465946 0.0020021773
0.00592667 0.00036688911 0.0015091996
-0.00592667 0.012841118 0.00076973328
0.00592667 0.015287046 3.0266912e-05
-0.0039511132 -0.010884377 -0.001202177
0.0061736149 -0.015531639 -0.0076108854
-0.0079022264 0.0077046715 0.0071784421
0.002963335 0.0089276349 0.00076973328
-0.00074083376 0.0094168205 -0.00070919946
0.0027163904 -0.0072154859 -0.0016951546
-0.0074083377 -0.0025682237 0.0049600429
0.0088900048 0.0015898529 0.0015091996
-0.0054327808 0.013085712 -0.00070919946
-0.007655282 -0.012351933 0.0091503523
0.0034572242 0.0086830426 0.00076973328
0.004198058 -0.00061148184 0.0017556885
-0.0032102796 0.0035465946 -0.001202177
0.004198058 -0.00085607456 0.0017556885
0.00024694458 0.0050141513 0.00076973328
-0.0009877783 0.012107341 0.0015091996
0.0081491712 -0.0028128165 -0.00021622187
-0.0061736149 0.0013452601 0.0034811101
0.0019755566 0.016265417 -0.00021622187
0.0086430609 -0.0067263003 0.0012627109
0.0079022264 0.005992522 0.0034811101
-0.007655282 0.0074600787 0.0071784421
-0.0009877783 -0.0055033364 0.00076973328
-0.007655282 -0.010395192 0.0037275988
0.0074083377 -0.009906006 0.0059459978
-0.002963335 0.010395192 -0.00070919946
-0.0049388916 -0.010884377 -0.001202177
-0.0061736149 0.005992522 -0.00095568824
-0.00592667 0.013085712 0.00076973328
-0.0081491712 0.015776232 0.0034811101
0.00049388915 0.015776232 -0.00070919946
-0.00074083376 0.01651001 3.0266912e-05
-0.0051858365 0.0035465946 -0.00070919946
-0.0014816675 -0.011128969 -0.00046271068
-0.0088900048 0.00061148184 0.0024951547
-0.0034572242 -0.0018344455 -0.00070919946
0.004198058 0.016020825 3.0266912e-05
0 -0.011862747 0.00076973328
-0.0061736149 -0.0055033364 0.0029881324
-0.002963335 -0.014797861 0.00076973328
-0.0074083377 0.0028128165 0.0084108859
0.0054327808 0.0079492638 -0.00070919946
0.0074083377 -0.0052587437 0.0096433293
0.0046919473 0.0074600787 -0.00070919946
-0.0061736149 0.0015898529 0.0032346211
-0.0074083377 0.0077046715 0.0049600429
0.0066675036 0.014797861 3.0266912e-05
-0.0074083377 0.010395192 0.0056995093
-0.0074083377 -0.00012229636 0.0049600429
0.0081491712 0.0074600787 -0.00070919946
0.0069144485 -0.0011006673 -0.00070919946
0.0051858365 -0.011128969 3.0266912e-05
-0.00592667 -0.010150598 0.002248666
0.0083961161 0.0033020019 -0.00021622187
0.0071613928 -0.0050141513 0.010629285
-0.0022225012 -0.01651001 -0.0024346211
0.0079022264 0.0067263003 0.0034811101
0.0009877783 -0.0015898529 -0.00095568824
-0.0071613928 -0.0035465946 0.0034811101
0.0014816675 -0.015531639 -0.0044065313
0.0009877783 0.010884377 0.00076973328
0.0039511132 -0.01381949 -0.0016951546
-0.0027163904 -0.00061148184 0.00076973328
-0.0012347229 0.015531639 0.0010162221
0.0037041688 0.0055033364 -0.00070919946
0.0061736149 -0.011373563 0.002248666
0.0081491712 -0.01381949 0.0020021773
0.0056797257 0.013085712 -0.00070919946
0.0088900048 -0.0013452601 0.0029881324
0.0074083377 -0.010150598 0.0039740875
0.0054327808 -0.0015898529 -0.00070919946
-0.0079022264 0.00012229636 0.0052065314
-0.0088900048 0.011373563 0.0027416437
0.0088900048 -0.00012229636 0.0015091996
-0.0088900048 0.0079492638 0.0029881324
0.00049388915 -0.0062371148 -0.001202177
0.0074083377 0.009906006 0.0047135539
-0.0071613928 -0.010150598 0.0037275988
0.0081491712 -0.0035465946 0.0034811101
0.0069144485 -0.012107341 -0.0014486659
-0.0034572242 -0.0084384494 -0.0014486659
-0.00024694458 -0.015042453 0.0005232445
-0.0037041688 0.0013452601 0.0010162221
0.007655282 0.0074600787 0.010875774
-0.0054327808 -0.014064083 -0.0024346211
0.0088900048 -0.011128969 0.0032346211
-0.0009877783 -0.0020790382 0.00076973328
0.0088900048 0.0084384494 3.0266912e-05
-0.0071613928 0.012841118 0.0096433293
0.0086430609 -0.0025682237 3.0266912e-05
0.0079022264 -0.0077046715 0.0061924867
0.0074083377 -0.01381949 3.0266912e-05
-0.0014816675 -0.0052587437 -0.00046271068
-0.0046919473 -0.00061148184 0.00076973328
-0.0061736149 -0.00085607456 0.0024951547
-0.0081491712 -0.0025682237 0.0042205765
0.0034572242 0.010884377 0.0020021773
-0.0088900048 -0.011618155 0.0020021773
-0.0019755566 -0.012351933 -0.00070919946
0 0.0055033364 0.00076973328
-0.002963335 -0.015287046 -0.0026811098
-0.0088900048 0.0096614128 3.0266912e-05
-0.0064205592 0.012107341 0.0034811101
-0.0044450024 -0.0040357802 0.00076973328
0.0012347229 0.012107341 0.0010162221
0.00592667 -0.004280373 0.0012627109
-0.0056797257 0.0064817076 0.0010162221
0.0044450024 -0.005992522 3.0266912e-05
0.0088900048 -0.010150598 0.00076973328
0.0039511132 -0.002323631 0.0010162221
-0.0069144485 0.0052587437 0.0034811101
-0.0054327808 0.0050141513 -0.00095568824
-0.00592667 0.016265417 3.0266912e-05
0.0083961161 -0.0047695586 0.002248666
-0.002963335 0.012107341 -0.00070919946
0.0061736149 0.002323631 0.0027416437
0.0037041688 -0.0096614128 -0.00070919946
-0.007655282 0.0077046715 0.0071784421
0.007655282 0.015042453 0.0074249306
-0.0022225012 -0.014064083 0.00076973328
-0.00049388915 -0.00012229636 0.00076973328
-0.0074083377 -0.0069708931 -0.00021622187
-0.0079022264 -0.010150598 0.0047135539
0.0039511132 -0.015531639 -0.0036670649
-0.0086430609 -0.002323631 3.0266912e-05
0.0086430609 0.015531639 0.0017556885
0 0.016265417 0.00076973328
-0.0074083377 -0.00012229636 0.0037275988
0.0071613928 -0.00012229636 0.0098898187
0.00049388915 0.012596526 0.00076973328
0.0071613928 -0.015042453 0.0010162221
-0.0024694458 -0.0052587437 0.00076973328
-0.0086430609 0.0028128165 3.0266912e-05
-0.00024694458 -0.0035465946 -0.00070919946
0.0034572242 -0.0037911874 0.00076973328
0.0054327808 -0.0091722272 -0.001202177
0.0081491712 0.0025682237 0.004467065
-0.0079022264 0.0050141513 0.0054530203
0.007655282 0.015287046 0.0098898187
0.00592667 -0.015776232 -0.0026811098
0.002963335 0.010150598 0.00076973328
0.0086430609 -0.0050141513 0.00076973328
0.0071613928 -0.0025682237 -0.001202177
-0.0037041688 -0.015287046 -0.010322263
0.0064205592 -0.0028128165 0.0034811101
0.0074083377 0.013085712 0.0034811101
-0.0074083377 0.00012229636 0.0093968408
0.0019755566 -0.011373563 -0.00046271068
-0.0074083377 -0.010395192 0.0089038638
-0.00592667 0.00012229636 0.0015091996
-0.0054327808 -0.010639784 0.00076973328
-0.0061736149 0.012841118 0.002248666
-0.0009877783 -0.015042453 -0.0048995088
0.007655282 0.0050141513 0.0064389757
0.0074083377 0.016020825 0.0034811101
0.00592667 -0.01651001 -0.00021622187
0.0088900048 -0.00012229636 0.0005232445
0.0061736149 0.012596526 0.0020021773
-0.0079022264 -0.002323631 0.010382796
-0.0088900048 0.0013452601 0.0029881324
-0.0069144485 0.013330304 -0.00070919946
0.0014816675 -0.0064817076 -0.0014486659
0.004198058 0.0064817076 -0.00046271068
0.0088900048 0.014553268 0.0010162221
0 0.0028128165 -0.00095568824
0.0086430609 -0.0079492638 0.0020021773
0.0051858365 0.010884377 -0.00046271068
-0.0019755566 -0.005992522 0.00076973328
0.0014816675 -0.0020790382 0.0015091996
0.0017286121 -0.010639784 -0.001202177
-0.0081491712 -0.013330304 0.0032346211
0.0039511132 -0.015287046 0.0020021773
0.0046919473 -0.01381949 -0.0021881321
0.0064205592 -0.0079492638 0.0034811101
0.0086430609 0.0086830426 0.0034811101
0.004198058 -0.013574897 -0.001202177
-0.0069144485 0.014797861 3.0266912e-05
0.0061736149 -0.015531639 -0.0061319531
-0.0071613928 0.00012229636 0.0091503523
0.0079022264 0.01651001 0.0020021773
-0.0019755566 0.016265417 0.00076973328
-0.004198058 -0.01651001 -0.00046271068
0.0079022264 -0.00012229636 0.0042205765
0.0079022264 0.0025682237 0.0093968408
-0.0066675036 -0.01651001 3.0266912e-05
-0.007655282 -0.009906006 0.0098898187
-0.0088900048 0.0030574093 0.0010162221
-0.0037041688 -0.014308675 0.0015091996
-0.0039511132 -0.01381949 -0.001202177
-0.0074083377 0.016020825 0.0010162221
-0.00074083376 -0.01381949 -0.0014486659
-0.0074083377 0.015287046 0.0066854642
-0.0054327808 0.014308675 -0.00070919946
0.0061736149 -0.0028128165 0.0034811101
0.0044450024 -0.011128969 -0.00095568824
0 0.012107341 -0.00095568824
-0.0081491712 0.01381949 3.0266912e-05
-0.0014816675 -0.0033020019 -0.00070919946
-0.0064205592 -0.0011006673 -0.00070919946
0.007655282 0.0074600787 0.0056995093
0.004198058 -0.011128969 -0.00046271068
0.002963335 0.0050141513 -0.00070919946
0.0069144485 -0.0091722272 0.0034811101
0.0064205592 0.011618155 0.0027416437
-0.0056797257 -0.0091722272 0.00076973328
0.0074083377 0.0025682237 0.0049600429
0.0086430609 -0.0072154859 0.0012627109
0.0088900048 0.014797861 0.0012627109
0.0074083377 0.011862747 -0.00021622187
0.0088900048 -0.012841118 0.002248666
0.0056797257 -0.0074600787 -0.0014486659
-0.0079022264 0.002323631 -0.001202177
-0.0022225012 -0.011862747 3.0266912e-05
-0.00024694458 0.014064083 -0.001202177
0.0061736149 0.0030574093 0.0029881324
0.0066675036 -0.012107341 0.0034811101
-0.0071613928 0.0025682237 0.0061924867
-0.0086430609 0.016020825 0.00076973328
-0.0014816675 -0.005992522 0.00076973328
0.00024694458 0.011128969 -0.00046271068
0.00049388915 -0.0020790382 -0.00070919946
0.00049388915 -0.0096614128 -0.0014486659
0.007655282 0.00012229636 0.0049600429
0.0027163904 -0.012351933 0.00076973328
0.0074083377 0.010395192 0.0064389757
-0.00074083376 -0.016020825 -0.0026811098
0.0088900048 0.014553268 0.0012627109
-0.0088900048 0.0050141513 0.00027675572
0.0034572242 -0.015531639 0.00076973328
-0.0019755566 -0.015776232 -0.0026811098
0.0014816675 -0.010150598 -0.001202177
-0.0056797257 -0.0096614128 0.00076973328
0.0012347229 -0.015287046 -0.006871419
0.0061736149 0.0089276349 3.0266912e-05
0.0049388916 -0.0089276349 -0.0014486659
-0.0014816675 -0.016265417 3.0266912e-05
0.0061736149 -0.010639784 -0.00095568824
-0.00049388915 -0.012107341 -0.00046271068
-0.0074083377 0.0037911874 0.0034811101
-0.007655282 -0.0079492638 0.0064389757
0.0071613928 -0.0050141513 0.0069319531
0.0074083377 0.0074600787 0.0042205765
0.007655282 0.0052587437 0.0064389757
-0.0064205592 0.014308675 0.0015091996
-0.0088900048 0.011128969 0.00027675572
0.0066675036 -0.0011006673 -0.00070919946
0.0012347229 -0.010884377 -0.00046271068
0.0069144485 -0.00036688911 -0.001202177
0.00024694458 -0.0079492638 -0.0014486659
0.0074083377 0.0025682237 0.0064389757
0.0074083377 0.015287046 0.0069319531
-0.00049388915 0.0055033364 -0.00095568824
0.0037041688 0.014797861 -0.00070919946
0.00592667 0.010395192 0.0029881324
0.0017286121 -0.0047695586 -0.00070919946
0.007655282 0.0030574093 0.0034811101
-0.0064205592 -0.01651001 -0.001202177
0.0022225012 -0.01381949 -0.00021622187
-0.0027163904 0.0089276349 -0.00046271068
-0.0074083377 0.012596526 0.0049600429
0.0088900048 -0.0072154859 0.0034811101
-0.0079022264 0.0025682237 0.0069319531
-0.0071613928 0.002323631 0.0037275988
0.0071613928 -0.0025682237 0.0096433293
-0.0079022264 -0.014553268 0.0015091996
0.0071613928 0.014308675 3.0266912e-05
0.0074083377 0.0077046715 0.0059459978
-0.0079022264 0.010150598 0.0039740875
-0.0039511132 0.0067263003 -0.00046271068
0.0014816675 -0.015531639 -0.0029275985
0.0009877783 -0.00085607456 0.0015091996
-0.0039511132 0.00061148184 0.0024951547
-0.00074083376 0.0057479292 -0.00095568824
0.0019755566 -0.01651001 -0.0021881321
0.0088900048 0.0072154859 0.0012627109
0.0024694458 -0.005992522 -0.00070919946
-0.0079022264 0.014553268 3.0266912e-05
0.0061736149 -0.011128969 0.0020021773
-0.0034572242 0.0069708931 0.00076973328
0.0022225012 -0.010150598 -0.00095568824
-0.00592667 0.0011006673 0.0020021773
-0.0064205592 -0.012107341 -0.00046271068
0 -0.00012229636 0.00076973328
-0.0086430609 -0.009906006 0.0034811101
-0.0083961161 0.00085607456 0.0034811101
-0.0088900048 -0.0037911874 0.0034811101
-0.0083961161 0.011373563 -0.00046271068
-0.0022225012 -0.002323631 0.00076973328
0.0039511132 -0.014797861 -0.0090898182
-0.0049388916 0.0067263003 -0.00021622187
-0.0088900048 -0.0018344455 0.0024951547
0 -0.01651001 3.0266912e-05
-0.0054327808 -0.0028128165 -0.00095568824
0.002963335 0.0013452601 0.00076973328
0.00074083376 -0.015042453 -0.0026811098
-0.0044450024 0.0033020019 0.00076973328
0.0014816675 -0.01651001 -0.00070919946
-0.0054327808 -0.008193857 -0.00095568824
-0.0034572242 0.011862747 0.0020021773
-0.002963335 0.0072154859 -0.00021622187
0.004198058 -0.013085712 0.00076973328
-0.0022225012 0.013085712 -0.00095568824
0.0061736149 -0.004280373 0.0024951547
-0.0046919473 -0.00061148184 -0.00095568824
-0.0027163904 -0.011128969 -0.00021622187
-0.0054327808 0.0089276349 3.0266912e-05
-0.0074083377 -0.012596526 0.0066854642
-0.0074083377 -0.005992522 0.0034811101
-0.0054327808 -0.011862747 -0.00070919946
-0.00074083376 -0.0020790382 0.00076973328
-0.0061736149 0.009906006 0.0027416437
-0.0027163904 -0.0050141513 0.00076973328
-0.004198058 -0.0028128165 0.0017556885
0.0019755566 0.010395192 -0.00046271068
0.0074083377 -0.011862747 0.0034811101
-0.0012347229 -0.015531639 -0.0053924867
-0.00592667 -0.0084384494 -0.00095568824
-0.004198058 -0.0030574093 0.0015091996
0.0074083377 0.0074600787 0.010875774
0.00592667 -0.0077046715 -0.0014486659
0.0024694458 0.0030574093 0.00076973328
0.0074083377 -0.012841118 0.0081643974
0.0024694458 0.011373563 -0.00046271068
-0.0088900048 0.0015898529 0.0012627109
0.0083961161 0.012351933 3.0266912e-05
0.0083961161 -0.010150598 -0.00021622187
-0.0061736149 0.0030574093 0.0034811101
0.00592667 -0.016265417 0.0005232445
0.0083961161 -0.010395192 0.0034811101
0.0061736149 0.0013452601 0.0027416437
0.0066675036 0.016020825 0.0034811101
-0.0046919473 0.011128969 0.00076973328
-0.00592667 0.0055033364 -0.00070919946
-0.0061736149 0.0028128165 0.0027416437
0.0017286121 0.01651001 0.0015091996
-0.004198058 -0.0037911874 -0.00070919946
-0.0079022264 0.010150598 0.0096433293
0.0071613928 -0.010150598 0.0059459978
0.004198058 -0.002323631 0.0012627109
0.00049388915 -0.0077046715 0.00076973328
-0.0019755566 -0.0077046715 -0.001202177
0.0022225012 -0.0094168205 0.00076973328
-0.0014816675 -0.014797861 0.0012627109
0.0046919473 0.0064817076 0.00076973328
0.0032102796 0.012107341 0.00076973328
0.0061736149 0.014308675 0.0012627109
-0.00049388915 -0.015287046 0.0005232445
0.0054327808 0.010395192 -0.00046271068
0.007655282 -0.0052587437 0.0084108859
-0.0032102796 0.010395192 0.0017556885
0.0086430609 -0.010150598 0.0034811101
0.0071613928 0.0050141513 0.0084108859
0.0054327808 0.0037911874 0.00076973328
-0.0061736149 0.012596526 0.0032346211
0.0037041688 -0.00061148184 0.0017556885
0.0022225012 -0.0089276349 0.00076973328
-0.0037041688 -0.015042453 -0.0076108854
0.00592667 0.010150598 0.0017556885
-0.0032102796 -0.0037911874 -0.00070919946
-0.0061736149 0.015531639 3.0266912e-05
0.0044450024 -0.012841118 -0.001202177
0.007655282 0.00012229636 0.0093968408
0.0056797257 0.012107341 -0.00070919946
-0.0032102796 -0.013330304 -0.00070919946
0.0066675036 -0.014064083 -0.0021881321
-0.0024694458 0.0028128165 -0.00095568824
0.0079022264 0.00012229636 0.010136307
0.00592667 -0.0096614128 0.0010162221
-0.0079022264 -0.00012229636 -0.001202177
-0.0034572242 0.0057479292 -0.00070919946
0.0083961161 -0.0050141513 0.0015091996
0.0056797257 0.0074600787 0.0020021773
-0.00592667 -0.0018344455 0.0017556885
-0.0064205592 0.013330304 3.0266912e-05
-0.0074083377 0.012596526 0.0039740875
0.0037041688 -0.015531639 -0.0048995088
0.0061736149 0.013085712 0.0017556885
-0.0034572242 -0.014553268 -0.0026811098
0.0079022264 0.015287046 0.0064389757
-0.0088900048 0.0035465946 0.0012627109
0.0044450024 0.0091722272 -0.00021622187
-0.0012347229 0.012351933 0.0017556885
-0.0009877783 -0.01381949 0.0010162221
0.00592667 0.0028128165 0.0012627109
-0.0032102796 0.014064083 -0.00070919946
-0.0022225012 -0.0050141513 0.00076973328
0.0064205592 0.014064083 -0.00046271068
0.0012347229 -0.0037911874 0.00076973328
0.00074083376 -0.0096614128 -0.0014486659
-0.0088900048 0.0057479292 0.00027675572
0.0074083377 0.015287046 0.0091503523
-0.0071613928 0.014553268 0.0034811101
0.0061736149 0.01651001 3.0266912e-05
0.0054327808 -0.01651001 -0.00095568824
-0.0039511132 -0.015287046 -0.0044065313
0.0024694458 -0.015776232 0.0005232445
-0.0079022264 -0.012596526 0.0064389757
0.00049388915 -0.013330304 -0.00095568824
-0.004198058 0.0086830426 3.0266912e-05
0.00074083376 -0.0035465946 0.00076973328
-0.0074083377 0.0047695586 0.0098898187
-0.0017286121 -0.0013452601 -0.00095568824
0.0088900048 0.0089276349 3.0266912e-05
0.0079022264 -0.0074600787 0.010875774
0.0051858365 -0.0067263003 0.00076973328
0.0046919473 0.0040357802 -0.00095568824
0.004198058 -0.011618155 3.0266912e-05
-0.0088900048 0.0079492638 0.002248666
0.0079022264 0.00012229636 0.0047135539
-0.0037041688 -0.015776232 -0.0026811098
0.0064205592 0.014308675 -0.00021622187
-0.004198058 0.0011006673 0.0015091996
-0.0081491712 0.0035465946 -0.00070919946
0.0039511132 0.00085607456 -0.00095568824
-0.0056797257 0.0055033364 0.0017556885
-0.0079022264 0.016265417 0.0012627109
0.0088900048 -0.004280373 0.0024951547
0.0056797257 -0.014064083 -0.00070919946
-0.002963335 -0.0084384494 0.00076973328
-0.007655282 0.00012229636 0.0086573744
0.0066675036 0.010884377 0.0034811101
-0.0046919473 0.0079492638 0.00076973328
0.0079022264 -0.013330304 -0.00070919946
0.00592667 0.008193857 0.0024951547
-0.00074083376 -0.0033020019 -0.00070919946
-0.0012347229 -0.015531639 -0.0031740873
0.0056797257 0.004280373 0.0012627109
0.0088900048 -0.010884377 0.0020021773
-0.0009877783 -0.014797861 0.0010162221
0.0024694458 0.0057479292 -0.00070919946
-0.0088900048 0.0040357802 0.0029881324
-0.0054327808 -0.0096614128 0.00076973328
-0.0088900048 0.014064083 0.00076973328
-0.0039511132 -0.015776232 0.0017556885
0.004198058 -0.0015898529 0.0012627109
0.0088900048 -0.0025682237 0.0015091996
0.0014816675 -0.015042453 -0.010075773
-0.0079022264 0.0077046715 0.0042205765
-0.00592667 -0.011128969 0.0017556885
0.0071613928 0.0050141513 0.0061924867
0.0061736149 0.0033020019 -0.00095568824
-0.0017286121 -0.015287046 0.00076973328
-0.0083961161 0.0067263003 0.0034811101
0 -0.00036688911 -0.00095568824
0.0079022264 0.015287046 0.0066854642
-0.0088900048 0.00085607456 0.0029881324
-0.0088900048 0.0015898529 0.00076973328
0.0066675036 -0.011128969 -0.00046271068
-0.0066675036 0.01381949 -0.00070919946
-0.007655282 -0.012351933 0.0037275988
-0.004198058 0.015776232 0.0012627109
0.0088900048 0.0045249658 0.0020021773
0.0056797257 0.0035465946 0.0012627109
0.002963335 0.0033020019 0.00076973328
0.0061736149 0.012107341 0.0029881324
-0.0081491712 -0.0069708931 0.0034811101
-0.0083961161 -0.0052587437 -0.00046271068
0.0017286121 -0.009906006 0.00076973328
0.0064205592 0.010150598 0.0020021773
-0.0079022264 -0.002323631 0.0093968408
0.0074083377 -0.0025682237 0.010875774
-0.0009877783 -0.0077046715 -0.0014486659
0.004198058 0.0013452601 0.002248666
0.004198058 -0.0033020019 -0.00070919946
-0.0069144485 -0.005992522 0.0034811101
0.0034572242 -0.0018344455 0.00076973328
-0.004198058 -0.0030574093 0.002248666
0.0049388916 0.0018344455 0.00076973328
-0.0071613928 0.00012229636 0.010629285
-0.0034572242 -0.013574897 0.0010162221
0.004198058 0.015776232 0.0015091996
-0.0071613928 -0.011862747 3.0266912e-05
-0.0066675036 -0.012107341 -0.00046271068
-0.0081491712 0.015042453 0.0034811101
0.0009877783 0.014308675 -0.001202177
0.0046919473 0.0062371148 0.00076973328
-0.0054327808 -0.0055033364 0.00076973328
0.00049388915 0.0091722272 -0.00070919946
0.00074083376 -0.010150598 0.00076973328
0.0061736149 -0.012107341 0.0020021773
-0.0083961161 -0.0084384494 -0.00021622187
-0.0088900048 0.012596526 3.0266912e-05
-0.0061736149 0.0047695586 0.0024951547
-0.00592667 -0.0033020019 -0.00070919946
0.007655282 0.015042453 0.0089038638
-0.0056797257 -0.0015898529 0.0010162221
0.0079022264 0.0025682237 0.0042205765
-0.0088900048 0.0035465946 0.00076973328
-0.0049388916 -0.0079492638 0.00076973328
-0.00592667 -0.011618155 0.0020021773
-0.0071613928 0.0025682237 0.0049600429
0.0044450024 -0.01651001 -0.0016951546
0.0069144485 -0.012351933 -0.001202177
0.0069144485 0.0033020019 0.0034811101
0.0069144485 0.0030574093 0.0034811101
-0.0037041688 -0.015531639 -0.0034205762
0.002963335 -0.0089276349 -0.001202177
-0.0061736149 0.011618155 0.0027416437
0.0046919473 0.00085607456 -0.00095568824
0.0037041688 -0.015531639 -0.007117908
-0.0014816675 -0.015042453 -0.007117908
-0.002963335 0.0074600787 3.0266912e-05
-0.0064205592 0.015042453 0.0012627109
0.0051858365 0.00036688911 -0.00095568824
0.007655282 0.012841118 0.010382796
0.0074083377 0.0015898529 -0.00070919946
0.0074083377 0.0052587437 0.0091503523
-0.0014816675 0.008193857 0.00076973328
-0.0074083377 0.010395192 0.0059459978
-0.00592667 0.0018344455 -0.00095568824
-0.0019755566 -0.01651001 -0.00070919946
0.0032102796 0.0011006673 -0.00095568824
-0.0009877783 -0.015287046 -0.0051459977
-0.0061736149 0.0079492638 0.0029881324
-0.0081491712 0.00036688911 -0.00070919946
-0.004198058 0.011618155 -0.00070919946
-0.0088900048 -0.0062371148 0.0020021773
-0.00074083376 -0.016020825 0.00076973328
-0.0079022264 0.0074600787 0.0047135539
0 0.011862747 -0.00070919946
-0.0044450024 0.0015898529 -0.00095568824
0.0061736149 0.0013452601 -0.001202177
0.00592667 -0.0033020019 0.0017556885
0.0088900048 -0.0047695586 0.0005232445
-0.0088900048 0.015287046 0.0032346211
0.0012347229 -0.01381949 0.0020021773
0.004198058 -0.0020790382 -0.00070919946
0.00592667 -0.00061148184 0.0020021773
-0.0039511132 -0.015042453 -0.0053924867
0.0051858365 0.0025682237 -0.001202177
0.00024694458 0.012841118 -0.001202177
0.0039511132 0.01381949 0.0010162221
0.0037041688 0.010639784 0.00076973328
0.0079022264 0.012107341 -0.00046271068
0.0054327808 0.00036688911 -0.00095568824
0.00592667 -0.0052587437 0.0015091996
0.0012347229 -0.0069708931 -0.0016951546
0.0074083377 -0.0028128165 0.010382796
0.0027163904 -0.0040357802 0.00076973328
0.0022225012 -0.014064083 -0.0014486659
0.007655282 -0.010395192 0.0059459978
0.0066675036 -0.01651001 -0.00095568824
-0.0046919473 0.0035465946 -0.00095568824
0.0064205592 -0.013574897 0.0024951547
0.0061736149 -0.00036688911 -0.00095568824
0.00592667 -0.0091722272 0.0017556885
0.0074083377 -0.0077046715 0.0096433293
-0.0071613928 -0.01651001 -0.0021881321
-0.0027163904 -0.0084384494 -0.0014486659
-0.0088900048 -0.00085607456 0.0027416437
0.004198058 0.0074600787 -0.00021622187
0.007655282 -0.0050141513 0.010875774
0.0014816675 0.014308675 0.0010162221
-0.00024694458 -0.00061148184 0.00076973328
-0.00074083376 0.013085712 0.00076973328
0.0061736149 -0.0072154859 0.0027416437
0.0056797257 0.0067263003 0.0012627109
0.00024694458 0.0035465946 -0.00095568824
-0.0037041688 -0.00036688911 0.0020021773
-0.0014816675 -0.011128969 0.00076973328
0.0081491712 0.0050141513 0.0066854642
-0.0088900048 0.0033020019 0.0034811101
0.0017286121 0.011618155 -0.00070919946
0.0069144485 0.0094168205 0.0034811101
0.0014816675 0.0094168205 -0.00070919946
0.0088900048 -0.0086830426 0.0020021773
-0.007655282 -0.0052587437 -0.00095568824
0.0046919473 0.0069708931 -0.00046271068
-0.00592667 0.0089276349 3.0266912e-05
-0.002963335 0.011862747 0.00076973328
0.0032102796 -0.016020825 -0.0026811098
0.007655282 0.012596526 0.0086573744
-0.0069144485 -0.015287046 0.0015091996
-0.0079022264 -0.010150598 0.0096433293
0.0074083377 0.0025682237 0.0059459978
-0.0024694458 -0.0067263003 -0.00095568824
0.0019755566 -0.0050141513 0.00076973328
0.0061736149 0.0091722272 0.0032346211
0.0079022264 0.00061148184 0.0034811101
0.0086430609 -0.0091722272 0.0034811101
0.0039511132 -0.013330304 0.0020021773
-0.0012347229 -0.0069708931 -0.0014486659
-0.0022225012 0.0020790382 0.00076973328
-0.0014816675 0.015531639 -0.00070919946
-0.00024694458 0.0089276349 -0.00021622187
-0.0037041688 0.013330304 0.00076973328
-0.0066675036 0.008193857 -0.00070919946
0.0039511132 0.0025682237 0.0010162221
0.007655282 -0.0074600787 0.0098898187
0.0071613928 -0.0018344455 -0.00070919946
0.0088900048 0.0084384494 0.0034811101
-0.0014816675 -0.0011006673 -0.00095568824
-0.0017286121 0.013330304 0.00076973328
-0.0079022264 0.0052587437 -0.00095568824
0.0071613928 0.0050141513 0.010382796
-0.0088900048 0.0086830426 0.0034811101
-0.0074083377 -0.0035465946 -0.00070919946
0.00592667 0.0052587437 0.002248666
0.0024694458 0.0028128165 -0.00095568824
-0.0079022264 0.0050141513 0.0086573744
-0.0079022264 -0.0077046715 0.010136307
0.0054327808 -0.012107341 0.00076973328
-0.0074083377 -0.015531639 -0.0019416434
0.0022225012 -0.00085607456 0.00076973328
0.0017286121 0.0067263003 -0.00095568824
0.002963335 -0.012351933 -0.00095568824
-0.0079022264 0.0074600787 0.010629285
-0.00074083376 -0.0033020019 0.00076973328
-0.0074083377 0.012596526 0.0096433293
0.0088900048 -0.0033020019 0.0027416437
0.00049388915 0.00012229636 -0.001202177
0.0088900048 0.015287046 0.0012627109
0.0074083377 -0.0025682237 0.0039740875
0.0088900048 -0.010884377 0.0005232445
0.0056797257 -0.0033020019 -0.00046271068
-0.0014816675 -0.012596526 0.00076973328
-0.0056797257 0.0057479292 0.0020021773
-0.0046919473 0.0096614128 0.00076973328
-0.0088900048 0.0030574093 0.0015091996
0.0022225012 -0.005992522 -0.00070919946
-0.0074083377 -0.0028128165 0.0037275988
-0.00592667 0.008193857 -0.00021622187
0.0051858365 0.010884377 0.00076973328
-0.0069144485 -0.015042453 -0.0026811098
-0.0088900048 0.0018344455 0.0032346211
-0.0088900048 -0.010884377 0.0027416437
-0.0086430609 -0.01381949 3.0266912e-05
-0.0019755566 0.0018344455 0.00076973328
-0.0051858365 -0.01651001 -0.0016951546
-0.00049388915 -0.01651001 3.0266912e-05
0.0039511132 0.012107341 0.00076973328
0.0027163904 -0.010150598 0.00076973328
-0.0014816675 -0.0094168205 -0.0016951546
-0.007655282 0.015287046 0.011122262
-0.0074083377 0.0050141513 0.010136307
0.0071613928 -0.010150598 0.0056995093
0.0019755566 0.004280373 0.00076973328
-0.0079022264 0.0077046715 0.0081643974
0.004198058 -0.011128969 -0.00095568824
-0.0037041688 -0.0037911874 -0.00070919946
-0.007655282 0.015531639 0.0076714195
-0.0061736149 0.011373563 0.0032346211
0.0044450024 -0.013574897 -0.00070919946
-0.0056797257 -0.015531639 -0.0024346211
0.0009877783 0.00012229636 -0.001202177
-0.0088900048 0.0020790382 0.00027675572
-0.0032102796 0.0069708931 -0.00021622187
0 0.0013452601 0.00076973328
-0.0061736149 0.013574897 0.0020021773
-0.0019755566 -0.0086830426 -0.0014486659
0.0081491712 -0.0091722272 -0.00095568824
-0.0079022264 0.0072154859 -0.00095568824
0.0046919473 -0.0086830426 -0.0016951546
-0.0083961161 -0.012596526 0.0032346211
-0.0061736149 -0.0013452601 -0.00070919946
-0.0014816675 0.015287046 -0.00070919946
-0.0061736149 0.0020790382 0.0027416437
-0.007655282 -0.010395192 0.010629285
-0.0019755566 0.0033020019 0.00076973328
0.0044450024 -0.013574897 -0.00095568824
0.0064205592 -0.0094168205 -0.0014486659
0.0083961161 -0.005992522 0.002248666
-0.0027163904 -0.00061148184 -0.00095568824
0.0056797257 0.009906006 0.0020021773
0.0066675036 0.0091722272 0.0034811101
-0.0039511132 -0.016265417 -0.0026811098
0.0009877783 -0.008193857 -0.001202177
-0.0051858365 0.011618155 -0.00070919946
-0.0074083377 0.011618155 -0.00046271068
-0.0071613928 0.014064083 3.0266912e-05
-0.0009877783 0.01381949 0.0017556885
-0.0061736149 -0.014797861 0.002248666
0.0083961161 -0.004280373 0.0015091996
-0.0061736149 -0.0074600787 0.0024951547
0.0012347229 0.0069708931 -0.00070919946
0.0012347229 -0.013574897 3.0266912e-05
0.0086430609 0.0074600787 0.0034811101
-0.0088900048 -0.0040357802 0.0010162221
0.007655282 0.014064083 0.0034811101
-0.0039511132 -0.015531639 0.0017556885
-0.0074083377 0.0067263003 -0.00021622187
0.0079022264 0.0079492638 0.0069319531
-0.0064205592 0.015531639 3.0266912e-05
-0.0044450024 0.0011006673 0.00076973328
-0.0061736149 -0.0030574093 0.0034811101
0.00074083376 -0.0033020019 0.00076973328
0.00024694458 -0.010884377 -0.00046271068
-0.0054327808 -0.0028128165 0.00076973328
0.00074083376 -0.014064083 0.00076973328
-0.0009877783 -0.015042453 -0.0061319531
-0.0014816675 0.00085607456 -0.00095568824
-0.007655282 0.00061148184 0.0034811101
-0.0064205592 -0.015531639 -0.0061319531
0.0034572242 -0.012351933 -0.00046271068
0.0017286121 -0.0064817076 -0.0014486659
-0.004198058 -0.0033020019 0.0020021773
-0.0051858365 -0.0033020019 -0.00070919946
-0.0046919473 0.0011006673 0.00076973328
-0.0061736149 -0.011618155 3.0266912e-05
-0.0017286121 -0.014064083 0.00076973328
0.0088900048 -0.0037911874 0.0032346211
-0.0051858365 0.0037911874 0.00076973328
0.0088900048 0.0028128165 0.0015091996
0.00049388915 -0.015287046 0.0005232445
0.0032102796 -0.0091722272 -0.0014486659
0.0039511132 0.012841118 0.00076973328
0.00592667 0.010639784 0.002248666
0.0081491712 -0.010150598 -0.00070919946
0.0061736149 0.015531639 3.0266912e-05
-0.0009877783 -0.012841118 3.0266912e-05
-0.0071613928 0.010150598 0.0084108859
-0.0056797257 0.014797861 0.0005232445
-0.0088900048 0.012841118 0.0015091996
-0.0034572242 -0.004280373 -0.00070919946
-0.0024694458 -0.016020825 3.0266912e-05
0.0064205592 0.0067263003 0.0027416437
-0.0019755566 0.008193857 0.00076973328
0.0074083377 -0.0091722272 -0.001202177
0.00074083376 0.010150598 -0.00046271068
0.002963335 0.012351933 0.00076973328
0.0039511132 0.015531639 0.0012627109
0.0049388916 -0.0096614128 0.00076973328
-0.0044450024 -0.012841118 0.00076973328
0.0061736149 -0.015287046 -0.0051459977
0.0081491712 0.00085607456 0.0034811101
-0.007655282 -0.002323631 0.004467065
-0.0088900048 -0.0091722272 0.0024951547
0.0039511132 0.013574897 0.0012627109
0.00592667 -0.013330304 -0.00070919946
0.00592667 0.010639784 0.0015091996
0.007655282 -0.0045249658 0.0034811101
-0.0034572242 0.0040357802 0.00076973328
-0.007655282 0.002323631 0.0052065314
0.0014816675 -0.01381949 -0.00070919946
-0.007655282 0.013085712 -0.00095568824
0.0086430609 0.0089276349 3.0266912e-05
0.0066675036 -0.014064083 -0.0024346211
-0.0088900048 0.0030574093 0.002248666
-0.0017286121 -0.010395192 0.00076973328
-0.00592667 -0.0064817076 0.0020021773
-0.0012347229 -0.01651001 -0.00095568824
0.0071613928 -0.0091722272 -0.001202177
0.0071613928 0.0077046715 0.0037275988
-0.0037041688 0.015531639 -0.00070919946
0.0039511132 -0.008193857 -0.0016951546
-0.0061736149 -0.0028128165 0.0034811101
0.0056797257 -0.0045249658 -0.00070919946
-0.0088900048 0.012351933 0.0027416437
-0.00074083376 0.005992522 -0.00095568824
-0.0022225012 0.010884377 -0.00046271068
-0.0054327808 0.0091722272 0.00076973328
0.0056797257 -0.0055033364 -0.00021622187
-0.0088900048 0.0035465946 0.0027416437
-0.0044450024 0.0055033364 0.00076973328
0.007655282 -0.01381949 0.002248666
-0.0074083377 0.0077046715 0.0074249306
0.0009877783 -0.012351933 -0.00021622187
-0.00592667 0.014308675 -0.00046271068
0.0034572242 -0.011862747 0.0010162221
0.0012347229 -0.0020790382 -0.00095568824
-0.0071613928 -0.00012229636 0.0052065314
0.0027163904 -0.004280373 -0.00046271068
0.0088900048 -0.0055033364 0.0034811101
0.0054327808 0.00012229636 0.00076973328
0.0079022264 -0.012596526 0.0064389757
-0.0081491712 -0.014553268 0.00076973328
0.007655282 -0.009906006 0.007917908
0.0083961161 0.00085607456 -0.00021622187
-0.00592667 0.009906006 -0.00095568824
-0.0017286121 -0.004280373 0.00076973328
0.0086430609 -0.014797861 0.0005232445
0.0061736149 -0.012596526 0.0015091996
0.002963335 -0.011128969 0.00076973328
0.0081491712 0.015776232 0.00027675572
-0.00592667 -0.0086830426 0.0020021773
0.0009877783 0.0015898529 0.00076973328
-0.0024694458 -0.014064083 -0.0026811098
-0.0014816675 -0.015531639 -0.007117908
0.0066675036 -0.014553268 -0.0026811098
-0.0037041688 0.010884377 -0.00046271068
-0.0012347229 -0.012841118 0.0012627109
0.0086430609 0.004280373 3.0266912e-05
0.0069144485 0.008193857 -0.00046271068
-0.0069144485 -0.015287046 0.0010162221
0.002963335 -0.015776232 -0.0026811098
-0.0088900048 0.00012229636 0.0012627109
0.0079022264 0.0077046715 0.0086573744
0.0037041688 -0.012107341 0.0017556885
-0.0064205592 0.014553268 0.0012627109
-0.0039511132 -0.0062371148 0.00076973328
0.007655282 0.015287046 0.010629285
0.0017286121 0.016020825 0.0015091996
-0.0037041688 -0.015042453 -0.0085968403
0.00049388915 0.011373563 -0.00046271068
0.0049388916 0.0077046715 -0.00070919946
0.0051858365 0.016265417 0.00076973328
0.0022225012 -0.015042453 -0.0026811098
0.0051858365 0.0096614128 -0.00070919946
-0.0061736149 -0.015287046 -0.0056389752
0.0039511132 -0.013330304 0.0012627109
-0.0017286121 -0.0028128165 -0.00070919946
-0.0088900048 -0.0020790382 0.0005232445
-0.0069144485 -0.01651001 0.00027675572
-0.0083961161 -0.0013452601 -0.00046271068
0.0037041688 -0.012351933 -0.00046271068
0.0054327808 -0.0035465946 0.00076973328
0.0032102796 -0.008193857 -0.0016951546
0.0024694458 -0.013085712 -0.0014486659
0.0056797257 0.0028128165 0.00076973328
-0.0071613928 0.0025682237 0.0047135539
0.007655282 0.01651001 3.0266912e-05
0.0088900048 -0.0052587437 0.0027416437
-0.00024694458 -0.014553268 0.00076973328
0.0012347229 0.014553268 0.0010162221
-0.0064205592 0.01381949 0.0024951547
0.0064205592 -0.014064083 -0.00070919946
0.0071613928 -0.009906006 0.0034811101
0.0086430609 -0.014797861 0.00076973328
0.0022225012 -0.0025682237 0.00076973328
-0.0024694458 0.014064083 -0.00095568824
-0.0014816675 0.01651001 0.0017556885
-0.0056797257 -0.0011006673 -0.00095568824
0.0069144485 -0.0072154859 -0.001202177
-0.0086430609 0.010150598 3.0266912e-05
-0.0009877783 0.010639784 -0.00046271068
0.0088900048 0.0072154859 0.00027675572
-0.00592667 -0.010150598 0.0015091996
-0.00592667 -0.014553268 -0.0026811098
-0.0088900048 0.00061148184 0.0020021773
0.0088900048 -0.010884377 0.0017556885
0.0086430609 0.015776232 0.0010162221
-0.0009877783 0.010884377 0.00076973328
0.0061736149 -0.0037911874 0.0032346211
-0.00074083376 -0.0089276349 -0.0014486659
-0.0034572242 -0.0067263003 -0.00070919946
-0.0017286121 -0.0025682237 -0.00070919946
0.0061736149 0.013085712 0.002248666
0.0009877783 0.00036688911 -0.00095568824
0.0054327808 0.016265417 3.0266912e-05
-0.002963335 0.0050141513 -0.00070919946
-0.0074083377 -0.012596526 0.0074249306
0.0051858365 -0.0037911874 0.00076973328
-0.0032102796 0.0055033364 -0.00095568824
0.0022225012 -0.0047695586 -0.00021622187
-0.0088900048 -0.0079492638 3.0266912e-05
0.0079022264 -0.0037911874 -0.00070919946
-0.0012347229 -0.01381949 0.0012627109
0.0012347229 -0.015531639 -0.0081038633
-0.0074083377 0.002323631 0.0039740875
-0.0056797257 -0.0030574093 -0.00070919946
0.0088900048 0.0086830426 0.0010162221
0.0032102796 -0.0030574093 0.00076973328
0.0086430609 -0.0072154859 0.0027416437
0.0039511132 -0.0057479292 0.00076973328
-0.0064205592 0.011862747 -0.00070919946
0.0088900048 0.0015898529 0.0020021773
-0.0051858365 -0.011862747 -0.00021622187
0.0039511132 0.011373563 -0.00046271068
0.0074083377 -0.014308675 -0.0024346211
-0.0044450024 0.010395192 0.00076973328
-0.0019755566 -0.013574897 0.00076973328
-0.004198058 -0.00061148184 0.002248666
-0.0088900048 -0.0072154859 0.0024951547
-0.0037041688 -0.015531639 -0.007117908
0.0014816675 0.014064083 0.0012627109
-0.0012347229 -0.015776232 0.0017556885
-0.0019755566 0.012596526 0.00076973328
-0.004198058 0.0011006673 -0.00095568824
-0.0061736149 0.005992522 0.0027416437
-0.007655282 0.0074600787 0.0091503523
0.0081491712 -0.012107341 0.0034811101
0.0054327808 -0.0072154859 0.00076973328
0.007655282 0.002323631 0.0037275988
-0.0061736149 -0.0033020019 0.0024951547
-0.007655282 0.012596526 0.010629285
-0.0027163904 -0.0045249658 0.00076973328
0.0009877783 -0.013085712 0.00076973328
-0.0081491712 -0.010150598 -0.00095568824
0.002963335 0.0091722272 0.00076973328
-0.0086430609 0.0033020019 0.0034811101
-0.0019755566 -0.015287046 -0.0026811098
0.0019755566 0.005992522 -0.00070919946
-0.0079022264 -0.0074600787 0.0049600429
0.0024694458 -0.0030574093 0.00076973328
-0.0064205592 -0.014064083 -0.0014486659
-0.004198058 -0.00085607456 0.0020021773
-0.0017286121 0.0091722272 0.00076973328
0.00592667 0.011128969 0.0029881324
0.0088900048 0.005992522 0.0005232445
-0.0088900048 0.00085607456 0.002248666
0.0088900048 0.012596526 0.0034811101
-0.0074083377 0.012841118 0.0064389757
-0.0066675036 -0.0011006673 -0.00070919946
0.0019755566 -0.00061148184 -0.00095568824
-0.0088900048 0.014797861 0.00027675572
0.0017286121 -0.016265417 0.0005232445
0.0017286121 0.0030574093 0.00076973328
0.0081491712 -0.01381949 0.0024951547
-0.0056797257 0.0040357802 0.0012627109
-0.0027163904 -0.0086830426 0.00076973328
-0.0051858365 0.0015898529 -0.00095568824
-0.0024694458 -0.0052587437 -0.00021622187
-0.0088900048 0.0077046715 3.0266912e-05
-0.0074083377 0.015531639 0.0052065314
0.007655282 -0.0052587437 0.0049600429
0.00049388915 0.015531639 -0.00095568824
-0.0086430609 0.0015898529 0.0034811101
-0.0027163904 -0.0037911874 -0.00070919946
0.0017286121 0.015042453 0.0017556885
0.0074083377 -0.0086830426 0.0034811101
0.0039511132 -0.0033020019 0.0012627109
-0.00592667 0.0064817076 -0.00021622187
-0.0088900048 -0.0072154859 0.0012627109
-0.0069144485 0.00061148184 0.0034811101
0.0061736149 -0.015042453 -0.0081038633
0.0074083377 -0.012596526 0.0059459978
-0.00592667 -0.0050141513 0.0010162221
-0.0081491712 0.0064817076 0.0034811101
-0.0061736149 0.008193857 -0.00095568824
-0.004198058 0.0011006673 0.0010162221
0.00592667 0.0028128165 0.0017556885
0.0074083377 0.01651001 0.0024951547
-0.0088900048 -0.0079492638 0.0024951547
0.00592667 0.011128969 -0.00046271068
0.0014816675 -0.015042453 -0.0066249305
-0.0037041688 -0.008193857 -0.0014486659
-0.0061736149 -0.015287046 0.0012627109
-0.0027163904 0.01651001 3.0266912e-05
0.0017286121 -0.01651001 -0.0016951546
-0.0088900048 -0.0094168205 0.0005232445
0.007655282 0.0028128165 0.0064389757
-0.0069144485 -0.0074600787 0.0034811101
0.0086430609 0.002323631 3.0266912e-05
0.0009877783 0.00036688911 0.00076973328
0.0081491712 -0.010150598 0.0037275988
-0.007655282 0.002323631 0.0098898187
0.00049388915 0.0028128165 -0.001202177
-0.00592667 -0.008193857 0.002248666
-0.0039511132 0.0011006673 0.0024951547
0.0032102796 0.0062371148 0.00076973328
0.0064205592 -0.0030574093 0.0034811101
-0.0022225012 -0.014064083 -0.0024346211
0.0012347229 -0.015042453 0.002248666
-0.0061736149 0.0069708931 -0.00021622187
0.0074083377 0.00012229636 0.0047135539
0.0012347229 0.00061148184 0.0020021773
-0.0014816675 -0.014064083 0.0012627109
-0.0088900048 -0.00061148184 0.0024951547
0.0039511132 0.01381949 -0.00070919946
0.0071613928 0.010395192 -0.001202177
-0.0024694458 0.00085607456 -0.00095568824
0.00592667 -0.0057479292 0.0017556885
0.0081491712 -0.0084384494 0.0034811101
0.0027163904 0.004280373 0.00076973328
-0.0009877783 0.013330304 0.0012627109
0.0079022264 0.012841118 -0.00021622187
0.0046919473 0.010150598 -0.00046271068
-0.0071613928 -0.0086830426 -0.00070919946
-0.007655282 -0.0074600787 0.0076714195
0.00592667 0.014797861 0.00076973328
-0.0039511132 0.0030574093 0.00076973328
-0.0012347229 -0.015042453 -0.0078573748
0.00049388915 0.0064817076 -0.00095568824
0 -0.00036688911 0.00076973328
0.0061736149 0.0040357802 -0.00095568824
0.0051858365 -0.0028128165 -0.001202177
-0.0074083377 -0.016020825 -0.0014486659
-0.0088900048 -0.0025682237 0.0027416437
0.0017286121 -0.0091722272 -0.001202177
0.007655282 -0.00012229636 0.0089038638
0.0064205592 0.011862747 -0.00070919946
-0.0017286121 -0.0013452601 0.00076973328
0.0012347229 0.012596526 0.0017556885
0.0064205592 -0.015531639 -0.0034205762
-0.007655282 -0.01381949 3.0266912e-05
0.00592667 -0.009906006 0.0012627109
-0.0061736149 -0.0040357802 0.0027416437
-0.0032102796 -0.011128969 -0.00070919946
0.0079022264 0.015042453 0.0061924867
-0.00074083376 -0.015531639 0.00076973328
0.0071613928 -0.00012229636 0.0069319531
-0.004198058 0.011128969 -0.00046271068
0.0039511132 -0.0072154859 0.00076973328
-0.0024694458 -0.0096614128 0.00076973328
0.0051858365 -0.0064817076 -0.0014486659
-0.00592667 -0.012596526 0.0017556885
-0.00024694458 -0.0028128165 0.00076973328
0.0088900048 0.0057479292 0.00076973328
0.0037041688 -0.0069708931 0.00076973328
0.004198058 -0.011862747 0.00076973328
-0.007655282 -0.010395192 0.0074249306
0.0019755566 -0.01381949 0.00076973328
0.0074083377 -0.009906006 0.0069319531
-0.00592667 -0.010150598 0.0020021773
0.0049388916 0.015776232 0.00076973328
0.007655282 -0.014553268 0.0012627109
-0.0017286121 0.011128969 0.00076973328
-0.0081491712 -0.005992522 3.0266912e-05
0.00592667 -0.0015898529 -0.00070919946
-0.007655282 0.0069708931 0.0034811101
0 -0.0072154859 -0.001202177
-0.0049388916 -0.015531639 0.00076973328
0.0079022264 -0.0050141513 0.007917908
0.00592667 0.011618155 0.0015091996
-0.00074083376 0.005992522 0.00076973328
0.0066675036 0.0013452601 0.0034811101
0.0009877783 -0.0069708931 -0.0016951546
0.0056797257 -0.0077046715 -0.0014486659
-0.00074083376 0.00036688911 -0.00095568824
0.00049388915 -0.0069708931 -0.0016951546
0.0024694458 0.015776232 0.00076973328
0.0079022264 0.0052587437 0.0061924867
0.0088900048 0.0040357802 0.0012627109
0.0079022264 -0.01381949 0.0015091996
0.0019755566 0.0089276349 -0.00021622187
-0.0086430609 -0.013574897 0.0010162221
-0.0066675036 -0.0084384494 -0.00070919946
-0.007655282 0.0050141513 0.0039740875
-0.0009877783 -0.00012229636 -0.001202177
0.0079022264 -0.00012229636 0.0061924867
0.0046919473 -0.0067263003 0.00076973328
0.0027163904 -0.014553268 -0.0026811098
0.0049388916 -0.005992522 -0.00070919946
0.0086430609 0.0079492638 0.0034811101
-0.0088900048 0.011128969 0.0017556885
-0.0074083377 0.0089276349 3.0266912e-05
0.0037041688 -0.010150598 -0.00046271068
-0.00592667 -0.012107341 0.002248666
-0.00049388915 -0.01381949 -0.00021622187
-0.00074083376 -0.01651001 -0.0019416434
-0.002963335 0.015776232 0.00076973328
0.0012347229 0.0091722272 0.00076973328
-0.0039511132 0.013574897 0.0010162221
0.0064205592 -0.002323631 0.0034811101
-0.0074083377 -0.012596526 0.0071784421
0.00592667 0.0015898529 -0.00095568824
0.0014816675 -0.015287046 -0.0076108854
-0.004198058 0.0015898529 0.0012627109
-0.0051858365 0.0018344455 -0.00095568824
0.00024694458 0.015531639 0.00076973328
0.0027163904 0.014797861 -0.00070919946
-0.00592667 -0.011373563 3.0266912e-05
-0.0088900048 0.0013452601 0.0032346211
0.0039511132 0.013330304 0.00076973328
-0.0088900048 0.010884377 0.0032346211
0.0088900048 0.0077046715 0.0017556885
-0.0027163904 0.0030574093 -0.00095568824
0.0037041688 -0.0011006673 -0.00095568824
0.00592667 0.010150598 0.0024951547
0.0088900048 0.0028128165 0.00076973328
0.004198058 -0.0025682237 0.0020021773
-0.0012347229 -0.013085712 0.0012627109
-0.0049388916 -0.0067263003 0.00076973328
0.0074083377 -0.01381949 0.0017556885
0.007655282 -0.015042453 -0.0016951546
0.00592667 -0.0025682237 -0.00095568824
0.0061736149 0.01651001 0.00076973328
-0.0049388916 0.0094168205 0.00076973328
-0.004198058 -0.012107341 -0.00046271068
-0.0074083377 0.013574897 0.0034811101
0.0061736149 0.012841118 0.0012627109
0.0027163904 0.0045249658 0.00076973328
-0.0037041688 0.0013452601 -0.00095568824
0.0009877783 0.0055033364 -0.00095568824
0.0014816675 0.012841118 0.0010162221
0.0079022264 -0.00036688911 0.0034811101
-0.0022225012 0.010150598 -0.00046271068
0.0054327808 -0.0077046715 -0.0016951546
-0.0088900048 -0.005992522 0.0034811101
-0.0056797257 0.0050141513 0.0015091996
0.0034572242 0.0079492638 -0.00046271068
-0.0049388916 0.0015898529 -0.00095568824
