# .PCD v0.7 - Point Cloud Data file format
VERSION 0.7
FIELDS x y z
SIZE 4 4 4
TYPE F F F
COUNT 1 1 1
WIDTH 1151
HEIGHT 1
VIEWPOINT 0 0 0 1 0 0 0
POINTS 1151
DATA ascii
-0.0020450216 -0.0022207089 -0.0038380455
0.00035706727 0.0018344986 -0.0020317694
0.0024345496 0.00016092093 -0.0021607892
0.0012659658 0.00099770981 -0.0044831443
-0.0015905724 0.0022207089 -0.0022252991
-0.0013958084 -0.0010620782 -0.0043541244
-0.00035706727 -0.002413814 -0.0047411839
-0.0024345496 -0.0013195516 -0.0018382398
-0.0013308871 0.0017701302 -0.0016447102
-0.00035706727 0.0017057619 -0.0042896145
-0.0012010444 -0.0016413934 -0.0045476542
-0.0024345496 0.00067586789 -0.002741378
0.00094135915 0.0028000241 0.0017743126
-0.0013308871 0.00138392 -0.0044831443
-0.0018502576 -0.0011264465 -0.0040960852
3.2460663e-05 -0.0031218659 -0.0019672597
-0.00048690991 0.00054713117 -0.0047411839
0.00087643787 0.0028000241 0.0015162731
-3.2460663e-05 0.0020919722 -0.002741378
-0.00094135915 0.0029931292 -0.0018382398
-0.00035706727 -0.0031218659 -0.0032574569
0.0013958084 -0.0021563405 -0.0044186343
-0.0010062805 -0.0031218659 -0.0028703976
0.002109943 -0.0029287608 -0.003192947
0.00035706727 -0.0014482883 -0.0047411839
-0.00055183121 0.00035402604 -0.00016098336
-0.00022722462 -0.0028000241 -0.0047411839
0.0015905724 -0.0002252893 -0.00061255239
-0.00068167388 -0.0020919722 -0.00022549322
-0.00035706727 9.6552554e-05 -0.00016098336
-3.2460663e-05 -0.0031218659 -0.003192947
-0.002109943 0.00041839443 -0.0039025554
-0.0012659658 0.0026712874 -0.00067706226
-0.00087643787 -0.0026712874 -0.0046121641
-0.0010712019 0.0029931292 -0.00035451294
-0.0015905724 -0.0031218659 -0.0035800061
0.00087643787 0.0028000241 -0.0024833386
0.0011361231 0.0016413934 -0.00067706226
-0.00035706727 0.0031218659 -0.0016447102
3.2460663e-05 -0.0031218659 -0.003192947
-0.00074659521 0.0029931292 -0.0022252991
0.0001623033 0.0018344986 -0.0032574569
0.00081151654 -0.0013195516 -0.00022549322
-0.00035706727 0.0016413934 -0.0045476542
-0.0016554937 0.0017057619 -0.0033219666
-0.0012010444 0.0029287608 0.0026774507
0.0010712019 0.001577025 -0.0045476542
0.0012659658 -0.0018344986 -0.00035451294
-0.0010062805 -0.00138392 -0.0046121641
-0.0014607297 -0.00041839443 -0.00054804253
-0.002304707 -0.0028643925 -0.0017737299
-0.00035706727 0.0021563405 -0.002741378
-0.0017204151 0.00099770981 -0.0041605951
0.0011361231 0.0028000241 -0.00022549322
-0.0016554937 -0.001898867 -0.00074157212
0.002304707 0.0015126567 -0.003192947
-0.00068167388 -0.00080460461 -0.004676674
-0.0010712019 -0.0019632352 -0.00029000308
-0.0024345496 -0.0021563405 -0.0021607892
-0.00094135915 0.00054713117 -0.00016098336
-0.00094135915 -0.0023494456 -0.0046121641
-0.0015905724 0.0017057619 -0.0032574569
0.00055183121 -0.00067586789 -0.00016098336
-0.0013308871 -0.0011264465 -0.0044186343
0.002304707 -0.00093334139 -0.0015156905
-0.00081151654 0.0030574976 -0.0020962793
0.0019801003 0.001577025 -0.0011931412
0.00081151654 -0.0030574976 -0.0004835327
0.0024345496 -0.0011264465 -0.0019027496
0.00081151654 -0.0031218659 -0.0035154964
0.0024345496 0.0011908149 -0.0024833386
0.00035706727 0.0018344986 -0.0015156905
0.00087643787 0.0017057619 -0.00080608198
-0.0024345496 0.00138392 -0.0020317694
0.00074659521 -0.0011264465 -0.00029000308
0.00074659521 -0.00093334139 -0.0047411839
0.0019801003 -0.001898867 -0.0037735358
-0.0011361231 -0.0031218659 -0.0011286313
-0.0012010444 -0.00035402604 -0.0045476542
0.00022722462 -0.0028643925 -0.0047411839
0.0001623033 0.0018344986 -0.0011931412
-0.0010062805 -0.002606919 -0.0044831443
-0.0016554937 -0.0022207089 -0.00074157212
-0.00035706727 -0.0025425507 -0.00016098336
0.0024345496 -0.00035402604 -0.002741378
0.002109943 -0.0013195516 -0.0013221609
0.00022722462 -0.0031218659 -0.0045476542
0.0013958084 -0.0024781823 -0.0043541244
-0.0011361231 3.2184187e-05 -0.00029000308
-0.0001623033 0.0020276038 -0.0022252991
0.0024345496 0.0011908149 -0.0025478483
-0.0012659658 -0.00054713117 -0.00029000308
0.00061675254 0.0014482883 -0.004676674
0.0011361231 0.0028643925 0.0016452929
0.0023696283 0.0013195516 -0.0030639272
3.2460663e-05 -0.0017701302 -0.0047411839
0.0010712019 0.0028000241 -0.0013221609
0.00029214594 -0.0031218659 -0.0016447102
-0.0024345496 -0.0017701302 -0.0028058877
0.0015905724 -0.0022207089 -0.00067706226
0.0001623033 0.0026712874 -0.0011286313
-0.0024345496 0.0011264465 -0.0029994175
-0.0023696283 -0.0019632352 -0.0017737299
-0.0011361231 0.0002252893 -0.004676674
0.0017204151 0.0018344986 -0.0015802004
-0.0010712019 0.0017701302 -0.0018382398
0.00081151654 0.0028000241 -0.0011931412
9.7381984e-05 0.0018344986 -0.0033219666
0.0020450216 -0.0015126567 -0.0011931412
0.00022722462 0.0011264465 -0.00016098336
0.0022397856 -0.0028643925 -0.0029994175
-0.001915179 -0.0031218659 -0.0013221609
0.001915179 -0.0028000241 -0.0035800061
0.0020450216 0.00048276279 -0.0037735358
-0.0022397856 -0.0025425507 -0.0015156905
-0.0012010444 0.0015126567 -0.004225105
-0.0024345496 -0.0026712874 -0.002741378
-0.0004219886 0.0024781823 -0.0026123582
0.0018502576 -0.0021563405 -0.00099961157
-0.00048690991 -0.0022207089 -0.0047411839
0.0020450216 -0.0002252893 -0.0011931412
0.00087643787 0.0028000241 0.0017743126
-0.0016554937 -0.0031218659 -0.00093510171
0.00087643787 0.0031218659 -0.00029000308
0.002304707 0.00041839443 -0.0015802004
-0.00081151654 -9.6552554e-05 -0.00016098336
0.0024345496 -0.0010620782 -0.0021607892
9.7381984e-05 0.0016413934 -0.0044831443
-0.0024345496 0.0015126567 -0.0025478483
0.00048690991 0.0031218659 -0.0010641215
-0.0010712019 0.0026712874 -0.0011931412
9.7381984e-05 -0.0031218659 -0.0019672597
-0.0011361231 0.0021563405 -0.0022252991
0.0010062805 0.0030574976 -0.00074157212
0.0024345496 -0.00061149953 -0.0030639272
0.0013308871 0.00035402604 -0.0004835327
0.002304707 -0.00093334139 -0.0034509865
0.0024345496 0.0010620782 -0.0029349076
0.0014607297 0.0018344986 -0.0019672597
0.0017204151 -0.0029931292 -0.0028058877
-0.00061675254 0.0025425507 -0.0026123582
0.0020450216 0.00093334139 -0.0011931412
0.0011361231 0.00048276279 -0.0045476542
-0.0019801003 -0.00035402604 -0.0039025554
-0.0001623033 -0.001898867 -0.0047411839
0.0015905724 -0.0020276038 -0.00067706226
0.0024345496 -0.00067586789 -0.0028703976
0.00094135915 0.0028000241 0.0019678422
0.00048690991 -0.00016092093 -0.00016098336
0.0010062805 0.00080460461 -0.004676674
-0.0001623033 -0.0002252893 -0.004676674
0.00087643787 0.0031218659 -0.00074157212
-0.00094135915 0.0017057619 -0.0014511807
0.001915179 0.0012551832 -0.0039670654
0.0015905724 0.001577025 -0.004225105
-0.00094135915 -0.00086897303 -0.00029000308
0.00048690991 0.0028643925 -0.0017092201
-0.00087643787 0.0029287608 0.00054862513
0.0015905724 -9.6552554e-05 -0.00061255239
0.00022722462 -0.0031218659 -0.00067706226
-0.00074659521 0.0029931292 -0.0015156905
0.0023696283 0.001577025 -0.0023543187
0.00029214594 -3.2184187e-05 -0.0048056934
-0.0024345496 9.6552554e-05 -0.0024188287
-0.0024345496 -0.0012551832 -0.0021607892
-9.7381984e-05 3.2184187e-05 -0.00016098336
-0.0018502576 -0.0015126567 -0.00080608198
0.0024345496 -0.0024781823 -0.002741378
0.0010062805 0.00086897303 -0.004676674
0.00048690991 0.0031218659 -0.0020962793
-0.0004219886 0.0027356558 -0.0018382398
-0.00068167388 0.0028643925 -0.001257651
-0.0010062805 0.0027356558 0.0028064705
-0.0010062805 0.00093334139 -0.004676674
0.0010712019 0.0028643925 -9.6473494e-05
3.2460663e-05 0.0018344986 -0.00087059184
0.0004219886 0.0017701302 -0.0040960852
0.0024345496 -0.0025425507 -0.0029994175
-0.0019801003 0.00054713117 -0.00093510171
0.0010062805 0.0018344986 -0.0031284371
-0.001915179 -0.0011908149 -0.00093510171
0.0015256511 -0.0029931292 -0.0016447102
0.0012659658 -0.0024781823 -0.00041902281
-0.0012659658 -0.0031218659 -0.0019027496
0.0012010444 0.0017701302 -0.0038380455
0.0024345496 -0.00054713117 -0.0024833386
-0.0015905724 0.001577025 -0.0040960852
0.00087643787 0.0028000241 0.0013227435
0.0018502576 -0.00080460461 -0.00099961157
-0.0012659658 -0.00035402604 -0.00029000308
0.0022397856 0.0011264465 -0.0015802004
-9.7381984e-05 -0.00061149953 -0.00016098336
9.7381984e-05 0.0029931292 -0.0017737299
0.0004219886 0.0024781823 -0.0026123582
-0.0024345496 0.00028965768 -0.003192947
-0.00087643787 -0.0031218659 -0.0019027496
-0.00048690991 0.0011264465 -0.004676674
0.0014607297 -0.0030574976 -0.0030639272
-0.0024345496 -0.00093334139 -0.0021607892
0.00035706727 0.00028965768 -0.00016098336
-0.00087643787 -0.0024781823 -0.0046121641
-0.00094135915 -0.0031218659 -0.0040960852
0.0010712019 0.0011264465 -0.00029000308
-0.0024345496 -0.00093334139 -0.0020962793
-0.00022722462 0.0031218659 -0.0016447102
-0.0024345496 0.0002252893 -0.0022252991
0.00074659521 0.0017057619 -0.0041605951
-0.00068167388 0.0002252893 -0.004676674
-0.0019801003 -0.0031218659 -0.0025478483
3.2460663e-05 0.0018344986 -0.0037735358
-0.00094135915 -0.0019632352 -0.00029000308
-0.0017204151 -0.0031218659 -0.0014511807
0.00029214594 0.0029931292 -0.0013866707
0.0012010444 0.0028643925 -0.00067706226
-0.001915179 0.0014482883 -0.00099961157
-0.00035706727 -0.0020919722 -0.00016098336
-0.0010712019 -0.0031218659 -0.0041605951
0.00074659521 0.0029287608 -0.00016098336
0.002109943 -0.0018344986 -0.003644516
0.0017853364 0.00086897303 -0.00087059184
0.002304707 0.00054713117 -0.0032574569
-0.0022397856 -0.00035402604 -0.0015156905
3.2460663e-05 -0.0031218659 -0.0026123582
-0.00074659521 3.2184187e-05 -0.00016098336
0.0010062805 -0.00041839443 -0.00029000308
-0.0020450216 -3.2184187e-05 -0.0037090259
0.0012010444 0.00086897303 -0.00022549322
0.0013958084 0.0018344986 -0.0013866707
0.0017853364 -0.0020919722 -0.00087059184
-0.00048690991 -0.0031218659 -0.0016447102
-0.00055183121 0.002606919 -0.0020317694
0.00087643787 0.0031218659 -9.6473494e-05
-0.0018502576 0.0017057619 -0.0022252991
0.00061675254 -0.0031218659 -0.0021607892
-0.0011361231 0.0016413934 -0.00074157212
0.0024345496 -0.00054713117 -0.0029349076
0.0012010444 0.0012551832 -0.0045476542
0.0022397856 0.00028965768 -0.0015156905
9.7381984e-05 -0.0031218659 -0.0025478483
3.2460663e-05 -0.0021563405 -0.0047411839
-0.00087643787 0.0028000241 -0.00035451294
-0.00022722462 0.0017057619 -0.0042896145
-9.7381984e-05 -0.0031218659 -0.0021607892
9.7381984e-05 0.0018344986 -0.0028058877
-0.00029214594 -0.0031218659 -0.0033219666
-0.002304707 -0.00074023625 -0.0015156905
-0.00094135915 0.0029931292 0.0018388224
0.002304707 9.6552554e-05 -0.003192947
-0.00087643787 -0.002606919 -0.00029000308
0.00074659521 0.00099770981 -0.00016098336
0.0010062805 -0.0029931292 -0.0037735358
-0.0024345496 0.00035402604 -0.0026123582
0.00094135915 -0.0028643925 -0.0046121641
0.00055183121 -3.2184187e-05 -0.00016098336
9.7381984e-05 -0.0031218659 -0.0032574569
-0.00094135915 0.0027356558 0.0021613718
-0.00094135915 0.0029931292 0.00074215472
-0.0024345496 -0.00099770981 -0.0028058877
-0.0010712019 -0.0022850772 -0.00035451294
0.00087643787 -0.0031218659 -0.0016447102
-0.00068167388 0.0018344986 -0.0020962793
-0.00035706727 0.0018344986 -0.0037090259
-0.00029214594 -0.0031218659 -0.0024188287
0.002304707 -0.001898867 -0.0032574569
-0.00022722462 -0.0011264465 -0.004676674
-0.0019801003 -0.0010620782 -0.0038380455
0.0010062805 -0.00074023625 -0.00022549322
-9.7381984e-05 -0.0010620782 -0.00016098336
0.0017204151 -0.0020276038 -0.004225105
-0.0024345496 0.0011264465 -0.003192947
-0.0019801003 -0.0028643925 -0.0010641215
-0.0015256511 -0.002606919 -0.0042896145
0.002304707 -0.00099770981 -0.0016447102
0.00074659521 -0.0030574976 -0.0043541244
-0.00087643787 0.0029931292 0.0012582337
0.0011361231 -0.0013195516 -0.0046121641
0.0017204151 3.2184187e-05 -0.00080608198
9.7381984e-05 -0.0030574976 -0.004676674
0.00022722462 0.0029931292 -0.0024188287
0.0011361231 0.0028643925 -0.0024188287
-0.0013308871 0.00048276279 -0.0046121641
0.0016554937 -0.0028643925 -0.00093510171
-0.0024345496 -0.00041839443 -0.0028058877
0.0013958084 -0.0029287608 -0.003644516
-0.0001623033 -0.00099770981 -0.004676674
0.0014607297 -0.0029287608 -0.0011931412
-3.2460663e-05 0.0030574976 -0.0022252991
-0.00061675254 -0.0022850772 -0.00022549322
-0.00074659521 0.0029287608 -0.0004835327
0.0024345496 -0.00067586789 -0.0026123582
-0.00081151654 -0.0031218659 -0.0026768681
-0.002109943 0.00093334139 -0.0011931412
0.00074659521 0.0029931292 -0.0024188287
0.0012659658 -0.0022850772 -0.0044831443
-0.00035706727 0.0018344986 -0.0035800061
-0.0012659658 -0.00099770981 -0.0044831443
0.0004219886 0.0017057619 -0.0046121641
-0.00068167388 -0.0031218659 -0.0039025554
-0.0017204151 -0.0031218659 -0.0026123582
3.2460663e-05 0.0016413934 -0.00054804253
0.0015905724 -0.00099770981 -0.0043541244
0.0020450216 -0.00067586789 -0.0037735358
-0.0010712019 0.002606919 -0.0019027496
-0.0011361231 0.0029931292 0.0022903916
0.0024345496 -0.0020919722 -0.0026768681
3.2460663e-05 0.0018344986 -0.0017092201
-0.00048690991 -0.0031218659 -0.0024833386
-0.0021748643 -0.0018344986 -0.0015156905
0.0017204151 0.0012551832 -0.004225105
0.00087643787 0.0019632352 -0.002741378
-0.002109943 0.00054713117 -0.0038380455
0.00048690991 -0.0018344986 -0.00022549322
-0.0023696283 -0.00061149953 -0.0017737299
0.00087643787 0.0029287608 0.00035509554
0.0001623033 -0.0013195516 -0.0047411839
-0.0024345496 0.00035402604 -0.0029994175
-0.00087643787 -0.0031218659 -0.0020317694
0.00055183121 -0.0020919722 -0.00022549322
-0.0024345496 0.00041839443 -0.0018382398
-0.0016554937 0.002413814 -0.0024833386
-0.00022722462 -0.0029931292 -0.00016098336
-0.0012659658 -9.6552554e-05 -0.0046121641
-0.0017204151 0.001577025 -0.0011931412
0.0024345496 -0.001898867 -0.002741378
-0.00029214594 -0.0031218659 -0.0034509865
-0.0014607297 -0.0011908149 -0.0042896145
-0.002109943 0.0018344986 -0.002741378
-0.00074659521 0.0018344986 -0.0017737299
0.0013958084 0.00074023625 -0.0044186343
-0.0012659658 0.0016413934 -0.0035800061
-0.002304707 -0.0028643925 -0.0017092201
0.0015905724 -0.0024781823 -0.00061255239
-0.0020450216 -0.0030574976 -0.0014511807
0.0010062805 0.0028000241 0.0026774507
-3.2460663e-05 0.0016413934 -0.0044831443
-0.002109943 -0.0031218659 -0.0020317694
0.00068167388 0.0020919722 -0.002741378
0.0024345496 -0.0019632352 -0.0020962793
-0.0024345496 -0.0015126567 -0.0018382398
0.0024345496 -0.001898867 -0.0022252991
0.0019801003 0.00093334139 -0.0039025554
-0.0013308871 -0.0031218659 -0.0028703976
0.0024345496 -0.0017701302 -0.0028703976
-0.0011361231 -0.0016413934 -0.0045476542
0.0018502576 -0.00061149953 -0.00093510171
-0.0024345496 -0.0002252893 -0.0031284371
0.0012659658 0.0026712874 -0.0024188287
-0.00048690991 0.0027356558 -0.0026123582
0.0015256511 0.0014482883 -0.00061255239
-0.0015256511 0.002606919 -0.0020962793
0.00035706727 0.0022207089 -0.002741378
-0.0020450216 -0.0002252893 -0.0011286313
0.00035706727 0.0029931292 -0.0024833386
0.0024345496 -0.00067586789 -0.0028058877
-0.0001623033 0.0028643925 -0.0020317694
0.0010712019 -0.0013195516 -0.0046121641
-0.0022397856 -0.0012551832 -0.0034509865
-0.0004219886 -0.00016092093 -0.00016098336
9.7381984e-05 0.0018344986 -0.0018382398
0.0001623033 -0.00138392 -0.00016098336
-0.0021748643 -0.0017057619 -0.003644516
0.00029214594 -3.2184187e-05 -0.00016098336
0.0024345496 -0.00041839443 -0.0028703976
-0.00022722462 -0.0018344986 -0.00016098336
0.00074659521 -0.0031218659 -0.0029994175
-0.002304707 -0.0017057619 -0.0017092201
0.0004219886 0.0020276038 -0.002741378
-0.0012010444 0.0016413934 -0.001257651
-0.002304707 0.0010620782 -0.0017092201
0.0018502576 0.0022207089 -0.0022252991
0.0012010444 0.0023494456 -0.0026123582
-0.0017853364 -0.00099770981 -0.00087059184
3.2460663e-05 -0.0031218659 -0.0026768681
-9.7381984e-05 -0.00067586789 -0.00016098336
-0.0018502576 0.0010620782 -0.0040960852
-0.0013308871 -0.0031218659 -0.0024188287
-0.0012010444 0.0015126567 -0.00054804253
0.0018502576 -0.002606919 -0.00087059184
-0.0012659658 -0.0018344986 -0.0043541244
0.00061675254 0.0020276038 -0.0022252991
-9.7381984e-05 0.0018344986 -0.00099961157
-0.0019801003 -0.00048276279 -0.0038380455
0.0013958084 0.0018344986 -0.0035154964
0.0011361231 -0.0024781823 -0.0045476542
-0.0024345496 0.0014482883 -0.0020317694
-0.0013958084 0.001898867 -0.002741378
0.00087643787 -0.00138392 -0.0047411839
0.0020450216 -0.0027356558 -0.0037090259
0.00081151654 0.00035402604 -0.0047411839
-0.00094135915 0.0027356558 -0.0017737299
-0.0018502576 0.00016092093 -0.0040960852
0.0011361231 -0.0029931292 -0.00067706226
0.00087643787 0.0022207089 -0.0022252991
0.0010712019 0.0028643925 0.0026129407
0.002304707 -0.0002252893 -0.003192947
-0.00029214594 0.0031218659 -0.0019672597
0.0021748643 -0.0017701302 -0.0034509865
-0.00029214594 -0.0031218659 -0.0029349076
9.7381984e-05 -0.00054713117 -0.00016098336
-0.0004219886 -0.0031218659 -0.00067706226
0.002304707 -0.00074023625 -0.0017092201
-0.0013308871 -0.0031218659 -0.001257651
-0.0020450216 0.00099770981 -0.0011286313
0.00055183121 -0.00093334139 -0.00016098336
-0.0020450216 0.00086897303 -0.0038380455
-0.00094135915 0.0027356558 0.0023549013
-0.0017204151 0.00080460461 -0.00074157212
-0.0019801003 0.0016413934 -0.0015802004
0.0014607297 -0.002413814 -0.00061255239
-0.00035706727 0.0018344986 -0.003192947
0.0011361231 0.0013195516 -0.0045476542
-0.002304707 -0.0020276038 -0.0033219666
-0.0013958084 0.0017701302 -0.002741378
0.0015905724 -0.00035402604 -0.0043541244
-0.0012010444 0.001898867 -0.002741378
0.0024345496 -0.0020919722 -0.0025478483
0.0017204151 -0.00099770981 -0.0041605951
0.0024345496 -0.0019632352 -0.0026768681
-0.0019801003 0.0016413934 -0.0033864765
-0.0014607297 0.0019632352 -0.002741378
-3.2460663e-05 -0.0031218659 -0.0022898088
0.00035706727 0.0015126567 -0.00016098336
0.00022722462 -0.0031218659 -0.0011286313
-0.0012010444 0.0016413934 -0.0011931412
-0.00074659521 0.0010620782 -0.004676674
0.00022722462 0.0020919722 -0.002741378
0.00029214594 0.0029287608 -0.0017092201
0.0024345496 -0.0022207089 -0.0022898088
-0.0024345496 -0.00028965768 -0.0022898088
0.0024345496 0.00035402604 -0.0020962793
-0.0010712019 -0.0020276038 -0.00029000308
0.00081151654 -0.00016092093 -0.004676674
0.00061675254 0.00016092093 -0.00016098336
-0.0015905724 0.0019632352 -0.0022252991
-0.00055183121 -0.0028000241 -0.004676674
0.0021748643 -0.0018344986 -0.0013866707
0.00081151654 0.0015126567 -0.004676674
9.7381984e-05 0.0026712874 -0.0013866707
0.0017853364 0.0017701302 -0.0035154964
-0.0012010444 0.0029287608 -0.001257651
-9.7381984e-05 0.00054713117 -0.0047411839
-0.0017204151 0.0017057619 -0.0030639272
3.2460663e-05 0.0018344986 -0.0031284371
0.0015905724 -0.0023494456 -0.00067706226
3.2460663e-05 0.0018344986 -0.0039670654
-0.0022397856 -0.0012551832 -0.0015156905
0.0010062805 0.0028000241 0.0021613718
0.002304707 0.0011908149 -0.0016447102
0.0020450216 -0.0023494456 -0.0037090259
0.0012659658 -0.0018344986 -0.0045476542
0.0022397856 -0.00138392 -0.0034509865
0.0021748643 -0.00061149953 -0.0013866707
-0.0022397856 -0.0020919722 -0.0015156905
-0.0013958084 -0.0011264465 -0.00041902281
-0.0012010444 0.0027356558 -0.00054804253
0.0024345496 -0.0025425507 -0.0022252991
0.00055183121 0.0018344986 -0.0029994175
9.7381984e-05 0.00074023625 -0.00016098336
0.00055183121 -0.0011264465 -0.00016098336
-0.00068167388 -0.0031218659 -0.001257651
0.00061675254 0.0002252893 -0.0047411839
-0.0014607297 -0.0031218659 -0.001257651
-0.0013308871 0.00074023625 -0.0044831443
0.0015256511 -0.0029931292 -0.0034509865
-0.00022722462 0.0016413934 -0.0046121641
-0.0011361231 -0.0015126567 -0.0045476542
0.0016554937 -0.0029931292 -0.0019027496
-0.0020450216 0.00035402604 -0.0039025554
0.0014607297 -0.00093334139 -0.00061255239
9.7381984e-05 -0.0026712874 -0.00016098336
0.00048690991 -0.0031218659 -0.00099961157
-0.0015256511 -0.0031218659 -0.0031284371
-0.001915179 -0.0031218659 -0.0020962793
-0.00055183121 -0.0018344986 -0.004676674
-0.0020450216 -0.0028000241 -0.0011931412
-0.0024345496 -0.0010620782 -0.0029994175
-0.0010062805 0.0029931292 0.0026774507
0.0016554937 -0.0029931292 -0.0029994175
-0.0010062805 -0.0031218659 -0.0039025554
-0.00087643787 0.0029931292 0.0013872534
0.0012659658 -0.0029287608 -0.00067706226
0.0024345496 -0.00016092093 -0.0024188287
-0.00074659521 0.0029931292 -0.00087059184
-0.00022722462 0.001577025 -0.0047411839
-0.0022397856 0.00086897303 -0.0034509865
-0.0022397856 -0.0031218659 -0.002741378
0.0024345496 -0.001577025 -0.0028703976
-0.0024345496 -0.00138392 -0.0028703976
-0.0024345496 0.00048276279 -0.002741378
-0.0021748643 0.00035402604 -0.0035154964
0.0010712019 0.0028643925 0.0024194112
-0.0024345496 0.00093334139 -0.0023543187
0.002109943 0.0010620782 -0.0011931412
-0.002304707 -0.00035402604 -0.0033864765
-0.0024345496 -0.00074023625 -0.0024188287
0.00048690991 0.0018344986 -0.0018382398
0.00029214594 -0.0031218659 -0.00067706226
0.0020450216 0.0016413934 -0.0035800061
0.002304707 -0.0022850772 -0.0033864765
0.0017204151 0.002413814 -0.0022252991
0.0018502576 0.0011264465 -0.0040960852
0.0018502576 -0.0013195516 -0.00087059184
-0.0017204151 0.00016092093 -0.004225105
0.0024345496 -0.001898867 -0.0030639272
-0.0012010444 -0.0010620782 -0.00029000308
-0.002109943 0.00041839443 -0.0010641215
-0.0021748643 0.00061149953 -0.0014511807
0.0010712019 0.0029931292 0.00035509554
0.0011361231 -0.00041839443 -0.00016098336
-0.0015256511 -0.0014482883 -0.0004835327
-3.2460663e-05 0.0031218659 -0.0020962793
-0.0004219886 0.0019632352 -0.002741378
-0.002304707 0.0014482883 -0.0033864765
0.0024345496 -0.0017701302 -0.0024833386
0.0013958084 0.0011264465 -0.0044831443
0.0024345496 0.0002252893 -0.0021607892
0.0018502576 0.0013195516 -0.0040960852
0.00094135915 0.0026712874 -0.0020962793
0.00068167388 -0.0031218659 -0.0022898088
0.0010062805 -0.0019632352 -0.004676674
0.00074659521 -0.0026712874 -0.0047411839
0.00035706727 0.0018344986 -0.0013866707
0.00055183121 0.0031218659 -0.00080608198
0.0019801003 -0.00074023625 -0.0039670654
-0.0010062805 -0.0031218659 -0.0019672597
-0.0024345496 -0.0028000241 -0.0029994175
-0.00061675254 0.0016413934 -0.0044831443
0.0024345496 -0.00099770981 -0.0029994175
-0.0024345496 -0.0029287608 -0.0024833386
0.0016554937 -0.0017701302 -0.00074157212
0.00087643787 -0.0023494456 -0.0047411839
0.0018502576 0.0017701302 -0.0020317694
0.0012659658 -0.0020919722 -0.00041902281
0.0004219886 -0.0022850772 -0.00016098336
0.0016554937 -0.00016092093 -0.00074157212
-0.0017853364 0.0017057619 -0.0031284371
0.0020450216 3.2184187e-05 -0.0037735358
-0.0013958084 0.0016413934 -0.0011931412
0.0013308871 0.0017057619 -0.00093510171
0.0011361231 -0.0026712874 -0.00029000308
0.0019801003 0.00080460461 -0.0038380455
-0.0022397856 -0.0021563405 -0.0034509865
-0.002109943 0.0016413934 -0.0030639272
0.0017204151 -0.0017057619 -0.0041605951
0.00055183121 -0.001898867 -0.00029000308
0.0014607297 -0.00099770981 -0.00061255239
-0.0023696283 3.2184187e-05 -0.0017737299
0.0017204151 0.0017057619 -0.0011286313
-0.0004219886 -0.00067586789 -0.004676674
-0.00074659521 -0.002413814 -0.00029000308
-0.002109943 -0.00093334139 -0.003644516
-0.00048690991 -0.0031218659 -0.003644516
0.00022722462 0.00080460461 -0.0047411839
0.0017853364 -0.002606919 -0.0040960852
0.0019801003 0.00138392 -0.0039025554
0.0010062805 0.0010620782 -0.00016098336
-0.00074659521 0.0010620782 -0.00016098336
0.00055183121 -0.0030574976 -0.0013866707
-0.0011361231 0.0029931292 -0.00041902281
0.002109943 0.0013195516 -0.0013221609
-0.0012010444 0.0029287608 -0.0019027496
0.00081151654 0.0028643925 0.0012582337
0.00048690991 0.0014482883 -0.00016098336
9.7381984e-05 0.00041839443 -0.00016098336
0.00081151654 0.0031218659 -0.0013866707
0.002304707 -0.0012551832 -0.0017737299
0.0021748643 -0.0020276038 -0.0034509865
-0.0024345496 0.00067586789 -0.0023543187
0.00074659521 0.0018344986 -0.0030639272
0.0010062805 -0.00054713117 -0.004676674
-0.0001623033 0.0021563405 -0.002741378
0.00087643787 0.0024781823 -0.0022252991
-0.00048690991 0.0027356558 -0.0025478483
-0.002109943 0.0016413934 -0.0015802004
-0.00048690991 -0.0031218659 -0.0032574569
-0.0024345496 0.00035402604 -0.0019672597
0.0019801003 0.0017057619 -0.0034509865
-0.00055183121 0.0018344986 -0.0035154964
0.0019801003 0.00074023625 -0.0038380455
0.0010062805 0.0030574976 0.00074215472
0.0024345496 3.2184187e-05 -0.0026768681
-0.0013308871 0.0028000241 -0.0017737299
-0.0011361231 0.00093334139 -0.00029000308
3.2460663e-05 -0.0016413934 -0.0047411839
0.0015905724 -0.0011908149 -0.00067706226
-0.0015256511 -0.0020276038 -0.0004835327
0.0010062805 0.0028000241 -0.001257651
-0.00048690991 -0.00086897303 -0.004676674
-0.002304707 -0.00138392 -0.0033219666
0.00081151654 0.0028643925 0.00041960541
0.00029214594 -0.001898867 -0.00016098336
-0.0015905724 -0.001898867 -0.0041605951
-0.0015905724 0.0010620782 -0.00067706226
-0.00055183121 -0.0031218659 -0.0038380455
0.002109943 0.00061149953 -0.001257651
0.00048690991 -0.0031218659 -0.0011931412
-0.0020450216 -0.0031218659 -0.002741378
0.00087643787 0.0031218659 -0.0010641215
-0.002304707 0.0013195516 -0.0015802004
0.00029214594 -0.00035402604 -0.0048056934
-0.00061675254 0.001577025 -0.00029000308
-0.00055183121 -0.0017701302 -0.004676674
0.0001623033 0.0018344986 -0.0019672597
-0.0017204151 0.0021563405 -0.0022252991
0.00087643787 0.0028000241 -9.6473494e-05
-9.7381984e-05 0.0027356558 -0.0026123582
0.0013308871 -0.0029287608 -0.0011286313
-0.0024345496 -0.0022207089 -0.0031284371
0.002304707 0.00028965768 -0.0034509865
0.00061675254 0.0018344986 -0.0035154964
-0.0024345496 0.0013195516 -0.0019027496
-0.002304707 -0.0026712874 -0.0018382398
0.002304707 0.0002252893 -0.0017737299
0.0018502576 -0.0023494456 -0.00093510171
-0.001915179 0.0015126567 -0.00093510171
-0.0012659658 0.0027356558 -0.0013221609
-0.0021748643 -0.001577025 -0.003644516
-0.00029214594 -0.0031218659 -0.0029994175
-0.002304707 -0.00080460461 -0.0034509865
-0.0021748643 0.00041839443 -0.0013866707
-0.0011361231 0.0029931292 0.00041960541
0.00061675254 0.0017057619 -0.0044186343
0.0024345496 -0.00074023625 -0.0029349076
-0.00081151654 0.0029931292 -0.0013866707
0.0013958084 0.0018344986 -0.0019672597
0.0004219886 0.0017057619 -0.0045476542
-3.2460663e-05 0.0028000241 -0.0025478483
0.002304707 0.0014482883 -0.0032574569
-0.00074659521 -0.0031218659 -0.0020962793
-0.0012659658 -0.0016413934 -0.0043541244
0.00035706727 -0.0024781823 -0.0047411839
-0.0011361231 0.0029287608 0.0013227435
0.00061675254 -0.0026712874 -0.0047411839
-0.0024345496 -0.0025425507 -0.0028703976
-0.00087643787 -0.0031218659 -0.00035451294
-0.0024345496 0.0011264465 -0.0026768681
-0.0017204151 0.0017057619 -0.0016447102
-0.0010712019 0.0026712874 -0.00074157212
0.002304707 0.00086897303 -0.0015156905
-0.0004219886 -0.0031218659 -0.004225105
0.0017204151 0.0011264465 -0.0041605951
-9.7381984e-05 -0.00016092093 -0.00016098336
-0.00035706727 -0.00099770981 -0.00016098336
0.002304707 -0.0019632352 -0.0015156905
-0.001915179 0.0012551832 -0.0040315753
0.0014607297 -0.0026712874 -0.00061255239
-0.0020450216 -0.0030574976 -0.0015802004
-0.0023696283 -0.00041839443 -0.003192947
0.002304707 0.00035402604 -0.0031284371
-0.0010062805 0.0020276038 -0.0022252991
-0.00055183121 -0.00080460461 -0.00016098336
0.0013958084 0.00041839443 -0.00054804253
-0.002304707 -0.0022207089 -0.0018382398
-0.00035706727 -0.0031218659 -0.00087059184
-0.0004219886 -0.0014482883 -0.004676674
-0.0012659658 -0.0002252893 -0.0044831443
0.00081151654 0.0031218659 -0.00087059184
-0.0021748643 0.0016413934 -0.0029994175
0.0010062805 -0.0031218659 -0.0028703976
0.0024345496 -0.002606919 -0.0022252991
-0.002109943 0.00035402604 -0.0011286313
-9.7381984e-05 0.0028000241 -0.0025478483
-0.00094135915 0.0017701302 -0.0039025554
0.00048690991 0.0031218659 -0.0017737299
0.0020450216 -0.0029287608 -0.003192947
0.0021748643 0.00035402604 -0.003644516
0.00081151654 -0.0014482883 -0.00016098336
-0.0004219886 0.0018344986 -0.0032574569
0.0004219886 0.0018344986 -0.0019672597
-0.00074659521 -0.0030574976 -0.00029000308
-0.0013308871 0.0002252893 -0.00035451294
-0.0016554937 0.0019632352 -0.002741378
-0.0024345496 -0.0022850772 -0.0021607892
-0.0011361231 -0.001577025 -0.00029000308
-0.00029214594 0.002413814 -0.0022252991
0.002304707 0.00054713117 -0.0031284371
-0.00087643787 -0.0031218659 -0.0037735358
0.00087643787 -0.002606919 -0.0047411839
0.00087643787 0.0027356558 -0.0025478483
-0.00029214594 0.0018344986 -0.0040960852
-0.00061675254 0.00054713117 -0.00016098336
-0.0012010444 0.0029287608 0.0022903916
-0.00055183121 -0.00080460461 -0.004676674
0.0023696283 -9.6552554e-05 -0.0030639272
-0.0013308871 -0.0026712874 -0.0044186343
0.002304707 0.00054713117 -0.0033864765
-0.00081151654 -0.00048276279 -0.00016098336
0.0018502576 -0.0022850772 -0.0040315753
-0.0017853364 0.00093334139 -0.0040960852
0.0013308871 -0.0016413934 -0.0004835327
-0.00068167388 0.002606919 -0.0019027496
0.0010712019 -0.001898867 -0.0046121641
-0.0013308871 -0.00080460461 -0.00035451294
-0.00029214594 -0.002413814 -0.0047411839
-9.7381984e-05 0.0026712874 -0.0015156905
-0.0011361231 0.0027356558 0.0026129407
-0.00035706727 0.0018344986 -0.0019027496
-0.0012010444 -0.0028643925 -0.0044831443
0.00094135915 0.0021563405 -0.0022252991
-0.0020450216 -0.0023494456 -0.001257651
0.0010712019 0.0018344986 -0.003192947
0.00035706727 0.0024781823 -0.0026123582
0.00029214594 0.00035402604 -0.00016098336
0.00081151654 -0.0031218659 -0.0019027496
-0.0024345496 -0.00048276279 -0.0030639272
-0.0010712019 0.0027356558 0.0019678422
-0.0022397856 -0.0010620782 -0.0015156905
-0.0017853364 0.0014482883 -0.0040960852
-0.0019801003 -0.00099770981 -0.0038380455
0.0016554937 0.00035402604 -0.004225105
-0.0021748643 3.2184187e-05 -0.0035154964
-0.0019801003 0.0016413934 -0.0033219666
0.00094135915 0.0018344986 -0.0018382398
-0.00087643787 -0.0020276038 -0.0046121641
0.001915179 0.00080460461 -0.0040315753
0.0010712019 0.0028643925 0.002548431
0.00081151654 0.0028000241 -9.6473494e-05
0.002109943 0.00074023625 -0.0011931412
0.0015256511 0.0018344986 -0.0019027496
0.00029214594 -0.0031218659 -0.0030639272
0.0014607297 0.0024781823 -0.0022252991
-0.0013308871 -0.0031218659 -0.0022898088
-0.00094135915 0.0018344986 -0.0017737299
0.0024345496 -0.00074023625 -0.0025478483
-0.00094135915 0.0029931292 -0.0017737299
0.00081151654 -0.0028000241 -0.004676674
0.00035706727 0.0018344986 -0.0037735358
-0.00081151654 0.00016092093 -0.00029000308
0.0011361231 0.0029287608 0.00041960541
-0.0024345496 3.2184187e-05 -0.0025478483
0.0004219886 -0.00035402604 -0.00016098336
0.0019801003 0.00067586789 -0.0011286313
0.00022722462 0.0018344986 -0.0035154964
0.00081151654 0.0029931292 0.0014517632
0.0024345496 -0.00099770981 -0.0019027496
0.0014607297 -0.0029287608 -0.0041605951
0.00094135915 -0.0022850772 -0.00029000308
-0.00081151654 -0.0026712874 -0.00029000308
0.0024345496 -0.001577025 -0.0020962793
0.0020450216 -0.0020276038 -0.0037090259
0.00081151654 0.0031218659 -0.0020317694
0.00074659521 -0.0030574976 -0.00080608198
0.0024345496 0.00035402604 -0.0022252991
-0.00061675254 -0.0014482883 -0.004676674
0.00061675254 0.0018344986 -0.0017092201
-0.0017204151 -0.00016092093 -0.00074157212
0.001915179 -0.0029287608 -0.0021607892
0.00061675254 0.002413814 -0.0022252991
-0.0011361231 0.0016413934 -0.0039670654
0.0010712019 0.0018344986 -0.0015156905
0.0022397856 0.00048276279 -0.0034509865
-0.00074659521 -0.0031218659 -0.0017737299
-0.0013958084 9.6552554e-05 -0.00041902281
0.0018502576 -0.0017057619 -0.0040315753
0.002304707 0.0017057619 -0.0026768681
0.00087643787 0.0028000241 -0.0014511807
-0.0020450216 -0.002413814 -0.0037090259
-0.0024345496 0.0012551832 -0.0030639272
-0.00061675254 -0.0031218659 -0.0030639272
-0.00074659521 -0.0031218659 -0.003192947
0.00061675254 0.002413814 -0.0026123582
0.0022397856 0.0018344986 -0.0022898088
-0.0024345496 -9.6552554e-05 -0.0022898088
-0.0012010444 0.0029287608 -0.0004835327
0.0024345496 -0.0026712874 -0.0029349076
0.0017853364 -0.00138392 -0.00087059184
0.0024345496 -0.00093334139 -0.0023543187
-0.002304707 -0.0024781823 -0.0033864765
0.00094135915 0.0030574976 0.00080666458
-3.2460663e-05 -0.0031218659 -0.002741378
-0.00061675254 0.0020276038 -0.002741378
0.0019801003 -0.0017057619 -0.0039670654
0.0017204151 -0.00080460461 -0.004225105
0.0020450216 0.0017057619 -0.0033864765
-0.0021748643 0.00074023625 -0.0035800061
0.0021748643 -0.001577025 -0.0034509865
-0.0020450216 -0.00067586789 -0.0037735358
0.0020450216 -0.0022850772 -0.001257651
0.0022397856 0.0016413934 -0.003192947
-9.7381984e-05 0.00041839443 -0.00016098336
-0.002109943 -0.0020919722 -0.0013221609
0.0012010444 0.0016413934 -0.004225105
-9.7381984e-05 -0.0031218659 -0.00041902281
-0.00061675254 0.002606919 -0.0015802004
0.0021748643 -0.0028643925 -0.0015156905
-0.00029214594 0.0016413934 -0.00054804253
-0.0021748643 -0.00041839443 -0.0014511807
-0.0015905724 -0.0031218659 -0.0021607892
-0.0021748643 -0.001898867 -0.0035154964
0.0017853364 -0.0029931292 -0.003192947
-0.0024345496 -0.0015126567 -0.0026123582
0.0004219886 -0.0031218659 -0.0010641215
0.00094135915 -0.0031218659 -0.0014511807
-0.0023696283 -0.0029931292 -0.0024188287
0.0011361231 -0.00035402604 -0.00016098336
-0.0023696283 -0.0012551832 -0.0017737299
0.00068167388 -0.00061149953 -0.00016098336
-0.0016554937 0.0014482883 -0.004225105
-0.0010712019 0.0027356558 0.0028064705
-0.0013958084 -9.6552554e-05 -0.0044186343
-0.00029214594 0.0012551832 -0.00016098336
-0.0011361231 -0.002413814 -0.0044831443
-0.0021748643 -0.0011908149 -0.0013866707
-0.0013308871 -0.00061149953 -0.0044831443
0.0015905724 -0.0018344986 -0.0042896145
0.00048690991 0.00086897303 -0.0047411839
-0.0013308871 0.00035402604 -0.0046121641
-0.0013958084 -0.001898867 -0.00041902281
-0.00048690991 0.0029931292 -0.0023543187
0.0021748643 -0.00093334139 -0.0035800061
-0.0001623033 -0.0025425507 -0.0047411839
-0.0015256511 -0.00099770981 -0.00054804253
0.00081151654 0.0018344986 -0.0032574569
0.00068167388 -0.0030574976 -0.00061255239
0.0015905724 -3.2184187e-05 -0.00061255239
0.0004219886 -0.001898867 -0.0047411839
-0.0018502576 -0.0022207089 -0.0040315753
-0.00074659521 -0.0026712874 -0.0046121641
0.0012010444 3.2184187e-05 -0.0044831443
-0.00087643787 0.0028000241 -0.00061255239
-0.0017204151 -0.0030574976 -0.00087059184
-0.0019801003 0.0012551832 -0.0010641215
0.0012659658 -0.0029287608 -0.0004835327
-0.00087643787 -0.00041839443 -0.00016098336
-0.0012010444 -0.0028000241 -0.00041902281
0.0010062805 -0.0022850772 -0.004676674
-0.0001623033 -0.0031218659 -0.0040960852
-0.0010062805 0.0026712874 0.00029058568
0.00068167388 0.0017701302 -0.00061255239
0.0024345496 -0.00093334139 -0.0025478483
-0.00074659521 0.0027356558 -0.0017737299
-0.001915179 0.0013195516 -0.0039670654
-0.0011361231 0.00048276279 -0.004676674
-0.00081151654 0.00099770981 -0.00016098336
0.0001623033 -0.0031218659 -0.0033219666
-0.0024345496 -0.00048276279 -0.0024188287
-0.0024345496 -0.0010620782 -0.0022252991
-0.00055183121 0.0017701302 -0.0040960852
-0.002304707 -0.0025425507 -0.0017737299
-0.00061675254 0.002606919 -0.0019672597
0.00087643787 -0.00093334139 -0.0047411839
0.00035706727 -0.0017701302 -0.0047411839
-0.0021748643 0.00054713117 -0.0035154964
9.7381984e-05 0.0017701302 -0.004225105
0.0017204151 9.6552554e-05 -0.00080608198
-0.0018502576 -0.0010620782 -0.0040315753
-0.00068167388 -0.0031218659 -0.0016447102
-0.0012659658 0.00067586789 -0.00029000308
0.00061675254 -9.6552554e-05 -0.00016098336
0.00061675254 -0.0030574976 -0.00099961157
0.0017853364 -0.0028643925 -0.0013221609
-0.00074659521 -0.00093334139 -0.00016098336
0.0001623033 -0.0025425507 -0.0047411839
0.0017204151 -0.0023494456 -0.00080608198
-0.0010712019 0.002606919 -0.0019672597
0.0017204151 -0.0018344986 -0.00074157212
0.0021748643 0.00041839443 -0.0035154964
0.002304707 3.2184187e-05 -0.0015156905
-0.00029214594 0.0018344986 -0.001257651
-0.0010062805 -0.0020919722 -0.00029000308
-0.00035706727 -0.0017701302 -0.0047411839
0.0015905724 0.00016092093 -0.00067706226
-0.00074659521 0.0029931292 -0.0015802004
-0.0018502576 -0.0016413934 -0.00080608198
-0.00048690991 -0.0031218659 -0.00067706226
0.0020450216 0.0020276038 -0.0024833386
0.00094135915 -0.00074023625 -0.004676674
0.0012659658 -0.00048276279 -0.00041902281
-0.00094135915 -0.0031218659 -0.0032574569
-0.0011361231 0.002606919 -0.0019672597
-0.00048690991 0.0022850772 -0.002741378
0.0021748643 9.6552554e-05 -0.003644516
0.0024345496 9.6552554e-05 -0.0029349076
0.0017204151 0.0017701302 -0.0013866707
-0.0024345496 -0.00067586789 -0.0017737299
-3.2460663e-05 -0.00099770981 -0.00016098336
0.0023696283 -0.00061149953 -0.0030639272
-0.00074659521 0.00016092093 -0.00016098336
0.00029214594 -3.2184187e-05 -0.0047411839
-0.0013958084 0.00061149953 -0.00035451294
0.0004219886 -0.0031218659 -0.00067706226
-0.0011361231 -0.0031218659 -0.00061255239
-0.00094135915 0.00041839443 -0.004676674
-0.0010062805 0.0029931292 -0.0015156905
-0.0021748643 -0.0018344986 -0.0035800061
0.0018502576 -0.00074023625 -0.0040960852
-0.0011361231 0.00028965768 -0.004676674
3.2460663e-05 -9.6552554e-05 -0.00016098336
-0.00087643787 -0.0002252893 -0.004676674
0.00035706727 -0.00041839443 -0.00016098336
0.00029214594 9.6552554e-05 -0.00016098336
0.0017853364 -0.00028965768 -0.0041605951
-0.00048690991 -0.0031218659 -0.0034509865
-0.0010712019 0.0029931292 0.0014517632
-0.00035706727 -0.00054713117 -0.004676674
-0.0014607297 -0.00048276279 -0.0043541244
-9.7381984e-05 -0.0020919722 -0.0047411839
-0.0010712019 0.0026712874 -0.0017737299
-3.2460663e-05 -0.0011908149 -0.00016098336
0.0017204151 0.0016413934 -0.0039670654
0.002304707 -0.00035402604 -0.0032574569
-0.0010712019 0.0015126567 -0.0043541244
-0.00087643787 0.0029931292 0.0027419606
-0.0024345496 -0.0028000241 -0.0028058877
-0.0001623033 0.0029931292 -0.0022898088
0.0022397856 -0.0028643925 -0.0025478483
0.00022722462 -0.0031218659 -0.0020317694
0.0019801003 -0.0029287608 -0.0017737299
0.0020450216 -0.0019632352 -0.0037090259
0.0012659658 -0.00074023625 -0.00029000308
0.002304707 -0.0022850772 -0.0031284371
0.0017853364 0.0017701302 -0.003644516
-0.0015905724 0.00041839443 -0.00067706226
-3.2460663e-05 0.0017701302 -0.00080608198
0.0015256511 -0.00099770981 -0.00061255239
-0.0021748643 0.00048276279 -0.0014511807
-0.0012010444 0.0028000241 0.001129214
-0.001915179 0.0016413934 -0.0020962793
0.0019801003 0.0011908149 -0.0039670654
3.2460663e-05 0.00074023625 -0.00016098336
-0.0019801003 0.0016413934 -0.0021607892
0.0012659658 0.00138392 -0.00035451294
0.0015256511 -0.00093334139 -0.0043541244
0.0024345496 -0.0017701302 -0.0021607892
-0.00048690991 -0.0031218659 -0.0040315753
0.00068167388 0.0018344986 -0.0032574569
0.0022397856 -0.00054713117 -0.0034509865
0.0016554937 -0.0028643925 -0.0040960852
-0.0024345496 -0.00054713117 -0.0031284371
-0.00074659521 0.0028643925 -0.00087059184
-0.0001623033 -0.0031218659 -0.0017737299
-0.00074659521 0.0027356558 -0.0018382398
0.0004219886 0.0022850772 -0.002741378
-0.00068167388 0.0012551832 -0.00016098336
3.2460663e-05 0.00061149953 -0.0047411839
0.00081151654 -0.0027356558 -0.00029000308
0.0021748643 -0.0028643925 -0.0033219666
0.0022397856 -0.00067586789 -0.0034509865
-0.00068167388 0.00028965768 -0.00016098336
-0.00048690991 0.002606919 -0.0017092201
-0.0021748643 -0.00067586789 -0.0035800061
3.2460663e-05 0.00041839443 -0.00016098336
0.0024345496 -0.0012551832 -0.0020317694
0.0001623033 -0.0031218659 -0.0032574569
9.7381984e-05 0.0002252893 -0.00016098336
-0.00068167388 0.00074023625 -0.0047411839
-0.00048690991 -0.0015126567 -0.00016098336
-0.0021748643 -0.001577025 -0.0013221609
-0.0015256511 0.0026712874 -0.0021607892
-0.0023696283 -0.0027356558 -0.0019672597
0.00055183121 0.0028000241 -0.0016447102
0.0024345496 -0.00016092093 -0.0029994175
0.002304707 -0.00041839443 -0.0033864765
0.002304707 -0.001577025 -0.003192947
0.0014607297 0.0018344986 -0.0015156905
0.002109943 -0.0028000241 -0.0033864765
-0.00087643787 9.6552554e-05 -0.00029000308
-0.0010712019 0.0014482883 -0.004676674
-0.0021748643 0.0016413934 -0.0018382398
0.002304707 -0.00099770981 -0.0033219666
-0.0001623033 -0.0031218659 -0.0026123582
-9.7381984e-05 -0.0031218659 -0.0010641215
0.00094135915 0.0029931292 -0.0022252991
-0.0011361231 0.0017701302 -0.0019027496
-0.0001623033 -0.0031218659 -0.0038380455
0.0012659658 0.00041839443 -0.00041902281
-3.2460663e-05 0.0018344986 -0.0020317694
0.00081151654 0.0019632352 -0.0021607892
-0.002109943 -0.00041839443 -0.0037090259
0.0013308871 0.00093334139 -0.00041902281
-0.0024345496 -0.0025425507 -0.0022252991
-0.0021748643 0.0011264465 -0.0013221609
-0.0015256511 -0.0025425507 -0.00067706226
-0.0012659658 0.00048276279 -0.00029000308
-0.0011361231 0.002606919 -0.0026123582
-0.00048690991 -0.0031218659 -0.001257651
-0.00055183121 0.0017701302 -0.0013866707
0.00087643787 0.0028000241 -0.0011286313
0.002304707 0.00138392 -0.0031284371
-0.00087643787 0.001898867 -0.0022252991
0.0019801003 0.00054713117 -0.0010641215
-0.00048690991 0.0028000241 -0.0024833386
0.0020450216 -0.0029287608 -0.0021607892
-9.7381984e-05 0.0031218659 -0.0020317694
0.0012659658 -0.0023494456 -0.0044831443
0.00074659521 0.0028643925 -0.00016098336
-0.0023696283 0.0012551832 -0.0018382398
-0.0018502576 3.2184187e-05 -0.00080608198
-0.0018502576 0.001577025 -0.0039670654
-0.0014607297 0.0015126567 -0.0042896145
0.0013958084 -0.0029287608 -0.0040315753
0.002304707 -0.00035402604 -0.0017737299
0.00068167388 0.0029931292 -0.0024188287
-0.0010062805 0.0017057619 -0.0042896145
-0.0012010444 0.0028643925 0.0014517632
-0.00022722462 0.00074023625 -0.00016098336
0.00074659521 0.00016092093 -0.004676674
-0.0017204151 0.0017057619 -0.003192947
0.0016554937 -0.0015126567 -0.00074157212
-0.00022722462 -0.0012551832 -0.00016098336
0.002304707 -0.00074023625 -0.0018382398
0.001915179 -0.0023494456 -0.0039025554
-0.0010712019 -0.0023494456 -0.0044831443
-0.0012010444 0.0029287608 -0.0020962793
0.00068167388 0.0018344986 -0.0017737299
0.0019801003 0.00099770981 -0.0010641215
0.00029214594 0.0017057619 -0.00035451294
0.0017204151 -0.00028965768 -0.00074157212
-9.7381984e-05 -0.0031218659 -0.0024188287
0.0012659658 0.0027356558 -0.0024188287
-0.0024345496 0.0010620782 -0.0031284371
-0.0010712019 -0.0031218659 -0.0039670654
0.0010062805 0.00093334139 -0.0046121641
-0.0012659658 -0.0031218659 -0.0040960852
0.0016554937 -0.0028643925 -0.0035800061
0.00081151654 0.0028000241 -0.00029000308
-0.0018502576 -0.0031218659 -0.0026768681
-0.00029214594 0.0031218659 -0.0014511807
9.7381984e-05 0.0018344986 -0.0015156905
-0.0021748643 9.6552554e-05 -0.0014511807
-9.7381984e-05 0.0012551832 -0.004676674
0.0016554937 -0.0027356558 -0.00074157212
0.002304707 -0.0020276038 -0.0032574569
0.0011361231 0.0029287608 0.0022903916
0.0024345496 0.00016092093 -0.0020962793
-0.00094135915 -0.00016092093 -0.00029000308
-0.0010062805 0.0026712874 -0.0015802004
-0.00061675254 -0.0002252893 -0.004676674
0.0012659658 0.0017701302 -0.0037735358
0.0013308871 -0.0011908149 -0.0044831443
-0.0020450216 0.0020919722 -0.0023543187
0.0024345496 -0.00086897303 -0.0028058877
0.0021748643 -0.0026712874 -0.0035154964
0.002304707 -0.002606919 -0.0033864765
0.0017853364 0.0013195516 -0.0040960852
0.002304707 -0.00041839443 -0.0017092201
3.2460663e-05 0.0027356558 -0.0011286313
0.0013958084 0.0018344986 -0.0016447102
0.0021748643 -0.0012551832 -0.0035800061
-0.00061675254 -0.0031218659 -0.0011286313
-0.00087643787 0.0029931292 0.00054862513
-0.0024345496 -0.0028643925 -0.0026123582
0.0010062805 0.0028000241 -0.0013866707
-0.00081151654 0.0028643925 0.00035509554
-0.0024345496 -0.0020276038 -0.0025478483
-0.0013308871 0.0017701302 -0.0015156905
0.00087643787 -0.0030574976 -0.0040315753
-0.0015905724 0.001577025 -0.0011931412
-0.00068167388 0.0016413934 -0.0004835327
-0.0018502576 -0.0020919722 -0.0040315753
0.0014607297 0.0018344986 -0.0029994175
-0.0019801003 -0.0031218659 -0.0016447102
0.00087643787 0.0018344986 -0.0017737299
-0.00035706727 0.0017057619 -0.00061255239
0.00081151654 0.0028000241 0.001064704
-9.7381984e-05 0.0018344986 -0.0039670654
0.00068167388 -0.0031218659 -0.0015802004
0.00022722462 9.6552554e-05 -0.00016098336
-0.00029214594 3.2184187e-05 -0.004676674
-0.00055183121 -0.0031218659 -0.0033864765
-0.002304707 -0.0018344986 -0.0033864765
0.0010712019 0.0029287608 -0.0022252991
0.0015256511 0.0015126567 -0.00061255239
-0.0015905724 0.0019632352 -0.002741378
-0.0017853364 0.00080460461 -0.0040960852
-0.0022397856 -0.0031218659 -0.0024833386
-0.00048690991 0.00080460461 -0.00016098336
0.0011361231 0.00041839443 -0.0045476542
0.00074659521 0.0031218659 -0.0019672597
-0.00087643787 0.0028000241 -0.00016098336
-0.002304707 -0.0012551832 -0.0033864765
-0.002304707 0.001577025 -0.0017092201
0.00029214594 -0.0031218659 -0.0041605951
-0.00094135915 0.00061149953 -0.00016098336
0.00055183121 0.0014482883 -0.00016098336
0.0019801003 -9.6552554e-05 -0.0039670654
0.0011361231 -0.0020919722 -0.00029000308
-0.0004219886 0.0018344986 -0.0019027496
-0.0012659658 -0.0031218659 -0.00061255239
0.0024345496 0.00099770981 -0.0022252991
0.0014607297 0.0018344986 -0.0033864765
0.0010062805 -0.0018344986 -0.004676674
-0.0021748643 0.0016413934 -0.0017737299
-0.0019801003 0.00048276279 -0.0039670654
-0.0013958084 0.0016413934 -0.0040960852
-0.002304707 3.2184187e-05 -0.0016447102
0.0015256511 -0.00016092093 -0.0043541244
-0.00035706727 0.0017057619 -0.0043541244
-0.0004219886 9.6552554e-05 -0.00016098336
-0.00087643787 0.0016413934 -0.0043541244
-0.00074659521 0.0018344986 -0.0032574569
-9.7381984e-05 9.6552554e-05 -0.00016098336
0.0018502576 -0.0029931292 -0.0015156905
-0.002304707 -3.2184187e-05 -0.0034509865
0.00068167388 -0.0014482883 -0.00029000308
-0.00087643787 0.0030574976 -0.0019027496
-0.00055183121 0.0020919722 -0.002741378
-0.00035706727 0.0031218659 -0.0014511807
-0.00074659521 0.0029931292 -0.00029000308
-0.0015905724 0.0017057619 -0.0033864765
-0.0020450216 -0.0031218659 -0.0020317694
-0.00094135915 0.0027356558 -0.00087059184
-0.00029214594 -0.0011908149 -0.00016098336
-0.00087643787 3.2184187e-05 -0.004676674
-0.002304707 0.00035402604 -0.0016447102
0.0017204151 0.0002252893 -0.004225105
-0.0019801003 -0.0016413934 -0.0039670654
-0.00087643787 0.0027356558 -0.0014511807
-9.7381984e-05 -0.0031218659 -0.0026123582
0.002304707 -0.0011264465 -0.0016447102
0.00048690991 0.0022207089 -0.0022252991
0.002304707 -0.0020919722 -0.0017737299
-0.0004219886 0.0031218659 -0.0019672597
-0.002304707 0.0017057619 -0.0022252991
-0.0018502576 0.0016413934 -0.0019027496
-0.00087643787 0.0018344986 -0.0032574569
0.0011361231 0.00080460461 -0.0045476542
-0.00068167388 0.00080460461 -0.00016098336
-0.00061675254 -0.0020276038 -0.0047411839
0.0011361231 0.0029287608 -0.00054804253
-0.00035706727 -0.0031218659 -0.0043541244
-0.00087643787 0.0030574976 0.0021613718
-0.0010062805 0.0025425507 -0.0026123582
0.0024345496 -0.00054713117 -0.0023543187
-0.0010062805 0.0018344986 -0.0015156905
-0.0024345496 -0.002413814 -0.0023543187
3.2460663e-05 3.2184187e-05 -0.004676674
-0.0024345496 0.00054713117 -0.0031284371
-0.00061675254 -0.0017057619 -0.004676674
0.00081151654 -0.0017057619 -0.00029000308
-0.00081151654 0.0020919722 -0.002741378
-0.00055183121 -0.0031218659 -0.00067706226
-0.0014607297 -0.00093334139 -0.0043541244
0.00061675254 -0.0027356558 -0.0047411839
-0.0010712019 -0.0031218659 -0.0017092201
-0.0011361231 0.002606919 -0.0020962793
-0.0024345496 -0.00138392 -0.0021607892
-0.00087643787 -0.00093334139 -0.004676674
-0.0021748643 -0.00093334139 -0.0013221609
-0.0015256511 -0.00086897303 -0.0004835327
-0.0016554937 0.0014482883 -0.00080608198
0.0019801003 -0.0029287608 -0.0028058877
-0.0012659658 -0.00138392 -0.0044831443
-0.0001623033 -0.0031218659 -0.0042896145
0.0013958084 -0.0019632352 -0.00054804253
-0.0017204151 0.00041839443 -0.0041605951
-0.0017853364 0.0018344986 -0.0022252991
-9.7381984e-05 0.0011264465 -0.0047411839
-0.0010712019 -0.0031218659 -0.0044186343
0.0024345496 -0.0025425507 -0.0020317694
-0.0016554937 0.001577025 -0.0013221609
