# .PCD v0.7 - Point Cloud Data file format
VERSION 0.7
FIELDS x y z
SIZE 4 4 4
TYPE F F F
COUNT 1 1 1
WIDTH 1183
HEIGHT 1
VIEWPOINT 0 0 0 1 0 0 0
POINTS 1183
DATA ascii
0.0023858587 -0.013019335 -0.0020115778
-0.0031493336 -0.00085528474 -0.0023970839
-0.0029584649 0.015110031 -0.0020115778
-0.0020041214 0.0038962972 -0.0043246141
-0.00047717176 0.0052267401 -0.0043246141
0.0012406466 -0.016630538 -0.0045173671
0.0016223839 -0.0012354113 -0.0022043309
0.0031493336 0.0027559176 -0.0023970839
0.0029584649 -0.019291423 -0.003939108
0.0031493336 0.0042764237 -0.0035536019
-0.0031493336 -0.0050366768 -0.0025898369
0.0016223839 0.0012354113 -0.0012405659
-0.0031493336 -0.0065571833 -0.004131861
0.0027675962 -0.0050366768 -0.004131861
0.00066804048 0.0035161707 -0.0043246141
-0.0012406466 -0.0075074998 -0.0022043309
0.00028630305 -0.014539841 -0.0043246141
0.0025767274 -0.014539841 -0.004131861
0.0010497778 0.013399461 -0.00046955395
-0.00066804048 0.017960981 -0.0022043309
0.0029584649 0.014729904 -0.0022043309
-0.0025767274 0.0029459808 -0.0022043309
0.0029584649 -0.017390789 -0.0025898369
0.0010497778 0.0090280054 -0.0043246141
-0.00085890916 -0.018341107 -0.0043246141
0.0023858587 -0.0016155379 -0.0012405659
-0.0021949902 -0.0048466139 -0.004131861
0.00066804048 -0.0076975627 -0.0043246141
9.5434349e-05 -0.014159715 -0.0022043309
-0.0021949902 0.0046565505 -0.0022043309
-0.0023858587 0.017960981 -0.0023970839
-0.00066804048 -0.0056068669 -0.0043246141
0.0027675962 -0.015300094 -0.004131861
-0.0027675962 -0.0095981956 -0.0022043309
0.00028630305 0.017010665 -0.0022043309
0.0031493336 0.007127373 -0.003939108
-0.00085890916 0.014729904 -0.0014333189
0.00047717176 0.0099783223 -0.00066230696
0.00047717176 0.0029459808 -0.0045173671
0.0012406466 0.019101359 -0.00066230696
0.00028630305 -0.0019956646 -0.0020115778
-0.0029584649 0.017960981 -0.003939108
-0.0010497778 0.0065571833 -0.0043246141
0.00085890916 -0.008837943 -0.0022043309
-0.0025767274 -0.019861612 -0.0045173671
0.00047717176 0.013209398 -0.0022043309
0.0021949902 -0.0069373096 -0.004131861
-0.00066804048 -0.019291423 -0.0043246141
-0.00028630305 0.020431804 -0.0023970839
-0.00066804048 0.0078876261 -0.0043246141
-0.0029584649 0.0023757911 -0.0022043309
0.00066804048 0.0016155379 -0.0022043309
-0.00085890916 0.0029459808 -0.0043246141
-0.0010497778 0.018151043 -0.0045173671
0.0014315153 -0.0035161707 -0.0022043309
-9.5434349e-05 -0.0018056012 -0.0043246141
0.00047717176 0.017010665 -0.0022043309
0.0021949902 -0.0168206 -0.0022043309
0.00028630305 0.015110031 -0.0014333189
-0.00085890916 -0.00636712 -0.0022043309
-0.00028630305 0.010358449 -0.0012405659
0.0025767274 0.0073174364 -0.004131861
-0.0021949902 -0.0040863603 -0.0022043309
0.0018132527 -0.0040863603 -0.004131861
-0.0020041214 0.015110031 -0.0043246141
0.00028630305 0.014919967 -0.00046955395
-0.0020041214 -0.020621866 -0.003746355
0.0025767274 0.017390789 -0.0022043309
-0.0031493336 -0.0054168035 -0.0033608489
0.0016223839 -0.0018056012 -0.0022043309
0.0029584649 -0.014919967 -0.00278259
-0.0031493336 -0.0095981956 -0.0031680958
0.0016223839 -0.014349778 -0.0045173671
0.0010497778 -9.5031639e-05 -0.0022043309
0.00085890916 0.0029459808 -0.0043246141
0.00028630305 -0.019291423 -0.0023970839
0.0018132527 0.0059869932 -0.0012405659
-0.0012406466 0.020241739 -0.00046955395
0.0025767274 -0.018911297 -0.0045173671
0.0012406466 -0.011308765 -0.0045173671
0.0010497778 0.0040863603 -0.0022043309
0.0016223839 0.00047515822 -0.0012405659
0.00066804048 0.0076975627 -0.0012405659
-0.0023858587 -0.0044664871 -0.0022043309
0.0023858587 -0.015870284 -0.0043246141
9.5434349e-05 -0.019291423 -0.0023970839
-0.0016223839 0.013209398 -0.0043246141
-0.0027675962 0.019101359 -0.004131861
-0.00066804048 -0.013589525 -0.0022043309
0.0016223839 -0.0076975627 -0.0022043309
0.0029584649 0.013399461 -0.004131861
0.0016223839 -0.011498828 -0.0022043309
-0.0018132527 -0.0012354113 -0.004131861
0.0025767274 0.018721234 -0.0045173671
-9.5434349e-05 0.016440473 -0.0022043309
-0.00047717176 -0.0090280054 -0.0022043309
0.0012406466 0.016060347 -0.0022043309
0.0020041214 -0.020431804 -0.0023970839
0.0029584649 0.013779588 -0.0035536019
-0.0018132527 0.020051677 -0.002975343
0.00028630305 0.012829271 -0.0022043309
-0.0031493336 0.0031360441 -0.0023970839
-0.0029584649 -0.010738576 -0.003939108
-0.0027675962 -0.0094081322 -0.0022043309
0.0031493336 -0.0065571833 -0.0035536019
0.0031493336 -0.0084578162 -0.00278259
0.0023858587 -0.00028509492 -0.0014333189
0.0010497778 0.019101359 -0.0023970839
-0.00085890916 0.013969651 -0.0012405659
-0.0029584649 -0.017390789 -0.00278259
-0.00028630305 0.0099783223 -0.0022043309
0.00066804048 0.001045348 -0.0043246141
0.0031493336 0.0040863603 -0.0022043309
0.0031493336 -0.0076975627 -0.0023970839
0.0016223839 0.0099783223 -0.0043246141
0.0029584649 0.012449145 -0.004131861
-0.00047717176 0.014349778 -0.0014333189
-0.0025767274 -0.0076975627 -0.004131861
0.00066804048 0.0092180688 -0.001047813
-0.0021949902 0.017010665 -0.0022043309
-0.00028630305 -0.0038962972 -0.0043246141
-0.00085890916 -0.013399461 -0.0043246141
-0.0029584649 0.017960981 -0.0022043309
0.0023858587 0.018721234 -0.0045173671
-0.0025767274 0.019101359 -0.0033608489
0.0014315153 -0.0075074998 -0.004131861
-0.0018132527 0.018721234 -0.00066230696
-0.0031493336 -0.011498828 -0.0035536019
-0.0020041214 -0.017960981 -0.0022043309
-0.0031493336 -0.0029459808 -0.0025898369
0.0016223839 0.00636712 -0.0022043309
0.0031493336 0.016250411 -0.002975343
-9.5434349e-05 0.017960981 -0.0043246141
-0.00028630305 0.013209398 -0.0014333189
0.0029584649 -0.008837943 -0.004131861
-0.00028630305 0.0095981956 -0.00066230696
9.5434349e-05 0.01853117 -0.00046955395
0.0029584649 -0.015870284 -0.00278259
0.0031493336 0.00085528474 -0.0035536019
0.00047717176 -0.0021857277 -0.0043246141
-0.0012406466 0.020431804 0.0014579761
0.0014315153 -0.012449145 -0.0045173671
0.00085890916 0.020621866 -0.0025898369
0.0016223839 0.017960981 -0.0022043309
-0.0018132527 0.007127373 -0.0022043309
-0.0014315153 -0.012259082 -0.0022043309
0.0012406466 -0.0095981956 -0.0022043309
-0.00066804048 0.019291423 -0.0014333189
-0.0029584649 0.018721234 -0.003746355
-0.00047717176 0.0168206 -0.0014333189
-0.00085890916 0.0016155379 -0.0022043309
-0.0029584649 0.015110031 -0.0022043309
0.0029584649 0.0082677528 -0.004131861
0.00028630305 0.0075074998 -0.0022043309
-0.00028630305 -0.0067472463 -0.0043246141
0.0031493336 0.013399461 -0.0031680958
0.0029584649 0.013589525 -0.0020115778
0.0020041214 -0.013209398 -0.004131861
-0.0010497778 0.0019956646 -0.0022043309
-0.0025767274 0.0069373096 -0.0022043309
-0.0014315153 -0.010548512 -0.0043246141
0.0029584649 0.0012354113 -0.0022043309
-0.00028630305 0.010548512 -0.0012405659
0.0018132527 -0.013209398 -0.0022043309
-0.00047717176 0.015300094 -0.0014333189
-0.0031493336 0.0025658542 -0.0023970839
0.0021949902 -0.017580854 -0.0045173671
-0.00066804048 0.0027559176 -0.0022043309
0.0020041214 -0.020621866 -0.0031680958
-0.00066804048 0.020241739 -0.00278259
-0.0016223839 -0.00047515822 -0.004131861
0.0031493336 0.0021857277 -0.0033608489
0.0014315153 -0.0040863603 -0.004131861
-0.00066804048 -0.0076975627 -0.0022043309
-0.00085890916 0.017390789 -0.00027680097
-0.0016223839 -0.011118702 -0.0022043309
0.0031493336 0.013399461 -0.00278259
0.00028630305 0.012829271 -0.0014333189
0.0012406466 -0.011498828 -0.0022043309
-0.00028630305 0.010928638 -0.0014333189
-0.0023858587 -0.0097882589 -0.0020115778
-0.0016223839 0.011498828 -0.0022043309
0.0010497778 0.017010665 -0.00066230696
0.0023858587 0.0023757911 -0.004131861
0.0031493336 -0.0052267401 -0.0033608489
-0.00047717176 0.0054168035 -0.0043246141
9.5434349e-05 0.015490158 -0.0014333189
-0.0018132527 -0.011498828 -0.0022043309
-0.0012406466 -0.0095981956 -0.0022043309
-0.0018132527 -0.013779588 -0.0045173671
-0.0031493336 0.0065571833 -0.0022043309
0.00066804048 -0.0038962972 -0.0020115778
-0.00085890916 0.019291423 -0.00278259
-9.5434349e-05 -0.01967155 -0.0023970839
0.00047717176 0.0092180688 -0.0022043309
-0.0018132527 -0.019101359 -0.0023970839
-0.0023858587 0.018721234 -0.0023970839
0.0010497778 -0.010358449 -0.0045173671
0.0029584649 -0.016060347 -0.0035536019
0.0021949902 0.0067472463 -0.0022043309
-0.00028630305 0.017390789 -0.00027680097
0.0018132527 -0.008837943 -0.0022043309
0.00085890916 -0.0048466139 -0.0043246141
0.0014315153 -0.0021857277 -0.0022043309
-0.0027675962 0.016060347 -0.0022043309
-0.0016223839 0.010548512 -0.0022043309
-0.0020041214 0.0046565505 -0.0022043309
-0.0014315153 -0.012069019 -0.0045173671
0.0027675962 -0.0014254746 -0.004131861
0.00066804048 0.0040863603 -0.0022043309
-0.0031493336 0.0082677528 -0.0035536019
-0.00047717176 -0.010738576 -0.0022043309
9.5434349e-05 -0.00066522148 -0.0020115778
-9.5434349e-05 0.016440473 -0.0014333189
-0.00085890916 0.012069019 -0.00066230696
0.00066804048 0.0080776894 -0.001047813
0.0031493336 -0.0035161707 -0.00278259
-9.5434349e-05 -0.0094081322 -0.0043246141
-0.0025767274 -0.0168206 -0.004131861
0.0010497778 0.0076975627 -0.0043246141
0.0014315153 0.014539841 -0.0043246141
-0.0014315153 -0.0021857277 -0.0022043309
-9.5434349e-05 0.0094081322 -0.0043246141
0.0018132527 0.0035161707 -0.0012405659
-0.0014315153 0.016250411 -0.00085505995
0.0014315153 -0.017390789 -0.0022043309
-9.5434349e-05 -0.020431804 -0.004131861
-0.0010497778 0.0038962972 -0.0022043309
0.0018132527 0.0061770566 -0.0012405659
0.0010497778 0.0038962972 -0.0022043309
0.00085890916 -0.020621866 -0.0031680958
0.0021949902 0.0014254746 -0.0022043309
-0.0020041214 0.0084578162 -0.004131861
0.0027675962 -0.020241739 -0.0045173671
-0.0010497778 0.0076975627 -0.0045173671
9.5434349e-05 0.011688892 -0.00046955395
0.0021949902 0.0052267401 -0.0022043309
0.00047717176 0.013019335 -0.00046955395
0.0031493336 0.0086478796 -0.0031680958
-0.0025767274 0.0075074998 -0.004131861
-0.0031493336 -0.015490158 -0.002975343
-0.0031493336 0.0094081322 -0.0023970839
-0.0031493336 -0.0090280054 -0.0035536019
-9.5434349e-05 0.011308765 -0.00046955395
9.5434349e-05 -0.00028509492 -0.0020115778
9.5434349e-05 0.015490158 -0.0043246141
0.0027675962 -0.020621866 -0.003746355
0.0029584649 -0.014539841 -0.00278259
-0.0016223839 -0.00028509492 -0.0022043309
0.0020041214 -0.011688892 -0.0020115778
0.00028630305 -0.014159715 -0.0022043309
0.0012406466 -0.01967155 -0.0045173671
-0.0029584649 0.018911297 -0.0031680958
0.0021949902 0.01568022 -0.0022043309
-0.0031493336 0.016630538 -0.00278259
0.0016223839 0.014919967 -0.0043246141
0.00028630305 -0.020621866 -0.0035536019
0.0020041214 0.0031360441 -0.001047813
-0.0010497778 0.0044664871 -0.0022043309
-0.0014315153 0.0042764237 -0.0022043309
0.0020041214 -0.0048466139 -0.004131861
-0.0014315153 -0.0094081322 -0.004131861
0.0031493336 0.017010665 -0.0033608489
-0.0020041214 -0.015300094 -0.0045173671
-0.0031493336 -0.010738576 -0.003746355
0.00066804048 -0.0094081322 -0.0045173671
-0.00028630305 0.020051677 -0.00278259
0.0031493336 -0.0097882589 -0.0022043309
-0.0018132527 0.0069373096 -0.004131861
0.0020041214 -0.0057969303 -0.004131861
0.00066804048 -0.0057969303 -0.0022043309
-0.00085890916 0.019481486 -0.002975343
-0.00047717176 0.014539841 -0.0014333189
0.0031493336 0.017960981 -0.0035536019
0.0018132527 -0.019291423 -0.0045173671
-0.0018132527 0.0080776894 -0.0022043309
0.0029584649 0.012829271 -0.003746355
-0.0029584649 -0.0090280054 -0.0022043309
0.0031493336 -0.013969651 -0.0031680958
0.00047717176 0.018341107 -0.0043246141
-0.0031493336 0.011308765 -0.0025898369
0.0018132527 0.00066522148 -0.004131861
-0.00047717176 -0.0046565505 -0.0043246141
-0.0014315153 -0.020621866 -0.003746355
0.00066804048 0.0080776894 -0.0014333189
-0.0027675962 -0.013399461 -0.003939108
-0.00085890916 -0.019291423 -0.0023970839
-0.0031493336 -0.0076975627 -0.0022043309
0.0031493336 -0.00028509492 -0.002975343
0.0021949902 0.0035161707 -0.0022043309
-0.0021949902 0.018911297 -0.0023970839
-0.0031493336 -0.013209398 -0.002975343
-0.0014315153 0.0099783223 -0.0022043309
-0.0031493336 0.003706234 -0.0035536019
-0.0031493336 0.0078876261 -0.0035536019
0.0018132527 0.020051677 -0.00278259
0.0012406466 -0.020051677 -0.0022043309
-0.0025767274 -0.003706234 -0.0022043309
0.0029584649 0.0056068669 -0.004131861
0.0031493336 0.0050366768 -0.0035536019
-0.00047717176 0.017580854 -0.0022043309
-0.0021949902 0.0076975627 -0.004131861
-0.00066804048 -0.0073174364 -0.0022043309
-0.0014315153 0.019101359 -0.00066230696
0.00028630305 0.0082677528 -0.00085505995
0.0021949902 -0.0073174364 -0.0022043309
0.00066804048 -0.020241739 -0.0043246141
-9.5434349e-05 -0.0056068669 -0.0022043309
-0.00085890916 0.018341107 -0.0014333189
-0.0010497778 0.014539841 -0.0022043309
-0.00066804048 -0.010358449 -0.0043246141
9.5434349e-05 0.013779588 -0.0022043309
0.00028630305 0.0059869932 -0.0043246141
-0.0023858587 0.015300094 -0.0045173671
-0.0027675962 -0.0042764237 -0.0022043309
-0.0010497778 -0.0054168035 -0.0043246141
-0.0021949902 0.00085528474 -0.0022043309
-0.0018132527 -0.0095981956 -0.0022043309
0.00085890916 -0.0069373096 -0.0022043309
0.0018132527 0.001045348 -0.0012405659
-0.0031493336 -0.011118702 -0.0031680958
-0.0014315153 -0.017580854 -0.0022043309
-0.0031493336 -0.013589525 -0.002975343
0.0018132527 -0.0052267401 -0.0022043309
0.0031493336 -0.0092180688 -0.00278259
-0.0029584649 -0.019861612 -0.00278259
0.0020041214 0.0065571833 -0.0022043309
-0.0031493336 -0.0095981956 -0.00278259
0.0010497778 0.019291423 -0.004131861
0.0029584649 -0.014349778 -0.0035536019
0.0016223839 0.0046565505 -0.0014333189
-0.0018132527 0.014159715 -0.0022043309
-0.0029584649 0.013209398 -0.0023970839
0.0027675962 0.00066522148 -0.0022043309
0.0029584649 0.014539841 -0.003939108
-0.0029584649 0.013969651 -0.0035536019
0.0012406466 -0.0056068669 -0.0043246141
0.0021949902 0.018911297 -0.001047813
9.5434349e-05 0.0094081322 -0.0043246141
0.0012406466 0.018151043 -0.0022043309
0.0029584649 -0.0168206 -0.00278259
-0.0016223839 -0.012069019 -0.0043246141
0.0027675962 -0.017960981 -0.0023970839
-0.0020041214 0.00028509492 -0.004131861
0.0010497778 0.011878955 -0.0022043309
-0.00047717176 -0.0048466139 -0.0043246141
0.0012406466 -0.0069373096 -0.004131861
-0.0023858587 0.015300094 -0.0022043309
-0.0020041214 -0.0067472463 -0.0022043309
0.0012406466 0.018911297 -0.0045173671
0.0018132527 0.018341107 -0.0045173671
-0.0029584649 0.018911297 -0.004131861
9.5434349e-05 0.01568022 -0.0043246141
-0.00085890916 0.020431804 -0.002975343
-0.0018132527 0.020241739 -0.0025898369
0.0029584649 -0.013589525 -0.0035536019
-0.0021949902 -0.0048466139 -0.0022043309
0.00028630305 -0.01568022 -0.0043246141
-0.00047717176 0.016630538 -0.0043246141
0.0025767274 0.018911297 -0.0045173671
0.0031493336 0.012829271 -0.0031680958
-0.00066804048 -0.015300094 -0.0022043309
0.00085890916 -0.0021857277 -0.0022043309
-0.00047717176 0.011878955 -0.0014333189
0.0031493336 -0.007127373 -0.003939108
0.00066804048 -0.0084578162 -0.0022043309
0.0010497778 0.0078876261 -0.0022043309
0.0014315153 0.01568022 -0.0043246141
-0.00085890916 -0.0035161707 -0.0043246141
0.0018132527 0.0012354113 -0.0014333189
-0.0029584649 -0.017770916 -0.00278259
-0.00028630305 -0.013209398 -0.0043246141
0.00028630305 0.019291423 -0.0035536019
0.0027675962 -0.00066522148 -0.004131861
-0.00028630305 0.011308765 -0.0043246141
0.00028630305 -0.010928638 -0.0045173671
0.0010497778 -0.01568022 -0.0045173671
-0.00028630305 0.018911297 -0.00046955395
0.00085890916 0.01967155 -0.002975343
0.00028630305 0.01568022 -0.0043246141
0.0016223839 0.016440473 -0.0022043309
0.0014315153 -0.0059869932 -0.0022043309
0.0018132527 -0.016250411 -0.0045173671
0.00085890916 0.012259082 -0.0012405659
-0.0014315153 -0.016250411 -0.0043246141
-0.0031493336 -0.0019956646 -0.0035536019
0.0016223839 0.019291423 -0.0033608489
-0.0016223839 -0.012829271 -0.0043246141
-0.0025767274 -0.010738576 -0.0020115778
-0.00047717176 0.011118702 -0.0012405659
-0.00047717176 -0.020621866 -0.0025898369
0.0010497778 -0.013209398 -0.0022043309
-0.0021949902 -0.020621866 -0.0025898369
-0.0016223839 0.0057969303 -0.004131861
0.0031493336 -0.00085528474 -0.00278259
-0.0020041214 0.0094081322 -0.0022043309
-9.5434349e-05 -0.020241739 -0.0023970839
0.0031493336 0.0094081322 -0.003746355
-0.00047717176 0.012639208 -0.0014333189
-0.0014315153 -0.016630538 -0.0022043309
0.0027675962 -0.0073174364 -0.0020115778
0.00028630305 -0.0075074998 -0.0043246141
0.00085890916 0.008837943 -0.001047813
0.0016223839 0.010738576 -0.0043246141
-0.0016223839 -0.014539841 -0.0022043309
0.00066804048 0.011118702 -0.0022043309
-0.0029584649 -0.015300094 -0.0035536019
-0.0010497778 0.0075074998 -0.0022043309
-0.0031493336 0.018151043 -0.002975343
-0.0016223839 0.018911297 -0.0014333189
-0.0023858587 0.0025658542 -0.004131861
-0.0031493336 0.012449145 -0.0033608489
-0.0029584649 -0.017010665 -0.003746355
0.0027675962 0.0033261075 -0.003939108
0.0012406466 -0.019101359 -0.0045173671
-0.00085890916 -0.015300094 -0.0022043309
-0.0031493336 0.007127373 -0.0023970839
-0.0029584649 0.012449145 -0.0035536019
0.0020041214 -0.0025658542 -0.00085505995
-0.00028630305 0.010548512 -0.00046955395
0.0031493336 0.01568022 -0.0033608489
-0.0023858587 -0.0090280054 -0.0022043309
-0.0029584649 -0.0031360441 -0.0022043309
0.0025767274 0.0078876261 -0.0022043309
9.5434349e-05 -0.016630538 -0.0022043309
-0.0018132527 0.00047515822 -0.0022043309
-0.0029584649 -0.017200727 -0.003939108
0.0016223839 0.0059869932 -0.0022043309
-0.0025767274 0.0078876261 -0.0022043309
0.0021949902 0.00066522148 -0.0022043309
0.0018132527 -0.011498828 -0.0043246141
0.0021949902 -0.0082677528 -0.0022043309
-0.0021949902 -0.0084578162 -0.004131861
0.0018132527 -0.010928638 -0.0043246141
-0.0010497778 -0.01568022 -0.0043246141
0.00047717176 0.01853117 -0.00066230696
-0.00047717176 0.014159715 -0.0014333189
0.0012406466 -0.012069019 -0.0022043309
0.00085890916 -0.010548512 -0.0022043309
0.00047717176 0.0076975627 -0.0043246141
-0.00028630305 0.016250411 -0.0022043309
-0.0012406466 -0.0033261075 -0.0022043309
-0.0020041214 -0.003706234 -0.0022043309
-0.0029584649 -0.013589525 -0.003746355
0.0016223839 -0.00047515822 -0.001047813
0.00047717176 0.019291423 -0.0025898369
0.0012406466 -0.010358449 -0.0022043309
0.0023858587 -0.019861612 -0.0045173671
0.0020041214 0.013209398 -0.0022043309
0.0010497778 0.016250411 -0.00066230696
0.0016223839 0.010928638 -0.0043246141
0.00085890916 -0.01568022 -0.0043246141
0.0023858587 0.00047515822 -0.0012405659
-9.5434349e-05 0.003706234 -0.0043246141
0.0010497778 0.019291423 -0.003746355
-0.0023858587 0.0021857277 -0.0022043309
-0.0012406466 -0.0016155379 -0.0043246141
0.0025767274 -0.00636712 -0.004131861
0.0031493336 0.0080776894 -0.0031680958
0.0031493336 -0.011498828 -0.003746355
-0.0020041214 -0.015490158 -0.0022043309
-0.0016223839 -0.01568022 -0.0022043309
-0.0021949902 -0.0090280054 -0.004131861
0.0029584649 -0.0031360441 -0.003939108
0.00047717176 -0.010358449 -0.0022043309
0.00066804048 0.013019335 -0.0014333189
0.0020041214 0.010928638 -0.004131861
-0.00085890916 0.00085528474 -0.0022043309
-0.00066804048 0.0025658542 -0.0043246141
0.0014315153 0.0084578162 -0.0043246141
-0.0010497778 0.017580854 -0.0045173671
0.0029584649 -0.00047515822 -0.0022043309
-0.0023858587 0.012449145 -0.0022043309
-0.00085890916 0.013209398 -0.00085505995
0.0010497778 0.015300094 -0.0022043309
-0.0010497778 0.0057969303 -0.0020115778
0.0016223839 0.003706234 -0.0014333189
0.0031493336 0.0073174364 -0.0025898369
0.0020041214 0.00047515822 -0.0022043309
-0.0014315153 -0.0078876261 -0.0022043309
-0.0025767274 -0.0082677528 -0.004131861
-9.5434349e-05 -0.0048466139 -0.0022043309
0.0031493336 -0.0021857277 -0.0023970839
0.0012406466 0.013209398 -0.0043246141
-0.0020041214 -0.0090280054 -0.004131861
-0.0018132527 -0.013969651 -0.0022043309
-9.5434349e-05 -0.0086478796 -0.0022043309
9.5434349e-05 0.015870284 -0.0014333189
-0.0012406466 0.020241739 0.00010870503
-0.0027675962 -0.020431804 -0.002975343
-0.0031493336 -0.01853117 -0.002975343
-0.0016223839 -0.013399461 -0.0022043309
0.0016223839 0.0035161707 -0.0043246141
0.0012406466 0.012829271 -0.0043246141
-0.0010497778 -0.013209398 -0.0022043309
0.0029584649 -0.0080776894 -0.004131861
0.0014315153 -0.012259082 -0.0022043309
-0.0010497778 0.019861612 -0.0031680958
-0.0021949902 0.0065571833 -0.004131861
0.00066804048 0.017200727 -0.00066230696
-0.0021949902 0.012829271 -0.0022043309
0.0016223839 -0.0086478796 -0.0022043309
0.00028630305 -0.010548512 -0.0045173671
-0.0025767274 -0.018151043 -0.0023970839
-9.5434349e-05 0.0042764237 -0.0043246141
-0.0014315153 -0.019291423 -0.0023970839
0.00028630305 0.001045348 -0.0043246141
0.0031493336 0.0038962972 -0.0023970839
-9.5434349e-05 0.013969651 -0.00046955395
0.0031493336 0.013589525 -0.0023970839
-0.0031493336 0.0029459808 -0.0022043309
0.00085890916 0.016440473 -0.0043246141
0.00028630305 0.011118702 -0.0022043309
-0.0031493336 0.010738576 -0.0033608489
-0.0031493336 0.010548512 -0.0023970839
0.0012406466 0.012639208 -0.0022043309
0.0018132527 0.012639208 -0.0043246141
-0.0021949902 -0.0046565505 -0.0022043309
0.0021949902 -0.017200727 -0.0045173671
0.0021949902 0.0054168035 -0.004131861
-0.0010497778 -0.0014254746 -0.0022043309
-0.00066804048 0.010928638 -0.0043246141
-0.0010497778 0.020431804 -0.0014333189
-0.0021949902 -0.011118702 -0.0020115778
0.0012406466 -0.015490158 -0.0047101201
-0.0010497778 0.017580854 -0.00027680097
-0.0012406466 -0.0048466139 -0.0022043309
-0.0031493336 0.0092180688 -0.002975343
-0.0029584649 -0.015490158 -0.0020115778
0.00047717176 -0.013969651 -0.0043246141
-0.0027675962 -0.0018056012 -0.004131861
0.0027675962 -0.011878955 -0.0020115778
0.0025767274 -0.0056068669 -0.004131861
-0.00066804048 -0.014729904 -0.0022043309
-0.0031493336 0.017580854 -0.0022043309
-0.0029584649 0.010738576 -0.004131861
0.0010497778 -0.020621866 -0.0022043309
9.5434349e-05 -0.0099783223 -0.0022043309
0.0029584649 -0.014729904 -0.003939108
0.0025767274 0.012259082 -0.0020115778
-9.5434349e-05 0.013969651 -0.0014333189
0.0025767274 0.012259082 -0.004131861
-0.0010497778 0.016250411 -0.0014333189
-0.0016223839 0.0082677528 -0.0043246141
-0.0025767274 -0.007127373 -0.004131861
0.0010497778 -0.018151043 -0.0045173671
-0.0016223839 0.01568022 -0.0022043309
-0.0021949902 0.014729904 -0.0022043309
-0.0014315153 -0.014349778 -0.0022043309
-0.0016223839 -0.013019335 -0.0022043309
0.00047717176 -0.007127373 -0.0022043309
-9.5434349e-05 -0.018911297 -0.0043246141
-0.0020041214 0.019291423 -0.004131861
-0.0031493336 -0.00047515822 -0.0033608489
0.0031493336 0.016630538 -0.0023970839
-0.00047717176 0.018721234 -0.00046955395
-0.0018132527 0.0038962972 -0.0043246141
-0.0023858587 -0.017770916 -0.0045173671
-0.0020041214 0.012449145 -0.0045173671
-0.0031493336 0.015870284 -0.0023970839
-0.0012406466 0.017960981 -0.0022043309
0.0020041214 0.014729904 -0.0022043309
-0.0012406466 0.017390789 -0.0022043309
0.0016223839 0.020051677 -0.00278259
-9.5434349e-05 -0.020051677 -0.004131861
-0.0029584649 0.019101359 -0.0023970839
-9.5434349e-05 0.019291423 -0.00278259
0.0031493336 0.0042764237 -0.0022043309
-0.00047717176 0.013969651 -0.0022043309
0.0031493336 -0.014919967 -0.002975343
-0.0012406466 0.0042764237 -0.0022043309
-0.00066804048 -0.0095981956 -0.0045173671
0.00085890916 0.016060347 -0.0022043309
0.0027675962 0.018911297 -0.003939108
0.00085890916 0.0075074998 -0.0022043309
0.00047717176 0.0042764237 -0.0022043309
-0.00085890916 0.0016155379 -0.004131861
-0.0014315153 0.019291423 -0.0035536019
-0.0031493336 -0.0097882589 -0.002975343
-0.0012406466 -9.5031639e-05 -0.0043246141
-0.00085890916 0.0018056012 -0.004131861
-0.0010497778 0.0035161707 -0.0022043309
0.0031493336 -0.010548512 -0.0035536019
-0.00085890916 0.0018056012 -0.0022043309
0.0012406466 0.017010665 -0.0022043309
0.0021949902 -0.0052267401 -0.0022043309
-0.0021949902 -0.0095981956 -0.004131861
0.00085890916 -0.013969651 -0.0045173671
-0.0031493336 -0.016250411 -0.00278259
0.0020041214 -0.00066522148 -0.0012405659
-0.0020041214 0.0040863603 -0.0043246141
-0.0029584649 0.00028509492 -0.004131861
-0.0014315153 0.0021857277 -0.0043246141
0.00028630305 0.019101359 -0.00046955395
0.0027675962 -0.0097882589 -0.004131861
-9.5434349e-05 -0.0086478796 -0.0043246141
0.0031493336 -0.0082677528 -0.00278259
0.0031493336 -0.0027559176 -0.0033608489
0.0012406466 0.0038962972 -0.0043246141
0.00066804048 0.012829271 -0.0022043309
-0.0018132527 0.0023757911 -0.0022043309
0.0029584649 -0.01568022 -0.0025898369
0.0016223839 -0.0168206 -0.0045173671
0.0010497778 -0.0018056012 -0.0022043309
0.0020041214 0.008837943 -0.0022043309
-0.0018132527 0.018721234 -0.0045173671
0.0031493336 -0.015490158 -0.0033608489
9.5434349e-05 -0.007127373 -0.0022043309
-0.00028630305 0.012259082 -0.0043246141
0.0010497778 0.019291423 -0.00278259
-0.0018132527 0.017770916 -0.00066230696
-0.00028630305 0.0061770566 -0.0043246141
0.00028630305 -0.015110031 -0.0043246141
0.0020041214 0.014349778 -0.0043246141
0.0029584649 -0.013209398 -0.0035536019
-0.0027675962 -0.015110031 -0.0020115778
0.00047717176 0.0099783223 -0.0022043309
0.0031493336 -0.0082677528 -0.003939108
0.0018132527 -0.019861612 -0.0045173671
-0.00066804048 0.017770916 -0.0022043309
-0.0031493336 -0.01853117 -0.0033608489
0.0021949902 0.015870284 -0.0043246141
-0.00085890916 0.014919967 -0.0014333189
0.00047717176 -0.0090280054 -0.0022043309
-9.5434349e-05 0.0090280054 -0.0022043309
0.0029584649 -0.019861612 -0.003939108
-0.0023858587 -0.015490158 -0.0022043309
-0.0014315153 0.0054168035 -0.0043246141
-0.0016223839 9.5031639e-05 -0.0022043309
0.00066804048 -0.0097882589 -0.0022043309
0.0029584649 -0.0056068669 -0.004131861
9.5434349e-05 -0.018341107 -0.0023970839
0.0021949902 -0.0097882589 -0.004131861
-0.0012406466 0.014539841 -0.0043246141
0.0021949902 -0.0018056012 -0.0012405659
-0.0018132527 -0.020621866 -0.0031680958
0.0025767274 -0.0052267401 -0.004131861
0.0012406466 0.014919967 -0.0022043309
0.0029584649 0.013589525 -0.003746355
-0.0027675962 0.00636712 -0.0022043309
-0.0014315153 0.0078876261 -0.0043246141
0.0016223839 0.0044664871 -0.0022043309
-0.0021949902 -0.0035161707 -0.0022043309
0.0029584649 -0.0099783223 -0.003939108
-0.0014315153 0.013779588 -0.0043246141
0.00085890916 -0.019861612 -0.0022043309
-0.0029584649 0.001045348 -0.004131861
-0.00028630305 0.010738576 -0.0022043309
0.0025767274 -0.010168386 -0.0020115778
0.00085890916 0.0092180688 -0.0014333189
0.0018132527 -0.013969651 -0.0022043309
9.5434349e-05 -0.0073174364 -0.0043246141
-0.0031493336 -0.013589525 -0.00278259
-0.00028630305 0.019101359 -0.0012405659
-0.0020041214 0.0048466139 -0.0022043309
-0.0016223839 0.0019956646 -0.0022043309
-0.0018132527 0.0018056012 -0.0022043309
-0.0031493336 0.0044664871 -0.0022043309
0.0031493336 9.5031639e-05 -0.0035536019
0.0029584649 0.014159715 -0.0035536019
-0.0031493336 -0.0044664871 -0.0022043309
0.00028630305 0.010738576 -0.0043246141
-0.0029584649 0.015490158 -0.002975343
0.0031493336 -0.0099783223 -0.0031680958
0.0021949902 0.00047515822 -0.0022043309
0.0031493336 -0.0086478796 -0.00278259
-0.0031493336 0.0029459808 -0.0035536019
-0.0012406466 -0.010928638 -0.0045173671
-0.0010497778 0.0094081322 -0.0022043309
-0.0029584649 0.010358449 -0.0020115778
0.0014315153 0.00085528474 -0.0012405659
0.00047717176 0.0014254746 -0.0020115778
0.00047717176 -0.0014254746 -0.0022043309
0.0021949902 0.0021857277 -0.0022043309
0.0025767274 -0.0048466139 -0.0022043309
0.00066804048 0.011308765 -0.0014333189
-0.0031493336 0.00047515822 -0.003939108
-0.0031493336 0.0078876261 -0.00278259
0.0031493336 0.015110031 -0.002975343
-0.0012406466 -0.020051677 -0.0023970839
-0.0025767274 0.019101359 -0.0025898369
-0.0023858587 -0.020431804 -0.0045173671
-0.0012406466 0.020241739 -0.0014333189
0.0021949902 0.015300094 -0.0022043309
0.0020041214 -0.012829271 -0.004131861
0.0031493336 -0.012259082 -0.0023970839
-0.0010497778 -0.016060347 -0.0022043309
-0.0031493336 -0.0046565505 -0.004131861
-0.0025767274 0.0042764237 -0.0022043309
-0.0014315153 0.007127373 -0.0022043309
0.0018132527 0.0038962972 -0.004131861
-0.00066804048 -0.010548512 -0.0043246141
-0.0025767274 -0.0075074998 -0.0022043309
0.00028630305 0.0073174364 -0.0012405659
0.0029584649 0.0084578162 -0.0022043309
0.0025767274 -0.011498828 -0.003939108
0.0021949902 0.013399461 -0.0043246141
0.00028630305 0.018341107 -0.00046955395
-0.0018132527 -0.020431804 -0.0035536019
0.0031493336 -0.0042764237 -0.00278259
-0.0020041214 0.01967155 -0.0031680958
0.00066804048 0.0084578162 -0.0022043309
0.00047717176 0.0069373096 -0.0012405659
-0.0016223839 9.5031639e-05 -0.0043246141
0.0023858587 -9.5031639e-05 -0.004131861
0.0021949902 0.012069019 -0.0022043309
0.0021949902 0.0168206 -0.0045173671
0.0029584649 -0.0168206 -0.0025898369
-0.0010497778 0.0086478796 -0.0045173671
-0.0031493336 -0.016440473 -0.0031680958
-0.0025767274 0.0065571833 -0.004131861
0.0023858587 0.00636712 -0.004131861
0.0014315153 0.0035161707 -0.0014333189
-0.0010497778 -0.00085528474 -0.0022043309
-0.00085890916 0.017580854 -0.0022043309
0.0020041214 0.0052267401 -0.0022043309
0.0014315153 0.0050366768 -0.0014333189
-0.0029584649 -0.014349778 -0.0022043309
-0.0021949902 -0.020621866 -0.0023970839
0.00085890916 0.013019335 -0.00066230696
0.00047717176 -0.012449145 -0.0045173671
-0.0016223839 -0.008837943 -0.0022043309
0.0018132527 -0.012639208 -0.0043246141
0.0010497778 0.011308765 -0.0043246141
-0.0029584649 0.01568022 -0.0025898369
-9.5434349e-05 -0.017580854 -0.0043246141
0.0020041214 -0.014349778 -0.0022043309
-0.00028630305 0.0056068669 -0.0043246141
-0.0010497778 0.0073174364 -0.0022043309
-0.0020041214 0.012449145 -0.0043246141
0.0014315153 -0.0012354113 -0.0022043309
0.0021949902 -0.0065571833 -0.0022043309
-0.0014315153 0.0067472463 -0.004131861
-0.0023858587 -0.00636712 -0.0022043309
0.0020041214 -0.0044664871 -0.0022043309
-0.0020041214 0.019481486 -0.0033608489
0.0010497778 0.0097882589 -0.0022043309
-0.0029584649 0.014919967 -0.003939108
-0.0025767274 0.013019335 -0.0020115778
0.0016223839 -9.5031639e-05 -0.0012405659
0.0031493336 -0.0048466139 -0.002975343
0.0018132527 -0.0016155379 -0.001047813
-0.00047717176 -0.010738576 -0.0043246141
-0.0027675962 0.0092180688 -0.004131861
0.0016223839 0.0040863603 -0.0014333189
0.0031493336 0.016250411 -0.0033608489
0.0031493336 0.0099783223 -0.0033608489
-0.0031493336 0.0042764237 -0.0033608489
0.0010497778 0.0076975627 -0.0014333189
-0.0010497778 0.016060347 -0.0022043309
-0.00085890916 -0.017580854 -0.0043246141
-0.0031493336 0.001045348 -0.003939108
-0.00028630305 0.013779588 -0.0022043309
-0.0021949902 -0.014539841 -0.0022043309
0.0029584649 -0.017960981 -0.0023970839
0.0010497778 -0.013589525 -0.0022043309
-0.0014315153 0.018721234 -0.0045173671
-0.0029584649 -0.015110031 -0.0020115778
-0.00066804048 -0.0097882589 -0.0045173671
0.0031493336 0.0054168035 -0.003939108
-0.0012406466 -0.0018056012 -0.0043246141
0.0029584649 0.0092180688 -0.003939108
-0.0031493336 -0.0069373096 -0.004131861
0.0025767274 -0.017580854 -0.0045173671
0.0025767274 -0.011118702 -0.0020115778
0.0031493336 0.0033261075 -0.00278259
-0.0010497778 -0.0033261075 -0.0022043309
-0.0031493336 0.003706234 -0.003939108
0.0031493336 -0.00636712 -0.0025898369
0.0027675962 -0.016060347 -0.004131861
-0.0014315153 0.011308765 -0.0022043309
0.0012406466 0.013209398 -0.0022043309
0.0010497778 0.012829271 -0.001047813
-0.0029584649 0.010738576 -0.0020115778
-0.0031493336 -0.012069019 -0.0023970839
0.0025767274 -0.0046565505 -0.004131861
0.0020041214 -0.0033261075 -0.004131861
0.00066804048 0.018151043 -0.00085505995
0.00028630305 0.017390789 -0.0022043309
-0.0020041214 0.0078876261 -0.0022043309
-0.00085890916 0.015300094 -0.0043246141
-0.0031493336 -0.0042764237 -0.002975343
0.00028630305 0.0168206 -0.0043246141
-0.0031493336 -0.0097882589 -0.003939108
-0.00028630305 0.012639208 -0.00046955395
0.0025767274 0.011878955 -0.004131861
0.0018132527 -0.007127373 -0.0022043309
9.5434349e-05 -0.0023757911 -0.0022043309
0.00047717176 -9.5031639e-05 -0.0022043309
-0.00085890916 0.012639208 -0.0043246141
0.0031493336 -0.0086478796 -0.0035536019
-0.0031493336 0.0014254746 -0.0035536019
-0.0031493336 -0.0092180688 -0.0025898369
0.00047717176 -0.014539841 -0.0043246141
-0.0010497778 0.0082677528 -0.0043246141
-0.0018132527 -0.018721234 -0.0045173671
-0.0016223839 -0.012449145 -0.0043246141
-0.0031493336 0.0035161707 -0.003746355
0.0012406466 -0.012259082 -0.0022043309
-0.0031493336 -0.01853117 -0.0031680958
0.0016223839 0.017390789 -0.00066230696
-0.0031493336 0.017770916 -0.003746355
-0.00028630305 0.012259082 -0.0014333189
0.0029584649 -0.016060347 -0.003939108
0.0021949902 0.019101359 -0.0035536019
0.00066804048 0.019291423 -0.003746355
0.0029584649 -0.013209398 -0.003939108
0.00047717176 -0.0016155379 -0.0043246141
-0.0014315153 -0.01853117 -0.0045173671
0.0031493336 0.0095981956 -0.003746355
-0.00047717176 0.0082677528 -0.0022043309
0.0012406466 -0.0035161707 -0.004131861
0.0031493336 0.016440473 -0.0022043309
0.0029584649 -0.00066522148 -0.0022043309
0.00085890916 -0.017200727 -0.0045173671
0.0029584649 -0.018151043 -0.003746355
0.0023858587 -0.020621866 -0.004131861
-0.0012406466 0.013589525 -0.0022043309
0.0018132527 0.0075074998 -0.0022043309
-0.0031493336 -0.0076975627 -0.0025898369
0.0012406466 0.014919967 -0.0043246141
0.0031493336 0.010358449 -0.003746355
-0.0031493336 -0.0094081322 -0.004131861
-0.00066804048 -0.0046565505 -0.0020115778
-0.0014315153 0.0016155379 -0.0043246141
0.0020041214 -0.0012354113 -0.0012405659
-0.0021949902 0.0086478796 -0.0022043309
-0.0016223839 0.018151043 -0.00046955395
-0.0023858587 0.0069373096 -0.004131861
-9.5434349e-05 0.012449145 -0.0022043309
0.0027675962 -0.0054168035 -0.0022043309
0.0027675962 -0.012259082 -0.0020115778
0.0031493336 -0.014349778 -0.0031680958
-0.0012406466 -0.010738576 -0.0022043309
-0.0029584649 0.016060347 -0.003939108
0.00047717176 -0.017390789 -0.0022043309
0.0021949902 0.0048466139 -0.004131861
-0.0027675962 -0.018151043 -0.004131861
0.0025767274 -0.007127373 -0.0020115778
0.0018132527 -0.0080776894 -0.004131861
-0.0014315153 0.0069373096 -0.0043246141
-0.0027675962 -0.01568022 -0.004131861
-0.0031493336 -0.0082677528 -0.002975343
-0.0029584649 0.0040863603 -0.0022043309
0.0031493336 -9.5031639e-05 -0.0035536019
-0.00028630305 -0.017770916 -0.0043246141
9.5434349e-05 0.019861612 -0.002975343
9.5434349e-05 0.0019956646 -0.0043246141
0.0031493336 -0.012069019 -0.0033608489
0.0025767274 -0.013019335 -0.0020115778
0.0012406466 0.017960981 -0.0022043309
-0.0031493336 0.011118702 -0.003939108
-0.00047717176 -0.0057969303 -0.0022043309
-0.0027675962 -0.00636712 -0.004131861
0.0031493336 -0.010358449 -0.0025898369
0.0020041214 0.01568022 -0.0043246141
0.00085890916 -0.017960981 -0.0043246141
-0.0031493336 0.016440473 -0.004131861
-0.0031493336 0.0033261075 -0.0035536019
0.00085890916 0.014729904 -0.0022043309
-0.0023858587 -0.019481486 -0.0023970839
-0.0020041214 -0.015870284 -0.0045173671
0.00085890916 0.0080776894 -0.0014333189
-0.00028630305 0.013779588 -0.00046955395
-0.0029584649 -0.019291423 -0.0023970839
9.5434349e-05 0.014159715 -0.0022043309
-0.0010497778 -0.017200727 -0.0022043309
0.0018132527 -0.016630538 -0.0045173671
0.0031493336 -0.0033261075 -0.0025898369
-0.0025767274 -0.011688892 -0.003939108
-0.0012406466 0.0078876261 -0.0045173671
-0.0020041214 -0.0027559176 -0.0022043309
-0.0031493336 0.00047515822 -0.0035536019
0.0029584649 -0.020051677 -0.003746355
-0.0014315153 0.0035161707 -0.0022043309
-0.0014315153 0.010928638 -0.0043246141
-0.00066804048 -0.0056068669 -0.0022043309
0.00085890916 -0.010358449 -0.0045173671
-9.5434349e-05 -0.0080776894 -0.0022043309
-0.0012406466 0.019481486 -0.0031680958
-0.0031493336 -0.0012354113 -0.002975343
0.0014315153 0.0086478796 -0.0043246141
-0.0010497778 0.016630538 -0.0022043309
0.0029584649 -0.013779588 -0.0035536019
0.0023858587 -0.0018056012 -0.0012405659
0.0029584649 -0.014539841 -0.003746355
-0.0012406466 -0.018151043 -0.0045173671
0.0014315153 0.0033261075 -0.0043246141
0.00085890916 0.00636712 -0.0022043309
0.0020041214 -0.0059869932 -0.0022043309
-0.0020041214 -0.018151043 -0.0022043309
0.0029584649 -0.014349778 -0.004131861
0.0031493336 0.013399461 -0.0022043309
0.00085890916 0.017390789 -0.00066230696
-0.00047717176 0.016440473 -0.0014333189
0.0018132527 0.0029459808 -0.004131861
-0.00066804048 0.013209398 -0.0014333189
-0.0016223839 0.017390789 -0.0045173671
-0.0029584649 -0.013969651 -0.003939108
-0.0020041214 0.018721234 -0.0023970839
-0.0010497778 0.017960981 -0.0022043309
0.00047717176 0.0046565505 -0.0043246141
-0.0018132527 -0.020431804 -0.0045173671
-0.0018132527 0.010928638 -0.0022043309
-0.00028630305 0.0065571833 -0.0043246141
0.00028630305 0.0016155379 -0.0022043309
-0.0023858587 -0.020051677 -0.0045173671
-0.0010497778 0.0168206 -0.0014333189
-9.5434349e-05 -0.0075074998 -0.0045173671
-0.0010497778 -0.014159715 -0.0043246141
-0.0023858587 -0.018911297 -0.0023970839
0.00047717176 -0.016060347 -0.0043246141
-0.00066804048 0.019861612 -0.0031680958
-0.00047717176 0.012449145 -0.0014333189
-0.0010497778 -0.016060347 -0.0043246141
0.0031493336 -0.0021857277 -0.003746355
-0.0029584649 -0.01853117 -0.003939108
-0.00066804048 -0.00066522148 -0.0022043309
0.0029584649 0.012829271 -0.003939108
-0.0014315153 -0.0061770566 -0.0022043309
0.0010497778 0.017010665 -0.0045173671
0.0020041214 0.013779588 -0.0043246141
-0.0027675962 0.018151043 -0.0018188249
0.0021949902 0.00085528474 -0.00085505995
0.0031493336 0.013209398 -0.0022043309
0.0031493336 -0.0014254746 -0.004131861
0.0021949902 -0.0097882589 -0.0020115778
0.0029584649 -0.013969651 -0.0022043309
-0.0025767274 -0.0073174364 -0.0022043309
0.00028630305 0.012069019 -0.0043246141
-0.0018132527 0.0073174364 -0.0022043309
0.0014315153 0.0097882589 -0.0022043309
0.0016223839 0.0057969303 -0.0022043309
-0.0025767274 9.5031639e-05 -0.0022043309
0.0031493336 0.00636712 -0.00278259
-0.0025767274 -0.017580854 -0.0043246141
-0.0018132527 -0.010358449 -0.0043246141
0.0014315153 -0.0023757911 -0.004131861
0.0012406466 0.001045348 -0.0043246141
0.00047717176 0.013209398 -0.0014333189
-0.0027675962 -0.0086478796 -0.0022043309
0.00085890916 0.0069373096 -0.0014333189
-0.0025767274 0.0086478796 -0.004131861
-0.0025767274 0.014729904 -0.0022043309
0.00085890916 0.018911297 -0.0045173671
-0.0031493336 -0.001045348 -0.0031680958
0.00028630305 -0.007127373 -0.0022043309
-0.0031493336 0.0076975627 -0.0033608489
-0.0010497778 0.015870284 -0.0043246141
0.0029584649 0.017770916 -0.003746355
0.0016223839 0.014729904 -0.0022043309
-0.0029584649 -0.020241739 -0.00278259
-0.0025767274 -0.0078876261 -0.004131861
0.00047717176 0.010358449 -0.0022043309
-0.0029584649 -0.012069019 -0.003746355
-0.0031493336 -0.013969651 -0.0033608489
0.0031493336 -0.00636712 -0.0023970839
0.0023858587 0.017770916 -0.0045173671
0.0031493336 -0.0021857277 -0.0025898369
0.0029584649 0.013209398 -0.0035536019
0.0014315153 0.017010665 -0.00046955395
-0.0023858587 -0.017010665 -0.0022043309
-0.0031493336 -0.00085528474 -0.0031680958
-0.0029584649 -0.020051677 -0.0023970839
0.0031493336 0.011308765 -0.00278259
0.0029584649 -0.017200727 -0.0022043309
0.0025767274 -0.0075074998 -0.0020115778
0.0010497778 -0.012259082 -0.0045173671
-0.0031493336 -0.007127373 -0.004131861
-0.0016223839 -0.0031360441 -0.004131861
-0.0031493336 -0.0018056012 -0.002975343
0.0021949902 -0.0033261075 -0.00085505995
0.0021949902 -0.0027559176 -0.00085505995
-0.0029584649 -0.0099783223 -0.003939108
0.0020041214 -0.017200727 -0.0022043309
0.0014315153 0.015490158 -0.0022043309
-0.0014315153 0.015490158 -0.00066230696
0.0025767274 0.0023757911 -0.0022043309
-0.0031493336 -0.0050366768 -0.003939108
-0.0016223839 -0.019291423 -0.0023970839
-9.5434349e-05 0.019291423 -0.0043246141
-0.00028630305 9.5031639e-05 -0.0022043309
-0.0023858587 0.013019335 -0.004131861
-0.0012406466 0.015870284 -0.001047813
0.00085890916 0.015300094 -0.0043246141
0.0018132527 0.0097882589 -0.004131861
0.0027675962 -0.011118702 -0.003939108
0.0027675962 -0.0038962972 -0.0022043309
-0.0014315153 -0.018721234 -0.0023970839
-0.0021949902 -0.010928638 -0.0020115778
-9.5434349e-05 0.018721234 -0.0043246141
-9.5434349e-05 -0.013399461 -0.0043246141
0.0027675962 -0.020621866 -0.0035536019
0.0018132527 0.010548512 -0.0043246141
0.0018132527 -0.012449145 -0.0022043309
0.0031493336 0.0078876261 -0.0031680958
0.0025767274 -0.020621866 -0.0035536019
0.00085890916 0.011878955 -0.0014333189
0.0031493336 -0.010168386 -0.0023970839
0.0016223839 0.0016155379 -0.004131861
9.5434349e-05 -0.012069019 -0.0022043309
0.0031493336 -0.0069373096 -0.0025898369
-0.0012406466 -0.0012354113 -0.0043246141
0.0014315153 -0.014159715 -0.0045173671
-0.0023858587 -0.020431804 -0.0035536019
-0.00085890916 -0.010358449 -0.0045173671
0.0018132527 0.0033261075 -0.0012405659
9.5434349e-05 -0.010928638 -0.0043246141
0.0020041214 -0.0042764237 -0.0022043309
-0.0029584649 0.018151043 -0.0045173671
-0.00028630305 0.017770916 -0.0043246141
0.00047717176 0.019291423 -0.0035536019
-0.0031493336 -0.011118702 -0.003939108
0.0031493336 0.0038962972 -0.003939108
0.0031493336 -0.019861612 -0.0031680958
-0.0027675962 0.013589525 -0.0020115778
0.0029584649 -0.020241739 -0.0033608489
0.0031493336 0.0065571833 -0.0023970839
0.0020041214 -0.0038962972 -0.00085505995
-0.0012406466 0.019101359 -0.0023970839
0.0023858587 -0.0014254746 -0.004131861
-0.0031493336 -0.0168206 -0.002975343
-0.0031493336 0.0099783223 -0.00278259
-0.00047717176 -0.013019335 -0.0022043309
0.0031493336 0.015110031 -0.0025898369
0.0016223839 0.0023757911 -0.004131861
-0.0031493336 -0.0069373096 -0.0033608489
0.0014315153 -0.0094081322 -0.0022043309
0.0031493336 0.0061770566 -0.002975343
9.5434349e-05 -0.020621866 -0.0031680958
-0.0029584649 0.013589525 -0.0020115778
-0.00028630305 -0.017770916 -0.0022043309
-9.5434349e-05 -0.0067472463 -0.0022043309
-9.5434349e-05 0.011878955 -0.0014333189
0.0025767274 0.019101359 -0.0018188249
-0.0020041214 0.001045348 -0.004131861
-0.0010497778 -0.019861612 -0.0043246141
-0.0031493336 0.0084578162 -0.0031680958
-0.0031493336 0.00066522148 -0.0031680958
-0.0029584649 -0.0075074998 -0.004131861
-0.0031493336 -0.010928638 -0.00278259
0.0010497778 0.0012354113 -0.0022043309
0.0025767274 0.0046565505 -0.0022043309
-0.0010497778 0.014539841 -0.0043246141
0.0016223839 -0.0099783223 -0.0022043309
0.0014315153 -0.0168206 -0.0022043309
0.0020041214 0.0019956646 -0.0022043309
-0.00047717176 -0.016250411 -0.0043246141
0.00066804048 0.0094081322 -0.0022043309
-0.00047717176 -0.020621866 -0.003939108
0.0031493336 0.007127373 -0.0033608489
-0.0018132527 -0.014539841 -0.0045173671
-0.0029584649 -0.015870284 -0.003746355
0.0027675962 -0.012069019 -0.003939108
0.0031493336 0.008837943 -0.003746355
-0.0018132527 0.0168206 -0.00066230696
-0.0031493336 0.012639208 -0.0031680958
0.0031493336 9.5031639e-05 -0.00278259
0.00047717176 0.019101359 -0.0023970839
-0.0031493336 -0.001045348 -0.0033608489
-0.0031493336 0.0019956646 -0.0031680958
0.0016223839 0.007127373 -0.004131861
0.0018132527 0.0042764237 -0.0012405659
-0.00047717176 0.011498828 -0.001047813
0.0018132527 -0.019101359 -0.0045173671
-0.0016223839 0.015870284 -0.00066230696
0.0025767274 0.0012354113 -0.0022043309
-0.0020041214 0.018151043 -0.0022043309
0.0014315153 0.0040863603 -0.0022043309
0.00047717176 0.018341107 -0.00066230696
-0.0029584649 -0.013969651 -0.003746355
0.00085890916 -0.020621866 -0.00278259
-0.0021949902 0.0094081322 -0.0022043309
0.00066804048 -0.0021857277 -0.0043246141
-0.00047717176 0.017010665 -0.0043246141
-0.0029584649 0.00066522148 -0.004131861
-0.0031493336 0.001045348 -0.003746355
0.0020041214 0.0012354113 -0.0022043309
-0.00047717176 -0.020431804 -0.0043246141
0.0010497778 0.0027559176 -0.0022043309
0.0020041214 0.014539841 -0.0022043309
-0.00047717176 0.014349778 -0.00046955395
0.0018132527 0.0168206 -0.0045173671
0.00047717176 -0.017010665 -0.0043246141
0.0021949902 0.0025658542 -0.0012405659
0.0025767274 -0.020051677 -0.0045173671
0.0018132527 0.0069373096 -0.0022043309
-0.0010497778 -0.020051677 -0.0043246141
0.0020041214 -0.0080776894 -0.004131861
9.5434349e-05 0.018341107 -0.00046955395
-0.0014315153 0.020241739 -0.0025898369
0.00085890916 0.0082677528 -0.0014333189
-0.0012406466 0.0095981956 -0.0045173671
-0.0020041214 0.0080776894 -0.0022043309
-0.00085890916 0.019291423 -0.0043246141
-0.0020041214 -0.010548512 -0.0020115778
0.0016223839 0.014349778 -0.0043246141
-0.0010497778 0.018341107 -0.0014333189
0.0031493336 -0.011498828 -0.0022043309
9.5434349e-05 0.0027559176 -0.004131861
-0.0020041214 0.014159715 -0.0022043309
0.00047717176 -0.0050366768 -0.0022043309
0.00085890916 -0.0099783223 -0.0045173671
0.0020041214 0.015300094 -0.0043246141
0.0021949902 -0.0086478796 -0.004131861
0.0031493336 0.01853117 -0.0033608489
-0.00066804048 -0.019481486 -0.0023970839
-9.5434349e-05 0.0031360441 -0.0022043309
-0.0010497778 -0.018721234 -0.0023970839
0.0016223839 -0.019481486 -0.0023970839
-0.0020041214 0.0031360441 -0.0043246141
-0.0018132527 -0.00085528474 -0.004131861
0.00066804048 0.020431804 -0.0023970839
0.00085890916 -0.0069373096 -0.0043246141
0.00047717176 0.0076975627 -0.001047813
0.00047717176 0.003706234 -0.0043246141
-0.00085890916 0.016060347 -0.0043246141
-0.0020041214 0.015870284 -0.0043246141
-0.00085890916 -0.00636712 -0.0043246141
0.0012406466 0.0097882589 -0.0022043309
-0.0025767274 0.019101359 -0.004131861
0.0031493336 0.012829271 -0.00278259
0.0020041214 -0.020621866 -0.003939108
0.0012406466 -0.0094081322 -0.0022043309
0.0031493336 -0.012069019 -0.00278259
0.0021949902 0.017960981 -0.0022043309
-0.0021949902 -0.0044664871 -0.0022043309
0.0023858587 0.0014254746 -0.0022043309
0.0023858587 0.0012354113 -0.0022043309
9.5434349e-05 -0.0095981956 -0.0045173671
0.0018132527 -0.0078876261 -0.0022043309
-0.0025767274 -0.015490158 -0.004131861
-0.0023858587 0.0097882589 -0.0020115778
-0.0031493336 0.0042764237 -0.003939108
-0.0016223839 -0.0082677528 -0.0022043309
-0.0023858587 -0.0014254746 -0.004131861
-0.0020041214 0.0035161707 -0.0043246141
-9.5434349e-05 0.018341107 -0.0012405659
-0.0031493336 0.0075074998 -0.003939108
-0.00028630305 0.014919967 -0.00027680097
0.0031493336 -0.014919967 -0.0033608489
0.0031493336 -0.010168386 -0.00278259
0.0027675962 -0.013969651 -0.004131861
0.00085890916 0.0076975627 -0.0012405659
0.0012406466 0.012259082 -0.001047813
0.0031493336 -0.0059869932 -0.002975343
-0.0021949902 -0.0019956646 -0.004131861
0.0029584649 -0.014349778 -0.0022043309
0.0031493336 0.0019956646 -0.00278259
-0.00066804048 0.0052267401 -0.0045173671
0.0025767274 -0.0092180688 -0.0022043309
-0.00085890916 0.019101359 -0.00046955395
-0.0029584649 0.012259082 -0.003746355
-0.0027675962 0.0059869932 -0.004131861
-0.0029584649 -0.007127373 -0.004131861
-0.00028630305 -0.00047515822 -0.0022043309
-0.00066804048 -0.013779588 -0.0043246141
-0.0031493336 0.0061770566 -0.0022043309
-0.00085890916 0.017960981 -0.0014333189
0.0023858587 0.0099783223 -0.0020115778
-0.0010497778 0.015870284 -0.0014333189
0.0029584649 0.007127373 -0.004131861
-0.0023858587 -0.0048466139 -0.0022043309
-0.0031493336 -0.0057969303 -0.003746355
-0.0031493336 0.00028509492 -0.0031680958
0.0014315153 0.0044664871 -0.0014333189
0.0031493336 0.0094081322 -0.0035536019
0.0031493336 -0.0092180688 -0.0033608489
0.0025767274 0.011498828 -0.0020115778
0.0012406466 0.019291423 -0.0025898369
0.0031493336 0.0090280054 -0.00278259
-0.00085890916 0.013779588 -0.0043246141
0.0010497778 0.0076975627 -0.0012405659
-0.0020041214 0.007127373 -0.0022043309
-0.00085890916 0.0097882589 -0.0022043309
0.0020041214 -0.013399461 -0.0043246141
0.0016223839 -0.0018056012 -0.00085505995
0.0023858587 0.007127373 -0.004131861
0.00066804048 0.0056068669 -0.0022043309
-0.0016223839 -0.0012354113 -0.0022043309
-9.5434349e-05 0.011118702 -0.0014333189
0.0012406466 0.0092180688 -0.0012405659
-0.0014315153 -0.0090280054 -0.0022043309
