# .PCD v0.7 - Point Cloud Data file format
VERSION 0.7
FIELDS x y z
SIZE 4 4 4
TYPE F F F
COUNT 1 1 1
WIDTH 1201
HEIGHT 1
VIEWPOINT 0 0 0 1 0 0 0
POINTS 1201
DATA ascii
-0.0026010745 -0.0029994361 -0.0087000001
0.0036014877 -0.0015996991 -0.0057000001
-0.0030012398 -0.0025995113 -0.0018000001
0.00090037193 0.0037992855 -0.0064000003
-0.0039016118 0.00019996239 -0.0037
0.0018007439 0.0019996241 -0.010600001
0.0019007851 0.0021995865 -0.00030000004
-0.0035014465 -0.0017996615 -0.0023000001
-0.0008003306 -0.0019996241 -0.010600001
-0.0015006199 0 0.0023999999
0.0038015703 -0.0011997744 -0.0066
0.0033013637 0.0018996428 -0.00060000003
0.0017007025 0.0035993231 -0.0048000002
0.0011004546 -0.0037992855 -0.0018000001
0.0030012398 0.0025995113 -0.0013000001
-0.00030012397 0.0025995113 -0.00020000005
0.0030012398 -0.00059988722 -0.010600001
-0.00090037193 0.0036993043 -0.0066
0.002501033 0.0023995489 -0.00030000004
-0.0024009917 -0.0030994173 -0.0038000001
-0.0019007851 0.00019996239 -0.0107
-0.002501033 -0.0029994361 -0.00040000005
-0.002501033 0.0011997744 -0.00020000005
0.00090037193 -0.0037992855 -0.0046999999
0.00070028927 0.00049990602 -0.0107
-0.00030012397 -0.0038992667 -0.0040000002
-0.0018007439 -0.0032993795 -0.00030000004
0.00090037193 0.0037992855 -0.0083999997
0.0011004546 -0.0037992855 -0.0023000001
-0.0022009092 -0.0032993795 -0.0021000002
-0.0020008264 -0.0033993607 -0.0022
-0.0034014049 0.0014997181 -0.010600001
0.0022009092 0.0028994549 -0.00030000004
0.0020008264 0.00069986843 -4.3478263e-11
-0.00090037193 -0.0037992855 -0.0064000003
-0.0021008679 0.0021995865 -0.00030000004
0.0005002066 -0.0024995301 -0.00010000005
-0.0039016118 0.00029994361 -0.0088999998
0.0019007851 0.00049990602 -0.010600001
-0.0039016118 -0.00019996239 -0.0102
0.0005002066 -0.00099981204 -4.3478263e-11
-0.002501033 -0.0020996053 -0.010600001
0.0005002066 -0.0037992855 -0.0085000005
-0.003701529 -0.0013997369 -0.0014000001
-0.0021008679 -0.0032993795 -0.0057999999
0.0035014465 0.0018996428 -0.0051000002
-0.0010004132 0.0036993043 -0.0065000001
0.0027011158 -0.0028994549 -0.0031000001
0.0029011983 0.0026994925 -0.0073000002
0.00030012397 0.0038992667 -0.0036000002
-0.0015006199 -0.0035993231 -0.0083999997
0.0022009092 -0.0029994361 -0.010600001
-0.0028011571 0.0027994737 -0.0092000002
-0.0021008679 0.0024995301 -0.010600001
-0.0012004959 0.0036993043 -0.0067000003
-0.0019007851 -0.0034993419 -0.003
0.0039016118 0.00039992479 -0.0035000001
0.0019007851 -0.00029994361 -0.00020000005
-0.00010004132 -0.0025995113 -0.00020000005
-0.0011004546 -0.0037992855 -0.0104
0.0023009505 0.0031993983 -0.010100001
0.0032013224 -0.0018996428 -0.00070000003
-0.0013005373 0.0036993043 -0.0070000002
-0.0017007025 0.0035993231 -0.0029000002
-0.0005002066 -0.0038992667 -0.0021000002
-0.0039016118 -0.00019996239 -0.0055
0.0039016118 0.00039992479 -0.0027000001
0.0039016118 -0.00049990602 -0.0105
-0.0039016118 0.00029994361 -0.010100001
-0.0039016118 -0.00019996239 -0.0079000005
0.0036014877 0.0014997181 -0.0042000003
0.0038015703 -0.00059988722 -0.00050000002
-0.0026010745 -0.00099981204 -0.010600001
0.0033013637 0.0020996053 -0.0060000001
-0.0012004959 0.0035993231 -0.0034
-0.0004001653 9.9981196e-05 -4.3478263e-11
-0.0038015703 -0.0011997744 -0.0040000002
0.0024009917 0.0030994173 -0.0027000001
-0.0023009505 -9.9981196e-05 -4.3478263e-11
0.0013005373 -0.0036993043 -0.0035000001
-0.0012004959 -0.0037992855 -0.0023000001
-0.0035014465 -0.0017996615 -0.0091000004
0.0004001653 0.0015996991 -4.3478263e-11
0.0036014877 -0.0016996803 -0.0070000002
0.003701529 0.00089983077 -0.00060000003
-0.0019007851 0.0033993607 -0.0037
0.002501033 0.0029994361 -0.0012000001
0.0020008264 0.0033993607 -0.0095000006
-0.0031012811 0.0023995489 -0.0079000005
0.0030012398 0.0025995113 -0.0102
0.0039016118 -0.00019996239 -0.0068000001
0.0017007025 0.0035993231 -0.0052
0.0014005785 -0.00079984957 -0.0107
-0.0028011571 0.00049990602 -0.00020000005
0.0022009092 0.0030994173 -0.010600001
-0.0032013224 -0.0022995677 -0.0017
0.0018007439 -0.0034993419 -0.0075000003
0.00060024793 0.0038992667 -0.0055
0.0034014049 0.0019996241 -0.0095000006
-0.0024009917 -0.0017996615 -0.00030000004
0.0036014877 -0.0014997181 -0.0027000001
-0.0034014049 0 -0.00030000004
0.0031012811 -0.0024995301 -0.0057999999
0.00030012397 -0.0037992855 -0.0053000003
-0.0033013637 -0.0021995865 -0.0021000002
0.0035014465 -0.0018996428 -0.003
-0.0014005785 0.0035993231 -0.0012000001
0.0019007851 0.00019996239 0.0029
0.0020008264 -0.0020996053 -0.00030000004
0.0032013224 0.0022995677 -0.0090000005
0.0039016118 -0.00069986843 -0.0015
-0.0034014049 0 -0.010600001
0.0033013637 0 -0.010600001
0.0033013637 -0.0019996241 -0.00060000003
-0.0026010745 0 -0.00010000005
-0.0035014465 0.0017996615 -0.0041
-0.0005002066 0.0027994737 -0.00030000004
0.0016006612 -0.0035993231 -0.0080000004
0.00090037193 -0.0010997932 -0.0107
-0.0017007025 0.0015996991 -4.3478263e-11
-0.0008003306 -0.0024995301 -0.00020000005
0.00090037193 0.0037992855 -0.0017
-0.0012004959 0.00059988722 -4.3478263e-11
-0.0038015703 0.00049990602 -0.00050000002
-0.00030012397 0.0010997932 -4.3478263e-11
-0.00020008265 -0.0037992855 -0.0027000001
-0.0038015703 -0.0010997932 -0.0041
0.0039016118 0.00069986843 -0.0074
0.0008003306 -0.0023995489 -0.010600001
0.0027011158 0.0028994549 -0.010100001
0.002501033 0.0022995677 -0.010600001
0.0013005373 0.0036993043 -0.0060000001
0.0012004959 0.0026994925 -0.00030000004
0.0029011983 -0.0026994925 -0.0042000003
0.00010004132 0 -0.0107
-0.0030012398 -0.0024995301 -0.0105
-0.0031012811 -0.0023995489 -0.0091000004
0.0026010745 0.0029994361 -0.0072000003
-0.0010004132 0.0033993607 -0.00030000004
-0.0013005373 -0.0017996615 -0.010600001
0.0024009917 -0.0021995865 -0.010600001
-0.0022009092 -0.0032993795 -0.0035000001
0.0019007851 0 0.0020000001
0.0004001653 -0.0033993607 -0.00030000004
0.0039016118 0.00079984957 -0.0049999999
0.0004001653 -0.0037992855 -0.0023000001
-0.0039016118 0.00059988722 -0.0044
-0.0038015703 -0.00099981204 -0.0085000005
-0.0021008679 0.0032993795 -0.0072000003
-0.0015006199 -9.9981196e-05 0.0027000001
0.0021008679 0.0032993795 -0.0015
-0.0008003306 -0.0019996241 -4.3478263e-11
-0.0008003306 0.0013997369 -4.3478263e-11
0.0028011571 0.0027994737 -0.0105
-0.0031012811 0.00049990602 -0.010600001
-0.0027011158 -0.0021995865 -0.00030000004
0.0005002066 -0.0011997744 -4.3478263e-11
0.0014005785 0.0036993043 -0.0046000001
0.0008003306 -0.0037992855 -0.0068999999
0.00070028927 9.9981196e-05 -0.0107
-0.0039016118 -0.00049990602 -0.0013000001
0.0039016118 0.00019996239 -0.0046999999
0.0039016118 -0.00079984957 -0.0061000003
0.00020008265 -0.0038992667 -0.0079000005
0.0018007439 -9.9981196e-05 0.0017
-0.00020008265 0.00029994361 -4.3478263e-11
0.0039016118 0.00039992479 -0.0046999999
0.0022009092 -0.0032993795 -0.0083999997
-0.00060024793 -0.00079984957 -0.00020000005
-0.0011004546 0.0037992855 -0.0098999999
-0.0023009505 0.0031993983 -0.010100001
0.00070028927 -9.9981196e-05 -4.3478263e-11
-0.0028011571 -0.0027994737 -0.0021000002
-0.0019007851 0.0033993607 -0.00040000005
-0.0036014877 0.0015996991 -0.0028000001
0.00030012397 -0.00039992479 -0.0107
0.00030012397 0.00019996239 -4.3478263e-11
-0.0011004546 -0.0037992855 -0.0062000002
-0.0008003306 -0.0037992855 -0.0090000005
0.002501033 0.0029994361 -0.0086000003
0.0018007439 -0.0034993419 -0.0095000006
0.00010004132 0.00089983077 -4.3478263e-11
0.0027011158 0.0028994549 -0.0028000001
0.0036014877 0.0015996991 -0.0081000002
-0.0004001653 -0.0037992855 -0.0085000005
-0.003701529 -0.0012997556 -0.0019
-0.0021008679 0.0032993795 -0.0063
0.0012004959 -0.0037992855 -0.0060000001
0.002501033 0.0029994361 -0.0093
0.0015006199 -0.0020996053 -0.010600001
0.0016006612 0.0014997181 -0.010600001
0.0019007851 0.0034993419 -0.0053000003
0.0038015703 0.00099981204 -0.0043000001
-0.0015006199 0.00049990602 -0.0107
0.0020008264 -0.0033993607 -0.010100001
0.0033013637 -0.0020996053 -0.0027000001
0.0028011571 0.0027994737 -0.0049000001
0.0034014049 -0.0015996991 -0.00030000004
-0.0004001653 0.0038992667 -0.0068999999
0.0019007851 -0.0034993419 -0.0033
0.0036014877 0.0015996991 -0.0034
-0.0036014877 -0.0013997369 -0.0011000001
-0.00030012397 -0.0038992667 -0.0056000003
-0.0035014465 0.0017996615 -0.0035000001
-0.0018007439 0.0033993607 -0.0079000005
0.0014005785 -0.0036993043 -0.0104
-0.0036014877 -0.0016996803 -0.0087000001
-0.0036014877 0.0014997181 -0.0104
-0.0008003306 -0.00049990602 -0.0107
0.0012004959 0.0037992855 -0.0075000003
-0.0017007025 0.0029994361 -0.00030000004
0.0035014465 -0.0017996615 -0.0072000003
-0.0029011983 0.0026994925 -0.0054000001
-0.0035014465 0.0017996615 -0.0078000003
0.003701529 0.00059988722 -0.00090000004
-0.0027011158 0.0028994549 -0.0038000001
0.00010004132 -0.0038992667 -0.0086000003
-0.0029011983 -0.0023995489 -0.00030000004
0.0030012398 0.0025995113 -0.0029000002
0.00010004132 0.00039992479 -0.0107
0.0024009917 -0.0030994173 -0.0034
0.0021008679 -0.0018996428 -0.010600001
-0.0017007025 -0.0032993795 -0.00070000003
0.0026010745 -0.0021995865 -0.010600001
0.003701529 -0.00019996239 -0.00080000004
0.0028011571 -0.0020996053 -0.00030000004
-0.0029011983 -0.0026994925 -0.0046000001
0.0014005785 -0.0036993043 -0.0033
-0.0036014877 0.0016996803 -0.0034
-0.0035014465 0.0017996615 -0.0065000001
-0.0010004132 0.0037992855 -0.0046999999
0.00070028927 -0.0037992855 -0.0080000004
-0.00030012397 0.0036993043 -0.00030000004
-0.0024009917 0.00059988722 -4.3478263e-11
-0.0014005785 0.00059988722 -4.3478263e-11
-0.0008003306 -0.0037992855 -0.0085000005
-0.0012004959 0.0037992855 -0.0095000006
-0.0024009917 -0.0029994361 -0.00030000004
-0.0005002066 0.0015996991 -4.3478263e-11
-0.0033013637 0.0020996053 -0.0044
-0.0017007025 0.0035993231 -0.0097000003
-0.0004001653 0.0037992855 -0.0014000001
-0.00070028927 0.00039992479 -0.0107
-0.00020008265 -0.0038992667 -0.0067000003
-0.0029011983 0.00059988722 -0.00030000004
-0.003701529 0.00059988722 -0.010600001
-0.0021008679 0.00019996239 -4.3478263e-11
-0.0018007439 -0.0034993419 -0.0041
-0.0033013637 0.0020996053 -0.0090000005
0.0038015703 -0.0010997932 -0.0013000001
-0.0031012811 -0.0023995489 -0.0035000001
-0.0035014465 0.0018996428 -0.0020000001
-0.0012004959 0.0035993231 -0.0031000001
0.0039016118 0.00079984957 -0.0022
0.0014005785 0 -4.3478263e-11
-0.0018007439 -0.0027994737 -0.00030000004
-0.0028011571 9.9981196e-05 -0.010600001
-0.00010004132 0.0033993607 -0.00030000004
-0.0012004959 0.0037992855 -0.0088999998
0.00060024793 -0.0037992855 -0.0035000001
-0.0014005785 -0.0036993043 -0.0086000003
-0.00060024793 0.0037992855 -0.0067000003
0.0012004959 -0.0037992855 -0.0046000001
0.0020008264 0.0033993607 -0.0040000002
0.0036014877 0.0016996803 -0.0086000003
0.0020008264 -0.0033993607 -0.0036000002
-0.0035014465 0.00069986843 -0.010600001
-0.0011004546 0.00019996239 -0.00010000005
0.0039016118 -0.00019996239 -0.0068999999
-0.0026010745 0 -4.3478263e-11
0.0010004132 -0.0037992855 -0.0046999999
-0.00030012397 -0.0038992667 -0.0046999999
-0.0021008679 0.0032993795 -0.0038000001
-0.0030012398 -0.0024995301 -0.0023000001
0.0011004546 -0.0037992855 -0.0015
0.0020008264 -0.0011997744 -4.3478263e-11
0.0011004546 -0.0037992855 -0.0063
-0.0038015703 0.0010997932 -0.0103
-0.00010004132 -0.0038992667 -0.0043000001
0.00070028927 -0.0037992855 -0.0082999999
0.0016006612 0.0035993231 -0.0064000003
0.0039016118 0.00059988722 -0.0039000001
-0.00030012397 0.0038992667 -0.0019
0.0004001653 0.0015996991 -0.010600001
0.0005002066 -0.0037992855 -0.00050000002
-0.00030012397 -0.0010997932 -0.0107
-0.0016006612 0.00099981204 -4.3478263e-11
-0.0039016118 0 -0.0081000002
0.0032013224 0.0022995677 -0.0066
0.0035014465 0.0017996615 -0.0016000001
0.0028011571 -0.0027994737 -0.0054000001
0.0031012811 -0.0023995489 -0.0046000001
-0.0039016118 -9.9981196e-05 -0.0102
0.0012004959 -0.0011997744 -4.3478263e-11
0.0038015703 -0.0010997932 -0.0078000003
0.0039016118 -0.00039992479 -0.0049000001
-0.0038015703 -0.00089983077 -0.0049999999
-0.0039016118 0.00059988722 -0.0079000005
0.0039016118 -0.00069986843 -0.0054000001
-0.003701529 0.0012997556 -0.0068999999
0.0017007025 -0.0033993607 -0.00060000003
0.002501033 0.0029994361 -0.0080000004
0.0004001653 -0.0037992855 -0.0066
-0.0031012811 -0.0023995489 -0.0055
-0.0012004959 0.0035993231 -0.0018000001
-0.0013005373 -0.0014997181 -0.010600001
-0.0021008679 -0.0027994737 -0.00030000004
-0.0038015703 -0.0011997744 -0.0071
0.0033013637 0.0021995865 -0.0104
-0.003701529 0.0012997556 -0.0033
0 -0.0038992667 -0.0068999999
0.0034014049 -0.0019996241 -0.0071
0.00060024793 0.0034993419 -0.010600001
0.0008003306 0.0038992667 -0.0064000003
0.0038015703 -0.00099981204 -0.0093
-0.0028011571 -0.0027994737 -0.0082
0.0032013224 -0.0019996241 -0.001
-0.0039016118 0.00019996239 -0.0043000001
0.0026010745 -0.00029994361 -0.00020000005
-0.0039016118 0.00059988722 -0.0021000002
-0.0036014877 0.0014997181 -0.0035000001
-0.00070028927 -0.00089983077 -0.0107
0.0019007851 -0.0016996803 -0.00010000005
-0.0012004959 -0.0037992855 -0.0074
0.0030012398 0.0024995301 -0.0031000001
-0.0039016118 0.00059988722 -0.0053000003
0.0010004132 0.0037992855 -0.0013000001
0.0015006199 0.0035993231 -0.00040000005
-0.00090037193 0.0037992855 -0.0088
0.0028011571 -9.9981196e-05 -0.010600001
0.0005002066 0.00079984957 -0.0107
-0.0030012398 -0.0025995113 -0.0042000003
-0.0039016118 0 -0.0071
-0.0020008264 0.0033993607 -0.0082
0 0.0038992667 -0.0102
0.0022009092 -0.0011997744 -4.3478263e-11
0.00060024793 0.0037992855 -0.00050000002
-0.0015006199 0.0021995865 -0.010600001
0.003701529 -0.00089983077 -0.010600001
0.0038015703 0.0010997932 -0.0053000003
0.00070028927 -0.00049990602 -0.00020000005
0.0039016118 0.00039992479 -0.0082999999
-0.003701529 0.0013997369 -0.0034
0.00030012397 0.0012997556 -4.3478263e-11
0.0011004546 -0.0037992855 -0.0048000002
-0.0038015703 -0.00049990602 -0.010600001
-0.00070028927 -0.0034993419 -0.00030000004
0.0022009092 -0.0032993795 -0.0019
0.003701529 0.0013997369 -0.0019
0.0029011983 -0.00049990602 -0.00030000004
0.0036014877 -0.0014997181 -0.0103
0.0039016118 -0.00079984957 -0.0037
-0.0017007025 -0.0034993419 -0.0014000001
-0.00010004132 -0.0036993043 -0.010600001
0.0039016118 -0.00059988722 -0.0056000003
0.0026010745 0.0013997369 -0.010600001
0.0008003306 -0.0037992855 -0.0041
-0.00010004132 -0.0038992667 -0.0090000005
-0.0008003306 -0.0037992855 -0.0044
-0.003701529 0.0013997369 -0.0092000002
0.0031012811 0 -0.010600001
0.0016006612 0.00019996239 0.0027000001
-0.00030012397 0.0013997369 -4.3478263e-11
0.0013005373 0.0036993043 -0.0096000005
0.0017007025 0.0035993231 -0.0031000001
-0.0015006199 -0.0033993607 -0.00090000004
0.00010004132 0.0038992667 -0.0018000001
0.00030012397 -0.0037992855 -0.0046000001
0.0033013637 0.00059988722 -0.00030000004
0.0015006199 0.0034993419 -0.010600001
-0.0029011983 0.0026994925 -0.0066
0.0039016118 -0.00079984957 -0.0072000003
0.0034014049 -0.0018996428 -0.0016000001
-0.0018007439 9.9981196e-05 0.0017
-0.0035014465 -0.0018996428 -0.0039000001
-0.0039016118 0 -0.0018000001
0.0020008264 0.00059988722 -0.00010000005
-0.0010004132 0.0037992855 -0.0016000001
-0.0010004132 -0.0037992855 -0.0049999999
0.0033013637 -0.0021995865 -0.0028000001
-0.0024009917 0.0012997556 -0.00020000005
-0.0039016118 -0.00079984957 -0.0092000002
-0.0039016118 9.9981196e-05 -0.0105
0.0033013637 0.0020996053 -0.0073000002
-0.0019007851 -0.00059988722 -0.010600001
0.0015006199 0.0035993231 -0.0098999999
0.0024009917 0.0027994737 -0.00070000003
-0.0026010745 -0.0029994361 -0.0096000005
0.0038015703 0.0010997932 -0.0074
0.0016006612 0.00039992479 -4.3478263e-11
-0.0012004959 0.00089983077 -0.0107
0.002501033 0.0029994361 -0.0071
0.0039016118 -0.00069986843 -0.0093
0.0026010745 -0.00039992479 -0.010600001
-0.0038015703 -0.0011997744 -0.0076000001
-0.0021008679 0.0030994173 -0.00030000004
0.0010004132 0.0037992855 -0.0018000001
-0.0027011158 0.0017996615 -0.010600001
0.0024009917 -0.0030994173 -0.0076000001
-0.0019007851 -0.0034993419 -0.0093999999
-0.0029011983 -0.0025995113 -0.0041
-0.0027011158 0.0028994549 -0.0076000001
-0.002501033 -0.0030994173 -0.0102
-0.0039016118 0.00049990602 -0.0051000002
0.0020008264 0.00039992479 -0.010600001
0.0023009505 -0.0031993983 -0.0041
0.0004001653 0.0038992667 -0.0024000001
0.0020008264 0.0033993607 -0.0061000003
-0.003701529 0.0013997369 -0.0088999998
-0.0035014465 -0.0017996615 -0.0099999998
0.0004001653 -0.0036993043 -0.00090000004
-0.0039016118 9.9981196e-05 -0.0065000001
0.0035014465 -0.0018996428 -0.0044
-0.0035014465 -0.0018996428 -0.0015
0.0017007025 0.0035993231 -0.0046000001
0.0036014877 0.0015996991 -0.0021000002
-0.00060024793 0.0022995677 -4.3478263e-11
-0.0039016118 -0.00069986843 -0.0054000001
-0.0023009505 0.0031993983 -0.0059000002
0.0005002066 0.0038992667 -0.0041
0.0026010745 0.0028994549 -0.0074
0.003701529 -0.0013997369 -0.0062000002
0.0035014465 -0.0017996615 -0.0016000001
-0.0017007025 -0.00029994361 -0.00010000005
-0.0039016118 0.00049990602 -0.0013000001
0.0017007025 0.0035993231 -0.0076000001
0.00010004132 0.0027994737 -0.010600001
0.0039016118 0.00029994361 -0.0057000001
-0.002501033 -0.00089983077 -0.010600001
0.0005002066 -0.00019996239 -0.0107
-0.0029011983 -0.0018996428 -0.00030000004
0.0016006612 -0.0035993231 -0.0043000001
0.0016006612 -0.0033993607 -0.00080000004
0.0039016118 0.00029994361 -0.0056000003
0.00010004132 0.00029994361 -4.3478263e-11
0.0018007439 0.00069986843 -4.3478263e-11
0.0013005373 0.0036993043 -0.0046000001
0.0024009917 -0.0030994173 -0.0052
-0.0011004546 -0.0017996615 -0.010600001
-0.0038015703 -0.0011997744 -0.0036000002
0.0023009505 0.0031993983 -0.0023000001
-0.0033013637 9.9981196e-05 -0.010600001
-0.0016006612 -0.0028994549 -0.00030000004
0.0033013637 -0.0019996241 -0.0105
0.0036014877 -0.00089983077 -0.00090000004
-0.0036014877 -0.0014997181 -0.0093
-0.0018007439 0.0034993419 -0.0071
-0.0005002066 0.0038992667 -0.0049999999
0.0039016118 0.00049990602 -0.0038000001
-0.0036014877 -0.0014997181 -0.0075000003
-0.0039016118 -0.00039992479 -0.00040000005
-0.0020008264 -0.0033993607 -0.0065000001
-0.0027011158 0.0015996991 -0.010600001
-0.0036014877 -0.0014997181 -0.0088
0.0017007025 -0.0035993231 -0.0067000003
-0.0036014877 -0.0016996803 -0.0042000003
0.00010004132 0.0038992667 -0.0053000003
0.00070028927 -0.0037992855 -0.0070000002
-0.0011004546 0.0036993043 -0.0044
-0.0012004959 0.0035993231 -0.0017
-0.0022009092 0.0032993795 -0.0034
-0.0027011158 0.0028994549 -0.0079000005
0.00020008265 0.0038992667 -0.0015
-0.0014005785 0.0036993043 -0.0046999999
-0.0035014465 -0.0011997744 -0.00080000004
-0.0024009917 0.0025995113 -0.00030000004
0.0013005373 -0.0036993043 -0.0021000002
0.00030012397 0.00079984957 -0.0107
0.0039016118 0.00029994361 -0.0090000005
0.0022009092 0.00069986843 -4.3478263e-11
0.0036014877 -0.0016996803 -0.0014000001
-0.0005002066 0.0038992667 -0.0071
-0.0019007851 0.0034993419 -0.0043000001
-0.0036014877 -0.0016996803 -0.0061000003
-0.0034014049 -0.0017996615 -0.00030000004
0.0026010745 0.0029994361 -0.0016000001
-0.0012004959 0.00069986843 -0.0107
0.0019007851 0 0.0011999999
-0.003701529 -0.0012997556 -0.0025000002
0.00090037193 0.0037992855 -0.0059000002
0.0033013637 0.0021995865 -0.0088999998
-0.0033013637 0.0020996053 -0.0054000001
0.0029011983 -0.0026994925 -0.0103
0.0017007025 0.0035993231 -0.0070000002
0.0024009917 -0.0027994737 -0.00080000004
0.0013005373 -0.00059988722 -0.00020000005
-0.0027011158 0.0028994549 -0.0093
-0.0028011571 0.0020996053 -0.00030000004
0.0015006199 -0.0035993231 -0.0078000003
-0.0038015703 0.0010997932 -0.0081000002
0.0039016118 -9.9981196e-05 -0.0015
-0.0036014877 -0.0016996803 -0.0052
-0.0012004959 -0.00019996239 -0.0107
0.0039016118 0.00069986843 -0.0057999999
0.0020008264 -0.00069986843 -0.00010000005
0.0005002066 0.0015996991 -4.3478263e-11
0.00030012397 0.0038992667 -0.0025000002
-0.00020008265 0.0038992667 -0.0099999998
0.0034014049 -0.0010997932 -0.010600001
-0.0038015703 0.00099981204 -0.0019
-0.0032013224 -0.0022995677 -0.0099999998
0.0038015703 0.0010997932 -0.0080000004
-0.0012004959 0.0037992855 -0.0037
-0.0021008679 0.0032993795 -0.0082999999
-0.00010004132 -0.0026994925 -0.010600001
0.0014005785 0.0036993043 -0.0061000003
0.0010004132 0.0037992855 -0.0042000003
0.0035014465 -0.0015996991 -0.0105
-0.00020008265 0.0024995301 -4.3478263e-11
-0.0020008264 -0.0026994925 -0.010600001
-0.003701529 0.00089983077 -0.001
-0.0039016118 0 -0.0045000003
0.0039016118 -0.00059988722 -0.0023000001
-0.0038015703 0.00099981204 -0.0033
-0.0013005373 -0.0036993043 -0.0059000002
0.0022009092 -0.0023995489 -0.00030000004
0.0020008264 0.0013997369 -4.3478263e-11
0.0015006199 -0.0034993419 -0.00060000003
0.0038015703 0.00089983077 -0.0034
0.0033013637 0.0021995865 -0.0013000001
-0.0023009505 -0.0029994361 -0.00060000003
-0.0035014465 -0.0017996615 -0.0068999999
0.0012004959 0.0024995301 -0.010600001
-0.0028011571 -0.0027994737 -0.0025000002
-0.0039016118 0 -0.0082
-0.0031012811 0.0023995489 -0.0045000003
-0.0035014465 0.0017996615 -0.0082
-0.0038015703 -0.00069986843 -0.0011000001
-0.0015006199 0 0.0027000001
0.0004001653 -9.9981196e-05 -0.0107
0.0033013637 0.0021995865 -0.0079000005
-0.00020008265 -0.0038992667 -0.0016000001
-0.0023009505 0.0031993983 -0.0099999998
0.0019007851 -0.0030994173 -0.00030000004
-0.0011004546 0.0036993043 -0.0053000003
-0.0018007439 0.0028994549 -0.010600001
0.0038015703 0.00089983077 -0.0038000001
-0.00030012397 0.0037992855 -0.0035000001
0.00090037193 -0.0035993231 -0.00070000003
-0.0012004959 -0.00019996239 -4.3478263e-11
0.00070028927 -0.0037992855 -0.0048000002
0.0034014049 0.0019996241 -0.0025000002
0.0010004132 -0.00029994361 -0.0107
0.0012004959 0.0035993231 -0.010600001
0.0039016118 0 -0.0072000003
-0.0016006612 -0.0035993231 -0.0092000002
-0.003701529 0.0013997369 -0.0073000002
0.0036014877 -0.0015996991 -0.0018000001
0.00090037193 0.0014997181 -0.0107
-0.003701529 0.0013997369 -0.0055
0.0028011571 -0.0023995489 -0.010600001
-0.00020008265 0.0037992855 -0.0102
0.0039016118 0.00059988722 -0.0077
0.00030012397 -0.0037992855 -0.0052
-0.0020008264 -0.0025995113 -0.00030000004
0.0033013637 -0.0021995865 -0.0023000001
0.0031012811 -0.0023995489 -0.0059000002
-0.0039016118 0.00039992479 -0.0098999999
-0.0010004132 -0.0037992855 -0.0038000001
0.0015006199 0.0035993231 -0.0015
0.0008003306 -0.00059988722 -0.00020000005
0.0038015703 -0.00099981204 -0.010100001
-0.0027011158 -0.0028994549 -0.0032000002
-0.0038015703 -0.0011997744 -0.0056000003
0.0039016118 -0.00029994361 -0.0104
-0.0021008679 -0.0031993983 -0.00050000002
-0.0023009505 0.0031993983 -0.0088999998
-0.0023009505 -0.0013997369 -0.010600001
0.00020008265 -0.0038992667 -0.0068000001
0.0017007025 -0.0035993231 -0.0057000001
-0.0022009092 -0.00049990602 -0.010600001
0.0012004959 0.0019996241 -0.010600001
-0.0026010745 0.0029994361 -0.0093
0.0016006612 0.0035993231 -0.0038000001
-0.00070028927 0.0037992855 -0.0011000001
0.003701529 0.0013997369 -0.0060000001
0.0005002066 0.0018996428 -0.010600001
-0.0038015703 0.00099981204 -0.0046999999
0.00060024793 -0.0013997369 -0.0107
0.0016006612 -9.9981196e-05 -0.010600001
0.0036014877 0.0016996803 -0.0020000001
-0.003701529 -0.00079984957 -0.00030000004
0.0039016118 -0.00069986843 -0.0020000001
-0.003701529 0.0012997556 -0.0013000001
-0.0028011571 0.00019996239 -0.00020000005
0.0039016118 0.00039992479 -0.0093999999
0.0019007851 -0.0027994737 -0.010600001
-0.0032013224 -0.0022995677 -0.00040000005
-0.003701529 -0.0013997369 -0.0046000001
0.0031012811 0.0023995489 -0.0057999999
-0.0023009505 -0.0031993983 -0.0096000005
0.0036014877 0.0016996803 -0.0048000002
0.0033013637 -0.0020996053 -0.0098000001
-0.00090037193 -0.0024995301 -0.010600001
-0.00090037193 0.0021995865 -4.3478263e-11
0.0020008264 0.0033993607 -0.0096000005
-0.0004001653 -0.0036993043 -0.001
0.0028011571 -0.0027994737 -0.0015
0.0018007439 -9.9981196e-05 0.0024999999
0.0027011158 -0.00089983077 -0.010600001
-0.00010004132 0.0037992855 -0.0070000002
-0.0038015703 0.0011997744 -0.0098999999
-0.0015006199 0.0034993419 -0.0057999999
0.0010004132 0.0022995677 -0.00010000005
0.0026010745 0.0029994361 -0.0039000001
0.0036014877 0.0011997744 -0.00030000004
-0.0039016118 -0.00049990602 -0.0098999999
0.003701529 0.0012997556 -0.0040000002
-0.0028011571 -0.00089983077 -0.00030000004
0.0036014877 -0.0015996991 -0.0053000003
-0.0024009917 0.0027994737 -0.010600001
-0.0004001653 -0.0038992667 -0.0014000001
0.0026010745 0.0029994361 -0.0082
0.0005002066 -0.0037992855 -0.0086000003
0 -0.0038992667 -0.0076000001
-0.0016006612 0.00049990602 -0.00020000005
0.003701529 -0.0013997369 -0.0036000002
0.0019007851 0.0032993795 -0.00050000002
0.0016006612 -0.0030994173 -0.00030000004
-0.0004001653 -0.0038992667 -0.0102
-0.00020008265 0.0024995301 -0.010600001
-0.0018007439 -0.0032993795 -0.00060000003
0.00090037193 -0.0037992855 -0.0085000005
0.0004001653 0.00079984957 -4.3478263e-11
0.0039016118 0.00059988722 -0.0049000001
0.0005002066 0.0038992667 -0.0044
-0.0017007025 0.0028994549 -0.00030000004
-0.0039016118 0.00049990602 -0.0098000001
0.0013005373 0.0032993795 -0.010600001
-0.0013005373 0.0036993043 -0.0103
-0.0014005785 -0.0036993043 -0.0049000001
0.00030012397 -0.0037992855 -0.0085000005
0.0033013637 -0.0021995865 -0.0020000001
0.0039016118 0.00039992479 -0.0018000001
0.0023009505 0.0031993983 -0.0082999999
-0.00030012397 -0.0038992667 -0.0046000001
-0.0017007025 -9.9981196e-05 0.0029
-0.0019007851 9.9981196e-05 0.0024999999
-0.0005002066 0.00099981204 -0.0107
0.0024009917 -0.00089983077 -0.00010000005
-0.0039016118 -0.00049990602 -0.0048000002
0.0016006612 -0.0035993231 -0.0014000001
0.0016006612 0.0035993231 -0.0040000002
-0.0038015703 -0.00089983077 -0.0019
0.0024009917 0.0030994173 -0.0046000001
-0.00010004132 0.0023995489 -0.010600001
0.0039016118 0.00059988722 -0.0032000002
0.0015006199 -0.0022995677 -0.00020000005
0.0022009092 0.00059988722 -4.3478263e-11
-0.0015006199 0.0024995301 -0.010600001
0.0026010745 0.0029994361 -0.0046999999
0.0039016118 -0.00049990602 -0.0091000004
-0.0036014877 0.0014997181 -0.0082
0.0014005785 0.0036993043 -0.0051000002
-0.0031012811 -0.0023995489 -0.0019
0.0008003306 -0.0037992855 -0.0073000002
-0.0019007851 9.9981196e-05 0.00089999998
-0.00020008265 -0.0037992855 -0.0072000003
0.0031012811 -0.0023995489 -0.0091000004
-0.0035014465 0.0018996428 -0.0052
0.0036014877 0.0015996991 -0.0059000002
0.0005002066 0.0036993043 -0.00070000003
-0.00030012397 0.0037992855 -0.0018000001
-0.0005002066 0.0037992855 -0.0093999999
-0.0015006199 -0.0035993231 -0.0078000003
-0.0039016118 0.00079984957 -0.0027000001
0.0028011571 0.0026994925 -0.00040000005
0.0017007025 -0.0032993795 -0.00090000004
0.0030012398 -0.0025995113 -0.0059000002
0.0035014465 -0.0018996428 -0.0070000002
0.0013005373 0.0036993043 -0.0034
-0.00070028927 -0.0022995677 -4.3478263e-11
-0.0039016118 0.00049990602 -0.0082
0.0010004132 0.0037992855 -0.0088999998
-0.0031012811 -0.0023995489 -0.0021000002
-0.0036014877 0.0014997181 -0.0081000002
0.002501033 0.0029994361 -0.0041
0.0005002066 -0.0026994925 -0.00020000005
0.00090037193 -0.0037992855 -0.0082999999
0.0029011983 0.0026994925 -0.0070000002
0.0022009092 0.0032993795 -0.0062000002
-0.0018007439 0.0011997744 -0.010600001
0.00060024793 -0.0037992855 -0.0055
0.00070028927 0.0027994737 -0.00030000004
-0.0005002066 0.0038992667 -0.0037
-0.00090037193 -0.0037992855 -0.0061000003
-0.0039016118 9.9981196e-05 -0.0018000001
0.00070028927 0.0016996803 -0.010600001
-0.0039016118 -0.00079984957 -0.0057999999
0.0039016118 -0.00049990602 -0.0079000005
0.0029011983 0.0024995301 -0.00060000003
0.0027011158 -0.0018996428 -0.00030000004
-0.0019007851 -9.9981196e-05 0.00079999998
0.0020008264 0.0015996991 -4.3478263e-11
-0.0021008679 -0.0030994173 -0.00080000004
0.0038015703 0.00049990602 -0.00030000004
0.0039016118 -0.00019996239 -0.0056000003
0.0008003306 -0.0037992855 -0.0088
-0.002501033 -0.0013997369 -0.010600001
-0.0004001653 0.0038992667 -0.0016000001
-0.0038015703 0.00089983077 -0.0099999998
-0.0036014877 0.0013997369 -0.00030000004
0.0035014465 -0.0018996428 -0.0074
-0.0036014877 -0.0016996803 -0.0036000002
-0.0022009092 0.00029994361 -0.010600001
0.0015006199 0.00069986843 -4.3478263e-11
0.0027011158 0.0021995865 -0.00030000004
0.0010004132 0.0037992855 -0.003
0.0015006199 0.0035993231 -0.0013000001
-0.0039016118 -0.00079984957 -0.0093
0.0016006612 0.0035993231 -0.0042000003
0.003701529 -0.0013997369 -0.0071
0.0034014049 0.0018996428 -0.00050000002
0.0017007025 0.0035993231 -0.0096000005
0.0021008679 -0.0022995677 -0.00030000004
-0.0024009917 -0.0030994173 -0.0093
0.00090037193 0.0037992855 -0.0057000001
0.0039016118 0.00039992479 -0.0042000003
0.0033013637 -0.0021995865 -0.0086000003
-0.0023009505 -0.0031993983 -0.0105
0.0038015703 0.00079984957 -0.0105
0.0018007439 0.00019996239 0.0029
-0.0034014049 -0.0019996241 -0.0021000002
-0.003701529 0.0012997556 -0.003
-0.00070028927 -0.0037992855 -0.0065000001
-0.0039016118 0.00069986843 -0.0056000003
0.0039016118 -0.00069986843 -0.0081000002
0.0014005785 -0.0036993043 -0.003
-0.0005002066 0.0025995113 -0.010600001
-0.0004001653 -0.0038992667 -0.0056000003
0.0016006612 0.0035993231 -0.0049000001
0.0038015703 -0.00089983077 -0.0060000001
-0.0010004132 -0.0037992855 -0.0051000002
0.0005002066 -0.0037992855 -0.0054000001
-0.0010004132 0.00089983077 -0.0107
0.0010004132 0.0037992855 -0.0034
-0.0036014877 0.0014997181 -0.0060000001
-0.0019007851 -0.0031993983 -0.00090000004
0.0038015703 0.00089983077 -0.0043000001
0.00060024793 0.0038992667 -0.0054000001
-0.0033013637 -0.0020996053 -0.0098999999
0.0008003306 0.0036993043 -0.00030000004
0.0027011158 -0.0028994549 -0.0042000003
0.0005002066 -0.0025995113 -0.010600001
0.0033013637 0.0021995865 -0.0081000002
0.0021008679 0.0032993795 -0.0083999997
-0.0030012398 0.0010997932 -0.00030000004
0.0030012398 -0.00019996239 -0.010600001
0.0039016118 9.9981196e-05 -0.0095000006
-0.0010004132 0.0017996615 -0.010600001
0.0030012398 0.0025995113 -0.0099999998
0.00090037193 -0.0027994737 -0.00030000004
-0.0008003306 -0.0038992667 -0.0071
0.0029011983 0.0024995301 -0.0011000001
0.0035014465 -0.0017996615 -0.0052
0.0020008264 -0.0032993795 -0.0011000001
0.00020008265 0.0037992855 -0.0012000001
0.0039016118 9.9981196e-05 -0.0038000001
-0.0035014465 0.0017996615 -0.0021000002
0.0031012811 -0.0024995301 -0.0096000005
-0.0039016118 0.00039992479 -0.0077
-0.0008003306 -0.0037992855 -0.0038000001
-0.0039016118 -9.9981196e-05 -0.0083999997
-0.00070028927 0.0016996803 -4.3478263e-11
-0.0018007439 0.0020996053 -0.00020000005
-0.0014005785 0.0026994925 -0.010600001
0.0033013637 -0.0021995865 -0.0075000003
-0.00060024793 0.0037992855 -0.0038000001
0.0013005373 -0.0021995865 -0.00010000005
0.0030012398 -0.0025995113 -0.010100001
-0.002501033 -0.0030994173 -0.0098999999
-0.0016006612 0.0033993607 -0.00030000004
0.0031012811 0.0023995489 -0.0077
0.0019007851 0.00079984957 -0.010600001
0.0035014465 -0.0018996428 -0.0028000001
0.0033013637 -0.0021995865 -0.0045000003
0.0039016118 0.00079984957 -0.0045000003
-0.0005002066 -0.0038992667 -0.0067000003
0.0039016118 0.00039992479 -0.0049000001
-0.0005002066 -0.0038992667 -0.0046000001
-0.0022009092 0.0030994173 -0.00030000004
-0.0015006199 -9.9981196e-05 0.00069999998
0.0016006612 9.9981196e-05 0.0029
-0.0017007025 -0.0035993231 -0.0104
0.0015006199 0.0035993231 -0.0027000001
-0.00090037193 -0.0037992855 -0.0072000003
0.00020008265 -0.00059988722 -0.00020000005
-0.0031012811 -0.00059988722 -0.010600001
-0.00070028927 0.0038992667 -0.0085000005
-0.0008003306 -0.00059988722 -0.00020000005
-0.0031012811 0.0023995489 -0.0044
-0.0012004959 0.0033993607 -0.010600001
-0.0010004132 -0.0020996053 -0.010600001
0.0024009917 0.0030994173 -0.0103
0.0005002066 0.0038992667 -0.0049999999
-0.0039016118 0.00079984957 -0.0087000001
-0.0035014465 0.0017996615 -0.0095000006
0.0022009092 -0.00049990602 -0.010600001
0.0031012811 -0.0024995301 -0.0034
-0.0011004546 0.0019996241 -4.3478263e-11
0.003701529 0.0013997369 -0.0068000001
0.0021008679 0.0013997369 -4.3478263e-11
0.0036014877 0.0015996991 -0.0077
-0.003701529 0.0012997556 -0.0039000001
-0.0017007025 9.9981196e-05 0.0011
0.0029011983 0.0026994925 -0.0053000003
0.0029011983 -0.0019996241 -0.00030000004
-0.0012004959 0.0036993043 -0.0037
-0.00060024793 0.0018996428 -0.010600001
0.0039016118 0.00029994361 -0.0018000001
-0.0018007439 0.0034993419 -0.0098999999
-0.0028011571 -0.0026994925 -0.0034
-0.0031012811 0.0020996053 -0.010600001
-0.0008003306 -0.0038992667 -0.0054000001
-0.0018007439 0.0034993419 -0.0088999998
-0.0016006612 -0.0032993795 -0.00030000004
-0.0039016118 -0.00069986843 -0.0075000003
-0.0039016118 -0.00079984957 -0.0074
0.00070028927 -0.0037992855 -0.0037
-0.003701529 -0.0012997556 -0.0038000001
0.00090037193 -0.0037992855 -0.0029000002
0.0032013224 -0.00049990602 -0.010600001
0.0018007439 0.0034993419 -0.0102
-0.0014005785 -0.0036993043 -0.0082999999
-0.0014005785 0.0033993607 -0.010600001
-0.0018007439 -0.0034993419 -0.0035000001
0.0014005785 0.0036993043 -0.0024000001
-0.0019007851 -0.0034993419 -0.0062000002
0.0026010745 -0.0029994361 -0.0034
0.0023009505 0.0031993983 -0.0055
0.003701529 -0.0012997556 -0.0083999997
0.0038015703 -0.00089983077 -0.0028000001
-0.0039016118 0 -0.0041
0.0017007025 0.00019996239 0.0015
0.0005002066 0.0038992667 -0.0040000002
0.00010004132 0.00069986843 -4.3478263e-11
0.0013005373 0.0036993043 -0.0038000001
-0.00090037193 0.0037992855 -0.0102
0.0020008264 -0.0033993607 -0.0072000003
-0.003701529 -0.0012997556 -0.0023000001
-0.0005002066 -0.0024995301 -0.010600001
-0.0018007439 -0.00019996239 0.0017
0.0017007025 -0.0035993231 -0.0055
-0.0039016118 0.00019996239 -0.0051000002
-0.0038015703 -0.00039992479 -0.00050000002
0.0028011571 0.0027994737 -0.0057000001
-0.0005002066 0.0037992855 -0.0063
-0.0015006199 -0.0035993231 -0.0052
-0.00090037193 -0.00049990602 -0.0107
-0.0039016118 -0.00079984957 -0.0098999999
-0.0039016118 -0.00069986843 -0.010100001
0.00030012397 -0.0035993231 -0.010600001
0.0017007025 -0.0034993419 -0.0012000001
-0.0024009917 0.00029994361 -4.3478263e-11
-0.0039016118 0.00019996239 -0.0039000001
-0.0039016118 -0.00039992479 -0.0027000001
-0.0039016118 -0.00029994361 -0.0045000003
-0.0030012398 -0.0024995301 -0.0024000001
0.0028011571 0.0027994737 -0.0037
0.0019007851 -0.0034993419 -0.0071
-0.0021008679 0.0032993795 -0.0046999999
-0.0038015703 -0.0011997744 -0.0104
0 -0.0038992667 -0.0055
-0.0033013637 -0.00029994361 -0.00030000004
-0.0030012398 0.0025995113 -0.0068999999
-0.0038015703 -0.00099981204 -0.0098000001
0.0024009917 0.0030994173 -0.0055
-0.003701529 0.0012997556 -0.0020000001
0.0015006199 -0.0018996428 -4.3478263e-11
-0.0028011571 -0.0024995301 -0.001
0.0039016118 -0.00049990602 -0.0053000003
0.00090037193 0.0037992855 -0.0093999999
-0.0015006199 0.0035993231 -0.0093
-0.0008003306 0.0037992855 -0.0075000003
-0.0039016118 9.9981196e-05 -0.0079000005
0.0012004959 -0.0037992855 -0.0059000002
0.0032013224 -0.0020996053 -0.00050000002
0.0039016118 9.9981196e-05 -0.0070000002
0.0026010745 0.0029994361 -0.0096000005
0.0014005785 -0.0036993043 -0.0044
-0.0017007025 0.0026994925 -0.010600001
-0.0010004132 -0.00089983077 -0.0107
0.0038015703 0.0011997744 -0.0038000001
-0.0038015703 -0.00089983077 -0.0026
0.0008003306 -0.0037992855 -0.0092000002
-0.0016006612 -0.00089983077 -0.00020000005
0.0027011158 0.0028994549 -0.0104
-0.00030012397 -0.0016996803 -4.3478263e-11
0.0004001653 -0.0037992855 -0.0098999999
0.0038015703 0.0011997744 -0.0103
-0.0027011158 -0.0028994549 -0.0045000003
-0.0028011571 -0.0026994925 -0.0033
-0.0028011571 -0.0027994737 -0.0075000003
0.0034014049 -0.0019996241 -0.0099999998
-0.0028011571 0.0011997744 -0.010600001
-0.0032013224 0.0022995677 -0.0073000002
0.0015006199 -0.00069986843 -4.3478263e-11
0.0031012811 0.0023995489 -0.0075000003
-0.0013005373 -0.0036993043 -0.0090000005
0.0012004959 -0.0012997556 -4.3478263e-11
0.00090037193 -0.0026994925 -0.00030000004
0.0018007439 0.0034993419 -0.0083999997
-0.0038015703 -0.00089983077 -0.0055
-0.0004001653 0.0016996803 -0.010600001
0.0039016118 0.00069986843 -0.0093
0.0010004132 0.0033993607 -0.010600001
0.0008003306 0.0038992667 -0.0104
0.0035014465 -0.0017996615 -0.0028000001
0.0028011571 -0.0027994737 -0.0074
-0.00030012397 -0.0038992667 -0.0087000001
0.0019007851 0.0034993419 -0.0071
-0.003701529 0.00049990602 -0.00030000004
-0.0033013637 0.0021995865 -0.0046999999
-0.0023009505 -0.0030994173 -0.00060000003
0.0024009917 -0.00019996239 -0.00020000005
0.0034014049 0.0018996428 -0.0105
-0.0016006612 -0.0035993231 -0.0097000003
0.00090037193 -0.0025995113 -0.00020000005
-0.0016006612 0.0034993419 -0.00060000003
0.0039016118 0.00059988722 -0.0086000003
-0.0038015703 0.0010997932 -0.0049000001
0.0019007851 0.0017996615 -0.00020000005
-0.0019007851 -0.00029994361 -0.00010000005
0.0032013224 0.0022995677 -0.0099999998
-0.00010004132 0.00069986843 -0.0107
0.0038015703 0.0010997932 -0.0078000003
-0.00010004132 0.0038992667 -0.0082999999
0.00010004132 -0.0038992667 -0.0068000001
0.00060024793 0.0038992667 -0.0027000001
0.00010004132 0.0035993231 -0.010600001
0.00070028927 -0.00079984957 -0.0107
0.0021008679 -0.0032993795 -0.0043000001
-0.0017007025 0.0035993231 -0.0064000003
-0.0014005785 0.0022995677 -0.00020000005
0.0021008679 0.00069986843 -4.3478263e-11
0.0033013637 -0.0020996053 -0.0070000002
-0.0030012398 0.0025995113 -0.0042000003
0.0012004959 -0.0037992855 -0.0102
-0.0035014465 0.0016996803 -0.0012000001
-0.0029011983 0.0026994925 -0.0062000002
0.0022009092 0.00089983077 -0.010600001
0.003701529 9.9981196e-05 -0.00070000003
0.0026010745 0.0029994361 -0.0064000003
0.00090037193 -0.0037992855 -0.0031000001
-0.0018007439 -0.0034993419 -0.0036000002
-0.0027011158 0.0022995677 -0.00030000004
-0.0021008679 -0.0032993795 -0.0049000001
-0.0018007439 0.0034993419 -0.0068000001
0.0019007851 9.9981196e-05 0.0026
0.0038015703 0.0010997932 -0.0104
0.0038015703 -0.00079984957 -0.0105
-0.0039016118 -9.9981196e-05 -0.0095000006
-0.00090037193 0.0019996241 -4.3478263e-11
0.00030012397 0.0037992855 -0.0072000003
0.0039016118 0.00059988722 -0.0054000001
0.0039016118 -9.9981196e-05 -0.0068000001
0.0039016118 0.00059988722 -0.0034
-0.0039016118 0.00039992479 -0.0104
0.0016006612 -0.0035993231 -0.0087000001
-0.00070028927 0.00059988722 -0.00010000005
-0.0032013224 -0.0022995677 -0.0018000001
0.0033013637 0.0021995865 -0.0057999999
0.0027011158 0.0028994549 -0.0018000001
-0.0022009092 0.0021995865 -0.010600001
0.0021008679 0.0032993795 -0.0097000003
0.0033013637 0.0019996241 -0.0105
-0.00070028927 0.0035993231 -0.010600001
-0.0030012398 -0.0024995301 -0.0016000001
0.0023009505 0.0031993983 -0.0070000002
-0.0019007851 -0.00089983077 -0.00020000005
0.0019007851 -0.0034993419 -0.0099999998
0.0036014877 0.00069986843 -0.00090000004
0.00060024793 0.0038992667 -0.0039000001
-0.0020008264 -0.0030994173 -0.001
-0.003701529 -0.0012997556 -0.0096000005
0.0039016118 -0.00029994361 -0.0092000002
0.0034014049 0.0018996428 -0.0075000003
-0.0012004959 -0.0037992855 -0.0049000001
-0.0018007439 0.0034993419 -0.0061000003
-0.0019007851 0.0033993607 -0.0076000001
-0.0039016118 0 -0.0090000005
-0.00060024793 -0.0026994925 -0.010600001
-0.0039016118 0 -0.0099999998
-0.0012004959 -0.0037992855 -0.0081000002
-0.0019007851 -0.0013997369 -0.010600001
-0.0036014877 0.0016996803 -0.0054000001
-0.0015006199 0.0017996615 -4.3478263e-11
0.0031012811 -0.0023995489 -0.0049000001
0.0039016118 -0.00079984957 -0.0095000006
0.003701529 -0.0013997369 -0.0090000005
0.0016006612 -9.9981196e-05 0.0023000001
0.00090037193 -0.0037992855 -0.0098000001
0.0038015703 0.0011997744 -0.0056000003
0.00090037193 -0.0029994361 -0.010600001
0.0033013637 -0.0020996053 -0.0104
-0.0004001653 -0.0038992667 -0.0025000002
0.0039016118 -0.00079984957 -0.0051000002
0.0031012811 0.0023995489 -0.0060000001
-0.00090037193 0.0037992855 -0.0099999998
0.0034014049 -0.0019996241 -0.0024000001
0.0039016118 -0.00069986843 -0.0102
-0.0023009505 -0.0031993983 -0.0070000002
0.0036014877 -0.0014997181 -0.0016000001
0.0012004959 -0.0030994173 -0.00030000004
0 -0.0038992667 -0.0031000001
-0.0008003306 0.0022995677 -4.3478263e-11
-0.003701529 -9.9981196e-05 -0.00030000004
-0.0038015703 -0.00099981204 -0.0086000003
-0.0038015703 0.0010997932 -0.0055
0.0010004132 -0.0037992855 -0.0065000001
-0.0008003306 -0.0037992855 -0.0097000003
-0.0035014465 0.0017996615 -0.0057000001
-0.0031012811 0.0024995301 -0.0088999998
0 0.0018996428 -0.010600001
-0.00090037193 -0.0036993043 -0.0105
0.00060024793 0.0025995113 -0.010600001
-0.00010004132 0.00019996239 -4.3478263e-11
-0.0021008679 0.0032993795 -0.0074
-0.0021008679 0.0032993795 -0.0096000005
0.0039016118 0.00059988722 -0.0041
0.0019007851 -0.0019996241 -0.010600001
-0.0028011571 0.00049990602 -0.010600001
-0.0038015703 0.00089983077 -0.0082
-0.00070028927 -0.0013997369 -0.010600001
-0.0014005785 0.0036993043 -0.0068000001
-0.0017007025 -0.00029994361 9.9999961e-05
-0.0019007851 -0.0034993419 -0.0018000001
0.0019007851 0.0023995489 -0.00030000004
-0.0028011571 0.0027994737 -0.0049999999
0.0010004132 -0.0036993043 -0.0011000001
-0.0004001653 0.0038992667 -0.0068000001
-0.00090037193 0.0036993043 -0.0011000001
0.0004001653 0.00069986843 -4.3478263e-11
0.0038015703 9.9981196e-05 -0.00030000004
-0.0038015703 0.00099981204 -0.0053000003
0.00030012397 0.0038992667 -0.0054000001
0.0011004546 0.0037992855 -0.0092000002
-0.0010004132 -0.0026994925 -0.00030000004
-0.0004001653 -0.0038992667 -0.0077
-0.0034014049 -0.0019996241 -0.0088999998
0.0014005785 -0.0035993231 -0.00040000005
0.00030012397 0.0038992667 -0.0016000001
-0.00010004132 0.0024995301 -4.3478263e-11
0.0013005373 -0.00019996239 -0.00010000005
-0.0030012398 0.0022995677 -0.010600001
0.0035014465 -0.0017996615 -0.0068999999
-0.0013005373 0.0036993043 -0.0061000003
0.0026010745 -0.0028994549 -0.0013000001
0.0036014877 -0.0014997181 -0.0038000001
-0.0039016118 0.00079984957 -0.0037
0.0014005785 -0.0017996615 -0.010600001
0.0036014877 0.0014997181 -0.0065000001
0.002501033 0.0029994361 -0.0023000001
-0.0017007025 0.0034993419 -0.0057999999
0.0039016118 -0.00019996239 -0.0071
-0.0031012811 0.0024995301 -0.0076000001
-0.00010004132 -0.0029994361 -0.010600001
-0.0030012398 -0.0024995301 -0.0065000001
0.0035014465 -0.0017996615 -0.0022
-0.002501033 0.0026994925 -0.010600001
-0.0004001653 0.0037992855 -0.0104
0.0005002066 -0.0037992855 -0.0051000002
-0.0017007025 0.0035993231 -0.0053000003
0.00070028927 0.0038992667 -0.0046999999
-0.0039016118 -9.9981196e-05 -0.0082
0.0010004132 -0.0037992855 -0.0104
-0.0008003306 0.0033993607 -0.010600001
-0.0035014465 0.00029994361 -0.010600001
-0.0022009092 0.00089983077 -4.3478263e-11
0.0030012398 0.0024995301 -0.0064000003
0.0039016118 -0.00029994361 -0.0090000005
0.0019007851 0.00019996239 0.0022
0.0020008264 0.0033993607 -0.0068000001
0.0039016118 -0.00069986843 -0.0018000001
0.0039016118 0.00029994361 -0.0098999999
-0.0027011158 0.0025995113 -0.010600001
-0.002501033 -0.0030994173 -0.0059000002
-0.00030012397 -0.0015996991 -0.010600001
-0.003701529 -0.0012997556 -0.0057000001
0.0031012811 -0.0024995301 -0.0019
0.0005002066 0.0025995113 -0.010600001
0.00030012397 -0.0032993795 -0.010600001
-0.0010004132 -0.0037992855 -0.0039000001
0.0023009505 -0.0031993983 -0.0074
0.0018007439 0.0020996053 -0.00020000005
-0.0035014465 0.0018996428 -0.0062000002
0.0010004132 0.0037992855 -0.0090000005
-0.0019007851 0.00099981204 -4.3478263e-11
0.0022009092 0.0032993795 -0.0083999997
0.0005002066 0.0037992855 -0.00050000002
-0.0008003306 0 -4.3478263e-11
0.0030012398 -0.0024995301 -0.0080000004
0.0020008264 -0.0033993607 -0.0077
-0.0010004132 -0.0037992855 -0.0031000001
-0.0038015703 -0.0011997744 -0.0016000001
-0.0039016118 9.9981196e-05 -0.0062000002
-0.0020008264 -0.0032993795 -0.0020000001
-0.0013005373 -0.0036993043 -0.0056000003
-0.0014005785 -0.0022995677 -0.010600001
0.00060024793 0.0031993983 -0.00030000004
0.0017007025 0.00019996239 0.0011
-0.0030012398 0.0025995113 -0.0097000003
0.0010004132 -0.0014997181 -4.3478263e-11
0.0019007851 0.00019996239 0.0017
0.0012004959 0.0034993419 -0.00090000004
-0.0004001653 -0.0038992667 -0.0098999999
0.0039016118 -0.00079984957 -0.0015
0.0033013637 0.0020996053 -0.0023000001
-0.0019007851 -0.00049990602 -0.010600001
0.00090037193 0.0037992855 -0.0071
-0.0019007851 -0.0034993419 -0.0041
0.0038015703 0.00099981204 -0.0090000005
-0.0038015703 -0.00019996239 -0.00030000004
-0.0036014877 -0.0015996991 -0.0072000003
-0.0018007439 -0.0011997744 -4.3478263e-11
-0.0027011158 0.0028994549 -0.0025000002
-0.0008003306 0.0030994173 -0.00030000004
0.0030012398 0.0024995301 -0.0044
0.0030012398 9.9981196e-05 -0.010600001
-0.0038015703 -0.0011997744 -0.00040000005
0.0035014465 0.0018996428 -0.0016000001
-0.0029011983 -0.00099981204 -0.010600001
-0.0024009917 0.0023995489 -0.010600001
0.0011004546 -0.0037992855 -0.0085000005
-0.0014005785 0.0036993043 -0.0071
-0.0038015703 0.0011997744 -0.0018000001
-0.0021008679 -0.0017996615 -0.00020000005
0.0039016118 -0.00039992479 -0.0019
-0.0017007025 0.0034993419 -0.0068999999
-0.0030012398 -0.0012997556 -0.010600001
-0.00010004132 -0.0038992667 -0.0087000001
0.0039016118 0.00059988722 -0.0025000002
0.0019007851 -0.0034993419 -0.0041
-0.0026010745 0.0012997556 -0.00030000004
0.0026010745 0.0027994737 -0.0105
-0.0039016118 -0.00019996239 -0.0072000003
0.0034014049 -0.0019996241 -0.0059000002
-0.0032013224 0.0022995677 -0.0052
-0.0036014877 -0.0016996803 -0.0105
-0.0010004132 0.0036993043 -0.0035000001
-0.00030012397 0.0037992855 -0.00040000005
-0.00020008265 -0.0022995677 -4.3478263e-11
0.0035014465 -0.00019996239 -0.010600001
0.0014005785 -0.0036993043 -0.0078000003
-0.00090037193 0.0033993607 -0.00030000004
0.0016006612 0.00019996239 0.0023000001
-0.0024009917 0.0030994173 -0.0082999999
-0.0029011983 0.0026994925 -0.0102
0.0011004546 -0.0030994173 -0.00030000004
0.0019007851 0.0033993607 -0.00040000005
-0.0023009505 0.0011997744 -0.010600001
-0.002501033 -0.0016996803 -0.010600001
0.0033013637 -0.0021995865 -0.0098999999
-0.0039016118 -0.00059988722 -0.0086000003
0.00020008265 -0.0023995489 -4.3478263e-11
0.00070028927 -0.0037992855 -0.0068000001
0.0005002066 -0.0020996053 -0.010600001
-0.0017007025 -0.0021995865 -0.010600001
0.0005002066 0.0038992667 -0.0053000003
-0.0038015703 0.00019996239 -0.0105
-0.0008003306 0.0037992855 -0.0097000003
-0.00090037193 0.0037992855 -0.0075000003
-0.0033013637 0.0021995865 -0.0027000001
0.00090037193 0.0033993607 -0.00030000004
-0.0004001653 0.0037992855 -0.0091000004
-0.0022009092 0.00039992479 -4.3478263e-11
-0.0031012811 -0.0024995301 -0.0059000002
0.0016006612 0.00019996239 0.00049999997
-0.0031012811 0.0023995489 -0.003
-0.0033013637 -0.0020996053 -0.0090000005
-0.0031012811 -0.0024995301 -0.0077
-0.0039016118 9.9981196e-05 -0.0078000003
0.0033013637 0.0021995865 -0.0033
-0.0017007025 9.9981196e-05 0.00079999998
-0.003701529 -0.0012997556 -0.0088999998
0.003701529 0.0013997369 -0.0038000001
0.0012004959 -0.0025995113 -0.010600001
-0.0033013637 0.0020996053 -0.0038000001
0.0027011158 -0.0028994549 -0.0098999999
0.0017007025 0.0035993231 -0.0053000003
0.0011004546 -0.0023995489 -4.3478263e-11
-0.0035014465 0.0018996428 -0.0063
-0.0028011571 0.0027994737 -0.0103
-0.0030012398 -0.0025995113 -0.0086000003
0.0013005373 -0.0036993043 -0.0072000003
-0.0038015703 0.0010997932 -0.0077
-0.0015006199 0.0035993231 -0.0015
0.0023009505 0.00079984957 -0.010600001
0.0035014465 -0.0012997556 -0.0105
0.0013005373 0.0036993043 -0.0087000001
0.00030012397 -0.0037992855 -0.0031000001
0.003701529 0.0012997556 -0.0090000005
0.0033013637 0.00039992479 -0.010600001
-0.0014005785 -0.0036993043 -0.0049999999
-0.00060024793 0.0038992667 -0.0099999998
0.0039016118 -0.00029994361 -0.0036000002
-0.00060024793 -0.0031993983 -0.010600001
-0.0021008679 0.0032993795 -0.0079000005
0.002501033 0.0029994361 -0.00030000004
0.0020008264 -0.0025995113 -0.00030000004
0.0031012811 0.0022995677 -0.0011000001
