# .PCD v0.7 - Point Cloud Data file format
VERSION 0.7
FIELDS x y z
SIZE 4 4 4
TYPE F F F
COUNT 1 1 1
WIDTH 1179
HEIGHT 1
VIEWPOINT 0 0 0 1 0 0 0
POINTS 1179
DATA ascii
-0.006220988 -0.0086949859 -0.0057760049
0.0060457489 -0.0072897356 -0.0029676831
-0.0069219442 -0.0030739848 -0.0054249647
-0.0020152496 0.0086949859 -0.0036697634
-0.0046438361 0.0074653919 -0.0045473641
0.004293358 0.007816704 -0.0054249647
0.004468597 0.007816704 -0.006127045
-0.0014895323 -0.00079045322 -0.00068592199
-0.00026285864 -0.003249641 -0.015429609
0.00043809775 -0.0083436733 -0.0078822458
-0.0021904886 -0.002020047 -0.0010369621
0.0056952708 -0.0086949859 -0.0056004846
-0.00096381502 0.0085193291 -0.0040208036
-8.7619548e-05 0.0014930783 -0.00068592199
0.0072724223 -0.0011417657 -0.0075312057
0.0058705099 0.0023713596 -0.013498888
-0.0063962271 -0.0076410482 -0.0033187233
-0.0076229009 -0.0074653919 -0.006653605
0.0049943142 0.0081680166 -0.0045473641
0.0053447923 -0.0060601416 -0.0020900827
-8.7619548e-05 -0.0079923607 -0.0091108866
0.00043809775 0.002020047 -0.00068592199
-0.0011390541 0.0086949859 -0.0045473641
-0.0041181189 0.0064114542 -0.014552009
-0.0070971833 -0.00079045322 -0.0056004846
0.0063962271 -0.006938423 -0.0056004846
-0.0035924015 -0.0086949859 -0.011568168
-0.004468597 0.0018443909 -0.0015635224
0.0049943142 0.0027226722 -0.0020900827
-0.002540967 0.0085193291 -0.006653605
-0.00078857591 -0.0014930783 -0.00051040185
-0.00026285864 -0.0086949859 -0.014025449
0.00043809775 0.0002634844 -0.015429609
-0.0056952708 0.0062357979 -0.0024411229
-0.0060457489 -0.006938423 -0.011568168
-0.0035924015 -0.0086949859 -0.0085843261
-0.0020152496 0.0072897356 -0.0089353668
-0.0039428798 0.0085193291 -0.0012124822
-0.002716206 0.0072897356 -0.0043718438
-0.0028914451 0.0072897356 -0.0027921631
8.7619548e-05 0.004479235 -0.0012124822
-0.004293358 -0.0083436733 -0.01420097
-0.004293358 0.007816704 -0.0057760049
0.00061333686 -0.0086949859 -0.0085843261
0.0028914451 0.0079923607 -0.0033187233
0.0077981399 0.0053575165 -0.0098129669
-0.0048190751 -0.0086949859 -0.0045473641
-0.0013142932 -0.0085193291 -0.008759846
-0.0014895323 -0.0086949859 -0.0024411229
0.0013142932 -0.0086949859 -0.012621288
-0.0016647715 -0.0081680166 -0.008759846
-0.004293358 0.0011417657 -0.014025449
-0.0014895323 -0.0085193291 -0.0084088063
-0.0014895323 -0.0081680166 -0.0096374471
-0.0053447923 -0.0074653919 -0.011743688
0.0020152496 -0.0071140793 -0.01525409
-0.0051695532 -0.0085193291 -0.0024411229
-0.0039428798 -0.0072897356 -0.0022656028
-0.004293358 0.0048305476 -0.0012124822
0.00043809775 -0.0011417657 -0.00051040185
0.0051695532 0.007816704 -0.0063025649
-0.0039428798 0.0083436733 -0.0022656028
-0.0023657279 0.0083436733 -0.0078822458
0.0070971833 -0.0071140793 -0.0048984042
-0.002716206 -0.0086949859 -0.012270248
-0.0067467052 -0.0067627667 -0.008759846
-0.0030666841 -0.0046548913 -0.0012124822
-0.0065714661 -0.0034252973 -0.011041608
0.0041181189 0.0085193291 -0.006127045
0.0051695532 -0.0086949859 -0.010164007
-0.0070971833 -0.0058844853 -0.0050739241
0.002540967 0.0072897356 -0.0036697634
0.0023657279 -0.0043035788 -0.0012124822
-0.0018400105 -0.0081680166 -0.0063025649
-0.00026285864 -0.0079923607 -0.0057760049
-0.0035924015 0.005708829 -0.014552009
-0.0051695532 -0.004479235 -0.013323369
-0.0037676406 -0.00043914068 -0.014552009
0.0076229009 0.0036009536 -0.0057760049
-0.0072724223 -0.0011417657 -0.0073556853
0.0035924015 -0.0086949859 -0.011743688
0.0067467052 -0.0085193291 -0.0073556853
-0.004468597 0.0067627667 -0.014025449
-0.0032419234 0.0072897356 -0.0036697634
0.0058705099 0.0062357979 -0.012621288
-0.004293358 0.0071140793 -0.0094619263
-0.004293358 0.0067627667 -0.014025449
0.0039428798 0.0081680166 0.0014203192
-0.0069219442 -0.0067627667 -0.0075312057
0.0074476618 0.0060601416 -0.010866087
0.0049943142 -0.0074653919 -0.013849929
0.00078857591 0.0065871105 -0.01525409
0.00078857591 -0.0081680166 -0.0064780852
-0.0037676406 0.0083436733 -0.0017390426
-0.0060457489 -0.0060601416 -0.012621288
0.0065714661 0.0023713596 -0.011919208
0.0028914451 -0.00096610951 -0.014552009
-0.0013142932 -0.0081680166 -0.0052494444
0.0056952708 -0.0046548913 -0.0029676831
0.0041181189 0.0039522662 -0.0012124822
-0.0035924015 0.0039522662 -0.0012124822
-0.0058705099 -0.0071140793 -0.0045473641
-0.0076229009 -0.004479235 -0.0070046452
-0.0072724223 -0.0085193291 -0.010690567
0.0016647715 0.0081680166 -0.0033187233
0.0048190751 -0.0071140793 -0.014025449
0.0049943142 0.0021957033 -0.01420097
0.0076229009 -0.0083436733 -0.0059515247
0.00096381502 0.0060601416 -0.01525409
-0.0032419234 0.0083436733 -0.0017390426
-0.0046438361 -0.0028983285 -0.0015635224
0.0060457489 8.7828135e-05 -0.0036697634
-0.0035924015 -0.0072897356 -0.0012124822
0.0013142932 -0.0034252973 -0.00051040185
0.0041181189 0.0074653919 -0.0052494444
0.0028914451 0.0086949859 -0.0070046452
-0.0051695532 0.0023713596 -0.013498888
0.0035924015 0.0058844853 -0.014376489
0.0074476618 0.00061479694 -0.0075312057
-0.002716206 0.0064114542 -0.0012124822
0.0014895323 -0.00061479694 -0.01525409
-0.004293358 0.0058844853 -0.014552009
0.0013142932 0.0072897356 -0.0089353668
-0.00078857591 -0.0086949859 -0.0068291253
0.0041181189 -0.003249641 -0.0013880023
-0.00078857591 0.0076410482 -0.0082332864
-0.0063962271 -0.00061479694 -0.011568168
0.0060457489 -0.0053575165 -0.0031432032
-0.004468597 0.0016687346 -0.0019145627
0.0034171625 -0.0018443909 -0.0012124822
-0.0074476618 0.00096610951 -0.0064780852
-0.004468597 -0.0048305476 -0.014025449
0.0032419234 0.0072897356 -0.0031432032
-0.0028914451 -0.0086949859 -0.012972329
0.0034171625 0.0079923607 -0.0048984042
-0.00078857591 0.0086949859 -0.0057760049
-0.0039428798 0.006938423 -0.013498888
-0.0058705099 0.006938423 -0.011217128
-0.0074476618 -0.004479235 -0.0078822458
-0.0013142932 0.0072897356 -0.0098129669
-0.00043809775 0.0086949859 -0.0034942434
-0.0055200313 -0.0034252973 -0.0029676831
0.0077981399 -0.0058844853 -0.0089353668
-0.0016647715 -0.0086949859 -0.0059515247
0.0039428798 0.0081680166 0.0024734398
0.0011390541 0.00061479694 -0.01525409
0.0011390541 0.0072897356 -0.0036697634
0.0023657279 -0.0086949859 -0.0098129669
-0.0060457489 0.0060601416 -0.010339527
0.0053447923 0.0058844853 -0.0020900827
-0.0030666841 0.0076410482 -0.0071801655
0.0046438361 -0.0016687346 -0.013849929
0.0079733785 0.0051818602 -0.0084088063
0.0028914451 0.0072897356 -0.0015635224
0.0028914451 0.0037766099 -0.00086144207
0.0079733785 0.002020047 -0.0094619263
0.0070971833 -0.0058844853 -0.0045473641
0.0039428798 0.0016687346 -0.014376489
-0.0067467052 0.00096610951 -0.011568168
0.0067467052 0.0064114542 -0.011919208
0.0049943142 8.7828135e-05 -0.013498888
-0.0046438361 0.0083436733 -0.0054249647
0.0055200313 0.006938423 -0.010866087
0.0046438361 -0.0086949859 -0.0057760049
-0.0039428798 0.0079923607 -0.0015635224
-0.0048190751 -0.003249641 -0.013674409
0.006220988 -0.0023713596 -0.0038452838
-0.0076229009 -0.0085193291 -0.0094619263
-0.0041181189 -0.0086949859 -0.0038452838
-0.0074476618 -0.004479235 -0.0080577657
0.0048190751 0.0072897356 -0.0070046452
0.002716206 -0.0079923607 -0.0013880023
-0.00043809775 0.0064114542 -0.0012124822
0.0076229009 -0.0079923607 -0.0098129669
0.0060457489 0.0050062039 -0.012972329
0.0014895323 0.0072897356 -0.0031432032
0.00043809775 0.0060601416 -0.0012124822
0.0014895323 -0.0086949859 -0.0099884868
-0.002540967 0.0067627667 -0.0012124822
0.0011390541 -0.0081680166 -0.014552009
-0.0048190751 -0.0021957033 -0.002616643
0.0016647715 -0.0086949859 -0.0033187233
0.0056952708 0.0051818602 -0.0022656028
0.0035924015 0.0025470159 -0.0010369621
-0.0069219442 -0.0018443909 -0.0063025649
-0.0035924015 0.0051818602 -0.014552009
-0.0028914451 -0.00043914068 -0.014727529
0.0067467052 0.0014930783 -0.011041608
-0.0079733785 0.0036009536 -0.0082332864
0.0079733785 0.003249641 -0.0064780852
0.0016647715 0.0072897356 -0.0017390426
0.0053447923 0.0072897356 -0.0048984042
-0.0041181189 0.0074653919 -0.0063025649
-0.00043809775 -0.005708829 -0.00051040185
-0.0037676406 0.0071140793 -0.0019145627
-0.0051695532 0.0014930783 -0.0024411229
-0.004293358 -0.0025470159 -0.0020900827
-0.0072724223 0.006938423 -0.010515047
8.7619548e-05 0.007816704 -0.0059515247
-0.0046438361 0.007816704 -0.0045473641
-0.00096381502 -0.0023713596 -0.00051040185
0.0021904886 0.0072897356 -0.0031432032
-0.0076229009 0.00061479694 -0.0080577657
-0.0037676406 -0.0071140793 -0.014552009
-0.0072724223 -0.00096610951 -0.0077067255
-0.0023657279 0.0072897356 -0.012621288
0.0065714661 -0.0053575165 -0.012094728
-0.0041181189 0.005708829 -0.014552009
-0.0048190751 -0.0086949859 -0.0047228839
-0.00026285864 -0.0079923607 -0.0084088063
-0.00061333686 -0.0086949859 -0.0052494444
-0.0035924015 0.0067627667 -0.014552009
0.0020152496 0.0016687346 -0.01525409
0.0074476618 -0.003249641 -0.008759846
-0.0058705099 -0.00079045322 -0.012270248
-0.0053447923 0.0071140793 -0.0089353668
0.0020152496 -0.0011417657 -0.01490305
-0.0013142932 0.007816704 -0.0033187233
0.0065714661 -0.0074653919 -0.0098129669
-0.0016647715 0.0030739848 -0.0010369621
0.0032419234 0.0053575165 -0.014552009
-0.0063962271 0.0072897356 -0.0054249647
-0.0077981399 0.0018443909 -0.0070046452
0.0074476618 -0.0083436733 -0.010690567
-0.0055200313 -0.0043035788 -0.012972329
-0.006220988 -0.0085193291 -0.011217128
-0.0079733785 0.0046548913 -0.0082332864
-0.0035924015 0.0074653919 -0.0089353668
-0.0074476618 -0.0050062039 -0.0064780852
8.7619548e-05 -0.007816704 -0.0012124822
-0.0067467052 -8.7828135e-05 -0.0050739241
-0.0039428798 0.0011417657 -0.014376489
0.0020152496 -0.0002634844 -0.00086144207
-0.0034171625 -0.00079045322 -0.014552009
8.7619548e-05 -0.0083436733 -0.0075312057
-0.0049943142 0.0074653919 -0.0054249647
0.0079733785 0.0025470159 -0.0077067255
0.002716206 -0.0014930783 -0.0010369621
0.0049943142 0.0002634844 -0.013498888
-0.0056952708 0.0062357979 -0.013323369
0.00061333686 0.0027226722 -0.00068592199
0.0032419234 -0.0086949859 -0.010866087
0.00026285864 0.0079923607 -0.0019145627
0.0023657279 -0.0085193291 -0.014727529
0.0063962271 -0.006938423 -0.0077067255
0.0069219442 -0.0011417657 -0.0098129669
-0.0020152496 0.007816704 -0.0034942434
0.002716206 -0.007816704 -0.014727529
0.0070971833 -0.00079045322 -0.0057760049
0.0039428798 -0.005708829 -0.014376489
-0.0034171625 0.0081680166 -0.0020900827
0.0049943142 0.0011417657 -0.0022656028
0.0074476618 0.00043914068 -0.0071801655
0.00026285864 -0.0072897356 -0.01525409
-0.0056952708 -0.0030739848 -0.012621288
-0.0063962271 0.0041279225 -0.012621288
-0.0048190751 0.0018443909 -0.013849929
-0.002716206 0.0085193291 -0.0019145627
0.0063962271 -0.00061479694 -0.011392647
0.006220988 -0.0072897356 -0.0089353668
0.0074476618 -0.0023713596 -0.008759846
0.0076229009 -0.0058844853 -0.0056004846
0.002540967 0.0086949859 -0.0033187233
-0.0048190751 0.0071140793 -0.0094619263
0.00096381502 -0.0086949859 -0.0054249647
-0.0023657279 -0.0086949859 -0.0052494444
0.004468597 -0.0011417657 -0.0020900827
0.0041181189 0.0055331727 -0.014552009
0.006220988 -0.0085193291 -0.0034942434
0.0051695532 -8.7828135e-05 -0.0024411229
-0.0076229009 -0.001317422 -0.0073556853
0.0049943142 0.0072897356 -0.008759846
0.0016647715 0.0083436733 -0.0027921631
0.0041181189 0.0079923607 -0.0012124822
0.0053447923 0.0071140793 -0.011041608
-0.0016647715 -0.0086949859 -0.0064780852
-0.00043809775 -0.0079923607 -0.0085843261
-0.0049943142 -0.0074653919 -0.0036697634
0.0079733785 0.0023713596 -0.0068291253
0.0074476618 0.0027226722 -0.010690567
-0.0032419234 -0.0086949859 -0.0099884868
0.0021904886 0.0086949859 -0.0045473641
-0.0021904886 -0.0030739848 -0.01490305
-0.0014895323 0.0076410482 -0.0082332864
0.0020152496 0.001317422 -0.01525409
0.00078857591 -0.0086949859 -0.013498888
-0.0060457489 0.0058844853 -0.012972329
-0.0046438361 0.0081680166 -0.0036697634
0.0074476618 -0.0064114542 -0.0052494444
0.0070971833 -0.0025470159 -0.0059515247
0.00043809775 -0.0086949859 -0.0027921631
8.7619548e-05 0.0053575165 -0.01525409
-0.00078857591 -0.0048305476 -0.01525409
-0.0074476618 0.0036009536 -0.0052494444
-0.0065714661 0.006938423 -0.0038452838
-0.006220988 0.0067627667 -0.011743688
-0.004293358 8.7828135e-05 -0.0013880023
0.0058705099 -0.0086949859 -0.0068291253
0.0058705099 0.0058844853 -0.002616643
-0.0016647715 -0.0041279225 -0.01525409
0.0013142932 0.007816704 -0.0059515247
-0.0076229009 -0.0083436733 -0.0096374471
0.0077981399 0.004479235 -0.0094619263
0.0077981399 0.00096610951 -0.0099884868
0.0079733785 0.0018443909 -0.0071801655
0.0018400105 0.0086949859 -0.0073556853
0.0011390541 0.0072897356 -0.0015635224
-0.002540967 -0.0086949859 -0.010339527
-0.0013142932 0.00043914068 -0.01525409
-0.0011390541 -0.003249641 -0.00051040185
0.0032419234 0.0072897356 -0.010339527
-0.0072724223 -0.0065871105 -0.010515047
0.0014895323 0.007816704 -0.0027921631
0.004293358 0.0053575165 -0.014552009
-0.0037676406 -0.0086949859 -0.0084088063
0.0021904886 0.0025470159 -0.0010369621
8.7619548e-05 -0.0053575165 -0.01525409
-0.0014895323 0.0081680166 -0.0020900827
-0.002540967 -0.0086949859 -0.0085843261
-0.0055200313 -0.0086949859 -0.011568168
0.0035924015 -0.002020047 -0.014552009
-0.0013142932 -0.0081680166 -0.0091108866
0.0069219442 0.00061479694 -0.010866087
0.0030666841 -0.0027226722 -0.014727529
-0.00061333686 0.007816704 -0.0022656028
0.00026285864 -0.0086949859 -0.0092864064
0.0048190751 -0.0060601416 -0.0017390426
-0.0065714661 0.0072897356 -0.0048984042
-0.0013142932 0.0086949859 -0.0050739241
0.0039428798 -0.0086949859 -0.0057760049
0.0020152496 0.0086949859 -0.0043718438
0.00078857591 0.0083436733 -0.0033187233
-0.0016647715 0.0018443909 -0.01525409
0.0049943142 -0.0011417657 -0.0024411229
0.0076229009 -0.0062357979 -0.0098129669
0.0058705099 0.0064114542 -0.002616643
0.0014895323 0.0072897356 -0.011041608
-0.0018400105 0.004479235 -0.01525409
-0.0051695532 -0.0036009536 -0.002616643
-0.00078857591 0.0046548913 -0.00086144207
0.0065714661 -0.0071140793 -0.011743688
0.0051695532 0.0071140793 -0.002616643
8.7619548e-05 -0.0083436733 -0.010515047
0.0069219442 -0.006938423 -0.0084088063
-0.0051695532 -0.0074653919 -0.013147849
0.00096381502 -0.0060601416 -0.015429609
0.0011390541 -0.007816704 -0.0084088063
-0.0076229009 0.0043035788 -0.010164007
0.0053447923 -0.00079045322 -0.012972329
0.0021904886 -0.0086949859 -0.0041963239
0.002540967 -0.0014930783 -0.014727529
0.0039428798 -0.0086949859 -0.0034942434
-0.0035924015 -0.0011417657 -0.0013880023
-0.002540967 0.007816704 -0.0033187233
0.00043809775 -0.0086949859 -0.006127045
0.0063962271 -0.0072897356 -0.0033187233
0.002716206 0.001317422 -0.0010369621
-0.0072724223 0.0002634844 -0.0063025649
0.006220988 -0.0071140793 -0.0082332864
0.0046438361 0.0055331727 -0.0015635224
0.0067467052 -0.0085193291 -0.006653605
-0.0072724223 -0.007816704 -0.0071801655
0.0055200313 0.003249641 -0.013323369
-0.004293358 0.0060601416 -0.0012124822
0.0072724223 -0.0072897356 -0.0050739241
0.0072724223 -0.0043035788 -0.010690567
0.0039428798 0.0081680166 0.0026489599
0.0032419234 0.0021957033 -0.014727529
0.006220988 -0.00096610951 -0.011568168
-0.0030666841 0.0072897356 -0.0029676831
-0.006220988 0.0058844853 -0.012796808
-0.0049943142 -0.0086949859 -0.012972329
0.0077981399 -0.0050062039 -0.0071801655
-0.0039428798 0.0079923607 -0.0024411229
0.00061333686 -0.0086949859 -0.0031432032
-0.0076229009 0.0030739848 -0.010690567
0.00078857591 -0.0055331727 -0.00051040185
-0.0035924015 0.0071140793 -0.0017390426
0.0048190751 0.0011417657 -0.013674409
-0.0013142932 -0.0062357979 -0.01525409
0.0021904886 0.0076410482 -0.0073556853
0.004468597 -0.0083436733 -0.0020900827
-0.0048190751 -0.007816704 -0.0020900827
0.0077981399 0.0067627667 -0.0089353668
0.0048190751 0.0081680166 -0.0077067255
-0.0070971833 0.0062357979 -0.011041608
-0.0028914451 0.0048305476 -0.014727529
-0.0046438361 0.0023713596 -0.014025449
-0.0053447923 -0.0071140793 -0.0036697634
0.006220988 0.00061479694 -0.0038452838
-0.0048190751 0.0081680166 -0.0040208036
-0.0032419234 -0.0086949859 -0.012445768
-0.0018400105 -0.0085193291 -0.0096374471
0.0058705099 0.006938423 -0.012972329
0.0051695532 -0.0034252973 -0.002616643
8.7619548e-05 -0.0086949859 -0.0063025649
0.0023657279 0.0072897356 -0.012621288
-0.0079733785 -0.003249641 -0.0080577657
0.0037676406 -0.002020047 -0.014376489
-0.0063962271 -0.0037766099 -0.011568168
-0.0076229009 0.0062357979 -0.0059515247
0.0023657279 0.0086949859 -0.0054249647
0.0013142932 -0.0071140793 -0.00051040185
0.0051695532 -0.00096610951 -0.0027921631
0.00043809775 0.0086949859 -0.006127045
0.00078857591 -0.0081680166 -0.0012124822
-0.0063962271 -0.0025470159 -0.0047228839
-0.0053447923 -0.0076410482 -0.0034942434
0.0070971833 -0.0036009536 -0.0054249647
-0.0077981399 -0.0065871105 -0.0070046452
0.0023657279 0.0072897356 -0.012445768
-0.0039428798 0.0043035788 -0.0010369621
-0.0069219442 -0.0002634844 -0.010866087
-0.00078857591 0.0081680166 -0.0045473641
-0.0018400105 0.0030739848 -0.0012124822
0.0039428798 -0.002020047 -0.01420097
0.0070971833 0.0046548913 -0.0041963239
0.0067467052 -0.006938423 -0.0071801655
0.0048190751 -0.0086949859 -0.0057760049
-0.0074476618 -0.0065871105 -0.0096374471
0.0065714661 0.0064114542 -0.012270248
-0.0069219442 -0.0027226722 -0.0098129669
0.00061333686 0.0079923607 -0.0027921631
0.0035924015 -0.0064114542 -0.0012124822
-0.0053447923 -0.0041279225 -0.012972329
0.0077981399 0.0055331727 -0.0063025649
0.0049943142 -0.0034252973 -0.013674409
0.002540967 -0.0055331727 -0.0012124822
0.0077981399 -0.0067627667 -0.0084088063
-0.0051695532 -0.0076410482 -0.012445768
-0.0041181189 0.0016687346 -0.014376489
0.0032419234 0.00096610951 -0.014552009
-0.0072724223 -0.0048305476 -0.0099884868
0.0065714661 0.00043914068 -0.011568168
-0.00096381502 0.0074653919 -0.0092864064
-0.0034171625 -0.0086949859 -0.0020900827
0.004468597 0.0071140793 -0.0020900827
-0.0070971833 -0.0002634844 -0.0094619263
0.0053447923 0.0067627667 -0.013147849
-0.0020152496 0.0072897356 -0.010515047
0.0056952708 0.0071140793 -0.0036697634
-0.0051695532 -0.005708829 -0.013674409
-0.0069219442 -0.0064114542 -0.0041963239
0.0077981399 -0.0083436733 -0.008759846
0.0053447923 -0.0014930783 -0.0031432032
-0.0049943142 -0.0074653919 -0.013147849
-0.0037676406 0.0083436733 -0.0019145627
-0.0020152496 0.007816704 -0.0082332864
0.0058705099 -0.0055331727 -0.0029676831
-0.0070971833 0.0002634844 -0.010515047
-0.0014895323 0.007816704 -0.0022656028
-0.0053447923 0.0065871105 -0.010866087
-0.0014895323 -0.0025470159 -0.01507857
-0.00043809775 0.0086949859 -0.0024411229
-0.0018400105 -0.0058844853 -0.0010369621
0.0076229009 -0.007816704 -0.010164007
0.0046438361 0.0014930783 -0.0015635224
0.00043809775 0.0037766099 -0.0010369621
-0.0023657279 0.0053575165 -0.0012124822
0.0034171625 0.0028983285 -0.014552009
-0.0065714661 -0.0055331727 -0.011743688
-0.0034171625 0.0072897356 -0.0085843261
0.0070971833 -0.0079923607 -0.0045473641
-0.0020152496 -0.0083436733 -0.0082332864
0.0014895323 0.0051818602 -0.01525409
0.0079733785 0.0050062039 -0.0080577657
0.0021904886 -0.0086949859 -0.006653605
-0.0069219442 -0.0051818602 -0.0045473641
-0.0049943142 -0.0076410482 -0.0022656028
0.0034171625 -0.0002634844 -0.0013880023
0.0065714661 -0.006938423 -0.0034942434
-0.00061333686 0.0002634844 -0.015429609
0.0072724223 -0.00079045322 -0.0085843261
0.0065714661 0.0072897356 -0.0048984042
-0.0016647715 0.0086949859 -0.0045473641
-0.0063962271 -0.007816704 -0.010164007
0.00096381502 -0.0036009536 -0.01525409
-0.0058705099 -0.0048305476 -0.0033187233
-0.0077981399 0.0065871105 -0.0068291253
-0.0058705099 0.0071140793 -0.0041963239
-0.0030666841 0.007816704 -0.0040208036
-0.00078857591 -0.0086949859 -0.0034942434
-0.0037676406 -0.0064114542 -0.014552009
-0.0053447923 0.0043035788 -0.013498888
-0.0070971833 0.0058844853 -0.0043718438
0.0067467052 0.0027226722 -0.011568168
0.004468597 -0.0086949859 -0.0098129669
0.0011390541 -0.0086949859 -0.008759846
0.0048190751 -0.0085193291 -0.013498888
0.00026285864 0.0062357979 -0.01525409
-0.0056952708 -0.0085193291 -0.012270248
-0.0060457489 -0.0062357979 -0.0031432032
-0.0011390541 -0.0086949859 -0.0033187233
-0.0030666841 -0.0036009536 -0.0012124822
0.0028914451 -0.0086949859 -0.002616643
-0.0053447923 -0.0076410482 -0.012796808
-0.0069219442 0.0065871105 -0.011743688
0.00061333686 0.0079923607 -0.002616643
0.00061333686 0.0086949859 -0.0029676831
0.0011390541 0.007816704 -0.0043718438
0.004468597 0.007816704 -0.0043718438
0.002716206 0.0086949859 -0.0071801655
-0.004293358 -0.0034252973 -0.0013880023
-0.0056952708 8.7828135e-05 -0.0031432032
0.0032419234 0.0074653919 -0.0038452838
0.00078857591 -0.0062357979 -0.00051040185
0.00096381502 -0.0041279225 -0.015429609
0.0035924015 0.0074653919 -0.0063025649
-0.0016647715 -0.0081680166 -0.0089353668
0.0076229009 0.0039522662 -0.010690567
-0.0039428798 -0.00043914068 -0.0013880023
-0.0074476618 0.0011417657 -0.0091108866
0.0035924015 -0.0081680166 -0.01420097
-0.0046438361 0.0072897356 -0.0040208036
0.0023657279 -0.0086949859 -0.011743688
0.002716206 0.0072897356 -0.011217128
-0.004293358 0.0074653919 -0.006653605
-0.0060457489 0.0067627667 -0.011568168
-0.0016647715 0.0072897356 -0.011217128
0.0053447923 -0.0072897356 -0.011568168
0.0030666841 -0.0086949859 -0.0045473641
0.0013142932 -0.0079923607 -0.0052494444
0.0016647715 -0.001317422 -0.00068592199
-0.0055200313 -0.0071140793 -0.0040208036
0.0028914451 -0.0086949859 -0.0092864064
0.006220988 -0.0067627667 -0.0031432032
0.0013142932 0.0011417657 -0.00051040185
0.0018400105 0.0018443909 -0.00086144207
0.0063962271 -0.0085193291 -0.0040208036
-0.0035924015 0.007816704 -0.0059515247
-0.0058705099 0.0053575165 -0.013147849
-0.0063962271 0.0065871105 -0.0033187233
0.0056952708 -0.0011417657 -0.012445768
0.0074476618 0.0051818602 -0.0047228839
-0.0016647715 0.0074653919 -0.0084088063
-0.0048190751 -0.0085193291 -0.0022656028
-0.006220988 0.0074653919 -0.0073556853
-0.0067467052 0.0058844853 -0.0036697634
0.0072724223 0.0030739848 -0.010690567
0.00026285864 0.0074653919 -0.0073556853
-0.00061333686 -0.0083436733 -0.00086144207
0.0020152496 0.0014930783 -0.0010369621
-0.00026285864 -0.0018443909 -0.00051040185
-0.004468597 -8.7828135e-05 -0.0015635224
0.0053447923 0.0071140793 -0.0027921631
-8.7619548e-05 0.007816704 -0.0043718438
-0.00078857591 -0.00043914068 -0.015429609
0.0058705099 0.0018443909 -0.012796808
-0.0035924015 -0.0011417657 -0.014552009
-0.0011390541 0.0081680166 -0.002616643
-0.0011390541 -0.0086949859 -0.0071801655
0.0014895323 0.001317422 -0.00051040185
0.0070971833 -0.0072897356 -0.0099884868
-0.0048190751 -0.0028983285 -0.013674409
0.0039428798 0.0072897356 -0.010515047
-0.0067467052 -0.007816704 -0.0059515247
-0.0014895323 -0.0086949859 -0.0013880023
0.0028914451 8.7828135e-05 -0.0012124822
-0.0056952708 0.0051818602 -0.013323369
-0.0030666841 -0.0021957033 -0.014727529
0.0070971833 0.0058844853 -0.011217128
0.0074476618 -0.0060601416 -0.0048984042
0.0063962271 -0.0028983285 -0.011568168
-0.0076229009 -0.0085193291 -0.006127045
-0.006220988 -0.0034252973 -0.012094728
-0.0067467052 0.0028983285 -0.0038452838
0.0077981399 0.0067627667 -0.0092864064
0.0060457489 -0.0085193291 -0.0034942434
0.0021904886 0.0050062039 -0.00086144207
-0.0070971833 -0.0030739848 -0.006127045
0.0018400105 -0.0086949859 -0.0048984042
0.0020152496 -0.002020047 -0.014727529
0.0058705099 -0.0086949859 -0.0036697634
-0.002540967 0.0074653919 -0.0073556853
0.0058705099 0.0072897356 -0.006127045
-0.0039428798 -0.00061479694 -0.01420097
0.004293358 -0.0086949859 -0.0036697634
0.006220988 -0.0034252973 -0.0036697634
-0.0041181189 -0.0048305476 -0.014376489
0.00026285864 0.0030739848 -0.00086144207
-0.0028914451 -0.0086949859 -0.013498888
-0.00078857591 -0.0086949859 -0.0040208036
0.006220988 -0.0071140793 -0.0070046452
0.0020152496 -0.0076410482 -0.01525409
0.0072724223 0.0016687346 -0.0054249647
-0.0072724223 -0.0034252973 -0.0091108866
0.004293358 -0.0086949859 -0.0050739241
-0.006220988 -8.7828135e-05 -0.012094728
-0.0037676406 0.007816704 -0.0048984042
0.00078857591 -0.0076410482 -0.015429609
0.002540967 0.0086949859 -0.0020900827
-0.0046438361 0.0071140793 -0.012796808
-0.0051695532 0.006938423 -0.012270248
0.004293358 0.0085193291 -0.0050739241
0.0060457489 0.0041279225 -0.0027921631
0.0014895323 0.005708829 -0.01507857
0.0067467052 -0.005708829 -0.0038452838
-0.0041181189 -0.0086949859 -0.012270248
-0.0063962271 -0.0086949859 -0.0070046452
0.0014895323 0.0051818602 -0.0010369621
0.002716206 -0.006938423 -0.0012124822
0.0048190751 0.006938423 -0.013498888
-0.0058705099 -0.0067627667 -0.012796808
0.004293358 -0.0085193291 -0.0022656028
-0.0069219442 -0.0039522662 -0.0052494444
0.0030666841 -0.004479235 -0.0012124822
0.0076229009 0.0025470159 -0.010690567
0.002716206 0.0086949859 -0.0034942434
8.7619548e-05 -0.0079923607 -0.010164007
0.004293358 0.0046548913 -0.0013880023
-0.0074476618 0.0025470159 -0.0059515247
0.0023657279 0.0039522662 -0.0010369621
0.0060457489 -0.0086949859 -0.0082332864
0.002716206 -0.0021957033 -0.0012124822
0.0035924015 0.0079923607 -0.0063025649
0.0079733785 -0.0060601416 -0.0068291253
-0.0067467052 -0.00079045322 -0.0052494444
0.0063962271 -0.0072897356 -0.0047228839
-0.0063962271 -0.0065871105 -0.012270248
0.0014895323 0.007816704 -0.0071801655
-0.0020152496 0.0016687346 -0.0012124822
-0.0076229009 0.0011417657 -0.0073556853
0.0023657279 -0.0085193291 -0.014025449
-0.0032419234 0.007816704 -0.0057760049
-0.0035924015 0.0051818602 -0.01490305
8.7619548e-05 -0.0086949859 -0.0047228839
-0.00061333686 0.0079923607 -0.0017390426
-0.0079733785 0.0060601416 -0.0075312057
0.0067467052 -0.0085193291 -0.010164007
-0.0072724223 -0.0065871105 -0.008759846
-0.0056952708 0.0062357979 -0.0099884868
0.00061333686 -0.0002634844 -0.015429609
-0.0041181189 -0.0023713596 -0.0019145627
0.0079733785 0.0058844853 -0.0084088063
0.0037676406 0.0074653919 -0.0085843261
-0.004468597 0.002020047 -0.01420097
-0.0034171625 0.0011417657 -0.014552009
-0.0063962271 -0.0081680166 -0.0078822458
-0.00061333686 -0.0079923607 -0.0064780852
0.0079733785 0.0060601416 -0.008759846
-0.0018400105 0.0072897356 -0.013674409
0.0055200313 0.0067627667 -0.011041608
-0.00026285864 0.003249641 -0.01525409
0.0011390541 0.0062357979 -0.01525409
0.004468597 0.0074653919 -0.006127045
0.00061333686 0.007816704 -0.0059515247
0.00096381502 0.0086949859 -0.006127045
-0.0077981399 -0.0079923607 -0.0082332864
-0.0060457489 -0.0079923607 -0.0098129669
-0.0037676406 0.0079923607 -0.0036697634
0.0032419234 0.0037766099 -0.014552009
-0.0060457489 -0.0021957033 -0.0040208036
0.0014895323 0.007816704 -0.0050739241
0.00096381502 0.0074653919 -0.0052494444
-0.0023657279 0.0085193291 -0.0059515247
0.0058705099 -0.007816704 -0.002616643
-0.0011390541 -0.0081680166 -0.014376489
-0.0041181189 0.00061479694 -0.014376489
-0.0074476618 0.0064114542 -0.010164007
-0.0023657279 -0.0076410482 -0.01490305
-8.7619548e-05 0.0072897356 -0.0071801655
-0.0051695532 0.0067627667 -0.011217128
-0.0014895323 0.0039522662 -0.015429609
-0.0013142932 -0.0085193291 -0.0050739241
-0.002540967 -0.0055331727 -0.0012124822
0.0048190751 -0.0086949859 -0.0056004846
0.0023657279 0.0085193291 -0.0078822458
-0.0053447923 -0.0065871105 -0.013498888
-0.0069219442 -0.0016687346 -0.010164007
-0.006220988 -0.0076410482 -0.0040208036
0.0067467052 0.0016687346 -0.011392647
0.0077981399 -0.0055331727 -0.006653605
-0.0020152496 -0.0083436733 -0.0080577657
0.0076229009 0.004479235 -0.010515047
-0.0079733785 -0.0016687346 -0.0070046452
0.0034171625 0.0072897356 -0.012445768
-0.0014895323 -0.003249641 -0.01525409
0.00026285864 0.0071140793 -0.010690567
0.00096381502 0.0039522662 -0.00068592199
-0.0046438361 0.0071140793 -0.0024411229
-0.0028914451 -0.0085193291 -0.01420097
0.0065714661 -0.0074653919 -0.0059515247
0.0049943142 -0.0086949859 -0.0085843261
-0.0069219442 0.0060601416 -0.011217128
0.0016647715 0.0072897356 -0.0085843261
-0.0065714661 0.0028983285 -0.0036697634
0.00061333686 0.0071140793 -0.0024411229
0.0034171625 -0.0086949859 -0.006127045
0.0076229009 0.0062357979 -0.0057760049
-8.7619548e-05 -0.0083436733 -0.014025449
0.0037676406 0.0079923607 0.00054271868
-0.0079733785 -0.0036009536 -0.0084088063
-0.002716206 0.0083436733 -0.0020900827
-0.0069219442 0.0058844853 -0.010690567
-0.004293358 -0.0048305476 -0.0017390426
-0.0067467052 -0.0046548913 -0.0047228839
-0.0035924015 0.0085193291 0.0017713594
0.002716206 -0.0086949859 -0.0040208036
-0.0039428798 0.0085193291 -0.0038452838
0.0079733785 -0.0062357979 -0.0068291253
-0.0060457489 0.0064114542 -0.012796808
-0.0058705099 -0.006938423 -0.011041608
0.004468597 -0.0064114542 -0.0013880023
-0.0016647715 0.0086949859 -0.0054249647
-0.0035924015 0.0072897356 -0.010866087
8.7619548e-05 -0.0083436733 -0.0077067255
0.0076229009 0.005708829 -0.010339527
-0.00061333686 0.0071140793 -0.013674409
0.0072724223 -0.0085193291 -0.008759846
0.00096381502 0.0086949859 -0.0052494444
-0.0037676406 0.007816704 -0.0050739241
-0.0021904886 0.0071140793 -0.014025449
-0.0058705099 0.0036009536 -0.012972329
-0.0077981399 0.0030739848 -0.006653605
0.0028914451 0.0079923607 -0.0050739241
-0.0051695532 -0.007816704 -0.013674409
-0.00096381502 -0.0083436733 -0.01490305
0.0034171625 0.0074653919 -0.0063025649
-0.0076229009 -0.0058844853 -0.0078822458
0.0037676406 0.0085193291 -0.0045473641
0.0021904886 -0.0086949859 -0.0027921631
0.0016647715 0.0086949859 -0.0038452838
-0.00043809775 -0.0086949859 -0.0089353668
-0.0067467052 -0.0067627667 -0.010515047
-0.004293358 -0.0086949859 -0.0029676831
0.00061333686 -0.0086949859 -0.0089353668
-0.0023657279 0.0072897356 -0.011919208
0.0076229009 -0.0041279225 -0.0071801655
-0.0070971833 -0.0023713596 -0.008759846
0.0037676406 0.0079923607 -0.0080577657
-0.0065714661 -0.0065871105 -0.0038452838
-0.0048190751 0.0058844853 -0.0017390426
-0.00043809775 -0.0081680166 -0.014376489
0.0041181189 -0.0018443909 -0.01420097
-0.0021904886 0.00096610951 -0.0012124822
-0.0076229009 0.0062357979 -0.0056004846
-0.0070971833 -0.0048305476 -0.0052494444
0.004468597 0.0039522662 -0.0013880023
-0.00043809775 -0.0037766099 -0.01525409
0.0037676406 0.0072897356 -0.010866087
-0.0077981399 -0.0081680166 -0.006653605
0.00078857591 0.0072897356 -0.0033187233
-0.0016647715 0.0083436733 -0.002616643
-0.00096381502 -0.0086949859 -0.0084088063
0.0055200313 -0.0086949859 -0.0085843261
-0.0077981399 -0.0081680166 -0.0082332864
-0.0077981399 0.0014930783 -0.0078822458
0.0060457489 0.002020047 -0.0033187233
0.00043809775 0.0074653919 -0.0092864064
-0.0056952708 0.0071140793 -0.0085843261
8.7619548e-05 -0.0083436733 -0.0052494444
-0.0079733785 0.0016687346 -0.0092864064
0.0053447923 -0.0085193291 -0.0027921631
0.004293358 0.0076410482 -0.006127045
-0.006220988 -0.007816704 -0.010515047
-0.00043809775 -0.0014930783 -0.00051040185
-0.0072724223 0.0039522662 -0.0048984042
-0.00026285864 0.007816704 -0.0041963239
-0.0048190751 -0.00096610951 -0.014376489
-0.0034171625 0.0067627667 -0.014727529
-0.00078857591 0.0064114542 -0.01507857
-0.0014895323 0.004479235 -0.01525409
0.0077981399 0.0051818602 -0.0059515247
0.0067467052 -0.0072897356 -0.011041608
-0.0072724223 -0.0083436733 -0.010690567
0.0014895323 0.0072897356 -0.012972329
-0.0014895323 -0.0079923607 -0.01525409
0.00061333686 -0.0086949859 -0.0017390426
0.00096381502 -0.0046548913 -0.00051040185
0.0055200313 -0.0079923607 -0.013498888
0.0041181189 0.0072897356 -0.010339527
0.0041181189 -0.0043035788 -0.014376489
0.00043809775 -0.007816704 -0.010866087
0.0069219442 0.0021957033 -0.0040208036
0.0074476618 -0.0046548913 -0.0094619263
0.00061333686 0.0048305476 -0.01525409
-0.0035924015 0.0028983285 -0.014552009
-0.0048190751 -0.0018443909 -0.0024411229
0.0013142932 0.0086949859 -0.0031432032
0.0032419234 0.0081680166 -0.0019145627
0.0020152496 -0.0043035788 -0.01525409
0.00026285864 -0.0079923607 -0.0050739241
0.0041181189 0.0051818602 -0.014552009
-0.006220988 -0.0086949859 -0.0073556853
0.0037676406 0.0085193291 -0.00015936168
-0.0011390541 -0.0086949859 -0.011568168
-0.0020152496 -0.0086949859 -0.0047228839
-0.0063962271 0.0058844853 -0.0033187233
0.004468597 0.0002634844 -0.014025449
-0.0016647715 -0.0085193291 -0.006653605
0.0055200313 -0.00043914068 -0.0027921631
0.0013142932 -0.0030739848 -0.015429609
0.0055200313 -0.0046548913 -0.002616643
-0.0060457489 -0.007816704 -0.0050739241
-0.0056952708 0.0050062039 -0.0024411229
0.0060457489 0.0037766099 -0.012796808
-0.0039428798 -0.0055331727 -0.0013880023
0.0035924015 0.0072897356 -0.0099884868
0.00061333686 0.0011417657 -0.00051040185
-0.0048190751 -0.0071140793 -0.013849929
-0.0034171625 0.00043914068 -0.0012124822
0.0056952708 -0.0058844853 -0.002616643
-0.0034171625 0.006938423 -0.014025449
0.0063962271 0.0023713596 -0.012094728
0.0032419234 0.0039522662 -0.00051040185
-0.0069219442 -0.0051818602 -0.0047228839
-0.0060457489 0.0018443909 -0.012445768
0.002540967 0.0071140793 -0.012972329
0.002716206 0.0086949859 -0.0033187233
0.0076229009 0.0058844853 -0.0056004846
-0.0069219442 0.0064114542 -0.011217128
-0.0072724223 0.0071140793 -0.0059515247
0.0074476618 0.00061479694 -0.0071801655
0.0028914451 -0.0086949859 -0.011041608
0.004468597 -0.0086949859 -0.0085843261
-0.0020152496 0.0086949859 -0.0057760049
0.0079733785 0.00096610951 -0.0085843261
0.0046438361 0.0079923607 -0.0052494444
-0.0076229009 0.0055331727 -0.010339527
-0.0016647715 -0.0086949859 -0.012972329
-0.0053447923 0.0065871105 -0.011568168
0.0032419234 -0.0086949859 -0.006127045
0.0076229009 0.0016687346 -0.0077067255
-0.00026285864 -0.0086949859 -0.0068291253
-0.0076229009 -0.00079045322 -0.0077067255
-0.0060457489 0.006938423 -0.0098129669
-0.0018400105 -0.0067627667 -0.01525409
0.0028914451 -0.0086949859 -0.0073556853
-0.0069219442 -0.0021957033 -0.0064780852
-0.0076229009 -0.0018443909 -0.0077067255
8.7619548e-05 0.0072897356 -0.012621288
-0.0018400105 0.0028983285 -0.01525409
0.0076229009 0.0030739848 -0.010164007
0.0020152496 0.0085193291 -0.0019145627
0.0041181189 -0.0083436733 -0.0019145627
0.004293358 0.0023713596 -0.01420097
-0.0041181189 0.006938423 -0.013323369
-0.00096381502 0.0072897356 -0.0027921631
0.0013142932 0.0058844853 -0.01525409
0.0048190751 0.00079045322 -0.013674409
0.0079733785 0.0027226722 -0.0092864064
-0.0072724223 -0.0028983285 -0.0085843261
0.0037676406 0.0086949859 -0.0033187233
0.0072724223 -0.0028983285 -0.0089353668
0.0048190751 0.0072897356 -0.006653605
-0.0058705099 -0.0085193291 -0.0034942434
0.00096381502 0.005708829 -0.01525409
-0.0048190751 0.00061479694 -0.0022656028
0.00043809775 -0.007816704 -0.0098129669
-0.0053447923 0.0016687346 -0.002616643
-0.00061333686 0.007816704 -0.0052494444
-0.0041181189 0.0085193291 -0.0048984042
-0.0046438361 8.7828135e-05 -0.0015635224
0.0011390541 -0.0081680166 -0.0078822458
0.0049943142 0.0083436733 -0.0057760049
-0.0018400105 -0.0081680166 -0.011041608
-0.0049943142 0.0037766099 -0.0019145627
-0.0055200313 -0.00079045322 -0.012621288
-0.006220988 -0.0051818602 -0.012270248
-0.0014895323 0.007816704 -0.0063025649
-0.00078857591 0.0027226722 -0.015429609
-0.0014895323 0.0037766099 -0.015429609
0.0039428798 0.0011417657 -0.0012124822
-0.004468597 0.0083436733 -0.0057760049
-0.00043809775 -0.0079923607 -0.008759846
-0.0032419234 0.003249641 -0.014727529
-8.7619548e-05 0.0083436733 -0.0034942434
-0.002540967 0.0072897356 -0.010164007
0.004468597 -0.0023713596 -0.0013880023
0.0079733785 0.0030739848 -0.0089353668
0.0013142932 -0.0079923607 -0.010515047
0.0070971833 -0.0037766099 -0.0054249647
-0.0013142932 -0.0081680166 -0.01507857
-0.0070971833 0.006938423 -0.008759846
-0.0070971833 -0.0021957033 -0.0089353668
0.0016647715 0.0081680166 -0.0080577657
-0.00078857591 -0.0086949859 -0.012972329
0.0032419234 0.0072897356 -0.010866087
-0.0011390541 0.007816704 -0.0047228839
0.0070971833 -0.0071140793 -0.0073556853
-0.0069219442 -0.0076410482 -0.0056004846
-0.004468597 -0.0051818602 -0.0019145627
0.0021904886 0.007816704 -0.0068291253
-8.7619548e-05 -0.0083436733 -0.010866087
0.0049943142 0.00043914068 -0.013498888
0.0032419234 0.0072897356 -0.008759846
0.0030666841 0.0081680166 -0.0022656028
0.002540967 0.0072897356 -0.013147849
-0.0018400105 -0.0058844853 -0.00051040185
-0.00078857591 -0.0085193291 -0.0080577657
-0.0072724223 0.006938423 -0.0050739241
0.0014895323 -8.7828135e-05 -0.00051040185
-0.0035924015 0.0079923607 0.0001916785
0.0072724223 -0.0034252973 -0.010339527
-0.004468597 -0.0086949859 -0.0091108866
0.0046438361 -0.0076410482 -0.0015635224
0.0013142932 -0.0086949859 -0.011568168
-0.0021904886 0.0076410482 -0.0082332864
0.0030666841 0.0086949859 -0.0057760049
-0.0060457489 0.0072897356 -0.0070046452
-0.0046438361 0.0002634844 -0.0015635224
-0.0023657279 0.0085193291 -0.0048984042
0.0060457489 -0.0074653919 -0.010690567
-0.0028914451 -0.0011417657 -0.014727529
-8.7619548e-05 -0.0046548913 -0.00051040185
0.002540967 0.003249641 -0.01490305
0.00061333686 -0.0083436733 -0.01525409
-0.0056952708 0.0065871105 -0.013323369
0.0079733785 0.0018443909 -0.0077067255
0.0067467052 -0.00061479694 -0.010866087
0.0074476618 0.006938423 -0.0092864064
-0.0063962271 -0.0074653919 -0.0073556853
-0.004293358 0.0067627667 -0.013498888
0.00078857591 0.0072897356 -0.0036697634
0.0063962271 0.0050062039 -0.0031432032
-0.0039428798 0.004479235 -0.014727529
-0.00096381502 -0.0086949859 -0.006653605
-0.0028914451 -0.0021957033 -0.0012124822
-0.0074476618 -0.0085193291 -0.0070046452
-0.0053447923 -0.0072897356 -0.013498888
0.0028914451 -0.0076410482 -0.014727529
0.0037676406 0.0050062039 -0.00086144207
0.0065714661 -0.0085193291 -0.010690567
-0.0046438361 -0.0086949859 -0.0064780852
0.0063962271 -0.0030739848 -0.011743688
-0.002716206 0.0065871105 -0.00051040185
-0.0030666841 0.007816704 -0.0027921631
0.0077981399 0.002020047 -0.0096374471
0.0053447923 0.0043035788 -0.013498888
-0.0072724223 -0.0016687346 -0.0075312057
0.00026285864 0.0039522662 -0.01525409
0.0020152496 -0.0071140793 -0.0012124822
-0.0013142932 -0.0081680166 -0.010515047
-0.0067467052 -0.0067627667 -0.006127045
0.00043809775 0.0055331727 -0.0012124822
0.0063962271 0.0071140793 -0.0048984042
-0.0058705099 -0.0086949859 -0.0043718438
0.00043809775 -0.0046548913 -0.015429609
-0.0046438361 0.005708829 -0.01420097
0.0039428798 0.0072897356 -0.010164007
0.0030666841 -0.00096610951 -0.014552009
0.004468597 0.0081680166 -0.0027921631
0.002540967 0.0071140793 -0.0013880023
-0.0041181189 0.0028983285 -0.014376489
0.0079733785 0.0050062039 -0.0091108866
0.00043809775 -0.0086949859 -0.012445768
0.0018400105 -0.0086949859 -0.0092864064
0.0056952708 0.0062357979 -0.010690567
-0.0072724223 -0.0050062039 -0.006127045
-0.00061333686 -0.0079923607 -0.011217128
-0.006220988 0.0060601416 -0.011743688
-0.0039428798 0.0030739848 -0.0010369621
0.0023657279 -0.0072897356 -0.0012124822
0.006220988 -0.0048305476 -0.0036697634
-0.0053447923 0.0072897356 -0.0052494444
-0.00061333686 -0.0039522662 -0.01525409
-0.0051695532 0.007816704 -0.006653605
0.0020152496 -0.0086949859 -0.0073556853
-0.0072724223 0.0064114542 -0.010866087
-0.0065714661 -0.006938423 -0.0073556853
0.0035924015 0.0072897356 -0.011041608
-0.00043809775 0.0027226722 -0.015429609
0.002716206 0.0072897356 -0.010515047
0.004468597 0.00061479694 -0.0015635224
0.0065714661 0.00061479694 -0.011041608
-0.0053447923 -0.0086949859 -0.0080577657
-0.0065714661 0.0065871105 -0.010164007
-0.0021904886 -0.0086949859 -0.011217128
8.7619548e-05 -0.0086949859 -0.0084088063
-0.0035924015 0.0079923607 0.0026489599
0.0028914451 -0.0086949859 -0.012270248
0.00078857591 0.0071140793 -0.010339527
-0.0037676406 0.0079923607 -0.0045473641
-0.0063962271 -0.0079923607 -0.0033187233
0.0035924015 0.0086949859 -0.0059515247
-0.004293358 0.0011417657 -0.01420097
0.00061333686 -0.0086949859 -0.0047228839
0.0065714661 0.006938423 -0.012094728
-0.0070971833 0.0071140793 -0.0082332864
0.0077981399 -0.0058844853 -0.006653605
0.0049943142 0.0046548913 -0.0019145627
0.0077981399 0.0050062039 -0.010164007
-0.0063962271 0.0074653919 -0.0073556853
8.7619548e-05 -0.0086949859 -0.0089353668
0.002540967 0.0085193291 -0.0078822458
-0.00078857591 -0.0086949859 -0.013147849
-0.0063962271 -0.0046548913 -0.011919208
-0.0079733785 0.0046548913 -0.0078822458
-0.0035924015 0.0072897356 -0.0085843261
-0.0039428798 0.003249641 -0.0010369621
-0.0028914451 0.007816704 -0.0054249647
0.0021904886 0.0083436733 -0.0024411229
-0.0028914451 0.0016687346 -0.014727529
0.0028914451 0.0074653919 -0.0054249647
8.7619548e-05 -0.0083436733 -0.0057760049
-0.0016647715 -0.0083436733 -0.01490305
-0.0074476618 -0.00043914068 -0.0071801655
-0.0056952708 0.002020047 -0.0027921631
-0.0041181189 -0.0086949859 -0.0073556853
-0.0053447923 -0.0086949859 -0.011041608
0.0018400105 0.0072897356 -0.0027921631
0.0067467052 -0.0050062039 -0.011568168
0.0067467052 -0.0074653919 -0.0038452838
0.0049943142 0.0041279225 -0.013849929
-0.004468597 0.0079923607 -0.0038452838
0.004468597 0.0071140793 -0.013498888
0.0013142932 -0.00043914068 -0.01525409
-0.00043809775 0.0036009536 -0.00068592199
-0.0041181189 0.007816704 -0.0063025649
0.0039428798 0.0043035788 -0.014552009
0.0018400105 0.0051818602 -0.01525409
0.0048190751 -0.0021957033 -0.013674409
-0.0028914451 -0.0037766099 -0.0012124822
0.0053447923 0.0079923607 -0.0077067255
0.002716206 0.0079923607 -0.0045473641
0.0041181189 0.0064114542 -0.014552009
-0.0023657279 -0.0086949859 -0.0056004846
-0.0053447923 0.00061479694 -0.0027921631
0.0076229009 0.0016687346 -0.0075312057
0.002540967 -0.0086949859 -0.014025449
-0.00078857591 0.007816704 -0.0054249647
0.00061333686 -0.0086949859 -0.013323369
-0.0016647715 0.0072897356 -0.0057760049
0.00078857591 -0.0083436733 -0.00068592199
0.0049943142 -0.0081680166 -0.0019145627
0.0072724223 -0.00079045322 -0.0089353668
0.0076229009 -0.0058844853 -0.010164007
0.0058705099 -0.0074653919 -0.011217128
0.00043809775 -0.0086949859 -0.0047228839
-0.004293358 -0.0011417657 -0.013849929
-0.002540967 -0.0072897356 -0.0012124822
-0.0072724223 8.7828135e-05 -0.0092864064
-0.006220988 -0.0071140793 -0.012621288
-0.0060457489 0.00043914068 -0.0034942434
-0.0060457489 -0.0039522662 -0.012270248
-0.0077981399 0.0062357979 -0.0063025649
-0.0051695532 0.00043914068 -0.013147849
-0.0051695532 0.0081680166 -0.0068291253
0.0048190751 -0.0085193291 -0.0024411229
0.004468597 -0.0046548913 -0.014025449
0.0070971833 0.0021957033 -0.0050739241
-0.0016647715 0.0086949859 -0.002616643
0.0014895323 0.0086949859 -0.0068291253
0.00078857591 0.00061479694 -0.015429609
-0.00026285864 -0.0085193291 -0.01507857
0.0063962271 0.0060601416 -0.011743688
0.0060457489 -0.0072897356 -0.0048984042
8.7619548e-05 -0.0055331727 -0.00051040185
-0.0035924015 0.006938423 -0.013849929
-0.0018400105 0.003249641 -0.0012124822
0.0077981399 -0.0083436733 -0.0092864064
0.0013142932 -0.0086949859 -0.0070046452
0.0034171625 0.0079923607 -0.0029676831
-0.00043809775 0.0074653919 -0.0038452838
0.0060457489 0.001317422 -0.0034942434
0.0049943142 0.007816704 -0.0073556853
0.00061333686 0.001317422 -0.015429609
0.0076229009 0.0037766099 -0.010164007
-0.0079733785 0.0051818602 -0.0075312057
-0.0016647715 0.0072897356 -0.0048984042
0.0076229009 0.0023713596 -0.0092864064
-0.0037676406 0.0085193291 -0.00015936168
0.00026285864 -0.0048305476 -0.015429609
-0.0053447923 0.0046548913 -0.013674409
0.002716206 -0.0014930783 -0.014727529
0.0058705099 0.00043914068 -0.012445768
0.0069219442 0.0050062039 -0.012094728
8.7619548e-05 0.0086949859 -0.0024411229
-0.002540967 0.0043035788 -0.0012124822
-0.00026285864 0.0079923607 -0.0013880023
0.0041181189 0.0083436733 -0.0075312057
-0.00043809775 0.0072897356 -0.0029676831
-0.0032419234 0.0085193291 -0.0031432032
-0.002540967 0.0064114542 -0.0012124822
-0.002716206 0.0062357979 -0.014552009
0.0067467052 -0.0085193291 -0.0078822458
-0.0055200313 0.0018443909 -0.012972329
0.0063962271 0.0018443909 -0.0038452838
0.0034171625 -0.0086949859 -0.011568168
-0.00061333686 -0.005708829 -0.015429609
-0.00026285864 -0.0086949859 -0.0057760049
0.0077981399 -0.0050062039 -0.0068291253
0.006220988 0.0060601416 -0.0098129669
0.0074476618 -0.0030739848 -0.006127045
0.0023657279 -0.0053575165 -0.01507857
0.002540967 0.0071140793 -0.0012124822
-0.002716206 -0.0011417657 -0.0012124822
-0.0014895323 -8.7828135e-05 -0.00068592199
-0.0074476618 -0.0076410482 -0.0056004846
-0.00061333686 0.006938423 -0.010866087
-0.006220988 0.0060601416 -0.011217128
0.00096381502 0.007816704 -0.0047228839
0.0058705099 0.0067627667 -0.002616643
0.0018400105 -0.0011417657 -0.00068592199
0.0070971833 -0.0085193291 -0.0070046452
-0.00078857591 0.0071140793 -0.013498888
-0.0069219442 -0.0018443909 -0.0099884868
0.002540967 0.0072897356 -0.0085843261
-0.0056952708 -0.0072897356 -0.0031432032
0.0060457489 0.0076410482 -0.0050739241
-0.0077981399 -0.0053575165 -0.0073556853
-0.00078857591 0.00061479694 -0.00051040185
-0.00078857591 0.0071140793 -0.012270248
0.002716206 0.0079923607 -0.0047228839
-0.0076229009 0.004479235 -0.0052494444
-0.0032419234 0.0086949859 -0.0071801655
0.0076229009 -0.0065871105 -0.0057760049
-0.0030666841 -0.0086949859 -0.0041963239
0.00043809775 -0.0083436733 -0.0059515247
0.0032419234 -0.0046548913 -0.0012124822
-0.0034171625 0.007816704 -0.0064780852
0.0053447923 -0.0071140793 -0.0020900827
-0.0060457489 0.006938423 -0.011392647
-0.006220988 -0.0037766099 -0.012094728
-0.0039428798 -0.0072897356 -0.014025449
0.0018400105 -0.0083436733 -0.01420097
-0.0046438361 0.0062357979 -0.01420097
-0.0077981399 0.002020047 -0.0080577657
0.0028914451 0.0079923607 -0.0029676831
0.0074476618 -0.0067627667 -0.008759846
0.0049943142 0.0081680166 -0.0047228839
0.00096381502 -0.0055331727 -0.00051040185
-0.00043809775 0.0071140793 -0.012270248
-0.0037676406 -0.0014930783 -0.0015635224
0.00043809775 -0.0086949859 -0.0075312057
-0.0070971833 -0.0079923607 -0.008759846
0.00026285864 0.0074653919 -0.0040208036
-0.0016647715 -0.0086949859 -0.0073556853
0.0067467052 0.0037766099 -0.0036697634
-0.0023657279 0.0072897356 -0.012972329
0.0056952708 0.0034252973 -0.002616643
-0.0049943142 0.0079923607 -0.0047228839
-0.0070971833 -0.0085193291 -0.0094619263
-0.0070971833 0.0034252973 -0.0040208036
-0.0041181189 0.007816704 -0.0068291253
-0.00026285864 -0.0079923607 -0.0054249647
0.0046438361 0.0072897356 -0.010515047
0.0014895323 0.006938423 -0.01490305
0.0046438361 0.0018443909 -0.014025449
0.0048190751 0.00079045322 -0.0022656028
-8.7619548e-05 -0.0086949859 -0.0043718438
-0.0032419234 0.0071140793 -0.013323369
0.0030666841 0.0086949859 -0.0047228839
-0.00026285864 0.0041279225 -0.01525409
-0.00061333686 -0.001317422 -0.00051040185
-0.0070971833 -0.0085193291 -0.0098129669
-0.0048190751 -0.0086949859 -0.0071801655
0.0051695532 0.0072897356 -0.0085843261
0.0030666841 0.0039522662 -0.014552009
-0.0018400105 0.0011417657 -0.01525409
-0.0014895323 -0.0041279225 -0.00051040185
-0.0016647715 0.0039522662 -0.01525409
0.0020152496 -0.0014930783 -0.01490305
-0.0014895323 0.0072897356 -0.0024411229
-0.0048190751 0.00096610951 -0.013674409
0.0065714661 -0.0085193291 -0.0056004846
-0.004468597 -0.0016687346 -0.013849929
0.0034171625 -0.0051818602 -0.0012124822
-0.0051695532 0.0058844853 -0.013849929
-0.0030666841 -0.0051818602 -0.014727529
0.0049943142 0.00096610951 -0.013498888
0.004468597 -0.0086949859 -0.011217128
-0.0048190751 0.0051818602 -0.0017390426
0.0020152496 0.0081680166 -0.0033187233
0.0041181189 0.007816704 -0.0082332864
0.00061333686 0.005708829 -0.0010369621
0.00043809775 0.0071140793 -0.013674409
0.0041181189 0.0085193291 -0.0052494444
-0.0014895323 0.0086949859 -0.0031432032
0.0079733785 0.0053575165 -0.0094619263
0.0018400105 -0.0086949859 -0.0043718438
0.0020152496 -0.00096610951 -0.01490305
-0.002716206 -0.0086949859 -0.011919208
-0.0049943142 -0.0086949859 -0.0064780852
-0.0056952708 -0.0023713596 -0.012621288
-0.00026285864 0.0071140793 -0.012270248
-0.0039428798 -0.0011417657 -0.0017390426
-0.0021904886 0.0085193291 -0.0056004846
-0.0067467052 -0.0018443909 -0.010515047
