# .PCD v0.7 - Point Cloud Data file format
VERSION 0.7
FIELDS x y z
SIZE 4 4 4
TYPE F F F
COUNT 1 1 1
WIDTH 1158
HEIGHT 1
VIEWPOINT 0 0 0 1 0 0 0
POINTS 1158
DATA ascii
6.0668968e-05 -0.0019387908 -0.003746988
-0.0010920415 0.0016358547 -0.0013975904
-0.0013347174 0.0014540931 -0.0016385543
-0.001820069 -0.00072704657 -0.005433735
-0.00030334486 0.0011511571 -0.0068795183
-0.00078869663 0.00018176164 -0.0068795183
0.0018807381 0.00042411048 -0.00043373494
-0.0018807381 -0.0004846977 -0.0029638554
6.0668968e-05 -0.0019387908 -0.0030240964
0.0016987311 0.00072704657 -0.0068795183
-0.00084936555 -0.00084822095 -1.2048193e-05
-0.00030334486 0.0015146803 -0.00025301205
0.00036401383 -0.0019387908 -0.0056144577
-0.0011527104 0.0015752675 -0.0022409637
-6.0668968e-05 0.0019387908 -0.005433735
-0.00060668972 -0.00018176164 0.00046987951
-0.00042468277 0.0019387908 -0.0013373494
0.00072802766 0.00018176164 0.0011927711
-0.0012133794 0.0015752675 -0.0044096387
-0.001941407 -0.00036352329 -0.001939759
0.0014560553 -0.00066645932 -0.0068795183
-0.00036401383 -0.0019387908 -0.005433735
-0.00054602075 -0.00012117442 0.0023975903
0.0015773933 0.0012117443 -0.00085542171
0.0011527104 -0.0012723315 -0.0068795183
-0.001941407 -0.00018176164 -0.0023614457
0.001941407 -0.00030293607 -0.0020602411
0.001941407 0.00036352329 -0.0050722891
0.00048535175 -0.0004846977 -0.00013253013
-0.0017594001 0.00072704657 -0.00073493976
-0.001941407 0.00018176164 -0.0067590363
-0.00024267587 0.0019387908 -0.00031325303
0.001941407 0.00036352329 -0.0026626505
0.00018200692 -0.0019387908 -0.002120482
-0.0016987311 -6.0587212e-05 -0.0068795183
-6.0668968e-05 0.00042411048 -0.00013253013
0.00078869663 0.0015752675 -0.0068795183
-6.0668968e-05 -0.0019387908 -0.0026024096
0.00072802766 -0.0010905698 -0.00013253013
0.001941407 -6.0587212e-05 -0.0063975905
-0.001941407 6.0587212e-05 -0.0027831325
-0.0013953863 -0.0013935058 -0.0048915665
0.0012740484 0.0012723315 -0.0068795183
-0.001820069 0.00078763376 -0.0063975905
0.00012133794 0.0019387908 -0.0029638554
-0.00024267587 0.0016964419 -0.0068795183
0.00042468277 6.0587212e-05 -0.0068795183
-0.00097070349 -0.0015752675 -0.0068795183
-0.0014560553 0.0013329186 -0.001879518
0.00018200692 -0.0019387908 -0.0044698794
0.0012133794 -0.00066645932 -0.0068795183
-0.00036401383 0.0019387908 -0.0035662651
-0.0010920415 0.0016358547 -0.0059156627
0.0016987311 -0.00096939539 -0.0027228915
0.001941407 -0.00036352329 -0.0061566266
0.00024267587 0.0019387908 -0.0063373493
-0.0018807381 0.00054528489 -0.0034457832
0.0018807381 -0.00018176164 -0.00031325303
0.0013347174 0.00024234885 -0.0068795183
-0.001941407 0.00018176164 -0.0020602411
0.0012740484 -0.0015146803 -0.0062168674
-0.001941407 0.00042411048 -0.0051325304
0.00054602075 0 0.0025180723
0.001941407 0.00024234885 -0.0025421686
0.00048535175 -0.0018782036 -0.00067469879
-0.0016380622 -0.0010905698 -0.0045301206
0.0016987311 -0.00096939539 -0.0050722891
0 -0.0019387908 -0.0013975904
0.00078869663 0.0018176164 -0.0066385544
0.001941407 0.00018176164 -0.0056746989
-0.001941407 0 -0.00061445782
0.00060668972 0.0011511571 -0.0068795183
-0.001941407 0.00036352329 -0.0067590363
0.00018200692 -0.0019387908 -0.0052530118
-0.0018807381 -0.00060587213 -0.001939759
-0.00042468277 -0.0019387908 -0.0053734938
0.001941407 0.00036352329 -0.0025421686
0.00084936555 0.00018176164 0.0001686747
-0.00048535175 0.0017570291 -0.00025301205
-0.00078869663 0.00060587213 -1.2048193e-05
0.001941407 -0.00018176164 -0.0024819276
-0.00060668972 0.0018782036 -0.0044096387
-0.0018807381 -0.0004846977 -0.0026626505
-0.00084936555 0.0014540931 -0.00025301205
-0.00036401383 -0.00066645932 -0.0068795183
0.00018200692 -0.0012723315 -1.2048193e-05
0.0015167242 0.0012723315 -0.0045903614
-0.001820069 -0.0004846977 -0.0068795183
-0.00054602075 0 0.0022771084
-6.0668968e-05 0.0016964419 -0.00025301205
0.001820069 -0.00072704657 -0.0061566266
0.0016987311 0.0010299826 -0.0051927711
0.001941407 6.0587212e-05 -0.0063975905
0.00048535175 0.0019387908 -0.0029638554
-0.001941407 -6.0587212e-05 -0.0024216867
0.0017594001 0.0009088082 -0.0013373494
0.0012740484 0.00042411048 -0.0068795183
6.0668968e-05 -0.0019387908 -0.0051325304
-0.00072802766 -0.0018176164 -0.0050120484
0.0015773933 -0.0011511571 -0.0059759035
0.00084936555 -0.00012117442 0.0020361445
-0.00091003452 0.0017570291 -0.00386747
-0.00042468277 0.0019387908 -0.0059759035
0.001941407 -0.00036352329 -0.0041686748
0.00084936555 0.0017570291 -0.0027831325
0.001820069 -0.00078763376 -0.0047108433
-0.00084936555 0.0017570291 -0.0039879517
-0.001941407 0 -0.00073493976
0.00091003452 -0.0016964419 -0.00025301205
-0.00072802766 -0.0018176164 -0.00073493976
0.00054602075 6.0587212e-05 0.0020361445
-0.001941407 -0.00030293607 -0.0027831325
0.0010920415 0.0016358547 -0.0040481929
0.0014560553 0.0012117443 -0.00031325303
-0.00054602075 0 0.0014337349
-0.001941407 0.00036352329 -0.0042289156
0.001941407 -0.00012117442 -0.0023614457
-0.001820069 -0.00072704657 -0.0039277109
0.0015167242 -0.00030293607 -0.00025301205
0.0011527104 -0.0004846977 -7.2289156e-05
-0.00091003452 0 0.001313253
-0.001820069 -0.00036352329 -0.00067469879
0.0016987311 -0.00096939539 -0.0033253012
-0.0017594001 -0.00072704657 -0.00073493976
-0.00018200692 -0.0019387908 -0.0056144577
-0.0013347174 -0.0013935058 -0.00025301205
0.0013347174 0.0014540931 -0.0034457832
0.00084936555 0.0017570291 -0.0049518072
-0.00012133794 -0.0019387908 -0.0017590361
0.001941407 0.00042411048 -0.0045903614
0.00060668972 0.00066645932 -1.2048193e-05
0 -0.0019387908 -0.0042289156
0.00048535175 -0.0010905698 -0.0068795183
0.0017594001 0.00084822095 -0.0016987951
0.001941407 -0.00030293607 -0.0064578312
0.0018807381 0.0004846977 -0.0032650603
-0.00060668972 6.0587212e-05 0.00010843373
0.001941407 -0.00036352329 -0.0052530118
-0.00042468277 0.0004846977 -0.0068795183
-0.0012740484 0.0015146803 -0.0034457832
0.0011527104 0.00084822095 -0.0068795183
0.001941407 -0.00030293607 -0.0035060241
-0.00012133794 -0.0019387908 -0.0031445783
-0.0010920415 -0.0016358547 -0.0063373493
-0.0018807381 0.00060587213 -0.0029036144
-0.00012133794 0 -0.0068795183
-0.0018807381 -0.00054528489 -0.0022409637
-0.0016987311 -0.00096939539 -0.0030240964
0.00078869663 0.0018176164 -0.0024819276
0.001941407 -6.0587212e-05 -0.0010361446
0.0015167242 -0.0012117443 -0.00073493976
0.0016987311 -0.0010299826 -0.0057349396
0.001941407 0 -0.0014578314
0.00084936555 -6.0587212e-05 0.0028795181
0.0012740484 -0.0015146803 -0.0051927711
0.001941407 0.00024234885 -0.0047710845
-0.00048535175 0.0019387908 -0.0063975905
-0.00066735869 0.0018782036 -0.002120482
0.001820069 0.00066645932 -0.003686747
0 0.00036352329 -0.0068795183
0.0017594001 -0.00084822095 -0.0020602411
-0.001820069 6.0587212e-05 -0.00025301205
0.001820069 -0.00078763376 -0.0055542169
-0.00024267587 0.0019387908 -0.00386747
0.0010313725 -0.0015146803 -0.00049397588
0.0015773933 0.0011511571 -0.0039277109
-0.00054602075 0.0018782036 -0.00079518073
-0.0018807381 -0.00060587213 -0.0042289156
0.001941407 0.00042411048 -0.0012168675
-0.00097070349 0.0013935058 -0.0068795183
0.00078869663 0.00018176164 0.0028795181
-0.00048535175 0.0019387908 -0.0059156627
0.0017594001 -0.00078763376 -0.00031325303
0.0013953863 0.0013935058 -0.0041686748
-6.0668968e-05 -0.0018782036 -0.00025301205
0.00066735869 -0.0018782036 -0.0060963854
0.00078869663 0.00018176164 0.0003493976
-0.0015773933 -0.0012117443 -0.0065180724
0.00066735869 -0.0017570291 -0.00067469879
0.0017594001 0.0009088082 -0.005313253
-0.00012133794 -0.0015752675 -0.0068795183
0.0012133794 0.00078763376 -0.0068795183
0.0014560553 0.00054528489 -0.00025301205
0.0015167242 0.0012723315 -0.0062771086
0.00030334486 0.0009088082 -1.2048193e-05
0.0015167242 0.0012723315 -0.005313253
0.00078869663 -0.0018176164 -0.002120482
-0.00066735869 6.0587212e-05 0.00065060239
-0.00036401383 -0.0019387908 -0.0035060241
0.00072802766 0.00030293607 0.00010843373
-0.0013953863 -0.0012117443 -0.00061445782
0.001820069 0.00066645932 -0.0020000001
0.0013953863 -0.00042411048 -0.0068795183
0.0011527104 -0.0015752675 -0.0013373494
0.00042468277 -0.0018782036 -0.00031325303
-0.001941407 -0.00024234885 -0.005433735
-0.0015773933 -0.0012117443 -0.0032650603
-0.00084936555 0.00012117442 4.8192771e-05
-0.0016987311 0.0010299826 -0.0057349396
-0.00066735869 -0.0014540931 -0.0068795183
0.0018807381 -0.0004846977 -0.003807229
0.00018200692 -0.00054528489 -0.00013253013
-0.0017594001 0.0009088082 -0.00073493976
0.0018807381 0.00060587213 -0.0020602411
0.001941407 0.00030293607 -0.0041686748
0.001941407 0.00042411048 -0.0061566266
0.00018200692 -0.0019387908 -0.0045903614
0.00054602075 0.00024234885 -0.0068795183
-0.00091003452 -0.00018176164 0.00046987951
0.00048535175 -0.0019387908 -0.0059156627
0.00036401383 0.0019387908 -0.0064578312
0.00048535175 -0.0019387908 -0.0059759035
0 0.0019387908 -0.0030843373
0.001941407 0.00012117442 -0.0023012047
-0.0017594001 0.0009088082 -0.0055542169
-0.0013347174 0.00066645932 -0.00025301205
0.00030334486 0.0019387908 -0.0012771084
-0.00097070349 -0.0010299826 -0.00013253013
-0.00042468277 0.0019387908 -0.0060963854
0.0018807381 -0.0004846977 -0.0032650603
-6.0668968e-05 0.0019387908 -0.0018192771
-0.001941407 -0.00030293607 -0.0056144577
0.0012133794 -0.00060587213 -0.0068795183
0.0016987311 0.0010299826 -0.0039277109
0.001941407 6.0587212e-05 -0.0047710845
-0.00036401383 0.00030293607 -0.0068795183
-0.0018807381 0.00060587213 -0.0062771086
0.001941407 -0.00018176164 -0.0042891568
6.0668968e-05 -0.0019387908 -0.0029638554
0.001820069 -0.00066645932 -0.0065783132
-0.0012740484 -0.0015146803 -0.0014578314
-0.00018200692 0.0016964419 -0.0068795183
-0.00097070349 0.0016964419 -0.0034457832
0.00084936555 -6.0587212e-05 0.00040963857
0.00036401383 -0.0019387908 -0.0042289156
-0.0016987311 -0.0010299826 -0.0033855422
-0.00078869663 -0.00018176164 0.0020963855
0 -0.0012117443 -1.2048193e-05
-0.0014560553 -0.0013329186 -0.0044698794
-0.0012740484 0.0015146803 -0.0027228915
-0.00066735869 -0.0018176164 -0.0068192771
-0.0012133794 -0.0015752675 -0.0025421686
0.00078869663 0.0016964419 -0.00061445782
-0.001941407 -0.00030293607 -0.0064578312
0.00054602075 0.0018782036 -0.0016385543
0.00091003452 0 0.0020963855
-0.00072802766 0.00066645932 -0.0068795183
-0.0015773933 0.0011511571 -0.0065180724
0.001820069 -0.00078763376 -0.0053734938
0.001941407 -0.00018176164 -0.0011566265
-0.0013953863 -0.0011511571 -0.0068795183
-0.00018200692 0.0019387908 -0.0041686748
0.0017594001 0.0009088082 -0.0024216867
6.0668968e-05 0.0019387908 -0.003686747
-0.00060668972 -0.0018782036 -0.0048313253
0.001820069 0.00018176164 -0.00055421685
-0.00054602075 -6.0587212e-05 0.00083132531
-0.0017594001 0.00084822095 -0.001879518
0.001941407 0.00030293607 -0.0050120484
0.0011527104 0.0015752675 -0.0031445783
-0.0011527104 0.0015752675 -0.0027228915
0.00066735869 0.0018782036 -0.002120482
-0.0012740484 -0.0015146803 -0.0064578312
-0.00097070349 -0.00018176164 4.8192771e-05
-0.00066735869 -0.0016964419 -0.0068795183
-0.0014560553 0.0013329186 -0.0060361447
0.00030334486 0.0019387908 -0.0027831325
0.00018200692 0.0019387908 -0.0045301206
-0.0016987311 0.00066645932 -0.00037349397
-0.001941407 -0.00024234885 -0.0060361447
0.00024267587 -0.00054528489 -0.00013253013
0.00042468277 -0.0004846977 -0.0068795183
0.0012133794 0.0015752675 -0.0042289156
-0.00048535175 -0.0016358547 -0.0068795183
-0.0018807381 0.00054528489 -0.0029036144
0.00030334486 -0.0019387908 -0.0048313253
0.00060668972 0.0018782036 -0.0052530118
-0.00048535175 -0.0013329186 -0.0068795183
6.0668968e-05 -6.0587212e-05 -0.0068795183
-0.0014560553 -0.0013329186 -0.0020000001
0.0012740484 -0.0015146803 -0.0033855422
0.0012133794 -0.0015752675 -0.00386747
0.00048535175 -0.0018176164 -0.00061445782
0.00066735869 0.00024234885 0.0016746988
-0.001941407 0.00042411048 -0.0041084336
0.00054602075 0.00012117442 0.0010120482
0.00042468277 0.0019387908 -0.0042891568
-0.0017594001 0.0009088082 -0.0057951808
-0.00030334486 0.00096939539 -0.0068795183
0.0014560553 -0.0013329186 -0.0045903614
0.00084936555 -0.00012117442 -0.0068795183
-0.0010920415 0.0016358547 -0.0054939757
0.0016380622 -0.0010905698 -0.0060361447
0.001820069 0.00078763376 -0.002120482
0.00036401383 -0.0016358547 -0.0068795183
-0.001941407 -0.00030293607 -0.0017590361
-0.00036401383 -0.0019387908 -0.0050120484
0.0012133794 -0.00012117442 -1.2048193e-05
0.00042468277 -0.0019387908 -0.0032048193
0.0010920415 0.0015146803 -0.00037349397
-0.0017594001 -0.00084822095 -0.0046506026
0.00066735869 0.00012117442 -0.0068795183
0.00072802766 0.00012117442 -0.0068795183
0.0016987311 -0.00096939539 -0.0052530118
-0.001941407 0 -0.0027228915
0.0016987311 0.00036352329 -0.00025301205
0.0010920415 -0.0016358547 -0.0047710845
-0.0014560553 -0.0012117443 -0.00025301205
0.00091003452 -0.00060587213 -0.0068795183
0.001820069 0.00072704657 -0.0056746989
0.0012133794 0.0015752675 -0.0022409637
-6.0668968e-05 -0.0019387908 -0.0034457832
6.0668968e-05 -0.0019387908 -0.0055542169
0.00097070349 0.0015146803 -0.0068795183
0.0016987311 -0.00096939539 -0.0016385543
-0.001820069 0.00030293607 -0.0068795183
-0.0014560553 0.00060587213 -0.0068795183
-0.0015773933 -0.0011511571 -0.00085542171
0.0013347174 0.0014540931 -0.0029036144
-0.00048535175 0.0014540931 -0.0068795183
0.001941407 -0.00036352329 -0.0046506026
0.0016987311 -0.0010299826 -0.0063975905
0.00018200692 -0.00066645932 -1.2048193e-05
0.0015773933 -0.0004846977 -0.00025301205
-0.00036401383 0.0019387908 -0.002120482
0.0017594001 0.0009088082 -0.00097590359
0.0013953863 -0.0013935058 -0.003807229
-0.0015167242 -0.0012723315 -0.0057951808
-0.0017594001 0.00042411048 -0.0068795183
0.0016987311 -0.0010299826 -0.0013975904
-0.00018200692 -0.0019387908 -0.0028433735
0.0010313725 0.0015752675 -0.00031325303
-0.00072802766 0.0018176164 -0.00073493976
0.0011527104 0.0009088082 -0.0068795183
-0.00024267587 0.00084822095 -1.2048193e-05
0.0010313725 0.0016964419 -0.0012168675
0.00024267587 0.0018176164 -0.00043373494
-0.0010920415 0.0010905698 -0.00025301205
-0.00048535175 -0.00078763376 -0.0068795183
0.0017594001 -0.0009088082 -0.00097590359
-0.0017594001 -0.00078763376 -0.0067590363
-0.0018807381 -0.00060587213 -0.0033855422
0.0015773933 -0.0012117443 -0.001879518
0.0015167242 0.0012723315 -0.0057951808
-0.0015773933 0.0012117443 -0.0020602411
0.00072802766 0.0018176164 -0.001879518
-0.0010920415 0.0016358547 -0.0062168674
-0.00078869663 0.0018176164 -0.0067590363
-0.00036401383 -0.0019387908 -0.0016987951
-0.00030334486 -0.0019387908 -0.0026024096
-0.0017594001 0.00084822095 -0.0043493975
-0.0010313725 0.0013329186 -0.00025301205
0.00012133794 0.0019387908 -0.0035662651
-0.00078869663 -0.0018176164 -0.0054939757
0.00060668972 -0.00054528489 -1.2048193e-05
-0.00048535175 0.0019387908 -0.0043493975
-0.001941407 0.00036352329 -0.0062168674
0.001941407 0.00036352329 -0.00037349397
-0.00048535175 0.00036352329 -0.0068795183
-0.001941407 -0.00012117442 -0.0046506026
0.0013953863 0.0010299826 -0.00025301205
-0.0010920415 0 -1.2048193e-05
0.0015773933 -0.0012117443 -0.0023614457
0.001941407 0.00018176164 -0.002180723
-0.00018200692 0.0019387908 -0.0022409637
-0.0015167242 -0.0010299826 -0.0068795183
-0.00042468277 0.0019387908 -0.0035060241
0.0015773933 0.0011511571 -0.0065783132
0.0010313725 -0.00078763376 -0.00013253013
-0.0017594001 0.00084822095 -0.0030240964
-0.00048535175 -0.00084822095 -0.0068795183
0.0014560553 -0.0013329186 -0.0066385544
0.00030334486 -0.0019387908 -0.0049518072
6.0668968e-05 -0.0019387908 -0.0059156627
-0.001941407 -0.00036352329 -0.0058554215
0.0013347174 -0.0014540931 -0.003746988
0.0017594001 0.00084822095 -0.0057349396
0.00078869663 0.0018176164 -0.001879518
0.00024267587 -0.0019387908 -0.0012771084
0.00030334486 0.0019387908 -0.0022409637
0.00018200692 6.0587212e-05 -1.2048193e-05
-0.001820069 0.00078763376 -0.0016987951
0.00084936555 0.00042411048 -0.00013253013
0.00042468277 -0.0019387908 -0.0030843373
0.001941407 -0.00030293607 -0.001879518
-0.001941407 -0.00042411048 -0.0023012047
-0.0013953863 -0.00072704657 -0.00025301205
0.0016987311 -0.0010299826 -0.0043493975
-0.00078869663 -0.0012117443 -0.00025301205
-0.0018807381 0.00054528489 -0.0043493975
-0.00054602075 0.00012117442 -0.0068795183
0.0016987311 -0.00096939539 -0.0041686748
-0.00084936555 -0.00018176164 0.0001686747
0.001820069 0.00078763376 -0.0040481929
0.00078869663 0.0018176164 -0.0048915665
0.001941407 0.00012117442 -0.00073493976
0.00097070349 0.0016964419 -0.0067590363
0.00030334486 0.0018176164 -0.00055421685
0.00030334486 -0.0019387908 -0.0046506026
-0.0018807381 0.00054528489 -0.0065783132
0.001941407 -6.0587212e-05 -0.0053734938
0.001820069 -0.00072704657 -0.0030240964
-0.00048535175 -0.0013935058 -0.00025301205
-0.00036401383 0.0019387908 -0.0047710845
0.00042468277 0.00072704657 -1.2048193e-05
0.0015773933 0.0012117443 -0.0023614457
-0.00072802766 -0.0016964419 -0.00043373494
0.00060668972 0.00018176164 0.0014337349
0.0015773933 0.0012117443 -0.0065783132
0.001941407 -0.00036352329 -0.0023012047
-0.0015773933 -0.0011511571 -0.0060361447
-0.00054602075 0.0018782036 -0.0041686748
-0.00072802766 -0.0018176164 -0.0066385544
-0.0015773933 -0.0012117443 -0.0010963855
-0.001941407 -0.00018176164 -0.0026024096
0.0018807381 6.0587212e-05 -0.0068192771
-6.0668968e-05 -0.0019387908 -0.0016987951
-0.0012133794 -0.0015752675 -0.0016987951
-0.0016380622 0.0010905698 -0.0034457832
0.0010920415 -0.00072704657 -0.00013253013
0.0018807381 0.00060587213 -0.0059156627
0.0010920415 -0.0016358547 -0.0064578312
-0.0015773933 0.0012117443 -0.0049518072
-0.00078869663 0.0018176164 -0.0030843373
0.001941407 0.00018176164 -0.0057349396
-0.001941407 -0.00018176164 -0.00097590359
-0.0017594001 -0.00042411048 -0.00025301205
-0.00024267587 0.0011511571 -1.2048193e-05
-0.0011527104 0.0015752675 -0.0045301206
0.00036401383 0.0019387908 -0.0057951808
-0.001941407 -0.00030293607 -0.0048313253
-0.0015773933 0.0012117443 -0.0013975904
0.0018807381 -0.0004846977 -0.0045903614
-0.00054602075 -0.0018782036 -0.0050722891
0.001820069 0.00072704657 -0.0062168674
0.001941407 0.00030293607 -0.0023614457
0.00084936555 0.0016358547 -0.00043373494
-0.00054602075 -0.0015752675 -0.0068795183
-0.0013347174 0.00036352329 -0.00019277108
-0.0015167242 0.0012723315 -0.0051927711
0.00018200692 0.00084822095 -0.0068795183
0 0.0010299826 -0.0068795183
-0.001820069 -0.00072704657 -0.0049518072
-0.00066735869 0.0018782036 -0.0057951808
0.0010313725 0.0016964419 -0.0031445783
0.0015773933 -0.0011511571 -0.0039879517
0.001820069 -0.00078763376 -0.0036265061
0.00024267587 -0.0016358547 -0.0068795183
-0.001941407 -0.00024234885 -0.0051927711
0.00036401383 0.0019387908 -0.002180723
0.00018200692 0.0019387908 -0.0013975904
-0.00018200692 -0.0019387908 -0.003746988
-0.0015167242 -0.0012723315 -0.0044698794
0.00048535175 -0.00012117442 -0.0068795183
-0.0015773933 6.0587212e-05 -0.0068795183
0.00042468277 -0.0019387908 -0.0011566265
0.0015773933 0.0012117443 -0.0029036144
0.0011527104 -0.0015752675 -0.0029638554
0.00084936555 -0.0017570291 -0.00085542171
-0.00012133794 0.0018782036 -0.00031325303
0.00036401383 0.0019387908 -0.005313253
-0.001941407 -0.00012117442 -0.0024819276
0.001820069 0.00078763376 -0.0062168674
0.00066735869 0.0018782036 -0.0056746989
-0.00091003452 -0.0017570291 -0.00085542171
-0.00078869663 -0.0014540931 -0.0068795183
0.00060668972 -0.0018782036 -0.0013373494
-0.00042468277 -0.00012117442 -1.2048193e-05
0.00072802766 0.0014540931 -0.00025301205
0.0017594001 0.00084822095 -0.00386747
0.00048535175 0.0019387908 -0.005433735
-0.00097070349 0.0016964419 -0.00061445782
0.00012133794 0.0019387908 -0.00073493976
-0.0010920415 -0.0004846977 -0.0068795183
0.00060668972 -0.0018782036 -0.0013975904
0.001820069 0 -0.0068795183
0.001941407 -0.00036352329 -0.003686747
0 -6.0587212e-05 -0.0068795183
-0.0016987311 -0.0009088082 -0.0067590363
0.0017594001 0.0009088082 -0.0050120484
0.00048535175 0.0013329186 -0.00019277108
0.00097070349 0.0015752675 -0.00025301205
-0.0018807381 0.0004846977 -0.0011566265
-0.00084936555 -0.00030293607 4.8192771e-05
0.00030334486 -0.0004846977 -0.00013253013
0.00036401383 0.00054528489 -0.0068795183
-0.00060668972 -0.0018782036 -0.0033253012
-0.00066735869 -0.00072704657 -1.2048193e-05
0.0017594001 0.00084822095 -0.0050722891
0.001820069 0.00072704657 -0.0047710845
-6.0668968e-05 0.0019387908 -0.0024216867
-0.0014560553 -0.0004846977 -0.0068795183
0.0012740484 -0.0015146803 -0.0025421686
-0.0015167242 0.00030293607 -0.00025301205
-0.0016987311 0.00066645932 -0.00043373494
-0.00054602075 0.00012117442 -1.2048193e-05
0.0012740484 -0.0015146803 -0.0057951808
0.00091003452 -0.0004846977 -0.0068795183
0.00060668972 -6.0587212e-05 0.0025180723
-0.00066735869 0.0018782036 -0.0014578314
-0.0010920415 0.00042411048 -1.2048193e-05
-0.0013347174 -0.0014540931 -0.0060963854
-0.001941407 -0.00030293607 -0.0062168674
-0.00060668972 -0.0017570291 -0.0068192771
0.0010313725 -0.0016964419 -0.0026626505
-0.00024267587 0.00084822095 -0.0068795183
-0.0015773933 0.00054528489 -0.0068795183
-0.00042468277 -0.0019387908 -0.0066385544
-0.001820069 -0.00072704657 -0.0059156627
-0.0017594001 -0.00084822095 -0.0035662651
-0.00084936555 0.0017570291 -0.0030240964
0.0012740484 0.0015146803 -0.0051927711
0.0014560553 0.0013329186 -0.0035662651
0.0018807381 0.0004846977 -0.0051325304
-0.001941407 0 -0.0057951808
-0.0018807381 -6.0587212e-05 -0.0068192771
0.00072802766 0.0018176164 -0.0036265061
-0.0016987311 -0.00096939539 -0.0032650603
-0.00084936555 0.0017570291 -0.0041084336
-0.001820069 -0.00078763376 -0.0026626505
-0.0010920415 0.0012723315 -0.0068795183
-0.00084936555 -0.0017570291 -0.0067590363
0.00078869663 0.0018176164 -0.0013975904
0.0017594001 -0.00084822095 -0.002180723
0.0016380622 -0.0010905698 -0.0016987951
-0.0011527104 -0.0013935058 -0.0068795183
-0.0013347174 -0.0014540931 -0.003746988
0.00091003452 -0.0017570291 -0.0050120484
-0.0010920415 -0.0010299826 -0.00025301205
0.00091003452 6.0587212e-05 0.0024578313
-0.0011527104 -0.00012117442 -0.0068795183
0.0015167242 0.0012723315 -0.00097590359
0.001941407 -6.0587212e-05 -0.0049518072
0.00024267587 -0.0019387908 -0.002180723
0.0010313725 -0.0016964419 -0.0065180724
-0.0011527104 -0.0015752675 -0.0029638554
-0.0010920415 -0.0016358547 -0.0030240964
0.00054602075 0 0.00071084336
-0.001941407 -0.00012117442 -0.0057951808
-6.0668968e-05 0.0019387908 -0.0020000001
-0.0010920415 0.00030293607 -0.0068795183
-0.0013953863 -0.0013935058 -0.0041084336
-0.001941407 0.00030293607 -0.0011566265
0.00097070349 -0.00096939539 -0.0068795183
0.00030334486 -0.0019387908 -0.001939759
0.001941407 0.00036352329 -0.0040481929
-0.00012133794 -0.0019387908 -0.0058554215
0.00066735869 0.0017570291 -0.00067469879
0.00078869663 0.00096939539 -1.2048193e-05
0.00097070349 -0.0015146803 -0.0068795183
-0.0013953863 -0.00072704657 -0.0068795183
0.001941407 -6.0587212e-05 -0.005313253
-0.0010920415 0.0016358547 -0.001879518
0.0013953863 -0.00030293607 -0.00025301205
0.001820069 -0.00078763376 -0.0042891568
0.00048535175 -0.0019387908 -0.0056746989
0.00054602075 0 -0.0068795183
0.00018200692 0.0019387908 -0.0029036144
0.0017594001 0.0009088082 -0.0014578314
-0.001820069 -6.0587212e-05 -0.00055421685
0.00054602075 0.0015146803 -0.00025301205
-0.001941407 0.00042411048 -0.0027831325
-0.00054602075 -0.0015146803 -0.0068795183
0.001941407 0.00030293607 -0.0028433735
-0.00072802766 -0.0018176164 -0.00091566268
-0.00066735869 -0.0018782036 -0.0066385544
-0.0016987311 -0.00096939539 -0.0016385543
0.001941407 -0.00030293607 -0.0013975904
0.00066735869 -0.0018782036 -0.0056746989
0.00054602075 0.0013935058 -0.0068795183
0.00060668972 0.0018782036 -0.005313253
-0.00084936555 -0.0017570291 -0.0026024096
-0.00036401383 0.0019387908 -0.0047108433
-0.0012740484 0.0015146803 -0.0041084336
0.00042468277 -0.0012723315 -0.0068795183
0.00042468277 -0.0019387908 -0.0050120484
0.00084936555 0.0017570291 -0.0055542169
0.001941407 -6.0587212e-05 -0.0044096387
0.00084936555 -0.0017570291 -0.00073493976
0.001941407 6.0587212e-05 -0.0032650603
-0.001941407 0.00012117442 -0.0022409637
-0.0013347174 0.0009088082 -0.00025301205
-0.0017594001 0.00084822095 -0.0060963854
0.00084936555 0.00060587213 -0.0068795183
-0.00018200692 0.0010905698 -1.2048193e-05
0.0010920415 -0.0016358547 -0.0018192771
-0.001941407 0.00024234885 -0.005433735
-0.00012133794 -0.0019387908 -0.0066987951
-0.00097070349 -0.0016358547 -0.00043373494
0.0015167242 0.0010905698 -0.00067469879
6.0668968e-05 0.0019387908 -0.0039277109
-0.0012740484 0.0015146803 -0.003807229
-0.0012133794 -0.0015752675 -0.002120482
0.00091003452 0.0017570291 -0.003746988
-0.00072802766 6.0587212e-05 0.0023975903
0.00036401383 -0.0019387908 -0.0030843373
0.0010313725 -0.0016964419 -0.0051325304
0.001820069 -0.00072704657 -0.001939759
-0.00054602075 -0.0010299826 -1.2048193e-05
0.001941407 0.00018176164 -0.0054939757
0.00024267587 -0.0019387908 -0.0022409637
0.00066735869 -0.0010905698 -1.2048193e-05
-0.00091003452 6.0587212e-05 0.0016144578
-0.0015167242 -0.0010905698 -0.00037349397
0.00084936555 0.00066645932 -7.2289156e-05
0.0014560553 0.0013329186 -0.0016987951
0.00097070349 -0.0016964419 -0.0048915665
0.00054602075 0 0.00065060239
0.0013347174 0.0013329186 -0.00067469879
0 0.0019387908 -0.00386747
-0.00066735869 0 0.0028795181
-0.00097070349 0.0010905698 -0.00025301205
-0.0017594001 -0.0009088082 -0.0045903614
0.0015773933 0.0012117443 -0.0035060241
6.0668968e-05 -0.0019387908 -0.0052530118
-0.0017594001 0.0009088082 -0.0033253012
0.00012133794 0.00024234885 -1.2048193e-05
-0.001941407 0 -0.0026024096
0.0010920415 -0.0012117443 -0.0068795183
0.0010920415 -0.0016358547 -0.0024216867
-0.0013347174 0.0014540931 -0.0051325304
0.001820069 0.00072704657 -0.0048313253
0.0018807381 0.00060587213 -0.0053734938
-0.0013347174 -0.0014540931 -0.0063373493
0.00054602075 0 0.0013734939
-0.0013953863 -0.0013935058 -0.0030843373
0.0013347174 -0.0014540931 -0.0022409637
-0.0018807381 0.00060587213 -0.0056746989
-0.00091003452 6.0587212e-05 0.0011927711
-0.00018200692 0.0018176164 -0.00037349397
-0.0015167242 0.0012723315 -0.0050120484
-0.0018807381 0.00054528489 -0.00079518073
-0.00054602075 -0.00012117442 0.0016144578
0.001941407 0.00042411048 -0.0048915665
0.001820069 0.00078763376 -0.002180723
-0.001941407 -0.00024234885 -0.0014578314
0.0018807381 -0.0004846977 -0.0039879517
0.00018200692 -0.0004846977 -0.00013253013
-0.0015167242 -0.0012723315 -0.0026024096
0.0011527104 0.0011511571 -0.0068795183
0.0014560553 -0.0013329186 -0.0047108433
-0.00091003452 -0.0017570291 -0.0051325304
0.00097070349 0.00084822095 -1.2048193e-05
-0.00012133794 -0.0019387908 -0.0043493975
0.001941407 0.00012117442 -0.0014578314
0.00054602075 -0.00084822095 -1.2048193e-05
0.001941407 -6.0587212e-05 -0.0066385544
0.00072802766 -0.00054528489 -0.0068795183
-0.0012740484 -0.0015146803 -0.0016987951
0.00042468277 0.0019387908 -0.0012771084
-0.00078869663 -0.0018176164 -0.0049518072
0.001941407 6.0587212e-05 -0.0048915665
0.0015773933 0.0012117443 -0.0034457832
0.00036401383 -0.0019387908 -0.0064578312
0.00084936555 -0.0016358547 -0.00055421685
0.00054602075 0.0018782036 -0.0028433735
-0.0010920415 -0.00096939539 -0.0068795183
-0.00084936555 0.0017570291 -0.0063975905
0.001820069 -0.0004846977 -0.00061445782
-0.00084936555 0.0017570291 -0.0011566265
-0.00048535175 0.0019387908 -0.0015783133
0.00030334486 0.0019387908 -0.0044096387
0.0013347174 -0.0014540931 -0.0018192771
0.0015167242 -0.0012723315 -0.0023012047
-0.00091003452 6.0587212e-05 0.00071084336
0.0011527104 -0.0010299826 -0.00025301205
0.001820069 0.00066645932 -0.0016385543
0.00066735869 0.00024234885 0.0019156627
0.0013953863 -0.00012117442 -0.00019277108
-0.0018807381 -0.0004846977 -0.0018192771
0.001941407 -0.00018176164 -0.0055542169
0.0018807381 0.00054528489 -0.0023614457
-0.00091003452 -0.0017570291 -0.00386747
-0.0013953863 -0.00030293607 -0.0068795183
-6.0668968e-05 0.0019387908 -0.005313253
0.0018807381 -6.0587212e-05 -0.00067469879
0.0015773933 0.0011511571 -0.0016385543
0.00030334486 -0.0017570291 -0.00025301205
0.00072802766 -0.0018176164 -0.0039277109
-0.00060668972 -0.0018782036 -0.0044096387
0.0012740484 -0.0015146803 -0.003746988
-0.0010313725 0.0016358547 -0.00061445782
0.001941407 6.0587212e-05 -0.0050722891
-0.00084936555 -0.00018176164 0.0003493976
0.0011527104 -0.0015752675 -0.001939759
0.0013953863 -0.00024234885 -0.00025301205
-0.00066735869 0.0018782036 -0.0033855422
-0.0010313725 -0.0015146803 -0.00025301205
0.00030334486 -0.00012117442 -1.2048193e-05
-0.0012740484 -0.00060587213 -0.0068795183
-0.0013953863 0.0013935058 -0.0035060241
-0.00048535175 0.0019387908 -0.0047710845
-0.00078869663 0.0018176164 -0.0063373493
-0.00072802766 0.0018176164 -0.003686747
-0.00078869663 6.0587212e-05 0.0019156627
-0.0011527104 -0.0015146803 -0.00037349397
-0.0014560553 0.0009088082 -0.0068795183
0.001941407 -6.0587212e-05 -0.0062771086
-0.001941407 6.0587212e-05 -0.0026626505
0.00097070349 0.0016964419 -0.002180723
-0.00072802766 0.0018176164 -0.0055542169
-0.00054602075 0 0.0010120482
0.001941407 -0.00036352329 -0.0063975905
-0.00072802766 -0.0016964419 -0.00061445782
0.001820069 -0.00066645932 -0.0044096387
-0.00024267587 0.0009088082 -0.0068795183
-0.001941407 0.00018176164 -0.0016987951
-0.00048535175 -0.0019387908 -0.0051927711
-0.00060668972 -0.0018782036 -0.0052530118
0.00091003452 0.0017570291 -0.0034457832
-0.00060668972 -0.00084822095 -0.0068795183
0.00048535175 0.0019387908 -0.0046506026
-0.0018807381 0.0004846977 -0.0059759035
0.00097070349 -0.0016964419 -0.00097590359
-0.0017594001 -0.00084822095 -0.0041084336
0.0015167242 0.0012723315 -0.0024819276
-0.0012133794 0.0015752675 -0.0041686748
-0.00084936555 0.0017570291 -0.0060963854
-0.001820069 0.00066645932 -0.0023012047
-0.0014560553 0.0013329186 -0.00097590359
-0.0014560553 -0.0013329186 -0.0054939757
-0.00066735869 0.00096939539 -1.2048193e-05
-0.00060668972 -0.0017570291 -0.0068795183
0.00054602075 -0.0018782036 -0.003686747
0.001941407 0.00018176164 -0.0056144577
-0.00091003452 -0.0017570291 -0.0042289156
-0.00012133794 -0.0019387908 -0.0030240964
0.0013953863 -0.00066645932 -0.00025301205
-0.00012133794 -0.0016964419 -0.0068795183
0.00084936555 0.00018176164 0.0017349398
0.001820069 0.00030293607 -0.00055421685
-0.001941407 0.00042411048 -0.0033855422
0.0015167242 0.0012723315 -0.0046506026
0.001941407 -0.00012117442 -0.0027228915
-0.0014560553 -0.0013329186 -0.0065783132
0.0013953863 -0.00054528489 -0.0068795183
0.00024267587 -0.0019387908 -0.0026024096
0.001820069 -0.00066645932 -0.0036265061
0.0011527104 -0.0015752675 -0.005433735
-0.001941407 -0.00018176164 -0.0067590363
6.0668968e-05 0.0019387908 -0.0047710845
-0.0015167242 0.0012723315 -0.0047710845
0.001941407 0.00018176164 -0.0015783133
-0.0018807381 -0.00060587213 -0.0062771086
0.0013347174 -0.0014540931 -0.0011566265
-0.001820069 -0.00078763376 -0.0061566266
0 0.00060587213 -0.0068795183
0.0012133794 -0.0010299826 -0.0068795183
-0.0010920415 -0.0016358547 -0.005313253
-0.00060668972 -0.0018782036 -0.0013373494
-0.00078869663 -0.0013329186 -0.00025301205
-0.001941407 6.0587212e-05 -0.0059156627
-0.0018807381 -0.00060587213 -0.001879518
0.00078869663 -0.0018176164 -0.0032650603
-0.001820069 -0.00072704657 -0.0041686748
0.0013953863 -0.0013935058 -0.0040481929
-0.0015167242 -0.0012723315 -0.0039277109
0.00030334486 0.0016358547 -0.0068795183
0.00024267587 -0.0019387908 -0.0015180723
0.00018200692 0.0019387908 -0.0030240964
0.0016380622 0.0010905698 -0.0066987951
-0.0013953863 -0.00018176164 -0.00019277108
-0.001941407 -0.00012117442 -0.0012168675
-0.00091003452 0.0017570291 -0.003686747
0.00060668972 0.0018782036 -0.002180723
-0.001941407 0.00036352329 -0.00079518073
0.00036401383 0.00024234885 -7.2289156e-05
-0.00054602075 -6.0587212e-05 0.0016746988
0.00018200692 0.0019387908 -0.0033855422
0.001941407 0.00012117442 -0.0047710845
6.0668968e-05 0.0017570291 -0.0068795183
0 0.00018176164 -0.0068795183
0.00066735869 0.0018782036 -0.0035060241
-0.00072802766 -0.00012117442 0.0028795181
-0.00018200692 -0.0019387908 -0.0027228915
0.0012740484 -0.00030293607 -0.00013253013
-0.0010313725 0.0016964419 -0.0039879517
-0.0013953863 0.0013935058 -0.00079518073
-0.001941407 -0.00012117442 -0.0056746989
0.0010920415 -0.00084822095 -0.00013253013
-0.0017594001 -0.00084822095 -0.0065783132
-0.00097070349 -0.0016964419 -0.0047108433
0.0013347174 0.00012117442 -0.00013253013
0.001941407 -0.00036352329 -0.0029036144
0.00060668972 0.00036352329 -0.0068795183
0.0015773933 -0.0011511571 -0.0024216867
0.00012133794 -0.0019387908 -0.0058554215
-0.00091003452 -0.00018176164 0.00059036142
0.0018807381 -0.0004846977 -0.0062168674
0.00078869663 -0.0018176164 -0.003807229
-0.0015773933 -6.0587212e-05 -0.0068795183
-0.0017594001 0.00084822095 -0.0059156627
0.001941407 0.00024234885 -0.0041686748
0.00030334486 0.0015146803 -0.0068795183
0 -0.0019387908 -0.0024216867
-0.00030334486 0.00060587213 -7.2289156e-05
-0.0018807381 -0.00060587213 -0.0025421686
-0.00042468277 -6.0587212e-05 -1.2048193e-05
-0.00018200692 -0.0019387908 -0.0065783132
0.0011527104 0.0015752675 -0.0056144577
-0.00018200692 0.0013935058 -0.00013253013
0.00084936555 -0.0017570291 -0.0018192771
0.001941407 0.00030293607 -0.0063975905
-0.0012740484 0.00078763376 -0.00025301205
0.0016987311 0.00096939539 -0.0055542169
0.00066735869 0.0018782036 -0.0042289156
0.0014560553 0.00072704657 -0.00025301205
0.001941407 6.0587212e-05 -0.0036265061
-0.001941407 0.00036352329 -0.0020602411
0.0016380622 -0.0010905698 -0.0032650603
0.001941407 0.00024234885 -0.0064578312
0.0018807381 -0.00060587213 -0.0022409637
0.00091003452 -0.00012117442 -1.2048193e-05
-0.00048535175 0.0011511571 -7.2289156e-05
0.0010920415 0.0016358547 -0.0016385543
0.00042468277 0.0019387908 -0.0040481929
-0.001941407 -0.00024234885 -0.0047108433
-0.0010920415 0.0016358547 -0.0036265061
-0.00054602075 0 0.00053012051
-0.00078869663 -0.0018176164 -0.0029638554
-0.00042468277 -0.00096939539 -0.0068795183
0.0014560553 0.0013329186 -0.0018192771
0.0015167242 0.0012723315 -0.0065783132
-0.00072802766 0.00054528489 -1.2048193e-05
-0.00012133794 0.0012723315 -1.2048193e-05
-0.0010920415 0.0016358547 -0.0042289156
0.0012740484 0.00096939539 -0.00025301205
0.00084936555 0.00018176164 0.0023373493
0.001941407 0 -0.0027831325
0.001820069 0.00066645932 -0.005313253
0.00042468277 0.0013329186 -0.00013253013
-6.0668968e-05 -0.0012723315 -0.0068795183
0.0011527104 -0.0015752675 -0.0065783132
-0.00084936555 0.0017570291 -0.0048313253
0.00054602075 6.0587212e-05 0.001313253
0.0015167242 -0.0012723315 -0.0049518072
0.0017594001 0.0004846977 -0.00031325303
0.0015773933 0.00042411048 -0.00025301205
-0.0010920415 -0.0010299826 -0.0068795183
0 -0.0019387908 -0.0032650603
-0.001820069 0.00066645932 -0.0045301206
-0.0010313725 -0.0009088082 -0.00019277108
0.0012133794 -0.00012117442 -7.2289156e-05
-0.0012133794 -0.0015752675 -0.0059759035
-0.00036401383 0.0019387908 -0.0027228915
0.00072802766 0.0018176164 -0.0030843373
0.00030334486 -0.0016358547 -0.0068795183
-0.001941407 0.00036352329 -0.0056144577
-0.0013347174 -0.00096939539 -0.0068795183
-0.00091003452 0.0017570291 -0.0039277109
-0.00078869663 -0.0018176164 -0.0045903614
0.0015773933 0.0012117443 -0.0033253012
-0.001820069 0.00072704657 -0.0032650603
0.0017594001 0.0009088082 -0.0053734938
-0.00066735869 0.0018782036 -0.0062771086
0.00018200692 0.0019387908 -0.0045903614
-0.00054602075 -6.0587212e-05 0.0003493976
-0.00048535175 -0.0012117443 -0.00013253013
-0.0016987311 0.0010299826 -0.003746988
-0.0017594001 0.0009088082 -0.0054939757
-0.00060668972 -0.00018176164 -0.0068795183
0.0016987311 -0.00018176164 -0.00025301205
0.00048535175 0.00012117442 0.00022891567
-0.0015773933 0.0012117443 -0.0050120484
0.00097070349 0.0016964419 -0.0013373494
0.0012740484 0.0015146803 -0.0026024096
0.0015773933 -0.0009088082 -0.0068795183
-0.0017594001 0.0009088082 -0.0010361446
0.00036401383 -0.0019387908 -0.00386747
0.00078869663 -0.0018176164 -0.0042289156
0.00091003452 -0.00036352329 -0.00013253013
0.0015773933 0.0010299826 -0.00031325303
-0.0014560553 0.0013329186 -0.0024216867
0.00060668972 -0.00030293607 -0.00013253013
-0.001941407 0.00036352329 -0.0027228915
-0.00018200692 -0.0019387908 -0.003686747
0.00048535175 0.0019387908 -0.0045903614
0.0012740484 -0.0015146803 -0.0045301206
0.0011527104 -0.00096939539 -0.0068795183
-0.00066735869 0.00054528489 -1.2048193e-05
0.0018807381 -0.0004846977 -0.0030843373
-0.0010920415 -0.0016358547 -0.0035060241
0.001820069 -0.00078763376 -0.0017590361
0.0013347174 0.0014540931 -0.0018192771
-0.0013347174 0.0014540931 -0.0026024096
-0.00036401383 -0.0019387908 -0.0043493975
-0.0012133794 -0.00018176164 -7.2289156e-05
0.00030334486 -0.00096939539 -1.2048193e-05
-6.0668968e-05 -0.0018176164 -0.00037349397
-0.00084936555 6.0587212e-05 0.00083132531
0.001941407 -0.00018176164 -0.0060361447
0.0015773933 -0.0011511571 -0.0020602411
0.00072802766 -0.0009088082 -0.0068795183
-0.00054602075 0.0018782036 -0.0048915665
-0.00048535175 0.0019387908 -0.0026024096
0.00066735869 0.0018782036 -0.0049518072
-0.001941407 0 -0.0022409637
0.00054602075 -0.0018782036 -0.0051927711
-0.00060668972 0.00030293607 -0.0068795183
0.00084936555 -0.0017570291 -0.0062771086
-0.0013347174 -0.0014540931 -0.0016987951
-0.00012133794 0.0010905698 -1.2048193e-05
0.00097070349 -0.0016964419 -0.0032650603
0.00018200692 6.0587212e-05 -0.0068795183
0.00048535175 -0.00084822095 -1.2048193e-05
-0.0013953863 0.0011511571 -0.0068795183
0.0013953863 -0.0012723315 -0.00043373494
-0.0012133794 0.0015752675 -0.003746988
0.001941407 0 -0.0050722891
-0.00091003452 6.0587212e-05 0.0028192771
0.00091003452 0 0.00028915663
-0.00066735869 0.0018782036 -0.0032650603
0.00042468277 0.0011511571 -0.0068795183
0.00097070349 0.0010299826 -0.0068795183
-0.001941407 0.00024234885 -0.0029638554
-0.001820069 -0.00078763376 -0.0065180724
-0.0010313725 -0.00012117442 -0.0068795183
-0.0018807381 -0.0004846977 -0.0051325304
-0.0014560553 -0.00096939539 -0.00025301205
0.001941407 -0.00030293607 -0.0042891568
-0.00018200692 -0.0019387908 -0.0026626505
0.0016380622 -0.00060587213 -0.0068795183
-0.00030334486 0.0019387908 -0.0056746989
0.0018807381 0.00060587213 -0.003746988
0.0010313725 -0.0014540931 -0.00025301205
0.00012133794 0.0019387908 -0.0046506026
0.00078869663 -0.0010905698 -0.0068795183
-0.00036401383 0.0019387908 -0.0046506026
0.00012133794 -0.0019387908 -0.0042289156
-0.001941407 0.00024234885 -0.0055542169
0.0010920415 -0.0016358547 -0.0025421686
0.00066735869 -0.0013329186 -0.0068795183
-0.0015773933 -0.0011511571 -0.0029638554
-0.0010920415 -0.0016358547 -0.0060963854
-0.0018807381 0.00054528489 -0.0046506026
0.001941407 0.00018176164 -0.003746988
0.001941407 0.00042411048 -0.0039277109
-0.00078869663 0.0018176164 -0.0024819276
-0.0017594001 -0.0009088082 -0.0017590361
-0.00018200692 0.0019387908 -0.0051927711
0.00097070349 -0.00018176164 -7.2289156e-05
-6.0668968e-05 -0.00084822095 -0.0068795183
0 0.0019387908 -0.0063975905
0.001941407 -0.00018176164 -0.002120482
0.00084936555 -0.00012117442 0.0016144578
-0.00091003452 0.00036352329 -0.0068795183
0.00036401383 -0.0019387908 -0.0033855422
-0.001820069 -0.00078763376 -0.0015180723
0.001820069 0.00072704657 -0.00073493976
-0.0016380622 -0.0010905698 -0.0026024096
0.0012133794 0.0015146803 -0.0067590363
0.0016987311 0.00078763376 -0.0068192771
-0.00054602075 -0.0012723315 -0.00013253013
-0.0015773933 -0.0012117443 -0.0044698794
-0.001941407 0.00030293607 -0.0039277109
-0.0017594001 -0.0009088082 -0.0013975904
0.0012133794 -6.0587212e-05 -1.2048193e-05
0.00048535175 0.0019387908 -0.0053734938
-0.00084936555 -0.00072704657 -0.00013253013
0.00042468277 -0.0019387908 -0.0057349396
0.001941407 -6.0587212e-05 -0.0051325304
-0.00012133794 -0.0019387908 -0.0054939757
0.0013953863 0.00054528489 -0.0068795183
0.0013953863 -0.0013935058 -0.0057951808
0.001941407 0.00024234885 -0.0012168675
0.00030334486 0.0014540931 -0.00025301205
-0.00091003452 0.0017570291 -0.0047710845
-0.0015167242 0.0010905698 -0.00061445782
-0.0010313725 0.0016964419 -0.0065180724
-0.001941407 0.00012117442 -0.0057349396
-0.00036401383 0.0019387908 -0.0050120484
0.00060668972 -0.0017570291 -0.00043373494
0.00084936555 -6.0587212e-05 0.00077108433
0.00091003452 0.0017570291 -0.0048313253
-0.00072802766 -0.0018176164 -0.0056746989
0.00060668972 0.0010905698 -1.2048193e-05
0.00018200692 0.0019387908 -0.0055542169
-0.00078869663 -0.0018176164 -0.001879518
-0.0018807381 -0.00054528489 -0.0011566265
-0.00012133794 0.00072704657 -0.0068795183
-0.0015773933 0.00078763376 -0.0068795183
-0.00091003452 -0.0015146803 -0.0068795183
0.00084936555 -0.0017570291 -0.0026024096
0.00084936555 0.00018176164 0.0021566264
0.0018807381 0.00060587213 -0.0048313253
0.00072802766 0.0016964419 -0.00067469879
-6.0668968e-05 0.0019387908 -0.0059759035
0.00072802766 -0.0016358547 -0.00025301205
-0.00060668972 -0.0018782036 -0.0045903614
-0.00036401383 0.0012117443 -1.2048193e-05
0.00012133794 0.0019387908 -0.0012771084
0.00072802766 6.0587212e-05 0.0029397591
0.00048535175 -0.0019387908 -0.0035060241
0.00036401383 0.0019387908 -0.0063975905
0 0.0019387908 -0.0032048193
0.001941407 -0.00036352329 -0.0051325304
-0.001941407 -0.00036352329 -0.0012771084
-0.0013953863 -0.0013935058 -0.0012771084
-0.001941407 0.00036352329 -0.0053734938
0.001820069 -0.00078763376 -0.00073493976
-0.0012133794 0.0015752675 -0.0059156627
-0.00042468277 0.0019387908 -0.0062771086
0.0017594001 0.00084822095 -0.0024819276
-0.0018807381 0.00054528489 -0.0039879517
-0.0014560553 -0.0012117443 -0.0068192771
-0.0018807381 -0.0004846977 -0.00091566268
0.0017594001 -0.0009088082 -0.0026024096
0.00084936555 -0.0017570291 -0.00386747
0.0017594001 -0.00084822095 -0.0054939757
0.0013953863 -0.0013935058 -0.0057349396
0.001941407 -0.00030293607 -0.001939759
0.0015167242 -0.00096939539 -0.0068795183
-0.001820069 -0.00072704657 -0.001939759
0.0010920415 0.0015146803 -0.00067469879
0.00012133794 -0.0019387908 -0.0051325304
0.00060668972 0.00024234885 0.0001686747
0.00060668972 -0.00042411048 -0.00013253013
0.00042468277 -0.00036352329 -0.0068795183
-0.0017594001 0.0009088082 -0.0033855422
0.00036401383 0.0019387908 -0.0042891568
0 -0.00072704657 -1.2048193e-05
-0.00091003452 0.0017570291 -0.001879518
0.0016380622 0.0010299826 -0.00073493976
0.001941407 -0.00036352329 -0.0059156627
-0.00048535175 0.0019387908 -0.0056746989
-0.0013347174 0.0014540931 -0.0022409637
-0.001941407 -6.0587212e-05 -0.00067469879
0.00054602075 0 0.0001686747
0.0016987311 -0.00096939539 -0.0045903614
0.0010313725 0.0016964419 -0.0030843373
-0.0015773933 0.0012117443 -0.0045903614
0.00091003452 -6.0587212e-05 0.0010120482
-0.0015773933 0.0011511571 -0.002180723
-0.00072802766 -0.0018176164 -0.0045301206
-0.00060668972 -0.0010905698 -7.2289156e-05
6.0668968e-05 -0.0019387908 -0.0060361447
-0.0018807381 0.00060587213 -0.003746988
0.0014560553 0.00030293607 -0.0068795183
0.0013953863 0.0013935058 -0.0065783132
-0.00054602075 -6.0587212e-05 0.0016144578
0.001941407 -0.00042411048 -0.0064578312
-0.001941407 0.00036352329 -0.005433735
0.001941407 0.00042411048 -0.0035662651
0.0017594001 0.00084822095 -0.0022409637
-0.00036401383 -0.0013935058 -0.0068795183
0.00072802766 -0.0018176164 -0.0062168674
-0.001941407 -0.00012117442 -0.0013975904
-0.001820069 0 -0.00031325303
-0.001820069 0.00072704657 -0.0017590361
-0.00097070349 -0.0016964419 -0.0044096387
-0.00091003452 -0.00018176164 0.00083132531
-0.00091003452 -0.00072704657 -0.0068795183
-0.00018200692 -0.00078763376 -0.0068795183
0.001820069 0.00072704657 -0.0059759035
0.0015167242 -0.0012723315 -0.0058554215
-0.0016987311 0.0004846977 -0.0068795183
0.0016987311 -0.0010299826 -0.0048915665
0.0016380622 0.0010905698 -0.0048313253
-0.0011527104 0.0014540931 -0.00025301205
-0.0015773933 0.0012117443 -0.0045301206
0.00042468277 -0.0019387908 -0.0018192771
0.001941407 -0.00024234885 -0.002120482
-0.0018807381 -0.00060587213 -0.0026024096
0.0014560553 0.0013329186 -0.0046506026
0.0012133794 0.0012723315 -0.00025301205
0.0017594001 0.00072704657 -0.0067590363
0.001941407 -0.00030293607 -0.005433735
0.00024267587 0.00078763376 -1.2048193e-05
6.0668968e-05 0.0019387908 -0.0064578312
-0.0014560553 0.00024234885 -0.0068795183
-0.00091003452 0.0017570291 -0.0059759035
-0.0016380622 0.0010905698 -0.0015783133
-0.0011527104 0.0012117443 -0.00025301205
-0.00084936555 -0.00018176164 0.0011927711
0.0018807381 0.00054528489 -0.00097590359
0.00078869663 0.0018176164 -0.0032650603
-0.00042468277 -0.0019387908 -0.0049518072
0.0012133794 0.00096939539 -0.0068795183
6.0668968e-05 -0.0019387908 -0.0043493975
-0.0012133794 -0.0013935058 -0.00049397588
-6.0668968e-05 -0.00078763376 -0.0068795183
0.0010920415 -0.0016358547 -0.0042891568
-0.0017594001 0.00084822095 -0.0062168674
0.001941407 0.00036352329 -0.0012168675
-0.00024267587 0.00078763376 -1.2048193e-05
-0.00060668972 -0.0018782036 -0.0024819276
0.00042468277 0.0013935058 -0.0068795183
-0.00018200692 0.0018782036 -0.00073493976
0.0012740484 -0.0015146803 -0.0023012047
-0.00060668972 0.0015146803 -0.00025301205
-0.0010920415 0.0011511571 -0.0068795183
-0.00012133794 -0.00096939539 -0.0068795183
0.0010313725 0.00030293607 -1.2048193e-05
-0.00036401383 0.0010299826 -1.2048193e-05
-6.0668968e-05 -0.0019387908 -0.0045301206
-0.00097070349 -0.0016964419 -0.0043493975
-0.001941407 -6.0587212e-05 -0.0015180723
-0.00078869663 -0.0018176164 -0.0062771086
0.00054602075 0.00012117442 0.0019156627
0.00048535175 -0.0019387908 -0.0060361447
-0.0013347174 -0.0011511571 -0.0068795183
0.00084936555 -0.0017570291 -0.0065783132
0.0013347174 -0.00096939539 -0.0068795183
0.00097070349 -0.0015752675 -0.00049397588
6.0668968e-05 0.0013329186 -0.00013253013
0.001941407 0.00024234885 -0.0056746989
0.00097070349 0.0011511571 -0.0068795183
-0.0013347174 -0.0014540931 -0.0060361447
-0.00012133794 0.00078763376 -1.2048193e-05
-0.00018200692 0.0019387908 -0.0059759035
-0.00060668972 -0.0018782036 -0.0041084336
0.0010313725 0.0016964419 -0.0036265061
-0.001941407 0.00042411048 -0.0047710845
0.00084936555 -0.0017570291 -0.0041084336
-0.001941407 -0.00012117442 -0.003686747
-0.0010920415 0.0016358547 -0.0010361446
0.0016987311 -0.00096939539 -0.00085542171
6.0668968e-05 -0.0010299826 -0.0068795183
0.00054602075 -0.0018782036 -0.0039879517
0.00072802766 -0.00012117442 0.0003493976
-0.001820069 0.00066645932 -0.0029638554
0.0018807381 -6.0587212e-05 -0.00061445782
-0.001820069 0 -0.00043373494
-0.00084936555 -0.00018176164 0.001313253
-0.00066735869 0.0018782036 -0.0026626505
0.0012740484 0.0015146803 -0.0035662651
-0.001941407 -0.00042411048 -0.001939759
-0.0016380622 -0.0010905698 -0.0031445783
-0.00078869663 -0.00018176164 0.0016144578
6.0668968e-05 -6.0587212e-05 -1.2048193e-05
-0.0015167242 0.00018176164 -0.00025301205
-0.0011527104 -0.00084822095 -0.00025301205
0.00036401383 0.0018782036 -0.00025301205
-0.00097070349 0.0012117443 -0.0068795183
-0.00072802766 -0.00018176164 0.0029397591
0.0013347174 0.00054528489 -0.00025301205
-0.0014560553 0.0013329186 -0.0024819276
-0.0010313725 -0.0012117443 -0.00025301205
-0.001941407 0.00018176164 -0.0028433735
-0.001941407 0 -0.0051927711
0.00060668972 -0.0018782036 -0.0039277109
0.0010313725 -0.0016964419 -0.0020602411
-0.0018807381 -0.0004846977 -0.0062168674
0.0013953863 0.0013935058 -0.0023614457
0.0016380622 -0.00030293607 -0.0068795183
-0.00060668972 0.0018782036 -0.0029638554
-0.0013347174 -0.0014540931 -0.0015180723
-0.00084936555 -0.0011511571 -0.0068795183
-0.001820069 -0.00066645932 -0.0027831325
0.00097070349 -0.0016964419 -0.0040481929
0.0010313725 0.0013935058 -0.00025301205
-0.00091003452 -6.0587212e-05 0.0003493976
-0.0016987311 -0.00096939539 -0.0066987951
-0.0015167242 0.0012723315 -0.0059156627
-0.00072802766 6.0587212e-05 0.0011325302
0.0011527104 -0.0015146803 -0.00025301205
0.00054602075 -0.0018782036 -0.0020000001
-0.001820069 0.00018176164 -0.00025301205
