# .PCD v0.7 - Point Cloud Data file format
VERSION 0.7
FIELDS x y z
SIZE 4 4 4
TYPE F F F
COUNT 1 1 1
WIDTH 1180
HEIGHT 1
VIEWPOINT 0 0 0 1 0 0 0
POINTS 1180
DATA ascii
-0.0040269257 0.010338486 -0.0018180481
-0.0047428235 -0.0019607474 -0.0018180481
-0.0054587219 -0.0021389972 -0.010026574
-0.0047428235 -0.0090907374 -0.0098481281
0.0047428235 -0.0033867455 -0.011811037
0.0029530788 0.0092689879 -0.011097251
0.0051007727 0.0090907374 -0.0036025103
-0.0029530788 -0.0090907374 -0.013238606
-0.0070694922 0.0057039922 -0.0052085263
0.0020582066 -0.010694985 -0.0064576501
-0.0070694922 0.0076647396 -0.0057438649
-0.0027741045 0.0099819861 -0.0062792036
-0.0024161555 -0.010694985 -0.0027102791
0.0054587219 0.0090907374 -0.0064576501
0.0058166706 -0.0090907374 -0.0084205586
-0.0029530788 -0.0090907374 -0.0011042631
-0.0068905177 -0.0099819861 -0.0069929888
-0.0020582066 -0.00017824976 -0.00092581694
-0.0061746198 0.0021389972 -0.0044947416
0.0036689769 0.00017824976 -0.0019964944
0.005637696 -0.0028519961 -0.004316295
0.00044743621 -0.010338486 -0.01306016
0.0047428235 -0.00089124881 -0.011454144
0.0065325685 0.0090907374 -0.0082421126
0.0067115431 0.00730824 -0.004316295
0.0024161555 0.0090907374 -0.0021749404
0.0034900024 -0.010694985 -0.0046731876
0.0068905177 -0.0044562439 -0.0059223115
0.0011633341 -0.010694985 -0.01020502
-0.0045638494 -0.0092689879 -0.0044947416
0.0011633341 0.010160237 -0.0073498809
-0.0042059002 -0.00035649951 -0.012167929
0.0068905177 0.0035649952 -0.0069929888
0.00080538518 0.00071299903 -0.00074737071
-0.0067115431 0.0016042478 -0.0071714348
-0.00026846174 -0.010338486 -0.0080636656
0.003311028 -0.010694985 -0.0068145422
-0.003311028 0.0092689879 -0.0091343429
-0.0045638494 0.0092689879 -0.0085990047
0.0013423086 0.010338486 -0.004316295
0.0070694922 -0.0076647396 -0.0078852195
0.0029530788 0.0090907374 -0.011989483
0.0045638494 0.0010694986 -0.002531833
-0.0065325685 -0.0055257427 -0.0052085263
-0.0011633341 -0.010338486 -0.009669682
8.9487243e-05 -0.0083777383 -0.00074737071
-0.0059956452 0.0085559888 -0.003245618
0.0029530788 -0.0057039922 -0.0011042631
0.0068905177 -0.010516736 -0.0057438649
0.0061746198 0.0069517405 -0.0036025103
-0.005637696 0.0081994887 -0.011454144
0.0040269257 -0.010694985 -0.010026574
0.0043848748 0.0057039922 -0.012703268
-0.0067115431 0.004634494 -0.0089558968
-0.0025951299 -0.00089124881 -0.0011042631
-0.0058166706 0.0019607474 -0.010026574
-0.001879232 0.0071299905 -0.0011042631
-0.0061746198 -0.0099819861 -0.0087774508
0.00062641071 -0.010694985 -0.0027102791
0.0065325685 0.0024954965 -0.0080636656
0.0072484664 -0.009625487 -0.0073498809
-0.0047428235 0.0099819861 -0.0069929888
0.0011633341 0.0040997444 -0.013773945
-0.0029530788 -0.0012477483 -0.0014611556
0.0067115431 -0.0065952409 -0.0082421126
-0.0015212831 0.0092689879 -0.011989483
0.0027741045 -0.0064169914 -0.00074737071
0.0058166706 0.0042779944 -0.010918805
-0.0029530788 0.0092689879 -0.0028887254
0.0015212831 0.010694985 -0.0046731876
-0.0065325685 0.0028519961 -0.0089558968
-0.0063535939 -0.010160237 -0.01020502
0.0059956452 -0.010694985 -0.0053869723
-0.0011633341 0.0067734909 -0.013417053
-0.0034900024 -0.002317247 -0.0016396019
-0.0049217981 -0.0016042478 -0.003424064
-0.0058166706 -0.010694985 -0.0044947416
-0.0034900024 -0.0032084957 -0.012881714
0.0052797473 -0.0090907374 -0.01020502
-0.0059956452 -0.0049909931 -0.010026574
0.0068905177 0.0080212392 -0.0048516337
-0.0043848748 -0.009625487 -0.0018180481
-0.0068905177 -0.010338486 -0.0057438649
-0.005637696 -0.010694985 -0.0082421126
0.0029530788 0.010516736 -0.002531833
0.00044743621 0.0074864901 -0.013773945
-0.0015212831 -0.010694985 -0.012524822
-0.0063535939 -0.002317247 -0.0068145422
0.0047428235 -0.0016042478 -0.0018180481
0.0034900024 -0.00017824976 -0.012881714
0.00098435965 0.010160237 -0.0048516337
-0.0042059002 0.0019607474 -0.0012827094
-0.0031320534 0.0090907374 -0.011811037
-0.0065325685 0.0078429896 -0.01020502
-0.0040269257 0.0016042478 -0.012703268
-0.0070694922 -0.0062387418 -0.0068145422
-0.0049217981 0.0051692431 -0.012167929
0.0040269257 0.0014259981 -0.012524822
0.0025951299 0.0076647396 -0.0011042631
0.0042059002 -0.010694985 -0.009669682
0.0042059002 0.0099819861 -0.0057438649
-0.0051007727 0.0087342383 -0.011989483
0.0054587219 -0.0060604918 -0.0028887254
0.0034900024 -0.0028519961 -0.012881714
-0.0036689769 -0.010160237 -0.012703268
-8.9487243e-05 0.0092689879 -0.011811037
0.0020582066 -0.0048127435 -0.00074737071
0.0049217981 -0.010160237 -0.012167929
-0.0031320534 -0.0026737463 -0.0016396019
-0.0034900024 -0.0033867455 -0.012881714
0.0022371809 -0.010160237 -0.01306016
-0.0040269257 -0.0064169914 -0.0016396019
-0.003311028 -0.0057039922 -0.013238606
-0.00026846174 -0.010338486 -0.0053869723
0.0070694922 -0.0089124879 -0.0061007575
0.0043848748 -0.0085559888 -0.012703268
0.005637696 -0.009625487 -0.0059223115
0.0047428235 0.0055257427 -0.012346376
0.0072484664 0.0040997444 -0.0073498809
-0.0049217981 0.0094472375 -0.0066360962
-0.0027741045 0.010338486 -0.0019964944
0.0049217981 -0.0069517405 -0.011989483
-0.0067115431 -0.0053474926 -0.0078852195
0.0027741045 -0.00017824976 -0.01306016
0.0070694922 -0.0089124879 -0.0062792036
0.0070694922 -0.0074864901 -0.0062792036
-0.0058166706 0.0081994887 -0.01020502
-0.0034900024 0.0074864901 -0.013238606
0.0013423086 0.0062387418 -0.0011042631
0.0034900024 0.010694985 -0.0048516337
-0.0051007727 -0.0092689879 -0.010918805
-0.0068905177 0.0069517405 -0.0046731876
0.005637696 0.00017824976 -0.010383467
0.0068905177 -0.0089124879 -0.0061007575
-0.0065325685 -0.0024954965 -0.0071714348
-0.0042059002 0.0085559888 -0.011632591
0.0068905177 -0.0067734909 -0.0055654189
0.0011633341 0.0021389972 -0.013773945
-0.0067115431 0.0033867455 -0.0082421126
0.0054587219 -0.009625487 -0.0084205586
-0.0047428235 -0.0062387418 -0.011989483
-0.003311028 0.0012477483 -0.0012827094
-0.0068905177 -0.0099819861 -0.0071714348
-0.005637696 -0.010516736 -0.010383467
-0.0043848748 -0.010694985 -0.003424064
-0.0045638494 0.010338486 -0.0048516337
0.0070694922 -0.0094472375 -0.0077067735
0.0043848748 -0.010694985 -0.0094912359
0.0054587219 0.0081994887 -0.011811037
0.0049217981 -0.009625487 -0.0053869723
-0.0024161555 -0.0055257427 -0.013417053
0.0015212831 0.0033867455 -0.00074737071
0.00062641071 0.0092689879 -0.0028887254
-0.0063535939 -0.010694985 -0.0053869723
-0.00026846174 -0.0099819861 -0.0085990047
0.0042059002 0.0094472375 -0.0075283274
0.0059956452 0.0051692431 -0.0037809566
0.0020582066 0.0060604918 -0.0011042631
-0.003311028 0.0094472375 -0.0077067735
0.0067115431 0.003743245 -0.0085990047
0.0043848748 -0.0044562439 -0.0021749404
0.003311028 0.0094472375 -0.0053869723
-0.0067115431 0.0028519961 -0.0085990047
-0.0027741045 0.0062387418 -0.013773945
0.0065325685 -0.0080212392 -0.0098481281
-0.0068905177 0.0017824976 -0.0071714348
-0.005637696 0.00035649951 -0.010026574
-0.0065325685 -0.0081994887 -0.0046731876
-0.0013423086 0.0042779944 -0.0011042631
-0.0052797473 -0.0035649952 -0.0037809566
0.00044743621 -0.010694985 -0.003424064
-0.0047428235 0.0090907374 -0.0028887254
-0.0025951299 0.0090907374 -0.0021749404
-0.0061746198 -0.0026737463 -0.0078852195
-0.0051007727 -0.0012477483 -0.010918805
0.0051007727 -0.003743245 -0.011454144
0.0011633341 0.0090907374 -0.010740359
0.0070694922 0.0080212392 -0.0066360962
0.0045638494 0.0053474926 -0.0016396019
0.0042059002 -0.00730824 -0.012703268
-0.0015212831 0.0030302459 -0.0011042631
0.0036689769 0.0033867455 -0.00092581694
0.0054587219 0.0090907374 -0.0030671717
0.0051007727 0.0099819861 -0.0066360962
-0.0043848748 -0.0030302459 -0.0027102791
-0.00098435965 -0.0094472375 -0.0011042631
0.00062641071 0.0035649952 -0.00074737071
-0.0061746198 -0.0069517405 -0.0098481281
0.0027741045 0.0094472375 -0.0028887254
0.00098435965 0.00089124881 -0.00074737071
0.0025951299 -0.0087342383 -0.01306016
-0.00044743621 -0.0065952409 -0.00074737071
0.0052797473 -0.00017824976 -0.010740359
-0.00098435965 0.0090907374 -0.010918805
-0.0013423086 0.0098037366 -0.0057438649
-0.0029530788 0.0074864901 -0.00074737071
-0.005637696 -0.0057039922 -0.003424064
0.0043848748 0.00017824976 -0.0014611556
-0.0013423086 0.0099819861 -0.004137849
0.00098435965 0.0099819861 -0.003245618
-0.0042059002 -0.0076647396 -0.0016396019
-0.0058166706 0.00017824976 -0.004137849
0.0045638494 0.0092689879 -0.0050300802
0.0043848748 0.0048127435 -0.0018180481
0.0013423086 -0.010694985 -0.0018180481
-0.0059956452 0.0089124879 -0.0078852195
0.0027741045 0.00035649951 -0.0012827094
-0.0051007727 -0.0090907374 -0.009669682
-0.0036689769 -0.0092689879 -0.0012827094
0.0025951299 0.0090907374 -0.0019964944
0.0013423086 0.0092689879 -0.0085990047
-0.0042059002 -0.0098037366 -0.011454144
0.0054587219 -0.0092689879 -0.0075283274
-0.00080538518 -0.010694985 -0.012346376
-0.0047428235 -0.0083777383 -0.0019964944
0.00098435965 -0.00017824976 -0.013595499
-0.0024161555 0.0092689879 -0.011275697
0.005637696 -0.0078429896 -0.011632591
0.001879232 0.010160237 -0.0030671717
0.00062641071 -0.0064169914 -0.00074737071
0.0059956452 0.0092689879 -0.0052085263
8.9487243e-05 0.0090907374 -0.0011042631
0.0031320534 0.0099819861 -0.0059223115
-0.0068905177 0.004634494 -0.0050300802
-0.0024161555 0.0094472375 -0.003245618
0.0047428235 0.010160237 -0.0061007575
-0.0025951299 -0.010694985 -0.0080636656
0.0072484664 0.00730824 -0.0061007575
-0.0059956452 -0.0080212392 -0.0039594029
0.005637696 0.004634494 -0.011275697
0.0061746198 -0.0090907374 -0.0068145422
0.001879232 0.0067734909 -0.0011042631
0.0070694922 0.0039214948 -0.0059223115
0.0051007727 -0.0092689879 -0.0085990047
0.0022371809 -0.0098037366 -0.00092581694
0.0068905177 -0.0049909931 -0.0061007575
-0.005637696 -0.002317247 -0.0048516337
0.0015212831 0.0098037366 -0.0061007575
0.0049217981 -0.010694985 -0.01020502
0.0059956452 -0.0067734909 -0.0036025103
0.0054587219 0.0058822422 -0.011989483
-0.0027741045 0.0060604918 -0.0011042631
-0.0052797473 -0.0090907374 -0.0046731876
0.0024161555 -0.004634494 -0.00074737071
-0.0070694922 -0.0016042478 -0.0071714348
-0.0045638494 -0.0094472375 -0.009669682
0.0020582066 0.0092689879 -0.010026574
-0.0024161555 0.0035649952 -0.0011042631
0.0065325685 0.0040997444 -0.0094912359
-0.0013423086 -0.010160237 -0.0066360962
-0.0065325685 -0.0071299905 -0.0087774508
-0.0043848748 -0.010694985 -0.0085990047
0.00098435965 0.00089124881 -0.013773945
0.00062641071 0.0012477483 -0.013773945
-0.005637696 -0.00017824976 -0.0037809566
0.0072484664 0.0069517405 -0.0084205586
-0.0013423086 0.0060604918 -0.0011042631
0.001879232 0.0024954965 -0.00074737071
0.005637696 -0.00017824976 -0.004316295
0.0015212831 0.0098037366 -0.002531833
0.0065325685 -0.0033867455 -0.0078852195
8.9487243e-05 -0.010694985 -0.003424064
0.00026846174 -0.0058822422 -0.013595499
0.0065325685 -0.009625487 -0.004316295
0.0051007727 0.0083777383 -0.0021749404
-0.0052797473 -0.0085559888 -0.002531833
-0.0015212831 0.0089124879 -0.0011042631
-0.0047428235 0.0074864901 -0.012524822
0.00044743621 -0.010338486 -0.0089558968
-0.0011633341 0.0035649952 -0.0011042631
-0.0017002575 -0.010694985 -0.012167929
0.0054587219 0.0062387418 -0.0027102791
0.0068905177 0.0039214948 -0.0052085263
-0.0068905177 0.0030302459 -0.0078852195
-0.0051007727 -0.0092689879 -0.0068145422
0.0067115431 0.003743245 -0.0084205586
0.0034900024 0.010516736 0.0021077688
0.00026846174 -0.0078429896 -0.00074737071
0.0024161555 0.0092689879 -0.010740359
-0.0029530788 -0.010694985 -0.011632591
0.0027741045 -0.009625487 -0.00074737071
-0.00098435965 -0.010694985 -0.0052085263
0.0011633341 0.0087342383 -0.013773945
-0.0047428235 -0.0033867455 -0.0030671717
-8.9487243e-05 0.0098037366 -0.0050300802
0.003311028 -0.002317247 -0.012881714
0.0042059002 0.0098037366 -0.0075283274
0.005637696 0.0019607474 -0.0039594029
0.0070694922 -0.0080212392 -0.0059223115
-0.0068905177 0.0076647396 -0.0050300802
0.0040269257 -0.004634494 -0.0019964944
0.0040269257 0.0014259981 -0.00092581694
-0.0034900024 0.010516736 -0.0053869723
0.0047428235 0.00035649951 -0.011811037
0.0038479513 0.010160237 0.0012155378
-0.0068905177 0.0089124879 -0.0069929888
0.0065325685 -0.0092689879 -0.004137849
0.0059956452 0.0089124879 -0.003424064
0.0061746198 0.00035649951 -0.0085990047
0.0017002575 -0.0044562439 -0.013595499
-0.0027741045 -0.0060604918 -0.013238606
-0.0011633341 -0.0055257427 -0.013595499
0.0059956452 -0.00089124881 -0.0091343429
-0.0067115431 -0.0042779944 -0.0073498809
0.0068905177 0.0042779944 -0.0048516337
-0.00080538518 0.0048127435 -0.0011042631
0.0040269257 -0.010694985 -0.0071714348
0.0020582066 -0.0010694986 -0.00074737071
-0.0013423086 -0.010694985 -0.0082421126
0.0036689769 -0.003743245 -0.012881714
-0.0061746198 -0.0090907374 -0.0037809566
-0.0022371809 -0.0092689879 -0.0011042631
0.0020582066 0.0094472375 -0.003424064
0.0049217981 0.00035649951 -0.003424064
-0.0040269257 0.010338486 0.0015724303
-0.0043848748 -0.010694985 -0.0084205586
-0.0015212831 -0.010694985 -0.0075283274
-0.0043848748 0.002317247 -0.0016396019
-0.0025951299 0.0081994887 -0.013417053
-0.00026846174 0.0094472375 -0.0082421126
-8.9487243e-05 -0.010694985 -0.0027102791
0.0025951299 0.0099819861 -0.0062792036
-0.0068905177 0.004634494 -0.0053869723
0.0020582066 0.0098037366 -0.0075283274
0.0070694922 -0.0089124879 -0.0080636656
-0.0038479513 0.010516736 -0.0052085263
-0.00062641071 -0.0078429896 -0.00074737071
0.0052797473 0.0040997444 -0.011811037
0.0022371809 0.0060604918 -0.00074737071
0.0065325685 0.0049909931 -0.0093127899
0.0065325685 -0.010338486 -0.010026574
-0.001879232 0.0078429896 -0.0011042631
0.00026846174 -0.0026737463 -0.013773945
-0.0034900024 -0.010694985 -0.0037809566
-0.0013423086 0.0057039922 -0.013595499
0.0011633341 -0.0076647396 -0.013773945
-0.0042059002 0.0016042478 -0.0018180481
-0.0058166706 -0.0098037366 -0.0037809566
0.0061746198 -0.010516736 -0.0094912359
-0.0059956452 0.0049909931 -0.010740359
-0.0036689769 -0.0016042478 -0.0019964944
0.0065325685 -0.0058822422 -0.0052085263
-0.0036689769 -0.00730824 -0.0014611556
-0.0036689769 0.0035649952 -0.01306016
0.0025951299 0.0090907374 -0.0087774508
0.0024161555 -0.0055257427 -0.013238606
-0.00044743621 0.010694985 -0.0048516337
-0.0013423086 0.0071299905 -0.0011042631
0.00080538518 -0.010694985 -0.0077067735
-0.0015212831 -0.0080212392 -0.0011042631
0.0043848748 0.0016042478 -0.0023533867
-0.0040269257 0.0099819861 -0.0018180481
-0.0022371809 0.0092689879 -0.0077067735
-0.0054587219 -0.010160237 -0.0073498809
-0.0034900024 -0.0085559888 -0.0012827094
-0.0034900024 0.010516736 -0.0050300802
-0.0029530788 0.0014259981 -0.00092581694
0.00026846174 0.0035649952 -0.013773945
0.0072484664 0.0055257427 -0.0069929888
0.0025951299 0.010160237 -0.003424064
-0.0024161555 0.0094472375 -0.0046731876
-0.0051007727 -0.010516736 -0.0098481281
-0.0043848748 0.0033867455 -0.0016396019
0.0052797473 0.0057039922 -0.011811037
0.0011633341 -0.002317247 -0.00074737071
-0.00080538518 -0.0090907374 -0.00092581694
0.0065325685 0.0026737463 -0.0085990047
-0.00098435965 0.010694985 -0.0048516337
-0.0042059002 0.0012477483 -0.0018180481
-0.0059956452 -0.0024954965 -0.0082421126
0.0070694922 0.0085559888 -0.0059223115
0.0063535939 0.0080212392 -0.0093127899
-0.0047428235 0.0039214948 -0.012167929
0.0034900024 0.010516736 -0.0036025103
8.9487243e-05 0.0094472375 -0.0061007575
-0.0061746198 -0.0089124879 -0.0050300802
0.0043848748 -0.010694985 -0.0027102791
0.0059956452 0.0058822422 -0.003424064
-0.0022371809 -0.00017824976 -0.013417053
-0.00044743621 -0.0099819861 -0.0085990047
0.0022371809 0.002317247 -0.00074737071
0.0038479513 0.0092689879 -0.0084205586
0.0052797473 -0.010516736 -0.0084205586
0.0065325685 0.0058822422 -0.010026574
-0.0065325685 0.00730824 -0.010383467
-0.005637696 0.0021389972 -0.003424064
0.0052797473 -0.0065952409 -0.0027102791
-0.00098435965 0.0085559888 -0.013595499
0.00044743621 0.0099819861 -0.0073498809
0.0047428235 0.0016042478 -0.011989483
-0.0049217981 -0.0044562439 -0.0030671717
0.0045638494 0.0019607474 -0.002531833
-0.005637696 0.0076647396 -0.011632591
-0.0072484664 0.0074864901 -0.0071714348
-0.0061746198 0.0016042478 -0.009669682
0.0040269257 0.0090907374 -0.002531833
0.0027741045 0.0092689879 -0.0027102791
0.0038479513 0.0099819861 -0.0050300802
-0.0059956452 -0.0024954965 -0.0085990047
0.0049217981 -0.010516736 -0.0073498809
0.00044743621 -0.0092689879 -0.00074737071
0.0058166706 -0.0039214948 -0.004137849
-0.0072484664 0.0062387418 -0.0080636656
-0.00080538518 0.010516736 -0.0071714348
-0.0043848748 -0.010694985 -0.010026574
-0.0013423086 0.009625487 -0.0075283274
-0.0027741045 -0.0064169914 -0.0011042631
0.00080538518 -0.0099819861 -0.0073498809
-0.0038479513 -0.010694985 -0.003424064
0.0067115431 -0.0067734909 -0.0084205586
0.00044743621 0.010160237 -0.0030671717
-0.0013423086 -0.0010694986 -0.013595499
-0.0043848748 -0.0065952409 -0.012346376
0.0042059002 0.0039214948 -0.0014611556
-0.0045638494 0.0078429896 -0.012703268
0.0040269257 0.003743245 -0.00092581694
-0.00080538518 -0.0090907374 -0.013595499
0.00080538518 -0.0016042478 -0.013773945
-0.0065325685 -0.010516736 -0.0053869723
0.0063535939 -0.0089124879 -0.010383467
0.0059956452 -0.0094472375 -0.0057438649
0.0059956452 -0.0039214948 -0.0094912359
-0.0043848748 -0.0057039922 -0.0018180481
0.0024161555 -0.010694985 -0.011097251
-0.0029530788 -0.010694985 -0.010918805
-0.0015212831 -0.0083777383 -0.0011042631
-0.0061746198 -0.0033867455 -0.0053869723
0.0011633341 -0.0060604918 -0.013773945
-0.0027741045 0.002317247 -0.0011042631
0.0038479513 -0.0030302459 -0.012524822
0.00098435965 -0.0014259981 -0.013773945
0.00098435965 -0.010694985 -0.0036025103
0.0034900024 0.0090907374 -0.010740359
0.005637696 0.0076647396 -0.002531833
0.0065325685 0.0012477483 -0.0075283274
0.0029530788 0.0055257427 -0.00074737071
0.0017002575 -0.010694985 -0.0068145422
0.0054587219 -0.010694985 -0.0071714348
0.00080538518 0.0099819861 -0.0018180481
-0.0063535939 -0.0010694986 -0.0075283274
-0.0065325685 0.0085559888 -0.0098481281
0.00026846174 -0.010338486 -0.0062792036
-0.001879232 0.0035649952 -0.013595499
-0.0051007727 -0.0049909931 -0.0030671717
0.0045638494 0.0078429896 -0.012703268
-0.0042059002 -0.0055257427 -0.012524822
-0.0024161555 0.010160237 -0.003424064
-0.0042059002 -0.0064169914 -0.012524822
0.003311028 0.0019607474 -0.0014611556
-0.00080538518 -0.0099819861 -0.0094912359
0.003311028 0.0094472375 -0.0048516337
0.0045638494 -0.0062387418 -0.0021749404
-0.0051007727 -0.010694985 -0.0066360962
0.0024161555 -0.0098037366 -0.012881714
-0.0067115431 -0.0058822422 -0.0053869723
0.0054587219 0.004634494 -0.0027102791
0.0015212831 0.0024954965 -0.00074737071
0.005637696 -0.0014259981 -0.0098481281
-0.0024161555 -0.010694985 -0.0093127899
0.0017002575 -0.0051692431 -0.013773945
0.00044743621 0.0094472375 -0.0059223115
-0.0024161555 0.0051692431 -0.013417053
-0.0043848748 -0.0014259981 -0.0028887254
0.0024161555 0.0016042478 -0.00074737071
-0.0036689769 0.0090907374 -0.0023533867
0.005637696 -0.0010694986 -0.0046731876
-0.0015212831 0.010694985 -0.0055654189
0.0025951299 0.0090907374 -0.011811037
0.0052797473 0.0024954965 -0.011275697
-0.0051007727 -0.0090907374 -0.01020502
-0.0031320534 0.0039214948 -0.0011042631
-0.0017002575 0.0098037366 -0.0075283274
-0.0063535939 -0.0089124879 -0.0057438649
-0.0043848748 0.0074864901 -0.0014611556
-8.9487243e-05 0.010694985 -0.0055654189
0.0052797473 0.00071299903 -0.010740359
0.0031320534 0.0094472375 -0.003424064
-0.0063535939 -0.0033867455 -0.0078852195
-0.0065325685 0.0090907374 -0.0046731876
0.0063535939 -0.0014259981 -0.0066360962
0.0029530788 -0.0094472375 -0.01306016
-0.0049217981 0.0016042478 -0.0028887254
-0.0045638494 0.0087342383 -0.011811037
-0.0038479513 0.010338486 -0.002531833
-0.0045638494 -0.0012477483 -0.0016396019
-0.0043848748 -0.0051692431 -0.0016396019
-0.0015212831 0.0098037366 -0.0059223115
-0.0034900024 0.0085559888 -0.011632591
0.0022371809 0.010694985 -0.0064576501
0.0043848748 -0.0019607474 -0.002531833
-0.0040269257 -0.0060604918 -0.0016396019
-0.0011633341 0.0098037366 -0.0059223115
-0.0027741045 -0.010694985 -0.0019964944
-0.0058166706 0.0060604918 -0.0030671717
-0.0011633341 0.0092689879 -0.0019964944
0.00026846174 0.0087342383 -0.013595499
0.00044743621 -0.0014259981 -0.013773945
0.0070694922 -0.0099819861 -0.0080636656
0.0031320534 0.010516736 -0.003424064
0.0034900024 0.010516736 -0.0018180481
-0.0036689769 0.010338486 -0.003424064
-0.0054587219 -0.0090907374 -0.0059223115
0.0052797473 0.0062387418 -0.011811037
-0.005637696 0.0085559888 -0.0028887254
0.00026846174 0.0085559888 -0.0011042631
0.0058166706 0.0090907374 -0.0078852195
-0.0034900024 -0.0062387418 -0.01306016
-0.0052797473 -0.0060604918 -0.011275697
0.001879232 -0.0058822422 -0.013595499
-0.0042059002 0.0005347493 -0.012346376
-0.0015212831 -0.0012477483 -0.013417053
0.005637696 -0.0074864901 -0.011454144
-0.0024161555 -0.010694985 -0.0048516337
-0.0038479513 -0.0019607474 -0.0021749404
0.0058166706 0.0094472375 -0.0071714348
0.00098435965 -0.010160237 -0.0073498809
0.0051007727 -0.009625487 -0.0089558968
-0.0017002575 -0.010160237 -0.0068145422
-0.0020582066 0.0078429896 -0.0011042631
0.0013423086 0.0069517405 -0.0011042631
0.00080538518 0.0092689879 -0.012524822
-0.0024161555 0.0083777383 -0.0011042631
-0.0043848748 -0.0039214948 -0.012167929
-0.0070694922 -0.0058822422 -0.0071714348
-0.00080538518 -0.010694985 -0.0077067735
-0.0061746198 -0.0019607474 -0.0077067735
0.0059956452 -0.002317247 -0.0085990047
0.005637696 -0.00071299903 -0.004316295
0.0058166706 0.0012477483 -0.010026574
-0.00026846174 0.0089124879 -0.0093127899
0.0067115431 -0.010516736 -0.0062792036
0.00062641071 0.0065952409 -0.0011042631
0.0047428235 -0.0005347493 -0.003424064
-0.0034900024 -0.0026737463 -0.0016396019
-0.00062641071 -0.0017824976 -0.013595499
-0.0031320534 -0.004634494 -0.0014611556
-0.0061746198 -0.0032084957 -0.0057438649
-0.0038479513 0.0057039922 -0.00092581694
0.0063535939 -0.0094472375 -0.0071714348
0.0059956452 -0.0078429896 -0.0036025103
-0.0025951299 -0.0028519961 -0.013417053
0.0070694922 -0.0067734909 -0.0059223115
0.0042059002 -0.010516736 -0.002531833
-0.0017002575 0.0010694986 -0.013417053
0.0047428235 -0.0021389972 -0.0030671717
-0.0042059002 0.002317247 -0.0014611556
-0.003311028 0.010516736 -0.00074737071
-0.00080538518 -0.0065952409 -0.013595499
0.0040269257 0.0005347493 -0.012524822
0.0020582066 0.002317247 -0.013595499
-0.0038479513 0.0005347493 -0.012703268
-0.0042059002 -0.0053474926 -0.0014611556
-0.0047428235 0.0053474926 -0.012703268
-0.0034900024 -0.0087342383 -0.013238606
-0.00080538518 -0.0044562439 -0.013595499
0.0051007727 0.002317247 -0.011632591
-0.0031320534 0.010516736 -0.0037809566
-0.0068905177 0.0017824976 -0.0075283274
-0.0067115431 0.0012477483 -0.0066360962
0.0061746198 -0.010694985 -0.0055654189
0.0052797473 -0.0090907374 -0.0091343429
0.00026846174 -0.010338486 -0.0089558968
-0.0017002575 -0.010694985 -0.010383467
-0.0051007727 -0.0098037366 -0.011989483
-0.0063535939 0.0089124879 -0.01020502
-0.00026846174 0.0098037366 -0.0061007575
0.0063535939 -0.0065952409 -0.0094912359
-0.00062641071 0.0094472375 -0.0039594029
-0.0020582066 -0.0039214948 -0.013417053
-0.0029530788 -0.010694985 -0.0046731876
-0.0047428235 -0.0080212392 -0.0018180481
0.0067115431 -0.0094472375 -0.0091343429
0.005637696 0.0090907374 -0.0030671717
-0.0058166706 -0.00071299903 -0.0046731876
0.0054587219 -0.010516736 -0.009669682
-0.0063535939 -0.010160237 -0.0039594029
0.00098435965 -0.0030302459 -0.00074737071
0.003311028 -0.010694985 -0.012167929
0.0011633341 0.0094472375 -0.0084205586
-0.0042059002 0.010338486 -0.0039594029
-0.0054587219 -0.0098037366 -0.010918805
-0.0029530788 0.0024954965 -0.0011042631
-0.0068905177 -0.010338486 -0.0059223115
-0.0025951299 0.003743245 -0.013238606
0.0070694922 0.0055257427 -0.0075283274
-0.0058166706 -0.0017824976 -0.0089558968
-0.0036689769 0.010160237 -0.0028887254
-0.0072484664 0.0040997444 -0.0066360962
0.0061746198 -0.0055257427 -0.01020502
0.0034900024 -0.0071299905 -0.012881714
-0.0043848748 -0.0067734909 -0.0016396019
0.0063535939 -0.0099819861 -0.0039594029
-8.9487243e-05 0 -0.00074737071
-0.00044743621 0.0098037366 -0.0062792036
-0.00098435965 0.0099819861 -0.0023533867
-0.0072484664 0.00035649951 -0.0069929888
0.0052797473 0 -0.010740359
0.0015212831 -0.0030302459 -0.013595499
0.0020582066 -0.004634494 -0.00074737071
-0.00044743621 0.00071299903 -0.013952391
-0.00026846174 0.0098037366 -0.0028887254
0.0025951299 0.010516736 -0.0021749404
-0.0043848748 0.0087342383 -0.012703268
0.0031320534 0.0099819861 -0.0052085263
-0.0043848748 0.0083777383 -0.010740359
0.0047428235 -0.0076647396 -0.012167929
-0.0065325685 0.002317247 -0.0050300802
0.0015212831 0.0083777383 -0.0011042631
0.0022371809 -0.010694985 -0.003424064
0.0063535939 -0.0055257427 -0.0093127899
-0.0020582066 0.0092689879 -0.0093127899
-0.0013423086 0.0098037366 -0.0075283274
0.0061746198 0.0062387418 -0.0037809566
-0.0036689769 -0.0005347493 -0.0012827094
0.0020582066 0.0099819861 -0.0039594029
0.003311028 -0.010694985 -0.0091343429
-0.00044743621 -0.0021389972 -0.00074737071
-0.0015212831 -0.010516736 -0.009669682
-0.0063535939 0.0065952409 -0.010740359
-8.9487243e-05 -0.0019607474 -0.00074737071
0.0022371809 -0.003743245 -0.01306016
-0.005637696 -0.0099819861 -0.0046731876
0.0045638494 0.0035649952 -0.012346376
-0.0065325685 -0.0044562439 -0.0064576501
-0.00062641071 -0.0049909931 -0.00074737071
-0.0065325685 0.0090907374 -0.0075283274
0.0049217981 -0.0089124879 -0.0021749404
0.0011633341 -0.0048127435 -0.013773945
-0.0054587219 0.0081994887 -0.011811037
-0.0063535939 -0.0042779944 -0.0061007575
0.0063535939 -0.0044562439 -0.0050300802
0.0036689769 0.0092689879 -0.0091343429
-0.00098435965 -0.010694985 -0.0039594029
0.0020582066 0.0092689879 -0.0082421126
-0.0054587219 0.0090907374 -0.0084205586
-0.0065325685 -0.0099819861 -0.004316295
0.0049217981 0 -0.011275697
-0.0027741045 -0.0099819861 -0.0014611556
-0.0047428235 -0.0048127435 -0.011811037
0.0065325685 -0.010516736 -0.0085990047
-0.00080538518 0.0098037366 -0.0037809566
0.00080538518 -0.0092689879 -0.013773945
0.0051007727 0 -0.012703268
-0.0042059002 -0.0044562439 -0.0014611556
-0.0061746198 0.0064169914 -0.010740359
0.0011633341 0.0092689879 -0.0014611556
-0.0038479513 0.0081994887 -0.0011042631
-0.0047428235 0.010160237 -0.0062792036
-0.0025951299 0.0076647396 -0.00074737071
-0.00044743621 0.010694985 -0.0046731876
0.0054587219 -0.010694985 -0.0082421126
-0.0029530788 0.009625487 -0.0075283274
0.0031320534 -0.010694985 -0.0098481281
0.0070694922 -0.010516736 -0.0066360962
0.0017002575 0.0098037366 -0.0057438649
0.0043848748 -0.0092689879 -0.012703268
-8.9487243e-05 0.010694985 -0.0027102791
-0.0059956452 -0.0085559888 -0.010740359
-0.0063535939 0.0032084957 -0.004137849
-0.0063535939 -0.0028519961 -0.0077067735
0.0011633341 0.0039214948 -0.013773945
-0.0059956452 0.0042779944 -0.010561913
-0.0065325685 -0.0080212392 -0.009669682
-0.00062641071 -0.0067734909 -0.00074737071
-0.0072484664 0.0055257427 -0.0066360962
0.0061746198 -0.0089124879 -0.0089558968
-0.0058166706 -0.0067734909 -0.003424064
-0.0024161555 0.0092689879 -0.002531833
0.0027741045 0.0071299905 -0.01306016
-0.0042059002 -0.0055257427 -0.012346376
-0.0020582066 -0.010694985 -0.004316295
-0.0022371809 0.0021389972 -0.013417053
-0.0051007727 -0.0094472375 -0.011811037
0.0034900024 -0.0039214948 -0.012881714
-0.0020582066 0.010694985 -0.0055654189
-0.0049217981 -0.0092689879 -0.0037809566
0.005637696 -0.0019607474 -0.0046731876
-0.0036689769 -0.0078429896 -0.0012827094
-0.0068905177 0.0019607474 -0.0068145422
-0.00098435965 0.010694985 -0.0036025103
-0.00044743621 0.0065952409 -0.0011042631
0.0045638494 0.0099819861 -0.003424064
-0.0058166706 -0.010160237 -0.0078852195
0.0070694922 0.0033867455 -0.0078852195
0.001879232 0.0099819861 -0.004137849
-0.0017002575 -0.010516736 -0.0061007575
-0.0024161555 -0.00089124881 -0.0011042631
0.0036689769 0.010160237 -0.0027102791
-0.0052797473 -0.002317247 -0.004137849
0.0038479513 0.0085559888 -0.011454144
0.00026846174 0.010516736 -0.0061007575
-0.003311028 -0.0071299905 -0.0012827094
-0.005637696 -0.002317247 -0.0093127899
-0.0068905177 0.0080212392 -0.0050300802
0.0070694922 -0.0058822422 -0.0071714348
-0.0029530788 0.010516736 -0.0059223115
0.0072484664 0.0044562439 -0.0068145422
-0.00098435965 -0.0064169914 -0.013595499
0.0045638494 -0.009625487 -0.0055654189
0.0043848748 0.0028519961 -0.0018180481
-0.0027741045 0.0010694986 -0.00092581694
-0.0042059002 0.0016042478 -0.0021749404
0.0031320534 -0.0014259981 -0.0016396019
-0.0049217981 -0.0040997444 -0.011454144
-0.0045638494 -0.0064169914 -0.0019964944
0.00026846174 0.010160237 -0.0059223115
-0.0063535939 -0.0081994887 -0.010026574
0.0025951299 0.0017824976 -0.01306016
0.0042059002 0.0081994887 -0.010561913
0.0052797473 0.00730824 -0.011989483
0.0065325685 0.0083777383 -0.004137849
-0.0024161555 -0.0094472375 -0.0011042631
0.0029530788 -0.0033867455 -0.0012827094
0.00044743621 -0.010160237 -0.00074737071
-0.0011633341 0.010160237 -0.0053869723
0.0011633341 0.0094472375 -0.0053869723
0.00062641071 0.0098037366 -0.0018180481
-0.0054587219 0.0087342383 -0.011811037
0.0067115431 0.0042779944 -0.0087774508
-0.0051007727 0.0051692431 -0.0021749404
0.0068905177 -0.0094472375 -0.0050300802
-0.0045638494 -0.0010694986 -0.011632591
0.0045638494 -0.0092689879 -0.010561913
-0.0020582066 -0.010338486 -0.0066360962
0.0047428235 -0.010516736 -0.0044947416
8.9487243e-05 0.0098037366 -0.0012827094
-0.001879232 -0.010516736 -0.0052085263
0.005637696 -0.0051692431 -0.010918805
0.0068905177 0.0074864901 -0.0093127899
0.0052797473 -0.009625487 -0.0053869723
0.003311028 -0.0064169914 -0.012881714
0.0025951299 0.0092689879 -0.011454144
-8.9487243e-05 -0.004634494 -0.00074737071
-0.0043848748 -0.010338486 -0.0018180481
0.0036689769 -0.0021389972 -0.012524822
-0.0051007727 -0.009625487 -0.0077067735
-0.0042059002 -0.009625487 -0.012524822
-0.00062641071 -0.010516736 -0.0091343429
-0.0058166706 -0.0030302459 -0.0093127899
-0.0070694922 -0.010160237 -0.0069929888
-0.0047428235 -0.0081994887 -0.012167929
-0.0067115431 0.0080212392 -0.004316295
0.0029530788 -0.0048127435 -0.012881714
0.005637696 -0.009625487 -0.0084205586
0.0025951299 0.010694985 -0.0030671717
-0.00098435965 0.0094472375 -0.0057438649
-0.0036689769 -0.009625487 -0.011989483
0.0031320534 0.0099819861 -0.0037809566
-0.0054587219 0.00035649951 -0.003424064
-0.0038479513 0.0085559888 -0.010383467
0.0067115431 -0.0092689879 -0.0050300802
-0.0038479513 0.010516736 -0.00074737071
-0.0059956452 -0.0099819861 -0.011097251
0.0065325685 -0.0032084957 -0.0078852195
0.0067115431 0.002317247 -0.0073498809
0.0011633341 -0.0069517405 -0.013773945
-0.003311028 -0.00071299903 -0.0016396019
0.0011633341 -0.0016042478 -0.00074737071
0.0072484664 0.0040997444 -0.0068145422
0.00080538518 -0.0005347493 -0.013773945
0.001879232 0.0044562439 -0.00074737071
-0.0072484664 0.0065952409 -0.0062792036
0.0031320534 0.0019607474 -0.012881714
0.0025951299 0.0053474926 -0.01306016
-0.0011633341 -0.010694985 -0.0050300802
0.00098435965 0.0069517405 -0.0011042631
0.0051007727 0.0062387418 -0.012167929
-0.00080538518 0.0090907374 -0.010918805
-0.0059956452 -0.00730824 -0.0039594029
-0.0065325685 -0.0026737463 -0.0066360962
0.0038479513 0.0012477483 -0.0014611556
-0.005637696 0.002317247 -0.010561913
0.0065325685 -0.0062387418 -0.0052085263
-0.0047428235 0.010160237 -0.0066360962
-0.0029530788 -0.0099819861 -0.0014611556
0.0031320534 0.0092689879 -0.002531833
-0.00026846174 0.010516736 -0.0057438649
0.0015212831 0.0017824976 -0.00074737071
-0.0011633341 0.0090907374 -0.012881714
0.0063535939 0.0092689879 -0.0061007575
-0.00098435965 -0.010694985 -0.010561913
-0.0024161555 0.0094472375 -0.0055654189
0.0061746198 0.0089124879 -0.010561913
0.0070694922 0.0087342383 -0.0064576501
-0.0061746198 -0.0089124879 -0.010026574
0.0052797473 -0.0024954965 -0.0036025103
0.00062641071 0.0042779944 -0.00074737071
0.0059956452 0.0030302459 -0.01020502
0.0043848748 -0.010516736 -0.012524822
-0.0042059002 0.0085559888 -0.012881714
-0.0047428235 -0.0098037366 -0.0036025103
-0.00026846174 -0.0099819861 -0.0068145422
-0.005637696 -0.0019607474 -0.0048516337
0.0059956452 -0.010516736 -0.0098481281
-0.0068905177 -0.0069517405 -0.0050300802
-0.0065325685 -0.0024954965 -0.0069929888
-0.0063535939 -0.0042779944 -0.0082421126
-0.0063535939 -0.0064169914 -0.0094912359
0.00062641071 0.0094472375 -0.0077067735
0.0072484664 0.004634494 -0.0068145422
-0.00026846174 0.010694985 -0.004316295
0.0040269257 -0.0019607474 -0.012346376
-0.0031320534 0.010516736 -0.0048516337
0.0043848748 -0.0032084957 -0.011989483
-0.0017002575 0.0014259981 -0.013417053
-0.0011633341 0.0028519961 -0.0011042631
-0.0072484664 -0.0099819861 -0.0071714348
0.0024161555 0.0098037366 -0.0053869723
0.001879232 0.0094472375 -0.0037809566
0.0034900024 0.010694985 -0.0064576501
-0.00026846174 -0.0098037366 -0.0044947416
-0.0058166706 -0.0049909931 -0.004316295
-0.0043848748 -0.010694985 -0.01020502
0.0025951299 -0.0085559888 -0.00074737071
-0.0058166706 0.0083777383 -0.0087774508
0.0072484664 0.0080212392 -0.0068145422
-0.0063535939 -0.0035649952 -0.0053869723
-0.0017002575 -0.003743245 -0.00092581694
-0.003311028 -0.0019607474 -0.0016396019
0.0072484664 0.0033867455 -0.0073498809
-0.0038479513 -0.0026737463 -0.012524822
-0.0043848748 0.004634494 -0.012881714
0.0063535939 -0.004634494 -0.0089558968
-0.0031320534 0.00730824 -0.013238606
0.0042059002 0.003743245 -0.0014611556
-0.0040269257 0 -0.0018180481
0.0063535939 0.0012477483 -0.0085990047
0.005637696 -0.0081994887 -0.0028887254
-0.0049217981 -0.0099819861 -0.010026574
0.0049217981 -0.010694985 -0.0039594029
-0.0038479513 -0.010694985 -0.011275697
-0.0067115431 0.0032084957 -0.0053869723
-0.0045638494 0.0005347493 -0.0027102791
-0.0065325685 -0.010516736 -0.0055654189
-0.0029530788 0.0051692431 -0.013238606
0.0049217981 -0.0010694986 -0.011097251
-0.0013423086 -0.010694985 -0.0068145422
0.00044743621 -0.0017824976 -0.00074737071
0.0036689769 0.0033867455 -0.012881714
-0.0036689769 0.010338486 -0.0030671717
-0.0058166706 0.00017824976 -0.0039594029
0.005637696 -0.0080212392 -0.011454144
0.0015212831 -0.010694985 -0.0078852195
0.0038479513 0.0099819861 -0.00092581694
0.0047428235 0.0090907374 -0.0037809566
-0.0034900024 0.010516736 -0.0066360962
0.0045638494 -0.0016042478 -0.0018180481
0.001879232 0.0098037366 -0.0030671717
-0.0043848748 0.0094472375 -0.0057438649
0.0015212831 -0.010160237 -0.0012827094
-0.0038479513 0.0067734909 -0.00092581694
-0.0011633341 0.0099819861 -0.0019964944
0.00080538518 0.0098037366 -0.0018180481
-0.0061746198 -0.0024954965 -0.0050300802
-0.0027741045 -0.010516736 -0.0091343429
-0.00062641071 -0.0065952409 -0.013595499
0.00026846174 -0.0090907374 -0.00074737071
-0.0036689769 0.010160237 -0.003245618
-8.9487243e-05 -0.0021389972 -0.013952391
0.0029530788 -0.0094472375 -0.00074737071
0.0034900024 0.0099819861 -0.0046731876
0.0036689769 -0.0033867455 -0.0016396019
-0.0070694922 0.0042779944 -0.0055654189
0.0040269257 -0.00089124881 -0.002531833
0.0052797473 0.0094472375 -0.0064576501
0.00098435965 -0.0032084957 -0.013773945
-0.0022371809 -0.0044562439 -0.013417053
0.0067115431 0.0035649952 -0.0085990047
-0.0072484664 -0.0080212392 -0.0066360962
0.0031320534 0.0092689879 -0.0036025103
-0.0043848748 0.0078429896 -0.0014611556
-0.0054587219 -0.0092689879 -0.0030671717
0.0054587219 0.0055257427 -0.0028887254
-0.0058166706 -0.0012477483 -0.009669682
0.0065325685 -0.0024954965 -0.0071714348
0.0051007727 0.002317247 -0.0027102791
-0.003311028 0.0089124879 -0.012703268
-0.0029530788 0.0017824976 -0.0011042631
0.0024161555 -0.010694985 -0.0093127899
-0.00098435965 0.003743245 -0.013773945
0.00044743621 -0.0017824976 -0.013773945
0.0047428235 -0.010516736 -0.0089558968
-0.0045638494 0.0021389972 -0.0018180481
-0.0020582066 0.0098037366 -0.0057438649
-0.0045638494 0.0033867455 -0.0018180481
0.0011633341 -0.003743245 -0.013773945
-0.0022371809 -0.010338486 -0.0077067735
0.0031320534 -0.00071299903 -0.012881714
-8.9487243e-05 0.0090907374 -0.01020502
0.0045638494 0.0092689879 -0.0078852195
0.0054587219 -0.0062387418 -0.003424064
0.0029530788 0.0080212392 -0.00074737071
-0.0042059002 0.0089124879 -0.012703268
0.0052797473 0.0055257427 -0.002531833
0.0047428235 0.00017824976 -0.011632591
-0.0051007727 0.00017824976 -0.011275697
-0.001879232 -0.00730824 -0.013417053
-0.0052797473 -0.0085559888 -0.011811037
0.00026846174 -0.00089124881 -0.00074737071
0.0047428235 -0.0019607474 -0.0018180481
-0.0038479513 0.0090907374 -0.0098481281
-0.0011633341 -0.0099819861 -0.0053869723
-0.0061746198 -0.0030302459 -0.0052085263
0.00044743621 -0.0076647396 -0.00074737071
-0.0045638494 -0.0040997444 -0.0027102791
0.00080538518 0.010160237 -0.003424064
-0.0063535939 -0.00071299903 -0.0075283274
0.0025951299 0.010338486 -0.0028887254
0.0036689769 0.010516736 0.0001448604
0.0070694922 0.0085559888 -0.0062792036
-0.0052797473 -0.0090907374 -0.0073498809
-0.0065325685 -0.0055257427 -0.0080636656
-0.0061746198 0.0090907374 -0.0053869723
-0.0029530788 0.0039214948 -0.0011042631
0.0068905177 -0.0098037366 -0.0094912359
0.0036689769 0.0092689879 -0.0093127899
-0.0058166706 0.0040997444 -0.010918805
-0.00026846174 0.0074864901 -0.013595499
-0.0061746198 -0.0024954965 -0.0078852195
-0.005637696 -0.0042779944 -0.004316295
-0.00080538518 -0.010338486 -0.0048516337
-0.0047428235 0.0048127435 -0.012703268
0.0022371809 0.0071299905 -0.0011042631
0.00098435965 -0.010694985 -0.0098481281
0.0017002575 0.0098037366 -0.0075283274
-0.0051007727 0.0085559888 -0.0021749404
-0.0058166706 -0.0026737463 -0.0048516337
0.0068905177 0.0032084957 -0.0061007575
0.00062641071 -0.010338486 -0.0071714348
-0.0052797473 -0.00089124881 -0.010561913
-8.9487243e-05 0.0092689879 -0.002531833
0.0020582066 0.0094472375 -0.0057438649
0.0047428235 0.0090907374 -0.0075283274
0.0067115431 0.0028519961 -0.0068145422
0.00044743621 0.010694985 -0.0068145422
0.0059956452 0.0053474926 -0.003245618
-0.0051007727 -0.010694985 -0.003245618
0.0059956452 -0.0057039922 -0.0039594029
0.0022371809 0.0042779944 -0.013238606
0.0029530788 -0.003743245 -0.01306016
0.0052797473 0.0092689879 -0.0066360962
0.0017002575 0.0098037366 -0.0055654189
0.0027741045 -0.010694985 -0.0084205586
-0.0031320534 0.0065952409 -0.013238606
-0.0034900024 0.0099819861 -0.0052085263
-0.0065325685 -0.0033867455 -0.0069929888
-0.0067115431 0.0053474926 -0.0094912359
0.001879232 -0.0042779944 -0.013595499
-0.0058166706 -0.0069517405 -0.010740359
-0.0054587219 -0.004634494 -0.010561913
0.00026846174 0.00071299903 -0.013773945
0.0025951299 0.0033867455 -0.00074737071
0.0011633341 0.0064169914 -0.013773945
0.0058166706 0.0053474926 -0.0030671717
8.9487243e-05 -0.0010694986 -0.00074737071
0.0020582066 -0.0081994887 -0.013417053
0.0013423086 0.010694985 -0.0044947416
-0.0015212831 0.0090907374 -0.010383467
0.0061746198 -0.0094472375 -0.0077067735
0.0024161555 -0.003743245 -0.01306016
0.0063535939 0.0049909931 -0.004137849
0.0031320534 0.0094472375 -0.0037809566
0.00044743621 -0.0069517405 -0.00074737071
0.0058166706 -0.010516736 -0.0046731876
0.0029530788 0.010516736 -0.0019964944
-0.0042059002 -0.010694985 -0.0036025103
0.0022371809 0.0092689879 -0.0064576501
-0.0063535939 -0.0012477483 -0.0069929888
0.0072484664 0.0024954965 -0.0080636656
-0.0022371809 -0.010694985 -0.0071714348
-0.0049217981 -0.0026737463 -0.003245618
0.0049217981 0.010160237 -0.0059223115
0.0070694922 0.00730824 -0.0052085263
-0.00080538518 0.0074864901 -0.013595499
-0.0061746198 -0.00035649951 -0.0061007575
0.0013423086 -0.0017824976 -0.013417053
-0.0015212831 0.010160237 -0.0073498809
-0.003311028 -0.0076647396 -0.013238606
0.005637696 -0.010694985 -0.0071714348
0.0061746198 -0.004634494 -0.0093127899
-0.0067115431 0.0032084957 -0.0082421126
0.0065325685 -0.0049909931 -0.0053869723
0.0054587219 -0.0085559888 -0.002531833
-0.0013423086 -0.0064169914 -0.013595499
-0.00044743621 -0.010694985 -0.0016396019
-0.0029530788 -0.010694985 -0.0093127899
0.00044743621 -0.010694985 -0.0037809566
-0.0058166706 -0.0032084957 -0.009669682
0.0015212831 -0.0069517405 -0.00074737071
0.00062641071 0.0089124879 -0.0091343429
0.0054587219 0.0042779944 -0.011454144
-0.0024161555 -0.010338486 -0.0077067735
-0.0027741045 -0.0035649952 -0.0012827094
0.0038479513 0.0094472375 -0.0077067735
-0.0025951299 0.0024954965 -0.0011042631
-0.00080538518 -0.010516736 -0.0091343429
-0.0020582066 -0.010694985 -0.0030671717
0.0038479513 -0.010516736 -0.0037809566
0.00080538518 0.0060604918 -0.013773945
0.0020582066 -0.0062387418 -0.00074737071
0.0040269257 -0.0005347493 -0.0023533867
-0.0017002575 0.0042779944 -0.013595499
-0.003311028 -0.010516736 -0.012703268
0.0036689769 0.0044562439 -0.00074737071
-0.0047428235 -0.0035649952 -0.0030671717
0.0070694922 0.0039214948 -0.0080636656
-0.0034900024 0.0099819861 -0.0044947416
-0.0017002575 0.010338486 -0.0028887254
0.0043848748 0.0016042478 -0.012167929
0.0068905177 -0.0078429896 -0.0089558968
-0.0058166706 -0.0014259981 -0.0091343429
0.0022371809 -0.0014259981 -0.00092581694
0.0036689769 -0.010338486 -0.0018180481
-0.0029530788 -0.010694985 -0.0094912359
-0.0038479513 -0.0021389972 -0.0019964944
-0.0011633341 0.0042779944 -0.0011042631
0.0058166706 -0.009625487 -0.0069929888
-0.0043848748 -0.0042779944 -0.011989483
0.00098435965 -0.010694985 -0.0094912359
0.0020582066 -0.010694985 -0.004137849
-0.0043848748 -0.0048127435 -0.0016396019
-0.0040269257 -0.0094472375 -0.0030671717
0.00026846174 0.00017824976 -0.00074737071
0.0043848748 -0.0087342383 -0.0014611556
0.0011633341 0.0094472375 -0.0061007575
0.00062641071 -0.010160237 -0.00092581694
0.003311028 -0.0098037366 -0.0012827094
-0.00026846174 0.0092689879 -0.0078852195
0.0038479513 -0.010694985 -0.0061007575
-8.9487243e-05 -0.0099819861 -0.0062792036
0.0038479513 0.0032084957 -0.00074737071
-0.003311028 0.0092689879 -0.009669682
0.0031320534 -0.0069517405 -0.01306016
-0.0043848748 -0.004634494 -0.0023533867
-0.0051007727 -0.0098037366 -0.011275697
-0.0061746198 0.0010694986 -0.0048516337
0.0067115431 0.0087342383 -0.0094912359
0.0029530788 -0.010694985 -0.0069929888
0.00026846174 -0.010338486 -0.0061007575
-0.0065325685 -0.0058822422 -0.0085990047
-0.0017002575 0.0098037366 -0.004137849
-0.0045638494 -0.0053474926 -0.0023533867
0.0068905177 -0.009625487 -0.0087774508
-0.0063535939 -0.010160237 -0.0082421126
-0.001879232 0.0005347493 -0.00092581694
-0.0063535939 0.0010694986 -0.0085990047
0.00026846174 0.0065952409 -0.013773945
0.0045638494 0.0032084957 -0.012167929
-0.0011633341 -0.010694985 -0.010383467
-0.00062641071 0.0094472375 -0.0037809566
-0.0031320534 -0.0039214948 -0.0014611556
-0.0038479513 0.00035649951 -0.012703268
0.0063535939 0.0005347493 -0.0082421126
0.001879232 -0.0055257427 -0.013595499
-0.0063535939 -0.0049909931 -0.0050300802
0.0015212831 -0.0016042478 -0.013238606
0.0059956452 -0.0026737463 -0.0052085263
0.003311028 -0.0085559888 -0.00092581694
-0.0072484664 0.0053474926 -0.0066360962
0.0034900024 0.010160237 -0.0016396019
-0.00026846174 0.0090907374 -0.011454144
-0.0052797473 0.0039214948 -0.0028887254
-0.0036689769 0.010338486 0.0028215537
0.0061746198 -0.0016042478 -0.0080636656
0.0063535939 0.0035649952 -0.0048516337
-0.0031320534 0.0057039922 -0.013238606
0.001879232 -0.010694985 -0.0093127899
-0.0059956452 -0.0016042478 -0.0052085263
-0.0020582066 -0.0085559888 -0.013417053
0.0015212831 -0.0005347493 -0.00074737071
-0.0051007727 0.0092689879 -0.0066360962
0.0013423086 -0.0039214948 -0.013773945
-0.0070694922 0.0081994887 -0.0080636656
0.0011633341 0.0094472375 -0.004137849
-0.00044743621 0.0055257427 -0.00092581694
-0.0072484664 0.0071299905 -0.0066360962
-0.0025951299 -0.00071299903 -0.0011042631
0.0015212831 0.0092689879 -0.003245618
-0.0017002575 -0.0065952409 -0.0011042631
0.0017002575 0.0094472375 -0.0050300802
-0.0015212831 -0.010160237 -0.0080636656
-0.0040269257 -0.0033867455 -0.0019964944
0.0040269257 0.0016042478 -0.0018180481
0.0049217981 0.0057039922 -0.012167929
0.0072484664 0.0085559888 -0.0073498809
0.0061746198 0.0017824976 -0.0093127899
0.00080538518 0.0065952409 -0.013773945
-0.0022371809 -0.009625487 -0.0011042631
0.0029530788 0.0092689879 -0.0016396019
0.0059956452 0.0089124879 -0.0084205586
0.00062641071 -0.0083777383 -0.00074737071
0.0067115431 0.0035649952 -0.0080636656
-0.0045638494 0.0033867455 -0.0016396019
0.0061746198 -0.0090907374 -0.0087774508
0.005637696 -0.0064169914 -0.011097251
0.00098435965 -0.0021389972 -0.00074737071
0.0068905177 -0.0060604918 -0.0073498809
-0.0042059002 -0.0028519961 -0.0023533867
0.0020582066 0.0026737463 -0.013417053
-0.0025951299 -0.0065952409 -0.0011042631
-0.0034900024 -0.010694985 -0.0061007575
0.001879232 -0.0071299905 -0.013417053
0.003311028 0.0094472375 -0.0059223115
-0.00044743621 -0.010694985 -0.0057438649
-0.0065325685 0.0019607474 -0.0062792036
-0.00080538518 0.0087342383 -0.013595499
-0.0045638494 0.003743245 -0.0021749404
0.0063535939 0.0083777383 -0.0094912359
0.0054587219 0.0017824976 -0.010740359
-0.0043848748 -0.0021389972 -0.0028887254
-0.00062641071 -0.010694985 -0.0061007575
-0.005637696 0.0005347493 -0.010383467
-0.0058166706 -0.0099819861 -0.011275697
-0.0031320534 0.0099819861 -0.0050300802
-0.0065325685 -0.004634494 -0.0077067735
0.0043848748 -0.0051692431 -0.012346376
0.0042059002 -0.0012477483 -0.002531833
0.0067115431 0.0044562439 -0.0053869723
-0.005637696 -0.0057039922 -0.0036025103
0.0020582066 0.0026737463 -0.00074737071
-0.0040269257 0.0099819861 -0.00074737071
-0.005637696 -0.010160237 -0.0084205586
0.005637696 -0.010694985 -0.0080636656
0.0067115431 -0.010516736 -0.0055654189
-0.0065325685 -0.0071299905 -0.0089558968
0.0061746198 0.0049909931 -0.0039594029
-0.0040269257 0.0005347493 -0.0011042631
-0.0013423086 -0.010694985 -0.0091343429
-0.0058166706 0.0092689879 -0.0044947416
-0.0036689769 0.00071299903 -0.0012827094
0.0047428235 -0.0065952409 -0.0021749404
-0.0045638494 -0.0099819861 -0.0037809566
-0.0024161555 -0.010694985 -0.011275697
0.0049217981 0.0053474926 -0.0023533867
0.0047428235 -0.0087342383 -0.012346376
0.0045638494 0.0035649952 -0.0023533867
0.0015212831 -0.003743245 -0.013773945
0.0013423086 -0.00071299903 -0.013417053
0.0025951299 0.00071299903 -0.00092581694
-8.9487243e-05 0.0090907374 -0.013417053
0.0065325685 -0.0026737463 -0.0071714348
-0.0027741045 0.0074864901 -0.00092581694
0.0067115431 -0.0049909931 -0.0075283274
-0.0027741045 0.010516736 -0.0036025103
-0.0025951299 -0.0083777383 -0.0011042631
-0.0040269257 -0.010694985 -0.0059223115
0.0054587219 -0.0055257427 -0.0030671717
-0.00080538518 0.0099819861 -0.003245618
0.0052797473 -0.0092689879 -0.0082421126
-0.0020582066 -0.0042779944 -0.0011042631
-0.0063535939 -0.0099819861 -0.0039594029
0.0052797473 -0.010516736 -0.011097251
-0.00062641071 0.0092689879 -0.011989483
-0.0040269257 -0.010694985 -0.0052085263
0.0031320534 -0.0058822422 -0.012881714
0.0058166706 -0.0083777383 -0.0030671717
-0.005637696 -0.0092689879 -0.003245618
-0.0052797473 -0.00089124881 -0.010383467
-0.0063535939 0.0048127435 -0.0037809566
0.0020582066 -0.0094472375 -0.00092581694
0.00098435965 -0.010160237 -0.013773945
-0.0034900024 -0.0028519961 -0.0016396019
-0.0054587219 -0.0051692431 -0.0036025103
-0.0013423086 -0.0005347493 -0.013595499
0.0013423086 0.0087342383 -0.013595499
0.0052797473 -0.010516736 -0.011811037
0.0045638494 0.0099819861 -0.0037809566
-0.00062641071 -0.009625487 -0.013595499
-0.0051007727 -0.0012477483 -0.011097251
-8.9487243e-05 0.010694985 -0.0053869723
0.0043848748 0.0092689879 -0.0048516337
-0.0040269257 0.00035649951 -0.0021749404
0.0059956452 -0.0069517405 -0.0039594029
0.0070694922 -0.0080212392 -0.0062792036
-0.0063535939 -0.0005347493 -0.0078852195
-0.00098435965 0.0094472375 -0.0053869723
-0.0029530788 -0.0035649952 -0.0012827094
-0.00098435965 -0.010516736 -0.013417053
0.0034900024 0.0049909931 -0.01306016
-0.0059956452 0.0044562439 -0.010740359
