# .PCD v0.7 - Point Cloud Data file format
VERSION 0.7
FIELDS x y z
SIZE 4 4 4
TYPE F F F
COUNT 1 1 1
WIDTH 1192
HEIGHT 1
VIEWPOINT 0 0 0 1 0 0 0
POINTS 1192
DATA ascii
0.0037650855 0.0025018153 -0.035263803
0.0077654892 0.00083393842 -0.033374231
0.0065888995 0.0041696923 -0.029122699
0.0065888995 0.0041696923 -0.014714724
0.0068242177 -0.002025279 -0.00030674846
-0.0068242177 0.0039314241 -0.015187116
0.00023531784 0.0022635472 -7.0552145e-05
-0.0070595355 0.0032166196 -0.0095184045
-0.007530171 0.0022635472 -0.004322086
0.0063535818 -0.0015487428 -0.035027608
0.0077654892 0.00059567031 -0.034319017
-0.007530171 0.0022635472 -0.025343558
-0.0042357212 -0.0065523735 -0.032665644
-0.0044710389 0.0063141054 -0.0069202455
-0.0070595355 0.0036931559 -0.031957056
-0.0049416749 0.0060758372 -0.018493865
0.0049416749 0.0029783517 -0.035027608
-0.0065888995 -0.0044079605 -0.012825154
0.0063535818 0.0046462286 -0.025579754
0.0065888995 -0.0044079605 -0.01046319
-0.0023531786 0.0013104747 -0.035500001
-0.0032944498 0.0070289099 -0.0095184045
0.0072948532 0.0027400835 -0.015659509
0.003059132 -0.0070289099 -0.025107361
-0.007530171 -0.0022635472 -0.025107361
-0.0049416749 0.0060758372 -0.00054294476
-0.0040004035 0.0067906417 -0.0097546009
-0.0072948532 -0.0027400835 -0.021800613
0.0037650855 0.0067906417 -0.014242331
0.0051769926 0.005837569 -0.030776074
-0.0077654892 -0.0010722065 -0.0050306749
-0.0025884963 -0.0075054457 -0.006684049
0.0035297677 0.0070289099 -0.018257668
0.0068242177 -0.0039314241 -0.0099907974
-0.0058829463 -0.00011913406 -0.00030674846
-0.0065888995 -0.0041696923 -0.0062116566
-0.001411907 -0.0075054457 -0.0019601227
0.0049416749 0.0060758372 -0.013061349
0.0077654892 0.0003574022 -0.02014724
-0.00023531784 0.0077437139 -0.018730061
-0.007530171 -0.0022635472 -0.0088098161
-0.0040004035 0.0067906417 -0.027941719
0 0.0077437139 -0.02132822
-0.0054123104 0.0055993008 -0.027233129
-0.0047063571 0.0060758372 -0.016604295
-0.0077654892 -0.0010722065 -0.016368099
-0.0058829463 0.0051227645 -0.0062116566
-0.0040004035 -0.0067906417 -0.031248467
0 0.0077437139 -0.018021472
0.0058829463 0.0051227645 -0.018730061
0.006118264 0.0048844968 -0.018257668
-0.0070595355 -0.0032166196 -0.029358895
0.0054123104 -0.005837569 -0.027705522
0.0042357212 0.0065523735 -0.024398774
0.0032944498 -0.0022635472 -0.035263803
0.0077654892 -0.00011913406 -0.022981595
0.006118264 -0.0048844968 -0.01117178
-0.0063535818 0.0044079605 -0.033374231
-0.0037650855 -0.0067906417 -0.004322086
-0.0035297677 -0.0060758372 -0.00030674846
-0.0063535818 0.0046462286 -0.023690185
0.0016472249 0.0075054457 -0.026760736
0.001411907 -0.0077437139 -0.012825154
0.0021178606 0.0075054457 -0.0059754602
0.0063535818 -0.0046462286 -0.013061349
-0.0037650855 -0.0041696923 -0.00030674846
-0.0011765893 -0.0077437139 -0.015423313
-0.0077654892 0.0010722065 -0.034319017
-0.0070595355 0.0032166196 -0.027469326
0.0065888995 -0.0044079605 -0.0038496933
0.0068242177 -0.0039314241 -0.0052668713
0.0021178606 -0.0075054457 -0.01046319
0.0077654892 0.00059567031 -0.013061349
-0.0063535818 -0.0039314241 -0.0014877301
-0.0044710389 0.0063141054 -0.015895706
0.0016472249 0.0063141054 -0.00030674846
-0.0077654892 0.0010722065 -0.0088098161
0.0035297677 -0.0070289099 -0.009282209
0.0023531786 0.007267178 -0.012352761
0.007530171 0.002025279 -0.02014724
0.0077654892 -0.00083393842 -0.012352761
-0.00047063568 0.0077437139 -0.033374231
0.0051769926 -0.005837569 -0.012825154
-0.0037650855 -0.0025018153 -0.035263803
0.007530171 -0.0013104747 -0.00054294476
0.0018825427 0.0017870109 -7.0552145e-05
0.0051769926 -0.005837569 -0.0057392637
0.00047063568 0.0077437139 -0.0010153374
0.0058829463 0.0046462286 -0.0017239264
-0.007530171 0.0022635472 -0.025107361
0.00047063568 0.0077437139 -0.021564417
0.0049416749 -0.0060758372 -0.032193251
0.0077654892 -0.00059567031 -0.013297546
0.0040004035 -0.0065523735 -0.025107361
0.0040004035 0.0067906417 -0.0045582824
0.0056476281 0.0039314241 -0.00030674846
-0.0056476281 -0.0053610327 -0.03479141
0.0023531786 -0.007267178 -0.019674847
-0.0032944498 0.0051227645 -0.035027608
0.0032944498 0.0034548878 -7.0552145e-05
-0.00023531784 -0.002025279 -0.035500001
0.0077654892 -0.00011913406 -0.013769939
0.001411907 0.0075054457 -0.0050306749
-0.0016472249 -0.0075054457 -0.028177913
0.0037650855 -0.0067906417 -0.020619633
0.0054123104 -0.005837569 -0.0026687116
-0.0058829463 0.0051227645 -0.017076688
0.0077654892 -0.0010722065 -0.016604295
0.007530171 0.0017870109 -0.033138037
0.0028238141 0.007267178 -0.013533742
0 0.0077437139 -0.010226994
-0.0051769926 0.005837569 -0.012116564
0.00047063568 0.0077437139 -0.00077914109
-0.0049416749 0.0039314241 -0.035027608
-0.0058829463 0.0051227645 -0.00077914109
-0.0065888995 0.0041696923 -0.013297546
0.0032944498 0.0070289099 -0.018730061
-0.00047063568 -0.0077437139 -0.025107361
-0.0016472249 -0.0010722065 -0.035500001
-0.0077654892 0.0010722065 -0.01943865
-0.0035297677 0.0070289099 -0.026760736
-0.00023531784 0.0077437139 -0.0031411042
0.0042357212 -0.0065523735 -0.013061349
0.0018825427 -0.0075054457 -0.031720858
0.007530171 -0.0013104747 -0.015423313
0.0070595355 0.0032166196 -0.028650306
-0.0063535818 0.0044079605 -0.0088098161
0.006118264 0.0048844968 -0.0073926379
0.0021178606 0.0075054457 -0.01117178
-0.0077654892 0.00083393842 -0.013297546
0.0018825427 -0.0075054457 -0.002904908
0.0072948532 0.0025018153 -0.023926381
0.0018825427 0.0075054457 -0.004322086
-0.0063535818 -0.0022635472 -0.035027608
-0.0070595355 0.0032166196 -0.031248467
-0.003059132 0.0063141054 -0.00030674846
0 -0.0077437139 -0.0085736196
-0.0042357212 -0.0065523735 -0.016368099
-0.0054123104 -0.0015487428 -0.035263803
0.00070595351 -0.002025279 -7.0552145e-05
-0.0049416749 -0.0060758372 -0.030067485
-0.0042357212 -0.0065523735 -0.014006135
0.0072948532 -0.0025018153 -0.015659509
-0.0068242177 -0.0039314241 -0.028177913
-0.0042357212 0.0053610327 -0.035027608
0.0044710389 -0.0063141054 -0.0071564419
-0.0018825427 0.0075054457 -0.0071564419
-0.0011765893 -0.0077437139 -0.025579754
-0.007530171 -0.0013104747 -0.03479141
-0.0021178606 -0.0075054457 -0.018021472
-0.00094127137 -0.0077437139 -0.022981595
0.0058829463 0.0051227645 -0.009282209
0.0056476281 -0.0055993008 -0.018257668
-0.0070595355 0.0027400835 -0.0017239264
0.00047063568 -0.0077437139 -0.0038496933
-0.0028238141 0.007267178 -0.019674847
0.0037650855 0.0067906417 -0.011407975
-0.0063535818 0.0046462286 -0.0085736196
-0.0042357212 0.0065523735 -0.013297546
0.0068242177 -0.0036931559 -0.026288344
0.007530171 -0.0015487428 -0.029831288
0.0040004035 -0.0065523735 -0.012116564
-0.0072948532 -0.0027400835 -0.0040858896
0.0037650855 -0.0067906417 -0.030776074
0.0068242177 0.0036931559 -0.029831288
-0.0077654892 0.0010722065 -0.0076288343
0.0070595355 0.0034548878 -0.0031411042
0.0065888995 0.0041696923 -0.012116564
0.003059132 -0.0070289099 -0.0078650303
-0.0035297677 0.0070289099 -0.024398774
-0.00070595351 -0.0067906417 -0.035027608
-0.007530171 -0.0013104747 -0.014242331
0.0037650855 -0.00059567031 -0.00030674846
-0.0011765893 -0.0077437139 -0.022036809
0.00070595351 0.0077437139 -0.0055030673
-0.001411907 0.0077437139 -0.0055030673
-0.0049416749 -0.005837569 -0.00054294476
0.0063535818 -0.0046462286 -0.0024325154
-0.00094127137 -0.0077437139 -0.024398774
-0.00023531784 0.0077437139 -0.016840491
0.0018825427 -0.0039314241 -7.0552145e-05
-0.00094127137 0.0051227645 -0.035263803
0.0056476281 0.0053610327 -0.021800613
0.0035297677 -0.00011913406 0.0013466257
-0.0028238141 0.007267178 -0.011880368
0.007530171 -0.0022635472 -0.018493865
-0.0077654892 0.0015487428 -0.013297546
-0.007530171 -0.0022635472 -0.01495092
-0.0025884963 0.007267178 -0.0036134969
0.007530171 -0.0013104747 -0.022745399
-0.0044710389 0.0063141054 -0.023453988
0.0058829463 0.0048844968 -0.00054294476
0.0077654892 0.0013104747 -0.030776074
-0.001411907 -0.0029783517 -7.0552145e-05
0.007530171 0.002025279 -0.0097546009
0.0077654892 0.00011913406 -0.027469326
0.0021178606 0.0075054457 -0.011880368
0.0077654892 0.00059567031 -0.0071564419
-0.0077654892 0.0013104747 -0.014478528
0 -0.0029783517 -0.035500001
0.0063535818 0.0046462286 -0.0047944784
0.00094127137 0.0077437139 -0.020383436
-0.0028238141 0.007267178 -0.024634968
0.0072948532 -0.0025018153 -0.030303681
-0.0018825427 -0.0075054457 -0.0097546009
-0.0011765893 0.0077437139 -0.0040858896
-0.0047063571 0.0060758372 -0.027705522
-0.0023531786 -0.002025279 -7.0552145e-05
0.0016472249 -0.0075054457 -0.0024325154
-0.0037650855 0.0067906417 -0.012825154
-0.00094127137 0.0077437139 -0.011407975
0.0063535818 0.0044079605 -0.013297546
0.0077654892 -0.00011913406 -0.026288344
-0.00070595351 -0.0077437139 -0.013297546
0.0070595355 0.0032166196 -0.031720858
-0.0077654892 0.00083393842 -0.029122699
-0.0035297677 0.0060758372 -0.00030674846
-0.003059132 0.0034548878 -7.0552145e-05
0.00047063568 -0.0051227645 -7.0552145e-05
-0.0037650855 -0.0067906417 -0.019674847
0.0051769926 0.0025018153 -0.00030674846
0.007530171 0.0017870109 -0.012825154
0.006118264 -0.0048844968 -0.0081012268
-0.0021178606 0.0075054457 -0.0097546009
-0.00023531784 0.0077437139 -0.02014724
-0.0047063571 0.0060758372 -0.0071564419
0.00023531784 0.0077437139 -0.034082823
0.0037650855 -0.0067906417 -0.0059754602
0.0077654892 0.0015487428 -0.0099907974
-0.001411907 0.0075054457 -0.0010153374
-0.0028238141 0.007267178 -0.0021963189
0.0077654892 0.0015487428 -0.028177913
-0.0032944498 -0.0070289099 -0.01943865
-0.001411907 0.0077437139 -0.014714724
0.0058829463 -0.0051227645 -0.0069202455
-0.0023531786 -0.0034548878 -0.035263803
-0.0077654892 0.0017870109 -0.0059754602
0.0037650855 0.0036931559 -0.035263803
0.0077654892 -0.00083393842 -0.020383436
0.0021178606 -0.0075054457 -0.0090460125
-0.0016472249 0.0075054457 -0.022745399
0.006118264 -0.0048844968 -0.019674847
0.0042357212 0.0063141054 -0.0014877301
-0.0077654892 0.0017870109 -0.0038496933
-0.0018825427 -0.0075054457 -0.031248467
-0.006118264 -0.0048844968 -0.01046319
0.0077654892 0.00011913406 -0.0024325154
-0.0032944498 0.0070289099 -0.0036134969
-0.0037650855 0.00059567031 -0.00030674846
0.0068242177 0.0036931559 -0.0076288343
-0.007530171 -0.0015487428 -0.0057392637
-0.0072948532 -0.0025018153 -0.025579754
0.0070595355 -0.0027400835 -0.0012515337
0.0072948532 -0.0025018153 -0.033138037
-0.0054123104 -0.0055993008 -0.0090460125
0.007530171 -0.0010722065 -0.00030674846
0.0016472249 -0.0075054457 -0.027233129
0.0070595355 0.0032166196 -0.0081012268
0.0032944498 -0.0070289099 -0.019202454
0.007530171 0.0022635472 -0.0069202455
-0.0077654892 -0.00059567031 -0.024398774
-0.0072948532 0.00083393842 -0.00030674846
0.0077654892 0.0003574022 -0.016840491
-0.0037650855 0.0015487428 -0.035263803
0.0068242177 0.0036931559 -0.012352761
-0.006118264 0.0048844968 -0.030067485
-0.0054123104 -0.0048844968 -0.00030674846
-0.0016472249 -0.0075054457 -0.015423313
0.0065888995 0.0039314241 -0.016840491
-0.0040004035 -0.0060758372 -0.035027608
0.0049416749 0.0060758372 -0.012588957
0.0077654892 0.0013104747 -0.0069202455
0.0042357212 -0.0065523735 -0.031720858
0.0056476281 -0.0055993008 -0.0059754602
-0.00094127137 0.0077437139 -0.018021472
-0.0023531786 0.00011913406 -7.0552145e-05
0.0070595355 -0.0029783517 -0.010699387
0.00094127137 -0.0077437139 -0.016840491
-0.0051769926 0.005837569 -0.014478528
-0.003059132 -0.00083393842 -7.0552145e-05
-0.006118264 -0.0048844968 -0.015187116
0.0016472249 -0.002025279 -7.0552145e-05
-0.0028238141 -0.007267178 -0.020619633
0.0040004035 0.0041696923 -0.035027608
-0.0011765893 -0.0015487428 -0.035500001
-0.0044710389 0.0063141054 -0.029122699
-0.0077654892 0.00083393842 -0.033138037
-0.0021178606 0.002025279 -7.0552145e-05
-0.0018825427 -0.00059567031 -0.00030674846
-0.0068242177 0.0039314241 -0.024398774
0.0063535818 0.0044079605 -0.021092024
0.0035297677 0.0053610327 -0.00030674846
-0.0077654892 -0.0010722065 -0.002904908
0.0072948532 0.0025018153 -0.0085736196
0.00094127137 -0.0077437139 -0.014478528
0.006118264 0.0048844968 -0.024634968
0.007530171 0.002025279 -0.018493865
0.003059132 0.0070289099 -0.032901842
-0.0025884963 0.007267178 -0.030067485
-0.0047063571 0.0051227645 -0.00030674846
-0.0051769926 0.0041696923 -0.00030674846
-0.0054123104 0.0055993008 -0.023453988
0 0.0077437139 -0.032429449
-0.0068242177 0.0039314241 -0.0057392637
-0.0065888995 0.00011913406 -0.035027608
-0.0042357212 0.0034548878 -0.035263803
0.00023531784 -0.0077437139 -0.020855829
0.0063535818 -0.0044079605 -0.0019601227
0.00023531784 -0.0077437139 -0.012116564
-0.0072948532 -0.0022635472 -0.00054294476
-0.0040004035 0.0065523735 -0.0010153374
-0.007530171 -0.0017870109 -0.030303681
0.0011765893 0.0077437139 -0.028650306
-0.0044710389 -0.0063141054 -0.012588957
-0.0068242177 0.0039314241 -0.016368099
-0.006118264 -0.0048844968 -0.0033773007
0.0065888995 -0.0041696923 -0.029122699
0.007530171 -0.0022635472 -0.014242331
0.0077654892 -0.00059567031 -0.022509202
-0.0051769926 -0.005837569 -0.023453988
0.0077654892 0.0013104747 -0.0026687116
-0.0035297677 -0.00011913406 0.0020552147
-0.0072948532 -0.0027400835 -0.020383436
-0.0072948532 -0.0032166196 -0.020619633
0.0063535818 -0.0044079605 -0.03479141
0.0028238141 -0.0015487428 -7.0552145e-05
-0.0016472249 0.0075054457 -0.018493865
0.0056476281 -0.0055993008 -0.031248467
-0.0056476281 0.0048844968 -0.00030674846
-0.0070595355 -0.0029783517 -0.032193251
0.0025884963 -0.007267178 -0.018021472
-0.0063535818 -0.0046462286 -0.0024325154
-0.0068242177 -0.0036931559 -0.0052668713
0.00047063568 -0.0077437139 -0.032665644
0.00094127137 0.0077437139 -0.029122699
-0.0021178606 -0.007267178 -0.0017239264
-0.0023531786 -0.0075054457 -0.00054294476
0.007530171 -0.0013104747 -0.02841411
0.0037650855 -0.0067906417 -0.015423313
-0.0044710389 -0.0063141054 -0.026288344
-0.0054123104 -0.0055993008 -0.013533742
0.0077654892 0.0003574022 -0.01117178
-0.0077654892 -0.00011913406 -0.027941719
-0.0054123104 -0.0055993008 -0.030539878
-0.003059132 0.0070289099 -0.023926381
0.0023531786 0.005837569 -0.035027608
0.0065888995 -0.0041696923 -0.027469326
-0.0049416749 0.0060758372 -0.0021963189
-0.0047063571 -0.00083393842 -7.0552145e-05
0.0063535818 0.0046462286 -0.031720858
-0.003059132 0.0070289099 -0.01943865
-0.0028238141 -0.00011913406 -7.0552145e-05
0.0016472249 -0.00011913406 -7.0552145e-05
0.0065888995 -0.0041696923 -0.0024325154
-0.0011765893 -0.0036931559 -7.0552145e-05
-0.0058829463 -0.0046462286 -0.0017239264
0.0063535818 -0.0046462286 -0.024398774
0.0056476281 0.0053610327 -0.004322086
0.00023531784 0.0013104747 -7.0552145e-05
0.0051769926 0.005837569 -0.016131902
-0.0016472249 0.005837569 -0.00030674846
0.0021178606 0.0025018153 -0.035500001
-0.0032944498 -0.0070289099 -0.021800613
-0.0054123104 -0.0055993008 -0.01495092
-0.0035297677 0.0070289099 -0.031720858
0.001411907 -0.0077437139 -0.031720858
-0.0058829463 -0.0051227645 -0.030539878
0.0058829463 -0.0053610327 -0.022509202
-0.0077654892 0.0015487428 -0.0090460125
-0.0023531786 -0.0070289099 -0.0017239264
-0.007530171 -0.0017870109 -0.031248467
-0.0058829463 0.0051227645 -0.018493865
-0.0011765893 0.0029783517 -0.035500001
-0.0077654892 0.00083393842 -0.018493865
0.0028238141 -0.007267178 -0.013533742
0.0056476281 -0.0055993008 -0.030539878
-0.0035297677 0.0029783517 -0.035263803
-0.0070595355 0.0029783517 -0.00054294476
-0.007530171 -0.0022635472 -0.01117178
0.0063535818 0.0046462286 -0.020855829
0.0077654892 -0.00083393842 -0.0010153374
-0.0077654892 -0.0010722065 -0.028886503
0.0042357212 0.0065523735 -0.0024325154
-0.0049416749 -0.0025018153 -0.00030674846
0.0068242177 -0.0036931559 -0.029595092
-0.0047063571 0.0060758372 -0.022036809
-0.003059132 0.007267178 -0.023690185
0.0032944498 0.0070289099 -0.024398774
-0.0054123104 0.0055993008 -0.025815951
0.0070595355 -0.0032166196 -0.023690185
0.0054123104 0.0055993008 -0.023926381
-0.00094127137 -0.0027400835 -7.0552145e-05
0.00070595351 0.0013104747 -0.035500001
-0.0072948532 -0.0027400835 -0.022745399
0.00047063568 -0.0025018153 -7.0552145e-05
0 0.0077437139 -0.0081012268
-0.0044710389 -0.0063141054 -0.032901842
-0.00023531784 0.0077437139 -0.010226994
-0.0042357212 -0.0065523735 -0.0057392637
0.0035297677 -0.0022635472 -7.0552145e-05
0.0077654892 0.00083393842 -0.0078650303
0.0049416749 -0.0041696923 -0.035027608
-0.0042357212 -0.0065523735 -0.0050306749
0.006118264 0.0048844968 -0.03361043
0.0025884963 0.007267178 -0.0047944784
0.0021178606 0.0075054457 -0.020619633
-0.0023531786 -0.0075054457 -0.030067485
-0.0049416749 0.0048844968 -0.00030674846
0 -0.00059567031 -0.00030674846
0.006118264 0.0048844968 -0.019202454
-0.0040004035 -0.0067906417 -0.02652454
0.0070595355 0.0029783517 -0.00030674846
-0.003059132 -0.007267178 -0.0071564419
0.0072948532 0.0027400835 -0.014478528
-0.0023531786 0.0075054457 -0.025343558
-0.0028238141 -0.007267178 -0.020855829
-0.006118264 -0.0048844968 -0.012116564
0.007530171 -0.0015487428 -0.014242331
-0.0028238141 -0.0041696923 -7.0552145e-05
-0.0068242177 -0.0010722065 -0.00030674846
-0.001411907 -0.0077437139 -0.019911043
-0.0049416749 0.0060758372 -0.022745399
0.00047063568 -0.0077437139 -0.032901842
-0.007530171 -0.002025279 -0.026760736
0.0070595355 -0.0034548878 -0.0031411042
0.0016472249 0.0075054457 -0.0088098161
0.007530171 -0.002025279 -0.017549079
0.0044710389 0.00011913406 -7.0552145e-05
0.0049416749 -0.0060758372 -0.00077914109
0.0072948532 -0.0025018153 -0.032665644
0.0011765893 0.0077437139 -0.004322086
-0.001411907 0.0077437139 -0.033846624
0.0028238141 0.0055993008 -0.00030674846
-0.0049416749 0.0060758372 -0.020855829
-0.0040004035 0.0067906417 -0.026288344
-0.0072948532 -0.0027400835 -0.016368099
-0.0065888995 -0.0044079605 -0.0038496933
0.0016472249 0.0075054457 -0.031248467
-0.0023531786 -0.0075054457 -0.0071564419
-0.0072948532 0.0027400835 -0.019911043
-0.0058829463 -0.0051227645 -0.016840491
0.001411907 0.0025018153 -0.035500001
0.0021178606 -0.0075054457 -0.019911043
0.0056476281 0.0053610327 -0.028886503
-0.0021178606 -0.0048844968 -0.035263803
0.0018825427 0.00011913406 -0.035500001
0.0065888995 0.0039314241 -0.024398774
0.0077654892 0.00059567031 -0.0024325154
0.0063535818 0.0046462286 -0.026052147
0.00023531784 0.0034548878 -0.035500001
-0.0068242177 -0.0039314241 -0.02132822
0.0018825427 0.0046462286 -7.0552145e-05
-0.0056476281 -0.0053610327 -0.0099907974
0.001411907 0.007267178 -0.00030674846
0.0063535818 0.0044079605 -0.024398774
0.007530171 0.0017870109 -0.015187116
0.0011765893 -0.0077437139 -0.031248467
0.0011765893 -0.002025279 -7.0552145e-05
0.0054123104 0.0055993008 -0.017076688
-0.0072948532 -0.0027400835 -0.023453988
0.007530171 -0.0022635472 -0.011644172
0.00023531784 -0.00083393842 -0.035500001
0.007530171 -0.002025279 -0.015895706
0.0037650855 0.0067906417 -0.0040858896
0.007530171 0.002025279 -0.01046319
0.0035297677 0.0070289099 -0.023926381
-0.007530171 0.0022635472 -0.013533742
0.0023531786 0.0015487428 -0.035500001
-0.00094127137 0.0077437139 -0.0026687116
0.0068242177 0.0036931559 -0.032193251
-0.00070595351 0.0077437139 -0.027233129
-0.0025884963 -0.0027400835 -7.0552145e-05
0.0023531786 0.007267178 -0.0083374232
0.001411907 0.00083393842 -0.035500001
0.0077654892 -0.0003574022 -0.03361043
0.0011765893 0.0063141054 -0.035027608
0 0.0077437139 -0.026996933
0.0056476281 -0.0055993008 -0.013297546
-0.00094127137 0.0077437139 -0.004322086
0.0018825427 -0.0075054457 -0.0081012268
-0.0016472249 -0.007267178 -0.0017239264
0.0070595355 0.0034548878 -0.017076688
0.0035297677 -0.0065523735 -0.0017239264
-0.006118264 -0.0048844968 -0.024634968
-0.0068242177 -0.0036931559 -0.023453988
0.0051769926 0.005837569 -0.0040858896
0.0072948532 0.0027400835 -0.0026687116
-0.0025884963 0.007267178 -0.030303681
-0.0077654892 0.0017870109 -0.0062116566
0.0023531786 -0.0055993008 -0.035027608
0.0021178606 -0.0075054457 -0.015423313
-0.003059132 0.007267178 -0.027941719
-0.00047063568 -0.0077437139 -0.034319017
0.007530171 0.0017870109 -0.015895706
-0.0054123104 0.0025018153 -0.035027608
-0.00094127137 -0.0077437139 -0.028177913
0.0072948532 0.0025018153 -0.019674847
-0.0063535818 0.0046462286 -0.03361043
0.0063535818 0.0046462286 -0.015895706
-0.0072948532 -0.0025018153 -0.0019601227
-0.007530171 -0.00011913406 -0.0019601227
0.0018825427 0.0075054457 -0.01117178
-0.0037650855 0.0015487428 -7.0552145e-05
-0.0023531786 0.0075054457 -0.012352761
-0.0035297677 0.002025279 -7.0552145e-05
0.0058829463 0.0048844968 -0.03479141
-0.0070595355 -0.0029783517 -0.030303681
-0.0042357212 -0.0003574022 -0.035263803
-0.0047063571 0.0060758372 -0.011880368
-0.0077654892 0.0010722065 -0.016840491
0.0054123104 0.0036931559 -0.035027608
0.001411907 0.0075054457 -0.015659509
0.0063535818 0.0046462286 -0.010935583
-0.0077654892 -0.00059567031 -0.029358895
0.0023531786 -0.002025279 -7.0552145e-05
-0.00023531784 -0.00011913406 -0.035500001
-0.003059132 0.007267178 -0.021800613
-0.0063535818 0.0044079605 -0.019911043
-0.0023531786 0.0075054457 -0.0069202455
-0.0044710389 -0.0025018153 -0.035263803
-0.0054123104 0.0055993008 -0.022036809
0.0065888995 -0.0044079605 -0.016840491
0 -0.0077437139 -0.019674847
-0.0044710389 -0.0063141054 -0.021800613
0.0077654892 0.0003574022 -0.028650306
0.007530171 0.002025279 -0.0076288343
-0.0068242177 -0.0039314241 -0.030067485
0.0065888995 -0.0003574022 -0.00030674846
-0.00070595351 -0.0077437139 -0.030776074
0.0072948532 0.0027400835 -0.022981595
-0.0065888995 -0.0036931559 -0.00030674846
-0.0018825427 0.0075054457 -0.0062116566
-0.0047063571 0.0025018153 -0.035263803
-0.0035297677 -0.0070289099 -0.022981595
0.0037650855 -0.0051227645 -0.00030674846
0.0049416749 -0.0060758372 -0.0064478526
0.006118264 0.0048844968 -0.018493865
0.0018825427 -0.0075054457 -0.02841411
0.0037650855 -0.0067906417 -0.024398774
0.0047063571 -0.0063141054 -0.016840491
-0.0049416749 0.0060758372 -0.032665644
0 -0.0077437139 -0.031957056
0.007530171 0.002025279 -0.0010153374
-0.0021178606 -0.0039314241 -7.0552145e-05
-0.0011765893 0.0077437139 -0.018966258
-0.0063535818 0.0044079605 -0.0026687116
0.0011765893 -0.0077437139 -0.0059754602
0.006118264 0.00059567031 -0.035027608
-0.0040004035 0.0046462286 -0.00030674846
0.0044710389 -0.0063141054 -0.0083374232
0.0068242177 0.0036931559 -0.019674847
0.0072948532 0.0025018153 -0.014478528
0.0011765893 0.00083393842 -7.0552145e-05
-0.00070595351 -0.0077437139 -0.0031411042
0.0068242177 0.0029783517 -0.0017239264
0.00094127137 -0.0027400835 -7.0552145e-05
0.007530171 -0.002025279 -0.021800613
0.00047063568 0.0010722065 -7.0552145e-05
0.0047063571 -0.0063141054 -0.0038496933
-0.0063535818 -0.0044079605 -0.0021963189
0.0037650855 -0.0067906417 -0.014242331
-0.00070595351 0.0077437139 -0.032901842
-0.0068242177 -0.0029783517 -0.0017239264
-0.007530171 -0.0022635472 -0.025579754
-0.0037650855 0.005837569 -0.035027608
0.0072948532 0.0027400835 -0.0059754602
0.003059132 -0.0070289099 -0.0088098161
0.0011765893 0.0055993008 -0.00030674846
-0.006118264 0.0022635472 -0.00030674846
-0.0016472249 -0.0034548878 -0.035263803
-0.0070595355 -0.0032166196 -0.024634968
0.007530171 0.0017870109 -0.02132822
-0.0028238141 -0.0032166196 -7.0552145e-05
-0.0023531786 0.0075054457 -0.027941719
-0.0047063571 -0.0046462286 -0.00030674846
0.00094127137 0.0077437139 -0.033138037
0.0070595355 0.0029783517 -0.015187116
-0.0023531786 0.0075054457 -0.02652454
-0.0056476281 0.0053610327 -0.03479141
-0.0063535818 0.0046462286 -0.021564417
-0.003059132 0.0025018153 -7.0552145e-05
-0.0056476281 -0.0051227645 -0.0010153374
-0.0070595355 -0.0029783517 -0.0024325154
-0.0049416749 -0.0060758372 -0.024634968
-0.0040004035 0.0067906417 -0.031012271
0.0040004035 -0.0065523735 -0.015187116
0.0032944498 -0.0070289099 -0.031957056
0.0070595355 -0.0029783517 -0.030539878
0.0042357212 0.0065523735 -0.011407975
-0.0077654892 -0.0003574022 -0.0073926379
-0.0049416749 -0.0060758372 -0.019202454
0.00094127137 -0.0077437139 -0.0078650303
0.003059132 0.0070289099 -0.0036134969
0.0044710389 -0.0063141054 -0.0045582824
-0.0042357212 0.0065523735 -0.0057392637
0.0049416749 -0.0060758372 -0.029358895
0.00023531784 0.0077437139 -0.026996933
0.0025884963 -0.007267178 -0.034319017
-0.0016472249 0.0075054457 -0.030776074
-0.0065888995 0.0041696923 -0.0026687116
0.0070595355 -0.0032166196 -0.03361043
-0.001411907 0.0077437139 -0.015895706
-0.00047063568 0.0051227645 -0.035263803
-0.0077654892 0.0013104747 -0.02132822
0.0051769926 0.005837569 -0.0050306749
-0.0047063571 0.0060758372 -0.019674847
0.0051769926 0.005837569 -0.010699387
-0.0049416749 0.0015487428 -0.035263803
-0.007530171 -0.0015487428 -0.0073926379
0.0047063571 -0.0060758372 -0.03479141
-0.0058829463 -0.0051227645 -0.017076688
0.0011765893 -0.0010722065 -0.035500001
-0.0072948532 0.0027400835 -0.025579754
0.0068242177 0.0036931559 -0.029358895
0.00094127137 0.0077437139 -0.02841411
0.0035297677 -0.00083393842 -0.035500001
-0.0040004035 0.0067906417 -0.016604295
-0.0065888995 -0.0041696923 -0.026052147
-0.0040004035 -0.0065523735 -0.031484663
0.0018825427 0.0041696923 -7.0552145e-05
0.0063535818 -0.0046462286 -0.0045582824
-0.0058829463 0.0048844968 -0.03479141
-0.007530171 -0.0015487428 -0.0050306749
0.0063535818 0.0044079605 -0.0047944784
-0.0018825427 -0.0075054457 -0.03361043
-0.0054123104 -0.0055993008 -0.027705522
0.0077654892 -0.0003574022 -0.028886503
0.00023531784 -0.0077437139 -0.033374231
-0.0068242177 -0.0039314241 -0.0097546009
0.0035297677 -0.00011913406 -0.035500001
-0.001411907 0.0051227645 -0.00030674846
0.007530171 0.0022635472 -0.021800613
0.00094127137 0.0027400835 -7.0552145e-05
-0.007530171 -0.0017870109 -0.031720858
-0.0077654892 0.00011913406 -0.010935583
0.0018825427 -0.0075054457 -0.016368099
0.001411907 0.0075054457 -0.018021472
-0.0021178606 0.0075054457 -0.0040858896
0.001411907 0.0039314241 -0.035263803
-0.00047063568 -0.0077437139 -0.0088098161
-0.00070595351 0.0017870109 -0.035500001
0.0072948532 -0.00083393842 -0.035027608
0.007530171 -0.0017870109 -0.002904908
0.0070595355 -0.0032166196 -0.03479141
0.0042357212 0.0065523735 -0.020619633
-0.0063535818 0.0044079605 -0.027705522
0.0023531786 -0.007267178 -0.01495092
-0.007530171 -0.0015487428 -0.029122699
-0.0077654892 0.0013104747 -0.011880368
0.0016472249 -0.0075054457 -0.022036809
-0.007530171 0.0022635472 -0.0033773007
-0.0037650855 0.0067906417 -0.0031411042
-0.0040004035 -0.00011913406 0.00063803681
0.0040004035 -0.0065523735 -0.019911043
-0.0016472249 0.0075054457 -0.021092024
-0.0047063571 -0.0060758372 -0.026760736
-0.0072948532 0.0027400835 -0.016840491
0.0065888995 0.0039314241 -0.013533742
0.0054123104 -0.005837569 -0.032429449
0.007530171 0.002025279 -0.0040858896
-0.0077654892 0.0017870109 -0.014478528
-0.0044710389 -0.0029783517 -0.035263803
-0.006118264 0.0048844968 -0.0076288343
0.0016472249 -0.005837569 -0.035027608
0.0028238141 -0.0055993008 -0.035027608
0.0023531786 -0.0070289099 -0.0014877301
0.003059132 0.0070289099 -0.02132822
0 0.0077437139 -0.014714724
-0.0025884963 0.007267178 -0.0047944784
-0.0077654892 -0.00083393842 -0.019674847
0.0077654892 -0.00059567031 -0.015895706
0.0032944498 0.0070289099 -0.0038496933
0.0063535818 0.0046462286 -0.023926381
-0.007530171 -0.0017870109 -0.025107361
0 -0.0077437139 -0.015659509
-0.0065888995 -0.0041696923 -0.03479141
-0.0040004035 -0.0067906417 -0.0052668713
-0.0028238141 0.0015487428 -0.035500001
-0.00047063568 -0.0077437139 -0.032665644
0.00070595351 -0.0065523735 -0.00030674846
0.0063535818 0.0044079605 -0.0085736196
0.0077654892 0.0003574022 -0.021800613
-0.0070595355 0.0036931559 -0.021564417
-0.00094127137 0.0077437139 -0.027941719
-0.0040004035 -0.0067906417 -0.033846624
-0.0035297677 0.0070289099 -0.004322086
0.0040004035 -0.0065523735 -0.0038496933
0.0047063571 -0.0063141054 -0.018966258
0.0077654892 0.00011913406 -0.029831288
-0.0065888995 -0.0041696923 -0.020619633
-0.00094127137 0.0077437139 -0.027469326
-0.0070595355 0.0034548878 -0.025343558
0.0077654892 0.00059567031 -0.0033773007
-0.0077654892 -0.00011913406 -0.020855829
-0.0070595355 0.0027400835 -0.00030674846
-0.0028238141 -0.0070289099 -0.0017239264
-0.0018825427 0.0075054457 -0.0033773007
-0.0040004035 0.0067906417 -0.018730061
-0.0063535818 0.0044079605 -0.02652454
-0.0011765893 0.0039314241 -7.0552145e-05
0.0072948532 0.0029783517 -0.010226994
-0.0051769926 -0.005837569 -0.0031411042
-0.0018825427 0.0075054457 -0.013297546
-0.0054123104 -0.0055993008 -0.010935583
0.0077654892 0.0010722065 -0.030067485
0.00047063568 -0.0077437139 -0.023217792
0.0056476281 0.0053610327 -0.018966258
0.0054123104 -0.005837569 -0.011880368
-0.007530171 -0.0017870109 -0.006684049
-0.0077654892 0.00011913406 -0.022981595
-0.0077654892 0.0017870109 -0.011880368
0.0077654892 -0.00083393842 -0.022981595
0.0023531786 0.0013104747 -0.035500001
0.0028238141 0.007267178 -0.021092024
0.0021178606 -0.0075054457 -0.016604295
-0.0068242177 0.0039314241 -0.026288344
-0.0023531786 0.0075054457 -0.01117178
-0.0028238141 -0.007267178 -0.028886503
0.0011765893 0.0039314241 -0.035263803
0.0040004035 0.0067906417 -0.019674847
0.0058829463 0.0051227645 -0.01495092
0.0063535818 0.0046462286 -0.02132822
0.0054123104 0.0027400835 -0.00030674846
-0.0077654892 0.0010722065 -0.026052147
-0.00070595351 0.0077437139 -0.016840491
0.0058829463 -0.0053610327 -0.033138037
0.0028238141 -0.007267178 -0.029358895
-0.001411907 -0.0077437139 -0.016131902
0.0077654892 0.0010722065 -0.026760736
0.0028238141 0.007267178 -0.017549079
-0.0042357212 -0.0065523735 -0.017785275
0.0051769926 0.005837569 -0.011880368
0.0056476281 0.0053610327 -0.026052147
-0.0077654892 0.00011913406 -0.0036134969
0.0077654892 0.00083393842 -0.014242331
0.0058829463 -0.0053610327 -0.015659509
0.0063535818 0.0041696923 -0.03479141
-0.0037650855 0.0070289099 -0.00077914109
-0.0040004035 0.0036931559 -0.035263803
0.0047063571 0.0063141054 -0.031720858
0.0028238141 0.0015487428 -7.0552145e-05
0.0016472249 0.0013104747 -7.0552145e-05
-0.007530171 0.0022635472 -0.027469326
-0.0063535818 -0.0025018153 -0.035027608
0.0028238141 0.007267178 -0.031248467
0.0068242177 0.0036931559 -0.0064478526
0.0032944498 -0.0070289099 -0.0064478526
-0.0011765893 -0.0077437139 -0.026996933
-0.00070595351 0.0077437139 -0.030776074
-0.007530171 -0.0015487428 -0.02841411
-0.0056476281 0.0053610327 -0.011644172
0.007530171 0.0017870109 -0.024162577
-0.0070595355 0.0032166196 -0.022745399
0.0040004035 -0.00011913406 0.00087423314
-0.0070595355 -0.0029783517 -0.0062116566
0.007530171 -0.002025279 -0.0090460125
-0.0077654892 0.00059567031 -0.0073926379
-0.0058829463 0.0051227645 -0.031012271
0.0068242177 -0.0036931559 -0.022509202
0.0068242177 0.0036931559 -0.018257668
0.0042357212 0.0013104747 -0.035263803
-0.0065888995 -0.0044079605 -0.015187116
0.007530171 -0.0015487428 -0.0012515337
0.0047063571 0.0063141054 -0.023217792
0.0018825427 0.0075054457 -0.0083374232
-0.0025884963 -0.007267178 -0.0019601227
0.0028238141 0.0053610327 -0.00030674846
-0.0032944498 -0.0067906417 -0.0014877301
0.0054123104 -0.0015487428 -0.00030674846
-0.0077654892 0.0003574022 -0.017312884
-0.0035297677 -0.0070289099 -0.016368099
-0.007530171 0.0022635472 -0.031957056
-0.0051769926 -0.005837569 -0.0081012268
0.0077654892 0.0013104747 -0.026288344
-0.0042357212 0.0065523735 -0.011407975
-0.0011765893 0.0077437139 -0.020383436
0.0065888995 0.0041696923 -0.026760736
-0.007530171 0.0025018153 -0.033138037
-0.0037650855 -0.0065523735 -0.035027608
-0.0058829463 -0.0051227645 -0.027705522
-0.0044710389 -0.0063141054 -0.012352761
0.0021178606 0.0075054457 -0.012825154
0.0037650855 0.0067906417 -0.033374231
0.0068242177 -0.0010722065 -0.035027608
-0.0065888995 -0.002025279 -0.035027608
-0.0070595355 0.0034548878 -0.012116564
-0.0051769926 0.0051227645 -0.00030674846
-0.00094127137 -0.0077437139 -0.023217792
0.0077654892 0.0017870109 -0.011880368
-0.00047063568 -0.0077437139 -0.033846624
0.0054123104 -0.005837569 -0.026760736
0.0077654892 -0.0010722065 -0.024162577
0.0068242177 -0.0017870109 -0.00030674846
-0.0056476281 -0.0053610327 -0.0059754602
0.0058829463 0.0051227645 -0.012588957
-0.0077654892 0.0015487428 -0.014242331
0.0049416749 0.0048844968 -0.035027608
0.0072948532 -0.0027400835 -0.014242331
0.0016472249 0.0075054457 -0.0038496933
-0.0049416749 -0.0013104747 -7.0552145e-05
0.0077654892 0.0013104747 -0.017549079
-0.0042357212 0.0065523735 -0.024398774
-0.006118264 -0.0027400835 -0.035027608
0.0023531786 0.007267178 -0.010226994
0.0018825427 -0.0075054457 -0.0097546009
0.0070595355 0.0034548878 -0.024398774
-0.0049416749 0.0060758372 -0.033846624
-0.0077654892 0.0003574022 -0.017549079
-0.0016472249 -0.0075054457 -0.031012271
-0.0054123104 -0.0055993008 -0.025579754
-0.00023531784 0.0077437139 -0.0059754602
-0.0025884963 0.007267178 -0.018493865
-0.0040004035 -0.0046462286 -0.035027608
-0.0072948532 -0.0027400835 -0.013061349
-0.0070595355 0.0034548878 -0.011407975
0.0011765893 -0.0077437139 -0.019911043
-0.0077654892 0.0017870109 -0.019674847
0.00070595351 -0.0039314241 -7.0552145e-05
-0.0065888995 -0.0041696923 -0.024634968
-0.0068242177 -0.0039314241 -0.031248467
-0.001411907 0.0003574022 -0.035500001
-0.0077654892 -0.00011913406 -0.014714724
-0.007530171 -0.0022635472 -0.013297546
-0.0011765893 -0.007267178 -0.00030674846
0.0040004035 -0.00011913406 0.0015828221
0.00070595351 -0.0077437139 -0.018257668
-0.0016472249 -0.0075054457 -0.030539878
-0.0065888995 0.0041696923 -0.030776074
-0.00070595351 0.0077437139 -0.025343558
0.0042357212 0.0065523735 -0.032429449
-0.0054123104 -0.00011913406 -0.00030674846
0.003059132 0.0070289099 -0.027233129
-0.0077654892 -0.00059567031 -0.017076688
0.0028238141 0.007267178 -0.0081012268
-0.0037650855 0.0067906417 -0.027469326
0.0023531786 -0.0070289099 -0.03479141
-0.0044710389 0.0063141054 -0.0047944784
0.0065888995 -0.0044079605 -0.017785275
0.0032944498 0.0070289099 -0.02841411
0.00070595351 0.0077437139 -0.021800613
-0.0040004035 0.0067906417 -0.031720858
-0.0037650855 -0.0065523735 -0.0014877301
-0.0077654892 0.0017870109 -0.02841411
0.00070595351 -0.007267178 -0.00030674846
-0.0054123104 0.0055993008 -0.023217792
0.0077654892 -0.00059567031 -0.010226994
-0.00047063568 -0.0055993008 -0.035263803
0.0065888995 -0.0044079605 -0.015659509
-0.0077654892 0.00083393842 -0.0010153374
-0.0016472249 0.0075054457 -0.010699387
0.0077654892 0.0013104747 -0.016368099
-0.0058829463 -0.0051227645 -0.019911043
0.0058829463 0.0044079605 -0.0017239264
0.00070595351 -0.0077437139 -0.032665644
-0.0070595355 -0.0032166196 -0.0083374232
-0.0077654892 0.0017870109 -0.022273006
-0.0077654892 -0.00083393842 -0.032429449
0.0021178606 -0.0075054457 -0.022981595
0.0054123104 -0.005837569 -0.010935583
0.0054123104 0.0055993008 -0.0097546009
0.0016472249 0.0075054457 -0.031484663
-0.0072948532 0.0029783517 -0.015423313
0.0028238141 0.007267178 -0.00077914109
-0.0042357212 -0.0003574022 -7.0552145e-05
0 0.0077437139 -0.0085736196
0.0065888995 -0.0041696923 -0.024634968
-0.0021178606 0.0075054457 -0.013769939
-0.0047063571 -0.0060758372 -0.0019601227
-0.0058829463 0.0046462286 -0.03479141
-0.0011765893 -0.0077437139 -0.031720858
0.0058829463 0.0051227645 -0.032193251
-0.0011765893 0.0027400835 -7.0552145e-05
0.00070595351 0.0077437139 -0.020619633
0.0077654892 0.00011913406 -0.026760736
0.0077654892 0.00059567031 -0.013769939
0.0077654892 0.0015487428 -0.0052668713
0.007530171 -0.002025279 -0.014242331
-0.00023531784 0.0077437139 -0.030776074
-0.0072948532 0.002025279 -0.0019601227
0.0070595355 -0.0032166196 -0.020383436
0.0063535818 0.0044079605 -0.023217792
-0.0077654892 0.00011913406 -0.016840491
0.0070595355 -0.0034548878 -0.0057392637
0.0056476281 0.0053610327 -0.029831288
0.0063535818 0.0046462286 -0.01117178
-0.0072948532 -0.0027400835 -0.012116564
-0.0070595355 -0.0034548878 -0.0071564419
-0.0047063571 -0.0060758372 -0.02014724
0.0077654892 -0.00083393842 -0.034319017
0.00047063568 -0.0077437139 -0.034555215
0.0018825427 0.0070289099 -0.035027608
0.0056476281 -0.0055993008 -0.020855829
-0.0058829463 -0.0051227645 -0.012825154
0.0023531786 -0.007267178 -0.032901842
0.001411907 0.0075054457 -0.033374231
-0.007530171 -0.002025279 -0.0090460125
-0.0018825427 0.0075054457 -0.017076688
-0.0058829463 0.0013104747 -0.035027608
0.0023531786 0.0060758372 -0.035027608
-0.0035297677 0.0070289099 -0.021092024
-0.007530171 -0.0017870109 -0.029831288
-0.00047063568 0.0077437139 -0.014006135
0.0051769926 0.005837569 -0.018257668
-0.0072948532 -0.0027400835 -0.013533742
0.0042357212 0.0065523735 -0.015423313
-0.0016472249 -0.0075054457 -0.017549079
0.0070595355 -0.0032166196 -0.034082823
-0.0021178606 -0.0017870109 -0.035500001
-0.0077654892 -0.00059567031 -0.0088098161
0.0023531786 0.007267178 -0.018730061
0.0077654892 -0.0010722065 -0.014714724
-0.0028238141 0.007267178 -0.016604295
0.0077654892 0.0003574022 -0.0083374232
-0.0042357212 0.0063141054 -0.00030674846
0.0072948532 0.0027400835 -0.013533742
0.0051769926 -0.005837569 -0.004322086
-0.0028238141 -0.007267178 -0.006684049
-0.00023531784 0.0025018153 -7.0552145e-05
0.0063535818 0.0046462286 -0.018021472
0.0070595355 0.0032166196 -0.031957056
0.0044710389 -0.0063141054 -0.029122699
0.0042357212 0.0065523735 -0.0088098161
0.003059132 -0.0065523735 -0.035027608
0.0072948532 0.0027400835 -0.028177913
-0.007530171 0.0025018153 -0.025343558
0.0072948532 -0.0025018153 -0.002904908
-0.0056476281 0.002025279 -0.035027608
-0.001411907 0.0077437139 -0.02132822
-0.006118264 0.0046462286 -0.0010153374
0.006118264 0.0048844968 -0.024398774
-0.0077654892 -0.00059567031 -0.029595092
-0.0070595355 -0.0034548878 -0.025579754
0.0018825427 -0.00083393842 -7.0552145e-05
0.007530171 0.002025279 -0.0045582824
-0.0058829463 0.0051227645 -0.015895706
-0.0023531786 -0.0075054457 -0.0069202455
0.0072948532 -0.0025018153 -0.024871165
-0.007530171 -0.0017870109 -0.014242331
-0.0056476281 0.0053610327 -0.0045582824
-0.0070595355 0.0034548878 -0.012825154
-0.0011765893 0.0067906417 -0.00030674846
-0.001411907 -0.0013104747 -7.0552145e-05
0.0068242177 -0.0036931559 -0.031248467
0.0070595355 0.0029783517 -0.011407975
-0.006118264 0.0015487428 -0.035027608
-0.0037650855 -0.0067906417 -0.0045582824
-0.0054123104 -0.0051227645 -0.0014877301
0.0025884963 0.007267178 -0.011407975
0.0077654892 0.00011913406 -0.018966258
-0.0021178606 -0.0075054457 -0.00054294476
-0.0028238141 -0.007267178 -0.024634968
-0.0077654892 -0.00083393842 -0.025815951
0.00094127137 -0.007267178 -0.03479141
0.006118264 0.0048844968 -0.02652454
0.003059132 -0.0070289099 -0.015423313
-0.0065888995 -0.0041696923 -0.029595092
-0.0037650855 0.0053610327 -0.035027608
0.0070595355 -0.0034548878 -0.0064478526
-0.0068242177 0.0032166196 -0.03479141
0.0049416749 0.0060758372 -0.030776074
0.00070595351 -0.0077437139 -0.0090460125
-0.0021178606 -0.002025279 -0.035500001
-0.0070595355 -0.0032166196 -0.015895706
0.0077654892 0.0013104747 -0.032901842
0.007530171 -0.0022635472 -0.026288344
-0.0049416749 0.005837569 -0.00030674846
0.0025884963 0.007267178 -0.031248467
0.0054123104 0.002025279 -0.00030674846
0.0035297677 0.0070289099 -0.015423313
-0.0051769926 0.005837569 -0.025107361
0.001411907 -0.0077437139 -0.024398774
-0.0072948532 -0.0027400835 -0.032665644
0.003059132 0.0048844968 -0.035027608
-0.00070595351 -0.0077437139 -0.029595092
0.0077654892 -0.00083393842 -0.011644172
0.0021178606 -0.0075054457 -0.031720858
-0.0077654892 -0.0003574022 -0.034319017
-0.0054123104 -0.0055993008 -0.016131902
-0.0065888995 -0.0044079605 -0.027233129
-0.0025884963 0.007267178 -0.029122699
0.0077654892 -0.00059567031 -0.03479141
-0.0037650855 -0.0067906417 -0.033846624
0.0011765893 0.0077437139 -0.024162577
-0.0018825427 -0.0075054457 -0.03479141
-0.0065888995 -0.0041696923 -0.022981595
0.0072948532 0.0025018153 -0.020855829
0.0077654892 -0.00083393842 -0.0090460125
0.0077654892 -0.00059567031 -0.00077914109
0.0021178606 0.0075054457 -0.014006135
0.0070595355 -0.0034548878 -0.00054294476
0.0058829463 -0.0053610327 -0.025343558
-0.0035297677 0.0070289099 -0.033138037
0.003059132 0.0044079605 -0.035263803
-0.0072948532 -0.0017870109 -0.0012515337
-0.001411907 0.0025018153 -7.0552145e-05
-0.0040004035 0.0067906417 -0.015187116
-0.0028238141 0.0003574022 -0.035500001
0.0065888995 -0.0044079605 -0.031957056
0.0011765893 0.0077437139 -0.0010153374
-0.0049416749 -0.0060758372 -0.023690185
-0.0077654892 -0.00011913406 -0.031720858
-0.0065888995 -0.0041696923 -0.018257668
0.0077654892 -0.0010722065 -0.0073926379
0.003059132 -0.0070289099 -0.017312884
-0.003059132 -0.007267178 -0.009282209
0.0077654892 0.0003574022 -0.026052147
-0.0011765893 0.0077437139 -0.03479141
0.0042357212 -0.0065523735 -0.024162577
-0.007530171 -0.0022635472 -0.015659509
0.0068242177 -0.0036931559 -0.031957056
0.00070595351 -0.0032166196 -0.035500001
0.0023531786 0.007267178 -0.0081012268
0.0032944498 0.0070289099 -0.026288344
0.003059132 -0.0070289099 -0.00054294476
0.0025884963 0.0070289099 -0.0014877301
-0.007530171 0.0025018153 -0.011407975
-0.003059132 -0.007267178 -0.026288344
0.001411907 0.0075054457 -0.019911043
0.0070595355 0.0032166196 -0.02132822
-0.0016472249 0.0060758372 -0.035027608
0.0068242177 -0.0036931559 -0.032665644
0.0018825427 0.0075054457 -0.03479141
0.0021178606 -0.0075054457 -0.027233129
0.0028238141 0.00083393842 -0.035500001
0.0054123104 -0.005837569 -0.029122699
0.006118264 -0.0048844968 -0.033138037
-0.0077654892 0.00059567031 -0.030776074
0.0011765893 0.0077437139 -0.024871165
0.0068242177 -0.0036931559 -0.0097546009
0.0047063571 -0.0063141054 -0.02014724
-0.0040004035 -0.0029783517 -0.035263803
-0.0072948532 0.0027400835 -0.027941719
-0.0077654892 -0.0003574022 -0.017549079
-0.0032944498 0.0070289099 -0.024398774
0.007530171 0.0017870109 -0.0069202455
-0.0011765893 -0.0077437139 -0.019911043
0.0023531786 0.007267178 -0.02841411
-0.0058829463 -0.0051227645 -0.0069202455
-0.0063535818 0.0044079605 -0.018021472
-0.00047063568 0.0029783517 -7.0552145e-05
0.0077654892 0.00059567031 -0.030303681
-0.0011765893 0.0077437139 -0.027705522
-0.003059132 0.0070289099 -0.022273006
-0.0037650855 -0.0067906417 -0.031484663
0.0058829463 0.0051227645 -0.019202454
0.007530171 -0.002025279 -0.026760736
-0.006118264 -0.0029783517 -0.00030674846
-0.0035297677 0.0070289099 -0.012588957
0.0077654892 -0.00059567031 -0.019202454
-0.007530171 0.0025018153 -0.0095184045
-0.00094127137 -0.0034548878 -7.0552145e-05
0.003059132 0.0065523735 -0.00030674846
-0.0032944498 -0.002025279 -7.0552145e-05
0.0016472249 -0.0067906417 -0.00030674846
0.0040004035 -0.0065523735 -0.034319017
-0.0032944498 -0.0070289099 -0.0073926379
0.0021178606 0.0075054457 -0.013769939
0.0037650855 0.0067906417 -0.0057392637
0.0016472249 -0.0075054457 -0.034555215
0.00094127137 0.0077437139 -0.011644172
0.0077654892 -0.0010722065 -0.031484663
-0.00023531784 -0.0013104747 -7.0552145e-05
-0.00047063568 0.0077437139 -0.025343558
-0.00047063568 0.0010722065 -0.035500001
0.0077654892 -0.00059567031 -0.009282209
0.007530171 0.0025018153 -0.017785275
-0.0040004035 -0.0067906417 -0.017549079
-0.0077654892 0.0010722065 -0.01046319
-0.0051769926 -0.0027400835 -0.035027608
0.0040004035 0.0032166196 -0.035263803
0.0044710389 -0.0063141054 -0.022745399
0.0035297677 0.0070289099 -0.019674847
-0.0056476281 0.0053610327 -0.00077914109
-0.0077654892 -0.0003574022 -0.030303681
0.0047063571 -0.0063141054 -0.028177913
0.0035297677 0.0070289099 -0.016604295
-0.0023531786 0.005837569 -0.00030674846
-0.0077654892 -0.00011913406 -0.031484663
0.0072948532 -0.0025018153 -0.026996933
0.0056476281 -0.0055993008 -0.029358895
0.0044710389 0.0063141054 -0.019911043
-0.0023531786 -0.00083393842 -0.035500001
-0.007530171 -0.0015487428 -0.0081012268
0.0040004035 -0.0065523735 -0.028650306
0.0016472249 -0.0044079605 -7.0552145e-05
0.00023531784 -0.0041696923 -7.0552145e-05
-0.0044710389 -0.0063141054 -0.027469326
-0.0037650855 -0.0067906417 -0.010699387
0.0068242177 0.0036931559 -0.029122699
0.0072948532 0.0027400835 -0.01117178
0.0028238141 -0.007267178 -0.011407975
0.0077654892 0.00059567031 -0.025107361
-0.00094127137 -0.0053610327 -0.00030674846
-0.0040004035 -0.0067906417 -0.0024325154
-0.0011765893 -0.0077437139 -0.010699387
-0.00094127137 0.0077437139 -0.0031411042
0.0051769926 0.0048844968 -0.00030674846
-0.0072948532 -0.0027400835 -0.022509202
0.0063535818 -0.0046462286 -0.01495092
0.0077654892 -0.00011913406 -0.0024325154
-0.0077654892 0.00011913406 -0.030067485
0.00023531784 -0.0077437139 -0.025579754
0.0077654892 0.0013104747 -0.0097546009
-0.00047063568 -0.0077437139 -0.019911043
-0.0077654892 -0.00083393842 -0.025343558
0.003059132 0.0070289099 -0.034082823
0.0040004035 -0.0065523735 -0.017549079
-0.007530171 0.0022635472 -0.015895706
0.0054123104 0.0055993008 -0.016840491
0.0021178606 0.0065523735 -0.035027608
0.0072948532 0.0027400835 -0.024162577
-0.007530171 -0.0022635472 -0.0050306749
0.0065888995 -0.0044079605 -0.030776074
0.0077654892 -0.00059567031 -0.024871165
0.0077654892 -0.0010722065 -0.018730061
0.00047063568 -0.0075054457 -0.03479141
-0.0077654892 -0.0003574022 -0.028886503
0.0063535818 0.0046462286 -0.014714724
0.0051769926 0.005837569 -0.032665644
0.0077654892 -0.0003574022 -0.028650306
0.0054123104 -0.0053610327 -0.0017239264
-0.0077654892 0.0017870109 -0.023926381
0.0070595355 0.0034548878 -0.014714724
0.0070595355 -0.0029783517 -0.020619633
-0.0011765893 0.0063141054 -0.035027608
-0.0023531786 0.0003574022 -7.0552145e-05
0.0032944498 -0.0053610327 -0.00030674846
0.0047063571 0.002025279 -0.035263803
-0.0051769926 -0.002025279 -0.035263803
0.007530171 -0.0022635472 -0.028650306
0.0032944498 0.0070289099 -0.00054294476
-0.003059132 0.0060758372 -0.00030674846
0.0058829463 -0.0051227645 -0.029122699
0.0056476281 -0.0055993008 -0.032193251
-0.0021178606 -0.0075054457 -0.025579754
-0.0044710389 -0.0063141054 -0.0045582824
0.007530171 0.002025279 -0.031484663
0.007530171 -0.0017870109 -0.023453988
0.0016472249 -0.0075054457 -0.025579754
0.0035297677 0.0070289099 -0.018730061
-0.0040004035 -0.0067906417 -0.014242331
-0.0040004035 -0.0067906417 -0.022745399
-0.003059132 0.0017870109 -7.0552145e-05
-0.00094127137 0.0077437139 -0.026288344
-0.007530171 -0.0017870109 -0.0021963189
-0.0042357212 -0.0065523735 -0.031957056
-0.0025884963 0.007267178 -0.029831288
-0.0018825427 -0.0027400835 -0.035500001
-0.0077654892 -0.00059567031 -0.0073926379
0.0040004035 -0.0065523735 -0.011880368
0.0077654892 0.0010722065 -0.032665644
-0.0018825427 -0.0067906417 -0.00030674846
-0.0011765893 0.0077437139 -0.02652454
0.0035297677 -0.0053610327 -0.00030674846
-0.003059132 -0.007267178 -0.022745399
0.0058829463 -0.0051227645 -0.021800613
0.0021178606 0.0075054457 -0.025579754
-0.0070595355 0.0036931559 -0.010226994
0.0056476281 -0.0055993008 -0.016131902
0 -0.0015487428 -7.0552145e-05
0.0035297677 -0.0070289099 -0.031484663
0.0058829463 -0.0036931559 -0.035027608
-0.0025884963 -0.0075054457 -0.022981595
0.0065888995 0.0041696923 -0.019202454
0.0044710389 0.0063141054 -0.0099907974
0.0011765893 0.0034548878 -0.035500001
0.001411907 0.0075054457 -0.012588957
0.0065888995 0.0041696923 -0.013061349
-0.0035297677 0.0070289099 -0.0097546009
0.0051769926 -0.002025279 -0.00030674846
-0.0016472249 0.0075054457 -0.0097546009
0.0072948532 -0.0025018153 -0.0010153374
-0.007530171 -0.0013104747 -0.030776074
-0.0077654892 -0.00059567031 -0.033846624
-0.007530171 0.0025018153 -0.006684049
0.00047063568 -0.0077437139 -0.021800613
-0.00023531784 -0.0067906417 -0.035027608
-0.001411907 0.0077437139 -0.031720858
-0.0025884963 0.007267178 -0.020383436
0.007530171 -0.0013104747 -0.022036809
0.0077654892 0.00059567031 -0.030539878
0.00094127137 -0.0077437139 -0.032429449
-0.00047063568 0.0077437139 -0.02841411
0.007530171 -0.0017870109 -0.022745399
-0.0016472249 0.0075054457 -0.0052668713
-0.0025884963 -0.0075054457 -0.010935583
-0.0025884963 0.0046462286 -0.035263803
-0.00094127137 0.0077437139 -0.027233129
-0.001411907 -0.0039314241 -0.035263803
-0.007530171 -0.0017870109 -0.016840491
0.0011765893 -0.0077437139 -0.0088098161
0.0072948532 0.0017870109 -0.03479141
