# .PCD v0.7 - Point Cloud Data file format
VERSION 0.7
FIELDS x y z
SIZE 4 4 4
TYPE F F F
COUNT 1 1 1
WIDTH 1260
HEIGHT 1
VIEWPOINT 0 0 0 1 0 0 0
POINTS 1260
DATA ascii
0.0066047907 0.0041291541 -0.00060000003
0.0034024678 0.0069490643 -0.0148
0.0066047907 -0.0039277319 -0.012
0.0074053714 -0.0021149325 -0.024
0.0066047907 -0.0041291541 -0.0164
0.0054039196 0.005136265 -0.00039999999
0.00580421 0.005136265 -0.015799999
0.0024017422 0.0073519084 -0.0152
-0.0078056618 0.0015106661 -0.0096000005
-0.0012008711 0.001309244 -0.00019999999
0 0.0079561751 -0.00060000003
-0.0024017422 -0.0029206211 -0.024800001
0.0038027582 -0.0041291541 -0.00019999999
0.0046033389 -0.0063447976 -0.0077999998
0.0042030485 -0.0021149325 -0.024800001
-0.0076055164 -0.0017120882 -0.00060000003
-0.0074053714 -0.0027191991 -0.0122
-0.0050036293 0.0059419535 -0.0124
-0.0012008711 0.0077547529 -0.00060000003
-0.007005081 -0.0033234654 -0.0055999998
-0.0014010163 0.0077547529 -0.0108
-0.0024017422 0.0073519084 -0.0093999999
0.0040029036 0.00010071108 -0.024800001
-0.0076055164 0.0017120882 -0.0132
0.007205226 0.0029206211 -0.0077999998
0.00080058072 0.00050355535 -0.025
0.0012008711 0.0077547529 -0.0063999998
0.0048034843 0.0061433758 -0.019200001
0.0076055164 0.0021149325 -0.0228
0.0012008711 -0.0077547529 -0.0138
0.0042030485 0.0063447976 -0.0018
0.0054039196 0.0049348427 -0.024599999
-0.002201597 -0.0017120882 -0.00019999999
-0.005604065 0.005539109 -0.0044
0.0060043554 -0.005136265 -0.0062000002
0.002201597 -0.0029206211 -0.025
0.0026018873 -0.0071504861 -0.024599999
0.0038027582 -0.0069490643 -0.0102
-0.0032023229 0.0071504861 -0.00079999998
-0.0016011614 -0.0049348427 -0.024800001
-0.00040029036 -0.0077547529 -0.0106
-0.0066047907 -0.0039277319 -0.022600001
-0.0040029036 -0.00010071108 0
-0.007005081 0.0033234654 -0.024
0.0050036293 0.0059419535 -0.0124
-0.0028020325 0.0071504861 -0.0020000001
-0.0066047907 0.0025177768 -0.024599999
-0.0038027582 -0.0069490643 -0.0098000001
0.0010007259 -0.0077547529 -0.0046000001
0.0032023229 -0.0071504861 -0.0126
-0.00060043554 0.0079561751 -0.0093999999
-0.0038027582 0.0067476421 -0.0055999998
0.0076055164 0.0021149325 -0.0174
-0.0078056618 0.001309244 -0.0116
-0.0066047907 -0.0039277319 -0.016000001
0.0010007259 0.0077547529 -0.023600001
0.0012008711 0.0077547529 -0.0112
0.0062045003 0.0047334204 -0.017000001
-0.0020014518 -0.00050355535 -0.00019999999
0.0052037747 0.0057405313 -0.0156
-0.0016011614 -0.0075533306 -0.0106
-0.007005081 0.0025177768 -0.0012000001
0.0078056618 0.0011078218 -0.0132
-0.007005081 -0.0033234654 -0.00039999999
0.0018013065 -0.0077547529 -0.0152
-0.0078056618 0.00010071108 -0.0136
-0.0078056618 0.00070497754 -0.024
0.0076055164 -0.0019135104 -0.018200001
-0.0024017422 -0.0073519084 -0.0052
-0.0014010163 0.0077547529 -0.003
0.0048034843 0.0061433758 -0.0082
0.0078056618 0.00050355535 -0.017000001
0.0040029036 0.0067476421 -0.012
-0.0068049356 0.0037263099 -0.0206
0.0064046457 0.0045319982 -0.018200001
-0.0014010163 -0.0075533306 -0.0154
0.0052037747 0.0059419535 -0.0066
0.005604065 0.0025177768 -0.024599999
-0.0030021777 -0.0071504861 -0.0144
0.0052037747 0.0057405313 -0.0232
-0.0064046457 -0.0045319982 -0.0026
0.0012008711 0.0077547529 -0.0142
0.0032023229 0.0025177768 -0.00019999999
0.0010007259 -0.0077547529 -0.0116
-0.0046033389 0.0063447976 -0.021
-0.007205226 -0.0023163548 -0.0016
0.005604065 0.0053376867 -0.011
0.0026018873 -0.0073519084 -0.014
0.0024017422 0.0071504861 -0.024599999
0.0076055164 -0.0019135104 -0.0134
-0.0018013065 -0.0075533306 -0.00039999999
-0.007005081 0.0035248876 -0.0076000001
0.0074053714 -0.0025177768 -0.020199999
0.007205226 -0.0027191991 -0.022600001
-0.0062045003 0.0049348427 -0.0031999999
-0.0034024678 -0.0063447976 -0.00039999999
0.00020014518 -0.0049348427 -0.024800001
-0.0010007259 0.0071504861 -0.00039999999
0.0018013065 -0.0077547529 -0.0040000002
0.0016011614 0.0073519084 -0.0016
0.0014010163 0.0067476421 -0.024599999
-0.007005081 -0.0033234654 -0.0041999999
-0.003602613 -0.0069490643 -0.0128
0.0048034843 0.0061433758 -0.0098000001
-0.00060043554 -0.0021149325 -0.00019999999
0.0024017422 0.0073519084 -0.0176
0.0064046457 -0.0047334204 -0.0024000001
-0.0026018873 0.0039277319 -0.00019999999
0.0078056618 -0.00010071108 -0.0112
-0.002201597 -0.0041291541 -0.00019999999
-0.00020014518 0.0029206211 -0.025
-0.00020014518 0.0079561751 -0.0099999998
-0.0030021777 -0.001309244 -0.025
-0.0074053714 -0.001309244 -0.0014
-0.0078056618 -0.00050355535 -0.0026
0.0010007259 -0.0077547529 -0.0112
0.0050036293 0.0059419535 -0.015799999
-0.0078056618 0.00070497754 -0.0132
0.00060043554 0.0077547529 -0.0048000002
0.0068049356 0.0037263099 -0.0060000001
-0.0024017422 -0.0073519084 -0.0022
0.0074053714 -0.0023163548 -0.0052
-0.0068049356 -0.0039277319 -0.0104
-0.0016011614 -0.0061433758 -0.024599999
-0.0066047907 0.0041291541 -0.0068000001
-0.0042030485 0.0067476421 -0.0138
0.0066047907 -0.0041291541 -0.0128
-0.0062045003 0.0049348427 -0.019400001
-0.0048034843 -0.0053376867 -0.024599999
0.0078056618 0.00090639968 -0.0102
0.0046033389 -0.0045319982 -0.024599999
0.0030021777 0.0071504861 -0.0071999999
0.0018013065 0.0071504861 -0.0016
0.00080058072 -0.0077547529 -0.0122
0.0018013065 0.0075533306 -0.0068000001
0.0064046457 -0.0045319982 -0.0184
-0.0074053714 -0.0025177768 -0.0154
0.00040029036 0.0079561751 -0.0099999998
0.0076055164 0.0019135104 -0.0093999999
-0.0040029036 0.0067476421 -0.0164
-0.0064046457 -0.0027191991 -0.00039999999
0.0060043554 0.0049348427 -0.0144
-0.0060043554 -0.00070497754 -0.024599999
0.0020014518 -0.0045319982 -0.00019999999
-0.00020014518 -0.0079561751 -0.016000001
-0.00060043554 -0.0077547529 -0.0024000001
0.0016011614 -0.0077547529 -0.021199999
0.0020014518 -0.0075533306 -0.0184
-0.0046033389 0.0063447976 -0.0071999999
0.0024017422 -0.0075533306 -0.0026
-0.0076055164 -0.0019135104 -0.0122
-0.0032023229 0.001309244 -0.025
-0.00580421 -0.005136265 -0.0082
0.0076055164 -0.0017120882 -0.0134
-0.0016011614 0.0077547529 -0.0138
-0.0074053714 0.0025177768 -0.0222
0.00060043554 0.0077547529 -0.001
-0.0078056618 0.0011078218 -0.0092000002
-0.0046033389 -0.0063447976 -0.0128
0.0020014518 0.00070497754 -0.025
-0.0078056618 0.00030213324 -0.00039999999
0.0040029036 -0.0021149325 -0.00019999999
-0.0030021777 -0.0069490643 -0.0014
-0.007005081 -0.0035248876 -0.0057999999
-0.0024017422 0.0073519084 -0.0076000001
-0.007205226 0.0029206211 -0.003
-0.0060043554 0.0033234654 -0.00039999999
0.0052037747 0.0059419535 -0.0080000004
-0.005604065 0.005539109 -0.017000001
-0.0078056618 -0.001309244 -0.0104
0.0032023229 0.0071504861 -0.00039999999
-0.0064046457 -0.0043305764 -0.016799999
0.0052037747 -0.0057405313 -0.0070000002
-0.003602613 -0.00030213324 0.0024000001
-0.0034024678 0.00010071108 -0.00019999999
0.00060043554 -0.00090639968 -0.025
0 -0.0079561751 -0.0068000001
0.0062045003 0.0047334204 -0.0128
-0.0016011614 -0.0033234654 -0.025
0.0026018873 -0.0073519084 -0.0044
-0.0050036293 -0.0061433758 -0.0118
0.00080058072 0.0077547529 -0.00039999999
-0.0078056618 -0.0011078218 -0.0184
-0.0062045003 -0.0027191991 -0.024599999
0.0042030485 0.0039277319 -0.024800001
0.0076055164 -0.00030213324 -0.00039999999
0.002201597 0.005136265 -0.024800001
-0.007005081 -0.0019135104 -0.024599999
0.0054039196 0.005539109 -0.0049999999
0.00580421 0.00050355535 -0.024599999
0.0018013065 0.0075533306 -0.0132
0.0074053714 0.0021149325 -0.020400001
0.005604065 -0.005539109 -0.0138
-0.00580421 -0.005136265 -0.017999999
-0.0068049356 -0.0037263099 -0.018200001
0.0034024678 -0.00010071108 -0.00019999999
-0.0020014518 -0.0075533306 -0.0080000004
0.0044031939 0.0063447976 -0.020400001
0.0014010163 -0.0077547529 -0.0152
-0.0068049356 -0.0037263099 -0.0124
-0.0040029036 0.0067476421 -0.0057999999
-0.0066047907 -0.00090639968 -0.024599999
-0.0014010163 -0.0075533306 -0.0055999998
0.0024017422 -0.0075533306 -0.0106
0.0032023229 0.0071504861 -0.0138
-0.003602613 -0.0069490643 -0.0208
-0.00060043554 -0.0077547529 -0.016799999
0.0038027582 0.0053376867 -0.00039999999
0.0012008711 -0.0075533306 -0.00039999999
-0.0052037747 -0.0057405313 -0.0076000001
-0.0066047907 0.0039277319 -0.023399999
-0.0016011614 -0.005136265 -0.00019999999
0.005604065 0.0053376867 -0.012
-0.0026018873 0.0071504861 -0.0014
-0.0078056618 -0.00010071108 -0.012
0.0032023229 0.0071504861 -0.0196
0.0016011614 0.0075533306 -0.0082
-0.0048034843 0.0047334204 -0.00039999999
-0.0044031939 0.0049348427 -0.00039999999
0.003602613 -0.0069490643 -0.0099999998
-0.002201597 -0.0073519084 -0.00039999999
-0.0018013065 0.0075533306 -0.021600001
0.0074053714 0.0027191991 -0.017200001
0.0040029036 -0.0067476421 -0.0176
0.00040029036 0.0079561751 -0.0048000002
0.0038027582 -0.0067476421 -0.022
-0.0032023229 0.0049348427 -0.00039999999
0.00580421 -0.0053376867 -0.0148
0.00060043554 -0.0079561751 -0.015799999
0.0038027582 0.0067476421 -0.0070000002
0.0078056618 0.00070497754 -0.0049999999
0.00020014518 -0.0079561751 -0.015
0.0066047907 -0.0039277319 -0.0134
0.0078056618 -0.00030213324 -0.013
-0.0078056618 -0.00090639968 -0.0044
-0.0064046457 -0.0045319982 -0.0146
0.0028020325 -0.0073519084 -0.0092000002
-0.005604065 0.005539109 -0.0077999998
0.0034024678 0.0069490643 -0.0232
-0.0068049356 -0.0037263099 -0.022399999
-0.0078056618 -0.00070497754 -0.023800001
-0.0052037747 0.0059419535 -0.0024000001
-0.0066047907 -0.0041291541 -0.0218
0.007005081 0.0035248876 -0.0198
-0.0028020325 -0.0071504861 -0.024
0.0052037747 0.0057405313 -0.019200001
0.0014010163 0.0017120882 -0.025
-0.0038027582 -0.0067476421 -0.0038000001
-0.0046033389 -0.0041291541 -0.00039999999
0.0068049356 -0.0037263099 -0.0048000002
-0.0032023229 -0.0027191991 -0.00019999999
-0.0052037747 -0.0059419535 -0.0060000001
0.0050036293 0.0053376867 -0.024599999
0.0048034843 -0.0047334204 -0.024599999
0.0044031939 0.0063447976 -0.0080000004
0.0050036293 -0.0059419535 -0.0136
0.00060043554 0.0077547529 -0.0124
0.0052037747 -0.0057405313 -0.0106
0.0038027582 -0.0067476421 -0.0074
0.0016011614 -0.0047334204 -0.024800001
0.0076055164 0.0023163548 -0.0178
0.0046033389 -0.0025177768 -0.00019999999
0.0076055164 0.0017120882 -0.0128
0.0078056618 0.00090639968 -0.0076000001
-0.0012008711 0.0027191991 -0.025
0.0018013065 -0.0077547529 -0.0046000001
-0.0078056618 0.0015106661 -0.0164
0.0050036293 0.0059419535 -0.0076000001
-0.0062045003 0.00070497754 -0.024599999
-0.0016011614 -0.0075533306 -0.016799999
-0.0016011614 0.0071504861 -0.024599999
-0.0010007259 0.0077547529 -0.0128
0.0052037747 0.0057405313 -0.0077999998
-0.0042030485 -0.0067476421 -0.0136
-0.007205226 -0.0031220433 -0.0026
0.0074053714 -0.00090639968 -0.0018
-0.0032023229 0.0071504861 -0.017000001
-0.00080058072 -0.0033234654 -0.025
-0.0068049356 -0.0037263099 -0.0188
0.007205226 0.0031220433 -0.00039999999
-0.0032023229 0.0071504861 -0.018200001
0.0010007259 -0.0063447976 -0.024599999
-0.0038027582 -0.0067476421 -0.0068000001
0.007005081 -0.0035248876 -0.023399999
-0.0010007259 0.0077547529 -0.0198
-0.005604065 0.005539109 -0.0022
0.002201597 -0.0053376867 -0.00039999999
-0.0010007259 -0.0021149325 -0.00019999999
-0.003602613 -0.0069490643 -0.0102
-0.0040029036 -0.00070497754 -0.024800001
0.0028020325 -0.00030213324 -0.025
-0.0062045003 -0.0047334204 -0.0132
-0.0054039196 0.0057405313 -0.0244
-0.0040029036 0.0023163548 -0.00019999999
0.00080058072 0.0077547529 -0.0198
0.0020014518 0.0075533306 -0.0176
-0.0076055164 0.0017120882 -0.0112
0.0044031939 -0.0063447976 -0.018999999
0.0034024678 -0.0069490643 -0.021600001
-0.00580421 -0.005136265 -0.0041999999
0 -0.0029206211 -0.025
-0.0052037747 -0.0059419535 -0.0068000001
-0.0032023229 0.0071504861 -0.0086000003
-0.0010007259 -0.0027191991 -0.025
0.0076055164 -0.0011078218 -0.0077999998
-0.007005081 0.0035248876 -0.0186
0 -0.0079561751 -0.0146
-0.0062045003 0.0049348427 -0.0198
-0.00580421 0.0031220433 -0.024599999
-0.0060043554 -0.0049348427 -0.0134
-0.0064046457 0.0043305764 -0.0071999999
-0.0048034843 0.00070497754 -0.024800001
0.0038027582 -0.0067476421 -0.0206
-0.0016011614 0.0077547529 -0.021
0.007005081 -0.0033234654 -0.018999999
-0.0020014518 0.0053376867 -0.024800001
-0.00040029036 0.0079561751 -0.0152
0.0074053714 -0.0023163548 -0.0112
0.0066047907 -0.0041291541 -0.0098000001
0.0016011614 -0.0041291541 -0.00019999999
-0.0066047907 0.0035248876 -0.00039999999
-0.00060043554 0.0017120882 -0.00019999999
-0.0028020325 -0.0011078218 -0.00019999999
0.0016011614 0.0047334204 -0.024800001
0.0076055164 -0.001309244 -0.0057999999
0.00080058072 0.001309244 -0.025
0.0078056618 0.00090639968 -0.00039999999
-0.002201597 0.0071504861 -0.024599999
-0.00060043554 -0.0045319982 -0.00019999999
0.0030021777 0.0071504861 -0.0174
-0.0048034843 -0.0057405313 -0.0018
-0.002201597 0.0075533306 -0.0136
-0.00060043554 0.0073519084 -0.00039999999
0.0050036293 0.0059419535 -0.018999999
-0.005604065 0.005539109 -0.0027999999
0.0074053714 -0.0023163548 -0.0083999997
0.0062045003 -0.0049348427 -0.0164
-0.0028020325 0.0071504861 -0.0041999999
-0.0010007259 0.0065462198 -0.00039999999
0.0024017422 0.0063447976 -0.024599999
0.0060043554 -0.001309244 -0.024599999
-0.00020014518 -0.0079561751 -0.0024000001
-0.0054039196 -0.0057405313 -0.0092000002
-0.0064046457 0.0045319982 -0.001
0.0042030485 -0.0065462198 -0.0102
-0.0052037747 0.0059419535 -0.017200001
0.0052037747 -0.0057405313 -0.0035999999
-0.0052037747 -0.0059419535 -0.0218
-0.0068049356 0.0037263099 -0.0049999999
0.0076055164 -0.0017120882 -0.0060000001
0.0078056618 0.00010071108 -0.0164
-0.00080058072 -0.0077547529 -0.0102
-0.005604065 0.005539109 -0.016799999
-0.007005081 0.0035248876 -0.0152
-0.0066047907 -0.0039277319 -0.0132
-0.0050036293 0.0059419535 -0.0156
0.0020014518 0.0073519084 -0.001
-0.005604065 -0.0053376867 -0.02
0.0078056618 -0.00050355535 -0.0124
-0.007205226 0.0031220433 -0.021600001
-0.0060043554 0.005136265 -0.011
0.007205226 0.0019135104 -0.0016
0.0060043554 -0.001309244 -0.00039999999
0.0034024678 0.0069490643 -0.0098000001
0.003602613 0.0069490643 -0.020199999
0.0078056618 0.00030213324 -0.0102
0.0040029036 -0.00010071108 0.00019999999
-0.0024017422 -0.0059419535 -0.024599999
-0.007005081 -0.0035248876 -0.0208
-0.0028020325 -0.0071504861 -0.00060000003
0.0078056618 0.001309244 -0.011
0.00580421 0.005136265 -0.0196
-0.0054039196 0.0057405313 -0.0178
-0.007205226 -0.0029206211 -0.015
0.0078056618 0.00010071108 -0.0074
-0.0078056618 -0.00050355535 -0.0134
0.0076055164 0.0023163548 -0.0060000001
0.0042030485 -0.0065462198 -0.0063999998
-0.0074053714 -0.0027191991 -0.0052
0.00020014518 0.0029206211 -0.00019999999
-0.00080058072 -0.0043305764 -0.024800001
-0.0038027582 0.00010071108 0.00039999999
0.00060043554 -0.0049348427 -0.024800001
0.0016011614 0.0075533306 -0.011
0.0078056618 0.00070497754 -0.0188
0.00060043554 0.0077547529 -0.0044
-0.0046033389 0.0063447976 -0.0106
-0.0030021777 -0.005539109 -0.024599999
0.0040029036 0.00010071108 0.0012000001
-0.0078056618 0.00030213324 -0.001
-0.0028020325 0.0017120882 -0.00019999999
0.0038027582 -0.0067476421 -0.0124
-0.0066047907 -0.0041291541 -0.0108
-0.0026018873 0.0073519084 -0.0089999996
-0.007205226 0.0029206211 -0.018999999
-0.0030021777 -0.0019135104 -0.025
-0.0012008711 -0.0077547529 -0.0104
-0.0016011614 -0.0075533306 -0.012
-0.0078056618 0.0011078218 -0.0048000002
0.0030021777 -0.0073519084 -0.016000001
-0.0078056618 -0.00010071108 -0.013
0.0074053714 -0.0023163548 -0.017000001
0.0050036293 0.0059419535 -0.023800001
0.0016011614 0.0059419535 -0.024599999
0.0030021777 0.0071504861 -0.0048000002
-0.005604065 -0.0053376867 -0.0035999999
0.00040029036 -0.0079561751 -0.0206
0.0024017422 -0.0075533306 -0.011
0.0074053714 0.0025177768 -0.0108
0.0074053714 0.0023163548 -0.015799999
0.0062045003 -0.0049348427 -0.0048000002
0.0078056618 0.00010071108 -0.016799999
-0.0018013065 -0.0053376867 -0.024800001
-0.0078056618 -0.001309244 -0.0116
-0.0044031939 -0.0065462198 -0.0041999999
0.0030021777 0.0071504861 -0.0027999999
-0.007205226 0.0029206211 -0.0126
-0.0044031939 0.0029206211 -0.00019999999
-0.0016011614 0.0075533306 -0.001
-0.0018013065 0.0075533306 -0.021400001
0.0052037747 -0.0057405313 -0.0102
-0.0020014518 -0.0059419535 -0.00039999999
-0.0054039196 -0.0057405313 -0.0074
0.0076055164 0.0017120882 -0.0041999999
-0.0068049356 0.0025177768 -0.00039999999
-0.0074053714 -0.0027191991 -0.016000001
0.0074053714 -0.0027191991 -0.0077999998
0.007205226 -0.0027191991 -0.0206
0.007205226 -0.0031220433 -0.021
0.0074053714 0.0023163548 -0.0086000003
0.003602613 0.00030213324 0.00060000003
-0.0062045003 -0.0047334204 -0.0154
0.0068049356 -0.0039277319 -0.0222
-0.0024017422 -0.0067476421 -0.024599999
0.0016011614 -0.0077547529 -0.0198
-0.0046033389 0.0059419535 -0.0012000001
-0.0078056618 0.001309244 -0.0138
-0.0076055164 0.0017120882 -0.0206
0.0048034843 0.0061433758 -0.020400001
-0.0042030485 -0.00070497754 -0.00019999999
0.0010007259 0.0045319982 -0.00019999999
0.0024017422 -0.0075533306 -0.0166
-0.0026018873 0.0073519084 -0.0060000001
-0.0054039196 -0.0057405313 -0.0077999998
0.0078056618 0.00090639968 -0.0186
-0.0028020325 0.0069490643 -0.0016
0.00040029036 -0.0079561751 -0.0057999999
0.0020014518 0.0075533306 -0.023800001
-0.0074053714 -0.0025177768 -0.0244
-0.0040029036 -0.0061433758 -0.00039999999
0.0062045003 0.0031220433 -0.024599999
-0.0052037747 -0.0039277319 -0.00039999999
-0.0078056618 0.0011078218 -0.0044
-0.00020014518 -0.0079561751 -0.0132
0.0050036293 -0.0057405313 -0.0018
-0.0016011614 -0.0075533306 -0.0044
0.00060043554 -0.0031220433 -0.025
-0.0074053714 -0.001309244 -0.0016
0.0074053714 -0.0027191991 -0.00079999998
0.0024017422 0.0073519084 -0.0093999999
-0.0078056618 0.00010071108 -0.003
-0.0030021777 -0.0071504861 -0.021600001
0.0028020325 -0.0031220433 -0.00019999999
0.00580421 0.00070497754 -0.00039999999
0.0078056618 0.00070497754 -0.0244
0.0010007259 -0.0077547529 -0.0068000001
0.00080058072 0.0077547529 -0.0206
0.0032023229 0.0071504861 -0.0176
0.0076055164 0.0019135104 -0.021199999
-0.00580421 0.0047334204 -0.024599999
0.0028020325 0.0071504861 -0.015
0.0066047907 0.0039277319 -0.0082
0.00080058072 0.0077547529 -0.003
0.0034024678 -0.0069490643 -0.0027999999
-0.00020014518 -0.00010071108 -0.025
-0.003602613 0.0069490643 -0.0124
0.0050036293 0.0033234654 -0.024599999
-0.0078056618 0.00090639968 -0.0122
0.0060043554 0.0043305764 -0.024599999
0.0078056618 -0.00070497754 -0.0077999998
-0.0078056618 -0.00070497754 -0.0024000001
0.00060043554 -0.00070497754 -0.025
0.0078056618 -0.00030213324 -0.0035999999
0.0018013065 -0.0011078218 -0.00019999999
-0.0076055164 -0.0021149325 -0.0142
-0.0062045003 0.0049348427 -0.0041999999
-0.0034024678 0.0069490643 -0.020199999
0.00060043554 0.0077547529 -0.0242
0.0054039196 -0.005539109 -0.0031999999
-0.0078056618 0.001309244 -0.0188
-0.0026018873 0.0059419535 -0.024599999
-0.007205226 0.0029206211 -0.017000001
-0.0078056618 0.00010071108 -0.0024000001
-0.0044031939 -0.0021149325 -0.00019999999
0.0060043554 0.0047334204 -0.0012000001
0.0044031939 0.0063447976 -0.00060000003
0.0050036293 0.00070497754 -0.024800001
-0.0044031939 -0.0065462198 -0.016799999
-0.0066047907 0.001309244 -0.024599999
0.00080058072 0.0077547529 -0.0152
-0.0054039196 -0.0027191991 -0.024599999
-0.0068049356 0.0037263099 -0.0138
-0.0068049356 0.001309244 -0.024599999
0 0.0031220433 -0.025
0.0016011614 0.0075533306 -0.020400001
-0.0012008711 0.00090639968 -0.025
0.0074053714 -0.0011078218 -0.0018
0.0016011614 0.0045319982 -0.024800001
-0.0076055164 0.0019135104 -0.0052
0.0076055164 -0.0011078218 -0.021400001
0.0040029036 0.0067476421 -0.0071999999
-0.00020014518 -0.0079561751 -0.014
0.0048034843 0.0061433758 -0.023600001
0.0010007259 0.0077547529 -0.0142
-0.005604065 -0.005539109 -0.0106
0.0030021777 0.0071504861 -0.0106
-0.00580421 -0.005136265 -0.020400001
-0.0078056618 -0.00070497754 -0.0142
-0.00020014518 0.0079561751 -0.0164
-0.0060043554 -0.0049348427 -0.022399999
0.007205226 -0.0027191991 -0.0048000002
0.0020014518 0.0075533306 -0.012
0.00040029036 0.00030213324 -0.025
0.0046033389 -0.0059419535 -0.0016
-0.0074053714 0.0023163548 -0.0082
0.0078056618 0.00010071108 -0.021199999
-0.0078056618 0.00070497754 -0.022600001
0.0050036293 0.0059419535 -0.0128
-0.0038027582 -0.0067476421 -0.0071999999
0.0062045003 -0.0049348427 -0.016000001
-0.0068049356 -0.0037263099 -0.023800001
0.00080058072 0.0039277319 -0.00019999999
0.0048034843 -0.0025177768 -0.024800001
0.0078056618 -0.00050355535 -0.017200001
-0.007205226 0.0031220433 -0.0099999998
0.0040029036 -0.0027191991 -0.00019999999
-0.007005081 -0.0029206211 -0.0020000001
0.0032023229 0.0069490643 -0.0244
0.0078056618 0.00010071108 -0.0092000002
-0.00580421 -0.005136265 -0.014
0.0048034843 -0.0061433758 -0.0152
0.0014010163 -0.0077547529 -0.024
0.0064046457 -0.0039277319 -0.024599999
0.0066047907 0.0039277319 -0.0055999998
0.00020014518 0.0079561751 -0.0040000002
-0.0068049356 0.0037263099 -0.0218
-0.0046033389 -0.0063447976 -0.0136
-0.0064046457 0.0045319982 -0.0166
0.0012008711 -0.0077547529 -0.0099999998
-0.00020014518 0.0059419535 -0.00039999999
-0.0078056618 -0.0015106661 -0.0142
0.007205226 0.0031220433 -0.0026
-0.0054039196 0.0057405313 -0.0106
-0.0026018873 -0.0073519084 -0.016000001
0.0062045003 0.0047334204 -0.0089999996
0.003602613 -0.0069490643 -0.0082
0.0066047907 -0.0043305764 -0.0031999999
0.0026018873 0.0073519084 -0.021199999
-0.0016011614 0.0049348427 -0.00019999999
0.0050036293 -0.0059419535 -0.0062000002
-0.0034024678 0.0069490643 -0.0138
0 0.0077547529 -0.00039999999
-0.002201597 -0.0031220433 -0.024800001
0.00020014518 0.0041291541 -0.00019999999
-0.0078056618 -0.00070497754 -0.0112
-0.0066047907 0.0039277319 -0.016799999
0.0068049356 -0.0037263099 -0.0046000001
0.0078056618 0.00070497754 -0.0118
-0.0064046457 -0.0045319982 -0.0218
-0.0028020325 -0.0071504861 -0.022
0.0052037747 0.0057405313 -0.0038000001
0.0060043554 0.00030213324 -0.00039999999
0.0024017422 0.0053376867 -0.024800001
0.0076055164 -0.0017120882 -0.022
0.0074053714 0.0025177768 -0.0024000001
-0.0018013065 0.0075533306 -0.0186
0.00080058072 0.0077547529 -0.0166
-0.00580421 -0.005136265 -0.0186
0.0014010163 0.00030213324 -0.00019999999
-0.0018013065 -0.0075533306 -0.00060000003
0.007005081 0.0033234654 -0.0108
-0.0066047907 0.0039277319 -0.001
-0.0016011614 -0.0075533306 -0.0082
-0.0020014518 0.0075533306 -0.0196
0.00020014518 -0.0079561751 -0.0132
0.00080058072 0.0077547529 -0.0054000001
0.007005081 -0.0035248876 -0.0055999998
0.0044031939 -0.0063447976 -0.021199999
0.0010007259 0.0077547529 -0.0026
-0.007005081 -0.0033234654 -0.0040000002
-0.003602613 0.0069490643 -0.020199999
-0.0040029036 -0.0021149325 -0.024800001
-0.0046033389 0.0061433758 -0.00039999999
0.0040029036 -0.0067476421 -0.0024000001
0.0032023229 -0.0071504861 -0.0102
0.00040029036 0.0019135104 -0.00019999999
0.002201597 0.0075533306 -0.023600001
0.007005081 -0.0033234654 -0.0112
-0.007205226 0.0031220433 -0.0052
-0.0012008711 -0.0077547529 -0.0083999997
-0.0078056618 -0.0011078218 -0.022399999
-0.0078056618 -0.0011078218 -0.0044
-0.0074053714 -0.00010071108 -0.00039999999
0.0060043554 0.0049348427 -0.0068000001
-0.007005081 0.0033234654 -0.0074
0.0014010163 0.0021149325 -0.00019999999
0.0064046457 0.0045319982 -0.023800001
-0.003602613 -0.0069490643 -0.023
-0.0068049356 0.0037263099 -0.0027999999
-0.00040029036 0.0049348427 -0.024800001
-0.0066047907 -0.0039277319 -0.0060000001
-0.007005081 -0.00050355535 -0.00039999999
0.0078056618 0.0015106661 -0.0066
-0.00080058072 0.0077547529 -0.017000001
0.0074053714 -0.0025177768 -0.023800001
-0.0050036293 0.0037263099 -0.024599999
0.0044031939 -0.0063447976 -0.0142
0.0078056618 0.00050355535 -0.0112
-0.005604065 -0.0017120882 -0.00039999999
-0.0016011614 0.0019135104 -0.025
-0.0078056618 -0.0011078218 -0.0038000001
-0.0066047907 -0.0039277319 -0.023
0.00080058072 -0.00090639968 -0.00019999999
-0.0038027582 -0.0067476421 -0.015
-0.00080058072 0.0077547529 -0.0068000001
-0.005604065 0.005539109 -0.0136
0.0054039196 0.0027191991 -0.00039999999
0.0078056618 0.00070497754 -0.0136
-0.00040029036 -0.0023163548 -0.00019999999
0.0076055164 -0.0017120882 -0.003
-0.0078056618 0.00050355535 -0.0128
-0.0078056618 -0.0011078218 -0.0128
0.00580421 -0.0053376867 -0.023399999
0.0014010163 0.0077547529 -0.020400001
0.0054039196 -0.005539109 -0.00079999998
-0.0078056618 0.001309244 -0.023600001
0.007005081 -0.0035248876 -0.0044
-0.00060043554 -0.0045319982 -0.024800001
-0.0078056618 0.00070497754 -0.00060000003
-0.0018013065 -0.0075533306 -0.0164
0.007205226 0.0031220433 -0.0152
0.0014010163 0.0075533306 -0.0174
0.0014010163 -0.0053376867 -0.00019999999
0.0066047907 -0.0043305764 -0.0206
0.0024017422 -0.0075533306 -0.0052
0.0074053714 -0.0029206211 -0.0186
-0.0076055164 0.0021149325 -0.0066
-0.007005081 0.0035248876 -0.0089999996
-0.0032023229 -0.0071504861 -0.0082
0.0078056618 0.00090639968 -0.0118
0.0050036293 0.0059419535 -0.0074
-0.0074053714 0.0021149325 -0.0146
-0.0032023229 -0.0057405313 -0.024599999
-0.0074053714 0.0025177768 -0.0128
-0.0012008711 -0.0077547529 -0.022600001
-0.0046033389 0.0063447976 -0.0222
0.0078056618 0.00010071108 -0.021600001
-0.0028020325 0.0033234654 -0.00019999999
-0.0040029036 0.0067476421 -0.021199999
0.0038027582 0.00030213324 0.00039999999
-0.00580421 0.0021149325 -0.024599999
0.0042030485 0.0065462198 -0.0142
0.005604065 -0.005539109 -0.0208
-0.0040029036 -0.0067476421 -0.0104
-0.0068049356 0.0033234654 -0.00039999999
0.0074053714 0.0027191991 -0.0054000001
0.0074053714 0.0025177768 -0.0126
-0.00060043554 0.0079561751 -0.023600001
-0.0032023229 -0.0071504861 -0.0196
0.0010007259 -0.001309244 -0.00019999999
0.0060043554 0.005136265 -0.0184
-0.0034024678 0.0069490643 -0.011
0.0048034843 -0.0053376867 -0.024599999
-0.0012008711 0.0077547529 -0.0166
0.0038027582 -0.0069490643 -0.0198
-0.0078056618 0.00030213324 -0.0118
0.002201597 -0.0075533306 -0.0228
-0.0064046457 0.0045319982 -0.0076000001
0.0066047907 -0.0041291541 -0.0054000001
-0.00040029036 -0.0077547529 -0.0074
-0.00040029036 0.0023163548 -0.00019999999
0.0018013065 0.0053376867 -0.024800001
0.0034024678 -0.0049348427 -0.00039999999
0.0066047907 -0.0043305764 -0.0052
0.0074053714 -0.0021149325 -0.022399999
0.0076055164 -0.0019135104 -0.0063999998
0.0078056618 -0.00090639968 -0.0096000005
0.00020014518 0.0015106661 -0.025
-0.0052037747 0.0059419535 -0.0092000002
0.0076055164 0.00070497754 -0.0244
-0.0038027582 -0.00030213324 0
-0.00080058072 -0.0077547529 -0.0066
0.0078056618 0.00050355535 -0.017999999
0.0034024678 -0.0069490643 -0.0112
0.0050036293 -0.0033234654 -0.00039999999
0.007205226 -0.0031220433 -0.016799999
0.00060043554 -0.0023163548 -0.00019999999
-0.0042030485 -0.0067476421 -0.0038000001
-0.0062045003 -0.0047334204 -0.019400001
-0.00020014518 -0.0073519084 -0.00039999999
0.005604065 0.0011078218 -0.024800001
0.007205226 0.0031220433 -0.0080000004
-0.0068049356 -0.0037263099 -0.0088
0.005604065 0.0037263099 -0.00039999999
0.0064046457 0.0045319982 -0.0108
-0.0062045003 -0.0047334204 -0.0062000002
-0.0040029036 -0.0063447976 -0.00039999999
0.0034024678 -0.0069490643 -0.022
0.00020014518 -0.0079561751 -0.0034
-0.0066047907 0.0039277319 -0.0196
-0.0034024678 0.0069490643 -0.022600001
-0.0078056618 -0.00090639968 -0.0055999998
0.007005081 0.0033234654 -0.015
0.00040029036 -0.0079561751 -0.0048000002
-0.0078056618 0.0011078218 -0.0232
-0.0046033389 0.0063447976 -0.0146
-0.0054039196 -0.0057405313 -0.023600001
-0.0042030485 0.00070497754 -0.024800001
-0.005604065 -0.0053376867 -0.0040000002
-0.0034024678 0.0069490643 -0.0112
0.0074053714 0.0027191991 -0.0031999999
-0.0018013065 -0.0065462198 -0.00039999999
-0.0078056618 0.00090639968 -0.0080000004
0.0064046457 -0.0039277319 -0.00039999999
0.0078056618 -0.00010071108 -0.0083999997
0.0046033389 0.0031220433 -0.024800001
0.0016011614 -0.0021149325 -0.025
0.0018013065 -0.0077547529 -0.0222
0.0030021777 -0.0027191991 -0.00019999999
-0.005604065 0.005539109 -0.024
-0.0062045003 -0.0043305764 -0.0018
0.0038027582 -0.0063447976 -0.024599999
0.0020014518 0.00070497754 -0.00019999999
-0.0064046457 -0.0043305764 -0.011
-0.0052037747 -0.0059419535 -0.0088
-0.0038027582 0.00030213324 0.001
0.0078056618 0.001309244 -0.021400001
0.0076055164 0.0019135104 -0.0034
-0.00060043554 0.0027191991 -0.025
0.0074053714 0.0021149325 -0.0156
0.0032023229 -0.0069490643 -0.0012000001
-0.0064046457 -0.0045319982 -0.0106
-0.0048034843 0.0025177768 -0.024800001
-0.0042030485 0.0067476421 -0.022
-0.002201597 0.0023163548 -0.00019999999
0.0078056618 0.0011078218 -0.0198
0.0038027582 -0.0069490643 -0.0066
0 0.0027191991 -0.025
0.00080058072 -0.0063447976 -0.00039999999
0.0018013065 -0.0077547529 -0.0092000002
0.0028020325 0.0069490643 -0.0018
0.0062045003 0.0021149325 -0.024599999
-0.0060043554 -0.0049348427 -0.0066
-0.0052037747 0.0059419535 -0.0146
-0.00040029036 0.0045319982 -0.024800001
0.002201597 -0.0075533306 -0.016000001
0.0028020325 -0.00090639968 -0.00019999999
0.0026018873 0.0043305764 -0.024800001
0.0018013065 -0.0063447976 -0.00039999999
-0.0040029036 0.0067476421 -0.023800001
0.00060043554 0.00050355535 -0.025
-0.003602613 0.0069490643 -0.0138
0.0078056618 0.00050355535 -0.0116
-0.0078056618 0.00010071108 -0.017000001
0.0028020325 -0.0073519084 -0.0046000001
-0.0010007259 0.0077547529 -0.0044
0.0030021777 0.0071504861 -0.0176
0.0014010163 0.0075533306 -0.001
-0.0068049356 -0.0037263099 -0.0044
-0.0048034843 -0.0061433758 -0.0128
-0.0062045003 -0.0047334204 -0.0080000004
0.00020014518 0.0069490643 -0.00039999999
0.0064046457 -0.0019135104 -0.00039999999
0.0066047907 0.0041291541 -0.0086000003
0.0074053714 0.0025177768 -0.019200001
0.007005081 -0.0033234654 -0.013
-0.0076055164 -0.0019135104 -0.0118
-0.0074053714 0.0023163548 -0.022
-0.0078056618 -0.0011078218 -0.0071999999
0.0052037747 -0.0025177768 -0.00039999999
0.0068049356 0.0037263099 -0.0024000001
0 -0.0079561751 -0.021199999
0.0020014518 -0.0075533306 -0.001
0.0016011614 -0.0077547529 -0.016000001
-0.007205226 -0.00090639968 -0.024599999
-0.0078056618 0.00030213324 -0.0022
-0.0026018873 -0.0073519084 -0.0222
-0.0068049356 0.0037263099 -0.0126
-0.0078056618 0.00070497754 -0.00079999998
-0.0032023229 0.0071504861 -0.0040000002
-0.0016011614 -0.0069490643 -0.00039999999
0.005604065 0.0053376867 -0.023600001
0.00040029036 0.0077547529 -0.0049999999
-0.0064046457 0.0043305764 -0.016000001
0.0028020325 0.0015106661 -0.025
-0.0034024678 0.0035248876 -0.00019999999
-0.0024017422 0.00070497754 -0.025
0.0044031939 0.0063447976 -0.0118
-0.0040029036 0.0067476421 -0.0178
0.0038027582 0.0067476421 -0.0244
-0.0024017422 0.0073519084 -0.0020000001
0.0074053714 -0.0025177768 -0.0106
0.007005081 -0.0035248876 -0.0206
-0.00580421 0.0039277319 -0.00039999999
0.0024017422 0.0073519084 -0.0086000003
-0.0042030485 -0.0067476421 -0.021600001
0 -0.0079561751 -0.0082
-0.0066047907 0.0039277319 -0.019400001
0.003602613 -0.0069490643 -0.0104
0.0016011614 -0.0077547529 -0.0066
-0.0076055164 -0.0021149325 -0.0184
0.0078056618 0.00010071108 -0.018200001
-0.00580421 -0.005136265 -0.017200001
0.0026018873 0.0073519084 -0.0116
0.0028020325 0.0071504861 -0.024
-0.0034024678 -0.0069490643 -0.022
-0.007205226 0.0027191991 -0.0083999997
-0.0026018873 -0.0071504861 -0.0020000001
0.0044031939 -0.0063447976 -0.0055999998
-0.00060043554 0.001309244 -0.025
0.0076055164 -0.0019135104 -0.0162
0.0060043554 -0.005136265 -0.0108
-0.0076055164 -0.0021149325 -0.0104
0.0066047907 -0.0043305764 -0.021400001
0.0032023229 0.0033234654 -0.00019999999
-0.0032023229 -0.0053376867 -0.00039999999
0.0042030485 -0.0063447976 -0.0012000001
-0.003602613 -0.0069490643 -0.0022
0.0012008711 -0.0077547529 -0.0027999999
-0.0020014518 0.005539109 -0.00039999999
-0.0066047907 0.0041291541 -0.017999999
-0.0034024678 -0.0057405313 -0.024599999
0.0026018873 -0.005136265 -0.00039999999
-0.0066047907 0.0041291541 -0.019400001
-0.0076055164 0.0017120882 -0.0020000001
0.0042030485 -0.0065462198 -0.014
-0.0014010163 -0.0075533306 -0.0022
0.0076055164 0.0021149325 -0.0162
0.0012008711 -0.0045319982 -0.00019999999
0.0028020325 0.0071504861 -0.0074
-0.0076055164 0.0017120882 -0.0031999999
-0.003602613 0.0069490643 -0.0144
-0.0048034843 0.0061433758 -0.0074
0.0018013065 -0.0043305764 -0.024800001
-0.0060043554 0.005136265 -0.0099999998
0 -0.0079561751 -0.0099999998
-0.00580421 -0.005136265 -0.016000001
-0.0020014518 -0.0075533306 -0.0024000001
-0.0054039196 0.0057405313 -0.0048000002
-0.003602613 0.0069490643 -0.0146
-0.0034024678 0.00070497754 -0.00019999999
0.002201597 0.00030213324 -0.025
-0.0024017422 0.0073519084 -0.0124
0.00020014518 -0.0079561751 -0.019200001
0.0038027582 -0.0069490643 -0.0144
0.0026018873 0.0061433758 -0.00039999999
0.0016011614 0.0075533306 -0.0136
-0.0074053714 -0.0023163548 -0.014
0.00080058072 -0.0077547529 -0.0077999998
-0.0048034843 -0.00090639968 -0.024800001
0.007005081 0.0035248876 -0.0082
0.0068049356 -0.0037263099 -0.019200001
-0.0030021777 -0.00070497754 -0.00019999999
-0.0078056618 -0.00050355535 -0.0198
0.0042030485 -0.0065462198 -0.0082
0.0064046457 -0.0047334204 -0.0076000001
-0.0040029036 -0.0067476421 -0.017000001
-0.0018013065 0.0015106661 -0.00019999999
0.007205226 0.00030213324 -0.00039999999
0.0076055164 0.0019135104 -0.023399999
0.0060043554 0.0049348427 -0.020400001
0.00040029036 0.0049348427 -0.024800001
0.0060043554 -0.005136265 -0.0060000001
0.0032023229 0.0071504861 -0.0096000005
-0.0078056618 -0.0011078218 -0.003
-0.005604065 -0.0021149325 -0.024800001
-0.0054039196 0.0045319982 -0.00039999999
0.0066047907 -0.0027191991 -0.00039999999
-0.0078056618 0.00030213324 -0.0026
-0.007205226 -0.0031220433 -0.0066
-0.0068049356 -0.0037263099 -0.0156
-0.0066047907 -0.0015106661 -0.024599999
0.0050036293 -0.0011078218 -0.00019999999
0.0046033389 0.0041291541 -0.00039999999
0.007005081 -0.0035248876 -0.0041999999
-0.00020014518 -0.0079561751 -0.0218
0.0074053714 0.0025177768 -0.018200001
0.0076055164 0.0023163548 -0.023
0.00040029036 -0.0079561751 -0.022
-0.0078056618 0.001309244 -0.0124
0.0038027582 -0.0069490643 -0.021199999
0.0040029036 0.00030213324 0.00039999999
0.00040029036 0.0077547529 -0.0031999999
-0.00580421 -0.005136265 -0.0138
0.0026018873 -0.0073519084 -0.0052
-0.00080058072 -0.0077547529 -0.022
-0.0042030485 0.0059419535 -0.024599999
-0.0074053714 0.0021149325 -0.001
-0.0062045003 -0.0047334204 -0.0128
-0.0018013065 0.0049348427 -0.024800001
-0.0014010163 0.0077547529 -0.0218
-0.0032023229 0.005136265 -0.024599999
0.0076055164 -0.0019135104 -0.00039999999
-0.0078056618 0.0011078218 -0.0052
-0.007205226 -0.0029206211 -0.0188
-0.00040029036 -0.005136265 -0.024800001
0.0064046457 0.0045319982 -0.017000001
0.0046033389 -0.0031220433 -0.024800001
-0.0050036293 0.0059419535 -0.023399999
0.0074053714 -0.0021149325 -0.0178
-0.0078056618 -0.00010071108 -0.020199999
0.0052037747 0.0059419535 -0.0134
0.0042030485 -0.0047334204 -0.024599999
-0.0074053714 -0.0027191991 -0.0026
-0.0024017422 -0.0073519084 -0.0116
0.0062045003 -0.0049348427 -0.0076000001
0.00020014518 -0.0079561751 -0.0186
-0.0074053714 -0.00010071108 -0.024599999
-0.0076055164 -0.0019135104 -0.015799999
-0.0044031939 -0.0065462198 -0.022600001
-0.0062045003 0.0049348427 -0.0164
0.003602613 -0.00090639968 -0.00019999999
0.0066047907 0.0041291541 -0.0024000001
0.007205226 -0.0031220433 -0.0082
0.007005081 -0.0035248876 -0.0048000002
0.005604065 -0.005539109 -0.0034
-0.007205226 -0.0031220433 -0.0136
-0.0032023229 0.0071504861 -0.0186
0.0076055164 0.0017120882 -0.0208
0.007005081 0.0035248876 -0.0166
-0.0020014518 -0.0075533306 -0.0242
0.0046033389 -0.0063447976 -0.0148
-0.0042030485 0.0067476421 -0.012
-0.0020014518 -0.0075533306 -0.019200001
-0.0034024678 0.0069490643 -0.0122
0.0064046457 -0.0047334204 -0.0164
0.007205226 -0.0029206211 -0.018999999
-0.0012008711 -0.0035248876 -0.025
0.003602613 -0.0037263099 -0.024800001
0.0032023229 -0.0045319982 -0.00019999999
0.00020014518 0.0079561751 -0.0142
0.0074053714 -0.0021149325 -0.0108
-0.0060043554 0.005136265 -0.0096000005
0.002201597 -0.0075533306 -0.0222
0.0024017422 -0.0039277319 -0.024800001
0.0078056618 -0.00010071108 -0.021
-0.0078056618 0.00010071108 -0.0034
-0.0078056618 -0.00010071108 -0.0034
-0.0078056618 0.00030213324 -0.0198
-0.0012008711 -0.0077547529 -0.0112
-0.0018013065 0.0075533306 -0.0060000001
0.0018013065 0.0075533306 -0.0112
0.00040029036 0.0077547529 -0.0188
0.0014010163 0.0077547529 -0.0232
-0.0032023229 -0.0071504861 -0.024
0 0.0017120882 -0.025
0.0052037747 0.0059419535 -0.022600001
-0.0034024678 0.0069490643 -0.00039999999
0.0050036293 0.0059419535 -0.0034
-0.0064046457 -0.0045319982 -0.0186
-0.007205226 0.0027191991 -0.0020000001
-0.0052037747 -0.0059419535 -0.023600001
-0.00060043554 0.0079561751 -0.0068000001
0.0028020325 -0.0073519084 -0.0128
0.0020014518 0.0075533306 -0.0022
-0.0078056618 -0.00070497754 -0.0144
-0.0066047907 0.0041291541 -0.0118
-0.0066047907 0.0039277319 -0.0124
-0.003602613 -0.0053376867 -0.00039999999
0.0032023229 0.0071504861 -0.0218
-0.00080058072 0.0061433758 -0.00039999999
-0.0048034843 -0.0045319982 -0.00039999999
0.0014010163 -0.0077547529 -0.0055999998
0.00020014518 -0.005539109 -0.024800001
0.0040029036 0.0067476421 -0.0041999999
0.00060043554 0.0077547529 -0.00039999999
-0.0014010163 -0.0047334204 -0.00019999999
0.0078056618 0.0011078218 -0.017000001
0.007205226 -0.0027191991 -0.0144
-0.005604065 0.005539109 -0.0099999998
0.0038027582 -0.0067476421 -0.021600001
-0.005604065 0.005539109 -0.0106
-0.0078056618 -0.00050355535 -0.0164
0.0050036293 -0.0059419535 -0.0077999998
-0.0046033389 -0.0063447976 -0.0052
0.0028020325 0.0071504861 -0.0164
-0.0060043554 -0.0027191991 -0.00039999999
-0.0074053714 0.0021149325 -0.0174
0.0026018873 -0.0073519084 -0.0062000002
-0.0078056618 0.00070497754 -0.0174
0.0068049356 -0.0039277319 -0.017000001
0.007205226 0.0031220433 -0.021600001
-0.0050036293 -0.0061433758 -0.0092000002
-0.0040029036 -0.0067476421 -0.0162
0.0064046457 -0.0047334204 -0.0206
0.0066047907 -0.0043305764 -0.0146
-0.0046033389 -0.0063447976 -0.019400001
0.0074053714 -0.0025177768 -0.0035999999
0.0078056618 0.001309244 -0.0124
0.0066047907 -0.0041291541 -0.023
-0.002201597 -0.0031220433 -0.00019999999
0.00040029036 0.0025177768 -0.00019999999
0.0020014518 -0.0075533306 -0.0089999996
0.0068049356 -0.0037263099 -0.0054000001
-0.0044031939 0.0065462198 -0.0148
0.0078056618 -0.0015106661 -0.00079999998
-0.0018013065 -0.0075533306 -0.0106
-0.0038027582 0.0067476421 -0.012
-0.00020014518 -0.0079561751 -0.0104
0.0032023229 -0.0067476421 -0.0016
-0.0040029036 0.0067476421 -0.0112
0.0076055164 -0.001309244 -0.0198
-0.0062045003 0.0047334204 -0.022399999
-0.0016011614 0.0029206211 -0.00019999999
-0.00580421 -0.00070497754 -0.00039999999
-0.00020014518 0.0067476421 -0.024599999
-0.0076055164 -0.0019135104 -0.013
0.00080058072 -0.0073519084 -0.024599999
0.0018013065 -0.0077547529 -0.0146
0.0024017422 0.0073519084 -0.0106
-0.0062045003 0.0049348427 -0.0022
-0.0014010163 0.0063447976 -0.024599999
0.0044031939 -0.005136265 -0.024599999
-0.00020014518 0.0079561751 -0.0096000005
0.0032023229 0.0071504861 -0.0122
0.0078056618 0.0011078218 -0.0093999999
-0.005604065 -0.005539109 -0.0164
0.0074053714 -0.0025177768 -0.0136
0.00060043554 0.0033234654 -0.00019999999
0.007205226 -0.0029206211 -0.0034
0.0014010163 0.0077547529 -0.011
0.0014010163 -0.0077547529 -0.013
-0.0028020325 0.00050355535 -0.025
-0.00060043554 0.0079561751 -0.0124
-0.0064046457 -0.0045319982 -0.0096000005
0.0010007259 -0.0077547529 -0.023399999
0.0066047907 0.0039277319 -0.0027999999
-0.0078056618 -0.00090639968 -0.0052
-0.0076055164 -0.00070497754 -0.00039999999
0.0050036293 0.0059419535 -0.0164
0.00080058072 0.0077547529 -0.016000001
-0.0010007259 0.0077547529 -0.0232
0.00080058072 0.0077547529 -0.0082
-0.0078056618 -0.00030213324 -0.019200001
-0.0078056618 0.00070497754 -0.0154
0.00580421 0.005136265 -0.0055999998
-0.0032023229 -0.0071504861 -0.0118
-0.007205226 0.0031220433 -0.0044
-0.0074053714 -0.00050355535 -0.00039999999
-0.0078056618 -0.0011078218 -0.0086000003
0.0066047907 -0.001309244 -0.00039999999
-0.0020014518 0.0075533306 -0.0156
-0.0028020325 0.0071504861 -0.0066
0.002201597 0.0075533306 -0.0178
-0.0034024678 -0.0069490643 -0.0106
-0.00060043554 -0.0077547529 -0.0152
-0.00020014518 0.0079561751 -0.0126
0.00060043554 -0.0079561751 -0.02
-0.0024017422 -0.0073519084 -0.020199999
-0.0034024678 -0.0053376867 -0.00039999999
-0.002201597 0.0075533306 -0.020400001
0.0076055164 -0.0019135104 -0.017000001
0.0042030485 -0.0065462198 -0.019400001
0.0062045003 -0.0049348427 -0.0089999996
-0.0060043554 0.005136265 -0.023800001
0.003602613 0.00030213324 0.0026
-0.0076055164 -0.0019135104 -0.020199999
-0.007205226 -0.0031220433 -0.0152
0.0076055164 -0.0017120882 -0.021600001
0.0052037747 -0.0057405313 -0.0038000001
-0.0030021777 -0.0071504861 -0.016799999
-0.0060043554 -0.0049348427 -0.014
-0.0016011614 0.0077547529 -0.0060000001
0.0078056618 -0.00050355535 -0.019400001
0.0014010163 -0.005539109 -0.00039999999
0.0028020325 -0.0035248876 -0.00019999999
-0.00020014518 0.0017120882 -0.00019999999
0.0078056618 -0.001309244 -0.0024000001
-0.00580421 0.0053376867 -0.0242
-0.0038027582 -0.0067476421 -0.0164
-0.003602613 0.0069490643 -0.0080000004
0.0052037747 0.0057405313 -0.0244
-0.0010007259 0.0077547529 -0.0166
0.0060043554 -0.005136265 -0.0242
0.005604065 0.0053376867 -0.0206
-0.005604065 -0.005539109 -0.017000001
-0.00020014518 0.0057405313 -0.024800001
-0.0054039196 0.0057405313 -0.0228
0.0074053714 -0.0023163548 -0.0114
0.0038027582 -0.0029206211 -0.00019999999
-0.0066047907 0.0037263099 -0.0012000001
-0.00060043554 -0.0077547529 -0.00060000003
0.0024017422 0.0065462198 -0.024599999
0.0066047907 -0.0043305764 -0.024
-0.007005081 0.0033234654 -0.013
0.0062045003 0.0047334204 -0.0076000001
0.0026018873 -0.0073519084 -0.0034
0.00040029036 0.0079561751 -0.023600001
0.0066047907 0.0039277319 -0.0024000001
-0.0074053714 -0.0025177768 -0.023
-0.0074053714 0.0023163548 -0.0146
0.0046033389 -0.0063447976 -0.013
0.0074053714 0.0021149325 -0.0148
-0.0078056618 -0.001309244 -0.0096000005
-0.007205226 0.0029206211 -0.0108
-0.0030021777 0.0067476421 -0.024599999
0.0050036293 -0.0059419535 -0.0096000005
0.007205226 -0.0031220433 -0.018999999
-0.005604065 0.00030213324 -0.024800001
0.00020014518 -0.00030213324 -0.025
-0.0012008711 0.0077547529 -0.0083999997
0.0074053714 -0.0021149325 -0.017000001
0.0028020325 0.0035248876 -0.00019999999
-0.0038027582 -0.005539109 -0.00039999999
-0.0034024678 -0.0069490643 -0.0054000001
-0.0044031939 0.0065462198 -0.0142
0.0074053714 -0.0021149325 -0.0156
-0.0040029036 -0.0067476421 -0.0116
-0.0064046457 0.0031220433 -0.024599999
0.0032023229 0.0071504861 -0.0054000001
-0.0040029036 0.00010071108 0.0020000001
-0.003602613 0.0069490643 -0.021199999
-0.003602613 0.0069490643 -0.0055999998
0.0020014518 -0.0053376867 -0.024800001
-0.0016011614 0.0063447976 -0.00039999999
-0.0028020325 0.0025177768 -0.00019999999
0.0078056618 0.00010071108 -0.0089999996
0.0078056618 0.00070497754 -0.023399999
0.0012008711 0.0077547529 -0.012
0.0044031939 0.0063447976 -0.0106
-0.0064046457 -0.0039277319 -0.00039999999
-0.0042030485 -0.0063447976 -0.0012000001
0.0078056618 0.001309244 -0.016000001
0.0044031939 -0.0063447976 -0.0128
0.0048034843 -0.0061433758 -0.013
-0.0038027582 -0.0067476421 -0.0076000001
-0.00040029036 0.0079561751 -0.0086000003
-0.0028020325 0.0027191991 -0.024800001
-0.002201597 -0.0075533306 -0.0077999998
-0.0040029036 -0.00010071108 0.0016
0.0078056618 0.0015106661 -0.0114
0.00060043554 0.0077547529 -0.0088
-0.0032023229 0.0035248876 -0.024800001
0.0076055164 -0.0017120882 -0.0118
-0.00080058072 -0.0077547529 -0.021400001
0.0068049356 -0.0039277319 -0.0152
-0.0046033389 0.0021149325 -0.00019999999
0.00080058072 -0.0015106661 -0.00019999999
0.0040029036 0.0067476421 -0.0178
0.0062045003 0.0047334204 -0.015799999
-0.0018013065 -0.005136265 -0.00019999999
0.00060043554 -0.0079561751 -0.020199999
0.0028020325 -0.0045319982 -0.024800001
0.007205226 -0.0029206211 -0.017000001
-0.0020014518 0.0075533306 -0.0077999998
0.0052037747 0.0057405313 -0.0196
0.0066047907 -0.0041291541 -0.0055999998
-0.0076055164 -0.0023163548 -0.0208
0.007205226 0.0029206211 -0.0122
0.0034024678 0.00010071108 0.00019999999
-0.007005081 0.0033234654 -0.0080000004
-0.0026018873 -0.00070497754 -0.00019999999
-0.0076055164 -0.0017120882 -0.0244
0.003602613 -0.0069490643 -0.021400001
0.002201597 0.0075533306 -0.0093999999
-0.007005081 -0.0035248876 -0.0082
-0.0078056618 -0.00050355535 -0.0116
0.0030021777 -0.0071504861 -0.0148
-0.003602613 0.0031220433 -0.00019999999
-0.0038027582 0.0067476421 -0.0082
-0.0062045003 -0.0047334204 -0.018999999
-0.0050036293 -0.0059419535 -0.011
0.0054039196 -0.005539109 -0.024
0.0074053714 0.0017120882 -0.024599999
0.00020014518 -0.0079561751 -0.023800001
0.0030021777 -0.0071504861 -0.0071999999
0.0020014518 -0.0033234654 -0.00019999999
-0.0018013065 0.0075533306 -0.0038000001
0.0064046457 -0.0045319982 -0.0228
-0.0078056618 0.00050355535 -0.0244
-0.0060043554 -0.0049348427 -0.0152
-0.0016011614 -0.0075533306 -0.0126
0.0060043554 0.0049348427 -0.0082
-0.00080058072 -0.0077547529 -0.022600001
0.007205226 0.0025177768 -0.0020000001
0.0032023229 0.001309244 -0.00019999999
0.0042030485 0.0065462198 -0.0206
0.0044031939 0.0027191991 -0.024800001
-0.007205226 0.0031220433 -0.0027999999
-0.0078056618 0.001309244 -0.003
-0.0064046457 -0.0045319982 -0.0034
-0.0020014518 -0.0075533306 -0.0112
-0.0078056618 0.00050355535 -0.0166
-0.00060043554 -0.0075533306 -0.00039999999
0.0018013065 0.0075533306 -0.016000001
0.007205226 -0.0027191991 -0.0066
0.00040029036 0.0079561751 -0.0146
0.0078056618 0.00030213324 -0.0242
-0.0052037747 -0.0059419535 -0.0188
0.007205226 0.0029206211 -0.0068000001
-0.00060043554 -0.0077547529 -0.0049999999
0.0014010163 0.0075533306 -0.0136
0.0054039196 0.005539109 -0.014
-0.0046033389 -0.00030213324 -0.00019999999
0.0060043554 -0.005136265 -0.021199999
0.0010007259 0.0077547529 -0.0186
-0.0040029036 0.0065462198 -0.024599999
0.0014010163 -0.0077547529 -0.0244
0.0076055164 -0.001309244 -0.0060000001
-0.0038027582 0.0067476421 -0.021400001
-0.0034024678 -0.0019135104 -0.024800001
-0.0016011614 -0.005539109 -0.00039999999
-0.0012008711 0.0073519084 -0.0014
0.007005081 0.0033234654 -0.0083999997
0.005604065 -0.005539109 -0.0054000001
0.003602613 0.001309244 -0.024800001
-0.005604065 -0.0053376867 -0.0080000004
-0.0024017422 -0.0073519084 -0.0057999999
-0.0014010163 -0.0075533306 -0.0102
0.0074053714 -0.0025177768 -0.0228
-0.002201597 -0.0075533306 -0.016799999
0.0066047907 0.0039277319 -0.016799999
-0.0018013065 -0.0075533306 -0.0060000001
0.0068049356 -0.0039277319 -0.0052
0.0064046457 -0.0043305764 -0.0092000002
-0.0062045003 -0.0047334204 -0.0148
0.0052037747 0.0059419535 -0.0070000002
0.0010007259 -0.0077547529 -0.016799999
-0.0044031939 -0.0023163548 -0.00019999999
0.0050036293 -0.0059419535 -0.0152
-0.002201597 0.0071504861 -0.0014
0.0018013065 0.0073519084 -0.00039999999
-0.0040029036 0.0067476421 -0.016000001
0.005604065 0.0053376867 -0.0074
-0.0018013065 0.0041291541 -0.024800001
-0.007005081 0.0033234654 -0.0108
0.0050036293 -0.0059419535 -0.001
-0.007205226 -0.0029206211 -0.0154
-0.0062045003 -0.0021149325 -0.024599999
-0.0064046457 0.0045319982 -0.0057999999
-0.0074053714 0.00090639968 -0.0016
-0.0028020325 -0.0017120882 -0.025
-0.0078056618 0.0015106661 -0.0099999998
-0.007205226 0.0027191991 -0.0046000001
-0.00060043554 0.0063447976 -0.024599999
0.0078056618 0.00070497754 -0.00060000003
-0.0020014518 0.0063447976 -0.024599999
0.0046033389 -0.0063447976 -0.0138
-0.0052037747 -0.0057405313 -0.00039999999
-0.00580421 0.0053376867 -0.0108
-0.0068049356 -0.0011078218 -0.024599999
0.0014010163 0.0077547529 -0.0024000001
-0.0026018873 0.00090639968 -0.025
0.0052037747 0.005539109 -0.024599999
0.00580421 -0.0053376867 -0.0118
0.0050036293 0.0059419535 -0.0049999999
0.0076055164 -0.0017120882 -0.0196
-0.0076055164 0.0017120882 -0.0082
-0.00080058072 0.0059419535 -0.00039999999
0.0044031939 -0.0063447976 -0.0092000002
