# .PCD v0.7 - Point Cloud Data file format
VERSION 0.7
FIELDS x y z
SIZE 4 4 4
TYPE F F F
COUNT 1 1 1
WIDTH 1193
HEIGHT 1
VIEWPOINT 0 0 0 1 0 0 0
POINTS 1193
DATA ascii
-0.0029993656 0.00086726411 -0.0064799846
-0.0017496299 0.010778855 -0.0082262978
-0.00074984139 0.0078053772 -0.0072284043
0.0022495242 -0.00061947439 -0.0064799846
-0.0022495242 0.0068142181 -0.0029873587
0.00024994713 -0.016725808 -0.0037357786
0.001999577 -0.0055752695 -0.0064799846
0.0014996828 -0.016478019 -0.0072284043
0.0027494184 0.022424972 -0.00099157251
-0.00049989426 0.0241595 -0.0059810379
-0.0014996828 0.024655079 -0.0052326182
0.0047489954 -0.0241595 -0.0057315649
-0.0014996828 -0.0087965364 -0.0024884122
0.0012497356 -0.02564624 -0.0049831448
-0.0037492069 -0.021681603 -0.0074778777
0.0037492069 -0.017716967 -0.006729458
0.0047489954 -0.021186024 -0.0059810379
-0.00074984139 0.018708127 -0.0069789314
-0.0049989424 0.016230229 -0.0049831448
0.0049989424 -0.012265593 -0.0049831448
0.004249101 -0.0035929515 -0.0037357786
-0.0047489954 0.016973598 -0.0037357786
0.004249101 -0.019699285 -0.0062305112
-0.0027494184 -0.019451495 -0.0079768244
0.0044990485 -0.015734648 -0.0062305112
-0.0027494184 -0.024902871 -0.0032368319
-0.0027494184 0.0241595 -0.0037357786
-0.0029993656 0.019203706 -0.0027378853
-0.0032493128 -0.015734648 -0.0024884122
-0.0037492069 -0.017469177 -0.0027378853
-0.0037492069 -0.00037168464 -0.0034863052
0.0029993656 -0.014247911 -0.0024884122
-0.0017496299 -0.021433813 -0.0027378853
-0.0012497356 -0.0078053772 -0.0079768244
-0.004249101 0.01499128 -0.0032368319
0.0027494184 -0.023663921 -0.0074778777
-0.0037492069 0.018212548 -0.0022389388
-0.0047489954 0.020194864 -0.0062305112
-0.0027494184 -0.013504541 -0.0024884122
-0.00024994713 -0.022177182 -0.006729458
0.0024994712 0.011026644 -0.0024884122
0.0014996828 -0.009539905 -0.0079768244
-0.0049989424 -0.0080531668 -0.0052326182
-0.0027494184 0.0013628437 -0.0059810379
-0.0044990485 -0.022424972 -0.0029873587
-0.00099978852 0.02539845 -0.0042347251
0.0049989424 0.01474349 -0.0062305112
-0.0037492069 -0.015239069 -0.0032368319
0.0027494184 -0.0055752695 -0.0027378853
-0.0027494184 -0.00086726411 -0.0059810379
0.0034992597 -0.0055752695 -0.0062305112
-0.004249101 -0.02440729 -0.0074778777
-0.0027494184 -0.02564624 -0.0052326182
0.0049989424 -0.0083009563 -0.0052326182
0.0012497356 -0.017964756 -0.0037357786
0.0032493128 0.011274434 -0.001490519
-0.0047489954 -0.011026644 -0.0064799846
-0.00099978852 0.012017803 -0.006729458
-0.0047489954 -0.020690445 -0.0064799846
0.0024994712 0.011522223 -0.007727351
-0.0017496299 -0.00012389488 -0.006729458
0.0017496299 -0.0075575872 -0.0074778777
0.0044990485 0.011522223 -0.0032368319
0.001999577 -0.00012389488 -0.0027378853
0.0049989424 0.012761172 -0.0042347251
0 0.022672763 -0.0037357786
-0.0029993656 -0.0040885308 -0.0034863052
0.0029993656 -0.022920553 -0.0027378853
0.0029993656 0.023911711 -0.0069789314
-0.0027494184 0.014495701 -0.0079768244
0.0014996828 -0.019203706 -0.0072284043
0.0049989424 -0.0050796899 -0.0044841985
-0.001999577 0.020938234 -0.0027378853
-0.004249101 -0.023168342 -0.0027378853
0.0014996828 0.021681603 -0.0037357786
0.0049989424 -0.0018584231 -0.0049831448
-0.0047489954 -0.013504541 -0.0064799846
0.0027494184 0.020938234 -0.0074778777
0.0022495242 -0.012513382 -0.007727351
0.0014996828 0.0075575872 -0.0024884122
-0.0012497356 -0.017964756 -0.0069789314
-0.00024994713 -0.0038407412 -0.0024884122
-0.0027494184 -0.019699285 -0.0027378853
-0.0032493128 -0.01474349 -0.006729458
-0.0049989424 -0.0053274794 -0.0052326182
0.0039991541 -0.013008961 -0.0062305112
-0.00024994713 0.006070849 -0.0027378853
0 -0.0011150539 -0.0024884122
0.0047489954 -0.0092921155 -0.0034863052
-0.0022495242 -0.02539845 -0.0039852518
0.0032493128 -0.0073097977 -0.0064799846
0.0049989424 -0.016478019 -0.0054820916
0.0049989424 0.022672763 -0.0042347251
0.0027494184 0.012513382 -0.0024884122
0.0032493128 0.00086726411 -0.0037357786
0.0034992597 -0.0011150539 -0.0064799846
-0.0022495242 -0.00061947439 -0.0034863052
0.00074984139 -0.015734648 -0.0037357786
0.0027494184 0.020194864 -0.001490519
0.004249101 0.023911711 -0.0034863052
-0.0044990485 -0.016725808 -0.0034863052
-0.0032493128 -0.022920553 -0.007727351
0.00024994713 -0.0045841103 -0.0079768244
0.0034992597 -0.0040885308 -0.0064799846
0.0039991541 -0.024902871 -0.0024884122
0.0012497356 -0.0241595 -0.0062305112
-0.004249101 0.023416132 -0.0072284043
-0.0027494184 -0.022920553 -0.0072284043
0.001999577 -0.0080531668 -0.006729458
0.00099978852 -0.016973598 -0.0037357786
0.0017496299 -0.013008961 -0.0084757712
-0.0049989424 0.0016106333 -0.0049831448
0.0049989424 -0.0038407412 -0.0054820916
-0.0044990485 -0.024902871 -0.0052326182
-0.0012497356 -0.012265593 -0.0074778777
-0.0049989424 -0.0080531668 -0.0064799846
0.00099978852 -0.0048319004 -0.007727351
0.0034992597 0.0063186386 -0.0029873587
-0.0034992597 -0.011274434 -0.0034863052
-0.0049989424 0.0038407412 -0.0037357786
-0.0032493128 0.023911711 -0.0074778777
0.00074984139 -0.006070849 -0.0022389388
0.0047489954 -0.023663921 -0.0059810379
-0.0022495242 0.014495701 -0.0082262978
0.0047489954 0.0078053772 -0.0037357786
0.0049989424 0.006070849 -0.0057315649
0.0029993656 -0.019451495 -0.0082262978
0.0039991541 0.013504541 -0.0024884122
-0.004249101 0.0028495821 -0.0054820916
-0.0049989424 -0.018460337 -0.0054820916
0.0047489954 -0.024655079 -0.0037357786
0.0034992597 -0.016230229 -0.006729458
0.0049989424 -0.0026017923 -0.0037357786
0.0024994712 0.0048319004 -0.0027378853
0.0037492069 0.0090443259 -0.0027378853
0.004249101 -0.020938234 -0.0064799846
0.0027494184 0.017469177 -0.0024884122
-0.0022495242 -0.022177182 -0.0027378853
0.0034992597 0.00061947439 -0.0062305112
0.0017496299 0.019699285 -0.001490519
-0.0047489954 -0.0073097977 -0.0034863052
-0.0017496299 -0.0011150539 -0.006729458
0.00099978852 0.023168342 -0.001490519
0.0029993656 0.019947074 -0.0039852518
0.0012497356 -0.0016106333 -0.006729458
-0.00049989426 0.00061947439 -0.0022389388
-0.0027494184 -0.02564624 -0.0049831448
-0.0037492069 -0.013256752 -0.0034863052
0.0022495242 0.02539845 -0.00099157251
0.0049989424 0.00037168464 -0.0047336714
-0.00024994713 0.015734648 -0.006729458
0.0017496299 -0.016230229 -0.0027378853
-0.0049989424 0.0063186386 -0.0049831448
-0.0049989424 0.014495701 -0.0057315649
-0.0037492069 0.0073097977 -0.0034863052
-0.0044990485 0.021929393 -0.0072284043
-0.0014996828 0.02539845 -0.0049831448
0.0024994712 -0.017716967 -0.0084757712
0.0027494184 0.023663921 -0.0012410458
-0.0029993656 0.011770013 -0.0024884122
0.001999577 0.0087965364 -0.0072284043
0.0032493128 -0.0043363208 -0.0029873587
0.0012497356 -0.014247911 -0.0074778777
0.004249101 -0.02440729 -0.0024884122
0.0032493128 -0.013256752 -0.0024884122
-0.001999577 -0.02564624 -0.0044841985
-0.00099978852 0.00012389488 -0.0029873587
-0.0022495242 0.012761172 -0.0079768244
-0.0022495242 0.020442655 -0.0069789314
0.0047489954 -0.016973598 -0.0034863052
0.0017496299 -0.0083009563 -0.0074778777
0.00074984139 0.016973598 -0.0072284043
0.0044990485 0.013008961 -0.0062305112
0.00024994713 0.021929393 -0.006729458
-0.0049989424 -0.0018584231 -0.0039852518
-0.0049989424 -0.0065664286 -0.0044841985
-0.0014996828 -0.0038407412 -0.0032368319
0.0022495242 -0.01474349 -0.0022389388
0.0027494184 0.0097876955 -0.0064799846
0.0044990485 0.0045841103 -0.0037357786
-0.00074984139 -0.02564624 -0.0062305112
0.0027494184 -0.021929393 -0.0029873587
-0.0024994712 0.019203706 -0.0027378853
0.001999577 0.016725808 -0.0012410458
-0.0022495242 -0.01499128 -0.0024884122
-0.0024994712 0.00012389488 -0.006729458
-0.001999577 -0.012761172 -0.007727351
-0.0044990485 -0.024902871 -0.0049831448
-0.0034992597 -0.022920553 -0.0027378853
0.00099978852 0.0055752695 -0.0024884122
0.0044990485 0.022424972 -0.0069789314
0.0034992597 0.01499128 -0.0024884122
-0.0014996828 -0.014000121 -0.0074778777
-0.0024994712 0.020938234 -0.0069789314
-0.0047489954 -0.020690445 -0.0062305112
0.0049989424 -0.0043363208 -0.0049831448
0.004249101 -0.01548686 -0.0024884122
-0.0034992597 0.019947074 -0.0079768244
0.0029993656 -0.01499128 -0.0072284043
-0.004249101 -0.0050796899 -0.0054820916
-0.00074984139 0.021681603 -0.0037357786
0.0027494184 0.020442655 -0.0074778777
-0.00074984139 0.014495701 -0.0069789314
-0.0022495242 -0.0063186386 -0.0034863052
0.0034992597 0.013008961 -0.0064799846
0.0039991541 0.02440729 -0.0052326182
-0.00099978852 -0.02564624 -0.0064799846
-0.0037492069 0.01548686 -0.0027378853
-0.0047489954 -0.011770013 -0.0062305112
0.0049989424 0.021929393 -0.0044841985
-0.0024994712 0.02515066 -0.0039852518
0.0032493128 -0.014000121 -0.0024884122
-0.004249101 0.0055752695 -0.0032368319
0.0049989424 0.019699285 -0.0047336714
-0.0049989424 -0.0087965364 -0.0037357786
0.001999577 -0.016478019 -0.0027378853
-0.00049989426 0.0078053772 -0.0069789314
-0.0022495242 -0.016725808 -0.007727351
0.0022495242 0.0075575872 -0.0069789314
-0.0049989424 -0.0055752695 -0.0049831448
0.0047489954 -0.019947074 -0.0039852518
-0.0039991541 -0.015239069 -0.0032368319
-0.0049989424 0.0097876955 -0.0044841985
0.0037492069 0.006070849 -0.0062305112
-0.0034992597 -0.005823059 -0.0064799846
0.0014996828 -0.0053274794 -0.0069789314
-0.0022495242 -0.02564624 -0.0069789314
0.0037492069 0.010531064 -0.0062305112
-0.0044990485 0.022177182 -0.0024884122
0.0044990485 0.0013628437 -0.0059810379
-0.0029993656 0.017221387 -0.0082262978
-0.0044990485 -0.022424972 -0.0064799846
-0.0037492069 0.01499128 -0.006729458
0.00074984139 0.014495701 -0.0072284043
0.004249101 -0.0083009563 -0.0034863052
0.0049989424 -0.0083009563 -0.0034863052
-0.0039991541 -0.017221387 -0.0029873587
0.0049989424 0.0073097977 -0.0042347251
-0.0037492069 -0.0035929515 -0.0054820916
0.0039991541 -0.020194864 -0.006729458
-0.0034992597 -0.017716967 -0.0022389388
-0.004249101 0.011522223 -0.0032368319
0.0014996828 0.018212548 -0.001490519
0.0014996828 0.02539845 -0.0049831448
0.0034992597 0.010283275 -0.0062305112
0.00074984139 0.023911711 -0.0059810379
0.0044990485 -0.024902871 -0.0069789314
-0.0044990485 0.022672763 -0.0024884122
-0.0049989424 0.00012389488 -0.0042347251
-0.0014996828 -0.014247911 -0.0072284043
0.0032493128 -0.014247911 -0.0024884122
-0.0012497356 -0.022424972 -0.0034863052
0.0044990485 -0.011770013 -0.0027378853
-0.0037492069 0.0011150539 -0.0054820916
-0.00049989426 0.016230229 -0.0027378853
0.0047489954 -0.018708127 -0.0042347251
0.0037492069 0.00061947439 -0.0037357786
0.001999577 -0.0035929515 -0.0064799846
-0.0039991541 0.0016106333 -0.0054820916
-0.0014996828 -0.011026644 -0.0024884122
-0.0049989424 0.023663921 -0.0052326182
0.00024994713 -0.018708127 -0.0037357786
-0.0014996828 0.02539845 -0.0042347251
0.0044990485 -0.021929393 -0.0029873587
0.0022495242 -0.019699285 -0.0032368319
0.0049989424 0.0038407412 -0.0039852518
-0.00049989426 -0.014495701 -0.0069789314
0 0.00037168464 -0.0024884122
0.0049989424 -0.0070620077 -0.0047336714
-0.001999577 -0.021433813 -0.0027378853
0.0034992597 0.01548686 -0.006729458
-0.00049989426 0.0241595 -0.0037357786
0.00074984139 -0.016725808 -0.0072284043
0.0024994712 0.022920553 -0.00074209919
0.00099978852 0.0018584231 -0.0074778777
0.0014996828 0.016230229 -0.0037357786
0.0014996828 0.021681603 -0.0072284043
-0.0044990485 0.0070620077 -0.0032368319
0.0044990485 -0.017221387 -0.0032368319
0.0047489954 -0.012017803 -0.0062305112
0.004249101 -0.011522223 -0.0024884122
-0.0014996828 -0.0045841103 -0.0029873587
-0.0012497356 -0.012513382 -0.0027378853
-0.004249101 0.020442655 -0.006729458
0.00024994713 0.018212548 -0.0069789314
0.00074984139 0.01598244 -0.0072284043
0.0049989424 -0.0018584231 -0.0037357786
-0.0049989424 0.011026644 -0.0049831448
-0.0037492069 -0.017964756 -0.0032368319
0.0027494184 -0.020938234 -0.0027378853
0.0029993656 0.023911711 -0.0037357786
-0.0047489954 -0.015734648 -0.0037357786
0.0014996828 -0.017964756 -0.0072284043
-0.0049989424 -0.012761172 -0.0039852518
0.0037492069 -0.005823059 -0.0062305112
0.0012497356 0.020690445 -0.00099157251
0.0024994712 0.022672763 -0.0074778777
-0.0037492069 0.00037168464 -0.0034863052
-0.00049989426 -0.0016106333 -0.007727351
-0.0032493128 0.0073097977 -0.0034863052
-0.0027494184 0.00037168464 -0.0034863052
-0.00074984139 -0.0016106333 -0.0072284043
-0.0049989424 -0.021681603 -0.0054820916
-0.0022495242 -0.0055752695 -0.006729458
0.0017496299 -0.0083009563 -0.0072284043
0.00099978852 0.0030973719 -0.0079768244
-0.0049989424 0.017469177 -0.0054820916
0.0014996828 0.02564624 -0.0047336714
0.001999577 -0.014000121 -0.0024884122
-0.0022495242 0.012513382 -0.0027378853
-0.0012497356 0.023663921 -0.0069789314
-0.00024994713 -0.009539905 -0.0069789314
0.0014996828 0.015734648 -0.0072284043
-0.0017496299 -0.017221387 -0.0027378853
-0.0029993656 0.0011150539 -0.0064799846
0.0049989424 -0.0033451617 -0.0057315649
0.0022495242 0.012265593 -0.0024884122
0.0032493128 0.021929393 -0.0074778777
0.0049989424 0.01548686 -0.0047336714
0.0049989424 0.021186024 -0.0047336714
-0.00074984139 -0.0016106333 -0.0024884122
-0.00024994713 0.019699285 -0.006729458
0.0014996828 -0.020938234 -0.0072284043
-0.0049989424 0.01548686 -0.0049831448
-0.0034992597 0.010035485 -0.0034863052
-0.0027494184 0.020938234 -0.00074209919
0.00024994713 0.0085487468 -0.0072284043
0.0012497356 -0.019451495 -0.0072284043
0.00074984139 0.018212548 -0.0072284043
0.0024994712 0.0023540026 -0.0064799846
0.00024994713 0.02515066 -0.0039852518
-0.0029993656 0.01548686 -0.007727351
-0.0024994712 -0.014000121 -0.0072284043
-0.0032493128 -0.010531064 -0.0034863052
-0.0022495242 -0.0045841103 -0.006729458
-0.0032493128 0.012761172 -0.0027378853
0.001999577 -0.0078053772 -0.0024884122
-0.0032493128 -0.02564624 -0.0039852518
0.0017496299 0.0068142181 -0.0072284043
-0.0034992597 0.0021062128 -0.0054820916
0.0032493128 0.022424972 -0.007727351
0.00099978852 -0.015239069 -0.0072284043
-0.0032493128 0.0241595 -0.006729458
0.0049989424 0.013752331 -0.0042347251
0.0024994712 -0.016230229 -0.0079768244
0.00024994713 0.024902871 -0.0044841985
-0.0049989424 0.01548686 -0.0054820916
0.004249101 0.012761172 -0.0062305112
0.0049989424 -0.0085487468 -0.0049831448
-0.0049989424 -0.0023540026 -0.0037357786
-0.0022495242 -0.023416132 -0.0072284043
-0.0024994712 -0.018212548 -0.0027378853
-0.0049989424 0.009539905 -0.0044841985
0.0044990485 0.0011150539 -0.0037357786
-0.0047489954 0.021929393 -0.0064799846
0.0034992597 0.0241595 -0.0059810379
0.0047489954 0.0080531668 -0.0062305112
0.0014996828 0.013256752 -0.0032368319
0.00074984139 -0.02564624 -0.0047336714
0.0022495242 -0.0035929515 -0.0064799846
-0.00099978852 0.0050796899 -0.0024884122
0 -0.020690445 -0.006729458
-0.0049989424 0.01499128 -0.0044841985
0.0049989424 -0.012265593 -0.0059810379
0.00024994713 -0.012513382 -0.0027378853
0.0049989424 0.019203706 -0.0037357786
0.0034992597 -0.017716967 -0.0024884122
-0.00074984139 0.00061947439 -0.0024884122
-0.0022495242 0.02440729 -0.0069789314
-0.00049989426 -0.024902871 -0.0037357786
0.00049989426 0.010531064 -0.0072284043
-0.0039991541 -0.019947074 -0.0034863052
0.0034992597 -0.0048319004 -0.0032368319
0.0049989424 -0.013504541 -0.0049831448
-0.0044990485 0.01474349 -0.0064799846
0.0049989424 0.013752331 -0.0039852518
0.0014996828 -0.013752331 -0.0027378853
-0.00099978852 0.0241595 -0.0059810379
-0.0049989424 -0.020194864 -0.0047336714
0.0044990485 0.010283275 -0.0034863052
0.0049989424 -0.0090443259 -0.0034863052
0.0017496299 0.017469177 -0.001490519
-0.001999577 -0.012265593 -0.0079768244
-0.0047489954 -0.023663921 -0.0054820916
0.0044990485 -0.010778855 -0.0062305112
0.0049989424 0.0087965364 -0.0039852518
-0.004249101 -0.0038407412 -0.0034863052
-0.00099978852 -0.0075575872 -0.0082262978
-0.0024994712 0.0063186386 -0.006729458
0.0027494184 0.015734648 -0.0024884122
-0.0017496299 -0.0038407412 -0.0034863052
-0.001999577 -0.023168342 -0.0069789314
0.004249101 -0.015239069 -0.0062305112
-0.0029993656 0.017716967 -0.0082262978
-0.0049989424 -0.0085487468 -0.0042347251
0.0049989424 0.021929393 -0.0037357786
-0.00074984139 0.010283275 -0.0027378853
-0.0049989424 -0.00061947439 -0.0032368319
-0.0022495242 0.00012389488 -0.0034863052
0.0012497356 0.023663921 -0.0017399923
-0.00074984139 -0.0028495821 -0.0072284043
0 -0.015239069 -0.0037357786
-0.0022495242 0.021929393 -0.0027378853
-0.00049989426 -0.018708127 -0.0037357786
0.0029993656 0.0038407412 -0.0032368319
-0.00024994713 -0.020194864 -0.006729458
0.0047489954 -0.01474349 -0.0034863052
-0.0039991541 0.00037168464 -0.0054820916
-0.0049989424 0.0083009563 -0.0034863052
0.0022495242 -0.0038407412 -0.0064799846
-0.0039991541 -0.022920553 -0.0072284043
-0.0014996828 0.02440729 -0.0062305112
0.0034992597 -0.013752331 -0.0062305112
-0.0014996828 -0.018955916 -0.0027378853
0.0029993656 -0.015239069 -0.0074778777
-0.0014996828 0.02440729 -0.0034863052
0.0034992597 -0.00086726411 -0.0037357786
0.001999577 -0.019203706 -0.0074778777
-0.0037492069 0.017469177 -0.0022389388
0.0029993656 0.0053274794 -0.0062305112
0.0024994712 0.011522223 -0.0072284043
-0.004249101 0.0030973719 -0.0052326182
-0.0012497356 -0.011274434 -0.0074778777
-0.0027494184 0.0030973719 -0.006729458
-0.0039991541 0.023911711 -0.007727351
0.00074984139 -0.010035485 -0.0027378853
-0.001999577 -0.010283275 -0.0072284043
0.001999577 0.02539845 -0.0044841985
-0.00099978852 0.015239069 -0.0027378853
0.0027494184 0.022672763 -0.0012410458
0.00049989426 0.013008961 -0.0034863052
-0.0022495242 -0.01474349 -0.0024884122
0.004249101 -0.023911711 -0.0074778777
-0.00074984139 0.0241595 -0.0037357786
0.001999577 -0.013008961 -0.0022389388
0.0027494184 -0.022920553 -0.0034863052
0.0017496299 0.02440729 -0.0039852518
0.0024994712 0.016478019 -0.007727351
0.00049989426 0.02440729 -0.0042347251
0.0049989424 -0.010778855 -0.0057315649
-0.0012497356 0.015734648 -0.0069789314
0.0022495242 -0.023168342 -0.0037357786
0.00049989426 0.015239069 -0.0072284043
0.004249101 0.0241595 -0.0059810379
0.0017496299 0.020194864 -0.0072284043
-0.00024994713 0.0038407412 -0.0027378853
-0.0034992597 0.017469177 -0.0069789314
0.0017496299 -0.00086726411 -0.0064799846
-0.00049989426 -0.00037168464 -0.0074778777
0.0014996828 -0.023168342 -0.0072284043
-0.0049989424 -0.017469177 -0.0047336714
0.00074984139 -0.005823059 -0.0082262978
-0.0014996828 -0.0085487468 -0.007727351
-0.0047489954 -0.017964756 -0.0039852518
0.0014996828 -0.0075575872 -0.0024884122
-0.001999577 -0.0080531668 -0.0069789314
-0.0047489954 0.01598244 -0.0034863052
0.0024994712 0.022424972 -0.00074209919
-0.00024994713 0.016478019 -0.0032368319
0.0047489954 0.0085487468 -0.0062305112
0.0022495242 0.010035485 -0.0072284043
-0.0022495242 0.016230229 -0.007727351
0.0027494184 0.017716967 -0.0037357786
0.0047489954 0.018955916 -0.0054820916
-0.0027494184 0.0073097977 -0.0034863052
0.0012497356 -0.023168342 -0.0037357786
0.0017496299 0.0063186386 -0.007727351
0.0012497356 -0.021681603 -0.0037357786
-0.0034992597 0.022672763 -0.0079768244
0.0027494184 0.0045841103 -0.0064799846
0.001999577 0.019203706 -0.00099157251
-0.0022495242 -0.02515066 -0.0049831448
-0.0037492069 -0.019451495 -0.0069789314
0.0049989424 -0.01548686 -0.0042347251
0.001999577 0.01474349 -0.0074778777
0.0022495242 0.010035485 -0.007727351
0.00099978852 -0.010531064 -0.0079768244
-0.0047489954 0.013256752 -0.0064799846
-0.001999577 0.0045841103 -0.0029873587
-0.004249101 -0.015239069 -0.0034863052
0.0049989424 0.014000121 -0.0044841985
0.0034992597 0.0018584231 -0.0062305112
0.0027494184 0.021186024 -0.0074778777
0.0049989424 0.0038407412 -0.0059810379
0.0034992597 0.0087965364 -0.0062305112
-0.00074984139 0.016973598 -0.0069789314
-0.0049989424 -0.0040885308 -0.0034863052
-0.0049989424 -0.0038407412 -0.0052326182
-0.0029993656 -0.011522223 -0.0032368319
-0.0047489954 -0.02440729 -0.0047336714
-0.0029993656 -0.017716967 -0.0074778777
0.0024994712 0.0075575872 -0.0064799846
-0.0034992597 0.022177182 -0.0082262978
-0.0029993656 0.013256752 -0.0069789314
0.0037492069 0.0070620077 -0.0034863052
-0.0029993656 -0.0083009563 -0.006729458
-0.0034992597 0.022424972 -0.0079768244
0 -0.013752331 -0.0034863052
-0.0014996828 0.00061947439 -0.0032368319
-0.0014996828 -0.010531064 -0.0082262978
0.0014996828 0.014000121 -0.0032368319
-0.0029993656 -0.019699285 -0.0079768244
-0.0034992597 0.0097876955 -0.0034863052
-0.0027494184 0.01499128 -0.0082262978
0.00049989426 -0.02564624 -0.0047336714
-0.0022495242 0.011274434 -0.0024884122
0.0017496299 0.019451495 -0.0037357786
0.0049989424 -0.01598244 -0.0049831448
0.0014996828 0.0068142181 -0.0079768244
0.0047489954 -0.0097876955 -0.0034863052
-0.0029993656 -0.013504541 -0.006729458
0.0022495242 -0.00086726411 -0.0064799846
0.0047489954 -0.0055752695 -0.0037357786
0.0012497356 -0.0040885308 -0.0069789314
0 0.010778855 -0.0069789314
-0.001999577 0.0026017923 -0.0034863052
0 -0.02564624 -0.006729458
0.0047489954 0.010531064 -0.0037357786
-0.0047489954 -0.021929393 -0.0059810379
-0.0049989424 -0.010531064 -0.0049831448
-0.00074984139 0.018955916 -0.0069789314
0.0032493128 -0.019451495 -0.0022389388
0.0017496299 0.012017803 -0.0032368319
0.0039991541 0.010035485 -0.0062305112
-0.0049989424 -0.0055752695 -0.0047336714
-0.0049989424 0.0090443259 -0.0047336714
0.001999577 0.0063186386 -0.0069789314
0.00099978852 0.0078053772 -0.0074778777
-0.0032493128 -0.024902871 -0.0074778777
0.0032493128 -0.009539905 -0.0064799846
0.0012497356 -0.00061947439 -0.006729458
0.0024994712 0.021929393 -0.0074778777
-0.0012497356 -0.0045841103 -0.0072284043
0.004249101 -0.0013628437 -0.0037357786
0.0017496299 0.011026644 -0.0034863052
0.0049989424 -0.0063186386 -0.0049831448
0.00049989426 0.0090443259 -0.0072284043
0 -0.014000121 -0.0072284043
0.0032493128 0.016230229 -0.0024884122
-0.00049989426 -0.010283275 -0.0069789314
0.0032493128 0.0033451617 -0.0064799846
-0.0049989424 0.013256752 -0.0062305112
0.0049989424 0.010283275 -0.0057315649
-0.0049989424 -0.0038407412 -0.0044841985
0.0017496299 -0.013752331 -0.0024884122
0.0014996828 0.010531064 -0.0074778777
-0.0034992597 -0.022424972 -0.0079768244
0.0029993656 0.014000121 -0.0072284043
0.004249101 -0.0028495821 -0.0037357786
0.0017496299 0.013504541 -0.0037357786
-0.0014996828 0.0045841103 -0.0074778777
-0.0039991541 -0.02564624 -0.0042347251
-0.00074984139 -0.02564624 -0.0044841985
0.0034992597 -0.01499128 -0.0024884122
0.0022495242 0.010531064 -0.0024884122
-0.0047489954 0.0028495821 -0.0034863052
-0.0024994712 0.02539845 6.3206539e-06
0.0049989424 0.020442655 -0.0034863052
0.0049989424 -0.0092921155 -0.0057315649
0.0049989424 -0.0021062128 -0.0049831448
0.0017496299 0.00061947439 -0.0064799846
-0.0032493128 -0.018460337 -0.0072284043
0.0024994712 0.017469177 -0.0074778777
0.0039991541 0.0040885308 -0.0037357786
-0.0049989424 0.0045841103 -0.0052326182
0.0039991541 0.0035929515 -0.0062305112
-0.0024994712 -0.022177182 -0.0072284043
-0.00099978852 -0.020938234 -0.0037357786
0.0027494184 0.021929393 -0.00099157251
0.0039991541 0.018708127 -0.0024884122
0.0024994712 -0.014495701 -0.007727351
-0.0022495242 -0.0065664286 -0.0034863052
-0.0049989424 0.019699285 -0.0047336714
-0.0024994712 0.018708127 -0.0072284043
-0.00024994713 -0.012017803 -0.0027378853
-0.00099978852 -0.023168342 -0.006729458
-0.0034992597 0.0087965364 -0.0034863052
-0.00049989426 -0.0033451617 -0.0079768244
-0.0039991541 -0.022672763 -0.0069789314
-0.0047489954 -0.023168342 -0.0057315649
0.0014996828 -0.0068142181 -0.007727351
0.0017496299 -0.010035485 -0.0079768244
-0.0049989424 -0.020690445 -0.0052326182
0.0014996828 -0.0038407412 -0.006729458
-0.00074984139 -0.012513382 -0.0069789314
0.0049989424 -0.0065664286 -0.0047336714
-0.001999577 0.010283275 -0.0079768244
-0.00099978852 -0.02564624 -0.0069789314
0.0027494184 0.0075575872 -0.0064799846
0.0017496299 -0.0078053772 -0.0074778777
0.0024994712 0.0068142181 -0.0064799846
-0.0012497356 -0.016973598 -0.0069789314
-0.004249101 -0.022920553 -0.0027378853
0 0.012265593 -0.0069789314
0.0049989424 -0.0045841103 -0.0059810379
-0.00024994713 0.0018584231 -0.0024884122
-0.00099978852 -0.016230229 -0.0027378853
-0.0014996828 -0.012513382 -0.0027378853
0.0049989424 -0.0070620077 -0.0044841985
0.0022495242 0.021186024 -0.0074778777
0.0039991541 0.0068142181 -0.0062305112
-0.0012497356 0.021186024 -0.0069789314
0.0049989424 -0.019947074 -0.0044841985
-0.0039991541 -0.021433813 -0.0022389388
0.0047489954 -0.021929393 -0.0059810379
-0.0012497356 -0.0241595 -0.0037357786
0.0032493128 -0.0092921155 -0.0024884122
-0.0029993656 -0.013504541 -0.0032368319
-0.0037492069 0.01598244 -0.0027378853
0.0047489954 -0.0043363208 -0.0062305112
-0.0049989424 -0.0045841103 -0.0047336714
0.0022495242 0.010778855 -0.0074778777
-0.0024994712 0.023416132 -0.00074209919
0.0049989424 0.0018584231 -0.0044841985
-0.0027494184 -0.0097876955 -0.006729458
-0.0049989424 0.0090443259 -0.0039852518
-0.00024994713 0.0090443259 -0.0069789314
-0.0049989424 -0.0063186386 -0.0044841985
-0.00074984139 -0.014495701 -0.0069789314
0.0049989424 0.0068142181 -0.0049831448
0.0037492069 -0.022920553 -0.007727351
-0.00049989426 0.011770013 -0.0027378853
0.0034992597 0.020690445 -0.0024884122
-0.0027494184 0.012513382 -0.0072284043
-0.00099978852 -0.015239069 -0.0069789314
0.0034992597 -0.017469177 -0.006729458
-0.0049989424 0.019699285 -0.0042347251
-0.0012497356 -0.0085487468 -0.0024884122
0.0049989424 0.0048319004 -0.0057315649
0.00099978852 0.0065664286 -0.0024884122
0.0049989424 0.018708127 -0.0047336714
-0.00099978852 -0.0087965364 -0.007727351
0.0044990485 -0.00061947439 -0.0054820916
-0.0037492069 -0.0068142181 -0.0064799846
0.001999577 0.02515066 -0.0042347251
-0.00074984139 0.021186024 -0.0034863052
0 0.0070620077 -0.0024884122
0 0.0026017923 -0.007727351
0.004249101 0.0050796899 -0.0037357786
0.0014996828 0.017221387 -0.0072284043
-0.0039991541 -0.010778855 -0.0032368319
0.00024994713 -0.024655079 -0.0064799846
-0.0024994712 -0.00086726411 -0.006729458
-0.0027494184 0.016230229 -0.0082262978
0.0047489954 0.018708127 -0.0029873587
0.0024994712 0.012265593 -0.0074778777
0.0044990485 0.01474349 -0.0027378853
-0.0024994712 0.023911711 -0.00099157251
-0.00049989426 -0.023416132 -0.006729458
-0.0039991541 -0.0085487468 -0.0034863052
0.0014996828 0.021433813 -0.0037357786
-0.0017496299 0.020938234 -0.0027378853
0.0017496299 0.019699285 -0.0037357786
-0.0047489954 -0.022424972 -0.0062305112
-0.0027494184 0.01499128 -0.0079768244
0.00024994713 0.006070849 -0.0024884122
-0.0012497356 -0.0033451617 -0.0029873587
-0.0024994712 -0.024902871 -0.0052326182
0.00049989426 -0.0083009563 -0.0074778777
0.0012497356 0.02564624 -0.0044841985
-0.004249101 0.01548686 -0.0064799846
0.0049989424 0.010531064 -0.0039852518
-0.0049989424 -0.0073097977 -0.0049831448
0.001999577 -0.0043363208 -0.0024884122
0.0047489954 -0.017469177 -0.0034863052
0.0017496299 0.012017803 -0.0074778777
0.0049989424 -0.00061947439 -0.0044841985
-0.00074984139 0.016973598 -0.0027378853
0.001999577 0.022672763 -0.0037357786
0.00049989426 -0.017964756 -0.0037357786
-0.00024994713 -0.01548686 -0.0029873587
0.0049989424 0.012513382 -0.0054820916
-0.0022495242 -0.00012389488 -0.0034863052
-0.00024994713 0.019947074 -0.006729458
0 -0.019203706 -0.006729458
0.0047489954 -0.0068142181 -0.0059810379
-0.00049989426 -0.013256752 -0.0069789314
-0.0034992597 0.013504541 -0.0032368319
0.0047489954 -0.02539845 -0.0049831448
-0.0034992597 0.019203706 -0.0027378853
0.00024994713 0.024902871 -0.0052326182
-0.0024994712 -0.02539845 -0.0072284043
-0.0047489954 -0.023416132 -0.0059810379
0.0037492069 -0.010283275 -0.0024884122
-0.0049989424 0.021681603 -0.0064799846
-0.0029993656 0.011274434 -0.0024884122
0.001999577 0.014000121 -0.0032368319
0.0044990485 0.016725808 -0.0062305112
0.0034992597 0.022424972 -0.0032368319
0.0047489954 0.0083009563 -0.0062305112
0.0022495242 0.02539845 -0.0012410458
0.0049989424 -0.013504541 -0.0047336714
-0.0039991541 -0.012265593 -0.0032368319
0.00074984139 -0.017716967 -0.0072284043
-0.0024994712 -0.013008961 -0.0072284043
-0.0049989424 0.0075575872 -0.0039852518
-0.0034992597 0.0092921155 -0.0064799846
0.0039991541 -0.0013628437 -0.0062305112
-0.0047489954 0.020442655 -0.0034863052
-0.00099978852 0.0023540026 -0.0074778777
-0.0022495242 0.022177182 -0.0069789314
0.00024994713 0.010283275 -0.0069789314
0.0047489954 0.023663921 -0.0044841985
-0.0049989424 0.014000121 -0.0047336714
0.0017496299 0.0053274794 -0.0027378853
-0.0049989424 0.005823059 -0.0049831448
-0.00049989426 0.011522223 -0.0027378853
0.0017496299 -0.010531064 -0.0024884122
-0.004249101 0.0011150539 -0.0054820916
0.0024994712 0.018955916 -0.0012410458
0.0027494184 0.013008961 -0.007727351
-0.0047489954 0.015734648 -0.0032368319
0.0039991541 -0.0065664286 -0.0034863052
-0.0049989424 0.0045841103 -0.0037357786
-0.0044990485 0.0078053772 -0.0032368319
0.0049989424 -0.010035485 -0.0042347251
-0.0049989424 -0.020442655 -0.0054820916
-0.0032493128 -0.019451495 -0.0024884122
-0.00074984139 -0.017469177 -0.0029873587
-0.00099978852 -0.0063186386 -0.0024884122
-0.0014996828 0.012265593 -0.0072284043
-0.0022495242 -0.0075575872 -0.0032368319
-0.0022495242 -0.019947074 -0.0072284043
-0.00099978852 -0.0033451617 -0.0027378853
-0.001999577 -0.023416132 -0.0029873587
-0.0034992597 -0.01598244 -0.0027378853
-0.0037492069 0.024655079 -0.0029873587
0.0032493128 -0.011522223 -0.0062305112
-0.0024994712 -0.005823059 -0.006729458
-0.0049989424 -0.0063186386 -0.0047336714
0.0044990485 -0.012265593 -0.0029873587
0.0039991541 -0.017964756 -0.0024884122
-0.0029993656 0.010778855 -0.0027378853
0.0044990485 -0.013256752 -0.0062305112
-0.0047489954 0.0030973719 -0.0034863052
-0.0049989424 0.022424972 -0.0039852518
-0.0032493128 -0.015239069 -0.006729458
-0.0017496299 0.0013628437 -0.0034863052
-0.0029993656 -0.02564624 -0.0072284043
-0.0034992597 0.00061947439 -0.0054820916
-0.0049989424 0.012761172 -0.0049831448
-0.0047489954 -0.022424972 -0.0059810379
0.0044990485 0.00086726411 -0.0037357786
-0.0024994712 -0.0040885308 -0.006729458
0.0047489954 0.016478019 -0.0037357786
0.001999577 -0.015239069 -0.0082262978
0.0014996828 -0.024655079 -0.0072284043
-0.00074984139 0.0055752695 -0.0082262978
0.0027494184 0.0065664286 -0.0064799846
0.0032493128 0.0083009563 -0.0024884122
0.0017496299 0.0090443259 -0.0079768244
-0.0049989424 -0.022920553 -0.0052326182
-0.001999577 0.0068142181 -0.0024884122
0.0014996828 -0.02564624 -0.0039852518
0.0049989424 -0.01474349 -0.0059810379
0.00049989426 -0.00012389488 -0.0024884122
-0.0047489954 0.017716967 -0.0039852518
-0.0049989424 -0.010778855 -0.0049831448
0.0014996828 0.019947074 -0.00074209919
0.0047489954 -0.011026644 -0.0062305112
0.0039991541 0.012017803 -0.0024884122
-0.0022495242 0.023168342 -0.00074209919
-0.00049989426 -0.0053274794 -0.0024884122
-0.0022495242 0.0016106333 -0.006729458
-0.0047489954 0.020938234 -0.0059810379
-0.0044990485 0.0055752695 -0.0052326182
0.0022495242 -0.016973598 -0.0082262978
-0.0044990485 -0.024655079 -0.0029873587
-0.0034992597 0.016725808 -0.007727351
0.0034992597 -0.016478019 -0.006729458
0.0022495242 0.0050796899 -0.0027378853
-0.0017496299 -0.01499128 -0.0074778777
-0.0027494184 0.017221387 -0.0027378853
0.0029993656 -0.023416132 -0.0032368319
0.0032493128 -0.02539845 -0.0052326182
-0.004249101 -0.0085487468 -0.0057315649
-0.0017496299 0.010531064 -0.0082262978
0.0037492069 0.019451495 -0.0072284043
0.0029993656 0.011770013 -0.0024884122
0.0014996828 0.019451495 -0.0072284043
0.0032493128 -0.0085487468 -0.0024884122
0.0029993656 -0.02539845 -0.0069789314
-0.0024994712 0.010035485 -0.0069789314
-0.0024994712 -0.0018584231 -0.0034863052
-0.0037492069 -0.018708127 -0.006729458
0.0049989424 0.0075575872 -0.0062305112
0.0012497356 -0.023416132 -0.0037357786
-0.0034992597 -0.018955916 -0.0069789314
-0.0012497356 0.0065664286 -0.0024884122
-0.0022495242 -0.0045841103 -0.0034863052
0 0.024902871 -0.0042347251
0.0034992597 0.0085487468 -0.0062305112
-0.0049989424 -0.0241595 -0.0052326182
0.00049989426 -0.00012389488 -0.0079768244
0.00074984139 -0.012513382 -0.0072284043
0.00099978852 0.023911711 -0.0059810379
-0.001999577 0.0092921155 -0.007727351
0.0044990485 -0.022177182 -0.0032368319
0.0049989424 0.012761172 -0.0044841985
0.00049989426 0.023416132 -0.0012410458
-0.00024994713 -0.021186024 -0.006729458
-0.0032493128 -0.02564624 -0.0072284043
-0.001999577 -0.02515066 -0.0069789314
0.0014996828 -0.0021062128 -0.0027378853
0.0044990485 0.01499128 -0.0027378853
-0.0049989424 -0.016478019 -0.0049831448
0.0017496299 0.012513382 -0.0024884122
0.0027494184 0.024655079 -0.0052326182
-0.0034992597 -0.006070849 -0.006729458
0.0049989424 0.006070849 -0.0054820916
0.001999577 0.020690445 -0.001490519
0.0047489954 -0.0050796899 -0.0062305112
-0.00049989426 -0.022672763 -0.006729458
0.00024994713 -0.02539845 -0.0039852518
-0.0024994712 -0.00061947439 -0.0034863052
-0.00074984139 -0.013504541 -0.0069789314
0.0017496299 0.016478019 -0.0012410458
0.0047489954 0.023663921 -0.0042347251
-0.0012497356 0.00061947439 -0.0069789314
0.00049989426 -0.016973598 -0.0037357786
0.0027494184 0.0050796899 -0.0027378853
-0.0022495242 -0.011770013 -0.0072284043
0.0014996828 0.017469177 -0.0072284043
-0.00049989426 -0.0083009563 -0.0074778777
-0.0039991541 -0.018955916 -0.006729458
0.004249101 -0.02515066 -0.0074778777
-0.0027494184 -0.013256752 -0.0034863052
0.0049989424 -0.016230229 -0.0054820916
-0.001999577 -0.014247911 -0.0079768244
-0.00049989426 -0.0038407412 -0.007727351
0.0017496299 0.015239069 -0.0034863052
-0.0047489954 -0.017469177 -0.0064799846
0.0032493128 0.0050796899 -0.0032368319
0.0012497356 0.02440729 -0.0057315649
-0.0012497356 0.022920553 -0.0069789314
-0.00049989426 -0.006070849 -0.0082262978
-0.0047489954 0.013008961 -0.0034863052
0.0014996828 0.019203706 -0.00099157251
-0.00074984139 -0.014000121 -0.0027378853
-0.0014996828 -0.010283275 -0.0082262978
0.0027494184 0.020690445 -0.0032368319
-0.0037492069 0.016973598 -0.0072284043
0.00099978852 -0.018708127 -0.0037357786
-0.00099978852 -0.014000121 -0.0069789314
0.0049989424 0.0013628437 -0.0049831448
0.00099978852 -0.021929393 -0.0069789314
0.0022495242 0.015239069 -0.0027378853
0.0024994712 0.021929393 -0.001490519
-0.0034992597 0.023911711 -0.0029873587
0.0027494184 0.0241595 -0.0039852518
0.0049989424 -0.0030973719 -0.0049831448
0.0044990485 0.0087965364 -0.0062305112
0.0012497356 0.021433813 -0.0037357786
-0.0049989424 0.010531064 -0.0052326182
0.0034992597 -0.022920553 -0.0082262978
-0.0044990485 0.0085487468 -0.0062305112
-0.0012497356 0.0021062128 -0.0069789314
-0.0049989424 0.0011150539 -0.0049831448
-0.0039991541 0.006070849 -0.0054820916
0.0049989424 -0.00086726411 -0.0042347251
-0.00074984139 0.011274434 -0.0027378853
0.0014996828 0.013008961 -0.0029873587
-0.0022495242 0.018212548 -0.0027378853
0.0017496299 -0.011770013 -0.0079768244
0.0039991541 0.005823059 -0.0062305112
-0.0012497356 0.0092921155 -0.0074778777
-0.001999577 -0.01548686 -0.007727351
-0.0049989424 0.016230229 -0.0052326182
0.0032493128 -0.019203706 -0.0022389388
0.0017496299 0.024655079 -0.0044841985
0.0029993656 -0.012265593 -0.0064799846
-0.0034992597 0.019203706 -0.007727351
0.0029993656 0.010035485 -0.001490519
-0.0037492069 0.0085487468 -0.0034863052
0.0014996828 -0.0090443259 -0.0024884122
0.0047489954 0.017469177 -0.0062305112
-0.00049989426 0.0063186386 -0.0072284043
0.00049989426 -0.017964756 -0.0072284043
-0.0039991541 -0.0013628437 -0.0054820916
0.00024994713 -0.021433813 -0.0034863052
0.00099978852 0.0028495821 -0.007727351
-0.0017496299 0.0073097977 -0.007727351
0.00049989426 0.010283275 -0.0027378853
0.0017496299 0.0035929515 -0.0027378853
0.00049989426 0.012017803 -0.0069789314
0.00024994713 -0.010035485 -0.0072284043
-0.0024994712 0.014247911 -0.0082262978
-0.0022495242 0.023911711 -0.0072284043
0.0049989424 -0.012017803 -0.0042347251
-0.0044990485 -0.010035485 -0.0059810379
-0.00024994713 -0.0050796899 -0.007727351
0.0022495242 0.005823059 -0.0027378853
0.004249101 -0.019203706 -0.0027378853
0.0017496299 0.006070849 -0.0024884122
0.0034992597 0.022920553 -0.0034863052
-0.0049989424 -0.0080531668 -0.0044841985
0.0027494184 -0.0065664286 -0.0024884122
0.0049989424 0.01548686 -0.0054820916
-0.00049989426 -0.019451495 -0.0037357786
-0.001999577 -0.011522223 -0.0079768244
-0.0017496299 -0.011522223 -0.0024884122
-0.0032493128 -0.0026017923 -0.0064799846
-0.0049989424 -0.010531064 -0.0037357786
0.00099978852 0.022672763 -0.001490519
0.001999577 0.0048319004 -0.006729458
-0.0047489954 0.009539905 -0.0032368319
-0.0049989424 0.023416132 -0.0049831448
0.0022495242 -0.018212548 -0.007727351
-0.0022495242 -0.02564624 -0.0049831448
0.00024994713 -0.0033451617 -0.0022389388
-0.0029993656 0.024655079 -0.0047336714
0.0047489954 0.021433813 -0.0064799846
-0.0024994712 -0.020194864 -0.0027378853
0.004249101 -0.0026017923 -0.0062305112
0.0032493128 -0.0087965364 -0.0064799846
-0.0014996828 -0.010035485 -0.0024884122
0.001999577 0.015734648 -0.0037357786
-0.0049989424 0.0013628437 -0.0034863052
-0.0037492069 0.01474349 -0.006729458
0.0049989424 0.0078053772 -0.0052326182
0.0029993656 0.0053274794 -0.0027378853
-0.0044990485 0.0080531668 -0.0032368319
0.0044990485 0.020194864 -0.0024884122
0.0024994712 -0.017716967 -0.0082262978
0.0049989424 0.0048319004 -0.0052326182
-0.004249101 0.0097876955 -0.0064799846
0.0017496299 0.023168342 -0.00074209919
-0.0049989424 -0.0070620077 -0.0037357786
0.0049989424 -0.0075575872 -0.0039852518
0.0012497356 -0.021186024 -0.0072284043
-0.0044990485 -0.02539845 -0.0047336714
0.00099978852 0.023416132 -0.0037357786
0.0049989424 -0.0085487468 -0.0057315649
-0.0024994712 -0.00012389488 -0.0034863052
-0.00099978852 0.018955916 -0.0027378853
-0.0024994712 0.0033451617 -0.006729458
0.001999577 -0.0090443259 -0.0074778777
0.00074984139 -0.020194864 -0.0064799846
0.0027494184 0.02515066 -0.00074209919
-0.0039991541 0.011770013 -0.0064799846
-0.0027494184 -0.012017803 -0.0027378853
0.0029993656 0.016725808 -0.0024884122
0.0049989424 -0.011026644 -0.0059810379
-0.0027494184 -0.01499128 -0.0032368319
0.0029993656 0.013752331 -0.0024884122
-0.0024994712 -0.024902871 -0.0072284043
0.0049989424 0.012017803 -0.0059810379
-0.0032493128 -0.02539845 -0.0049831448
-0.0037492069 0.005823059 -0.0064799846
-0.0022495242 -0.011274434 -0.0069789314
0.0049989424 0.011522223 -0.0042347251
0.00049989426 -0.018212548 -0.0037357786
0.00074984139 -0.014247911 -0.0072284043
0.0012497356 -0.022177182 -0.0072284043
0.00099978852 0.0023540026 -0.0074778777
-0.0014996828 0.0016106333 -0.0032368319
-0.0014996828 0.010778855 -0.007727351
0.0024994712 -0.006070849 -0.0024884122
-0.0022495242 -0.021186024 -0.0027378853
-0.0049989424 -0.0083009563 -0.0042347251
0.00099978852 -0.022424972 -0.006729458
0.0012497356 0.018460337 -0.0037357786
-0.00099978852 0.0063186386 -0.0082262978
0.0049989424 -0.0085487468 -0.0042347251
0.0024994712 0.012265593 -0.007727351
-0.0037492069 0.021433813 -0.007727351
-0.0047489954 -0.02539845 -0.0057315649
0.00049989426 0.02440729 -0.0057315649
0.0029993656 0.016478019 -0.0024884122
0.0039991541 -0.01499128 -0.0062305112
-0.0044990485 -0.016478019 -0.0034863052
-0.0037492069 -0.0048319004 -0.0059810379
0.0027494184 0.0028495821 -0.0032368319
-0.0034992597 0.0048319004 -0.0057315649
-0.0027494184 -0.00037168464 -0.0064799846
0.0047489954 -0.021929393 -0.0049831448
-0.0022495242 0.024655079 -0.0052326182
-0.0024994712 0.010778855 -0.0074778777
-0.0012497356 0.00037168464 -0.0032368319
-0.0012497356 0.0073097977 -0.0082262978
-0.0024994712 0.024655079 -0.0044841985
-0.00074984139 -0.017469177 -0.006729458
-0.00074984139 -0.016973598 -0.0027378853
0.00074984139 -0.0033451617 -0.0079768244
-0.0049989424 0.017716967 -0.0042347251
-0.0024994712 0.02515066 0.0025010535
0.0014996828 -0.011026644 -0.0082262978
-0.0014996828 0.022177182 -0.0069789314
-0.0034992597 0.00061947439 -0.0032368319
-0.0012497356 0.01548686 -0.0027378853
0.0032493128 0.0092921155 -0.001490519
0.0039991541 -0.019699285 -0.0064799846
-0.0017496299 0.0073097977 -0.0072284043
0.0044990485 -0.022424972 -0.0032368319
-0.0047489954 -0.022177182 -0.0054820916
-0.0049989424 -0.0035929515 -0.0047336714
0.00099978852 -0.023663921 -0.0062305112
0.0047489954 -0.0075575872 -0.0062305112
0.0017496299 0.024902871 -0.0049831448
-0.0024994712 0.0013628437 -0.0034863052
-0.004249101 -0.023416132 -0.0069789314
0.0027494184 -0.02564624 -0.006729458
0.0037492069 -0.02564624 -0.0029873587
0.0049989424 0.01474349 -0.0047336714
-0.0049989424 -0.01548686 -0.0044841985
0.0049989424 -0.013752331 -0.0049831448
-0.0037492069 0.018708127 -0.0022389388
-0.0049989424 0.0018584231 -0.0049831448
-0.00074984139 -0.011274434 -0.0027378853
-0.0037492069 -0.02440729 -0.0079768244
0.00049989426 -0.024902871 -0.0037357786
0.0047489954 0.0085487468 -0.0037357786
-0.0034992597 0.016725808 -0.0069789314
-0.0047489954 0.018955916 -0.0034863052
-0.0012497356 0.016230229 -0.0069789314
0.0034992597 0.02440729 -0.0052326182
-0.0047489954 0.019699285 -0.0064799846
0.0047489954 -0.0097876955 -0.0062305112
0.0044990485 0.011026644 -0.0062305112
-0.004249101 0.0241595 -0.0057315649
-0.0024994712 0.022424972 -0.00074209919
0.00049989426 0.019203706 -0.0037357786
-0.0017496299 -0.01474349 -0.0074778777
-0.00099978852 -0.0097876955 -0.007727351
-0.0017496299 -0.0087965364 -0.0072284043
-0.00049989426 -0.0055752695 -0.0082262978
0.00099978852 0.01499128 -0.0072284043
0.0049989424 0.005823059 -0.0054820916
0.0029993656 0.0040885308 -0.0029873587
0.0049989424 -0.01499128 -0.0054820916
-0.001999577 0.012265593 -0.0027378853
-0.0049989424 -0.019203706 -0.0047336714
0.00099978852 0.024902871 -0.0049831448
0.00099978852 -0.0033451617 -0.0027378853
-0.0032493128 0.017716967 -0.0079768244
-0.0034992597 0.022424972 -0.0082262978
0.0032493128 -0.0040885308 -0.0029873587
0.00049989426 -0.019699285 -0.0069789314
-0.0027494184 0.018708127 -0.007727351
-0.0049989424 -0.0038407412 -0.0039852518
0.00074984139 0.015734648 -0.0072284043
0.00099978852 -0.01499128 -0.0037357786
0.0017496299 -0.014495701 -0.007727351
0.00049989426 -0.022920553 -0.0034863052
-0.00049989426 -0.0050796899 -0.0024884122
-0.0049989424 -0.013256752 -0.0052326182
-0.0049989424 0.0055752695 -0.0052326182
-0.0049989424 -0.018955916 -0.0042347251
0.0049989424 -0.01598244 -0.0054820916
-0.0047489954 -0.0030973719 -0.0034863052
-0.0047489954 -0.021681603 -0.0059810379
-0.0034992597 0.015734648 -0.0069789314
0.0032493128 -0.0045841103 -0.0027378853
-0.0027494184 -0.010035485 -0.006729458
-0.0022495242 0.02515066 -0.0037357786
-0.0047489954 -0.018955916 -0.0034863052
-0.0049989424 0.023663921 -0.0049831448
0.0034992597 0.013504541 -0.0064799846
-0.00074984139 -0.00037168464 -0.0024884122
0.0034992597 0.015734648 -0.0024884122
0.0049989424 -0.021186024 -0.0049831448
0.0044990485 -0.014495701 -0.0029873587
-0.0049989424 0.021433813 -0.0052326182
0.0047489954 -0.012513382 -0.0062305112
0.0037492069 -0.014247911 -0.0062305112
0 -0.0097876955 -0.0027378853
0.0012497356 -0.0073097977 -0.0079768244
0.0047489954 -0.02539845 -0.0062305112
0.0047489954 -0.02539845 -0.0059810379
-0.0027494184 -0.0016106333 -0.006729458
-0.0044990485 0.0065664286 -0.0032368319
0.00074984139 0.0018584231 -0.0079768244
0.0044990485 -0.018708127 -0.0027378853
-0.0047489954 -0.023911711 -0.0047336714
-0.00024994713 -0.0035929515 -0.0079768244
0.0034992597 0.01474349 -0.0064799846
0.001999577 -0.016725808 -0.0074778777
-0.0027494184 -0.01598244 -0.007727351
0.004249101 -0.0035929515 -0.0062305112
-0.0039991541 0.0241595 -0.0042347251
-0.0047489954 -0.022177182 -0.0049831448
-0.00099978852 0.0013628437 -0.0024884122
0.00024994713 0.0028495821 -0.0024884122
-0.00049989426 -0.016230229 -0.0029873587
0.00074984139 -0.0073097977 -0.0024884122
0.00024994713 -0.013752331 -0.0037357786
0.0049989424 0.006070849 -0.0059810379
-0.0024994712 -0.013008961 -0.0022389388
0.001999577 0.014000121 -0.0027378853
-0.0029993656 -0.0030973719 -0.006729458
0.0044990485 0.020690445 -0.0024884122
-0.00024994713 0.021681603 -0.0037357786
0.0049989424 -0.0065664286 -0.0059810379
-0.00074984139 0.01548686 -0.0069789314
-0.0047489954 -0.021929393 -0.0054820916
-0.0024994712 0.0080531668 -0.0029873587
0.0032493128 0.0065664286 -0.0062305112
0.0032493128 0.021681603 -0.0034863052
0.0034992597 0.009539905 -0.0064799846
0.00099978852 -0.00086726411 -0.0027378853
-0.0047489954 0.022177182 -0.0034863052
-0.0032493128 -0.02539845 -0.0074778777
-0.0034992597 0.0045841103 -0.0062305112
0.0037492069 0.016230229 -0.0024884122
0.0039991541 0.0063186386 -0.0037357786
0.00024994713 0.013504541 -0.0032368319
-0.0037492069 0.0013628437 -0.0054820916
0.00099978852 0.018955916 -0.0072284043
0.0049989424 0.011026644 -0.0059810379
-0.0049989424 0.022424972 -0.0044841985
-0.0027494184 -0.020194864 -0.0074778777
0.0044990485 0.0073097977 -0.0062305112
-0.0012497356 0.018460337 -0.0069789314
0.0047489954 -0.023168342 -0.0062305112
0.004249101 -0.020194864 -0.0027378853
0.001999577 0.0038407412 -0.0027378853
-0.00074984139 -0.021433813 -0.0037357786
0.00024994713 -0.00012389488 -0.0079768244
-0.0049989424 0.0090443259 -0.0044841985
0.0012497356 0.011770013 -0.0032368319
-0.0022495242 0.021186024 -0.0027378853
0.0014996828 0.023911711 -0.0017399923
-0.0012497356 0.012761172 -0.0069789314
-0.0047489954 -0.0045841103 -0.0052326182
0.0039991541 0.020690445 -0.0074778777
0.00049989426 0.019451495 -0.0069789314
-0.0034992597 -0.012761172 -0.0032368319
-0.0022495242 -0.0011150539 -0.0034863052
0.00074984139 -0.0078053772 -0.0079768244
-0.0024994712 0.013752331 -0.0027378853
0.00024994713 0.015734648 -0.0072284043
0.0049989424 -0.014000121 -0.0052326182
-0.0014996828 0.020194864 -0.0069789314
-0.0044990485 -0.024655079 -0.0032368319
-0.0014996828 -0.0016106333 -0.0034863052
0.0049989424 0.01548686 -0.0062305112
0.0049989424 0.022920553 -0.0059810379
-0.0017496299 -0.023663921 -0.0069789314
-0.0032493128 0.0083009563 -0.0034863052
-0.0047489954 -0.023911711 -0.0057315649
0.0049989424 0.022920553 -0.0052326182
0.0027494184 -0.013256752 -0.0072284043
0.004249101 -0.0080531668 -0.0062305112
0.0044990485 -0.0085487468 -0.0034863052
-0.0012497356 -0.0050796899 -0.0024884122
-0.0014996828 0.0073097977 -0.0082262978
-0.0034992597 0.021433813 -0.0082262978
0.00099978852 0.0023540026 -0.0079768244
0.0014996828 0.01548686 -0.0037357786
0.0047489954 -0.020938234 -0.0059810379
-0.0022495242 0.022177182 -0.00049262593
0.0044990485 -0.0063186386 -0.0037357786
0.0012497356 0.010035485 -0.0072284043
-0.00099978852 -0.0023540026 -0.0024884122
0.0032493128 0.020442655 -0.0037357786
-0.0022495242 0.018460337 -0.0072284043
0.0034992597 0.0033451617 -0.0062305112
0.0047489954 -0.017964756 -0.0037357786
0.0032493128 0.017964756 -0.007727351
0.0049989424 -0.0063186386 -0.0054820916
0.0037492069 0.0092921155 -0.0062305112
0.0032493128 0.0045841103 -0.0029873587
-0.00074984139 0.022920553 -0.0037357786
-0.0037492069 0.0043363208 -0.0034863052
-0.0049989424 0.017469177 -0.0047336714
-0.0029993656 0.016725808 -0.0079768244
-0.0024994712 -0.016725808 -0.0079768244
-0.0032493128 0.0030973719 -0.0064799846
0.0049989424 0.011522223 -0.0059810379
-0.00074984139 -0.0078053772 -0.0027378853
-0.0012497356 0.01474349 -0.0069789314
0.0034992597 0.015239069 -0.0024884122
0 0.018460337 -0.0037357786
-0.0024994712 -0.0028495821 -0.006729458
-0.004249101 -0.02539845 -0.0049831448
-0.0022495242 0.013504541 -0.0027378853
-0.0032493128 0.0026017923 -0.0034863052
-0.0049989424 0.01474349 -0.0059810379
-0.004249101 0.015239069 -0.0064799846
-0.00099978852 -0.0040885308 -0.0072284043
-0.0024994712 -0.00012389488 -0.006729458
0.0049989424 0.0063186386 -0.0059810379
-0.004249101 -0.018460337 -0.0029873587
0.0049989424 -0.0068142181 -0.0054820916
0.0032493128 -0.022424972 -0.0082262978
0.0049989424 -0.011770013 -0.0054820916
-0.0032493128 -0.016725808 -0.0022389388
0.0024994712 0.0045841103 -0.0064799846
-0.0017496299 -0.0087965364 -0.0024884122
-0.0027494184 -0.018708127 -0.0027378853
0.0029993656 -0.019699285 -0.0024884122
-0.0039991541 0.010035485 -0.0032368319
-0.0032493128 -0.0021062128 -0.0054820916
