# .PCD v0.7 - Point Cloud Data file format
VERSION 0.7
FIELDS x y z
SIZE 4 4 4
TYPE F F F
COUNT 1 1 1
WIDTH 1197
HEIGHT 1
VIEWPOINT 0 0 0 1 0 0 0
POINTS 1197
DATA ascii
0.00089016877 -0.0087994626 -0.0085000005
0.00049453817 0.0038559441 -0.02
-0.0064289966 0.0060310923 -0.0055258619
0.0018792452 0.0086017214 -0.011672414
0.0010879841 0.00029661108 -0.0001724138
-0.0054399199 0.0070197955 -0.0073103448
-0.0070224423 -0.0052401293 -0.012862069
0.0034617675 -0.0040536849 -0.0001724138
0.0064289966 -0.0060310923 -0.0055258619
0.0086049642 0.0014830554 -0.016232759
-0.00049453817 -0.0030649812 -0.02
0.0010879841 0.0087994626 -0.017422413
-0.00880278 0.00088983326 -0.016034482
0.00089016877 -0.0052401293 -0.019801725
-0.0064289966 0.0034604627 -0.00037068967
-0.0020770605 0.0086017214 -0.015043103
-0.0084071495 9.8870361e-05 -0.0017586207
0.0014836146 -0.0086017214 -0.017818965
0.0062311813 0.006228833 -0.0043362067
0.0066268118 -0.0058333515 -0.012267241
-0.0012857993 -0.0076130177 -0.019603448
0.0060333661 -0.0010875739 -0.019801725
-0.008011519 0.0038559441 -0.017422413
-0.0062311813 -0.0060310923 -0.00096551725
-0.0050442894 -0.0072175362 -0.00076724141
-0.0086049642 -0.0016807962 -0.0071120691
-0.0072202575 -0.0050423886 -0.0031465518
-0.0084071495 0.0026694997 -0.0033448276
-0.0030661367 -0.0046469071 -0.0001724138
0.002472691 0.0084039811 -0.0023534482
0.00049453817 -0.0034604627 -0.02
0.0086049642 -0.0020762775 -0.0094913794
0.0082093338 -0.0032627219 -0.01762069
0.0060333661 -0.0064265737 -0.01662931
-0.0086049642 0.0020762775 -0.010482758
-0.0040552132 -0.0068220547 -0.00037068967
-0.0034617675 -0.0040536849 -0.0001724138
-0.008011519 0.0036582034 -0.017818965
0.0028683215 -0.0080084996 -0.019603448
0.0022748758 0.0086017214 -0.01563793
-0.003263952 0.0082062399 -0.018215517
0.007615888 0.0044491664 -0.015043103
-0.0030661367 0.0082062399 -0.0033448276
-0.0010879841 -0.0086017214 -0.019603448
0.0058355508 0.0012853147 -0.019801725
0.0056377356 0.0068220547 -0.01762069
-0.0034617675 0.0082062399 -0.0086982762
0.0084071495 0.002471759 -0.018017242
0.0048464742 -0.0038559441 -0.019801725
-0.0064289966 0.0038559441 -0.019603448
-0.0068246271 0.0030649812 -0.019801725
0.00029672292 -0.00088983326 -0.02
-0.0044508437 9.8870361e-05 -0.02
0.0016814298 -0.0086017214 -0.010879311
-0.0060333661 -0.00088983326 -0.019801725
0.0084071495 -0.0028672405 -0.012663793
-0.0058355508 -0.006624314 -0.00056896551
-0.0044508437 0.0072175362 -0.00037068967
-0.00029672292 0.0087994626 -0.0061206897
-0.0018792452 -0.0086017214 -0.0055258619
0.0062311813 -0.0020762775 -0.019801725
0.00880278 0.00088983326 -0.016431034
0.0086049642 -0.00088983326 -0.0013620689
0.00880278 0.00049435179 -0.018810345
-0.0014836146 -0.0018785369 -0.0001724138
-0.0048464742 0.006228833 -0.00037068967
0.0038573979 0.0080084996 -0.013258621
0.0082093338 -0.0034604627 -0.01187069
-0.0042530284 0.007415277 -0.0017586207
0.0052421046 -0.0072175362 -0.0083017237
0.0066268118 -0.0058333515 -0.010284483
0.00880278 -0.00069209252 -0.00076724141
-0.00880278 0.00029661108 -0.0063189655
-9.8907636e-05 0.0032627219 -0.0001724138
-0.0034617675 -0.0082062399 -0.00076724141
-0.0058355508 0.0064265737 -0.0021551724
0.0064289966 0.0056356108 -0.0019568966
0.00069235347 0.0070197955 -0.00037068967
-0.00880278 -0.00088983326 -0.0065172412
0.0030661367 -0.006624314 -0.00037068967
-0.003263952 0.0082062399 -0.012862069
0.0084071495 0.002471759 -0.0011637931
0.0084071495 -0.002471759 -0.0033448276
-0.0020770605 0.0084039811 -0.019603448
0.00049453817 -0.007415277 -0.00037068967
0.00069235347 0.0087994626 -0.019405173
-0.0054399199 0.0064265737 -0.019603448
0.0082093338 0.0034604627 -0.012862069
-0.0066268118 -0.0022740182 -0.019801725
-0.0028683215 0.0084039811 -0.0051293103
0.00880278 -0.00069209252 -0.0086982762
-0.0050442894 0.0072175362 -0.0033448276
0.00049453817 -0.0086017214 -0.0013620689
0.00089016877 -0.0087994626 -0.019405173
-0.008011519 0.0036582034 -0.016232759
0.00880278 -0.00088983326 -0.018612068
-0.003263952 0.0082062399 -0.013258621
0.0046486589 0.007415277 -0.0029482758
0.008011519 -0.0038559441 -0.0025517242
-0.007615888 -0.0042514256 -0.017224139
-0.0010879841 0.0086017214 -0.0011637931
-0.002472691 -0.0084039811 -0.012068965
-9.8907636e-05 -0.0058333515 -0.019801725
0.0026705062 -0.0072175362 -0.019603448
0.0086049642 0.0018785369 -0.0086982762
-0.0014836146 -0.007415277 -0.019603448
-0.0042530284 0.0026694997 -0.02
0.0084071495 -0.0028672405 -0.0096896552
-0.0014836146 -0.0060310923 -0.019801725
0.0078137033 0.0042514256 -0.017025862
0.0050442894 0.00088983326 -0.019801725
-0.0064289966 0.0020762775 -0.019801725
-0.0054399199 0.0070197955 -0.010284483
0.0062311813 0.006228833 -0.017422413
0.00069235347 0.0052401293 -0.019801725
0.0086049642 -0.0022740182 -0.006715517
0.0034617675 0.0082062399 -0.010284483
-0.0050442894 9.8870361e-05 -0.02
0.0022748758 -0.0086017214 -0.0053275861
-0.00089016877 -0.007415277 -0.00037068967
0.0086049642 0.0020762775 -0.012663793
0.0018792452 0.0026694997 -0.02
-0.0086049642 -0.0022740182 -0.011474138
-0.00049453817 -0.0018785369 -0.0001724138
9.8907636e-05 0.00088983326 -0.0001724138
-0.003263952 0.0020762775 -0.02
-0.0018792452 0.0086017214 -0.0041379309
-0.002472691 0.0084039811 -0.0053275861
0.0028683215 0.0084039811 -0.0085000005
0.0040552132 0.0078107584 -0.016232759
0.0084071495 0.002471759 -0.015241379
-0.0034617675 -0.0060310923 -0.019801725
0.00880278 -0.00029661108 -0.0096896552
0.0086049642 0.0018785369 -0.013853448
0.0058355508 0.006624314 -0.008896552
-0.00880278 -0.00029661108 -0.015241379
-0.008011519 -0.0034604627 -0.012267241
0.0074180728 0.0048446478 -0.013655173
0.0072202575 -0.0052401293 -0.0029482758
0.0052421046 9.8870361e-05 -0.019801725
0.0064289966 0.0012853147 -0.019801725
0.0036595827 -0.00029661108 0.0018103449
-0.0066268118 -0.0042514256 -0.019603448
0.0060333661 -0.0064265737 -0.011474138
0.0016814298 -0.0086017214 -0.015836207
-0.0074180728 0.0046469071 -0.0039396551
-0.0038573979 -0.0080084996 -0.01187069
-0.0060333661 0.0064265737 -0.017818965
-0.0074180728 -0.0044491664 -0.019603448
-0.0016814298 -0.0086017214 -0.018215517
-0.0014836146 0.0086017214 -0.013060344
0.0078137033 -0.0042514256 -0.0065172412
-9.8907636e-05 -0.0087994626 -0.012068965
-0.0054399199 0.0070197955 -0.016232759
-0.00880278 0.00029661108 -0.0031465518
-0.0010879841 0.0086017214 -0.019603448
0.00880278 9.8870361e-05 -0.018215517
0.0040552132 -0.0064265737 -0.00037068967
-0.0014836146 0.006228833 -0.00037068967
0.0086049642 -0.0018785369 -0.0071120691
-0.00880278 -0.00088983326 -0.017025862
-0.0074180728 0.0048446478 -0.014448276
-0.0012857993 0.0087994626 -0.014646552
0.0086049642 0.0022740182 -0.018017242
-0.0034617675 -9.8870361e-05 0.0018103449
-0.0050442894 -0.0072175362 -0.017025862
0.0012857993 0.00543787 -0.0001724138
0.0066268118 0.0052401293 -0.0013620689
-0.0054399199 0.0022740182 -0.0001724138
0.0064289966 -0.0060310923 -0.00076724141
0.0072202575 -0.0052401293 -0.0092931036
0.0042530284 -0.0014830554 -0.02
-0.0086049642 0.00088983326 -0.019603448
0.0044508437 0.00029661108 -0.02
0.00049453817 0.0070197955 -0.00037068967
0.00049453817 -0.0087994626 -0.010879311
-0.0074180728 0.0014830554 -0.019603448
-0.0078137033 -0.0040536849 -0.00037068967
0.0056377356 -0.0068220547 -0.0025517242
-0.0056377356 -0.0068220547 -0.0094913794
0.0066268118 -0.0058333515 -0.012663793
-0.0020770605 -0.0086017214 -0.0063189655
0.003263952 -0.0042514256 -0.019801725
0.0034617675 0.0056356108 -0.00037068967
-0.00029672292 -0.0087994626 -0.014051724
-0.0048464742 0.002471759 -0.019801725
0.0086049642 -0.0018785369 -0.010879311
-0.0056377356 -0.0040536849 -0.00037068967
-0.0084071495 -0.0028672405 -0.016431034
0.00069235347 -0.0070197955 -0.00037068967
0.0070224423 -0.00543787 -0.010086207
-0.0046486589 0.0052401293 -0.00037068967
-0.00880278 0.00029661108 -0.0069137933
-0.0044508437 0.0076130177 -0.00056896551
0.0052421046 0.0072175362 -0.018612068
0.0016814298 -0.0086017214 -0.015439656
0.0040552132 0.0036582034 -0.019801725
-0.0016814298 0.0052401293 -0.019801725
0.0078137033 0.0042514256 -0.012465517
-0.0022748758 0.00049435179 -0.0001724138
0.0040552132 -0.0078107584 -0.0031465518
-0.0048464742 -0.007415277 -0.012267241
0.007615888 0.0034604627 -0.019603448
-0.0034617675 0.00029661108 -0.0001724138
0.002472691 0.0040536849 -0.02
0.0016814298 -0.0084039811 -0.0021551724
0.0074180728 0.0046469071 -0.0098879309
-0.0022748758 0.0086017214 -0.0069137933
0.0038573979 0.0080084996 -0.015241379
-0.00089016877 0.0018785369 -0.0001724138
-0.0078137033 0.0040536849 -0.0086982762
-0.0018792452 -0.006624314 -0.019801725
-0.00880278 0.00049435179 -0.015439656
-0.0072202575 -0.0050423886 -0.0098879309
0.0044508437 0.0028672405 -0.0001724138
-0.0074180728 0.0048446478 -0.0035431033
-0.008011519 0.0034604627 -0.0023534482
-9.8907636e-05 0.00049435179 -0.0001724138
-0.0084071495 0.00049435179 -0.00037068967
-0.0050442894 -0.0060310923 -0.00037068967
0.0054399199 -0.0070197955 -0.0077068964
0.0074180728 0.0048446478 -0.004534483
0.0050442894 -0.0028672405 -0.019801725
-0.0040552132 -0.007415277 -0.0013620689
-0.0064289966 0.00069209252 -0.00037068967
0.0054399199 0.0068220547 -0.019405173
-0.0072202575 0.0052401293 -0.0025517242
0.0060333661 -0.0028672405 -0.00037068967
0.0014836146 -0.00069209252 -0.0001724138
0.0028683215 0.0084039811 -0.015836207
0.0052421046 -0.006624314 -0.00037068967
0.0070224423 -0.00543787 -0.016827587
0.00880278 0.0012853147 -0.0065172412
-0.0016814298 0.002471759 -0.02
-0.0070224423 0.00543787 -0.013456897
9.8907636e-05 0.0087994626 -0.004534483
0.0010879841 0.00543787 -0.0001724138
0.0078137033 -0.0040536849 -0.018215517
0.0028683215 -0.0084039811 -0.0051293103
-0.0018792452 -0.0042514256 -0.0001724138
0.0030661367 -0.006624314 -0.019801725
0.0084071495 -0.002471759 -0.019206896
0.0082093338 0.0032627219 -0.011672414
0.0060333661 -0.0044491664 -0.00037068967
0.0016814298 -9.8870361e-05 -0.02
0.0070224423 -0.0046469071 -0.019603448
0.0070224423 -0.002471759 -0.00037068967
-0.00880278 -9.8870361e-05 -0.014448276
0.00880278 0.0012853147 -0.010086207
-0.0020770605 0.0086017214 -0.018017242
0.0034617675 0.0036582034 -0.019801725
0.002472691 0.002471759 -0.0001724138
9.8907636e-05 -0.0014830554 -0.0001724138
-0.00880278 0.00049435179 -0.008103448
-0.002472691 -0.0084039811 -0.014844827
-0.0072202575 -0.0050423886 -0.012663793
0.00049453817 -0.0038559441 -0.0001724138
0.0066268118 -0.0058333515 -0.0090948278
-0.0020770605 0.0086017214 -0.010284483
0.0082093338 -0.0034604627 -0.0086982762
-0.0060333661 0.0064265737 -0.018612068
0.0070224423 0.0042514256 -0.019603448
-0.0022748758 0.0086017214 -0.018215517
-0.00880278 0.00069209252 -0.010086207
-0.0086049642 -0.0018785369 -0.011672414
-0.0022748758 -0.0070197955 -0.019801725
0.0062311813 0.006228833 -0.010681034
0.008011519 0.0036582034 -0.016827587
0.0072202575 -0.0052401293 -0.016034482
0.0028683215 0.0084039811 -0.017224139
0.0068246271 -0.0056356108 -0.0041379309
0.0086049642 -0.0018785369 -0.017818965
0.00029672292 0.0087994626 -0.018215517
-0.0026705062 0.0084039811 -0.0037413794
-0.0062311813 -0.0016807962 -0.00037068967
0.0050442894 -0.002471759 -0.0001724138
0.0020770605 -0.0086017214 -0.014448276
0.0078137033 0.0040536849 -0.017224139
-0.0034617675 -0.0016807962 -0.02
0.0074180728 -0.0046469071 -0.018215517
-0.00069235347 -0.0042514256 -0.0001724138
-0.0062311813 0.006228833 -0.01762069
-0.0034617675 9.8870361e-05 0.0022068967
0.0082093338 -0.0030649812 -0.0065172412
-0.0010879841 0.0087994626 -0.01187069
-0.0062311813 -0.0034604627 -0.00037068967
-0.0064289966 -0.00049435179 -0.019801725
0.0072202575 0.0046469071 -0.019603448
-0.0012857993 -0.0087994626 -0.006715517
-0.0086049642 0.0020762775 -0.0071120691
-0.0034617675 -0.0026694997 -0.02
-0.00029672292 -0.0016807962 -0.02
-0.00880278 0.0010875739 -0.00096551725
0.0046486589 0.007415277 -0.014051724
0.0078137033 0.0042514256 -0.014646552
-0.00029672292 -0.0018785369 -0.02
0.008011519 0.0036582034 -0.0073103448
0.0068246271 -0.0056356108 -0.0069137933
-0.0022748758 -0.0086017214 -0.0096896552
-0.0086049642 0.0020762775 -0.0063189655
-0.0082093338 0.0026694997 -0.0011637931
-0.0054399199 0.0050423886 -0.019801725
-0.007615888 -0.0044491664 -0.014448276
-0.00049453817 -0.0087994626 -0.0092931036
-0.00880278 -0.00049435179 -0.013853448
-0.0066268118 -0.0058333515 -0.0055258619
-0.0054399199 0.0070197955 -0.0053275861
-0.0016814298 0.0086017214 -0.004534483
-0.0042530284 -0.0048446478 -0.00037068967
0.0052421046 -0.006228833 -0.019603448
-0.0044508437 0.0030649812 -0.019801725
0.00880278 0.00029661108 -0.0063189655
0.0010879841 -0.0087994626 -0.0069137933
0.0058355508 -0.0048446478 -0.00037068967
-0.0012857993 -0.0046469071 -0.02
0.0028683215 -9.8870361e-05 -0.02
-0.0030661367 0.0082062399 -0.018017242
0.0082093338 0.0032627219 -0.010681034
-0.0056377356 0.00069209252 -0.019801725
0.0012857993 0.0018785369 -0.0001724138
-0.00069235347 0.0044491664 -0.02
-0.00880278 9.8870361e-05 -0.017025862
-0.00089016877 -0.0050423886 -0.019801725
-0.0056377356 0.0068220547 -0.014448276
-0.0034617675 0.0082062399 -0.008896552
-0.0050442894 -0.0072175362 -0.012663793
-0.00089016877 -0.0087994626 -0.011672414
0.007615888 0.00088983326 -0.00037068967
0.0018792452 -0.006624314 -0.00037068967
-0.0084071495 -0.0028672405 -0.017818965
-0.0054399199 0.0070197955 -0.0055258619
-0.0030661367 0.0082062399 -0.0071120691
0.0036595827 -0.0080084996 -0.017818965
-0.0086049642 0.0022740182 -0.019405173
0.00880278 0.00029661108 -0.018810345
-0.0030661367 0.0052401293 -0.0001724138
0.008011519 0.0034604627 -0.013456897
-0.0020770605 0.00088983326 -0.02
0.00880278 0.00088983326 -0.010482758
0.002472691 0.0084039811 -0.01187069
-0.0064289966 0.0022740182 -0.00037068967
0.00029672292 0.0082062399 -0.00037068967
0.00049453817 -0.0087994626 -0.013258621
-0.0070224423 0.00088983326 -0.019801725
-0.0078137033 -0.0042514256 -0.015043103
0.0086049642 0.0020762775 -0.0077068964
0.002472691 -0.0058333515 -0.019801725
-0.0086049642 0.0016807962 -0.011672414
-0.003263952 -0.0026694997 -0.02
-0.0084071495 -0.0026694997 -0.013456897
0.0052421046 -0.0072175362 -0.016232759
-0.0070224423 0.0026694997 -0.019603448
0.0068246271 -0.0056356108 -0.013060344
0.0046486589 -0.0042514256 -0.0001724138
-0.00880278 -0.00069209252 -0.010482758
-0.0010879841 -0.0028672405 -0.02
0.0060333661 0.0046469071 -0.019603448
0.0028683215 0.006624314 -0.019801725
0.0072202575 -0.0038559441 -0.019603448
0.00880278 -0.00088983326 -0.012663793
-0.0042530284 0.0030649812 -0.0001724138
0.0074180728 -0.0048446478 -0.0083017237
-0.0084071495 0.0026694997 -0.00056896551
-0.0046486589 -0.006624314 -0.019603448
0.0084071495 0.002471759 -0.01187069
-0.0010879841 -0.0087994626 -0.018612068
0.0074180728 0.0046469071 -0.0092931036
-0.0054399199 0.0016807962 -0.0001724138
-0.00049453817 -0.0087994626 -0.016232759
-0.00880278 0.00088983326 -0.017818965
-0.00089016877 -0.0060310923 -0.0001724138
0.0020770605 0.0068220547 -0.00037068967
0.0084071495 0.00029661108 -0.0017586207
0.0060333661 -0.0016807962 -0.019801725
0.0026705062 0.0084039811 -0.010482758
-0.0034617675 0.0018785369 -0.0001724138
-0.0014836146 0.0086017214 -0.011275862
-0.0022748758 -0.0086017214 -0.0075086206
0.0068246271 0.0056356108 -0.0039396551
-0.0086049642 0.0022740182 -0.014844827
-0.0014836146 0.0086017214 -0.0073103448
0.0052421046 0.0072175362 -0.010879311
-0.0022748758 0.0082062399 -0.0019568966
-0.008011519 -0.0022740182 -0.00037068967
-0.0064289966 -0.0060310923 -0.016034482
-0.0012857993 -0.0087994626 -0.0039396551
-0.0074180728 0.0048446478 -0.00056896551
0.0072202575 0.0042514256 -0.00037068967
-0.0086049642 -0.0020762775 -0.017818965
0.0078137033 -0.0040536849 -0.01187069
0.0086049642 0.0018785369 -0.017224139
0.0034617675 -0.0050423886 -0.019801725
0.0022748758 0.007415277 -0.019603448
-0.0058355508 -9.8870361e-05 -0.0001724138
9.8907636e-05 -0.0087994626 -0.018017242
-0.0070224423 0.00543787 -0.01662931
0.0040552132 0.007415277 -0.019603448
-0.0068246271 -0.0056356108 -0.018215517
0.0038573979 0.0080084996 -0.016431034
-0.0068246271 -9.8870361e-05 -0.00037068967
0.00089016877 0.0087994626 -0.008103448
-0.0084071495 -0.002471759 -0.014448276
-0.0046486589 -0.007415277 -0.018810345
-0.0074180728 0.0048446478 -0.0033448276
0.0036595827 0.00029661108 0.00062068965
-0.0072202575 0.0050423886 -0.015836207
-0.0030661367 0.0010875739 -0.0001724138
0.00029672292 -0.0087994626 -0.0079051722
-0.0026705062 -0.0084039811 -0.0059224139
0.0058355508 0.00088983326 -0.0001724138
0.0062311813 0.0058333515 -0.019603448
-0.0040552132 -0.0078107584 -0.004534483
0.0046486589 0.0046469071 -0.019801725
0.0058355508 -0.006624314 -0.0063189655
0.0052421046 0.0046469071 -0.019801725
-0.0034617675 0.0036582034 -0.02
0.0052421046 0.0072175362 -0.016827587
-0.0042530284 -0.0076130177 -0.00096551725
-0.0086049642 -0.0018785369 -0.0069137933
-0.0078137033 -0.0040536849 -0.0047327587
-0.0018792452 0.0086017214 -0.0092931036
0.00880278 -0.0010875739 -0.0096896552
0.0064289966 -0.0056356108 -0.00037068967
-0.0072202575 -0.0050423886 -0.0094913794
0.00069235347 0.0087994626 -0.0033448276
-0.0038573979 0.0012853147 -0.02
0.0072202575 -0.0050423886 -0.010284483
-0.0078137033 -0.0042514256 -0.00076724141
0.0042530284 -0.007415277 -0.0015603448
-0.0068246271 0.0050423886 -0.0013620689
0.0074180728 -0.0048446478 -0.0079051722
-0.00029672292 0.0012853147 -0.02
-0.0044508437 0.0012853147 -0.02
9.8907636e-05 -0.0087994626 -0.0092931036
0.0040552132 -0.0078107584 -0.010086207
0.0072202575 0.0050423886 -0.008896552
0.00880278 0.00088983326 -0.019008622
-0.0040552132 -0.0046469071 -0.0001724138
0.0016814298 0.0016807962 -0.0001724138
0.0086049642 0.0012853147 -0.00037068967
0.0046486589 -0.0028672405 -0.0001724138
-0.00880278 -0.00088983326 -0.01762069
0.0070224423 0.0016807962 -0.00037068967
-0.0074180728 -0.0046469071 -0.01662931
0.00880278 -0.00088983326 -0.0023534482
0.0086049642 0.0012853147 -0.019405173
0.0086049642 0.0018785369 -0.004534483
0.0042530284 -0.0078107584 -0.011474138
-0.0086049642 0.0012853147 -0.01762069
9.8907636e-05 0.0087994626 -0.0059224139
-0.0082093338 0.0034604627 -0.0085000005
-0.0078137033 -0.0038559441 -0.0069137933
0.00069235347 -0.0087994626 -0.014844827
-0.00880278 -9.8870361e-05 -0.00037068967
0.0028683215 -0.0084039811 -0.0031465518
0.0056377356 0.0068220547 -0.00076724141
-0.0028683215 -0.007415277 -0.00037068967
-0.0042530284 0.0032627219 -0.0001724138
-0.0084071495 -0.002471759 -0.011275862
0.0064289966 0.0060310923 -0.016827587
0.0082093338 -0.0032627219 -0.0047327587
0.0048464742 -0.007415277 -0.015241379
0.00049453817 0.0020762775 -0.02
-0.0086049642 -0.0014830554 -0.018413793
-0.00029672292 -0.0086017214 -0.0013620689
-0.0074180728 -0.0046469071 -0.008103448
0.0034617675 0.0076130177 -0.00037068967
0.0014836146 -0.0020762775 -0.02
-0.00049453817 0.002471759 -0.02
-0.002472691 0.0084039811 -0.012663793
0.002472691 0.0060310923 -0.00037068967
-0.0050442894 -0.0072175362 -0.013258621
-0.0018792452 0.0016807962 -0.02
-0.0050442894 0.0010875739 -0.0001724138
0.0084071495 0.0028672405 -0.01563793
0.0034617675 9.8870361e-05 0.0028017242
0.0082093338 0.0032627219 -0.018215517
0.0052421046 -0.0072175362 -0.00275
-0.0060333661 0.0064265737 -0.0037413794
-0.0056377356 0.0068220547 -0.010681034
-0.0058355508 -0.006624314 -0.0069137933
-0.0050442894 0.0072175362 -0.016431034
-0.00880278 -0.00069209252 -0.0077068964
0.0084071495 -0.0028672405 -0.008896552
-0.0038573979 -0.0034604627 -0.019801725
-0.0012857993 0.00069209252 -0.0001724138
-0.0062311813 0.006228833 -0.014844827
0.0030661367 0.0082062399 -0.019008622
-0.0022748758 0.0086017214 -0.010086207
0.0040552132 -0.0030649812 -0.0001724138
-0.0038573979 0.0080084996 -0.008896552
-0.0014836146 0.002471759 -0.02
0.0010879841 0.0064265737 -0.019801725
0.0044508437 -0.0076130177 -0.019008622
-0.0064289966 0.0060310923 -0.015043103
-0.0070224423 -0.0050423886 -0.0011637931
-0.0034617675 -0.00069209252 -0.0001724138
-0.0018792452 -0.0086017214 -0.0023534482
-0.0078137033 0.0040536849 -0.0025517242
-0.00089016877 0.0087994626 -0.0098879309
0.0020770605 0.0042514256 -0.0001724138
-0.008011519 0.0034604627 -0.012267241
-0.00880278 -0.0012853147 -0.010284483
-0.0062311813 -0.006228833 -0.0061206897
0.0036595827 -0.0080084996 -0.010681034
-0.0056377356 -0.0034604627 -0.00037068967
-0.0018792452 0.0086017214 -0.018810345
0.00029672292 0.0087994626 -0.01187069
-0.0010879841 -0.0087994626 -0.013655173
0.0082093338 0.0034604627 -0.0049310345
-0.0042530284 0.0078107584 -0.016034482
0.0034617675 9.8870361e-05 -0.02
-0.0086049642 0.0022740182 -0.0086982762
0.0062311813 0.006228833 -0.014646552
0.0050442894 0.0072175362 -0.0083017237
9.8907636e-05 -0.0034604627 -0.02
-0.0022748758 -0.0010875739 -0.0001724138
0.00880278 0.0012853147 -0.014844827
0.0016814298 -0.006228833 -0.019801725
-0.0068246271 0.0056356108 -0.016232759
0.0042530284 -0.0078107584 -0.0096896552
0.0046486589 -0.007415277 -0.011275862
-0.0072202575 0.0050423886 -0.0086982762
0.002472691 0.0084039811 -0.017025862
0.002472691 0.0064265737 -0.00037068967
0.0082093338 -0.0032627219 -0.0094913794
-0.0070224423 -0.0050423886 -0.00037068967
-0.0046486589 -0.007415277 -0.0079051722
0.0082093338 0.0032627219 -0.010086207
0.0020770605 0.0086017214 -0.012465517
-0.0034617675 -0.0082062399 -0.018215517
-9.8907636e-05 -0.0087994626 -0.0096896552
-0.0044508437 -0.0060310923 -0.00037068967
-0.0056377356 -0.0068220547 -0.0023534482
0.0030661367 -0.002471759 -0.02
-0.0086049642 0.0018785369 -0.006715517
0.0060333661 0.0064265737 -0.018017242
0.0082093338 0.0032627219 -0.0083017237
0.007615888 -0.0044491664 -0.010284483
-0.0050442894 -0.0072175362 -0.0055258619
0.0084071495 0.00069209252 -0.00037068967
-0.0030661367 -0.0016807962 -0.0001724138
-0.003263952 -0.0082062399 -0.010681034
-0.0040552132 -0.0078107584 -0.01187069
-0.0054399199 0.006228833 -0.00037068967
0.00089016877 0.0064265737 -0.019801725
0.0020770605 -0.0086017214 -0.0079051722
-0.003263952 0.0082062399 -0.0041379309
-0.0052421046 0.002471759 -0.019801725
0.0040552132 -0.00029661108 -0.0001724138
-0.0010879841 -0.0087994626 -0.011474138
-0.0012857993 9.8870361e-05 -0.02
-0.0064289966 -0.00543787 -0.0015603448
-0.0018792452 0.0012853147 -0.02
-0.0058355508 0.0034604627 -0.019801725
0.002472691 0.0084039811 -0.018612068
-0.0036595827 -0.0080084996 -0.013060344
-0.0060333661 -0.0064265737 -0.0098879309
-0.00029672292 -0.0084039811 -0.0017586207
0.0062311813 -0.006228833 -0.0096896552
0.0046486589 0.0050423886 -0.019801725
0.00880278 0.0010875739 -0.012267241
-0.00880278 0.0010875739 -0.0049310345
-0.003263952 -0.0078107584 -0.0017586207
-0.0074180728 -0.002471759 -0.019603448
-0.0086049642 -0.0022740182 -0.011672414
-0.0058355508 0.006624314 -0.017025862
-0.002472691 0.0084039811 -0.008896552
0.0086049642 0.0022740182 -0.0051293103
-0.00069235347 0.0010875739 -0.02
0.0064289966 0.0018785369 -0.00037068967
0.00880278 0.0010875739 -0.0071120691
-0.0050442894 0.0030649812 -0.019801725
0.0040552132 -0.0078107584 -0.014844827
0.00049453817 -0.0087994626 -0.0023534482
0.0018792452 -0.0050423886 -0.019801725
0.00089016877 -0.0087994626 -0.012465517
-0.0034617675 0.0052401293 -0.019801725
0.0046486589 0.0042514256 -0.0001724138
0.0050442894 0.0010875739 -0.0001724138
-0.0014836146 -0.0086017214 -0.011474138
0.0026705062 -0.0038559441 -0.02
-0.0060333661 -0.0012853147 -0.019801725
0.0012857993 -0.0087994626 -0.0035431033
-0.00880278 -0.0012853147 -0.017818965
0.007615888 -0.0044491664 -0.0086982762
0.0084071495 -0.00069209252 -0.0015603448
0.0058355508 -0.0046469071 -0.00037068967
0.0078137033 -0.0040536849 -0.00076724141
-0.0036595827 0.0080084996 -0.017422413
-0.0068246271 -0.0056356108 -0.0057241381
-0.0048464742 -0.00088983326 -0.02
0.0010879841 -0.0070197955 -0.019801725
0.0048464742 -0.007415277 -0.01662931
9.8907636e-05 0.0087994626 -0.0079051722
0.0068246271 -0.0056356108 -0.0063189655
-0.0056377356 -0.0050423886 -0.019603448
-0.008011519 0.0038559441 -0.0051293103
-0.0054399199 0.0070197955 -0.0069137933
-0.002472691 0.0084039811 -0.0043362067
-0.0072202575 0.0030649812 -0.019603448
-0.00049453817 -0.0078107584 -0.00037068967
-0.0050442894 0.0056356108 -0.00037068967
-0.00049453817 0.0084039811 -0.019603448
-0.0054399199 -0.0070197955 -0.015043103
0.0028683215 -0.0084039811 -0.0069137933
-0.0016814298 0.0086017214 -0.0096896552
-0.0044508437 0.0072175362 -0.019603448
0.0054399199 -0.0070197955 -0.0075086206
0.0056377356 -0.0068220547 -0.01425
-0.0066268118 0.0058333515 -0.012862069
-0.002472691 0.0072175362 -0.00037068967
-0.0060333661 0.0060310923 -0.0017586207
-0.0046486589 -0.007415277 -0.0096896552
0.00880278 9.8870361e-05 -0.0047327587
0.008011519 0.0036582034 -0.01563793
0.0060333661 -0.0064265737 -0.0051293103
0.00880278 -0.00029661108 -0.0063189655
-0.0082093338 -0.0030649812 -0.0094913794
0.008011519 0.0034604627 -0.011672414
-0.00029672292 0.0087994626 -0.00056896551
-0.008011519 0.0010875739 -0.019603448
0.0046486589 -0.007415277 -0.014646552
0.0084071495 0.002471759 -0.0041379309
0.0028683215 0.0084039811 -0.018810345
-0.0086049642 0.00029661108 -0.019603448
0.00029672292 -0.0012853147 -0.02
0.008011519 0.0038559441 -0.014844827
0.0084071495 0.0028672405 -0.00096551725
-0.0072202575 0.0052401293 -0.013655173
0.0038573979 -9.8870361e-05 0.0020086206
-0.008011519 -0.0036582034 -0.006715517
0.0018792452 0.0086017214 -0.0061206897
-0.0048464742 0.0058333515 -0.00037068967
-0.0018792452 -0.00049435179 -0.0001724138
-0.0086049642 0.0014830554 -0.010086207
0.0022748758 0.0014830554 -0.02
-0.00880278 0.00029661108 -0.011474138
0.0014836146 -0.0086017214 -0.015043103
0.0086049642 -0.0018785369 -0.016232759
0.0066268118 -0.0044491664 -0.019603448
0.00880278 0.00029661108 -0.014448276
-0.0072202575 0.0050423886 -0.0065172412
0.0084071495 0.002471759 -0.017224139
0.0038573979 0.0080084996 -0.017422413
-0.0022748758 -0.0020762775 -0.0001724138
0.0028683215 0.002471759 -0.02
-0.0068246271 0.0034604627 -0.019603448
0.0028683215 0.0080084996 -0.0019568966
-0.0030661367 -0.00543787 -0.019801725
-0.0064289966 0.0060310923 -0.01762069
-0.0028683215 9.8870361e-05 -0.02
-0.0022748758 0.0086017214 -0.019206896
-0.0074180728 0.0048446478 -0.013655173
-0.0036595827 0.0080084996 -0.012068965
-0.00880278 0.00088983326 -0.00096551725
-0.0082093338 -0.0016807962 -0.0017586207
0.0036595827 9.8870361e-05 -0.02
0.0026705062 0.0078107584 -0.00037068967
0.0084071495 0.0028672405 -0.0049310345
-0.00880278 -0.00049435179 -0.0059224139
0.0036595827 0.0080084996 -0.00076724141
0.003263952 0.0082062399 -0.00096551725
0.0042530284 0.0078107584 -0.0057241381
-0.0042530284 -0.0078107584 -0.0031465518
-0.002472691 0.007415277 -0.00037068967
9.8907636e-05 -0.0032627219 -0.0001724138
-0.00069235347 0.0087994626 -0.0055258619
-0.00069235347 -0.0087994626 -0.01662931
0.0082093338 -0.0030649812 -0.0055258619
-0.0086049642 -0.0016807962 -0.012862069
0.00049453817 0.0087994626 -0.0047327587
-0.0020770605 0.006624314 -0.019801725
0.0074180728 0.0046469071 -0.018215517
-0.0038573979 -0.0080084996 -0.0031465518
-0.007615888 -9.8870361e-05 -0.019603448
0.00880278 0.00069209252 -0.01187069
-0.0016814298 -0.0072175362 -0.019801725
0.0082093338 0.0032627219 -0.019405173
0.0046486589 0.00543787 -0.00037068967
0.002472691 -0.0022740182 -0.0001724138
-0.0064289966 0.0060310923 -0.013853448
-0.0084071495 0.0026694997 -0.016232759
0.0070224423 -0.0050423886 -0.00037068967
0.0058355508 -0.006624314 -0.0023534482
0.0026705062 0.0084039811 -0.01563793
0.00069235347 -0.0087994626 -0.0069137933
-0.0086049642 0.0014830554 -0.019405173
0.00069235347 -0.0087994626 -0.0086982762
-0.0082093338 0.0030649812 -0.010879311
-0.0048464742 -0.00049435179 -0.02
-0.0048464742 -0.007415277 -0.0098879309
-0.008011519 -0.002471759 -0.00037068967
-0.0086049642 0.0020762775 -0.00076724141
0.0064289966 0.0060310923 -0.017224139
-0.008011519 0.0038559441 -0.014646552
-0.0084071495 -0.0022740182 -0.0023534482
0.0078137033 0.0042514256 -0.0059224139
-0.0020770605 0.0086017214 -0.013853448
0.0058355508 -0.006624314 -0.0079051722
-0.00880278 0.0010875739 -0.017224139
-0.00089016877 -0.0022740182 -0.02
-0.0020770605 0.0046469071 -0.019801725
0.0044508437 0.0076130177 -0.019206896
0.00069235347 -0.0010875739 -0.0001724138
0.0026705062 -0.002471759 -0.02
9.8907636e-05 0.0076130177 -0.019603448
-0.0086049642 0.0014830554 -0.00076724141
0.00880278 -0.00069209252 -0.0043362067
-0.0034617675 0.0082062399 -0.013456897
0.0084071495 -0.0026694997 -0.0094913794
0.0062311813 0.00069209252 -0.019801725
0.0040552132 0.0078107584 -0.006715517
-0.0052421046 0.0070197955 -0.015439656
-0.0038573979 -0.0050423886 -0.00037068967
0.0060333661 -0.0040536849 -0.019801725
0.0056377356 0.002471759 -0.0001724138
-0.007615888 -0.0044491664 -0.010086207
-0.008011519 0.0038559441 -0.0037413794
-0.0020770605 -0.0086017214 -0.0090948278
0.00029672292 -0.0087994626 -0.017422413
-0.0056377356 -0.0032627219 -0.00037068967
0.0084071495 -0.0028672405 -0.019008622
-0.0058355508 0.006624314 -0.018810345
0.00880278 -0.0010875739 -0.012862069
-0.0084071495 0.0026694997 -0.017025862
-0.0084071495 -0.002471759 -0.01187069
0.0038573979 -0.0076130177 -0.0017586207
0.00049453817 -0.0087994626 -0.0041379309
-0.0084071495 0.0026694997 -0.019206896
-0.002472691 0.0082062399 -0.0017586207
-0.0086049642 -0.0016807962 -0.018413793
0.0078137033 0.0040536849 -0.01563793
0.0044508437 0.0076130177 -0.018215517
-0.0040552132 -0.0078107584 -0.0049310345
-0.0042530284 -0.00088983326 -0.0001724138
0.0084071495 -0.0018785369 -0.0013620689
-0.0022748758 -0.0072175362 -0.019603448
-0.0048464742 0.007415277 -0.0085000005
0.0044508437 0.0052401293 -0.019801725
-0.0036595827 -0.00029661108 0.0018103449
-0.0046486589 0.00049435179 -0.02
0.0046486589 0.007415277 -0.015043103
-0.0016814298 0.0022740182 -0.0001724138
-0.002472691 -0.0032627219 -0.02
0.0082093338 -0.0034604627 -0.014646552
-0.0026705062 -0.0068220547 -0.00037068967
-0.0086049642 -9.8870361e-05 -0.00037068967
0.0052421046 0.0072175362 -0.018215517
-0.0074180728 0.0012853147 -0.00037068967
0.0074180728 0.0046469071 -0.013456897
0.0068246271 0.0042514256 -0.00037068967
-0.0086049642 -0.0016807962 -0.004534483
-0.002472691 -0.0084039811 -0.00037068967
-0.0042530284 0.0078107584 -0.0039396551
0.0086049642 0.0020762775 -0.016431034
-0.007615888 0.0040536849 -0.019603448
-0.008011519 -0.0026694997 -0.00037068967
-0.0042530284 -0.0056356108 -0.019801725
0.0042530284 -0.0026694997 -0.0001724138
-0.0046486589 0.007415277 -0.0021551724
0.0014836146 0.0086017214 -0.013456897
-0.0072202575 0.0012853147 -0.00037068967
-0.0010879841 0.0087994626 -0.0065172412
0.0082093338 0.0020762775 -0.0015603448
0.0022748758 -0.0086017214 -0.015043103
-0.0034617675 0.0044491664 -0.0001724138
-0.0048464742 0.0048446478 -0.019801725
-0.0084071495 -0.0028672405 -0.010482758
-0.0082093338 0.0018785369 -0.0019568966
-0.0044508437 -0.0076130177 -0.019405173
0.0046486589 -0.0048446478 -0.00037068967
0.00069235347 -0.0014830554 -0.0001724138
-0.0072202575 0.0042514256 -0.00037068967
-0.0084071495 -0.002471759 -0.01662931
0.0010879841 0.0087994626 -0.012267241
0.00880278 0.0010875739 -0.0069137933
-0.0060333661 -0.0064265737 -0.0037413794
-0.00069235347 -0.0087994626 -0.0098879309
0.00089016877 -0.0072175362 -0.00037068967
0.008011519 0.0038559441 -0.0079051722
-0.0070224423 0.00543787 -0.0051293103
-0.0058355508 0.0050423886 -0.019603448
0.0084071495 0.0014830554 -0.019603448
0.0020770605 -0.0078107584 -0.00037068967
0.0068246271 0.0056356108 -0.008896552
0.00069235347 -0.0087994626 -0.0079051722
-0.0058355508 -0.006624314 -0.0023534482
0.0022748758 0.0058333515 -0.0001724138
-0.0048464742 -0.007415277 -0.016232759
0.0016814298 0.002471759 -0.02
-0.0052421046 0.0070197955 -0.00056896551
-0.0084071495 -0.0022740182 -0.00056896551
0.0034617675 0.0034604627 -0.019801725
0.0040552132 -0.0078107584 -0.0096896552
-0.0064289966 -0.0060310923 -0.0094913794
0.00880278 0.0012853147 -0.0055258619
-0.0084071495 0.0028672405 -0.014051724
0.0082093338 -0.0032627219 -0.016827587
-0.0086049642 -0.0016807962 -0.011275862
-0.0048464742 -0.007415277 -0.0035431033
0.0072202575 0.0016807962 -0.019801725
-0.0036595827 -0.0080084996 -0.006715517
-0.0044508437 -0.0076130177 -0.016232759
-0.00049453817 0.0087994626 -0.015836207
0.0046486589 -0.006624314 -0.00037068967
-0.0012857993 -0.00088983326 -0.0001724138
0.0074180728 -0.0048446478 -0.00096551725
0.00089016877 -0.0087994626 -0.014646552
-0.0070224423 0.00543787 -0.013258621
-0.0016814298 0.0086017214 -0.019405173
0.00069235347 0.0068220547 -0.019801725
-0.0014836146 0.0064265737 -0.019801725
-0.0084071495 -0.0026694997 -0.0079051722
0.0086049642 -0.0020762775 -0.0059224139
-0.00880278 0.00069209252 -0.011077587
0.00089016877 -0.0087994626 -0.017818965
-0.0058355508 0.006624314 -0.0041379309
0.0086049642 -0.0016807962 -0.0033448276
-0.0086049642 -0.0022740182 -0.0071120691
-0.0064289966 -0.0060310923 -0.0096896552
-0.0074180728 -0.0046469071 -0.017422413
-0.0022748758 0.0086017214 -0.014844827
0.0074180728 0.0048446478 -0.0073103448
0.0018792452 0.0086017214 -0.010086207
0.0070224423 0.00543787 -0.0069137933
-0.00880278 -0.00049435179 -0.008896552
-0.0078137033 -0.0026694997 -0.019603448
-0.0084071495 0.002471759 -0.0055258619
0.0010879841 -0.00543787 -0.019801725
-0.00880278 0.00088983326 -0.018215517
0.0086049642 -0.00029661108 -0.00037068967
0.0082093338 -0.0032627219 -0.0057241381
-0.0042530284 -0.0078107584 -0.013655173
-0.0070224423 -9.8870361e-05 -0.019801725
0.008011519 0.0036582034 -0.00076724141
-0.0020770605 0.0028672405 -0.0001724138
0.0022748758 -0.0086017214 -0.012663793
0.0072202575 -0.0034604627 -0.019603448
0.0010879841 -0.0087994626 -0.015043103
0.002472691 0.0084039811 -0.0037413794
0.00049453817 0.0087994626 -0.017224139
-0.0058355508 0.006624314 -0.0071120691
0.0052421046 -0.0072175362 -0.0071120691
-0.0084071495 0.0028672405 -0.0096896552
0.0086049642 0.0014830554 -0.0063189655
0.0074180728 0.0048446478 -0.012267241
-0.0082093338 -0.0030649812 -0.016431034
-0.008011519 0.0038559441 -0.00056896551
0.0072202575 -0.0052401293 -0.0090948278
-0.0028683215 0.0084039811 -0.0098879309
-0.0078137033 -0.0032627219 -0.0015603448
-0.0016814298 -0.0086017214 -0.017224139
-0.0028683215 -0.0084039811 -0.0061206897
0.0040552132 0.0078107584 -0.012862069
0.0038573979 -0.0080084996 -0.0094913794
-0.0070224423 0.00543787 -0.019008622
-0.0048464742 -0.007415277 -0.012465517
-0.0044508437 -0.0056356108 -0.00037068967
0.0052421046 -0.0056356108 -0.019603448
-0.0030661367 0.006228833 -0.00037068967
0.0010879841 0.0087994626 -0.016827587
0.0068246271 0.0056356108 -0.014844827
-0.0054399199 0.0070197955 -0.014051724
-0.0022748758 0.0060310923 -0.00037068967
-0.0068246271 0.0028672405 -0.00037068967
-0.00089016877 -0.0087994626 -0.017422413
-0.00049453817 -0.002471759 -0.0001724138
0.0082093338 -0.0030649812 -0.012663793
0.00880278 -0.00069209252 -0.0094913794
-9.8907636e-05 -0.0068220547 -0.00037068967
-0.00880278 -9.8870361e-05 -0.0085000005
-0.0012857993 0.0087994626 -0.013853448
0.0082093338 0.0030649812 -0.00096551725
-0.00880278 -0.00069209252 -0.012465517
0.0018792452 -0.0028672405 -0.0001724138
0.00880278 0.0010875739 -0.0029482758
0.0028683215 0.0084039811 -0.0069137933
0.00880278 -0.00049435179 -0.019206896
0.0058355508 0.006624314 -0.0025517242
0.00069235347 0.0087994626 -0.014844827
-0.00880278 0.00088983326 -0.011275862
-0.0026705062 0.0084039811 -0.018612068
-0.00029672292 0.0087994626 -0.0092931036
-0.0068246271 -0.0056356108 -0.0065172412
-0.0014836146 0.0012853147 -0.02
-0.0082093338 -0.0032627219 -0.012465517
-0.0020770605 0.002471759 -0.02
-0.0058355508 0.0064265737 -0.019603448
-0.0040552132 -0.0078107584 -0.0090948278
0.0054399199 0.0070197955 -0.010284483
0.0026705062 0.0058333515 -0.019801725
0.0084071495 -0.0028672405 -0.0057241381
0.0062311813 -0.006228833 -0.018810345
-0.0086049642 0.00069209252 -0.0011637931
0.0078137033 0.0040536849 -0.012862069
-0.0062311813 -0.0012853147 -0.019801725
-0.0050442894 -9.8870361e-05 -0.0001724138
-0.0058355508 -0.0060310923 -0.019603448
-0.00880278 9.8870361e-05 -0.018413793
-0.00029672292 -0.00069209252 -0.0001724138
-0.0018792452 0.0082062399 -0.0019568966
0.0084071495 -0.0028672405 -0.0079051722
-0.0084071495 0.0026694997 -0.010284483
0.0056377356 -0.0028672405 -0.00037068967
0.0018792452 0.0018785369 -0.02
-0.0048464742 0.007415277 -0.0031465518
-0.00029672292 -0.0012853147 -0.0001724138
-0.0084071495 -0.0014830554 -0.019603448
0.0074180728 -0.0048446478 -0.018413793
-0.0078137033 -0.0042514256 -0.018612068
-0.0038573979 -0.0026694997 -0.0001724138
-0.003263952 0.0020762775 -0.0001724138
0.0044508437 -0.0076130177 -0.015043103
0.0084071495 0.0028672405 -0.014844827
0.0010879841 0.0036582034 -0.02
0.0048464742 0.0040536849 -0.019801725
-0.00880278 0.00069209252 -0.014051724
-0.0030661367 0.0082062399 -0.012465517
0.00029672292 -0.0087994626 -0.011672414
0.0042530284 0.0078107584 -0.012862069
0.002472691 0.0084039811 -0.0086982762
-0.0048464742 0.007415277 -0.019405173
0.008011519 -0.0036582034 -0.0059224139
-0.0062311813 -0.006228833 -0.0039396551
0.002472691 -0.0050423886 -0.0001724138
-0.0026705062 0.0084039811 -0.012862069
-0.0072202575 -0.0050423886 -0.00056896551
-0.0086049642 0.0018785369 -0.0055258619
-0.008011519 -0.0034604627 -0.017422413
-0.0020770605 -0.0086017214 -0.010086207
-0.0040552132 0.002471759 -0.0001724138
9.8907636e-05 -0.0087994626 -0.00275
-0.0086049642 0.0022740182 -0.010482758
-0.0018792452 -0.0042514256 -0.02
0.0074180728 -0.0048446478 -0.017422413
0.0078137033 0.0042514256 -0.014448276
0.0074180728 -0.0048446478 -0.012465517
-0.0086049642 0.0014830554 -0.0073103448
-0.0022748758 0.0032627219 -0.02
-0.0084071495 0.002471759 -0.012862069
-0.002472691 -0.0084039811 -0.010284483
0.0050442894 -0.0072175362 -0.013655173
-0.0084071495 -0.0026694997 -0.008896552
9.8907636e-05 -0.0087994626 -0.015241379
-0.0042530284 -0.0078107584 -0.0037413794
-0.00029672292 -0.0087994626 -0.0059224139
-0.00069235347 -0.0028672405 -0.0001724138
0.0064289966 -0.0060310923 -0.0096896552
0.0030661367 0.0010875739 -0.0001724138
0.0072202575 0.00029661108 -0.00037068967
-0.0050442894 -0.0044491664 -0.019801725
0.0044508437 0.0058333515 -0.019801725
-0.0052421046 -0.0070197955 -0.019405173
0.0086049642 0.0016807962 -0.015043103
-0.0082093338 -0.0032627219 -0.018810345
-0.0018792452 0.0086017214 -0.0051293103
0.0012857993 -0.0046469071 -0.02
0.0082093338 -0.0032627219 -0.0053275861
-0.0040552132 0.0012853147 -0.02
0.0060333661 0.0042514256 -0.019801725
0.0062311813 -0.0020762775 -0.00037068967
0.00069235347 -0.0046469071 -0.0001724138
0.00089016877 -0.0087994626 -0.018017242
-0.0068246271 0.0056356108 -0.0039396551
0.0012857993 0.0050423886 -0.019801725
-0.00069235347 -0.0087994626 -0.004534483
-0.0048464742 0.007415277 -0.0079051722
0.0082093338 0.0032627219 -0.0061206897
0.0074180728 -0.0048446478 -0.0057241381
-0.00880278 -0.00049435179 -0.01563793
0.008011519 -0.0038559441 -0.015043103
-0.0030661367 0.0032627219 -0.02
0.0012857993 -0.00088983326 -0.0001724138
-0.002472691 0.0064265737 -0.019801725
-0.0026705062 0.0084039811 -0.017025862
0.008011519 0.0032627219 -0.0021551724
-0.00069235347 -0.0030649812 -0.02
0.0072202575 -0.002471759 -0.019603448
-0.0030661367 -0.0082062399 -0.014646552
-0.00049453817 0.007415277 -0.00037068967
-0.0084071495 -0.0026694997 -0.0065172412
0.0018792452 0.0072175362 -0.00037068967
-0.0050442894 0.0072175362 -0.0096896552
-0.0028683215 0.0072175362 -0.00037068967
-0.00880278 -9.8870361e-05 -0.004534483
-0.00029672292 0.0064265737 -0.019801725
9.8907636e-05 -0.0012853147 -0.0001724138
0.0036595827 -0.0048446478 -0.0001724138
-0.0064289966 -0.0060310923 -0.0033448276
0.00880278 -0.00069209252 -0.013853448
0.0086049642 -0.0018785369 -0.01762069
0.0086049642 0.0016807962 -0.0053275861
-0.0078137033 -0.0040536849 -0.006715517
0.008011519 -0.0036582034 -0.012862069
0.0020770605 0.0010875739 -0.02
-0.0012857993 0.0087994626 -0.013060344
0.0084071495 -0.0026694997 -0.017422413
0.0070224423 0.0052401293 -0.0043362067
-0.00880278 -0.00069209252 -0.013060344
-0.0074180728 0.0048446478 -0.01563793
-0.008011519 0.0038559441 -0.01762069
-0.0016814298 -0.0086017214 -0.0098879309
0.0056377356 -0.0068220547 -0.008103448
0.0058355508 0.006624314 -0.012267241
0.0064289966 0.00049435179 -0.019801725
0.0020770605 -0.0022740182 -0.02
0.00880278 -0.00049435179 -0.0063189655
0.00029672292 0.0038559441 -0.0001724138
0.0040552132 0.0078107584 -0.017025862
0.0072202575 -0.0050423886 -0.0086982762
-0.0058355508 0.0026694997 -0.00037068967
0.007615888 -0.0044491664 -0.0096896552
-0.0054399199 0.0070197955 -0.018612068
-0.0086049642 -0.0022740182 -0.0055258619
-0.008011519 0.0032627219 -0.0011637931
0.0048464742 0.0030649812 -0.0001724138
-0.0026705062 0.0084039811 -0.0057241381
0.0074180728 -0.0040536849 -0.0015603448
0.00880278 0.00049435179 -0.0073103448
-0.007615888 -0.0042514256 -0.0063189655
0.0036595827 0.0080084996 -0.018017242
0.0044508437 0.0026694997 -0.019801725
-0.0086049642 -0.0018785369 -0.017422413
0.0074180728 0.0016807962 -0.00037068967
-0.00029672292 -0.0058333515 -0.019801725
0.0058355508 -0.006624314 -0.0071120691
0.0010879841 0.0087994626 -0.008896552
-0.008011519 -0.0034604627 -0.012068965
-0.003263952 0.0044491664 -0.019801725
-0.0056377356 0.0068220547 -0.0086982762
0.0030661367 -0.0022740182 -0.0001724138
0.008011519 0.0038559441 -0.0090948278
-0.00069235347 0.0087994626 -0.0075086206
0.0086049642 0.0014830554 -0.016431034
-0.0072202575 0.0050423886 -0.013060344
-0.0014836146 -0.0086017214 -0.00096551725
-0.00880278 9.8870361e-05 -0.013060344
0.0056377356 9.8870361e-05 -0.019801725
-0.0014836146 0.0086017214 -0.0057241381
-0.0074180728 0.00029661108 -0.019801725
0.0068246271 0.0056356108 -0.0029482758
0.0054399199 0.0046469071 -0.019801725
-0.0066268118 -0.0058333515 -0.01425
-0.002472691 0.0040536849 -0.02
0.0020770605 0.0086017214 -0.01662931
0.0036595827 -0.0080084996 -0.019405173
0.0042530284 0.0078107584 -0.012465517
0.00880278 0.00069209252 -0.0090948278
-0.0048464742 0.0040536849 -0.00037068967
-0.0010879841 -0.0087994626 -0.0061206897
-0.0056377356 -0.0014830554 -0.019801725
0.00880278 -9.8870361e-05 -0.016232759
-0.0060333661 0.0064265737 -0.013456897
-0.0030661367 0.0056356108 -0.019801725
0.00049453817 -0.0050423886 -0.019801725
-0.0086049642 -0.0020762775 -0.012663793
0.0084071495 -0.0010875739 -0.0019568966
0.0072202575 0.0050423886 -0.013456897
0.0074180728 -0.0048446478 -0.0025517242
0.0040552132 0.00088983326 -0.02
0.0060333661 0.0064265737 -0.0063189655
-0.0034617675 0.0050423886 -0.0001724138
0.008011519 0.00088983326 -0.00037068967
-0.00089016877 -0.0064265737 -0.00037068967
0.0054399199 0.0070197955 -0.014844827
0.0060333661 -0.0064265737 -0.014051724
0.0042530284 0.0078107584 -0.0039396551
0.0072202575 0.0052401293 -0.0071120691
-0.0086049642 -0.0018785369 -0.018413793
0.002472691 0.0068220547 -0.019801725
0.0020770605 0.0046469071 -0.019801725
0.0054399199 -0.0070197955 -0.014844827
0.0074180728 -0.0046469071 -0.00275
0.0036595827 0.0080084996 -0.016827587
0.0038573979 -0.0080084996 -0.013853448
-0.0060333661 -0.0048446478 -0.00037068967
-0.0050442894 0.0072175362 -0.0053275861
0.0086049642 -0.0014830554 -0.0033448276
-0.0050442894 -0.0056356108 -0.00037068967
-0.00880278 9.8870361e-05 -0.016827587
-0.0078137033 -0.0042514256 -0.019008622
0.003263952 -0.0078107584 -0.0015603448
0.0056377356 0.0068220547 -0.013853448
0.0050442894 -0.0032627219 -0.0001724138
0.0022748758 0.0026694997 -0.02
0.0068246271 -0.0044491664 -0.00037068967
0.0064289966 0.0060310923 -0.018612068
0.0064289966 0.0010875739 -0.00037068967
-0.0056377356 -0.0068220547 -0.015241379
-0.0054399199 -0.0070197955 -0.00076724141
0.00880278 0.0010875739 -0.011275862
0.0026705062 0.00029661108 -0.02
-0.0072202575 -0.00029661108 -0.00037068967
0.0084071495 0.0028672405 -0.0063189655
0.00880278 -0.0012853147 -0.019405173
0.0044508437 0.0076130177 -0.0043362067
0.008011519 0.0036582034 -0.008103448
-0.0074180728 -0.0048446478 -0.0023534482
0.00880278 0.00029661108 -0.0035431033
-0.0020770605 -0.0084039811 -0.0021551724
0.0086049642 -0.0014830554 -0.0055258619
0.002472691 -0.0084039811 -0.004534483
0.003263952 -0.0012853147 -0.02
0.0018792452 0.0084039811 -0.00037068967
0.0050442894 0.0068220547 -0.0017586207
0.0070224423 0.00543787 -0.006715517
-0.0078137033 0.0042514256 -0.010681034
-0.0074180728 -0.002471759 -0.00037068967
-0.00089016877 0.0084039811 -0.019603448
0.008011519 -0.0038559441 -0.0053275861
-0.0052421046 0.0070197955 -0.013655173
0.0048464742 -0.0042514256 -0.019801725
-0.008011519 0.0012853147 -0.00037068967
-0.0018792452 0.0034604627 -0.0001724138
-0.0048464742 -0.0046469071 -0.00037068967
-0.00880278 0.00088983326 -0.015836207
0.0060333661 0.0064265737 -0.0037413794
0.0072202575 0.0052401293 -0.018215517
0.0074180728 0.0040536849 -0.019603448
0.0086049642 -0.0018785369 -0.017422413
-0.0042530284 0.00088983326 -0.02
0.0084071495 -0.0026694997 -0.0055258619
0.0026705062 -0.0014830554 -0.02
0.0018792452 -0.0086017214 -0.008103448
0.0042530284 -0.0020762775 -0.019801725
-0.00089016877 -0.00543787 -0.019801725
-9.8907636e-05 -0.0034604627 -0.02
-0.0046486589 0.0016807962 -0.0001724138
0.0078137033 0.0036582034 -0.019603448
-0.0022748758 -0.0014830554 -0.02
0.0028683215 0.0078107584 -0.00037068967
0.0010879841 -0.0048446478 -0.02
-0.00069235347 -0.0048446478 -0.02
-0.0070224423 0.0052401293 -0.017224139
0.007615888 0.00049435179 -0.019603448
0.00880278 0.00049435179 -0.0033448276
-0.0066268118 -0.0030649812 -0.00037068967
-0.0040552132 -0.0078107584 -0.0073103448
-0.007615888 -0.0042514256 -0.0037413794
0.0012857993 -0.0022740182 -0.02
0.0022748758 -0.0086017214 -0.008896552
-0.0060333661 0.0010875739 -0.019801725
-0.0056377356 -0.0068220547 -0.0069137933
0.0056377356 -0.0068220547 -0.00076724141
0.0074180728 -0.0048446478 -0.0039396551
-0.0054399199 -0.0064265737 -0.0015603448
-0.0086049642 0.0020762775 -0.0031465518
0.0046486589 0.0040536849 -0.0001724138
-0.00029672292 0.0087994626 -0.013060344
-0.0036595827 -0.0022740182 -0.02
0.0014836146 0.0082062399 -0.019603448
-0.008011519 -0.0034604627 -0.0059224139
-0.0034617675 -0.0082062399 -0.006715517
-0.0054399199 -0.0070197955 -0.013853448
0.0060333661 -0.0064265737 -0.0055258619
0.0050442894 0.0072175362 -0.010482758
-0.0014836146 -0.0086017214 -0.0033448276
-0.0034617675 -0.0082062399 -0.013258621
-0.0010879841 0.006624314 -0.00037068967
0.0020770605 -0.0086017214 -0.018810345
0.0072202575 -0.0050423886 -0.011672414
0.0018792452 -0.0068220547 -0.019801725
0.0074180728 0.0046469071 -0.0041379309
-0.00880278 -9.8870361e-05 -0.0092931036
-0.0048464742 0.0032627219 -0.0001724138
-0.008011519 -0.0036582034 -0.0083017237
-0.0084071495 0.0028672405 -0.01563793
-0.0084071495 -0.0028672405 -0.016034482
0.0082093338 0.0034604627 -0.014646552
0.0068246271 0.0056356108 -0.0063189655
-0.0078137033 0.0042514256 -0.0077068964
-0.0018792452 0.0058333515 -0.019801725
0.0058355508 -0.006624314 -0.018215517
-0.0030661367 -0.0056356108 -0.00037068967
-0.0074180728 0.0046469071 -0.013258621
0.00049453817 0.0087994626 -0.018612068
-0.0054399199 -0.0038559441 -0.00037068967
0.0046486589 0.0070197955 -0.0017586207
0.00089016877 0.0087994626 -0.00076724141
0.0082093338 -0.0032627219 -0.017818965
-0.0044508437 -0.0076130177 -0.016827587
-0.0084071495 0.002471759 -0.0098879309
-0.00880278 -0.0010875739 -0.0073103448
0.0086049642 0.0018785369 -0.014448276
0.0084071495 0.0028672405 -0.010086207
0.0048464742 0.007415277 -0.0065172412
0.0086049642 0.0022740182 -0.00076724141
-0.0048464742 0.007415277 -0.012663793
-0.00880278 0.00088983326 -0.0031465518
-0.007615888 -0.0044491664 -0.0086982762
9.8907636e-05 -0.0087994626 -0.00076724141
-0.0068246271 0.00088983326 -0.019801725
-0.0086049642 0.0014830554 -0.0039396551
0.0016814298 -0.0086017214 -0.01563793
-0.0022748758 -0.0086017214 -0.00096551725
-0.0054399199 -0.0070197955 -0.0047327587
