# .PCD v0.7 - Point Cloud Data file format
VERSION 0.7
FIELDS x y z
SIZE 4 4 4
TYPE F F F
COUNT 1 1 1
WIDTH 1228
HEIGHT 1
VIEWPOINT 0 0 0 1 0 0 0
POINTS 1228
DATA ascii
0.00079037872 -0.006095991 -0.0095279999
-0.0061074719 0.0005020228 -0.011976
0.0013651996 -0.0012191982 -2.4000001e-05
-0.0059637665 -0.0015060684 -0.010968
-0.0061074719 -0.0010757631 -0.0020399999
-0.0039518937 0.0005020228 -0.000168
-0.0055326512 -0.002796984 -0.0072240001
-0.0059637665 0.0012191982 -0.004344
-0.0019400205 0.0058091208 -0.011976
0.0059637665 0.0013626333 -0.01356
-0.0059637665 -0.0012191982 -0.014712
-0.0061074719 -0.00093232805 -0.0075119999
0.0055326512 0.0012191982 -0.00031199999
0.0030896622 0.0048050755 -0.014712
0.0020837258 -0.0023666788 -2.4000001e-05
0.0046704197 0.003944465 -0.010824
0.0026585467 0.0019363737 -2.4000001e-05
-0.0032333676 -0.0046616402 -0.014712
0.004239304 0.0022232437 -0.014712
0.00079037872 -0.006095991 -0.013416
-0.0020837258 -0.0058091208 -0.0095279999
-0.0028022518 -0.0005020228 -0.000168
0.00050296827 -0.006095991 -0.0050639999
0.0061074719 0.00064545788 -0.003336
-0.0061074719 0.00093232805 -0.0062159998
-0.0058200615 0.0019363737 -0.013272
0.0052452404 -0.0032272893 -0.0020399999
0.0051015355 -0.0035141595 -0.012408
0.0045267143 0.0030838542 -0.00031199999
0.0020837258 -0.0058091208 -0.01284
-0.0020837258 0.0015060684 -2.4000001e-05
0.0039518937 0.0030838542 -0.014712
0.0036644831 -0.0032272893 -0.014712
-0.0043830094 -0.0032272893 -0.014712
0.00079037872 -0.0045182053 -0.014712
-0.0028022518 0.0055222507 -0.002472
-0.0049578301 -7.1717543e-05 -0.014712
0.00079037872 0.0055222507 -0.014712
-0.0025148413 -0.005665686 -0.00636
0.0040955986 0.0040878998 -0.00132
-0.0053889458 0.0029404191 -0.01356
-0.0061074719 0.0010757631 -0.0065040002
-0.0015089049 0.003944465 -0.014712
-0.00050296827 0.0038010296 -2.4000001e-05
0.00035926304 -0.006095991 -0.0031920001
-0.0046704197 -0.003944465 -0.0052080001
0.0026585467 0.0053788158 -0.0114
0.0015089049 0.0059525562 -0.0069360002
-0.00165261 0.0059525562 -0.0080880001
0.002945957 -0.0053788158 -0.0026159999
-0.0052452404 -7.1717543e-05 -0.00031199999
-0.0022274309 -0.0029404191 -0.014856
0.0048141247 0.0013626333 -0.014712
-0.0046704197 0.0040878998 -0.007944
0.0058200615 0.00078889297 -0.00132
-0.0043830094 -0.0036575946 -0.00031199999
0.0058200615 -0.0016495035 -0.0027600001
0.0039518937 -0.0040878998 -0.014712
0.00165261 0.0059525562 -0.0037680001
-0.0051015355 -0.0033707244 -0.012264
-0.0028022518 -0.0013626333 -2.4000001e-05
-0.002945957 -0.0010757631 -2.4000001e-05
-0.0019400205 -0.0058091208 -0.00348
0.004239304 0.0045182053 -0.0085199997
-0.0046704197 0.0040878998 -0.0044880002
-0.0012214944 0.0059525562 -0.0031920001
-0.0058200615 -0.0020798086 -0.0085199997
-0.0026585467 -0.0055222507 -0.012696
-0.0055326512 -0.0019363737 -0.001176
-0.00165261 0.00035858771 -0.000168
-0.0052452404 0.0030838542 -0.0092399996
0.0059637665 -0.0012191982 -0.012696
0.00165261 -0.0015060684 -2.4000001e-05
0.0052452404 0.0012191982 -0.00031199999
-0.0019400205 0.0053788158 -0.00031199999
-0.0023711361 -0.005665686 -0.01428
0.00021555783 0.0005020228 -0.015
0.0010777891 -0.00078889297 -2.4000001e-05
0.00079037872 0.0015060684 -2.4000001e-05
0.0026585467 -0.0055222507 -0.013416
0.0058200615 -0.0015060684 -0.00348
-0.0015089049 0.0058091208 -0.0114
0.0043830094 0.00437477 -0.013128
-0.0056763561 -0.0020798086 -0.014712
0.0013651996 0.0059525562 -0.010968
-0.00035926304 -0.006095991 -0.0026159999
0.0013651996 0.0048050755 -0.00031199999
-0.0036644831 0.0049485103 -0.001896
-0.0049578301 0.0012191982 -0.014712
-0.0055326512 -0.002653549 -0.013992
0.0013651996 0.0059525562 -0.0056400001
0.002945957 -0.0032272893 -0.000168
-0.0017963153 -0.0058091208 -0.010968
-0.0061074719 -0.00078889297 -0.0076560001
0.0051015355 0.0035141595 -0.0092399996
-0.0055326512 -0.002796984 -0.013848
0.0045267143 0.003944465 -0.00088800001
-0.0061074719 -7.1717543e-05 -0.0080880001
-0.002945957 0.0013626333 -2.4000001e-05
-0.0049578301 0.0017929386 -0.014712
-0.0032333676 0.0050919456 -0.001608
-0.0020837258 0.0058091208 -0.010536
-0.0058200615 0.0017929386 -0.0056400001
-0.0056763561 0.0025101139 -0.011544
-0.0013651996 -0.0059525562 -0.0080880001
-0.0038081883 0.0048050755 -0.0020399999
-0.002945957 0.0053788158 -0.004344
0.0061074719 -0.00021515263 -0.012408
0.0022274309 -0.005665686 -0.00636
-0.0039518937 0.0046616402 -0.0075119999
0.00093408395 0.006095991 -0.01212
0.0033770727 0.0050919456 -0.0037680001
0.0051015355 -0.0033707244 -0.0098160002
0.0022274309 0.0049485103 -0.014712
0.0015089049 -0.0017929386 -2.4000001e-05
-0.0022274309 0.00437477 -0.014712
0.0056763561 -0.0022232437 -0.0098160002
-0.0019400205 0.005665686 -0.00088800001
-0.0055326512 -0.00035858771 -0.00031199999
-0.00035926304 -0.0005020228 -0.015
0.00035926304 0.006095991 -0.01068
0.0045267143 0.0015060684 -0.00031199999
-0.0059637665 -0.0015060684 -0.0089520002
0.0052452404 0.0032272893 -0.011832
0.002945957 0.0053788158 -0.0073680002
-0.0028022518 -0.0055222507 -0.010248
0.0048141247 0.00021515263 -0.00031199999
-0.00035926304 0.0017929386 -2.4000001e-05
-0.0038081883 -0.0048050755 -0.011832
0.0055326512 0.0023666788 -0.0072240001
0.0019400205 0.0022232437 -0.014856
7.1852613e-05 0.0050919456 -0.00031199999
0.0059637665 0.0013626333 -0.0052080001
-0.0013651996 0.0059525562 -0.013416
0.0040955986 -0.0045182053 -0.0027600001
-0.0053889458 -0.0029404191 -0.002472
0.0043830094 0.0042313351 -0.014712
0.0059637665 0.0015060684 -0.0037680001
-0.0030896622 0.0053788158 -0.010104
0.0026585467 7.1717543e-05 0.00083999999
0.0019400205 -0.0058091208 -0.012408
-0.0055326512 0.002653549 -0.007944
-0.0053889458 0.002653549 -0.00031199999
0.0032333676 0.0033707244 -0.014712
-0.0020837258 -0.0015060684 -2.4000001e-05
-0.00021555783 -0.0052353805 -0.014712
-0.0032333676 0.0052353805 -0.0089520002
-0.0056763561 0.0022232437 -0.0085199997
-0.0026585467 -0.0055222507 -0.0083760004
-0.0028022518 -0.0022232437 -0.014856
0.0046704197 0.003944465 -0.002328
-0.0039518937 0.003944465 -0.014712
0.0026585467 -7.1717543e-05 0.000696
-0.0049578301 -0.0036575946 -0.0065040002
0.0056763561 -0.0022232437 -0.0036239999
-0.0056763561 0.0025101139 -0.0056400001
-0.0049578301 -0.0036575946 -0.0053519998
-0.0051015355 0.0035141595 -0.0040560002
-0.0048141247 0.0032272893 -0.014712
-0.0025148413 -0.005665686 -0.0021840001
-0.0022274309 0.0036575946 -0.014712
0.0025148413 0.00021515263 0.001416
-0.00035926304 0.002653549 -2.4000001e-05
-0.0030896622 0.0053788158 -0.0070799999
0.0039518937 0.0046616402 -0.0065040002
-0.0012214944 0.0059525562 -0.006792
-0.0026585467 -0.0035141595 -0.000168
0.0025148413 0.0055222507 -0.0082320003
0.00165261 0.002653549 -0.014856
-0.0049578301 -0.0036575946 -0.0095279999
-0.002945957 0.0025101139 -2.4000001e-05
-0.0017963153 -0.0030838542 -0.014856
-0.0039518937 -0.0045182053 -0.00088800001
-0.0038081883 -0.0020798086 -0.000168
-0.0017963153 -0.0058091208 -0.013128
-0.0056763561 0.0023666788 -0.002472
-0.0033770727 0.0050919456 -0.0065040002
0.0049578301 -0.00093232805 -0.00031199999
0.0058200615 -0.0017929386 -0.0070799999
0.0020837258 -0.0012191982 -0.014856
0.0058200615 -0.0015060684 -0.014424
0.0059637665 -0.0005020228 -0.014568
0.0061074719 7.1717543e-05 -0.0080880001
-0.0056763561 -0.0010757631 -0.001176
-0.0058200615 0.0019363737 -0.0077999998
0.0049578301 -0.0032272893 -0.001464
0.00079037872 -0.006095991 -0.014424
-0.0059637665 0.0016495035 -0.010536
-0.0048141247 -0.0038010296 -0.0090960003
-0.0025148413 -0.0050919456 -0.014712
-0.0059637665 0.0012191982 -0.010392
0.0061074719 0.00093232805 -0.0052080001
0.0017963153 0.0058091208 -0.0065040002
0.0032333676 0.0036575946 -0.00031199999
0.00021555783 0.006095991 -0.0083760004
-0.0010777891 -0.0059525562 -0.0072240001
-0.0032333676 0.0052353805 -0.002904
-0.0022274309 0.0033707244 -0.014712
-0.0059637665 -0.0005020228 -0.001464
0.0058200615 -0.0016495035 -0.0090960003
0.0058200615 0.0019363737 -0.0070799999
-0.0033770727 -0.00093232805 -0.014856
0.00064667349 -0.006095991 -0.0027600001
0.0022274309 0.00021515263 -0.014856
0.0061074719 0.00035858771 -0.013272
0.0017963153 -0.0059525562 -0.0065040002
0.0051015355 -0.0020798086 -0.00031199999
-0.0051015355 -0.0033707244 -0.0044880002
-0.0059637665 -0.00035858771 -0.00348
-0.00093408395 0.0045182053 -0.00031199999
-0.0028022518 0.0055222507 -0.0046319999
-0.0059637665 0.0016495035 -0.011688
0.00035926304 0.006095991 -0.00348
0.002945957 0.0053788158 -0.013992
0.0020837258 0.0058091208 -0.0031920001
0.0035207779 0.002653549 -0.014712
-0.0012214944 -0.005665686 -0.014712
0.00035926304 0.00035858771 -2.4000001e-05
-0.0033770727 -0.0050919456 -0.012696
0.00050296827 -0.0059525562 -0.001608
-0.0030896622 -0.003944465 -0.00031199999
0.0061074719 0.00021515263 -0.0037680001
0.0025148413 -0.005665686 -0.004776
0.0030896622 0.0052353805 -0.005928
-0.0038081883 0.0048050755 -0.0054959999
0.0022274309 0.005665686 -0.0070799999
-0.0032333676 0.00021515263 -2.4000001e-05
-0.0020837258 -0.0045182053 -0.00031199999
-0.00050296827 -0.0029404191 -0.014856
-0.00021555783 0.006095991 -0.0056400001
0.00079037872 -0.006095991 -0.011688
0.0017963153 -0.0013626333 -0.014856
0.0032333676 0.0010757631 -2.4000001e-05
-0.0013651996 -0.00035858771 -0.015
0.0025148413 0.0016495035 -2.4000001e-05
0.00035926304 -0.0045182053 -0.00031199999
-0.002945957 0.0053788158 -0.002472
-0.0026585467 7.1717543e-05 0.00040799999
0.00050296827 -0.006095991 -0.003336
0.0061074719 0.00064545788 -0.012984
0.0023711361 -0.0019363737 -0.014856
-0.00165261 -0.0059525562 -0.0066479999
-7.1852613e-05 0.0012191982 -0.015
-0.0051015355 -0.0033707244 -0.01068
-0.0040955986 0.0010757631 -0.014712
-0.00064667349 0.006095991 -0.0099600004
0.0036644831 0.0049485103 -0.011688
-0.0039518937 -0.0046616402 -0.010536
-0.00079037872 -0.0059525562 -0.0066479999
-0.0028022518 0.0055222507 -0.0076560001
0.0053889458 -0.0029404191 -0.0026159999
-0.0015089049 -0.0059525562 -0.011976
0.0028022518 0.0053788158 -0.0037680001
0.0020837258 0.0050919456 -0.00031199999
-0.0058200615 0.0019363737 -0.011112
-0.0025148413 7.1717543e-05 0.0024240001
0.0049578301 0.0036575946 -0.0099600004
0.0061074719 -7.1717543e-05 -0.0050639999
0.00021555783 -0.006095991 -0.005928
0.0061074719 -0.00064545788 -0.0054959999
-0.0026585467 7.1717543e-05 -0.014856
-0.0038081883 0.0048050755 -0.00636
0.0028022518 0.0013626333 -2.4000001e-05
-0.0012214944 0.0015060684 -0.015
-0.0028022518 0.0055222507 -0.0052080001
0.00064667349 -0.006095991 -0.010824
-0.00064667349 0.0038010296 -0.014856
-0.0052452404 0.0030838542 -0.00060000003
0.0015089049 -0.0050919456 -0.00031199999
-0.0056763561 -0.0022232437 -0.003336
-0.0059637665 -0.00064545788 -0.0031920001
0.0043830094 0.00437477 -0.005928
-0.0045267143 -0.0025101139 -0.00031199999
-0.0048141247 -0.0038010296 -0.014424
-0.0061074719 0.0005020228 -0.0057839998
-0.00064667349 0.006095991 -0.012408
-0.0051015355 -0.0035141595 -0.0054959999
0.0051015355 0.0035141595 -0.012264
0.0028022518 0.0050919456 -0.014712
-0.0046704197 0.003944465 -0.0098160002
-0.0019400205 0.0012191982 -0.014856
0.0033770727 0.0012191982 -0.014856
-0.00165261 -0.0059525562 -0.010536
0.0049578301 -0.0036575946 -0.012984
-0.00093408395 0.0059525562 -0.00088800001
0.0055326512 -0.002653549 -0.012408
-0.00064667349 -0.0040878998 -0.000168
-0.00064667349 -0.0010757631 -2.4000001e-05
-0.0053889458 0.0030838542 -0.006792
0.0012214944 -0.0048050755 -0.014712
0.0032333676 0.0019363737 -0.014856
0.0010777891 0.006095991 -0.0082320003
0.0013651996 -7.1717543e-05 -2.4000001e-05
0.002945957 0.002653549 -0.014856
0.0012214944 -0.0059525562 -0.0082320003
0.0012214944 -0.0059525562 -0.013416
-0.0019400205 0.0058091208 -0.0057839998
-0.0017963153 -0.0058091208 -0.0093839997
-0.0036644831 -0.0016495035 -2.4000001e-05
-0.00064667349 -0.0042313351 -0.000168
-0.004239304 -0.0022232437 -0.00031199999
0.0017963153 -0.00093232805 -0.014856
-0.0043830094 -0.0042313351 -0.012408
-0.0055326512 -0.002796984 -0.0060720001
0.0028022518 0.0016495035 -0.014856
0.0061074719 -7.1717543e-05 -0.012984
0.002945957 -0.0042313351 -0.014712
-0.00021555783 -0.0059525562 -0.001464
-0.0059637665 0.0012191982 -0.00060000003
-0.00079037872 0.0053788158 -0.014712
0.0013651996 0.005665686 -0.014712
0.0015089049 -0.00437477 -0.014712
-0.0052452404 -0.0032272893 -0.01428
0.0059637665 0.0016495035 -0.01428
-0.0059637665 0.0016495035 -0.013848
-0.0055326512 0.002653549 -0.0073680002
0.0033770727 -0.0050919456 -0.00348
0.0010777891 -0.0005020228 -0.015
0.0012214944 0.0059525562 -0.0098160002
0.00165261 0.0010757631 -2.4000001e-05
-0.0043830094 0.0032272893 -0.00031199999
0.0035207779 0.0029404191 -0.00031199999
0.0061074719 7.1717543e-05 -0.014424
0.00079037872 0.006095991 -0.011688
-0.0051015355 -0.0032272893 -0.00074400002
-0.0019400205 -0.00035858771 -0.014856
-0.0056763561 0.0023666788 -0.013128
0.00050296827 0.006095991 -0.014424
-0.0052452404 -0.0032272893 -0.0036239999
-0.00050296827 0.0022232437 -0.014856
0.0022274309 -0.005665686 -0.0041999999
-0.0019400205 7.1717543e-05 -0.014856
-0.00021555783 -0.006095991 -0.0021840001
-0.00050296827 -0.006095991 -0.0031920001
-0.0035207779 0.0012191982 -0.014856
-0.00093408395 -0.00064545788 -0.015
-0.0059637665 -0.0013626333 -0.010392
-0.0059637665 -0.0012191982 -0.0040560002
0.0035207779 -0.002653549 -0.014712
-0.0035207779 -0.0048050755 -0.001464
-0.0059637665 -0.00064545788 -0.001608
-0.0056763561 0.0023666788 -0.007944
-0.0045267143 -0.0016495035 -0.014712
-0.00050296827 -0.006095991 -0.0054959999
0.0046704197 0.003944465 -0.0036239999
-0.0020837258 -0.0045182053 -0.014712
-0.0023711361 -0.005665686 -0.0046319999
-0.0059637665 -0.0012191982 -0.011688
0.0030896622 -0.0052353805 -0.0027600001
0.0039518937 -0.0033707244 -0.014712
0.0055326512 0.002653549 -0.0037680001
0.0030896622 0.0042313351 -0.00031199999
0.0052452404 0.00035858771 -0.00031199999
0.0056763561 0.0025101139 -0.0083760004
-0.0059637665 -0.0013626333 -0.011832
0.00035926304 -0.006095991 -0.006792
-0.0046704197 0.0010757631 -0.00031199999
-0.00165261 0.0058091208 -0.00074400002
0.0040955986 -0.0045182053 -0.0036239999
-0.0020837258 -0.0022232437 -2.4000001e-05
0.0046704197 -0.0012191982 -0.014712
-0.0043830094 0.00437477 -0.0056400001
0.0058200615 -0.0015060684 -0.0030479999
0.0020837258 -0.0058091208 -0.0075119999
7.1852613e-05 -0.0010757631 -0.015
0.002945957 0.0052353805 -0.00074400002
-0.0048141247 0.0038010296 -0.011832
7.1852613e-05 -0.0048050755 -0.00031199999
0.0059637665 -0.0012191982 -0.011112
0.0025148413 -0.0053788158 -0.0010319999
-0.0039518937 -0.0046616402 -0.005928
-0.0049578301 0.0035141595 -0.00088800001
-0.0059637665 0.0013626333 -0.010248
-0.00021555783 -0.006095991 -0.011688
0.0039518937 -0.0046616402 -0.004344
0.0028022518 0.0005020228 -0.014856
0.0053889458 0.0015060684 -0.00031199999
-0.0038081883 -0.0048050755 -0.01284
-0.0045267143 -0.00035858771 -0.00031199999
-0.0033770727 0.0050919456 -0.0021840001
-0.0056763561 0.0020798086 -0.00045600001
0.0020837258 0.0058091208 -0.0069360002
-0.0026585467 -0.0055222507 -0.0041999999
0.0059637665 7.1717543e-05 -0.0010319999
0.0036644831 0.0049485103 -0.00636
-0.0056763561 0.0023666788 -0.0076560001
-0.0036644831 -0.0023666788 -0.014712
0.0056763561 -0.00093232805 -0.001176
-0.0058200615 -0.0017929386 -0.0052080001
0.002945957 0.0053788158 -0.002328
-0.0012214944 -0.0058091208 -0.00031199999
0.0061074719 -0.0010757631 -0.002328
0.0056763561 -0.0022232437 -0.00060000003
-0.0012214944 -0.0023666788 -2.4000001e-05
-7.1852613e-05 0.0016495035 -2.4000001e-05
0.0035207779 0.0035141595 -0.00031199999
0.0048141247 -0.0038010296 -0.014568
0.0039518937 -0.0046616402 -0.005928
0.0013651996 -0.0048050755 -0.014712
-0.0051015355 0.0035141595 -0.0089520002
-0.0019400205 0.0058091208 -0.013704
0.0038081883 -0.0048050755 -0.0066479999
0.0053889458 0.0029404191 -0.0060720001
0.0059637665 -0.0012191982 -0.0066479999
-0.00165261 7.1717543e-05 -2.4000001e-05
-0.0035207779 0.0050919456 -0.0080880001
-0.0033770727 -0.0050919456 -0.012408
-0.0046704197 -0.003944465 -0.0089520002
0.00079037872 0.006095991 -0.001896
0.0038081883 -0.0048050755 -0.0036239999
-7.1852613e-05 -0.00437477 -0.014712
0.0056763561 -0.0020798086 -0.0092399996
0.0010777891 -0.0055222507 -0.00031199999
0.00050296827 0.0029404191 -2.4000001e-05
0.00093408395 -0.0048050755 -0.00031199999
0.0061074719 -0.00064545788 -0.01356
0.0061074719 0.00078889297 -0.010104
0.0061074719 0.00021515263 -0.0083760004
0.0051015355 -0.0035141595 -0.0080880001
-0.0058200615 0.0020798086 -0.0072240001
0.0026585467 0.0053788158 -0.01356
-0.00035926304 0.0046616402 -0.00031199999
-0.0012214944 0.003944465 -0.000168
0.0052452404 0.0030838542 -0.00045600001
0.0051015355 -0.0035141595 -0.006792
-0.0055326512 -0.0022232437 -0.014712
-0.0032333676 0.0052353805 -0.0077999998
-0.0015089049 0.0059525562 -0.012264
-0.0052452404 -0.0032272893 -0.0098160002
0.0026585467 -0.0030838542 -0.014712
-0.0055326512 0.002653549 -0.0092399996
-0.0025148413 -0.005665686 -0.01212
0.0056763561 0.0016495035 -0.00031199999
-0.0013651996 0.00035858771 -0.000168
-0.0036644831 -7.1717543e-05 -0.014856
-0.00165261 -0.0059525562 -0.00348
-0.0058200615 -0.0019363737 -0.010104
-0.0059637665 -0.00064545788 -0.01284
0.00064667349 0.00437477 -0.000168
-0.0055326512 -0.002653549 -0.013848
-0.0059637665 -0.0015060684 -0.0095279999
-0.00050296827 -0.0059525562 -0.0010319999
0.0022274309 0.0022232437 -0.014856
-7.1852613e-05 0.005665686 -0.014712
0.00064667349 0.006095991 -0.012552
-0.0033770727 -0.0050919456 -0.014136
-0.00050296827 0.003944465 -2.4000001e-05
0.0030896622 -0.0052353805 -0.014424
-0.0035207779 -0.0050919456 -0.0052080001
0.0026585467 0.0036575946 -0.014712
-0.0046704197 0.003944465 -0.0066479999
0.0058200615 -0.0015060684 -0.0062159998
0.0025148413 0.0055222507 -0.0021840001
-0.0025148413 -0.0040878998 -0.00031199999
0.0055326512 -0.002653549 -0.0083760004
0.0055326512 -0.0017929386 -0.00031199999
0.0017963153 -0.0013626333 -2.4000001e-05
0.0036644831 -0.0048050755 -0.0054959999
-0.0038081883 0.0048050755 -0.013848
0.0046704197 0.003944465 -0.013416
-0.0046704197 0.003944465 -0.011544
-0.0038081883 -0.0048050755 -0.0093839997
0.0045267143 -0.0040878998 -0.00074400002
-0.0056763561 0.0025101139 -0.002472
-0.00035926304 -0.002796984 -2.4000001e-05
7.1852613e-05 -0.0040878998 -2.4000001e-05
0.0058200615 0.0019363737 -0.0020399999
0.0025148413 0.0055222507 -0.01068
-0.004239304 0.0045182053 -0.0056400001
0.0025148413 0.0055222507 -0.002328
0.0053889458 0.0029404191 -0.008808
-0.0023711361 0.0053788158 -0.00132
-0.0051015355 0.0035141595 -0.0027600001
0.00093408395 0.006095991 -0.0049200002
-0.0059637665 -0.0005020228 -0.012552
0.00021555783 -0.0052353805 -0.00031199999
-0.004239304 -0.0040878998 -0.014712
-0.0039518937 -0.002796984 -0.00031199999
0.00079037872 0.0042313351 -0.014712
0.0059637665 0.0013626333 -0.0031920001
0.0035207779 -0.0049485103 -0.0093839997
0.004239304 -0.00078889297 -0.014712
-0.00035926304 -0.00021515263 -0.015
0.0052452404 -0.0032272893 -0.0037680001
0.0058200615 -0.0010757631 -0.001464
-0.00093408395 -0.0059525562 -0.001608
-0.00050296827 0.006095991 -0.012264
0.0052452404 0.0023666788 -0.001176
-0.0049578301 -0.0033707244 -0.014712
-0.0061074719 0.00021515263 -0.0076560001
0.0013651996 -0.0059525562 -0.011832
0.0049578301 -0.0036575946 -0.012264
-0.0039518937 0.0023666788 -0.014712
7.1852613e-05 -0.006095991 -0.0070799999
0.0010777891 -0.0038010296 -2.4000001e-05
0.0039518937 -0.0042313351 -0.00031199999
0.0025148413 0.0055222507 -0.013128
0.0025148413 0.0055222507 -0.0076560001
0.0032333676 -0.00035858771 -0.014856
-0.0048141247 0.0038010296 -0.0096720001
0.0032333676 -0.0050919456 -0.011256
-0.0051015355 0.0033707244 -0.0031920001
0.0022274309 0.005665686 -0.014568
0.0010777891 0.006095991 -0.0027600001
-0.00050296827 0.006095991 -0.00636
0.0061074719 7.1717543e-05 -0.0027600001
0.0051015355 0.0033707244 -0.010968
0.0035207779 -0.0049485103 -0.012552
-0.00093408395 0.006095991 -0.0095279999
0.0058200615 -0.0017929386 -0.0065040002
0.0053889458 0.0029404191 -0.0065040002
0.0033770727 -0.0050919456 -0.0072240001
-0.0013651996 -0.0059525562 -0.0041999999
0.0012214944 0.0058091208 -0.014712
-0.00165261 0.0050919456 -0.014712
0.0040955986 0.0045182053 -0.006792
0.0055326512 -0.0016495035 -0.00031199999
-0.0020837258 -0.0058091208 -0.012408
0.0052452404 0.0030838542 -0.005928
0.002945957 -0.0053788158 -0.010104
-0.0061074719 -7.1717543e-05 -0.005928
0.0051015355 0.0033707244 -0.0077999998
-0.00021555783 0.006095991 -0.0031920001
-0.0045267143 -0.0040878998 -0.013416
0.0010777891 -0.006095991 -0.013848
-0.0036644831 0.0048050755 -0.001752
0.0010777891 -0.0005020228 -0.000168
0.0055326512 -0.002653549 -0.0085199997
0.0040955986 0.0045182053 -0.0049200002
-0.00079037872 -0.0059525562 -0.01284
0.0013651996 -0.0058091208 -0.001608
0.0013651996 -0.0059525562 -0.01068
-0.0023711361 -7.1717543e-05 0.00156
0.00165261 0.0059525562 -0.01212
0.0010777891 0.006095991 -0.013128
-0.0012214944 -0.0059525562 -0.00636
-0.00165261 -0.00021515263 -2.4000001e-05
0.0033770727 -0.0025101139 -0.014712
0.0039518937 0.00021515263 -2.4000001e-05
-0.0019400205 0.0058091208 -0.011832
0.00064667349 0.006095991 -0.01428
0.0055326512 -0.002796984 -0.014568
-0.004239304 0.0045182053 -0.0096720001
-0.002945957 -0.0050919456 -0.001464
0.0051015355 -0.0015060684 -0.00031199999
0.0061074719 -0.0005020228 -0.00348
0.0017963153 0.0053788158 -0.014712
-0.0026585467 -0.0055222507 -0.0085199997
0.0040955986 -0.0035141595 -0.00031199999
-0.00050296827 0.006095991 -0.003912
0.0052452404 0.0029404191 -0.014712
-0.0058200615 -0.0015060684 -0.00074400002
-0.00050296827 -0.006095991 -0.0075119999
-0.0017963153 0.0058091208 -0.010536
0.0026585467 -0.0025101139 -0.014856
-0.002945957 -0.0053788158 -0.012264
-0.0056763561 0.0025101139 -0.01284
0.0058200615 0.0017929386 -0.00088800001
-0.0010777891 0.0052353805 -0.014712
-0.00021555783 0.006095991 -0.001608
0.0052452404 -0.0032272893 -0.010536
0.0015089049 0.0059525562 -0.0036239999
0.0017963153 0.0012191982 -0.014856
0.0023711361 0.005665686 -0.0060720001
0.0010777891 -0.005665686 -0.00031199999
0.00165261 0.0059525562 -0.0027600001
0.002945957 0.0053788158 -0.0083760004
-0.00021555783 0.006095991 -0.0095279999
0.0026585467 -0.0053788158 -0.001608
-0.0025148413 0.005665686 -0.014136
0.0017963153 -0.0010757631 -2.4000001e-05
0.00093408395 -0.0020798086 -0.014856
0.0028022518 0.0055222507 -0.0060720001
-0.0036644831 0.0049485103 -0.0080880001
-0.0013651996 0.0059525562 -0.004776
-0.0061074719 7.1717543e-05 -0.0057839998
0.0025148413 -0.005665686 -0.011256
-7.1852613e-05 -0.0059525562 -0.004776
0.0053889458 0.0025101139 -0.001464
-0.0032333676 -0.0052353805 -0.011112
0.004239304 -0.0045182053 -0.011256
0.0043830094 0.00437477 -0.002328
-0.00079037872 0.006095991 -0.0060720001
-0.0038081883 0.0029404191 -0.014712
-0.0030896622 -0.0053788158 -0.0076560001
-0.002945957 -0.0046616402 -0.00031199999
-0.0058200615 -0.0017929386 -0.01284
-0.0046704197 0.0040878998 -0.01212
-0.0043830094 0.00437477 -0.01068
0.00050296827 -0.006095991 -0.0036239999
-0.0056763561 0.00021515263 -0.00031199999
-0.0056763561 -0.0023666788 -0.0021840001
-0.0035207779 0.0050919456 -0.0037680001
-0.00093408395 0.006095991 -0.007944
0.00035926304 0.006095991 -0.0070799999
-0.00035926304 0.006095991 -0.013272
0.0049578301 0.0036575946 -0.012552
0.0040955986 -0.0045182053 -0.0066479999
-0.0039518937 0.0046616402 -0.014136
0.0046704197 -0.003944465 -0.0037680001
-0.00064667349 -0.0048050755 -0.014712
0.0058200615 0.0020798086 -0.004776
0.0040955986 0.0045182053 -0.0046319999
-0.0026585467 0.0055222507 -0.0040560002
0.00165261 -0.0059525562 -0.007944
0.0052452404 0.0032272893 -0.0020399999
0.00050296827 -0.006095991 -0.0099600004
0.0025148413 -0.0040878998 -0.00031199999
-0.00165261 -0.0059525562 -0.010824
0.0048141247 0.0038010296 -0.0037680001
-0.0033770727 -0.0050919456 -0.0114
-0.0038081883 -0.0035141595 -0.014712
0.0010777891 -0.0019363737 -0.014856
-0.0049578301 -0.0033707244 -0.001608
0.0061074719 -7.1717543e-05 -0.014568
0.0051015355 -0.0033707244 -0.0041999999
0.0061074719 -0.00064545788 -0.0082320003
0.0038081883 -0.0048050755 -0.004776
0.0019400205 -0.0038010296 -0.014712
-0.0056763561 0.0017929386 -0.00031199999
0.0039518937 -0.0042313351 -0.00132
0.0025148413 -0.005665686 -0.005928
-0.0036644831 -0.0049485103 -0.0073680002
0.0025148413 -0.005665686 -0.002904
0.0032333676 0.0052353805 -0.0044880002
-0.0052452404 -0.0030838542 -0.010824
-0.0036644831 -0.0049485103 -0.0054959999
-0.0046704197 0.0017929386 -0.014712
-0.0059637665 0.0013626333 -0.0056400001
0.0048141247 0.0038010296 -0.0046319999
0.0022274309 -7.1717543e-05 -0.014856
0.00021555783 0.0005020228 -0.000168
0.0046704197 0.0040878998 -0.01428
0.0049578301 0.00021515263 -0.014712
-0.00079037872 -0.0033707244 -0.014856
0.0030896622 -0.0052353805 -0.0090960003
-0.0010777891 0.0030838542 -0.014856
-0.0022274309 -0.005665686 -0.013848
0.0026585467 -0.0055222507 -0.008808
0.0043830094 0.0040878998 -0.001608
-0.002945957 -0.0005020228 -0.014856
-0.0055326512 0.002796984 -0.012984
-0.0032333676 -7.1717543e-05 -2.4000001e-05
0.00035926304 0.006095991 -0.0077999998
-0.0056763561 0.0022232437 -0.0060720001
-0.0019400205 -0.003944465 -0.014712
-0.0051015355 0.0033707244 -0.0080880001
-0.0059637665 -0.0005020228 -0.004344
0.0028022518 -0.0055222507 -0.0021840001
-0.0012214944 -0.0059525562 -0.00074400002
-0.00165261 -0.0059525562 -0.01212
0.0059637665 0.00093232805 -0.00088800001
0.0020837258 -0.0023666788 -0.014856
0.0025148413 -0.0020798086 -0.014856
0.0023711361 -0.005665686 -0.01212
-0.0040955986 0.0045182053 -0.011256
-0.0045267143 0.0042313351 -0.011256
0.0051015355 -0.0035141595 -0.0049200002
-0.00165261 0.0058091208 -0.010392
-0.0032333676 0.0052353805 -0.01428
0.00021555783 -0.0019363737 -2.4000001e-05
0.0039518937 0.0046616402 -0.0030479999
0.0061074719 0.00064545788 -0.0056400001
-0.0025148413 -0.00021515263 0.0028560001
0.0055326512 0.0025101139 -0.014424
0.00021555783 0.006095991 -0.0077999998
-0.0052452404 -0.0032272893 -0.004344
-0.0038081883 0.0048050755 -0.0089520002
0.00079037872 0.0023666788 -0.014856
-7.1852613e-05 0.0013626333 -2.4000001e-05
0.0039518937 -0.0033707244 -0.00031199999
-0.0017963153 -0.0058091208 -0.003912
-0.0033770727 0.0048050755 -0.014712
0.0045267143 -0.0030838542 -0.014712
0.0055326512 -0.002796984 -0.0050639999
0.0056763561 -0.0025101139 -0.0040560002
7.1852613e-05 -0.0059525562 -0.012552
0.0043830094 -0.00078889297 -0.00031199999
-0.0012214944 0.0049485103 -0.014712
0.0061074719 0.00021515263 -0.0044880002
-0.0023711361 0.005665686 -0.013272
0.0055326512 -0.002796984 -0.0077999998
-0.002945957 -0.00437477 -0.014712
0.0058200615 -0.0016495035 -0.00636
-0.0058200615 0.0017929386 -0.0021840001
0.0025148413 -0.005665686 -0.013848
0.0051015355 -0.0033707244 -0.010104
-0.0043830094 0.00437477 -0.0073680002
-0.002945957 0.0052353805 -0.00045600001
-0.0059637665 -0.0012191982 -0.0026159999
0.0055326512 0.0023666788 -0.003912
0.0019400205 -0.0035141595 -2.4000001e-05
0.0012214944 0.00021515263 -2.4000001e-05
-0.0033770727 0.0017929386 -0.014856
0.0023711361 -0.005665686 -0.0040560002
0.0038081883 -0.0048050755 -0.0089520002
0.0040955986 -0.0045182053 -0.0089520002
0.0013651996 0.0059525562 -0.012984
0.0038081883 0.0048050755 -0.01356
0.0030896622 -0.0049485103 -0.001176
0.00035926304 -0.0059525562 -0.001608
0.0048141247 0.0038010296 -0.0050639999
0.0020837258 -0.0010757631 -0.014856
0.0045267143 -0.0040878998 -0.0085199997
-0.0017963153 0.0058091208 -0.002328
-0.00021555783 0.0042313351 -0.000168
0.0039518937 -0.0046616402 -0.0060720001
-0.0056763561 -0.0025101139 -0.0057839998
0.0059637665 0.0013626333 -0.0027600001
0.0020837258 0.0030838542 -0.014856
-0.0058200615 -0.0017929386 -0.005928
-0.0026585467 0.00078889297 -0.014856
0.00165261 -0.0040878998 -0.014712
-0.0012214944 0.0055222507 -0.00031199999
-0.00165261 0.0016495035 -0.014856
0.00050296827 -0.00064545788 -0.015
0.0010777891 0.0046616402 -0.00031199999
-0.0030896622 -0.0053788158 -0.010248
0.0058200615 -0.0016495035 -0.0030479999
-0.0051015355 0.0035141595 -0.00348
-0.002945957 -0.0053788158 -0.013848
0.00050296827 0.0053788158 -0.00031199999
0.0053889458 0.00064545788 -0.014712
0.0061074719 -0.0005020228 -0.008808
0.0045267143 -7.1717543e-05 -0.00031199999
0.0043830094 -0.0040878998 -0.00088800001
0.0048141247 0.0036575946 -0.014424
0.0056763561 -0.0025101139 -0.010392
0.00093408395 0.006095991 -0.01356
0.0030896622 0.0052353805 -0.0066479999
0.00093408395 -0.0059525562 -0.001752
-0.00079037872 0.0046616402 -0.00031199999
-0.0038081883 0.00035858771 -2.4000001e-05
-0.0022274309 -0.0040878998 -0.00031199999
0.0028022518 0.0042313351 -0.00031199999
-0.0023711361 0.0055222507 -0.00088800001
0.0058200615 -0.0017929386 -0.0050639999
-0.0028022518 -0.0055222507 -0.008808
0.0013651996 -0.0058091208 -0.001464
-0.0019400205 -0.0016495035 -0.014856
-0.0020837258 -0.0058091208 -0.0037680001
0.0048141247 -0.0038010296 -0.007944
-0.0061074719 0.0010757631 -0.005928
7.1852613e-05 0.0049485103 -0.00031199999
7.1852613e-05 0.006095991 -0.0076560001
0.0056763561 0.0020798086 -0.0085199997
0.0017963153 -0.0059525562 -0.0095279999
-0.0026585467 0.0055222507 -0.011544
-0.00021555783 0.006095991 -0.006792
0.00035926304 -0.0059525562 -0.0010319999
-0.0059637665 0.0012191982 -0.011976
-0.0028022518 -0.0025101139 -0.014856
-0.00021555783 0.006095991 -0.0053519998
-0.00050296827 -0.0055222507 -0.00031199999
0.0032333676 0.0052353805 -0.0031920001
-0.0038081883 0.0048050755 -0.01284
-0.0059637665 -0.0013626333 -0.0098160002
0.0038081883 0.0020798086 -0.000168
0.004239304 -0.0012191982 -0.000168
7.1852613e-05 0.006095991 -0.0044880002
-0.0043830094 0.00437477 -0.0082320003
-0.00050296827 -0.006095991 -0.0082320003
-0.0052452404 -0.0005020228 -0.014712
0.0020837258 -0.0055222507 -0.014712
0.00093408395 -0.006095991 -0.0095279999
0.0045267143 -0.0032272893 -0.014712
0.0046704197 -0.0017929386 -0.00031199999
-0.0039518937 -0.0046616402 -0.0080880001
0.0013651996 -0.0059525562 -0.010392
-0.00050296827 0.0059525562 -0.001464
0.0046704197 -0.003944465 -0.0054959999
0.0059637665 -0.00093232805 -0.010536
0.0055326512 -0.002796984 -0.0044880002
0.00079037872 -0.006095991 -0.0062159998
-0.0012214944 -0.00021515263 -2.4000001e-05
-0.0017963153 0.0050919456 -0.00031199999
0.00165261 0.0059525562 -0.011688
-0.0061074719 0.00021515263 -0.012696
-0.0052452404 0.0030838542 -0.014568
-0.0061074719 7.1717543e-05 -0.001752
0.00165261 0.0029404191 -0.014856
7.1852613e-05 -0.0040878998 -0.014712
-0.0032333676 0.0052353805 -0.0070799999
-0.0055326512 0.002796984 -0.0082320003
0.0019400205 -0.0029404191 -0.014856
0.0023711361 -0.005665686 -0.0093839997
-0.0053889458 -0.0029404191 -0.0083760004
0.0012214944 0.002653549 -2.4000001e-05
-0.0048141247 0.0038010296 -0.014136
0.0023711361 -0.005665686 -0.002472
0.0026585467 -0.0055222507 -0.012408
0.0043830094 -0.0019363737 -0.00031199999
-0.0048141247 -0.00064545788 -0.00031199999
0.0025148413 0.002653549 -2.4000001e-05
-0.0059637665 0.0016495035 -0.0066479999
-0.00021555783 -0.0036575946 -2.4000001e-05
-0.0043830094 -0.00437477 -0.0056400001
0.00079037872 0.0058091208 -0.0010319999
0.0061074719 0.00064545788 -0.0052080001
-7.1852613e-05 -0.0059525562 -0.011688
-0.0056763561 0.0022232437 -0.0069360002
0.0046704197 0.003944465 -0.004776
-0.0043830094 0.00437477 -0.0066479999
0.0013651996 -0.0059525562 -0.0099600004
0.0061074719 0.00035858771 -0.012696
-0.0061074719 0.0010757631 -0.010968
0.0032333676 0.0052353805 -0.002328
-0.0043830094 0.003944465 -0.001176
-0.0055326512 0.002796984 -0.003336
0.0056763561 0.0022232437 -0.01356
-0.0056763561 0.0022232437 -0.013848
-0.0053889458 -0.0029404191 -0.0021840001
0.0061074719 0.00064545788 -0.014136
-0.0058200615 0.0019363737 -0.0037680001
0.0015089049 -0.0059525562 -0.01356
0.0052452404 -0.0032272893 -0.0089520002
0.00079037872 0.0033707244 -0.014856
-0.0048141247 -0.0038010296 -0.0053519998
-0.002945957 0.0053788158 -0.0031920001
7.1852613e-05 -0.0059525562 -0.0076560001
0.0036644831 -0.0019363737 -0.014712
-0.0039518937 -0.0046616402 -0.002904
-0.00064667349 -0.00021515263 -2.4000001e-05
0.0036644831 -0.0013626333 -0.014856
0.00165261 0.0048050755 -0.00031199999
-0.0036644831 -0.0049485103 -0.001896
0.00035926304 0.0029404191 -2.4000001e-05
0.0012214944 -0.0059525562 -0.0077999998
0.0056763561 -0.0022232437 -0.006792
0.0059637665 -0.0012191982 -0.012264
-0.0028022518 0.0040878998 -0.014712
0.0038081883 -0.0015060684 -2.4000001e-05
0.0059637665 0.00064545788 -0.014712
0.0049578301 -0.0032272893 -0.014712
0.0040955986 -0.0035141595 -0.014712
0.0038081883 0.0023666788 -0.014712
-0.0058200615 0.0020798086 -0.0036239999
-0.0061074719 0.00035858771 -0.002472
0.0032333676 -0.0050919456 -0.007944
0.0030896622 -0.0052353805 -0.0054959999
0.00050296827 -0.006095991 -0.0072240001
0.0043830094 -0.00437477 -0.011256
0.0052452404 0.0032272893 -0.008808
-0.0055326512 0.0015060684 -0.014712
-0.0033770727 0.0050919456 -0.011688
-0.0040955986 0.0045182053 -0.014424
0.0040955986 -0.0019363737 -0.00031199999
0.00064667349 -0.006095991 -0.013992
-0.0012214944 -0.0013626333 -0.014856
0.0051015355 -0.0035141595 -0.0093839997
0.0040955986 0.0010757631 -0.014712
0.0040955986 0.0045182053 -0.002328
-0.0035207779 -0.00078889297 -0.014856
-0.0056763561 -0.0023666788 -0.0095279999
-0.0033770727 -0.003944465 -0.00031199999
0.0033770727 0.0050919456 -0.0056400001
-0.0051015355 0.0033707244 -0.010968
-0.00093408395 0.002653549 -2.4000001e-05
-0.0010777891 -0.0058091208 -0.00132
-0.0052452404 0.0029404191 -0.00031199999
-0.0045267143 -0.0042313351 -0.0056400001
0.0058200615 0.0020798086 -0.00348
0.0035207779 -0.0035141595 -0.00031199999
0.00035926304 -0.006095991 -0.003336
0.0025148413 0.0055222507 -0.0040560002
-0.0056763561 0.0025101139 -0.003912
-0.0055326512 -0.002796984 -0.004776
-0.0035207779 -0.0050919456 -0.0021840001
-0.0026585467 0.0053788158 -0.00060000003
0.0059637665 -0.00064545788 -0.001752
-0.0035207779 -0.0050919456 -0.0057839998
0.0012214944 -0.0059525562 -0.0085199997
-0.0061074719 -0.0010757631 -0.011832
0.0040955986 -0.0045182053 -0.007944
-0.0061074719 0.00035858771 -0.011976
0.0019400205 0.0058091208 -0.00636
0.0051015355 0.0022232437 -0.00031199999
0.0052452404 0.0030838542 -0.0098160002
0.0048141247 -0.0035141595 -0.001464
-0.0030896622 -0.0038010296 -0.00031199999
0.00165261 0.002796984 -2.4000001e-05
0.0032333676 -0.0050919456 -0.01284
-0.0049578301 0.0015060684 -0.00031199999
-0.0039518937 -0.0046616402 -0.013416
-0.0061074719 -0.00078889297 -0.0085199997
0.0059637665 0.00064545788 -0.001608
0.0053889458 -0.0029404191 -0.013416
0.004239304 -0.00021515263 -0.014712
-0.0049578301 -0.0036575946 -0.011832
0.0020837258 -0.00078889297 -2.4000001e-05
-0.0033770727 0.0050919456 -0.0049200002
-0.0059637665 0.0015060684 -0.013128
0.00035926304 -0.006095991 -0.013416
-0.0010777891 0.0042313351 -0.014712
0.0028022518 0.0025101139 -2.4000001e-05
-0.0028022518 0.0055222507 -0.0093839997
-0.0061074719 0.00064545788 -0.0093839997
0.00050296827 0.006095991 -0.0041999999
0.0048141247 -0.0038010296 -0.013704
0.0017963153 -0.0012191982 -2.4000001e-05
-0.00079037872 -0.0059525562 -0.00031199999
0.0020837258 -0.0058091208 -0.0057839998
0.0061074719 -0.00064545788 -0.0099600004
-0.0053889458 0.0030838542 -0.0031920001
0.0052452404 -0.0030838542 -0.011688
-7.1852613e-05 -0.00064545788 -0.015
-0.00050296827 -0.00035858771 -0.000168
0.0045267143 -0.0040878998 -0.0080880001
-0.0055326512 -0.002796984 -0.0098160002
-0.0061074719 -0.0010757631 -0.0085199997
-0.0043830094 -0.0030838542 -0.014712
0.0056763561 0.0025101139 -0.004776
0.00050296827 -0.0058091208 -0.014712
-0.0058200615 0.0017929386 -0.0080880001
0.0012214944 0.0059525562 -0.003912
-0.00035926304 -0.006095991 -0.012552
0.00050296827 -0.00064545788 -2.4000001e-05
-0.0013651996 0.0059525562 -0.0056400001
-0.0022274309 -0.0055222507 -0.00031199999
-0.00093408395 -0.006095991 -0.0080880001
0.0010777891 -0.0049485103 -0.014712
0.00079037872 -0.00437477 -0.000168
-0.00035926304 -0.0048050755 -0.014712
-0.0028022518 -0.0053788158 -0.00045600001
-0.0039518937 0.0022232437 -0.00031199999
0.0058200615 -0.0016495035 -0.01356
0.0026585467 0.0053788158 -0.0054959999
0.0049578301 -0.0036575946 -0.0044880002
-0.0055326512 -0.002796984 -0.0031920001
-0.0025148413 0.005665686 -0.012408
0.0026585467 0.0052353805 -0.001464
0.0059637665 -0.00093232805 -0.013992
0.0058200615 0.0020798086 -0.0031920001
0.0025148413 0.0049485103 -0.014712
-0.002945957 0.0053788158 -0.0090960003
-0.0051015355 0.0023666788 -0.014712
-7.1852613e-05 -0.0059525562 -0.0086639998
-0.0019400205 -0.0058091208 -0.014136
-0.0013651996 0.0049485103 -0.00031199999
0.00064667349 -0.006095991 -0.007944
-0.0051015355 0.0035141595 -0.010104
-0.0049578301 0.0036575946 -0.0076560001
-0.002945957 0.0005020228 -0.000168
0.0010777891 0.006095991 -0.0089520002
-0.00093408395 0.006095991 -0.001896
-0.0058200615 0.0017929386 -0.010104
0.0053889458 0.002796984 -0.003912
-0.0052452404 -0.0032272893 -0.0085199997
0.0061074719 0.00021515263 -0.014136
0.0025148413 -7.1717543e-05 0.001848
0.0022274309 0.005665686 -0.013416
-0.0019400205 0.0058091208 -0.014568
-0.0061074719 0.00035858771 -0.001752
0.0045267143 -0.0040878998 -0.0066479999
-0.0051015355 0.0033707244 -0.0069360002
7.1852613e-05 -0.006095991 -0.011976
-0.0035207779 0.0046616402 -0.014712
-0.0035207779 0.0042313351 -0.00031199999
0.0028022518 -0.0020798086 -0.014856
-0.0043830094 -0.0042313351 -0.002904
0.00021555783 0.0059525562 -0.0010319999
-0.0040955986 -0.002653549 -0.00031199999
-0.0059637665 -0.0016495035 -0.008808
-0.0058200615 0.0012191982 -0.001608
0.0028022518 -0.0055222507 -0.004344
-0.0051015355 -0.002653549 -0.00031199999
0.00165261 -0.0055222507 -0.014712
-0.0017963153 -0.0050919456 -0.00031199999
0.0032333676 -0.0019363737 -2.4000001e-05
0.00079037872 0.005665686 -0.00031199999
0.0026585467 -0.0055222507 -0.0044880002
0.0032333676 0.0033707244 -0.00031199999
-0.0055326512 0.002796984 -0.011544
-0.002945957 0.0053788158 -0.0026159999
-0.0023711361 -0.005665686 -0.012408
0.0040955986 -0.0013626333 -0.014856
-7.1852613e-05 -0.006095991 -0.003336
-0.00064667349 -0.0059525562 -0.010968
0.0035207779 -0.0049485103 -0.0060720001
-0.002945957 0.0053788158 -0.012264
0.0028022518 -0.0052353805 -0.00031199999
-0.0030896622 -0.00035858771 -0.014856
0.0035207779 -0.0049485103 -0.007944
-0.0013651996 -0.0048050755 -0.014712
-0.0033770727 0.0050919456 -0.0089520002
0.0030896622 0.0048050755 -0.00031199999
-0.0026585467 -0.0055222507 -0.01428
-0.0051015355 -0.0035141595 -0.004344
0.00079037872 0.0052353805 -0.014712
-0.0039518937 -0.0046616402 -0.004344
0.00050296827 0.0059525562 -0.0010319999
0.0053889458 -0.0023666788 -0.00132
0.00035926304 0.0049485103 -0.014712
-0.0061074719 0.00035858771 -0.0037680001
-0.00050296827 -0.00437477 -0.014712
0.002945957 0.0053788158 -0.013848
0.0061074719 0.00035858771 -0.008808
-0.0026585467 -0.0055222507 -0.01212
0.0030896622 0.0052353805 -0.001896
-7.1852613e-05 0.006095991 -0.012408
0.0023711361 0.00021515263 0.0027119999
0.0025148413 -0.0055222507 -0.00074400002
0.0056763561 -0.00021515263 -0.00031199999
0.0061074719 7.1717543e-05 -0.0085199997
0.0049578301 0.0036575946 -0.010392
0.0052452404 0.0030838542 -0.0095279999
-0.0028022518 0.0052353805 -0.00132
-0.0056763561 0.0017929386 -0.014712
0.0055326512 0.0023666788 -0.0053519998
-0.0036644831 -0.0045182053 -0.001176
-0.0058200615 0.0020798086 -0.0075119999
0.0045267143 -0.0042313351 -0.0031920001
-0.00021555783 -0.006095991 -0.014424
0.00064667349 -0.006095991 -0.0036239999
0.0051015355 0.0035141595 -0.011976
0.00093408395 0.00093232805 -2.4000001e-05
0.0049578301 -0.0036575946 -0.0083760004
-0.0019400205 0.0058091208 -0.013416
0.00079037872 -0.006095991 -0.010392
0.0056763561 -0.0022232437 -0.0031920001
0.0033770727 0.0050919456 -0.0070799999
7.1852613e-05 -0.0059525562 -0.014712
-0.00165261 0.0059525562 -0.0077999998
-7.1852613e-05 0.006095991 -0.014136
0.0059637665 -0.0012191982 -0.013992
0.00165261 0.0059525562 -0.0076560001
0.0051015355 -0.0035141595 -0.01284
-0.0039518937 -0.0046616402 -0.003912
-0.0045267143 -0.003944465 -0.00088800001
0.00079037872 0.0059525562 -0.00031199999
0.0020837258 0.005665686 -0.00031199999
-0.0051015355 0.0033707244 -0.0096720001
0.0059637665 0.0016495035 -0.0040560002
-0.0053889458 0.0022232437 -0.001176
-7.1852613e-05 -0.0059525562 -0.011544
0.0028022518 0.0053788158 -0.0089520002
-0.0059637665 0.0015060684 -0.0083760004
0.0056763561 0.00093232805 -0.014712
0.0059637665 -0.0013626333 -0.0070799999
0.0020837258 0.0055222507 -0.014712
-0.0036644831 0.0049485103 -0.012264
-0.0020837258 0.0058091208 -0.0052080001
0.0056763561 0.0020798086 -0.0037680001
0.0039518937 0.0038010296 -0.00031199999
0.0059637665 0.0013626333 -0.011112
-0.0049578301 0.0036575946 -0.003336
-0.00165261 0.0058091208 -0.0075119999
0.0043830094 0.00437477 -0.0057839998
0.0015089049 0.0059525562 -0.006792
0.0056763561 -0.0023666788 -0.0082320003
0.0015089049 -0.0059525562 -0.0054959999
0.0023711361 -0.003944465 -0.014712
-0.0030896622 -0.0053788158 -0.0026159999
0.0061074719 -0.00021515263 -0.0077999998
-0.0049578301 -0.0036575946 -0.0052080001
-0.0025148413 0.005665686 -0.0044880002
0.0061074719 -0.0005020228 -0.0044880002
0.0036644831 -0.0048050755 -0.0098160002
0.0059637665 0.0016495035 -0.00348
-0.0038081883 -0.0046616402 -0.00074400002
-0.0058200615 -0.0019363737 -0.0041999999
-0.0056763561 -0.0025101139 -0.003912
0.0061074719 7.1717543e-05 -0.0098160002
0.00093408395 -0.006095991 -0.0049200002
-0.00064667349 0.006095991 -0.0098160002
0.00021555783 0.006095991 -0.0053519998
-0.0046704197 -0.003944465 -0.00348
-0.0059637665 -0.00035858771 -0.011832
0.0055326512 0.002653549 -0.0095279999
0.0056763561 0.0025101139 -0.007944
-0.0061074719 7.1717543e-05 -0.013416
0.0053889458 -0.0029404191 -0.012984
-0.0058200615 -0.0019363737 -0.011112
0.004239304 -0.0045182053 -0.0060720001
0.0012214944 0.0059525562 -0.014424
-0.0036644831 0.0049485103 -0.0030479999
0.00035926304 0.0058091208 -0.00031199999
0.0039518937 0.0046616402 -0.013848
0.0036644831 0.0049485103 -0.013272
-0.0036644831 0.0049485103 -0.005928
-0.0046704197 0.003944465 -0.006792
-7.1852613e-05 -0.0030838542 -0.014856
0.0036644831 0.0049485103 -0.012264
0.0046704197 0.003944465 -0.0077999998
0.0039518937 -0.0046616402 -0.013416
-0.0045267143 -0.0040878998 -0.0053519998
0.00064667349 -0.006095991 -0.012552
-0.0058200615 -0.0020798086 -0.0027600001
0.0023711361 0.005665686 -0.0073680002
-0.0059637665 -0.0015060684 -0.0099600004
-0.0022274309 -0.005665686 -0.013272
-0.0010777891 0.0059525562 -0.012552
-0.0015089049 -0.0059525562 -0.0021840001
0.00093408395 0.006095991 -0.011832
-0.0051015355 -0.0035141595 -0.003912
-0.0051015355 -0.0033707244 -0.013704
0.0061074719 -0.00021515263 -0.0069360002
-0.002945957 -0.0036575946 -0.014712
-0.0038081883 -0.0048050755 -0.0098160002
0.0022274309 -0.005665686 -0.0030479999
0.00079037872 -0.002796984 -2.4000001e-05
0.0056763561 0.0023666788 -0.0041999999
0.0033770727 -0.00021515263 -2.4000001e-05
-0.0058200615 -0.0012191982 -0.014712
0.0055326512 -0.002796984 -0.0041999999
0.0055326512 0.002653549 -0.0057839998
0.0061074719 -0.00093232805 -0.0114
-0.0019400205 -0.0032272893 -0.014856
0.004239304 0.00064545788 -0.000168
-0.0020837258 -0.0058091208 -0.0114
0.0049578301 -0.0036575946 -0.0053519998
-0.00093408395 -0.0045182053 -0.00031199999
-0.0023711361 0.005665686 -0.004344
0.00093408395 0.006095991 -0.0036239999
-0.0053889458 0.0029404191 -0.013272
0.0053889458 -0.0029404191 -0.012696
0.0033770727 0.0050919456 -0.013272
0.00021555783 -0.006095991 -0.010968
0.0023711361 0.005665686 -0.0099600004
-0.0030896622 -0.0053788158 -0.0041999999
7.1852613e-05 -0.0048050755 -0.014712
0.0046704197 0.0040878998 -0.0031920001
0.00165261 -0.0046616402 -0.014712
-0.00165261 -0.0059525562 -0.014136
0.0053889458 0.0013626333 -0.014712
-0.0058200615 -0.0019363737 -0.011256
0.0017963153 0.0058091208 -0.013704
0.0061074719 -7.1717543e-05 -0.0026159999
0.0051015355 -0.002796984 -0.001176
-0.00021555783 -0.0049485103 -0.00031199999
0.0048141247 -0.0038010296 -0.014136
-0.0032333676 0.0052353805 -0.0069360002
0.0017963153 0.003944465 -0.000168
0.0053889458 0.0029404191 -0.003912
-0.00093408395 -0.00021515263 -2.4000001e-05
-0.00064667349 -0.006095991 -0.0070799999
0.0026585467 0.00437477 -0.014712
0.0055326512 -0.002653549 -0.0054959999
0.0033770727 0.0050919456 -0.0044880002
0.0058200615 -0.0015060684 -0.014136
0.00064667349 -0.006095991 -0.010104
-0.0035207779 -0.0029404191 -0.00031199999
-0.0015089049 0.0058091208 -0.01356
0.0015089049 -0.0059525562 -0.0090960003
-0.0038081883 0.0048050755 -0.012552
-0.0020837258 0.0049485103 -0.00031199999
-0.0017963153 -0.0058091208 -0.0083760004
-0.0043830094 -0.0042313351 -0.00088800001
0.0026585467 -0.0055222507 -0.010968
0.00064667349 -0.0049485103 -0.00031199999
-7.1852613e-05 0.006095991 -0.0082320003
-0.0059637665 0.0016495035 -0.0089520002
0.002945957 0.0017929386 -2.4000001e-05
-0.0025148413 -0.005665686 -0.008808
0.0013651996 0.0035141595 -2.4000001e-05
0.002945957 0.0053788158 -0.013704
-0.0030896622 -0.0053788158 -0.004776
-0.00064667349 -0.003944465 -2.4000001e-05
-0.0053889458 0.0023666788 -0.0010319999
-0.0020837258 -0.0058091208 -0.007944
0.0022274309 -0.005665686 -0.0077999998
-0.0030896622 0.0029404191 -0.014712
0.00021555783 0.0055222507 -0.00031199999
-0.0048141247 -0.0038010296 -0.00060000003
0.0059637665 0.0012191982 -0.0066479999
-0.0015089049 -0.0035141595 -2.4000001e-05
-0.002945957 -0.0053788158 -0.010536
-0.0015089049 0.0058091208 -0.011112
-0.00035926304 -0.006095991 -0.0027600001
0.0022274309 0.005665686 -0.005928
-0.0020837258 0.0058091208 -0.0050639999
0.0059637665 0.0016495035 -0.003336
0.0019400205 -0.0042313351 -0.00031199999
0.0061074719 -0.0005020228 -0.0099600004
-0.0017963153 -0.0029404191 -2.4000001e-05
-0.0023711361 -0.005665686 -0.007944
-0.00093408395 -0.002653549 -0.014856
-0.0051015355 -0.0015060684 -0.00031199999
0.00165261 -0.0059525562 -0.0080880001
0.0038081883 0.0030838542 -0.014712
-0.0056763561 -0.0025101139 -0.002328
0.0056763561 0.0020798086 -0.008808
-0.0012214944 0.0053788158 -0.014712
-0.0052452404 -0.0030838542 -0.004344
0.0033770727 0.0050919456 -0.012984
-0.0022274309 -0.005665686 -0.004776
-0.0045267143 0.0032272893 -0.014712
0.0039518937 -0.00437477 -0.00031199999
-7.1852613e-05 0.0059525562 -0.001608
-0.0045267143 -0.0020798086 -0.00031199999
-0.0046704197 0.0040878998 -0.012264
0.00021555783 -0.006095991 -0.012552
0.0049578301 0.0036575946 -0.013704
-0.0052452404 -0.0032272893 -0.013848
-0.0033770727 -0.0032272893 -0.00031199999
0.0052452404 -0.0032272893 -0.013704
0.0022274309 0.00437477 -0.00031199999
0.0028022518 0.0036575946 -0.014712
0.0012214944 0.0059525562 -0.01068
-0.0058200615 0.0019363737 -0.0093839997
0.0035207779 0.0050919456 -0.002904
0.00035926304 -0.006095991 -0.0060720001
-0.00050296827 0.0010757631 -0.015
-0.0020837258 -0.0058091208 -0.010536
0.0013651996 -0.0050919456 -0.014712
0.0019400205 -0.0005020228 -0.014856
-0.0012214944 0.002653549 -0.014856
0.00050296827 0.006095991 -0.0057839998
-0.0052452404 -0.0030838542 -0.010248
-0.0025148413 -0.005665686 -0.012696
0.0032333676 0.0046616402 -0.00031199999
0.0049578301 -0.0032272893 -0.00031199999
-0.0053889458 0.0029404191 -0.013848
0.0010777891 -0.0036575946 -2.4000001e-05
-0.0043830094 -0.0038010296 -0.014712
-0.00064667349 -0.00078889297 -0.015
0.0023711361 -0.005665686 -0.013128
0.0017963153 -0.0059525562 -0.0069360002
-0.0055326512 0.002653549 -0.013128
-0.0010777891 -0.0013626333 -2.4000001e-05
-0.00064667349 -0.0019363737 -2.4000001e-05
0.00035926304 0.0025101139 -0.014856
0.0052452404 -0.0030838542 -0.014568
0.0058200615 -0.0016495035 -0.0075119999
-0.0020837258 0.0010757631 -2.4000001e-05
-0.00021555783 0.006095991 -0.011832
0.0026585467 0.00035858771 -2.4000001e-05
0.0058200615 -0.0015060684 -0.011976
