# .PCD v0.7 - Point Cloud Data file format
VERSION 0.7
FIELDS x y z
SIZE 4 4 4
TYPE F F F
COUNT 1 1 1
WIDTH 1157
HEIGHT 1
VIEWPOINT 0 0 0 1 0 0 0
POINTS 1157
DATA ascii
-0.00078554801 -0.0031885444 -0.00039790012
-0.0013568556 -0.00021256962 -0.00053947931
0.0004998942 -0.0041096793 -0.0036542211
0.00092837488 -7.0856542e-05 -0.0047160648
0.00092837488 0.0031885444 -0.002663167
-0.0024280574 -0.0038262533 -0.0028755355
0.0019995768 0.0014171308 -0.0040081688
-0.00078554801 -0.0004959958 -0.00025632096
-0.0011426152 -0.00056685234 -0.0045036962
-0.0017139229 -0.003542827 -0.00082263764
-0.0004998942 0.00056685234 -0.00018553136
-0.0024280574 0.0023382658 -0.0025215878
-0.00078554801 0.00021256962 -0.0047160648
-0.0014996825 -0.0019131267 -0.00061026885
0.0024280574 -0.00021256962 -0.0024507982
0.0002856538 -0.0032594008 -0.0047160648
0.0017139229 -0.00042513924 -0.00068105845
-0.0014996825 0.001700557 -0.00053947931
0.00021424037 0.0029051183 -0.0018136918
-7.1413451e-05 -0.0041096793 -0.00089342723
0.0024280574 0.00070856541 -0.0020260606
-0.00064272108 0.00042513924 -0.0047160648
-7.1413451e-05 0.0040388228 -0.001955271
-0.0019995768 -0.0020548396 -0.0036542211
0.0018567498 0.0028342616 -0.0016013231
0.0014996825 -0.0040388228 -0.0033002731
-0.0012140287 -0.0038262533 -0.0045036962
0.0012140287 -0.0029759747 -0.0045036962
-0.0024280574 -0.00063770887 -0.0018136918
-0.0001428269 0.0037553967 -0.0013181648
0.0009997884 0.0026216921 -0.00046868972
-0.0024280574 -0.0029759747 -0.002663167
0.0022852304 -0.0031885444 -0.0033002731
-0.0024280574 0.0004959958 -0.0031586939
-0.0012854422 0.0026925486 -0.0028755355
0.0009997884 -0.0014171308 -0.0046452754
-0.0009997884 0.0037553967 -0.0016721126
-0.0019995768 -0.0010628481 -0.0011765856
0.0024280574 -0.0020548396 -0.0024507982
0.0013568556 -0.0040388228 -0.0018136918
0.002356644 -0.0024799788 -0.0016721126
-0.0017853364 -0.0040388228 -0.00089342723
0.0014996825 0.001700557 -0.00068105845
0.0018567498 -0.00028342617 -0.00089342723
0.002356644 -0.0020548396 -0.0016721126
0.0012140287 -0.00014171308 -0.0042913272
0.0012854422 0.001700557 -0.0044329064
-0.0013568556 -0.00092113501 -0.004362117
-0.0024280574 -0.00014171308 -0.0030171147
0.0024280574 7.0856542e-05 -0.0018844814
-0.0018567498 -0.0041096793 -0.0017429022
0.00085696147 -0.0029759747 -0.0047160648
0.00092837488 0.0026216921 -0.0044329064
0.0024280574 -0.00014171308 -0.0022384294
-0.0020709902 -0.0040388228 -0.0035834315
-0.0012140287 -0.0024091224 -0.0044329064
-0.00092837488 -0.0038262533 -0.00039790012
0.0014996825 -0.00368454 -0.004362117
-0.00092837488 0.00063770887 -0.0047160648
0.0024280574 0.001700557 -0.002663167
0.00078554801 -0.00021256962 -0.00018553136
0.0024280574 0.00085027848 -0.0029463251
-0.0018567498 -0.0024799788 -0.00082263764
-0.0017853364 -0.0017714135 -0.0037250107
-0.0024280574 -0.0017714135 -0.0017429022
-0.0018567498 -0.0041096793 -0.0018844814
-0.00057130761 -0.0041096793 -0.0045036962
-0.0018567498 -0.0036136836 -0.0039373795
0.0017139229 -0.0033302575 -0.00068105845
-0.00092837488 0.0038971098 0.0010886812
-0.0013568556 0.00368454 -0.0018844814
-0.0010712019 0.0026216921 -0.00046868972
-0.0022852304 -0.0032594008 -0.0034418523
-0.00064272108 0.0030468313 -0.0025923774
0.0019281632 -0.0009919916 -0.0035834315
-0.0017139229 -0.0040388228 -0.0039373795
0.00078554801 0.00085027848 -0.0046452754
0.0012140287 0.0029051183 -0.0016013231
-0.0024280574 -0.00021256962 -0.0017429022
-0.0004998942 -0.0037553967 -0.0046452754
0.0019281632 0.0027634052 -0.0028755355
-0.0024280574 0.0015588439 -0.0028047462
0.0021424037 0.0028342616 -0.0022384294
0.0024280574 0.00028342617 -0.0023800086
-7.1413451e-05 0.0021256963 -0.0047160648
0.0024280574 0 -0.0023800086
-0.0019281632 -0.0026216921 -0.0037958003
-0.0024280574 0.0009919916 -0.002309219
0.0002856538 -0.0041096793 -0.0018136918
0.0012140287 -0.0019131267 -0.0045036962
0.0012854422 0.0020548396 -0.00032711052
-0.0024280574 0.0009919916 -0.0020260606
-0.0012854422 0.0009919916 -0.0044329064
0.002356644 -0.00085027848 -0.0017429022
-0.00057130761 0.00014171308 -0.00025632096
0.0019281632 0.0027634052 -0.0030171147
-0.0019995768 0.001700557 -0.00096421683
0.0002856538 -0.0017714135 -0.00025632096
-0.0016425095 -0.0039679664 -0.004149748
0.0018567498 -0.0026925486 -0.0040081688
-0.0010712019 0.0039679664 0.0010886812
0.0021424037 -0.0039679664 -0.0032294835
-0.00035706727 -0.0021965527 -0.00025632096
-0.0009997884 -0.0041096793 -0.0025215878
-0.0009997884 -0.00056685234 -0.0045744856
-0.0010712019 -0.0041096793 -0.0016721126
-0.0014996825 0.00042513924 -0.004362117
-0.0020709902 -0.00028342617 -0.0035834315
-0.0019281632 -0.0030468313 -0.0010350064
0.0024280574 -0.0021965527 -0.0025215878
-0.0014996825 0.0015588439 -0.0042913272
-0.0013568556 0.00028342617 -0.00046868972
0.0021424037 -0.0003542827 -0.0033710627
0.001571096 0.0031176878 -0.002663167
0.0014996825 0.0026925486 -0.0040081688
-0.0021424037 -0.0031176878 -0.0013889543
-0.0024280574 -0.0019839832 -0.001955271
-0.00057130761 -0.0014879873 -0.0046452754
0.0004998942 -0.0034011139 -0.0047160648
0.0024280574 -0.0026216921 -0.0028047462
0.0020709902 -0.0037553967 -0.0011765856
-0.0014996825 0.0034011139 -0.0025923774
0.0024280574 -0.0019839832 -0.0025215878
-0.00085696147 0.0037553967 -0.00082263764
-0.0022852304 -0.0038971098 -0.0015305335
0.0018567498 0.00070856541 -0.0040789586
-0.001571096 -0.0041096793 -0.0040789586
0.0022852304 -0.003542827 -0.0016013231
0.00078554801 0.003542827 -0.0025923774
-0.0014282691 -0.0041096793 -0.0020968502
7.1413451e-05 0.0026925486 -0.00039790012
0.0022852304 0.00042513924 -0.0032294835
0.0024280574 0.0011337047 -0.0028755355
-0.00092837488 0.0031885444 -0.0025923774
-0.0013568556 0.0037553967 -0.002309219
-0.0016425095 0.0033302575 -0.0025923774
-0.0024280574 -0.00028342617 -0.0018844814
0.0009997884 0.0039679664 -0.0023800086
-0.00042848074 -0.0041096793 -0.0036542211
-0.0021424037 0.00056685234 -0.0013181648
-0.0024280574 -0.0038971098 -0.0025923774
0.0018567498 0.0003542827 -0.0040789586
-0.0019281632 -0.0004959958 -0.0038665899
-0.0009997884 -0.0022674093 -0.00032711052
0.0022852304 0.0026216921 -0.0032294835
0.00064272108 -0.0041096793 -0.0021676398
0.00085696147 0.0016297004 -0.00018553136
-0.00035706727 -0.0022674093 -0.0047160648
0.00021424037 -0.0041096793 -0.0015305335
0.0011426152 0.0024091224 -0.00032711052
-0.0004998942 0.0038971098 -0.0020968502
-0.0012854422 -7.0856542e-05 -0.00032711052
0.0009997884 0.0039679664 0.0025044729
0.0013568556 0.0026925486 -0.004149748
-0.0010712019 0.00085027848 -0.0047160648
0.0022852304 0.0023382658 -0.0017429022
0.0002856538 0.0038971098 -0.0022384294
0.00071413454 -7.0856542e-05 -0.0047160648
0.0024280574 -0.0024799788 -0.0028755355
-0.0010712019 0.0021965527 -0.0046452754
0.0019995768 0.0013462743 -0.0040081688
0.00071413454 0.0038971098 -0.0013181648
0.0022138171 -0.00056685234 -0.0033710627
-0.0019995768 -0.00056685234 -0.0037958003
-0.00042848074 0.0033302575 -0.0025923774
-0.0010712019 -0.00042513924 -0.0045744856
0.0022138171 0.0021965527 -0.0013889543
0.00021424037 -0.0003542827 -0.00018553136
-0.0024280574 0.00085027848 -0.0030171147
0.00035706727 -0.0041096793 -0.0039373795
0.0018567498 -0.00077942194 -0.0037250107
0.00078554801 -0.00042513924 -0.00018553136
-0.0024280574 -0.0011337047 -0.0025215878
0.0010712019 -0.0040388228 -0.0017429022
-0.0017853364 -0.0034011139 -0.0040081688
-0.0013568556 -0.0041096793 -0.0037250107
0.0020709902 0.0028342616 -0.0017429022
-0.0024280574 0.0011337047 -0.0025923774
0.0019281632 -0.003542827 -0.0039373795
-0.0024280574 -0.0019839832 -0.0020968502
-0.0014996825 -0.0034719706 -0.004362117
-0.00035706727 0.0029051183 -0.0010350064
-0.0024280574 -0.0029759747 -0.0025215878
0.0009997884 0.0029051183 -0.00096421683
0.00042848074 0.0027634052 -0.00075184804
0.0014282691 -0.00092113501 -0.00061026885
-0.00064272108 -0.0003542827 -0.0047160648
0.0012854422 -0.0012045612 -0.00046868972
0.0019995768 -0.0032594008 -0.0037250107
-0.0011426152 -0.0041096793 -0.0040081688
0.0017853364 -0.00070856541 -0.00082263764
0.0012140287 -0.0017714135 -0.00032711052
0.00071413454 -0.0041096793 -0.0020260606
0.0024280574 -0.0031885444 -0.0025923774
-0.0009997884 0.0037553967 -0.0016013231
0.0011426152 0.0009919916 -0.00025632096
0.00035706727 0.0022674093 -0.00018553136
-0.0022852304 -0.00014171308 -0.0016721126
0.0024280574 -0.00368454 -0.0025923774
-0.00064272108 -0.0041096793 -0.0013181648
-0.0002856538 0.0029051183 -0.0039373795
0.00092837488 0.0027634052 -0.0040789586
-0.0017139229 0.0024091224 -0.0040789586
0.0011426152 -0.00014171308 -0.00025632096
0.0013568556 -0.0032594008 -0.00046868972
0.0022852304 0.0023382658 -0.0016013231
0.0024280574 -0.0026925486 -0.0024507982
0.00057130761 -0.0041096793 -0.002663167
-0.0024280574 -0.0012754177 -0.0031586939
0.0013568556 -0.0040388228 -0.0033710627
-0.0019995768 0.0021256963 -0.00096421683
0.0018567498 0.0004959958 -0.00096421683
0.001571096 -0.0015588439 -0.0042205378
-0.0011426152 -0.0024091224 -0.00039790012
0.00042848074 -0.0029051183 -0.00025632096
-0.0021424037 0.0025508355 -0.0028755355
-0.00035706727 0.0009919916 -0.00018553136
-0.0019995768 0.0021256963 -0.0010350064
-0.002356644 0.0013462743 -0.0033002731
-0.00078554801 0.0026925486 -0.0042913272
-0.0009997884 0.0037553967 -0.00046868972
-0.0019995768 0.0024799788 -0.0037250107
-0.00064272108 0.0038971098 -0.0023800086
0.0012140287 -0.0021965527 -0.00032711052
-0.001571096 -0.0017714135 -0.004149748
-0.00064272108 -0.0041096793 -0.0040789586
0.00064272108 0.0038262533 -0.0021676398
-0.0024280574 0.00092113501 -0.0023800086
-0.0022138171 0.001700557 -0.0035834315
0.0024280574 0.0020548396 -0.0020260606
-0.00092837488 0.0040388228 -0.00011474178
0.00021424037 -0.00070856541 -0.00018553136
-0.0010712019 0.0037553967 -0.0010350064
0.0020709902 0.0023382658 -0.0037250107
-0.00057130761 0.00070856541 -0.0047160648
-0.0017853364 -0.0010628481 -0.00082263764
-0.0020709902 0.0020548396 -0.0012473752
0.0022852304 -0.0012754177 -0.0032294835
0.0002856538 0.0024091224 -0.00018553136
0.00035706727 0.003542827 -0.0022384294
-0.0024280574 -0.0029051183 -0.0024507982
-0.00042848074 0.0028342616 -0.0010350064
0.00071413454 -0.0015588439 -0.0046452754
-0.0024280574 0.0012045612 -0.0021676398
-0.00092837488 -0.0041096793 -0.0012473752
0.0017853364 0.00184227 -0.0042205378
0.00064272108 -0.0003542827 -0.0047160648
-0.0010712019 -0.00042513924 -0.00025632096
0.00057130761 0.0038971098 -0.0013181648
0.00071413454 0.0021256963 -0.00018553136
-0.0014996825 7.0856542e-05 -0.00061026885
-0.0012140287 -0.0041096793 -0.0014597439
-0.0024280574 -0.0027634052 -0.0025923774
-0.00042848074 0.0034011139 -0.0025923774
-0.0018567498 -0.0016297004 -0.00082263764
0.00071413454 -0.0041096793 -0.00089342723
0.0011426152 0.0011337047 -0.00025632096
-0.0018567498 0.0026216921 -0.0011765856
0.0014996825 0.0012754177 -0.00068105845
-0.0024280574 0 -0.0017429022
-0.0012140287 0.0029759747 -0.002663167
-0.0010712019 -0.001700557 -0.00025632096
-0.0020709902 0.0025508355 -0.0036542211
0.0017853364 -0.0012754177 -0.0038665899
-0.0017853364 0.0026216921 -0.0030171147
-0.0024280574 -0.0022674093 -0.0027339566
-0.0024280574 -0.00085027848 -0.0023800086
-7.1413451e-05 -0.0021965527 -0.0047160648
-0.0013568556 -0.0024799788 -0.004362117
0.0021424037 -0.0039679664 -0.0033002731
-0.0002856538 -0.0019131267 -0.0047160648
0.00071413454 0.0026925486 -0.00039790012
0.00057130761 -0.0041096793 -0.0037958003
-0.0009997884 0.0039679664 -0.0023800086
0.0004998942 -0.0039679664 -0.00025632096
0.0014996825 0.0036136836 -0.0023800086
0.0024280574 -0.0015588439 -0.0030879043
-0.0024280574 -0.00092113501 -0.002309219
0.0018567498 -0.0003542827 -0.00082263764
-0.0012140287 -0.0041096793 -0.0025215878
-0.0014996825 -0.0026925486 -0.00061026885
0.0020709902 0.0020548396 -0.0037958003
0.0012140287 0.00042513924 -0.004362117
-0.0022852304 0.00077942194 -0.0033002731
-0.00092837488 -0.0041096793 -0.0042205378
-0.00021424037 0.00042513924 -0.00018553136
0.0017853364 0.0027634052 -0.0035126419
0.0024280574 -0.00021256962 -0.0021676398
0.0020709902 0.0026925486 -0.0035126419
-0.0017853364 0.0021256963 -0.00082263764
0.0018567498 -0.00014171308 -0.0038665899
0.0021424037 0.0027634052 -0.0016721126
0.0022852304 0.00092113501 -0.0015305335
0.0004998942 -0.0041096793 -0.0029463251
0.0017853364 -0.0038971098 -0.0013889543
-0.0019995768 0.0026216921 -0.0035834315
7.1413451e-05 -0.00021256962 -0.0047160648
0.0024280574 0.0021965527 -0.0024507982
-0.00078554801 0.00014171308 -0.00025632096
-0.00092837488 0.0040388228 0.0020089459
-7.1413451e-05 -0.0037553967 -0.0047160648
-0.0017139229 -0.0033302575 -0.00082263764
0.0016425095 0.0016297004 -0.00075184804
0.0010712019 -0.0013462743 -0.0045744856
-0.00071413454 -0.0022674093 -0.0046452754
-0.0001428269 0.0015588439 -0.00018553136
-0.00021424037 0.00092113501 -0.0047160648
7.1413451e-05 -0.0039679664 -0.00025632096
-0.0024280574 0.0015588439 -0.0032294835
-0.0009997884 0.00014171308 -0.00025632096
0.0018567498 -0.0014171308 -0.0038665899
0.0012140287 0.00021256962 -0.00025632096
0.0022852304 0.0024091224 -0.0018136918
-7.1413451e-05 0.0034719706 -0.0025923774
0.0018567498 -0.00085027848 -0.00082263764
-0.0011426152 0.00368454 -0.0018136918
0.0024280574 -7.0856542e-05 -0.0028047462
-0.0012140287 -0.0031176878 -0.00039790012
-0.0017853364 0.00092113501 -0.00082263764
0.001571096 -0.00063770887 -0.00075184804
0.0020709902 -0.003542827 -0.0012473752
0.00021424037 -0.0011337047 -0.0047160648
0.0020709902 0.00042513924 -0.0011765856
0.0001428269 0.0003542827 -0.0047160648
0.0020709902 -0.0025508355 -0.0037250107
0.0012140287 -0.0040388228 -0.0038665899
-0.0020709902 0.0011337047 -0.0038665899
0.0009997884 0.0015588439 -0.00018553136
0.0024280574 -0.0023382658 -0.0028755355
0.0020709902 -0.00368454 -0.0037250107
-0.0020709902 0.0004959958 -0.0012473752
0.00078554801 -0.00014171308 -0.0047160648
-0.0022852304 0.001700557 -0.0035834315
-0.0019281632 0.0020548396 -0.0037958003
-0.002356644 0.0026216921 -0.0024507982
-0.0019281632 0.0003542827 -0.0039373795
0.0001428269 -0.0041096793 -0.0020260606
-0.0018567498 0.0026216921 -0.0012473752
-0.0022852304 0.00028342617 -0.0016721126
-0.0009997884 0.0026925486 -0.00082263764
-0.00042848074 0.0038262533 -0.0018844814
-0.001571096 -0.0023382658 -0.00075184804
0.00057130761 0.0028342616 -0.0022384294
0.00057130761 -0.0004959958 -0.0047160648
0.00042848074 -0.0041096793 -0.0021676398
-0.00078554801 -0.0011337047 -0.00025632096
-0.00021424037 -0.0025508355 -0.00025632096
0.00085696147 0.0041096793 -0.001105796
0.00042848074 0.0015588439 -0.0047160648
-0.0011426152 0.00368454 -0.00061026885
-0.001571096 -0.0010628481 -0.004149748
-0.0012854422 0.0012754177 -0.0044329064
-0.0022138171 0.0021256963 -0.0013181648
-0.0024280574 0.00085027848 -0.0025215878
0.00092837488 0.0009919916 -0.00018553136
0.0004998942 -0.0015588439 -0.00025632096
-0.0022852304 0.00014171308 -0.0016013231
-0.00021424037 0.0013462743 -0.00018553136
0.00071413454 -0.0038971098 -0.0047160648
-0.00064272108 -0.0034719706 -0.00039790012
-0.00057130761 -0.0041096793 -0.0024507982
0.002356644 -0.0027634052 -0.0033710627
7.1413451e-05 0.0017714135 -0.00018553136
0.0001428269 -0.0041096793 -0.0035834315
0.0024280574 -0.0034011139 -0.0020260606
-0.0022852304 0.0023382658 -0.0015305335
0.00085696147 0.0029051183 -0.00082263764
-0.0020709902 -0.0034719706 -0.0012473752
-0.00035706727 0.00368454 -0.0018844814
0.0019995768 -0.00056685234 -0.0013889543
0.00035706727 -0.0041096793 -0.0033710627
-0.0013568556 -0.00063770887 -0.00053947931
0.0017853364 0.0026216921 -0.00096421683
-0.0001428269 0.0028342616 -0.00082263764
0.0001428269 0.0012045612 -0.0047160648
0.0016425095 0.00014171308 -0.00068105845
0.00035706727 0.0041096793 -0.0016721126
0.0014996825 0.0026925486 -0.0042205378
-0.00071413454 0.0027634052 -0.0042205378
0.00092837488 0.0027634052 -0.0020968502
-0.0002856538 -0.0020548396 -0.0047160648
-0.0004998942 -0.0016297004 -0.00025632096
0.0009997884 -0.0026216921 -0.0046452754
-0.0022138171 0.00042513924 -0.0013889543
-0.0014282691 -0.0041096793 -0.0021676398
-0.0024280574 -0.0034719706 -0.0018844814
-0.00085696147 0.0039679664 -0.0023800086
0.0014282691 0.00077942194 -0.004362117
0 0.0029051183 -0.0018844814
-0.0014996825 0.0026925486 -0.0017429022
0.0024280574 -0.0016297004 -0.0020260606
-0.0022852304 -0.00092113501 -0.0016013231
0.00085696147 0.0017714135 -0.00018553136
-0.0014282691 0.0026925486 -0.0029463251
-0.0013568556 -0.0010628481 -0.004362117
0.0019995768 -0.0014879873 -0.0011765856
0.0004998942 0.0038971098 -0.001955271
0.00057130761 0.0027634052 -0.00075184804
-0.0011426152 0.0027634052 -0.0020260606
-0.0013568556 0.00368454 -0.001955271
-0.0013568556 -0.00092113501 -0.0042913272
0.00064272108 0.0029051183 -0.0032294835
0.0024280574 0.0003542827 -0.0030171147
-0.00078554801 0.0026925486 -0.00053947931
-0.0012854422 -0.00014171308 -0.00025632096
-0.0009997884 0.0027634052 -0.0035834315
-0.0009997884 0.0039679664 -0.0015305335
0.00057130761 0.0021256963 -0.0047160648
-0.0022852304 -0.0036136836 -0.0033710627
0.0012140287 -0.0028342616 -0.00039790012
0.0024280574 -0.00056685234 -0.0028047462
-0.0012854422 -0.0041096793 -0.0022384294
-0.001571096 -0.0041096793 -0.0015305335
-0.0019995768 0.001700557 -0.0037250107
-0.0024280574 0 -0.0032294835
-0.00085696147 0.0024799788 -0.00018553136
-0.00071413454 0.0038262533 -0.0011765856
0.0009997884 -0.0040388228 -0.0042913272
-0.0014282691 0.00021256962 -0.00053947931
0.0021424037 -0.0039679664 -0.0022384294
-0.0001428269 -0.0032594008 -0.00025632096
0.0009997884 0.0039679664 0.0022213145
-0.0004998942 0.00184227 -0.00018553136
-0.0001428269 -0.0041096793 -0.002309219
0.0017139229 -0.00077942194 -0.00061026885
-0.0024280574 -0.0022674093 -0.002663167
-0.0022852304 -0.0034719706 -0.0033710627
-0.0004998942 -0.0041096793 -0.0044329064
-0.001571096 0.003542827 -0.0025215878
0.0020709902 -0.0039679664 -0.0024507982
-0.00071413454 0.00184227 -0.0047160648
0.0020709902 -0.0039679664 -0.0016721126
0.002356644 0.0020548396 -0.0034418523
-0.00092837488 0.0027634052 -0.0014597439
0.00085696147 0.0038971098 -0.0023800086
-0.0011426152 0.0038971098 -0.0014597439
-0.0019995768 0.0026216921 -0.0031586939
-0.0022852304 -0.0029759747 -0.0015305335
0.0020709902 0.00184227 -0.0011765856
-0.0019281632 -0.0025508355 -0.0037958003
0.00021424037 -0.00056685234 -0.0047160648
-0.00092837488 0.0040388228 -0.0016013231
-0.00035706727 -0.00085027848 -0.0047160648
-0.0009997884 0.0039679664 -0.0018844814
0.0017139229 -0.0013462743 -0.00068105845
0.0024280574 -0.001700557 -0.0023800086
-0.00064272108 0.0027634052 -0.0042205378
0 -0.0041096793 -0.0039373795
-0.0011426152 -0.0010628481 -0.0045036962
0.0017853364 -0.0038971098 -0.0040081688
-0.0019281632 0.00184227 -0.0037958003
-0.00021424037 0.00368454 -0.001955271
-0.00021424037 -0.0021256963 -0.00025632096
0.0014282691 0.0012754177 -0.0044329064
0.0018567498 -0.0009919916 -0.00096421683
0.0018567498 -0.0040388228 -0.0022384294
-0.0019281632 0.00021256962 -0.0040081688
-0.0014996825 -0.00077942194 -0.00053947931
-0.0019281632 0.0031885444 -0.0024507982
-0.0021424037 -0.0031885444 -0.0013889543
-0.00035706727 -0.0022674093 -0.00025632096
-0.0001428269 0.0024799788 -0.00018553136
0.00042848074 0.00021256962 -0.0047160648
0.00085696147 0.00042513924 -0.0047160648
-0.0012854422 -0.0004959958 -0.0045036962
-0.0024280574 0.0022674093 -0.0020260606
0.0013568556 0.0028342616 -0.00082263764
-0.0022852304 -0.00077942194 -0.0016013231
0.0024280574 0.001700557 -0.0018136918
0.00092837488 -0.0033302575 -0.0046452754
0.00035706727 0.0034011139 -0.0025923774
-0.00064272108 -0.00056685234 -0.00025632096
0.0011426152 -0.0040388228 -0.0028755355
0.0020709902 -0.0021965527 -0.0011765856
0.0022138171 0.0014879873 -0.0013181648
0.00078554801 -0.0041096793 -0.0038665899
0.00057130761 0.0040388228 -0.0021676398
0.0009997884 0.0039679664 2.6837395e-05
0.0019281632 -0.00014171308 -0.0036542211
0.0019995768 -0.001700557 -0.0035834315
0.0022138171 -0.00092113501 -0.0033710627
-0.0020709902 0.0024091224 -0.0012473752
0.0018567498 -0.0040388228 -0.0020968502
-0.0016425095 0.0026216921 -0.0035834315
0.0022852304 7.0856542e-05 -0.0016013231
0 -0.00085027848 -0.0047160648
-0.0010712019 0.00077942194 -0.00025632096
7.1413451e-05 0.00070856541 -0.00018553136
-0.0024280574 -0.00014171308 -0.0025923774
0.001571096 0.0027634052 -0.0020260606
-0.0012854422 -0.0021256963 -0.0044329064
-0.0010712019 0.0037553967 -4.395219e-05
-0.0021424037 -0.0012045612 -0.0013889543
0.0011426152 -0.0014879873 -0.00025632096
0.00085696147 0.0026216921 -0.0045036962
0.0022852304 0.00070856541 -0.0016013231
0.00078554801 0.00042513924 -0.00018553136
-0.0012854422 0.0030468313 -0.0022384294
-0.0017853364 -0.0017714135 -0.0038665899
-7.1413451e-05 0.0022674093 -0.0047160648
7.1413451e-05 -0.0037553967 -0.0047160648
-0.00085696147 0.0039679664 -0.0017429022
-0.0012854422 -0.0021965527 -0.0042913272
0.00057130761 0.0038971098 -0.0020260606
-0.00085696147 0.0026925486 -0.00046868972
0.002356644 -0.00184227 -0.0015305335
-0.0012140287 0.0026925486 -0.0012473752
-0.001571096 0.00056685234 -0.00068105845
-0.0019281632 -0.001700557 -0.0035834315
-0.0010712019 7.0856542e-05 -0.0046452754
0.0001428269 0.0038262533 -0.0025215878
0.00071413454 -0.00042513924 -0.0047160648
-0.0013568556 0.0012754177 -0.0044329064
-0.0011426152 0.0027634052 -0.0015305335
0.0012140287 -0.0012754177 -0.00032711052
0.002356644 7.0856542e-05 -0.0030879043
-0.0013568556 0.0024091224 -0.004362117
-0.0024280574 0.0014879873 -0.0033002731
-0.0019995768 -0.0022674093 -0.0036542211
0.0017139229 -0.0015588439 -0.00068105845
-0.0002856538 0.00368454 -0.0025923774
0.0024280574 -0.00077942194 -0.0021676398
0.001571096 -0.0019131267 -0.00075184804
0.0011426152 0.0026216921 -0.00053947931
-0.00085696147 0.00028342617 -0.0047160648
-0.0012140287 -0.0010628481 -0.0045036962
0.00021424037 0.0040388228 -0.002309219
-0.0012854422 0.00063770887 -0.00032711052
0.0010712019 0.0028342616 -0.001105796
0.00092837488 -0.0028342616 -0.00025632096
-0.0012854422 -0.00063770887 -0.00025632096
-0.00035706727 -0.0036136836 -0.00025632096
0.0017139229 -0.00014171308 -0.00068105845
0.0019281632 -0.0034719706 -0.0038665899
0.0022852304 -0.0036136836 -0.0015305335
0.0022852304 -0.0036136836 -0.0030879043
-0.001571096 -0.0041096793 -0.0039373795
0.0009997884 0.0029051183 -0.0031586939
-0.0012854422 0.001700557 -0.00039790012
0.0024280574 -0.0010628481 -0.0030879043
-0.0004998942 0.00368454 -0.0025923774
0.0022852304 0.00063770887 -0.0031586939
-0.002356644 0.0024799788 -0.0018136918
-0.0009997884 0.0037553967 -0.00075184804
-0.0010712019 0.0032594008 -0.0022384294
7.1413451e-05 0.0029759747 -0.0028047462
-0.0009997884 0.0026925486 -0.0040081688
0.0016425095 0.00077942194 -0.00075184804
-0.00057130761 0.0010628481 -0.00018553136
0.00042848074 0.0029051183 -0.0012473752
0.0011426152 -0.0024799788 -0.00025632096
-0.00078554801 0.00021256962 -0.00025632096
-0.0021424037 0 -0.0013181648
-0.0024280574 -0.0012045612 -0.0020260606
0.0016425095 0.0014879873 -0.0042205378
0.0024280574 -0.0003542827 -0.002309219
-0.001571096 0.0031176878 -0.0022384294
-7.1413451e-05 -0.00014171308 -0.0047160648
0.0013568556 -0.0031176878 -0.00046868972
0.0012140287 -0.0014879873 -0.00025632096
-7.1413451e-05 0.0032594008 -0.0025923774
0.0018567498 -0.00092113501 -0.00082263764
-0.0020709902 -0.0041096793 -0.0020968502
0.00071413454 -0.0041096793 -0.0024507982
-7.1413451e-05 -0.0041096793 -0.0025923774
0.00064272108 0.0024091224 -0.0046452754
0.0018567498 0.0012045612 -0.00096421683
0.0022852304 0.001700557 -0.0034418523
0.00071413454 0.0032594008 -0.0022384294
0.00092837488 0.0026216921 -0.00053947931
-0.00078554801 0.0014879873 -0.0047160648
-0.0019995768 0.0026216921 -0.001955271
-0.0017853364 0.0017714135 -0.0040789586
-0.0014282691 -0.0031885444 -0.0042913272
0.00021424037 0.0026925486 -0.0045036962
-0.00071413454 0.0022674093 -0.00018553136
0.0019995768 0.0026925486 -0.0036542211
0.0017853364 -0.0003542827 -0.0037958003
0.0024280574 0.0010628481 -0.0030171147
0.00071413454 -0.0011337047 -0.0047160648
0.00057130761 -0.0019839832 -0.0047160648
-0.0019995768 -0.0036136836 -0.0038665899
0.0022852304 0.0015588439 -0.0035126419
-0.00078554801 -0.0030468313 -0.00039790012
-0.00057130761 -0.0017714135 -0.00025632096
-0.0024280574 -0.0019131267 -0.001955271
-0.0004998942 0.00070856541 -0.0047160648
-0.0013568556 -0.0041096793 -0.0039373795
0.0022138171 -0.00070856541 -0.0034418523
-0.0013568556 0.0009919916 -0.0044329064
0.00064272108 0.0040388228 -0.00082263764
0.00085696147 0.0032594008 -0.0022384294
0.00035706727 0.0015588439 -0.0047160648
0.0020709902 0.0017714135 -0.0037958003
-7.1413451e-05 -0.0014171308 -0.0047160648
-0.0013568556 -0.00368454 -0.00046868972
0.0012854422 -0.0015588439 -0.00046868972
0.0019995768 -0.00042513924 -0.0013889543
0.00021424037 0.0039679664 -0.0022384294
-7.1413451e-05 0.00085027848 -0.00018553136
0.00092837488 0.0025508355 -0.00025632096
-0.0009997884 -0.00077942194 -0.00025632096
0 -0.0039679664 -0.00025632096
0.00035706727 -0.0041096793 -0.0042205378
0.0016425095 -0.0017714135 -0.00075184804
0.0017853364 -0.00021256962 -0.00082263764
0.0021424037 -0.00368454 -0.0013181648
-0.0002856538 0.0026216921 -0.0047160648
-0.00078554801 -0.00085027848 -0.0046452754
-0.0009997884 0.0039679664 0.0020089459
0.0016425095 -0.0039679664 -0.0014597439
-0.0018567498 0.0021965527 -0.00089342723
-0.0022852304 0 -0.0015305335
0.0002856538 0.0034719706 -0.0025923774
0.0012140287 -0.0040388228 -0.00068105845
-0.00078554801 -0.0041096793 -0.00082263764
-0.00042848074 0.00014171308 -0.0047160648
0.0021424037 -0.0017714135 -0.0014597439
-0.0018567498 -0.0029759747 -0.00096421683
-0.00092837488 0.0037553967 -0.0013889543
-0.00071413454 0.0033302575 -0.0022384294
0.0013568556 -0.0025508355 -0.00053947931
0.0017853364 0.0029051183 -0.0027339566
0.002356644 -0.0026925486 -0.0030879043
0.0014996825 -0.0039679664 -0.00089342723
-0.00078554801 0.0025508355 -0.0045036962
-0.0021424037 0.0024091224 -0.0035126419
-0.0022852304 0.0028342616 -0.002309219
0.0018567498 -0.0024799788 -0.00082263764
0.0019995768 0 -0.0011765856
-0.00071413454 -0.0041096793 -0.0040789586
0.0017853364 -0.0015588439 -0.0040081688
0.00042848074 0.00184227 -0.0047160648
0.0011426152 0.0038262533 -0.0021676398
0.0013568556 -7.0856542e-05 -0.0042205378
0.0001428269 0.0009919916 -0.00018553136
0.001571096 -0.0021256963 -0.00075184804
0.0022852304 0.0015588439 -0.0033002731
0.0017853364 -0.0016297004 -0.0040081688
-0.0017139229 -0.0019131267 -0.0040789586
-0.00092837488 -0.0038971098 -0.0046452754
-0.0019995768 -0.00070856541 -0.0037250107
0.0009997884 0.0029051183 -0.0015305335
-0.0017853364 0.0026216921 -0.0028755355
7.1413451e-05 0.0029051183 -0.0033710627
0.0024280574 -0.00028342617 -0.0020260606
-0.0017853364 -0.00063770887 -0.0040081688
0.0022852304 0.0004959958 -0.0033002731
-0.0017853364 0.0015588439 -0.0040789586
0.00085696147 0.0012045612 -0.00018553136
-0.0024280574 -0.00021256962 -0.0024507982
-0.00064272108 -0.0021256963 -0.0046452754
0.00064272108 -0.0031885444 -0.00025632096
0.0020709902 -0.0013462743 -0.0012473752
-0.0017853364 0.00184227 -0.0042205378
0.00042848074 0.0027634052 -0.004362117
0.0022138171 0.0027634052 -0.0025215878
0 -0.0026216921 -0.00025632096
-0.0021424037 -0.0027634052 -0.0014597439
0.0012854422 0.0021256963 -0.00025632096
-0.0021424037 -0.0029759747 -0.0035834315
0.0017853364 -0.0014879873 -0.0039373795
-0.0024280574 -0.0029051183 -0.0018844814
0.0012140287 -0.0011337047 -0.00025632096
0.0018567498 -0.00014171308 -0.00082263764
-0.0010712019 0.00021256962 -0.0046452754
-0.0024280574 -0.0025508355 -0.0025215878
0.0012140287 -0.00184227 -0.00039790012
0 0.0024799788 -0.0047160648
0.0022138171 -0.0034719706 -0.0015305335
0.0012854422 0.0003542827 -0.004362117
0.00035706727 0.0029051183 -0.0018136918
0.0022138171 -0.0031885444 -0.0035126419
-0.0024280574 -0.0014171308 -0.0020968502
-0.0009997884 -0.00028342617 -0.00025632096
0.00021424037 -0.00085027848 -0.00018553136
-0.00042848074 -0.0041096793 -0.00053947931
-0.0004998942 -0.0041096793 -0.0040789586
-0.00057130761 -0.0041096793 -0.00053947931
-0.0013568556 -0.0024799788 -0.00053947931
0.002356644 -0.0033302575 -0.0031586939
-0.00078554801 0.0028342616 -0.0032294835
0.0024280574 0.0013462743 -0.0025923774
-0.0016425095 -0.0034719706 -0.00082263764
0.0011426152 0.0038971098 -0.0021676398
-0.0016425095 -0.00085027848 -0.00082263764
0.00021424037 -0.0004959958 -0.0047160648
-0.002356644 0.00184227 -0.0015305335
-0.0010712019 -0.0024799788 -0.0045036962
0.0002856538 -0.0028342616 -0.0047160648
-0.0010712019 0.00042513924 -0.0047160648
0.00078554801 0.0041096793 -0.00082263764
0.0011426152 0.0014171308 -0.0045744856
-0.0024280574 -0.0026925486 -0.0025215878
-0.0011426152 -0.00070856541 -0.00025632096
0.00042848074 0.0029051183 -0.0011765856
-0.0019281632 0.0022674093 -0.0039373795
0.0018567498 -0.0010628481 -0.00082263764
-0.001571096 -0.0011337047 -0.004149748
-0.0024280574 0.0009919916 -0.0030879043
0 0.0026925486 -0.00039790012
0.0018567498 -7.0856542e-05 -0.004149748
0.0013568556 -0.0040388228 -0.0016013231
0.0019995768 -0.0023382658 -0.0037250107
0.0022852304 -0.0022674093 -0.0015305335
0.0020709902 -0.0011337047 -0.0011765856
0.0012140287 -0.0024091224 -0.0045744856
-0.0016425095 -0.0041096793 -0.0015305335
-0.0017139229 0.0033302575 -0.0022384294
0.00085696147 -0.0016297004 -0.00025632096
0.0009997884 -0.0040388228 -0.0016013231
0.00085696147 0.0039679664 -0.0014597439
-0.0014282691 0.00028342617 -0.004362117
-0.0009997884 0.0020548396 -0.00018553136
0.0021424037 0.0027634052 -0.0017429022
0.00085696147 0.00014171308 -0.0046452754
0.0024280574 0.0020548396 -0.0022384294
-0.0012140287 -0.0025508355 -0.0044329064
0.0017853364 -0.0039679664 -0.0016013231
0.0018567498 0.00042513924 -0.004149748
-0.0022852304 0.00077942194 -0.0015305335
-0.00035706727 0.00056685234 -0.00018553136
0.0022852304 0.0016297004 -0.0032294835
-0.0019995768 -0.00042513924 -0.0011765856
-0.0024280574 -0.001700557 -0.0032294835
0.0017853364 -0.0004959958 -0.0039373795
0.0024280574 -0.0003542827 -0.0029463251
0.0001428269 -0.0041096793 -0.00046868972
-0.00085696147 -0.0041096793 -0.0037958003
-0.0016425095 -0.0041096793 -0.0031586939
0.0016425095 0.0031176878 -0.0025923774
-0.0010712019 -0.0041096793 -0.0015305335
0.00064272108 0.0029051183 -0.00096421683
-0.00078554801 -0.00092113501 -0.0047160648
-0.00064272108 -0.00014171308 -0.00025632096
-0.0016425095 -0.0012045612 -0.00082263764
-0.00021424037 0.001700557 -0.0047160648
0.0024280574 -0.0021965527 -0.0020968502
-0.0024280574 7.0856542e-05 -0.0023800086
0.0019995768 0.0028342616 -0.0027339566
-0.0017139229 0.0017714135 -0.0042205378
-0.0024280574 0.0012754177 -0.0031586939
-0.00092837488 0.0038971098 0.0027876312
0.0011426152 -0.0027634052 -0.00025632096
0.0009997884 -0.0024091224 -0.0046452754
-0.00042848074 0.0028342616 -0.0035834315
-0.0013568556 0.0012754177 -0.00046868972
0.00085696147 0.0038262533 -0.0025215878
7.1413451e-05 -0.0025508355 -0.0047160648
0.00071413454 0.00063770887 -0.00018553136
-0.0013568556 -0.0024091224 -0.00046868972
-0.0024280574 0.00092113501 -0.0020968502
0.0009997884 0.0039679664 -0.0018136918
-0.0004998942 0.0013462743 -0.00018553136
-0.002356644 0.0017714135 -0.0016013231
0.0017139229 0.0027634052 -0.0036542211
0.0017853364 -0.0013462743 -0.00082263764
-0.0017853364 -0.00042513924 -0.0040081688
-0.0018567498 -0.0015588439 -0.00082263764
0.00064272108 0.0012045612 -0.00018553136
0.0017853364 -0.0023382658 -0.0040789586
0.0012140287 -0.0014171308 -0.0044329064
-0.0019281632 -0.0041096793 -0.0030879043
-0.0011426152 -0.0025508355 -0.00039790012
-0.0009997884 0.0034011139 -0.0022384294
0.0012854422 0.00028342617 -0.00025632096
0.0024280574 0.0013462743 -0.0027339566
-0.0002856538 0.0026925486 -0.0042913272
-0.0010712019 -0.0014879873 -0.0045036962
-0.0024280574 0.0021965527 -0.0018844814
-0.00057130761 -0.0041096793 -0.0014597439
0.0004998942 0.0033302575 -0.0025923774
-0.0009997884 -7.0856542e-05 -0.00025632096
-0.00021424037 -0.0041096793 -0.0045744856
-0.0019281632 -0.00021256962 -0.00096421683
-0.00071413454 -0.0031176878 -0.0046452754
-0.0022138171 0.0004959958 -0.0035834315
-0.0024280574 0.00092113501 -0.002663167
0.0004998942 0.0027634052 -0.004362117
0.0012140287 -0.0026216921 -0.00039790012
-0.0010712019 -0.0037553967 -0.00039790012
0.0018567498 0.0020548396 -0.00082263764
-0.0014282691 0.00184227 -0.00046868972
0.0009997884 -0.00070856541 -0.00025632096
-0.00092837488 -0.0016297004 -0.00025632096
-0.0019281632 -0.00056685234 -0.00096421683
0.002356644 -0.003542827 -0.0031586939
0.00064272108 0.0040388228 -0.0014597439
0.0012854422 0.0037553967 -0.0022384294
-0.0018567498 0.0009919916 -0.00089342723
-0.00071413454 0.0014171308 -0.00018553136
0.0014996825 -0.0037553967 -0.004362117
-0.0022138171 0.0022674093 -0.0035126419
0 0.0029051183 -0.0038665899
-0.00064272108 0.0028342616 -0.0037958003
0.002356644 -0.00077942194 -0.0017429022
-0.0020709902 -0.00070856541 -0.0034418523
-0.0024280574 0.00014171308 -0.0020260606
-0.0013568556 -0.0014171308 -0.0042913272
-0.0019995768 -0.0041096793 -0.0018844814
-0.0024280574 0.0020548396 -0.0028047462
0.0022852304 -0.0004959958 -0.0015305335
-0.0024280574 -0.00021256962 -0.0018136918
0.002356644 0.0015588439 -0.0030879043
0.0017139229 -0.0038971098 -0.004149748
-0.0020709902 0.0014171308 -0.0038665899
0 0.0010628481 -0.0047160648
0.00064272108 0.0025508355 -0.00018553136
-0.0013568556 -0.0039679664 -0.00061026885
0.0013568556 0.0004959958 -0.00053947931
-0.00071413454 0.00092113501 -0.00018553136
0.00057130761 -0.0041096793 -0.0022384294
-0.0024280574 7.0856542e-05 -0.0029463251
-0.0012854422 -0.00014171308 -0.00032711052
0.00042848074 -0.0023382658 -0.00025632096
7.1413451e-05 0.00021256962 -0.00018553136
0.0018567498 -0.001700557 -0.00096421683
-0.00057130761 -0.0010628481 -0.00025632096
0.001571096 -0.0020548396 -0.00075184804
0.0014282691 -0.0034011139 -0.004362117
0.0019281632 -0.0019131267 -0.0038665899
-0.0017139229 -0.00063770887 -0.0040081688
-0.0011426152 0.0038971098 -0.0020260606
0.0011426152 -0.0040388228 -0.0039373795
-0.0014996825 -0.0041096793 -0.0013889543
-0.0014996825 -0.0014171308 -0.00068105845
0.0004998942 -0.0041096793 -0.00075184804
-0.00064272108 0.0028342616 -0.0039373795
0.0017139229 0.0019839832 -0.00075184804
-0.0024280574 -0.0026925486 -0.0018844814
-0.001571096 -7.0856542e-05 -0.00061026885
0.0009997884 -0.0040388228 -0.0021676398
-0.00085696147 -0.00092113501 -0.00025632096
0.00092837488 0.0020548396 -0.0046452754
-0.001571096 0.00014171308 -0.0042205378
-0.0009997884 0.0039679664 -0.001105796
-0.00035706727 -0.0041096793 -0.0017429022
-0.0002856538 -0.0026925486 -0.0047160648
0.0004998942 0.0029051183 -0.0035126419
0.00064272108 0.0026216921 -0.00025632096
0.00092837488 -0.0011337047 -0.00025632096
0.002356644 0.0021256963 -0.0030879043
-0.0018567498 0.00021256962 -0.00082263764
-0.0012854422 0.0037553967 -0.00096421683
-0.0019281632 0.0019131267 -0.00096421683
-0.0024280574 -0.001700557 -0.0017429022
0.0013568556 -0.0003542827 -0.0042205378
0.00071413454 0.0029051183 -0.0022384294
-0.0024280574 -0.003542827 -0.0022384294
0.00042848074 0.001700557 -0.0047160648
0.0012854422 -0.00028342617 -0.00025632096
-0.0002856538 0.0019839832 -0.0047160648
0.0014282691 -0.0016297004 -0.00061026885
-0.00057130761 0.0034011139 -0.0022384294
-0.0001428269 0.0013462743 -0.00018553136
0.0012854422 0.00021256962 -0.00025632096
-0.0018567498 0.00184227 -0.00082263764
-0.0024280574 0.00063770887 -0.0020260606
0.00035706727 -0.0030468313 -0.00025632096
0.0014282691 -0.0019131267 -0.00061026885
0.0019995768 -0.00085027848 -0.0011765856
0.0014282691 0.0029051183 -0.0015305335
0.00078554801 0 -0.00018553136
0.0024280574 -0.0031176878 -0.0017429022
0.0017853364 0.0028342616 -0.0022384294
0.0011426152 -0.001700557 -0.0046452754
0.0017853364 -0.0024799788 -0.0040789586
0.0004998942 -0.0041096793 -0.0039373795
0.0024280574 -0.0034719706 -0.0027339566
0.0017139229 -0.0034719706 -0.00075184804
-0.00021424037 0.00085027848 -0.00018553136
-0.0021424037 7.0856542e-05 -0.0036542211
0.0024280574 0.0013462743 -0.0020968502
-0.00092837488 0.0038971098 0.00016841656
-0.0009997884 0.0039679664 0.0023628937
-0.0002856538 0.0026925486 -0.00053947931
-0.0020709902 7.0856542e-05 -0.0012473752
-0.0020709902 0.0012754177 -0.0039373795
0.0010712019 0.0022674093 -0.0045744856
-0.00021424037 0.0029051183 -0.0013889543
0.0020709902 -0.00184227 -0.0011765856
0.0017139229 -0.0004959958 -0.004149748
-7.1413451e-05 -0.0026925486 -0.0047160648
0.00092837488 -0.0034719706 -0.00025632096
-0.0024280574 0 -0.0025923774
0.0020709902 0.0026925486 -0.0034418523
0.0020709902 -0.00092113501 -0.0033710627
-0.0022138171 0.0014171308 -0.0014597439
-0.0002856538 0.0036136836 -0.0025923774
-0.0024280574 0.0019131267 -0.0028047462
-0.00085696147 0.0016297004 -0.0047160648
-0.0014282691 -7.0856542e-05 -0.00061026885
0.0014282691 -0.0029051183 -0.00061026885
0.0009997884 -0.0026925486 -0.0046452754
-0.0011426152 0.0038971098 -0.00089342723
-0.0019995768 0.0026216921 -0.0035126419
-0.0011426152 -0.001700557 -0.0044329064
-0.00035706727 0.0012754177 -0.00018553136
0.00071413454 0.0027634052 -0.0042205378
0.00071413454 0.0020548396 -0.0046452754
-0.0024280574 0.0021965527 -0.0023800086
0.00085696147 -0.0014879873 -0.0046452754
0.0020709902 -0.0027634052 -0.0012473752
0.0019995768 0.00070856541 -0.0037958003
0.0013568556 -0.0040388228 -0.0028047462
0.002356644 -0.0036136836 -0.0017429022
-0.0018567498 -0.0041096793 -0.001955271
-0.0009997884 0.0028342616 -0.0022384294
-0.00092837488 0.0040388228 0.0022921041
-0.0017139229 -0.0009919916 -0.0040081688
0.00021424037 0.00092113501 -0.00018553136
0.0012140287 -0.0020548396 -0.00039790012
-0.0024280574 0.00085027848 -0.0018136918
0.002356644 0.0020548396 -0.0031586939
0.0018567498 -0.00014171308 -0.0010350064
0.0002856538 0.0027634052 -0.0040789586
0.0024280574 -0.0024091224 -0.0028047462
-0.0014996825 -0.0036136836 -0.00061026885
-0.0021424037 -0.0016297004 -0.0034418523
0.0017139229 -0.0025508355 -0.0042205378
0.002356644 -0.0012754177 -0.0017429022
0.00085696147 -0.00056685234 -0.00025632096
-0.0024280574 0.0009919916 -0.0028047462
0.00057130761 0.0019131267 -0.0047160648
-0.0022852304 -0.0037553967 -0.0015305335
-0.00021424037 0.0029051183 -0.0012473752
-0.00078554801 -0.0041096793 -0.0045036962
0.0022852304 0.00070856541 -0.0033710627
0.002356644 0.0019131267 -0.0030879043
0.0024280574 0.0012754177 -0.0018136918
0.0013568556 0.0028342616 -0.0034418523
0.0017853364 0.0009919916 -0.00082263764
0.00078554801 -0.00184227 -0.00025632096
0.00078554801 0.0039679664 -0.0015305335
-0.0024280574 -0.0024799788 -0.0028047462
-0.0019995768 0.0017714135 -0.0040081688
-0.0016425095 -0.0038262533 -0.00082263764
0.0011426152 -0.0013462743 -0.0045036962
-0.0021424037 0.00056685234 -0.0036542211
-0.00057130761 0.0028342616 -0.0011765856
0.0022852304 0.0014879873 -0.0013889543
0.0022852304 0.00092113501 -0.0016013231
-0.00064272108 0 -0.00025632096
-0.0024280574 -0.00092113501 -0.0025923774
0.002356644 0.0009919916 -0.0017429022
0.0004998942 0.0034719706 -0.0022384294
0.0022138171 -0.00042513924 -0.0033002731
0.0022852304 0.00070856541 -0.0013889543
0.0022138171 -0.0038971098 -0.0016721126
-0.0019281632 -0.0026216921 -0.0038665899
0.0022852304 0.0021965527 -0.0033710627
0.0014282691 0.0012045612 -0.0044329064
0.0022852304 0.0012045612 -0.0014597439
0.0017139229 -0.00021256962 -0.004149748
-0.0022138171 -0.0041096793 -0.0025923774
0.00035706727 -0.0037553967 -0.0047160648
-0.00064272108 -7.0856542e-05 -0.0047160648
-0.0002856538 -0.00056685234 -0.0047160648
0.0012854422 -0.0040388228 -0.0035126419
0.0013568556 -0.0021965527 -0.00053947931
-0.0024280574 0.0012754177 -0.0029463251
0.0022852304 -0.0009919916 -0.0015305335
0.0001428269 -0.0014171308 -0.00025632096
0.0009997884 0.0040388228 -0.00025632096
0.0022138171 0.0009919916 -0.0013889543
0.002356644 0.0021965527 -0.0031586939
-0.0004998942 0.0021965527 -0.0047160648
0.0019995768 0.0012045612 -0.0011765856
-0.0012854422 0.00070856541 -0.00039790012
0.0004998942 0.0031885444 -0.0027339566
-0.00035706727 -0.0041096793 -0.0027339566
-0.00078554801 -0.0009919916 -0.00025632096
0.00092837488 0.0039679664 0.00023920616
-7.1413451e-05 0.0016297004 -0.0047160648
0.0019281632 -0.0025508355 -0.0037958003
0.0019281632 0.0026925486 -0.0014597439
-0.0009997884 -0.0041096793 -0.0030171147
-0.0009997884 -0.0034719706 -0.00039790012
-0.0009997884 0.0037553967 0.00030999572
0.0012140287 -0.0024799788 -0.00032711052
0.0012140287 -0.0024091224 -0.00039790012
0.00071413454 -0.0013462743 -0.0046452754
-0.0001428269 0.0003542827 -0.0047160648
0.0001428269 0.0028342616 -0.00082263764
0.0024280574 0.0014171308 -0.0030879043
0.0011426152 0.00077942194 -0.0044329064
0.00092837488 0.0027634052 -0.0042205378
-0.00035706727 0.0026216921 -0.00025632096
-0.0018567498 -0.0012754177 -0.0037250107
0.0019995768 0.0030468313 -0.0025923774
7.1413451e-05 -0.0019131267 -0.00025632096
0.0012140287 -0.0026925486 -0.0045744856
0.0012140287 0.0021965527 -0.0045744856
-0.0009997884 0.0025508355 -0.004362117
0.0022138171 0.0013462743 -0.0036542211
0.00021424037 -0.003542827 -0.0047160648
-0.0013568556 0.00092113501 -0.00046868972
-0.00021424037 0.0029051183 -0.0035834315
-0.0014282691 -0.0026925486 -0.00061026885
-0.0009997884 -0.0011337047 -0.0045036962
0.0021424037 -0.0012045612 -0.0013889543
-0.0014996825 -0.0012754177 -0.00061026885
0.0022852304 0.0022674093 -0.0018136918
0.0014996825 0.0022674093 -0.00061026885
-0.00057130761 0.0028342616 -0.0037250107
0.0018567498 0 -0.00089342723
-0.0009997884 0.0037553967 0.0013718395
-0.00078554801 -0.0020548396 -0.00025632096
-0.0017853364 0.0019131267 -0.0040789586
0.0024280574 -0.00021256962 -0.0025923774
-0.0013568556 -0.0041096793 -0.0030171147
-0.00035706727 -0.0041096793 -0.0045744856
-0.0010712019 -0.0041096793 -0.0032294835
-0.0001428269 -0.0026925486 -0.0047160648
-0.0016425095 0.0026216921 -0.0039373795
-0.00042848074 -0.0041096793 -0.0010350064
0.0024280574 -0.00184227 -0.0021676398
-0.0001428269 -0.00042513924 -0.00025632096
0.0012140287 -0.0028342616 -0.00032711052
0.0024280574 0.0016297004 -0.0027339566
-0.0024280574 -0.0027634052 -0.0029463251
0.0024280574 -0.0029759747 -0.002663167
0.00064272108 -0.00028342617 -0.0047160648
-0.0019995768 -0.0020548396 -0.0035834315
0.001571096 0.0009919916 -0.0042205378
-0.0017853364 -0.0032594008 -0.004149748
0.00057130761 0.0024799788 -0.0046452754
-0.0010712019 0.0038262533 0.0022213145
0.0024280574 -0.0034011139 -0.0022384294
0.0024280574 0.00056685234 -0.0018136918
0.0019995768 -0.00070856541 -0.0035834315
-0.00071413454 -0.0029759747 -0.00025632096
-0.00035706727 -0.0041096793 -0.00053947931
-0.00078554801 0.00042513924 -0.00025632096
0.0024280574 -0.0019839832 -0.0018136918
0.0024280574 -0.0009919916 -0.0018844814
-0.0009997884 -0.0041096793 -0.0039373795
-7.1413451e-05 0.0029051183 -0.0038665899
0.0009997884 0.0039679664 0.0010178916
-0.0020709902 0.0025508355 -0.0030171147
-0.0001428269 -0.0012045612 -0.0047160648
-0.0017853364 -0.0034011139 -0.0040789586
-0.0018567498 -0.0012045612 -0.0037958003
-0.0016425095 0.0022674093 -0.0042205378
0.0010712019 -0.0040388228 -0.0036542211
-0.0016425095 -0.0041096793 -0.0039373795
0.0017139229 -0.0034011139 -0.00075184804
0.0022138171 -0.0004959958 -0.0014597439
0.00021424037 0.0025508355 -0.00018553136
0.0001428269 -0.0024799788 -0.0047160648
0.0012854422 0.0038262533 -0.0023800086
0.0004998942 -0.003542827 -0.00025632096
0.00085696147 0.0041096793 -0.0016721126
-0.0013568556 0.0023382658 -0.00046868972
-0.00021424037 -0.0027634052 -0.0047160648
-0.0019995768 -0.00028342617 -0.0037958003
-7.1413451e-05 0.001700557 -0.00018553136
-0.0011426152 -0.0041096793 -0.0029463251
-0.0010712019 -0.0034011139 -0.00039790012
-0.0016425095 -0.00056685234 -0.0040789586
0.0012854422 0.00063770887 -0.004362117
0.0024280574 0.0012045612 -0.0025215878
-7.1413451e-05 -0.0019131267 -0.00025632096
-0.00071413454 -0.0041096793 -0.0033710627
-0.00064272108 0.0028342616 -0.0035834315
0.0024280574 0.0009919916 -0.0020260606
-0.0009997884 0.0017714135 -0.00018553136
0.0017139229 0.00070856541 -0.00075184804
-0.0014282691 0 -0.004362117
-0.0013568556 -0.0041096793 -0.0014597439
7.1413451e-05 -0.0041096793 -0.00046868972
-0.0020709902 -0.0022674093 -0.0012473752
0.0009997884 -0.003542827 -0.0046452754
-0.0001428269 -0.0041096793 -0.0030171147
-0.001571096 0.0027634052 -0.0022384294
-0.0010712019 -0.00056685234 -0.0045744856
-0.0014282691 -0.0014171308 -0.0042205378
-0.002356644 0.0014879873 -0.0017429022
0.00064272108 0.0039679664 -0.0023800086
-0.0024280574 0.0014171308 -0.0033002731
0.0014282691 -0.00028342617 -0.00061026885
-0.0012140287 0.0026925486 -0.0037250107
-0.0011426152 0.00085027848 -0.0046452754
-0.0017853364 0.0026216921 -0.0032294835
-0.0022138171 0.0025508355 -0.0029463251
0.0019995768 -0.00085027848 -0.0035126419
0.0013568556 -0.0028342616 -0.0044329064
0.0024280574 -0.0012045612 -0.0028755355
-0.0010712019 -0.0012045612 -0.0045036962
-7.1413451e-05 -0.0041096793 -0.004149748
-0.0002856538 -0.0041096793 -0.0034418523
-0.00042848074 -0.00092113501 -0.00025632096
0.0002856538 0.0023382658 -0.0047160648
-0.0020709902 -0.00028342617 -0.0011765856
0.00085696147 -0.0041096793 -0.0040789586
-0.00042848074 7.0856542e-05 -0.00025632096
-7.1413451e-05 -0.0038262533 -0.0047160648
-0.0017853364 -0.0029051183 -0.0040789586
0.002356644 -0.0031176878 -0.0032294835
0.0013568556 -0.0029759747 -0.00053947931
-0.0019281632 0.0011337047 -0.0038665899
-0.0016425095 -0.0017714135 -0.0040789586
-0.0012854422 -0.0041096793 -0.0025215878
0.0012854422 0.0027634052 -0.00096421683
-0.0024280574 -0.0014879873 -0.0030171147
-0.0016425095 -0.0025508355 -0.0042205378
0.00078554801 0.0029051183 -0.001105796
0.0017853364 0.0026925486 -0.0040081688
-0.0021424037 -0.0025508355 -0.0013181648
0.00021424037 -0.00014171308 -0.00018553136
-0.002356644 -0.0026216921 -0.0033002731
0.0020709902 0.0027634052 -0.0016721126
-0.0021424037 -0.0014879873 -0.0034418523
0.0013568556 0.001700557 -0.0044329064
0.0009997884 0.0029051183 -0.001105796
-0.0019995768 -0.00070856541 -0.0035126419
0.0024280574 -0.0010628481 -0.0018136918
0.0024280574 0.00042513924 -0.0028047462
0.0001428269 0.0011337047 -0.0047160648
0.0022852304 0.00063770887 -0.0033710627
-0.0016425095 0.0009919916 -0.0042205378
-0.0019281632 0.0030468313 -0.0022384294
-0.0014996825 0.0013462743 -0.00053947931
0.0024280574 0.0003542827 -0.0029463251
-0.0024280574 0.00070856541 -0.0020260606
0.0018567498 -7.0856542e-05 -0.00082263764
-0.0024280574 -0.0009919916 -0.0030171147
0.0012854422 -0.00042513924 -0.0042205378
0.0011426152 -0.0019131267 -0.00025632096
0.0019995768 -0.00070856541 -0.0035126419
0.00035706727 0.0041096793 -0.0015305335
0.0024280574 -0.0025508355 -0.0025923774
-0.0014996825 0.0012754177 -0.004362117
-0.00078554801 -0.00042513924 -0.0047160648
-0.0024280574 0.0022674093 -0.0024507982
0.0020709902 -0.00077942194 -0.0034418523
0.0010712019 -0.001700557 -0.00025632096
0.0024280574 -0.0004959958 -0.0030171147
0.00092837488 -0.0040388228 -0.0045036962
-0.00042848074 0.0028342616 -0.0029463251
0.0020709902 -0.0038971098 -0.0013181648
0.0024280574 -0.00092113501 -0.0020260606
0.0024280574 0.00085027848 -0.002309219
0.0022852304 -0.0034719706 -0.0016013231
0.0024280574 0.0016297004 -0.0024507982
-0.001571096 -0.0041096793 -0.001105796
-0.0016425095 0.0026216921 -0.0014597439
0.0001428269 -0.0041096793 -0.00075184804
-0.00085696147 0.0038971098 0.00066394365
7.1413451e-05 -0.0030468313 -0.0047160648
-0.00057130761 -0.00092113501 -0.00025632096
0.00078554801 0.0039679664 -0.0018844814
0.00071413454 0.0029051183 -0.0013889543
0.0022852304 0.00077942194 -0.0015305335
0.00078554801 -0.0013462743 -0.0046452754
-0.00057130761 0.0020548396 -0.00018553136
0.0014282691 -0.0039679664 -0.004149748
