# .PCD v0.7 - Point Cloud Data file format
VERSION 0.7
FIELDS x y z
SIZE 4 4 4
TYPE F F F
COUNT 1 1 1
WIDTH 1198
HEIGHT 1
VIEWPOINT 0 0 0 1 0 0 0
POINTS 1198
DATA ascii
-0.005256 -0.0040000002 -0.0036271187
0.0046799998 0.0028363636 -0.013711864
-0.0029519999 0.0040000002 -0.0056440677
-0.0064079999 -0.0040000002 -0.007516949
0.0055439998 -0.0040000002 -0.0067966101
0.0089999996 -0.0012363637 -0.0030508474
-0.0065520001 -0.0040000002 -0.003915254
0.0088560004 0.0018181818 -0.013711864
0.0042480002 -0.0040000002 -0.0026186442
0.0068399999 0.0005090909 -0.00060169492
0.0069840001 -0.0035636364 -0.00060169492
0.002232 -0.0012363637 -0.013855932
-0.0048239999 -0.00079999998 -0.00060169492
0.002664 0.0040000002 -0.011694916
0.0087120002 0.0038545455 -0.01068644
-0.0089999996 0.0026909092 -0.0016101695
-0.000216 -0.0031272727 -0.00060169492
-0.007704 0.0018181818 -0.013711864
-0.0071279998 -0.0040000002 -0.003338983
-0.0045360001 -0.0040000002 -0.010398305
-0.00324 0.0012363637 -0.013855932
0.00064799999 -0.0031272727 -0.013711864
-0.00036000001 -0.0040000002 -0.0050677964
-0.0075599998 -0.0040000002 -0.0070847459
-0.0029519999 -0.0040000002 -0.0066525424
0.0030960001 -0.0040000002 -0.0017542373
-0.00036000001 -0.0040000002 -0.010830509
-0.0062640002 -0.0016727273 -0.00060169492
-0.0088560004 0.0016727273 -0.0072288136
-0.0088560004 -0.0015272727 -0.0093898308
-0.002664 -0.0010909091 -0.013855932
0.0046799998 -0.0040000002 -0.0029067798
0.0035280001 0.0040000002 -0.0047796611
-0.0068399999 -0.0024000001 -0.013855932
-0.0066960002 -0.0040000002 -0.0080932202
0.0059759999 -0.0040000002 -0.0030508474
0.0039599999 -0.0040000002 -0.0030508474
-0.0051119998 0.0040000002 -0.0049237288
-0.0089999996 -0.0013818182 -0.00088983052
-0.0041040001 -0.0040000002 -0.0052118646
0.0068399999 -0.0024000001 -0.00060169492
-0.0069840001 -0.0040000002 -0.0027627118
0.005256 -0.0018181818 -0.013855932
-0.0042480002 -0.0040000002 -0.011983051
-0.001656 0.0040000002 -0.0093898308
-0.0029519999 -0.0022545455 -0.00060169492
-0.0089999996 -0.0032727274 -0.0030508474
-0.0059759999 -0.00079999998 -0.00060169492
-0.0025200001 0.0016727273 -0.00060169492
0.0048239999 0.0037090909 -0.013711864
-0.0088560004 0.0024000001 -0.013711864
-0.0048239999 -0.0040000002 -0.012271186
0.0078480002 0.0040000002 -0.0040593222
0.0089999996 0.0021090908 -0.0011779661
-0.00612 -0.0040000002 -0.0063644066
0.0025200001 7.2727271e-05 -0.013855932
-0.0089999996 0.0034181818 -0.003338983
-0.0088560004 7.2727271e-05 -0.0046355934
0.0089999996 -0.00094545452 -0.013423729
0.0065520001 -0.00079999998 -0.00060169492
0.0088560004 -0.0032727274 -0.00074576272
0.0082799997 0.0040000002 -0.0018983051
0.0082799997 -0.0038545455 -0.0060762712
0.0074160001 -0.00021818181 0.0021355932
0.0089999996 0.0015272727 -0.0020423729
-0.0069840001 -0.0040000002 -0.0069406778
-0.0071279998 0.0040000002 -0.0098220343
0.00064799999 -0.0040000002 -0.0046355934
0.0041040001 -0.0038545455 -0.013567797
-0.0018 -0.0040000002 -0.0010338983
0.0087120002 0.0013818182 -0.0043474576
0.0078480002 0.0040000002 -0.0098220343
-0.001512 -0.0040000002 -0.0082372883
0.0087120002 0.0013818182 -0.0086694919
-0.0082799997 -0.0040000002 -0.0055
-0.0030960001 -0.0040000002 -0.0078050848
0.0018 0.0040000002 -0.0050677964
0.007704 0.00021818181 -0.00016949153
0.003816 0.0038545455 -0.00016949153
-0.0089999996 -0.0031272727 -0.0030508474
0.0089999996 -0.0013818182 -0.0049237288
-0.007704 0.0029818183 -0.00060169492
-0.003672 0.00036363635 -0.013855932
-0.0082799997 -0.0038545455 -0.0069406778
-0.002664 0.0025454545 -0.00060169492
-0.0054000001 0.0040000002 -0.0049237288
0.002232 0.0022545455 -0.00060169492
-0.0074160001 0.0038545455 -0.0020423729
-0.0054000001 -0.00036363635 -0.013855932
-0.0035280001 0.0025454545 -0.00060169492
-0.005256 -7.2727271e-05 -0.00060169492
0.0088560004 0.0024000001 -0.010974577
-0.0013680001 -7.2727271e-05 -0.00060169492
0.0088560004 -0.00021818181 -0.011118644
-0.0089999996 0.0035636364 -0.0027627118
0.0046799998 -0.0040000002 -0.0085254237
0.0088560004 0.0019636364 -0.013135593
-0.0082799997 -0.0021090908 -0.00060169492
-0.0058320002 0.0015272727 -0.00060169492
-0.00108 0.0031272727 -0.00060169492
0.00612 -0.0040000002 -0.0016101695
-0.0030960001 0.0040000002 -0.0055
0.00093600003 0.0013818182 -0.013855932
0.0082799997 -0.0035636364 -0.00074576272
-0.0089999996 0.00021818181 -0.0013220339
-0.001512 0.0040000002 -0.0092457626
-0.0089999996 0.0019636364 -0.0089576272
0.0025200001 -0.0015272727 -0.013855932
-0.005256 0.0016727273 -0.00060169492
-0.0066960002 0.0040000002 -0.0053559323
-0.0051119998 0.0025454545 -0.00060169492
0.0089999996 -0.00065454544 -0.0013220339
-0.0055439998 -0.0035636364 -0.00045762712
0.003672 0.0040000002 -0.0080932202
-0.0068399999 0.0040000002 -0.0020423729
-0.0023759999 -0.0040000002 -0.0018983051
-0.0055439998 -0.0040000002 -0.0042033899
-0.0030960001 0.0040000002 -0.0073728813
0.0029519999 0.0005090909 -0.00060169492
-0.00079199998 0.00036363635 -0.013855932
0.0069840001 -0.0040000002 -0.011262712
0.000504 -0.0031272727 -0.013711864
-0.007272 -7.2727271e-05 0.0019915255
-0.0089999996 -0.0028363636 -0.0017542373
0.001944 -0.0040000002 -0.0080932202
0.0079920003 0.0040000002 -0.011262712
-0.0054000001 -0.00065454544 -0.013855932
7.2000003e-05 -0.0018181818 -0.00060169492
-0.0089999996 -0.0031272727 -0.0063644066
0.0068399999 -0.0040000002 -0.0043474576
0.001656 0.0040000002 -0.0014661017
0.0081359996 0.0040000002 -0.011262712
-0.00064799999 -0.0031272727 -0.013711864
0.003816 -0.0040000002 -0.003915254
0.0088560004 0.00021818181 -0.00074576272
-0.0082799997 -0.0031272727 -0.013711864
-0.000504 -0.0040000002 -0.0031949154
-0.002664 0.0028363636 -0.00060169492
-0.0089999996 -0.0022545455 -0.0031949154
0.0075599998 -0.0040000002 -0.0072288136
-0.0088560004 -0.0035636364 -0.0065084747
0.0020880001 -0.0040000002 -0.00088983052
0.0049680001 0.00021818181 -0.00060169492
-0.0089999996 -0.0029818183 -0.0049237288
-0.002232 0.0038545455 -0.013567797
-0.002232 -0.0040000002 -0.012127118
0.0065520001 0.0040000002 -0.0014661017
0.0078480002 -0.0038545455 -0.009533898
0.00079199998 -0.0040000002 -0.010830509
-0.0075599998 0.0038545455 -0.0052118646
0.0075599998 -0.0031272727 -0.013711864
0.00324 0.0013818182 -0.013855932
-0.0082799997 0.0038545455 -0.013567797
-0.0082799997 0.0037090909 -0.0083813556
-0.0051119998 -0.0010909091 -0.013855932
-0.0013680001 -0.0021090908 -0.013855932
0.0082799997 -0.0026909092 -0.013711864
-0.0089999996 0.0034181818 -0.012559322
0.0058320002 0.0019636364 -0.00060169492
-0.0059759999 0.0037090909 -0.013567797
-0.0059759999 0.0040000002 -0.0011779661
-0.0088560004 0.0012363637 -0.011983051
-0.0030960001 -0.0022545455 -0.013855932
-0.001512 -0.00021818181 -0.00060169492
0.0055439998 -0.0040000002 -0.0026186442
0.00093600003 0.0040000002 -0.0089576272
0.0066960002 -0.0040000002 -0.0042033899
-0.0058320002 -0.0029818183 -0.013711864
0.0081359996 -0.0038545455 -0.0027627118
-0.0029519999 -0.0040000002 -0.013567797
-0.0088560004 -0.0013818182 -0.0093898308
-0.00093600003 -0.00036363635 -0.00060169492
-0.0029519999 -0.0031272727 -0.013711864
0.000216 -0.0012363637 -0.013855932
-0.002232 -0.0040000002 -0.00074576272
0.0071279998 -0.0040000002 -0.0066525424
-0.0081359996 0.0026909092 -0.013711864
-0.0029519999 0.0040000002 -0.0023305085
0.0058320002 -0.0040000002 -0.007516949
0.00612 -0.0022545455 -0.00060169492
0.00064799999 0.0029818183 -0.013711864
-0.0088560004 0.0016727273 -0.012847458
-0.0046799998 -0.00021818181 -0.00060169492
-0.0064079999 0.0040000002 -0.0049237288
-0.008568 0.0037090909 -0.0034830507
0.0051119998 0.0040000002 -0.0093898308
-0.0089999996 0.0013818182 -0.0037711863
-0.0045360001 -0.0040000002 -0.013279661
-0.0088560004 0.0005090909 -0.0056440677
-0.0066960002 0.0021090908 -0.013711864
-0.00108 0.00036363635 -0.00060169492
-0.0089999996 -0.0019636364 -0.0037711863
-0.008568 0.0018181818 -0.013711864
-0.0046799998 7.2727271e-05 -0.013855932
0.0089999996 -0.0021090908 -0.0062203389
0.0089999996 0.0021090908 -0.0026186442
-0.007272 7.2727271e-05 0.0017033898
0.001224 -0.0040000002 -0.0024745762
0.0039599999 0.0040000002 -0.0062203389
0.0054000001 -0.0040000002 -0.01068644
-0.0025200001 -0.0022545455 -0.013855932
0.0081359996 -0.0038545455 -0.0065084747
-0.0081359996 0.0038545455 -0.013135593
0.007704 -0.0038545455 -0.0096779661
0.00064799999 -0.0040000002 -0.0073728813
-0.002664 0.0040000002 -0.00088983052
-0.0089999996 -0.0024000001 -0.0092457626
0.0066960002 -0.0040000002 -0.011838983
0.0089999996 -0.0021090908 -0.0042033899
-0.0065520001 0.0025454545 -0.013711864
0.0078480002 0.0040000002 -0.0020423729
0.0081359996 -0.0038545455 -0.0043474576
0.005256 -0.0040000002 -0.0063644066
0.0018 -0.0040000002 -0.013423729
0.001944 -0.0040000002 -0.0062203389
0.0043919999 0.0040000002 -0.0066525424
0.0075599998 0.00065454544 -0.013711864
-0.0025200001 -0.0040000002 -0.0073728813
-0.0089999996 0.0018181818 -0.0055
-0.0055439998 -0.0040000002 -0.0059322035
-0.0046799998 0.0031272727 -0.00060169492
0.0065520001 -0.0026909092 -0.00060169492
0.0029519999 0.0040000002 -0.01011017
0.007704 0.00021818181 0.001559322
0.0055439998 -0.0040000002 -0.0069406778
-0.00036000001 -0.00079999998 -0.013855932
0.0013680001 0.0040000002 -0.0099661015
-0.0088560004 0.0013818182 -0.010254237
-0.0089999996 -0.0032727274 -0.0099661015
-0.0029519999 -0.0038545455 -0.013567797
-0.0054000001 -0.0040000002 -0.01011017
-0.0088560004 -0.0035636364 -0.012271186
0.0045360001 0.0040000002 -0.0085254237
0.0071279998 0.0040000002 -0.011262712
-0.0089999996 -0.0032727274 -0.0082372883
-0.0068399999 -0.0040000002 -0.0069406778
0.0089999996 -0.0034181818 -0.00088983052
0.005256 0.00094545452 -0.00060169492
0.007272 0.0040000002 -0.011550847
0.0074160001 0.00021818181 0.0024237288
-0.0088560004 -0.0034181818 -0.0076610171
-0.002664 -0.0040000002 -0.0066525424
-0.00064799999 -0.0040000002 -0.013567797
0.005688 0.00021818181 -0.013855932
-0.0075599998 0.0032727274 -0.013711864
0.0071279998 -0.0040000002 -0.0069406778
-0.0058320002 -0.0040000002 -0.0053559323
-0.0054000001 0.0040000002 -0.011838983
-0.0089999996 -0.0032727274 -0.010542373
-0.0055439998 0.0035636364 -0.00031355931
7.2000003e-05 0.0040000002 -0.0080932202
0.0035280001 -0.0040000002 -0.0014661017
-0.0054000001 0.0040000002 -0.0086694919
0.0068399999 -0.0040000002 -0.0086694919
-0.0023759999 -0.0040000002 -0.0043474576
0.0023759999 -0.0040000002 -0.0057881358
-0.0042480002 -0.00065454544 -0.00060169492
0.0089999996 -0.0019636364 -0.0020423729
-0.00324 0.0040000002 -0.0073728813
-0.0074160001 -0.00021818181 -0.00031355931
-0.0088560004 -0.0034181818 -0.0021864406
-0.0088560004 0.00094545452 -0.011550847
-7.2000003e-05 -7.2727271e-05 -0.00060169492
0.0068399999 0.0040000002 -0.0067966101
-0.005256 -0.0005090909 -0.00060169492
0.001224 0.00065454544 -0.00060169492
0.0025200001 0.00036363635 -0.013855932
0.0018 0.00065454544 -0.013855932
-0.0059759999 -0.0040000002 -0.003915254
7.2000003e-05 0.0037090909 -0.013711864
-0.003816 -0.0040000002 -0.007516949
-0.0088560004 0.00065454544 -0.003915254
-0.0064079999 -0.0040000002 -0.011983051
0.007272 -0.0040000002 -0.013567797
-0.0088560004 0.0019636364 -0.00060169492
-0.0013680001 -0.0040000002 -0.00060169492
0.0033839999 -0.00094545452 -0.00060169492
0.0089999996 0.0032727274 -0.011694916
0.001512 0.0025454545 -0.013711864
0.0018 -0.0024000001 -0.00060169492
0.0062640002 0.0038545455 -0.013711864
-0.0088560004 -0.0016727273 -0.009533898
-0.0033839999 -0.0040000002 -0.0016101695
-0.00324 -0.0040000002 -0.011694916
0.000504 -0.0037090909 -0.013711864
-0.0039599999 0.0040000002 -0.011694916
0.0089999996 -0.0012363637 -0.0053559323
0.0035280001 0.0025454545 -0.00060169492
0.00036000001 0.0040000002 -0.013279661
-0.00093600003 -0.0013818182 -0.00060169492
0.0013680001 -0.0040000002 -0.0020423729
0.0069840001 -0.00021818181 -0.013855932
0.001656 -0.0005090909 -0.00060169492
-0.0075599998 -0.00036363635 -0.00045762712
-0.0089999996 0.0024000001 -0.010830509
0.0089999996 -0.0035636364 -0.0029067798
0.002664 0.0040000002 -0.011406779
0.003816 0.0040000002 -0.0029067798
-0.0079920003 0.0038545455 -0.011983051
-0.0023759999 0.0040000002 -0.0037711863
0.0049680001 0.0037090909 -2.5423729e-05
-0.000216 0.0040000002 -0.01068644
0.00036000001 -0.0024000001 -0.00060169492
0.00612 -0.0040000002 -0.0013220339
-0.00064799999 0.0040000002 -0.0020423729
0.0089999996 -0.00079999998 -0.0024745762
0.0088560004 0.0024000001 -0.010398305
0.0089999996 0.0026909092 -0.012991525
-0.0066960002 -0.0040000002 -0.0011779661
-0.0025200001 -0.0040000002 -0.0037711863
0.0042480002 -0.0040000002 -0.0027627118
0.001656 -0.0040000002 -0.0018983051
0.0088560004 0.0016727273 -0.0066525424
0.0089999996 -0.0021090908 -0.007949153
0.0089999996 -0.0029818183 -0.01011017
-0.0039599999 -0.0028363636 -0.00060169492
-0.0062640002 -0.0040000002 -0.012271186
-0.0039599999 0.0005090909 -0.00060169492
0.00079199998 -0.0040000002 -0.010974577
0.0089999996 0.0029818183 -0.00074576272
0.0089999996 -0.00036363635 -0.0037711863
0.001944 0.0040000002 -0.011838983
0.0089999996 0.0034181818 -0.01270339
-0.0023759999 0.0040000002 -0.0082372883
0.002664 -0.0028363636 -0.00060169492
-0.0079920003 -0.0016727273 -0.013711864
-0.0089999996 0.0026909092 -0.0088135591
0.005256 0.00079999998 -0.00060169492
-0.0089999996 0.0021090908 -0.0037711863
-0.00036000001 -0.0022545455 -0.00060169492
-0.0030960001 -0.00094545452 -0.013855932
-0.00324 -0.0040000002 -0.0089576272
-0.0043919999 0.0040000002 -0.01270339
-0.0058320002 0.0026909092 -0.013711864
-0.0069840001 0.0040000002 -0.009533898
0.0082799997 0.0040000002 -0.011406779
0.001656 -0.0034181818 -0.013711864
-0.0087120002 0.0005090909 -0.0099661015
-0.0081359996 0.0038545455 -0.0078050848
-0.0064079999 0.00079999998 -0.00060169492
0.0088560004 0.0018181818 -0.0089576272
0.0049680001 -0.0040000002 -0.013423729
-0.005688 0.0031272727 -0.00060169492
0.0033839999 -0.0012363637 -0.00060169492
-0.0023759999 0.0040000002 -0.0047796611
0.0089999996 0.0025454545 -0.0046355934
-0.001224 -0.0040000002 -0.0070847459
0.0029519999 -0.0040000002 -0.0043474576
0.0089999996 -0.0013818182 -0.010542373
-0.0059759999 -0.0037090909 -0.013711864
0.0074160001 -0.0040000002 -0.01011017
-0.001656 0.0040000002 -0.0017542373
-0.00079199998 -0.0040000002 -0.0086694919
-0.00079199998 0.0040000002 -0.0040593222
-0.0071279998 -0.00021818181 -0.013855932
-0.0088560004 -0.0016727273 -0.0088135591
-0.0045360001 0.0040000002 -0.0072288136
-0.0084239999 -0.0038545455 -0.0088135591
-0.0074160001 0.00036363635 -0.013855932
0.0089999996 -0.00021818181 -0.0014661017
-0.003672 0.0040000002 -0.013279661
-0.007272 -0.0040000002 -0.01270339
-0.0062640002 0.0040000002 -0.0046355934
-0.00108 0.00079999998 -0.00060169492
0.0082799997 -0.0038545455 -0.0047796611
-0.0065520001 -0.0028363636 -0.013855932
0.0078480002 0.0040000002 -0.0053559323
-0.0035280001 0.0029818183 -0.013711864
-0.0033839999 0.0040000002 -0.0046355934
0.0068399999 0.0040000002 -0.0052118646
0.001944 0.0040000002 -0.0082372883
0.0089999996 -0.00065454544 -0.0052118646
0.0039599999 -0.00036363635 -0.013855932
-0.0081359996 0.0038545455 -0.0037711863
-0.001224 -0.0025454545 -0.00060169492
0.00324 0.0040000002 -0.0021864406
-0.0089999996 0.0021090908 -0.0046355934
-0.0075599998 -0.0034181818 -0.013711864
0.0033839999 0.0026909092 -0.00060169492
-0.0066960002 -0.0040000002 -0.0065084747
-0.00079199998 0.00094545452 -0.00060169492
-0.007272 -7.2727271e-05 0.0024237288
-0.0018 -0.0040000002 -0.0046355934
0.0089999996 -0.0013818182 -0.0066525424
0.0042480002 -0.0040000002 -0.01270339
0.0088560004 0.0022545455 -0.010398305
0.0074160001 -0.00021818181 0.00011864407
0.0020880001 -0.00094545452 -0.013855932
-0.00093600003 0.0040000002 -0.0099661015
-0.005688 -0.0026909092 -0.013855932
0.00612 -0.0012363637 -0.00060169492
0.0071279998 0.0040000002 -0.011983051
0.0030960001 0.0040000002 -0.0016101695
-0.0089999996 0.0015272727 -0.0047796611
-0.0035280001 -0.0040000002 -0.010830509
0.0059759999 -0.0040000002 -0.0011779661
-0.0062640002 0.0013818182 -0.00060169492
-0.0088560004 -0.0012363637 -0.0066525424
-0.00064799999 0.0040000002 -0.010974577
-0.002808 0.0040000002 -0.010542373
0.0065520001 0.0035636364 -0.013711864
0.0075599998 -0.0040000002 -0.0080932202
0.0046799998 -0.0012363637 -0.013855932
-0.0089999996 -0.0032727274 -0.0067966101
-0.003816 -0.0032727274 -0.00060169492
-7.2000003e-05 0.00094545452 -0.013855932
0.0084239999 0.0028363636 -0.013711864
-0.0078480002 -7.2727271e-05 -0.013711864
0.0029519999 -0.0040000002 -0.0036271187
-0.001656 0.0028363636 -0.00060169492
-7.2000003e-05 0.0015272727 -0.00060169492
-0.0030960001 0.0024000001 -0.00060169492
-0.00324 0.0040000002 -0.0036271187
-0.001944 -0.00036363635 -0.013855932
-0.0088560004 -0.0010909091 -0.0017542373
0.005688 -0.0040000002 -0.0060762712
0.0089999996 -0.0034181818 -0.0067966101
-0.0089999996 -0.0032727274 -0.00088983052
-0.0084239999 -0.00079999998 -0.013711864
-0.0059759999 -0.0040000002 -0.011118644
-0.0018 0.0005090909 -0.00060169492
-0.0089999996 -0.0024000001 -0.0030508474
0.0089999996 -0.0016727273 -0.0073728813
0.0087120002 0.0013818182 -0.0088135591
0.000216 -0.0010909091 -0.00060169492
-0.002664 0.00094545452 -0.00060169492
-0.0088560004 -0.0010909091 -0.012559322
0.003816 0.0040000002 -0.0076610171
0.007272 -0.0012363637 -0.013855932
0.0030960001 -0.0021090908 -0.00060169492
0.0089999996 0.0029818183 -0.01068644
-0.0079920003 -0.0040000002 -0.0042033899
-0.00108 0.0040000002 -0.0096779661
-0.0051119998 0.0040000002 -0.0065084747
-0.005256 0.0040000002 -0.0063644066
-0.0068399999 -0.0040000002 -0.0043474576
-0.0089999996 -0.0031272727 -0.01011017
-0.0089999996 -0.0021090908 -0.0053559323
0.0046799998 -0.0040000002 -0.0067966101
0.0088560004 0.0015272727 -0.010542373
0.0051119998 0.0040000002 -0.0086694919
-0.0029519999 -0.0040000002 -0.00060169492
0.0046799998 0.0029818183 -0.013711864
-0.001656 0.0040000002 -0.0047796611
0.0013680001 -0.0032727274 -0.00060169492
-0.0046799998 0.0040000002 -0.0014661017
-0.002232 -0.0013818182 -0.013855932
0.0074160001 0.00094545452 -0.013855932
-0.0018 0.0021090908 -0.013855932
-0.0042480002 0.0018181818 -0.00060169492
-0.0082799997 -0.0040000002 -0.0042033899
-0.00036000001 0.00094545452 -0.013855932
0.0089999996 0.0025454545 -0.0020423729
0.00108 0.0040000002 -0.0065084747
-0.002232 0.0040000002 -0.0021864406
-0.0078480002 -0.0040000002 -0.003915254
0.001512 0.0012363637 -0.00060169492
-0.0018 0.0040000002 -0.0082372883
-0.0054000001 -0.00021818181 -0.00060169492
-0.0018 0.00079999998 -0.013855932
-0.0089999996 0.0021090908 -0.0018983051
0.000504 -0.00036363635 -0.013855932
-0.00093600003 0.0032727274 -0.013711864
-0.0064079999 -0.0016727273 -0.00060169492
-0.0089999996 -0.0026909092 -0.0014661017
-0.0054000001 -0.0032727274 -0.00060169492
0.00093600003 -0.0040000002 -0.0055
-0.0088560004 0.0013818182 -0.0098220343
0.0059759999 0.0040000002 -0.0044915252
-0.0088560004 -0.0015272727 -0.010830509
0.0089999996 -0.0028363636 -0.0040593222
-0.0088560004 -0.0035636364 -0.0073728813
-0.0088560004 -0.00079999998 -0.0052118646
-0.00612 0.0040000002 -0.0089576272
-0.005688 0.0040000002 -0.0059322035
-0.0042480002 -0.0040000002 -0.0067966101
-0.0088560004 -7.2727271e-05 -0.0044915252
-0.0043919999 0.00021818181 -0.013855932
-0.000216 -0.0021090908 -0.013855932
0.0065520001 0.0016727273 -0.00060169492
-0.0054000001 0.0040000002 -0.003338983
-0.00612 0.0040000002 -0.0042033899
-0.0041040001 -0.0040000002 -0.0044915252
0.003672 0.0040000002 -0.0016101695
0.0074160001 -0.0040000002 -0.0046355934
0.001656 0.0040000002 -0.01270339
0.0087120002 0.0038545455 -0.0063644066
-0.0088560004 -0.0012363637 -0.010254237
-0.0089999996 0.0018181818 -0.013135593
-0.0088560004 -0.0013818182 -0.0060762712
-0.0020880001 0.0040000002 -0.0053559323
-0.0048239999 0.0038545455 -0.013567797
-0.0039599999 0.00036363635 -0.00060169492
0.0088560004 0.00036363635 -0.0083813556
-0.003672 0.0040000002 -0.007949153
-0.001224 0.0040000002 -0.0065084747
-0.0049680001 0.0040000002 -0.011406779
-0.0088560004 7.2727271e-05 -0.0030508474
-0.0033839999 0.0019636364 -0.013711864
0.0013680001 -0.0034181818 -0.013711864
0.0048239999 -0.0040000002 -0.012559322
0.0033839999 -0.0040000002 -0.0085254237
0.0030960001 0.0040000002 -0.007516949
0.00324 0.0015272727 -0.013855932
-0.0087120002 -0.00036363635 -0.013135593
0.0089999996 0.0035636364 -0.0014661017
-0.0048239999 -0.0016727273 -0.013855932
-0.0078480002 0.0038545455 -0.0037711863
0.0058320002 0.0040000002 -0.0010338983
-0.001224 -0.0040000002 -0.012271186
0.001944 0.0040000002 -0.01270339
-0.0078480002 -0.0040000002 -0.011550847
0.003672 0.00021818181 -0.013855932
-0.0089999996 0.0024000001 -0.01011017
0.0054000001 -0.0015272727 -0.00060169492
-0.0048239999 -0.0040000002 -0.013567797
-0.0081359996 -0.0040000002 -0.0043474576
0.008568 -0.00079999998 -0.013711864
0.0039599999 0.0005090909 -0.00060169492
-0.002664 0.0040000002 -0.0067966101
-0.0020880001 -0.0010909091 -0.00060169492
-0.002664 0.0021090908 -0.00060169492
0.005688 -0.0040000002 -0.007516949
-0.00064799999 -0.0040000002 -0.007949153
0.0046799998 0.0040000002 -0.012271186
0.008568 -0.0038545455 -0.010830509
0.0089999996 -0.0035636364 -0.010542373
0.0075599998 0.0040000002 -0.0043474576
-0.0062640002 -0.00021818181 -0.013855932
0.005256 0.0040000002 -0.0098220343
-0.001512 -0.0040000002 -0.0056440677
0.0074160001 0.0040000002 -0.0078050848
-0.007704 0.0038545455 -0.0043474576
-0.0078480002 -0.0040000002 -0.0046355934
0.0058320002 -0.0040000002 -0.0034830507
0.0025200001 -0.0016727273 -0.013855932
0.0071279998 0.0040000002 -0.0013220339
0.0089999996 -0.0021090908 -0.010542373
0.0046799998 -0.0025454545 -0.013711864
-0.0066960002 -0.0012363637 -0.013855932
-0.003816 0.0040000002 -0.003915254
0.0089999996 -0.0019636364 -0.01011017
-0.001512 -0.0040000002 -0.0016101695
-0.00108 -0.0040000002 -0.00074576272
-0.0088560004 -0.0012363637 -0.0057881358
0.0088560004 0.0016727273 -0.0047796611
0.0089999996 -0.00094545452 -0.0099661015
-0.007272 -0.0040000002 -0.007949153
-0.0025200001 -0.0040000002 -0.0040593222
0.0089999996 -0.0019636364 -0.012415254
-0.0055439998 -0.0040000002 -0.0014661017
-0.0041040001 -0.0040000002 -0.0027627118
-0.0088560004 0.0016727273 -0.011838983
-0.0033839999 -0.0040000002 -0.012847458
-0.005256 0.0040000002 -0.012415254
-0.0043919999 0.0040000002 -0.010254237
0.0089999996 -0.0018181818 -0.0080932202
0.0018 -0.00036363635 -0.013855932
-0.0071279998 -0.0040000002 -0.00088983052
0.0013680001 -0.0040000002 -0.0083813556
0.0065520001 0.0040000002 -0.01068644
-0.0054000001 0.0005090909 -0.013855932
-0.0025200001 0.00094545452 -0.013855932
-0.0071279998 0.0013818182 -0.013855932
-0.005256 0.0022545455 -0.00060169492
-0.0048239999 0.0018181818 -0.013855932
0.0089999996 -0.0034181818 -0.0052118646
-0.0055439998 -0.0040000002 -0.0036271187
-0.0045360001 -0.0040000002 -0.0078050848
0.002232 -0.0040000002 -0.0055
0.0075599998 0.00021818181 0.0024237288
0.0075599998 0.0035636364 -0.013711864
0.0065520001 -0.0040000002 -0.003338983
-0.0023759999 0.0040000002 -0.009533898
0.0020880001 0.0040000002 -0.0078050848
-0.001656 -0.0040000002 -0.011406779
-0.00612 -0.0040000002 -0.0031949154
0.0054000001 -0.0040000002 -0.0073728813
0.0089999996 0.0013818182 -0.00074576272
0.0071279998 -0.0040000002 -0.010254237
0.00108 -0.00094545452 -0.013855932
-0.0089999996 -0.0022545455 -0.011406779
-0.0054000001 0.0040000002 -0.011118644
0.001656 -0.0040000002 -0.00060169492
-0.0064079999 -0.0040000002 -0.0072288136
-0.0089999996 -0.0024000001 -0.0096779661
-0.002808 -0.0040000002 -0.0062203389
0.0087120002 0.0018181818 -0.00060169492
0.0048239999 -0.0040000002 -0.0017542373
-0.0089999996 0.0013818182 -0.0050677964
-0.00036000001 0.0032727274 -0.013711864
-0.000504 0.0040000002 -0.0062203389
0.0035280001 0.0040000002 -0.0010338983
0.001656 0.0040000002 -0.0085254237
-0.0087120002 -0.00021818181 -0.0036271187
0.002808 -0.0026909092 -0.013711864
0.0018 -0.0040000002 -0.0010338983
-0.0033839999 -0.0040000002 -0.0092457626
-0.0033839999 -0.00079999998 -0.013855932
0.0089999996 -0.0025454545 -0.012127118
0.0071279998 -0.0040000002 -0.0080932202
0.0075599998 -0.0040000002 -0.01011017
0.0088560004 -0.0028363636 -0.013567797
0.002232 -0.0026909092 -0.00060169492
0.0087120002 0.0013818182 -0.010542373
-0.0043919999 0.0040000002 -0.0070847459
0.00612 -0.0037090909 -0.013711864
0.007704 0.00065454544 -0.00060169492
0.005688 -0.0040000002 -0.012415254
-0.0033839999 -0.0040000002 -0.0042033899
-0.00108 -0.0040000002 -0.0042033899
0.0064079999 0.0040000002 -0.0016101695
-0.0029519999 0.0040000002 -0.01068644
-0.0020880001 -0.00079999998 -0.00060169492
0.0074160001 -0.0037090909 -0.00060169492
0.0068399999 -0.0040000002 -0.003338983
0.0089999996 0.0025454545 -0.0031949154
-0.0089999996 0.0028363636 -0.003338983
-0.0042480002 -0.0040000002 -0.0046355934
-0.0065520001 0.0040000002 -0.0044915252
0.0029519999 -0.0040000002 -0.01068644
-0.0079920003 -0.0040000002 -0.0010338983
0.00036000001 0.0032727274 -0.013711864
-0.001224 -0.0038545455 -0.013567797
-0.002808 -0.0040000002 -0.0098220343
0.007272 0.0016727273 -0.013855932
-0.000504 0.0040000002 -0.00074576272
0.007704 0.00065454544 -0.013711864
0.0084239999 -0.0025454545 -0.013711864
-0.0088560004 -0.0016727273 -0.0050677964
0.0089999996 0.0031272727 -0.0070847459
-0.0043919999 0.0010909091 -0.00060169492
0.0033839999 0.0040000002 -0.0059322035
0.0064079999 -0.0040000002 -0.011838983
-0.0054000001 -0.0040000002 -0.012127118
0.0049680001 0.0040000002 -0.00031355931
-0.001512 -0.0040000002 -0.0083813556
-0.00108 0.0029818183 -0.013711864
-0.0089999996 0.0034181818 -0.0037711863
-0.001512 0.0038545455 -0.00060169492
-0.0089999996 0.0032727274 -0.00088983052
0.003672 -0.00079999998 -0.013855932
0.0089999996 -0.00094545452 -0.0024745762
-0.0089999996 0.0026909092 -0.0085254237
0.002808 -0.0040000002 -0.0066525424
0.0089999996 0.0034181818 -0.0093898308
-0.0023759999 0.00079999998 -0.013855932
-0.003816 -0.0016727273 -0.013855932
-0.0089999996 0.0021090908 -0.0047796611
0.0071279998 0.0015272727 -0.013855932
-0.002232 -0.0040000002 -0.007516949
0.0071279998 -0.0040000002 -0.011118644
-0.0064079999 0.0021090908 -0.013711864
-0.0066960002 -0.00094545452 -0.00060169492
-0.0023759999 -0.0040000002 -0.0082372883
-0.0087120002 -0.0005090909 -0.0096779661
0.0088560004 -0.00079999998 -0.011406779
-0.0018 -0.0040000002 -0.0069406778
-0.0030960001 0.0040000002 -0.012127118
-0.0087120002 -0.00021818181 -0.0093898308
-0.0089999996 0.0026909092 -0.0076610171
0.0065520001 0.0028363636 -0.00060169492
0.0020880001 -0.0040000002 -0.0026186442
-0.0065520001 -0.0015272727 -0.013855932
0.0089999996 0.0029818183 -0.007516949
0.0055439998 0.0040000002 -0.0010338983
-0.0064079999 -0.0021090908 -0.013855932
0.002232 -0.0040000002 -0.0043474576
-0.0048239999 0.0026909092 -0.013711864
-0.0023759999 -0.0040000002 -0.010830509
-0.0089999996 0.0019636364 -0.0072288136
-0.0039599999 -0.0032727274 -0.00060169492
-0.000216 -0.0040000002 -0.009533898
0.0043919999 -0.0040000002 -0.0052118646
-0.001224 0.0040000002 -0.0010338983
-0.005688 0.0040000002 -0.0014661017
0.0087120002 0.0038545455 -0.0069406778
-0.0065520001 0.0040000002 -0.003915254
0.00108 -0.0040000002 -0.0042033899
0.0089999996 -0.0021090908 -0.011694916
-0.0071279998 -0.0040000002 -0.012991525
-0.0089999996 -0.0028363636 -0.013423729
0.0089999996 -0.0013818182 -0.010830509
-0.002232 0.0040000002 -0.011838983
-0.0089999996 0.0026909092 -0.011550847
-0.0088560004 0.0013818182 -0.009533898
0.0042480002 0.0040000002 -0.0099661015
-0.0087120002 -0.0005090909 -0.013135593
0.00612 0.0040000002 -0.0099661015
0.0089999996 -0.0029818183 -0.0059322035
-0.00324 -0.0015272727 -0.013855932
-0.001224 -0.0040000002 -0.013279661
-0.0088560004 0.0012363637 -0.012847458
0.007272 -7.2727271e-05 0.0011271186
-0.00108 -0.0040000002 -0.0037711863
-0.0065520001 -0.0040000002 -0.0060762712
-0.0062640002 0.0040000002 -0.0053559323
0.0054000001 0.0019636364 -0.013855932
-0.0068399999 0.0040000002 -0.0049237288
-0.00612 0.0032727274 -0.00060169492
0.00612 0.0040000002 -0.0057881358
-0.0087120002 0.00036363635 -0.0080932202
0.003672 0.0040000002 -0.01270339
0.0089999996 -0.0005090909 -0.0029067798
0.007704 -0.0038545455 -0.0053559323
0.0089999996 -0.0028363636 -0.0013220339
-0.0066960002 -0.0026909092 -0.013855932
-0.0046799998 -0.0040000002 -0.0092457626
0.000504 0.0040000002 -0.0018983051
0.0082799997 0.0015272727 -0.013711864
0.0079920003 -0.0038545455 -0.0098220343
0.002232 -0.0040000002 -0.010254237
0.0029519999 -0.0040000002 -0.0014661017
0.0023759999 0.00021818181 -0.00060169492
0.001512 -0.0016727273 -0.00060169492
0.001944 -0.0040000002 -0.0067966101
0.0087120002 0.0010909091 -0.010254237
0.0074160001 -0.0040000002 -0.0059322035
7.2000003e-05 0.0040000002 -0.0010338983
0.0089999996 -0.0015272727 -0.00074576272
0.0046799998 0.0040000002 -0.0043474576
0.00612 -0.0026909092 -0.013711864
-0.003816 0.0029818183 -0.013711864
0.00324 0.0015272727 -0.00060169492
-0.0089999996 0.00065454544 -0.013567797
-0.00612 0.0040000002 -0.0066525424
0.0049680001 0.0040000002 -0.0016101695
0.0087120002 -0.0037090909 -0.0060762712
0.0033839999 -0.0040000002 -0.0055
-0.0089999996 -0.0022545455 -0.0063644066
0.001224 -0.0040000002 -0.0013220339
-0.003816 0.0040000002 -0.0059322035
-0.0068399999 -0.0028363636 -0.013855932
0.0071279998 -0.0040000002 -0.0026186442
0.00093600003 -0.00094545452 -0.00060169492
0.000216 -0.00094545452 -0.00060169492
0.0088560004 0.0019636364 -0.00074576272
-0.0087120002 -7.2727271e-05 -0.0099661015
-0.0087120002 0.0037090909 -0.0072288136
-0.0023759999 -0.0040000002 -0.009533898
-0.0065520001 0.0040000002 -0.003338983
-0.0064079999 -0.0040000002 -0.013567797
-0.00108 -0.0040000002 -0.0091016944
0.0066960002 0.0040000002 -0.0042033899
0.0088560004 -0.0037090909 -0.012127118
-0.001944 0.0040000002 -0.0047796611
-0.00108 -0.0025454545 -0.013855932
-0.0084239999 -0.0038545455 -0.0026186442
-0.00612 0.0040000002 -0.012991525
-0.0046799998 0.0040000002 -0.0053559323
0.0089999996 -0.0034181818 -0.010254237
-0.0062640002 -0.0019636364 -0.00060169492
-0.0018 -0.0040000002 -0.011838983
-0.0043919999 -0.0025454545 -0.00060169492
-0.002808 0.0040000002 -0.0010338983
-0.0048239999 0.0012363637 -0.013855932
-0.0089999996 0.0024000001 -0.0013220339
0.0048239999 0.0040000002 -0.011118644
-0.0088560004 0.00021818181 -0.0060762712
-0.0069840001 -0.0040000002 -0.012559322
-0.0068399999 -0.0040000002 -0.0014661017
-0.0089999996 0.0031272727 -0.0055
-0.0071279998 -0.0040000002 -0.0047796611
0.00064799999 -0.0040000002 -0.0020423729
0.002232 -0.0031272727 -0.00060169492
0.0089999996 -0.0013818182 -0.0050677964
0.0033839999 0.0005090909 -0.013855932
-0.002232 -0.0040000002 -0.011118644
-0.0033839999 -0.0025454545 -0.00060169492
0.0045360001 -0.0040000002 -0.003338983
-0.0048239999 0.0024000001 -0.013711864
-0.0030960001 0.0022545455 -0.00060169492
0.0081359996 -0.0019636364 -0.013711864
-0.00108 0.00065454544 -0.013855932
0.00108 0.0019636364 -0.013855932
-0.0071279998 -0.00094545452 -0.00060169492
-0.0089999996 0.0032727274 -0.0093898308
-0.0020880001 -0.0038545455 -0.00060169492
0.000216 -0.0040000002 -0.0060762712
0.0089999996 -0.0019636364 -0.0044915252
-0.0089999996 0.0031272727 -0.007949153
0.001944 0.0026909092 -0.013711864
-0.0089999996 0.0026909092 -0.0014661017
-0.007272 -0.0040000002 -0.009533898
0.0069840001 0.0040000002 -0.007949153
0.0023759999 0.0040000002 -0.0011779661
-0.0089999996 0.0035636364 -0.013279661
0.005688 0.0040000002 -0.012415254
-0.0089999996 0.0031272727 -0.0040593222
0.00064799999 0.0040000002 -0.0016101695
7.2000003e-05 0.0029818183 -0.00060169492
-0.0055439998 -0.0016727273 -0.013855932
0.0089999996 -0.0032727274 -0.0031949154
0.0074160001 -0.0013818182 -0.013855932
0.0089999996 -0.0012363637 -0.0044915252
-0.005688 -0.0040000002 -0.011262712
0.007704 0.0037090909 -0.013711864
-0.00036000001 0.0040000002 -0.0014661017
0.0088560004 -0.00021818181 -0.012271186
-0.00064799999 0.0040000002 -0.0069406778
-0.00612 -0.0040000002 -0.0066525424
-0.001656 -0.0021090908 -0.013855932
-0.0081359996 -0.0028363636 -0.00060169492
0.0089999996 -0.0019636364 -0.0053559323
0.00079199998 0.0016727273 -0.013855932
0.002808 -0.0040000002 -0.0047796611
-0.0071279998 0.0040000002 -0.0030508474
0.0088560004 -0.00021818181 -0.011406779
0.0030960001 0.0040000002 -0.01011017
0.002808 0.0040000002 -0.0067966101
-0.0084239999 -0.0038545455 -0.0080932202
-0.002232 0.00094545452 -0.013855932
0.0068399999 -0.0040000002 -0.0062203389
0.00612 0.0040000002 -0.011983051
-0.0033839999 -0.0040000002 -0.0021864406
-0.00108 0.0040000002 -0.0057881358
-0.0089999996 0.0018181818 -0.0043474576
-0.00064799999 0.0034181818 -0.00060169492
-0.00036000001 -0.0040000002 -0.0046355934
-0.0079920003 0.0038545455 -0.0086694919
-0.0084239999 0.0037090909 -0.007949153
0.0088560004 0.0021090908 -0.0057881358
-0.0089999996 0.0018181818 -0.0029067798
0.0048239999 -0.0040000002 -0.0066525424
-0.0023759999 0.0040000002 -0.012559322
0.0087120002 0.0013818182 -0.012271186
0.0051119998 -0.0018181818 -0.00060169492
0.0087120002 0.00036363635 -0.013567797
0.0089999996 0.00094545452 -0.0023305085
0.0089999996 0.0032727274 -0.012271186
0.0065520001 -0.00036363635 -0.013855932
7.2000003e-05 -0.0040000002 -0.0076610171
0.007704 0.00021818181 0.00069491524
0.002664 0.0040000002 -0.003915254
-0.0089999996 0.0016727273 -0.0050677964
0.002232 0.0040000002 -0.0020423729
-0.0089999996 0.0028363636 -0.0018983051
0.0030960001 -0.0040000002 -0.009533898
0.0029519999 -0.00036363635 -0.00060169492
-0.00093600003 -0.0040000002 -0.012415254
-0.0033839999 -0.0031272727 -0.013711864
-0.0089999996 0.0016727273 -0.0014661017
-0.0075599998 -0.0028363636 -0.013711864
-7.2000003e-05 -0.0035636364 -0.00060169492
-0.0089999996 0.0034181818 -0.0070847459
0.0089999996 0.0026909092 -0.0031949154
-0.008568 0.0037090909 -0.0047796611
0.0089999996 -0.0028363636 -0.011838983
-0.0049680001 -0.0040000002 -0.013423729
-0.0054000001 -0.0019636364 -0.013855932
0.0054000001 0.0018181818 -0.013855932
0.0058320002 -0.0040000002 -0.003338983
0.0051119998 -0.0038545455 -0.00016949153
-0.00079199998 0.0028363636 -0.00060169492
0.0049680001 0.0040000002 -0.011694916
-0.0081359996 0.0038545455 -0.007516949
0.0089999996 -0.0032727274 -0.0026186442
0.0089999996 0.0021090908 -0.0021864406
0.0079920003 0.0040000002 -0.0020423729
0.0068399999 0.0040000002 -0.003915254
0.0030960001 -0.0012363637 -0.00060169492
0.0020880001 0.0012363637 -0.013855932
-0.0066960002 0.0034181818 -0.013711864
0.0030960001 0.0037090909 -0.00060169492
0.0055439998 0.0016727273 -0.00060169492
-0.0075599998 -0.0035636364 -0.00060169492
-0.0068399999 -0.0005090909 -0.00060169492
-0.0051119998 -0.0040000002 -0.0023305085
0.000216 0.0040000002 -0.009533898
-0.005256 0.0040000002 -0.0049237288
-0.002664 0.0040000002 -0.011838983
0.0013680001 0.0040000002 -0.0037711863
0.0066960002 0.0013818182 -0.00060169492
0.0088560004 -0.0037090909 -0.0083813556
0.002232 -0.0038545455 -0.00060169492
0.0089999996 -0.0031272727 -0.0093898308
-0.0064079999 -0.00065454544 -0.00060169492
0.00064799999 -0.0040000002 -0.013423729
-0.0089999996 -0.0024000001 -0.0050677964
0.007272 -0.00021818181 -0.00016949153
-0.00108 -0.0024000001 -0.00060169492
0.0088560004 0.0021090908 -0.012991525
-0.001512 0.0028363636 -0.013711864
-0.0089999996 -0.0024000001 -0.0063644066
-0.005256 0.0040000002 -0.013423729
-0.0089999996 -0.0026909092 -0.0056440677
-0.00079199998 0.0040000002 -0.007949153
0.007272 -0.0040000002 -0.0065084747
-0.002808 0.0005090909 -0.013855932
-0.0089999996 0.0016727273 -0.003338983
-0.0089999996 0.0015272727 -0.0050677964
-0.008568 -0.0038545455 -0.01011017
-0.0088560004 0.0012363637 -0.012559322
0.0089999996 0.0026909092 -0.013279661
-0.0043919999 -0.0010909091 -0.00060169492
0.0088560004 0.0016727273 -0.010830509
-0.0078480002 -0.0040000002 -0.013135593
0.0089999996 0.0022545455 -0.0027627118
0.00324 -0.0040000002 -0.0069406778
-0.0041040001 -0.0040000002 -0.0066525424
0.0088560004 7.2727271e-05 -0.0060762712
0.001512 0.0040000002 -0.0027627118
-0.0068399999 -0.00065454544 -0.00060169492
0.0068399999 0.0028363636 -0.013855932
-0.00036000001 0.0040000002 -0.011550847
0.0066960002 0.0040000002 -0.0083813556
0.0018 0.0040000002 -0.011406779
0.0029519999 -0.0040000002 -0.0023305085
0.0042480002 -0.0005090909 -0.013855932
-0.0048239999 0.0040000002 -0.0089576272
0.000504 0.0031272727 -0.00060169492
-0.0045360001 0.0040000002 -0.0010338983
0.0079920003 -0.0038545455 -0.0070847459
-0.0030960001 0.0040000002 -0.013279661
0.001656 0.0032727274 -0.013711864
-0.0051119998 -0.00094545452 -0.013855932
0.0059759999 -0.0038545455 -0.00016949153
-0.0035280001 0.00094545452 -0.00060169492
-0.0043919999 -0.0040000002 -0.0026186442
0.0025200001 -0.0040000002 -0.0060762712
-0.002808 0.0040000002 -0.0067966101
0.0041040001 -0.0012363637 -0.013855932
-0.0089999996 -0.0028363636 -0.0037711863
0.0089999996 -0.0016727273 -0.0044915252
-0.0029519999 -0.00065454544 -0.013855932
7.2000003e-05 -7.2727271e-05 -0.00060169492
-0.0088560004 -0.0013818182 -0.0096779661
-0.0069840001 -0.0032727274 -0.00060169492
-0.00324 -0.0021090908 -0.013855932
0.0078480002 -0.0032727274 -0.00060169492
-0.0089999996 0.0032727274 -0.0057881358
-0.0018 -0.0040000002 -0.0047796611
0.0087120002 0.00021818181 -0.0053559323
-0.0048239999 0.0040000002 -0.012415254
0.0079920003 0.0040000002 -0.0067966101
0.0049680001 0.00036363635 -0.013855932
0.0089999996 -0.0010909091 -0.012559322
0.001944 0.0028363636 -0.013711864
-0.0071279998 0.0040000002 -0.011406779
0.0088560004 0.00065454544 -0.0083813556
-0.0035280001 -0.0025454545 -0.00060169492
0.0075599998 -0.00036363635 -0.00060169492
0.0042480002 -0.0040000002 -0.0083813556
0.003672 -0.0040000002 -0.0017542373
0.0088560004 0.0022545455 -0.0072288136
-0.0082799997 0.0016727273 -0.013711864
-0.000504 -0.0015272727 -0.013855932
0.0062640002 0.0034181818 -0.00060169492
0.007704 -0.0038545455 -0.013135593
-0.00079199998 -0.0040000002 -0.0050677964
-0.0075599998 -0.0040000002 -0.0093898308
0.0087120002 0.0038545455 -0.012415254
-0.0089999996 0.0032727274 -0.0069406778
0.0045360001 -0.00036363635 -0.00060169492
-0.00093600003 0.0040000002 -0.01068644
-0.0089999996 -0.0029818183 -0.0011779661
-0.0035280001 -0.0022545455 -0.00060169492
-0.0081359996 -0.0025454545 -0.00060169492
0.0048239999 -0.0013818182 -0.013855932
-0.0046799998 -0.0038545455 -2.5423729e-05
-0.005688 0.0040000002 -0.0043474576
-0.0030960001 -0.0018181818 -0.00060169492
-0.0088560004 0.0010909091 -0.009533898
0.003672 -0.0040000002 -0.0049237288
-0.00324 -0.0040000002 -0.013135593
-0.0062640002 0.0040000002 -0.011694916
0.0048239999 0.0028363636 -0.013855932
-0.002664 0.0040000002 -0.0085254237
0.0082799997 -0.0038545455 -0.0069406778
0.00108 0.00021818181 -0.013855932
0.0049680001 0.0028363636 -0.00060169492
-0.00093600003 0.0038545455 -0.013567797
-0.0030960001 -0.0040000002 -0.0056440677
0.0089999996 -0.0013818182 -0.0031949154
0.0041040001 7.2727271e-05 -0.00060169492
0.0075599998 -0.0035636364 -0.013711864
0.0058320002 0.00079999998 -0.00060169492
0.0088560004 0.0018181818 -0.0052118646
-0.0033839999 0.0040000002 -0.003338983
0.0064079999 -0.0037090909 -0.00016949153
-0.001512 0.00036363635 -0.013855932
0.0023759999 -0.0040000002 -0.00088983052
0.0089999996 -0.0013818182 -0.0013220339
0.0039599999 -0.00079999998 -0.00060169492
0.0066960002 -0.0040000002 -0.011262712
0.001512 0.0034181818 -0.013711864
-0.0087120002 -0.0005090909 -0.012415254
-0.0018 0.0034181818 -0.00060169492
-0.0089999996 -0.0029818183 -0.0098220343
0.0035280001 -0.0026909092 -0.013711864
-0.0058320002 0.0040000002 -0.00031355931
0.0084239999 0.0038545455 -0.0011779661
0.0033839999 -0.0040000002 -0.012991525
-0.0078480002 -0.0040000002 -0.0043474576
0.0029519999 -0.0040000002 -0.012271186
-0.0045360001 0.0037090909 -0.00016949153
0.0066960002 -0.0040000002 -0.0031949154
-0.00093600003 -0.0037090909 -0.00060169492
0.000216 0.0040000002 -0.0066525424
-0.001944 0.0021090908 -0.013855932
-0.0062640002 -0.0012363637 -0.013855932
0.0088560004 0.0021090908 -0.0086694919
-0.0048239999 -0.0035636364 -0.00031355931
-0.0075599998 -0.0040000002 -0.0078050848
-0.0078480002 -0.0028363636 -0.013711864
-0.003672 -0.0040000002 -0.0010338983
0.0042480002 0.0040000002 -0.0046355934
0.000216 0.0016727273 -0.00060169492
-0.0062640002 -0.0040000002 -0.013567797
-0.0051119998 0.0040000002 -0.0080932202
0.003816 0.0031272727 -0.00060169492
0.0087120002 0.0010909091 -0.0030508474
0.00093600003 -0.0029818183 -0.00060169492
-0.0088560004 -0.0037090909 -0.01011017
0.008568 -0.0038545455 -0.011550847
-0.0059759999 -0.0037090909 -0.00016949153
0.0020880001 0.0040000002 -0.0031949154
0.0068399999 0.0040000002 -0.0027627118
-0.0089999996 0.0021090908 -0.011983051
-0.0089999996 -0.0019636364 -0.0053559323
0.0069840001 0.0040000002 -0.0065084747
0.0065520001 0.0040000002 -0.0060762712
-0.002808 0.0040000002 -0.003915254
0.00079199998 0.0040000002 -0.0017542373
-0.0051119998 -0.0026909092 -0.013855932
0.001512 -0.0040000002 -0.0060762712
0.0088560004 0.0034181818 -0.013423729
-0.0075599998 -0.0040000002 -0.0063644066
-0.002232 0.0040000002 -0.013567797
0.0055439998 -0.00065454544 -0.00060169492
-0.0079920003 -0.0013818182 -0.013711864
-0.007704 -0.00021818181 0.00055084744
0.0078480002 0.0040000002 -0.0049237288
-0.0088560004 -0.00079999998 -0.0099661015
0.0041040001 -0.0040000002 -0.0092457626
-0.0054000001 -0.0040000002 -0.00016949153
-0.003816 0.0040000002 -0.0021864406
0.0035280001 -0.00079999998 -0.013855932
0.0030960001 0.0040000002 -0.011550847
0.0065520001 -0.0024000001 -0.013711864
0.005256 0.0040000002 -0.007516949
0.0030960001 -0.0040000002 -0.010254237
-0.0075599998 0.0022545455 -0.013711864
-0.000504 -0.0005090909 -0.00060169492
-0.00612 -0.0013818182 -0.013855932
-0.0045360001 0.0040000002 -0.0013220339
0.0055439998 -0.0037090909 -0.013567797
-0.0071279998 0.0040000002 -0.0073728813
-0.0089999996 0.0016727273 -0.0052118646
0.0075599998 0.0026909092 -0.00060169492
-0.0088560004 -7.2727271e-05 -0.0018983051
-0.0049680001 -0.00094545452 -0.00060169492
0.00064799999 -0.0040000002 -0.011983051
-0.0089999996 0.0035636364 -0.0083813556
-0.0046799998 -0.0031272727 -0.00060169492
-0.007704 0.00036363635 -0.013711864
0.0065520001 0.0040000002 -0.0036271187
0.0087120002 0.0005090909 -0.01011017
-0.0025200001 -0.0037090909 -0.00060169492
-0.0042480002 -0.0040000002 -0.0031949154
-0.0089999996 -0.0019636364 -0.0018983051
0.0087120002 0.0010909091 -0.013135593
-0.001944 -0.0040000002 -0.0057881358
-0.000504 0.0021090908 -0.00060169492
-0.0089999996 -0.0024000001 -0.0017542373
0.0089999996 0.0012363637 -0.013567797
-0.001656 -0.0040000002 -0.011694916
-0.0035280001 -0.0040000002 -0.013567797
0.0029519999 -0.0040000002 -0.013423729
-0.001224 -0.0037090909 -0.00060169492
0.008568 -0.0038545455 -0.011983051
0.001656 0.0040000002 -0.010254237
0.002808 0.0025454545 -0.00060169492
-0.0041040001 0.0040000002 -0.0047796611
0.0089999996 0.0032727274 -0.0016101695
0.0058320002 -0.0040000002 -0.0036271187
-0.0071279998 0.0016727273 -0.013711864
-0.0075599998 -0.0013818182 -0.00060169492
0.0087120002 0.0038545455 -0.0078050848
-0.002232 0.0019636364 -0.00060169492
-0.00036000001 -0.0040000002 -0.01011017
-0.0069840001 0.0040000002 -0.0043474576
0.0089999996 0.0032727274 -0.0066525424
0.000216 0.0029818183 -0.00060169492
-0.002664 -0.0016727273 -0.013855932
-0.003672 -0.0040000002 -0.013567797
-0.008568 -0.00079999998 -0.013711864
-0.0023759999 -0.0040000002 -0.013567797
0.0035280001 -0.0028363636 -0.013711864
-0.0020880001 -0.0040000002 -0.0050677964
-0.0068399999 -0.0040000002 -0.0036271187
-0.0075599998 0.0038545455 -0.0027627118
0.0042480002 0.0037090909 -2.5423729e-05
0.007704 -7.2727271e-05 0.0025677965
-0.00093600003 0.0040000002 -0.0063644066
0.0088560004 0.0034181818 -0.0029067798
-0.0059759999 -0.00021818181 -0.00060169492
-0.0043919999 -0.0040000002 -0.0011779661
-0.0089999996 -0.0019636364 -0.0069406778
-0.0089999996 -0.0019636364 -0.010254237
-0.0081359996 0.0038545455 -0.0050677964
-0.0066960002 0.0040000002 -0.0085254237
-0.0089999996 -0.00065454544 -0.013567797
-0.0033839999 0.0040000002 -0.0055
0.0018 0.0040000002 -0.0036271187
0.0029519999 0.0040000002 -0.010398305
-0.0035280001 -0.0040000002 -0.0065084747
-0.007704 -0.0012363637 -0.00060169492
0.0025200001 0.0040000002 -0.0062203389
-0.0058320002 0.0040000002 -0.0016101695
-0.0089999996 0.0035636364 -0.0085254237
-0.0048239999 0.0040000002 -0.0056440677
-7.2000003e-05 0.0040000002 -0.0098220343
-0.0054000001 -0.0040000002 -0.0052118646
0.0081359996 0.0040000002 -0.012847458
0.0084239999 0.0038545455 -0.0086694919
-0.0064079999 0.0018181818 -0.013711864
0.001944 -0.0040000002 -0.012847458
-0.002232 0.0016727273 -0.00060169492
-0.0088560004 -0.0038545455 -0.012415254
0.00612 -0.0038545455 -0.00016949153
-0.0088560004 -0.0038545455 -0.012271186
-0.0064079999 -0.00065454544 -0.013855932
-0.0089999996 0.0024000001 -0.0088135591
-0.007272 -0.0016727273 -0.00060169492
-0.0039599999 0.0040000002 -0.01011017
0.0089999996 0.0026909092 -0.0017542373
0.0058320002 0.0040000002 -0.010542373
-0.007704 -0.0025454545 -0.013711864
0.0074160001 -0.0035636364 -0.00060169492
0.0020880001 -0.0040000002 -0.0014661017
-0.0046799998 -0.0040000002 -0.013279661
-0.005256 0.0040000002 -0.0047796611
0.005256 -0.0040000002 -0.010398305
-0.0046799998 -0.0040000002 -0.0055
-0.00079199998 0.0040000002 -0.0014661017
-0.0046799998 0.0021090908 -0.00060169492
-0.0065520001 0.0040000002 -0.0093898308
0.0088560004 0.0038545455 -0.009533898
0.0020880001 -0.0040000002 -0.0050677964
0.0081359996 -0.0038545455 -0.012991525
-0.0087120002 -0.00036363635 -0.00074576272
0.001656 -0.0032727274 -0.013711864
-0.0029519999 -0.0037090909 -0.00060169492
-0.003816 -0.0015272727 -0.013855932
0.0078480002 -7.2727271e-05 -0.013711864
0.001224 0.0019636364 -0.00060169492
-0.0088560004 -0.0015272727 -0.0031949154
-0.0087120002 0.00021818181 -0.011262712
0.0041040001 0.0040000002 -0.0020423729
0.0049680001 -0.0040000002 -0.009533898
-0.00612 -0.0022545455 -0.00060169492
0.0049680001 -0.0040000002 -0.013567797
0.0071279998 0.0040000002 -0.0091016944
-0.0089999996 0.0022545455 -0.0043474576
-0.0087120002 0.0037090909 -0.0066525424
0.005688 -0.0040000002 -0.0073728813
0.0051119998 -0.0012363637 -0.00060169492
0.0039599999 -0.0040000002 -0.0070847459
-0.0074160001 0.00021818181 0.0014152542
0.0088560004 0.0015272727 -0.01068644
0.0075599998 -0.0040000002 -0.01068644
-0.005688 -0.0040000002 -0.0030508474
0.0035280001 -0.0040000002 -0.0065084747
-0.00064799999 -0.0040000002 -0.0017542373
-0.0049680001 0.0024000001 -0.013711864
0.003816 0.0040000002 -0.0024745762
-0.0087120002 0.00021818181 -0.013279661
0.0081359996 -0.0038545455 -0.012847458
-0.0043919999 -0.0040000002 -0.01068644
0.0089999996 -0.0032727274 -0.013135593
-0.0088560004 0.0035636364 -0.003915254
-0.0074160001 0.0038545455 -0.013423729
0.0041040001 -0.0040000002 -0.0091016944
-0.0088560004 -7.2727271e-05 -0.0053559323
0.003816 -0.0010909091 -0.00060169492
0.0041040001 0.0040000002 -0.0044915252
-0.0066960002 -0.0040000002 -0.009533898
0.001224 0.0028363636 -0.00060169492
0.00036000001 -0.0013818182 -0.00060169492
0.0069840001 0.0040000002 -0.0052118646
0.001944 0.0019636364 -0.013855932
0.002232 0.0040000002 -0.007516949
-0.0089999996 -0.0029818183 -0.0013220339
0.0081359996 -0.0025454545 -0.00060169492
-0.0079920003 -0.0035636364 -0.013711864
0.0023759999 0.0040000002 -0.011406779
0.0089999996 0.0035636364 -0.011118644
-0.001512 -0.0024000001 -0.00060169492
0.0089999996 -0.0021090908 -0.0040593222
-0.0058320002 -0.0040000002 -0.0060762712
-0.0049680001 -0.0040000002 -0.011406779
-0.00093600003 -0.0026909092 -0.00060169492
-0.0087120002 0.00065454544 -0.0082372883
0.0088560004 0.0016727273 -0.0099661015
0.0089999996 -0.0012363637 -0.0018983051
0.0068399999 -0.0037090909 -0.013567797
-0.002664 0.0040000002 -0.012127118
