# .PCD v0.7 - Point Cloud Data file format
VERSION 0.7
FIELDS x y z
SIZE 4 4 4
TYPE F F F
COUNT 1 1 1
WIDTH 1175
HEIGHT 1
VIEWPOINT 0 0 0 1 0 0 0
POINTS 1175
DATA ascii
-0.0014126016 -0.0021590909 -0.004613108
-0.0018646341 -0.0021590909 -0.0081355907
0.0010735772 -0.0017045455 -0.0044994797
0.0023166665 0.0021590909 -0.0065447926
0.002655691 -0.0015909091 -0.0091582472
-0.0064979675 -0.0022727272 -0.0030223094
-5.6504065e-05 -0.0023863637 -0.0060902783
0.0042378046 0.00045454546 -0.0043858513
-0.0007345528 0.0022727272 -0.0072265635
0.0025426829 0.0018181818 -0.0083628483
-0.0007345528 0.0022727272 -0.0082492195
0.0052548777 0.0013636363 -0.0043858513
-0.0023166665 -0.0019318182 -0.0082492195
0.0007345528 0.00079545454 -0.011430817
0.00096056907 -0.0022727272 -0.0069993064
0.0023166665 0.0018181818 -0.0043858513
-0.0017516259 0.00022727273 -0.011317189
0.0012995935 0.00045454546 -0.0032495665
-0.0031077235 0.0015909091 -0.0065447926
-0.0038987803 -0.0010227272 -0.0064311638
0.0019776423 0.0021590909 -0.0043858513
0.0010735772 0.0022727272 -0.0074538202
0.0011865853 0.0022727272 -0.0080219628
-0.00050853658 -0.00125 -0.010976303
-0.0024296746 -0.00011363636 -0.0038177089
-0.0012995935 0.0021590909 -0.0076810773
-0.0040117884 -0.00090909092 -0.0064311638
0.006384959 0.00125 -0.0025677956
0.0014126016 -0.0005681818 -0.011317189
0.0022036585 -0.0013636363 -0.004613108
-0.0042378046 0.0005681818 -0.0082492195
0.0029947155 -0.0017045455 -0.0075674485
-0.0033337397 -0.0015909091 -0.0063175354
0.0060459347 0.0017045455 0.00027291646
0.0016386178 -0.0019318182 -0.0056357644
-0.0025426829 -0.0019318182 -0.0066584209
-0.0043508131 -0.00022727273 -0.0075674485
0.0059329267 0.0022727272 -0.0026814241
-0.0019776423 -0.0020454545 -0.0069993064
0.006384959 0.0015909091 -6.7968991e-05
0.0010735772 -0.0021590909 -0.0058630216
-0.0064979675 -0.0019318182 -0.0034768234
-0.0062719509 -0.0011363636 -0.0022269101
0.0044638212 0.0022727272 -0.0040449658
0.0040117884 0.00034090909 -0.0091582472
0.0012995935 -0.0021590909 -0.0064311638
-0.0018646341 -0.00079545454 -0.011089931
-0.0016386178 -0.00090909092 -0.0037040804
-0.0029947155 -0.0017045455 -0.0043858513
0.0024296746 -0.0019318182 -0.0076810773
-0.0025426829 0.0017045455 -0.009271876
0.0034467478 -0.00022727273 -0.0099536469
0.0032207316 -0.00068181817 -0.004613108
-5.6504065e-05 0.0023863637 -0.0065447926
-0.0035597561 -0.0013636363 -0.007908334
-0.0066109756 -0.0022727272 -0.0021132817
0.0007345528 -0.00079545454 -0.0032495665
-0.0015256098 -0.00068181817 -0.0034768234
0.0042378046 0 -0.0060902783
0.0014126016 0.0021590909 -0.0081355907
-0.0043508131 -0.00022727273 -0.0073401919
-0.00050853658 -0.0014772727 -0.010749046
0.0023166665 0.0021590909 -0.0064311638
0.0067239837 0.0015909091 -0.003135938
0.0061589428 0.0015909091 -6.7968991e-05
0.0060459347 0.0014772727 -0.00029522594
-0.0032207316 -0.0022727272 -0.005294879
-0.0018646341 -0.0021590909 -0.0073401919
-0.0062719509 -0.0023863637 -0.0029086811
0.0036727642 -0.00125 -0.0076810773
0.0038987803 0.0011363636 -0.0059766499
0.0060459347 0.0021590909 -0.00052248291
-0.0057069105 -0.0018181818 -0.00097699685
-0.0015256098 -0.0023863637 -0.0062039071
-0.0016386178 0.0019318182 -0.0057493933
0.0037857722 -0.0011363636 -0.0081355907
-0.0038987803 -0.0013636363 -0.0041585942
-0.00016951219 -0.00125 -0.0035904518
0.0038987803 -0.00045454546 -0.0055221361
0.00016951219 -0.0022727272 -0.0060902783
0.0007345528 0.0023863637 -0.0063175354
0.0018646341 -0.0013636363 -0.010408161
-0.0017516259 0.0021590909 -0.0077947057
0.0015256098 0.0015909091 -0.010294532
-0.0061589428 -0.0020454545 -0.0038177089
-0.0042378046 -0.0017045455 -0.0051812506
0.0025426829 -0.0018181818 -0.0082492195
-0.0035597561 -0.0022727272 -0.0043858513
0.0036727642 0.0013636363 -0.0062039071
0.0042378046 -0.00011363636 -0.0084764762
-0.00028252031 -0.0013636363 -0.0037040804
0.0057069105 0.0013636363 -0.0012042538
0.00016951219 0.0019318182 -0.0099536469
-5.6504065e-05 -0.00125 -0.0035904518
0.0036727642 -0.00034090909 -0.0050676223
-0.0043508131 0.00011363636 -0.006885678
0.0015256098 0.00045454546 -0.0033631949
-0.0035597561 0.0010227272 -0.0057493933
0.0015256098 -0.0020454545 -0.0057493933
-0.0043508131 -0.00034090909 -0.0081355907
0.0024296746 0.0023863637 -0.0057493933
0.0042378046 0.0005681818 -0.0064311638
0.0057069105 0.0020454545 -0.0022269101
-5.6504065e-05 0.0020454545 -0.0093855048
-0.0059329267 -0.00125 -0.0014315108
-0.0045768293 -0.00079545454 -0.004613108
0.00050853658 -0.0011363636 -0.0034768234
-0.0022036585 -0.00090909092 -0.0040449658
0.0022036585 0.00090909092 -0.010749046
-0.0014126016 -0.0021590909 -0.0044994797
0.0059329267 0.0013636363 -0.00086336833
0.0018646341 -0.0021590909 -0.0076810773
0.0027686991 -0.0015909091 -0.0089309905
-0.0055939024 -0.0018181818 -0.0016587677
0.0012995935 -0.0021590909 -0.0065447926
0.0012995935 0.0019318182 -0.004272223
-0.0014126016 -0.00090909092 -0.0035904518
0.0033337397 -0.00090909092 -0.0096127614
0.0018646341 -0.0014772727 -0.004613108
0.0045768293 0.0023863637 -0.004272223
0.0020906504 0.0020454545 -0.0084764762
-0.0020906504 0.0014772727 -0.010180904
0.0036727642 0.0005681818 -0.0096127614
0.0025426829 0.0017045455 -0.0088173617
0.0032207316 0.0015909091 -0.0069993064
-0.002655691 0.0018181818 -0.0066584209
-0.0041247965 -0.00125 -0.0054085078
-0.002655691 0.00045454546 -0.010749046
-0.0012995935 0.00011363636 -0.0032495665
-0.0037857722 -0.00011363636 -0.0094991326
0.0020906504 -0.0020454545 -0.0073401919
0.00096056907 -0.0015909091 -0.010408161
-0.00016951219 -0.00011363636 -0.0030223094
-0.0033337397 0.00022727273 -0.0043858513
0.0022036585 -0.0017045455 -0.0094991326
-0.0035597561 0.00125 -0.0069993064
0.00084756094 0.0018181818 -0.010180904
-0.0034467478 -0.0019318182 -0.0057493933
-0.0024296746 0.00125 -0.010180904
0.0032207316 0.00011363636 -0.010294532
-0.00062154472 0.0020454545 -0.0093855048
-0.0038987803 -0.00034090909 -0.0043858513
0.0023166665 0.0018181818 -0.0090446193
-0.0025426829 -0.0018181818 -0.0087037338
0.0043508131 -0.00011363636 -0.007908334
-0.0033337397 -0.00090909092 -0.0097263902
0.0020906504 0.0013636363 -0.004272223
-0.0023166665 0.00090909092 -0.0040449658
0.0019776423 0.0019318182 -0.0089309905
-0.0010735772 -0.0023863637 -0.0056357644
-0.00016951219 0.00022727273 -0.011658074
-0.0028817072 -0.0022727272 -0.0055221361
-0.00028252031 0.0021590909 -0.0088173617
-0.00028252031 -0.0019318182 -0.0044994797
0.0007345528 0.0015909091 -0.010521789
-0.0023166665 -0.0021590909 -0.0065447926
0.0020906504 -0.0017045455 -0.0094991326
-0.0020906504 -0.0022727272 -0.0062039071
-5.6504065e-05 -0.0023863637 -0.0077947057
-0.00084756094 0.0019318182 -0.0097263902
-0.0025426829 0.0010227272 -0.0044994797
0.0032207316 0.0023863637 -0.0047267368
-0.0034467478 0.0013636363 -0.0071129347
0.0012995935 0.0020454545 -0.0088173617
0.0010735772 0.00068181817 -0.0033631949
0.002655691 0.0015909091 -0.0093855048
0.0019776423 0.0022727272 -0.0064311638
-0.00016951219 0.0023863637 -0.0065447926
-0.0062719509 -0.0014772727 -0.0037040804
-0.0032207316 -0.0022727272 -0.0043858513
0.0037857722 -0.0010227272 -0.008590105
-0.0032207316 0.0011363636 -0.005294879
-0.0035597561 0.00045454546 -0.0049539935
0.0037857722 0.00125 -0.0059766499
0.0012995935 -0.00068181817 -0.0033631949
-0.0011865853 0.0022727272 -0.0083628483
0.0061589428 0.0019318182 0.0022046007
0.0062719509 0.0023863637 -0.0025677956
-0.00050853658 -0.0021590909 -0.0049539935
0.0017516259 0.0021590909 -0.0044994797
0.0025426829 0.0011363636 -0.010294532
0.0020906504 -0.0017045455 -0.0097263902
0.0011865853 0.0011363636 -0.010976303
-0.006384959 -0.0021590909 -0.00052248291
0.0042378046 -0.0005681818 -0.0077947057
-0.0062719509 -0.0020454545 -0.0037040804
0.00096056907 -0.0021590909 -0.008590105
-0.0062719509 -0.0021590909 -0.00063611142
0.0058199186 0.00125 -0.003135938
0.0051418697 0.0018181818 -0.003135938
0.0015256098 -0.0021590909 -0.0077947057
0.0059329267 0.0011363636 -0.003135938
-0.0016386178 -0.00068181817 -0.0035904518
-0.0040117884 -0.00090909092 -0.0062039071
-0.0024296746 -0.0022727272 -0.0050676223
0.0032207316 -0.00022727273 -0.0043858513
0.0035597561 -0.00125 -0.0062039071
-0.0025426829 -0.00125 -0.010067276
0.00062154472 0.00022727273 -0.003135938
-0.0022036585 0.0019318182 -0.0089309905
-0.0023166665 0.0019318182 -0.0073401919
0.0042378046 0.00079545454 -0.0076810773
0.0061589428 0.0021590909 -0.00063611142
-0.0060459347 -0.0017045455 0.0020909721
0.0023166665 -0.0017045455 -0.0091582472
-0.0022036585 -0.0022727272 -0.004613108
-0.0038987803 0.0010227272 -0.0080219628
-0.0034467478 -0.0014772727 -0.0069993064
0.0010735772 -0.00045454546 -0.0032495665
-0.0057069105 -0.0020454545 -0.0017723962
0.0038987803 -0.00068181817 -0.0089309905
0.0044638212 0.0014772727 -0.0049539935
0.0036727642 -0.00125 -0.0083628483
-0.0062719509 -0.0019318182 0.0010683158
-0.0018646341 0.0018181818 -0.0093855048
0.0042378046 -0.00022727273 -0.0080219628
-0.0041247965 -0.00011363636 -0.0060902783
0.0011865853 -0.0021590909 -0.008590105
-0.0024296746 -0.0019318182 -0.007908334
-0.0053678858 -0.0020454545 -0.004272223
0.0012995935 0.0005681818 -0.011430817
-0.0061589428 -0.0023863637 -0.002454167
-0.0067239837 -0.0015909091 -0.00063611142
-0.0010735772 -0.0022727272 -0.0069993064
-0.0043508131 -0.0022727272 -0.0048403651
-0.0042378046 -0.0022727272 -0.004613108
0.0023166665 0.0022727272 -0.0063175354
0.0046898373 0.00090909092 -0.0041585942
0.00028252031 0 -0.011658074
-0.0040117884 -0.00034090909 -0.0049539935
-0.0040117884 -0.0019318182 -0.0039313375
0.0041247965 0.00068181817 -0.0081355907
-0.0032207316 0.0015909091 -0.0083628483
-0.0027686991 -0.0018181818 -0.0076810773
-0.0029947155 0.0005681818 -0.004272223
0.0038987803 0.0017045455 -0.0055221361
-0.00096056907 0.0022727272 -0.0063175354
-0.0033337397 0.0011363636 -0.0055221361
0.0023166665 -0.0019318182 -0.0080219628
-0.0012995935 0.0021590909 -0.0063175354
-0.0040117884 -0.0005681818 -0.005294879
0.0024296746 -0.0019318182 -0.0073401919
0.0049158535 0.0023863637 -0.0040449658
-0.0035597561 0.00068181817 -0.005294879
0.0041247965 -0.00022727273 -0.008590105
0.0031077235 -0.00125 -0.0094991326
0.0036727642 -0.00022727273 -0.0047267368
0.0031077235 -0.0015909091 -0.0063175354
0.0023166665 0.0023863637 -0.0051812506
-0.0061589428 -0.0014772727 -0.00018159747
-0.0029947155 -0.0011363636 -0.0097263902
0.0020906504 -0.0019318182 -0.0084764762
0.00084756094 0.0022727272 -0.007908334
-0.0044638212 -0.0021590909 -0.0048403651
0.0016386178 0 -0.0033631949
-0.0038987803 -0.00090909092 -0.0083628483
0.0011865853 -0.0005681818 -0.0032495665
0.0058199186 0.0023863637 -0.0030223094
-0.0066109756 -0.0022727272 -0.002454167
0.0033337397 0.00090909092 -0.0096127614
-0.0029947155 0.0017045455 -0.0081355907
0.0010735772 -0.00090909092 -0.0034768234
0.0016386178 -0.0010227272 -0.0039313375
0.0019776423 -0.0020454545 -0.0075674485
-0.0038987803 0.00079545454 -0.0087037338
0.0007345528 0.00011363636 -0.003135938
-0.00084756094 0.0022727272 -0.0062039071
-0.0054808944 -0.0013636363 -0.0030223094
0.0041247965 0.0005681818 -0.0060902783
-0.00084756094 0.0017045455 -0.010180904
-0.0043508131 -0.00011363636 -0.006885678
0.0019776423 -0.0015909091 -0.0099536469
-0.0025426829 -0.0022727272 -0.0050676223
-0.0043508131 -0.00011363636 -0.0080219628
-0.0067239837 -0.0014772727 -0.0030223094
0.0018646341 -0.00068181817 -0.0035904518
0.00016951219 -0.00068181817 -0.003135938
-0.0015256098 -0.0023863637 -0.0055221361
-0.00084756094 -0.0022727272 -0.008590105
-0.0037857722 0.00022727273 -0.0093855048
-0.002655691 0.0017045455 -0.0062039071
-0.0042378046 0 -0.0062039071
-0.00084756094 -0.0019318182 -0.0097263902
0.0036727642 0.0013636363 -0.007908334
-0.0032207316 0.0015909091 -0.0074538202
0.0060459347 0.00125 -0.0016587677
-0.0057069105 -0.0022727272 -0.0038177089
-0.0062719509 -0.00125 -0.00074973988
0.0007345528 0.0010227272 -0.01120356
-0.002655691 0.00022727273 -0.0039313375
-0.0010735772 -0.0022727272 -0.0081355907
-0.0042378046 -0.0019318182 -0.0037040804
0.0041247965 -0.0005681818 -0.0062039071
0.0022036585 -0.0019318182 -0.0059766499
0.0044638212 0.0013636363 -0.0037040804
-0.0007345528 -0.0022727272 -0.005294879
-0.0022036585 -0.0020454545 -0.0071129347
-0.0029947155 0.00011363636 -0.010521789
0.00016951219 0.0022727272 -0.0081355907
-0.0025426829 0.0018181818 -0.0083628483
0.0043508131 0.0023863637 -0.0041585942
0.0017516259 -0.0021590909 -0.0067720492
0.0014126016 -0.00034090909 -0.011430817
0.0028817072 0.0017045455 -0.0081355907
0.0041247965 -0.00079545454 -0.0076810773
-0.0037857722 -0.0015909091 -0.0056357644
0.0017516259 -0.0019318182 -0.009271876
0.00050853658 0.0022727272 -0.0054085078
-0.0043508131 -0.00090909092 -0.0049539935
-0.0024296746 -0.0019318182 -0.0071129347
0.0025426829 -0.0018181818 -0.0063175354
0.0032207316 -0.0013636363 -0.0089309905
-0.0007345528 -0.0005681818 -0.003135938
-0.0012995935 -0.0022727272 -0.0057493933
-0.0028817072 -0.0021590909 -0.0059766499
0.00050853658 -0.0017045455 -0.010067276
-0.00084756094 -0.0023863637 -0.0063175354
-0.0067239837 -0.0020454545 -0.0017723962
-0.0017516259 0.0021590909 -0.0073401919
-0.0023166665 0.00045454546 -0.010862675
-0.0031077235 -0.0017045455 -0.0075674485
-0.00062154472 0.0015909091 -0.010521789
-0.002655691 -0.0014772727 -0.0093855048
-0.0066109756 -0.00125 -0.0017723962
-0.0007345528 -0.00125 -0.010976303
0.0024296746 -0.00079545454 -0.010635418
-0.0038987803 0.0010227272 -0.0074538202
0.002655691 -0.0018181818 -0.0071129347
0.0042378046 -0.00011363636 -0.0060902783
0.0031077235 -0.00068181817 -0.010180904
0.0059329267 0.00125 -0.0016587677
-0.0015256098 -0.00022727273 -0.0032495665
-0.0011865853 -0.00011363636 -0.011544446
-0.00050853658 0.00034090909 -0.011544446
0.002655691 0.00068181817 -0.010635418
0.0014126016 0.00090909092 -0.0035904518
-0.0012995935 0.0014772727 -0.010521789
-0.0057069105 -0.0020454545 -0.0010906253
-0.0064979675 -0.0022727272 -0.002454167
-0.0025426829 -0.0022727272 -0.0059766499
0.00096056907 -0.0021590909 -0.0055221361
0.0016386178 0.0014772727 -0.004272223
-0.0022036585 -0.0020454545 -0.0076810773
-0.0016386178 0.0005681818 -0.0034768234
-0.0033337397 -0.0018181818 -0.004272223
0.0016386178 -0.0020454545 -0.0063175354
-0.0015256098 0.00079545454 -0.0034768234
-0.0019776423 -0.00022727273 -0.0035904518
0.0032207316 -0.0011363636 -0.009271876
-0.0012995935 -0.0019318182 -0.0094991326
0.00016951219 0.00034090909 -0.003135938
0.0061589428 0.0023863637 -0.0013178823
0.0015256098 -0.0011363636 -0.010862675
-5.6504065e-05 0.0010227272 -0.011317189
-0.0024296746 0.0013636363 -0.010067276
-0.00050853658 0.0022727272 -0.0071129347
-0.0038987803 0.00079545454 -0.0088173617
0.0010735772 -0.0011363636 -0.010976303
-0.0040117884 -0.0005681818 -0.0051812506
0.00050853658 0.0018181818 -0.0099536469
0.0062719509 0.0022727272 -0.00086336833
0.0012995935 -0.0011363636 -0.010976303
0.0041247965 0.0005681818 -0.0087037338
0.002655691 -0.00045454546 -0.0039313375
-0.00084756094 -0.0022727272 -0.0084764762
5.6504065e-05 -0.00125 -0.010976303
0.0060459347 0.0018181818 0.0015228298
0.0020906504 0.0021590909 -0.0066584209
-0.0060459347 -0.00125 -0.0012042538
0.0011865853 0.0010227272 -0.011089931
0.0031077235 -0.0014772727 -0.0088173617
-0.00084756094 0.0021590909 -0.008590105
-0.0058199186 -0.0013636363 -0.0021132817
-0.00084756094 0.0021590909 -0.0058630216
-0.00039552845 0.0014772727 -0.010749046
0.0043508131 0.00045454546 -0.0044994797
-0.0017516259 -0.0021590909 -0.0072265635
-0.0017516259 0.0019318182 -0.0056357644
-0.0028817072 0.0017045455 -0.0069993064
0.0042378046 0.0019318182 -0.0051812506
-0.0051418697 -0.0017045455 -0.0044994797
0.0022036585 0.00034090909 -0.011089931
-0.0062719509 -0.0023863637 -0.0019996532
-0.00062154472 -0.0023863637 -0.0056357644
0.0042378046 0 -0.0082492195
0.00028252031 -0.0018181818 -0.0044994797
0.00062154472 0.0019318182 -0.0044994797
-0.0034467478 -0.0014772727 -0.0063175354
-0.0020906504 -0.00011363636 -0.01120356
0.0040117884 0.00034090909 -0.005294879
0.0029947155 -0.0013636363 -0.0055221361
0.00028252031 -0.0018181818 -0.010067276
-0.00062154472 -0.0022727272 -0.0051812506
-0.00016951219 -0.0022727272 -0.0082492195
-0.0041247965 -0.0023863637 -0.0041585942
0.0012995935 0.0023863637 -0.0057493933
-0.0054808944 -0.00125 -0.0032495665
-0.0010735772 0.0022727272 -0.0077947057
0.002655691 -0.0018181818 -0.0081355907
-0.0064979675 -0.0011363636 -0.0022269101
0.0033337397 0.0022727272 -0.0054085078
-0.0062719509 -0.0019318182 0.0018637152
0.0062719509 0.0017045455 -0.0038177089
0.0015256098 -0.00125 -0.010749046
0.0007345528 -0.0018181818 -0.0048403651
-0.00016951219 0.00125 -0.0035904518
-0.0038987803 -0.0018181818 -0.0054085078
0.0044638212 0.0019318182 -0.0049539935
0.0027686991 0.0018181818 -0.007908334
-0.0059329267 -0.0020454545 -0.00063611142
0.002655691 0.0019318182 -0.0066584209
0.0066109756 0.0022727272 -0.0023405387
-0.00084756094 -0.0022727272 -0.0077947057
0.0019776423 0.0019318182 -0.0091582472
0.0036727642 -0.00022727273 -0.0048403651
-0.0028817072 0.00022727273 -0.010635418
-0.0010735772 -0.0015909091 -0.010521789
-0.0044638212 -0.0022727272 -0.004272223
5.6504065e-05 -0.0023863637 -0.006885678
0.002655691 0.0018181818 -0.0043858513
-0.0023166665 -0.00034090909 -0.010976303
0.00039552845 0.0019318182 -0.0098400181
0.0037857722 0.0011363636 -0.0063175354
-5.6504065e-05 0.0015909091 -0.010408161
-0.0059329267 -0.0014772727 -0.0039313375
0.00016951219 0.0022727272 -0.0067720492
0.00062154472 0.0023863637 -0.0074538202
0.0032207316 -0.0011363636 -0.0051812506
0.0043508131 0.00034090909 -0.0072265635
5.6504065e-05 0.00022727273 -0.003135938
-0.0029947155 -0.0022727272 -0.0055221361
-0.0023166665 0.0015909091 -0.0054085078
-0.0022036585 -0.0018181818 -0.009271876
0.0016386178 0.00022727273 -0.0033631949
-0.0007345528 -0.00045454546 -0.003135938
-0.0064979675 -0.00125 -0.0016587677
-0.0017516259 -0.0017045455 -0.0098400181
-0.0042378046 -0.0005681818 -0.0043858513
-0.002655691 -0.0013636363 -0.0097263902
-0.0061589428 -0.0019318182 0.00072743039
0.00096056907 -0.00034090909 -0.011544446
0.0062719509 0.0015909091 4.5659493e-05
-0.0067239837 -0.0013636363 -0.0016587677
0.0010735772 0.0015909091 -0.010521789
-0.00084756094 0.0011363636 -0.0037040804
-0.0062719509 -0.0023863637 -0.0021132817
0.0016386178 0.0022727272 -0.0049539935
-0.0059329267 -0.0023863637 -0.0021132817
0.0017516259 -0.0019318182 -0.0055221361
0.00096056907 -0.0022727272 -0.0072265635
-0.0060459347 -0.00125 -0.003135938
-0.0067239837 -0.0021590909 -0.0023405387
0.00028252031 -0.0022727272 -0.0054085078
-0.002655691 0.0018181818 -0.0084764762
-0.0040117884 -0.00022727273 -0.0057493933
-0.00016951219 -0.0014772727 -0.0038177089
0.0053678858 0.0023863637 -0.0038177089
-0.0038987803 -0.00090909092 -0.0057493933
0.0027686991 -0.0014772727 -0.0093855048
0.00062154472 0.00022727273 -0.011658074
0.0035597561 0.0014772727 -0.0059766499
0.0041247965 0.00068181817 -0.005294879
0.0051418697 0.0022727272 -0.0039313375
-0.0038987803 -0.00079545454 -0.0087037338
0.0032207316 -0.0013636363 -0.0059766499
-0.0007345528 -0.0022727272 -0.006885678
-0.00084756094 0.0005681818 -0.003135938
0.0042378046 -0.0005681818 -0.0075674485
0.0020906504 -0.0020454545 -0.0074538202
0.0011865853 -0.0022727272 -0.0071129347
0.0060459347 0.0023863637 -0.0010906253
-0.0060459347 -0.0018181818 0.0016364582
-0.0040117884 -0.0005681818 -0.0055221361
0.00096056907 -0.0021590909 -0.0083628483
-0.0061589428 -0.0015909091 0.00072743039
-0.0035597561 0.00034090909 -0.0048403651
0.00028252031 -0.0013636363 -0.0038177089
-5.6504065e-05 -0.00034090909 -0.003135938
-0.0016386178 0.00090909092 -0.0038177089
0.00084756094 -0.0021590909 -0.0055221361
0.0017516259 0.0018181818 -0.004272223
0.0027686991 -0.0015909091 -0.0090446193
0.0028817072 0.0018181818 -0.0067720492
0.00050853658 -0.00079545454 -0.011430817
0.0024296746 0.0017045455 -0.009271876
0.0035597561 -0.00011363636 -0.0043858513
0.0007345528 0 -0.011658074
0.0007345528 -0.0020454545 -0.0091582472
-0.0020906504 0.0005681818 -0.0037040804
-0.0038987803 -0.0017045455 -0.0039313375
0.0057069105 0.0014772727 -0.002454167
0.0018646341 -0.0013636363 -0.0043858513
0.0054808944 0.0021590909 -0.0041585942
-0.0023166665 -0.0020454545 -0.007908334
-0.00016951219 0.00068181817 -0.003135938
0.0007345528 0.00034090909 -0.003135938
-0.00039552845 -0.00011363636 -0.011658074
0.0042378046 0.00045454546 -0.0065447926
0.00084756094 0.00034090909 -0.003135938
-0.0010735772 0.0017045455 -0.004613108
0.0040117884 0.00034090909 -0.0057493933
0.0060459347 0.0017045455 0.002545486
-0.0036727642 -0.00125 -0.0071129347
-0.00039552845 -0.0014772727 -0.010749046
0.0028817072 0.0018181818 -0.0071129347
0.002655691 -0.00079545454 -0.010521789
-0.0067239837 -0.0018181818 -0.0010906253
-0.0031077235 0.00090909092 -0.0048403651
-0.0028817072 0.0011363636 -0.0099536469
0.0011865853 0.0022727272 -0.0082492195
0.0067239837 0.0017045455 -0.0029086811
-0.0028817072 0.0005681818 -0.010521789
0.0040117884 0.0011363636 -0.0054085078
-0.0027686991 -0.00079545454 -0.004272223
0.0014126016 0.0022727272 -0.0077947057
-0.0029947155 0.00090909092 -0.004613108
0.006384959 0.0018181818 -0.0037040804
-0.00096056907 -0.0015909091 -0.010521789
-0.00096056907 -0.0022727272 -0.0072265635
0.0037857722 -0.00011363636 -0.0048403651
0.006384959 0.0017045455 4.5659493e-05
-0.0058199186 -0.0023863637 -0.0030223094
0.0010735772 -0.0022727272 -0.0067720492
-0.00028252031 0.00045454546 -0.003135938
0.006384959 0.00125 -0.0027950525
-0.00062154472 -0.0022727272 -0.008590105
-0.0034467478 0.0005681818 -0.0099536469
-0.0022036585 -0.0013636363 -0.010180904
0.00096056907 0.0015909091 -0.010521789
0.0042378046 0.0014772727 -0.0038177089
0.0010735772 -0.0021590909 -0.0056357644
-0.0016386178 -0.0022727272 -0.004613108
-0.0036727642 0.00125 -0.0072265635
0.0020906504 -0.0015909091 -0.0049539935
-0.0052548777 -0.0014772727 -0.0044994797
0.0041247965 0.0005681818 -0.0059766499
-0.0042378046 0 -0.0063175354
5.6504065e-05 0.0015909091 -0.0040449658
-0.0018646341 -0.0022727272 -0.0047267368
-0.0007345528 0.0005681818 -0.011544446
0.0017516259 0.00079545454 -0.0035904518
5.6504065e-05 -0.0020454545 -0.0097263902
0.0016386178 0.0015909091 -0.004272223
0.00084756094 -0.00068181817 -0.011430817
-0.00050853658 0.0022727272 -0.0082492195
-0.0036727642 -0.00068181817 -0.0093855048
0.0035597561 -0.00125 -0.006885678
0.0048028454 0.0011363636 -0.0040449658
-0.0012995935 0.0021590909 -0.0059766499
-0.00039552845 -0.00022727273 -0.011658074
0.0038987803 0.0015909091 -0.0055221361
0.0028817072 -0.0017045455 -0.006885678
-0.0017516259 0.00125 -0.010635418
-0.0062719509 -0.00125 -0.0029086811
-5.6504065e-05 -0.0023863637 -0.0072265635
0.0038987803 0.0015909091 -0.0040449658
-0.0040117884 0.00022727273 -0.0090446193
0.00050853658 0.0018181818 -0.010180904
0.0027686991 0.0023863637 -0.0049539935
-5.6504065e-05 -0.0022727272 -0.0057493933
-0.0067239837 -0.0019318182 -0.0026814241
0.0042378046 0.0005681818 -0.0048403651
0.0010735772 -0.0019318182 -0.0097263902
0.0068369918 0.0018181818 -0.0012042538
-0.0043508131 -0.0014772727 -0.0050676223
-0.0023166665 -0.00022727273 -0.0038177089
0.0014126016 0.00079545454 -0.01120356
-0.0058199186 -0.0021590909 -0.0014315108
-0.00028252031 0.0005681818 -0.003135938
0.0020906504 0.0022727272 -0.0049539935
0.0011865853 -0.0021590909 -0.0060902783
-0.0029947155 0.00022727273 -0.004272223
0.0025426829 0.0017045455 -0.0043858513
0.0036727642 0.0022727272 -0.0050676223
-0.0015256098 -0.00079545454 -0.0034768234
-0.0043508131 -0.00011363636 -0.0067720492
0.0062719509 0.0018181818 -0.0038177089
0.0019776423 -0.0019318182 -0.0083628483
-0.002655691 0.0018181818 -0.0065447926
-0.0014126016 0.0018181818 -0.0094991326
0.0010735772 -0.0021590909 -0.0083628483
0.0036727642 0.0014772727 -0.0058630216
0.0031077235 0.00068181817 -0.0043858513
-0.0022036585 -0.0023863637 -0.0058630216
-0.0036727642 0.00045454546 -0.0050676223
0.0011865853 -0.00090909092 -0.01120356
0.0011865853 -0.0022727272 -0.0077947057
0.0028817072 0.0017045455 -0.0084764762
0.0016386178 -0.0019318182 -0.0054085078
0.00062154472 -0.0018181818 -0.0047267368
-0.00084756094 -0.00068181817 -0.0032495665
0.0019776423 -0.0013636363 -0.0044994797
0.0064979675 0.0015909091 -0.00029522594
0.0028817072 0.0018181818 -0.0073401919
-0.00039552845 -0.0015909091 -0.010635418
0.0020906504 -0.0020454545 -0.0075674485
0.0011865853 -0.0021590909 -0.0088173617
0.0024296746 0.0019318182 -0.0043858513
-0.0067239837 -0.0018181818 -0.0023405387
-0.0041247965 0.00034090909 -0.0062039071
-0.0017516259 0.0017045455 -0.0099536469
0.0052548777 0.0017045455 -0.0030223094
-0.00084756094 0.0019318182 -0.0050676223
-0.0032207316 0.0014772727 -0.0060902783
0.0045768293 0.0021590909 -0.0047267368
0.00016951219 -0.00034090909 -0.003135938
-0.00039552845 0.0011363636 -0.011089931
-0.0051418697 -0.0021590909 -0.0032495665
-0.0020906504 0.0019318182 -0.0059766499
-0.0018646341 0.00125 -0.010521789
0.0018646341 0.00011363636 -0.011317189
-0.00039552845 0.00125 -0.0035904518
0.00016951219 -0.0018181818 -0.0043858513
0.00084756094 -0.0021590909 -0.0060902783
0.00028252031 -0.0021590909 -0.0091582472
0.0068369918 0.0018181818 -0.0019996532
0.0023166665 0.00068181817 -0.010862675
0.0027686991 0.00045454546 -0.010635418
-0.00062154472 -0.0021590909 -0.0049539935
-0.0057069105 -0.0014772727 -0.0012042538
0.0025426829 0.0019318182 -0.0077947057
-0.0033337397 0.0014772727 -0.0071129347
-0.0020906504 0.0019318182 -0.0082492195
0.0028817072 0.0014772727 -0.0093855048
-0.0029947155 0.0015909091 -0.0088173617
-0.0041247965 -0.0015909091 -0.0038177089
-0.0020906504 -0.0022727272 -0.004613108
-0.0040117884 0.00011363636 -0.009271876
0.0033337397 0.0013636363 -0.0087037338
0.0040117884 0.00034090909 -0.0056357644
0.0027686991 -0.0018181818 -0.0072265635
-0.0014126016 -0.0022727272 -0.0050676223
-0.0029947155 -0.00011363636 -0.004272223
-0.0038987803 0.0010227272 -0.007908334
0.0019776423 0.0011363636 -0.010749046
0.00028252031 0.0018181818 -0.004272223
5.6504065e-05 0.0022727272 -0.007908334
-0.00096056907 0.00045454546 -0.011430817
-0.0014126016 0.0013636363 -0.010521789
-0.0014126016 0.0018181818 -0.0096127614
-0.0018646341 0.0013636363 -0.0043858513
-0.0042378046 0.0005681818 -0.0074538202
0.0024296746 -0.0013636363 -0.0099536469
-0.0049158535 -0.0022727272 -0.004272223
0.0058199186 0.0017045455 -0.00052248291
-0.0066109756 -0.00125 -0.0014315108
0.0031077235 -0.00068181817 -0.0044994797
-0.0034467478 -0.0010227272 -0.009271876
-0.00084756094 0.00045454546 -0.003135938
0.0059329267 0.0023863637 -0.003135938
0.0042378046 -0.0005681818 -0.0066584209
-0.0032207316 -0.0015909091 -0.0075674485
0.0027686991 0.0018181818 -0.0077947057
-0.00050853658 0.00090909092 -0.0033631949
-0.0019776423 0.0013636363 -0.0043858513
-0.0067239837 -0.0020454545 -0.0030223094
0.006384959 0.0022727272 -0.003135938
-0.0022036585 0.0011363636 -0.004272223
-0.0031077235 -0.0015909091 -0.0065447926
0.0057069105 0.0019318182 -0.0016587677
-0.0038987803 0.00068181817 -0.0058630216
-0.0023166665 -0.0014772727 -0.0098400181
0.0010735772 -0.0018181818 -0.0048403651
-0.0010735772 0.00090909092 -0.01120356
0.00016951219 -0.00090909092 -0.0033631949
-0.0034467478 -0.00125 -0.0090446193
-0.00028252031 -0.0022727272 -0.0051812506
-0.0057069105 -0.0011363636 -0.0038177089
0.0061589428 0.0019318182 0.0024318576
0.0010735772 -0.0015909091 -0.004272223
-0.00062154472 0.0022727272 -0.006885678
0.0042378046 0.00045454546 -0.0047267368
0.0020906504 -0.00125 -0.010294532
0.0019776423 0.0020454545 -0.0077947057
-0.00050853658 0.0021590909 -0.0090446193
-0.0024296746 0.00022727273 -0.010976303
-0.00062154472 0.0022727272 -0.0062039071
-0.0034467478 0.0013636363 -0.0083628483
0.00084756094 -0.0022727272 -0.0066584209
-0.0024296746 -0.0019318182 -0.008590105
0.0012995935 0.0021590909 -0.0081355907
-5.6504065e-05 -0.0021590909 -0.0091582472
0.0064979675 0.0014772727 -0.0034768234
-0.0023166665 -0.0013636363 -0.010180904
0.0027686991 -0.0018181818 -0.0076810773
0.0020906504 0.0022727272 -0.0059766499
-0.0062719509 -0.0011363636 -0.00097699685
0.0018646341 0.0018181818 -0.0096127614
0.0038987803 -0.00090909092 -0.0083628483
0.0040117884 0.00022727273 -0.0049539935
-0.0018646341 -0.0018181818 -0.009271876
0.0027686991 0.0019318182 -0.0065447926
0.0007345528 -0.00125 -0.0038177089
0.0035597561 0.0022727272 -0.0051812506
0.0034467478 0.0020454545 -0.0056357644
0.0060459347 0.00125 -0.0017723962
-0.0059329267 -0.00125 -0.00097699685
-0.00084756094 -0.0022727272 -0.0067720492
0.0029947155 0.0015909091 -0.0089309905
0.0041247965 -0.00079545454 -0.0073401919
0.0007345528 0.0015909091 -0.0040449658
-0.0028817072 -0.0017045455 -0.0071129347
-0.002655691 -0.0019318182 -0.0072265635
-0.0016386178 -0.0022727272 -0.005294879
-0.00096056907 -0.0020454545 -0.0044994797
-0.0014126016 -0.0010227272 -0.010976303
0.0016386178 -0.00090909092 -0.010976303
0.0032207316 0.0015909091 -0.0076810773
0.00096056907 -0.0021590909 -0.0087037338
0.0011865853 0.0013636363 -0.010749046
0.0050288616 0.0010227272 -0.0038177089
0.0020906504 0.0018181818 -0.009271876
-0.0034467478 -0.00022727273 -0.010067276
-0.0017516259 -0.0023863637 -0.0055221361
-0.0020906504 -0.0022727272 -0.0049539935
-0.00050853658 0.0023863637 -0.0075674485
-0.0015256098 0.00090909092 -0.0037040804
-0.0011865853 0.0022727272 -0.0066584209
0.0054808944 0.0010227272 -0.0038177089
0.0066109756 0.0021590909 -0.00063611142
0.0010735772 0.0018181818 -0.004272223
-0.0031077235 0.00079545454 -0.0047267368
0.00084756094 -0.00090909092 -0.011317189
0.0061589428 0.0015909091 0.0012955727
-0.0034467478 0.00011363636 -0.0043858513
-0.0043508131 -0.0005681818 -0.0077947057
-0.0043508131 -0.00045454546 -0.0073401919
-0.00028252031 -0.0022727272 -0.0054085078
-0.0011865853 -0.0021590909 -0.0090446193
-0.0031077235 -0.0019318182 -0.0060902783
0.0036727642 0.0013636363 -0.0066584209
-0.0034467478 -0.0014772727 -0.0072265635
-0.0061589428 -0.0019318182 0.002545486
-0.0019776423 0.0018181818 -0.0055221361
0.0067239837 0.0014772727 -0.00086336833
-0.0040117884 0.00079545454 -0.0063175354
-0.0033337397 0.0014772727 -0.0069993064
0.0029947155 0.00079545454 -0.010180904
-0.0051418697 -0.0018181818 -0.003135938
-0.0033337397 -0.0014772727 -0.0080219628
-0.0029947155 0.00068181817 -0.010294532
0.006384959 0.00125 -0.0022269101
0.0024296746 -0.0018181818 -0.0059766499
-0.0055939024 -0.0015909091 -0.0026814241
0.0020906504 0.0015909091 -0.0099536469
0.0034467478 0.0011363636 -0.0043858513
0.0035597561 -0.0011363636 -0.0089309905
-5.6504065e-05 0.0022727272 -0.0071129347
0.0029947155 0.0023863637 -0.0047267368
0.0015256098 0.0005681818 -0.0034768234
0.0062719509 0.0021590909 -0.0035904518
0.00039552845 -0.0021590909 -0.009271876
0.0014126016 -0.0015909091 -0.010180904
-0.0015256098 -0.0014772727 -0.0041585942
0.0060459347 0.0018181818 0.00038654494
-0.0042378046 -0.0018181818 -0.0051812506
-0.0034467478 -0.00034090909 -0.0043858513
0.0025426829 0.0019318182 -0.0073401919
0.00062154472 -0.0019318182 -0.0094991326
5.6504065e-05 0.0019318182 -0.0098400181
0.0064979675 0.0020454545 -0.00040885442
-0.0029947155 0.0015909091 -0.0066584209
-5.6504065e-05 0.0014772727 -0.010749046
0.0020906504 -0.0014772727 -0.010180904
0.0060459347 0.0023863637 -0.0018860247
0.0018646341 -0.0011363636 -0.010749046
-0.0040117884 0.00079545454 -0.007908334
0.0066109756 0.0022727272 -0.0017723962
-5.6504065e-05 -0.0022727272 -0.0083628483
0.0018646341 -0.0019318182 -0.009271876
-0.0023166665 0.0005681818 -0.0038177089
0.00016951219 0.0011363636 -0.01120356
0.00028252031 -0.00068181817 -0.011544446
0.0019776423 0.0018181818 -0.009271876
-0.0023166665 0.0018181818 -0.0084764762
0.0014126016 -0.00022727273 -0.0032495665
0.0041247965 0.00125 -0.0040449658
0.0062719509 0.0019318182 -0.0037040804
0.00096056907 0.0022727272 -0.0082492195
5.6504065e-05 -0.0005681818 -0.011658074
0.0068369918 0.0020454545 -0.0012042538
-0.00039552845 0.0017045455 -0.0043858513
0.0041247965 -0.00022727273 -0.0087037338
-0.0007345528 -0.0019318182 -0.0044994797
0.0032207316 0.0017045455 -0.0062039071
0.0038987803 0 -0.0047267368
-0.0033337397 0.0014772727 -0.0073401919
0.0064979675 0.0022727272 -0.0019996532
0.0024296746 0.00011363636 -0.010976303
-0.0023166665 0.0013636363 -0.010067276
-0.00039552845 -0.0020454545 -0.0047267368
-0.0023166665 0 -0.0037040804
-0.0029947155 -0.0017045455 -0.0076810773
-0.00050853658 -0.0023863637 -0.0059766499
-0.0052548777 -0.0013636363 -0.0032495665
0.0019776423 0.00045454546 -0.01120356
5.6504065e-05 0.0011363636 -0.0034768234
0.00084756094 -0.00090909092 -0.0033631949
-0.0049158535 -0.0018181818 -0.0047267368
-0.0041247965 0.00011363636 -0.0058630216
0.0042378046 -0.00022727273 -0.0066584209
0.006384959 0.0018181818 0.0018637152
-0.0017516259 -0.0023863637 -0.0058630216
-0.0007345528 0.00090909092 -0.0033631949
-0.0025426829 0.0011363636 -0.004613108
-0.0041247965 -0.00068181817 -0.006885678
0.0036727642 0.0022727272 -0.0041585942
0.0033337397 -0.0014772727 -0.007908334
0.0055939024 0.0013636363 -0.0029086811
0.0062719509 0.0019318182 0.0022046007
0.0062719509 0.0015909091 0.00050017342
0.0007345528 -0.0022727272 -0.0064311638
-0.0054808944 -0.0015909091 -0.0027950525
-0.00039552845 0.0015909091 -0.0041585942
-0.006384959 -0.0019318182 0.0016364582
-0.00096056907 0.0022727272 -0.006885678
-0.0019776423 -0.0020454545 -0.0080219628
-0.0010735772 -0.0018181818 -0.004272223
0.0064979675 0.0022727272 -0.0021132817
0.0027686991 0.00090909092 -0.010294532
-0.0011865853 -0.0023863637 -0.0065447926
-0.00096056907 -0.00090909092 -0.0034768234
-0.0011865853 0.0022727272 -0.0071129347
0.0027686991 -0.00068181817 -0.010521789
0.0041247965 0.0005681818 -0.0088173617
-0.0038987803 0 -0.0093855048
0.0034467478 0.0018181818 -0.0058630216
0.0034467478 0.0005681818 -0.0098400181
-0.0011865853 -0.0023863637 -0.0059766499
0.00062154472 -0.0015909091 -0.010521789
0.0041247965 -0.00068181817 -0.006885678
-0.0033337397 0.0010227272 -0.0051812506
0.0022036585 0.0021590909 -0.0066584209
0.0016386178 0.0021590909 -0.0076810773
-0.00016951219 -0.0017045455 -0.0041585942
0.006384959 0.0013636363 -0.00063611142
-0.0031077235 -0.0014772727 -0.0089309905
0.0028817072 0.0015909091 -0.0043858513
-0.0011865853 0.0018181818 -0.0051812506
0.0037857722 -0.00011363636 -0.0044994797
-0.0029947155 -0.0017045455 -0.0071129347
-0.0018646341 0.00022727273 -0.011317189
0.0033337397 0.0015909091 -0.0071129347
-0.00028252031 0.0018181818 -0.010180904
0.0017516259 -0.0020454545 -0.0064311638
0.0061589428 0.0019318182 0.00038654494
0.0038987803 0.0018181818 -0.0055221361
0.0028817072 -0.0017045455 -0.0065447926
-0.0036727642 0.0010227272 -0.0088173617
0.00084756094 0.0023863637 -0.0055221361
-0.00028252031 0.0019318182 -0.0048403651
-0.0067239837 -0.0021590909 -0.0012042538
-0.00028252031 -0.0023863637 -0.0075674485
-0.0033337397 0.00022727273 -0.010180904
0.0033337397 0.0005681818 -0.0099536469
-0.0027686991 -0.0017045455 -0.0088173617
-0.00084756094 -0.0023863637 -0.0062039071
0.0040117884 0.00022727273 -0.0057493933
0.0010735772 -0.0022727272 -0.0082492195
-0.0043508131 -0.0005681818 -0.0069993064
0.0011865853 0.0023863637 -0.0058630216
0.0020906504 0.00011363636 -0.01120356
0.0038987803 0.0011363636 -0.0071129347
-0.0016386178 0.0021590909 -0.0080219628
-0.00016951219 -0.0019318182 -0.0099536469
-0.0029947155 -0.00045454546 -0.010408161
-0.0029947155 -0.0005681818 -0.004272223
-0.0019776423 0.0020454545 -0.006885678
0.0023166665 0.0014772727 -0.004272223
-0.00039552845 0.00022727273 -0.011658074
-0.0015256098 -0.0018181818 -0.0097263902
0.0010735772 0.00011363636 -0.011544446
-0.00016951219 -0.0022727272 -0.0051812506
0.00028252031 0.0019318182 -0.0044994797
0.0031077235 0.0017045455 -0.0071129347
0.0012995935 -0.00034090909 -0.0032495665
0.002655691 0.0022727272 -0.0057493933
-0.0015256098 -0.0023863637 -0.0060902783
0.0066109756 0.0022727272 -0.0016587677
-0.00084756094 -0.0020454545 -0.0096127614
0.00028252031 -0.0022727272 -0.0065447926
5.6504065e-05 -0.00079545454 -0.0032495665
-0.0016386178 0.00125 -0.010749046
0.002655691 0.0023863637 -0.0049539935
0.0018646341 0.0021590909 -0.008590105
0.0060459347 0.0017045455 0.0014092013
0.00039552845 -0.00125 -0.0035904518
0.0010735772 0.0022727272 -0.0071129347
0.0010735772 -0.00125 -0.010862675
0.0010735772 0.0021590909 -0.0048403651
0.0064979675 0.00125 -0.0029086811
-0.0010735772 0.0020454545 -0.0090446193
-0.0032207316 0.0015909091 -0.0065447926
0.0012995935 -0.0017045455 -0.010067276
0.0031077235 0.0023863637 -0.0047267368
-0.00084756094 -0.00045454546 -0.003135938
-0.00028252031 0.0020454545 -0.0050676223
-0.0045768293 -0.0015909091 -0.0049539935
-0.0058199186 -0.0013636363 -0.0010906253
0.0064979675 0.00125 -0.0014315108
0.0018646341 0.0010227272 -0.0039313375
-0.0011865853 0.00022727273 -0.011544446
-0.0016386178 0.0017045455 -0.010067276
0.0014126016 -0.0020454545 -0.0087037338
-0.0014126016 -0.0013636363 -0.0040449658
0.006384959 0.0019318182 0.002545486
-0.0028817072 0.0015909091 -0.008590105
-0.0055939024 -0.0022727272 -0.0039313375
0.00039552845 -0.0010227272 -0.0033631949
0.0068369918 0.0014772727 -0.0017723962
0.0018646341 0.0022727272 -0.0065447926
-0.00028252031 0.0020454545 -0.0093855048
-0.00016951219 0.0021590909 -0.0089309905
0.0025426829 0.0019318182 -0.006885678
-0.0042378046 0 -0.008590105
-0.0016386178 -0.0018181818 -0.0096127614
0.0014126016 0.0021590909 -0.0087037338
-0.0057069105 -0.0019318182 -0.0021132817
-0.0010735772 -0.00022727273 -0.011544446
0.0033337397 -0.00022727273 -0.010180904
0.0044638212 0.00079545454 -0.0047267368
0.00028252031 -0.0015909091 -0.0041585942
0.0060459347 0.0018181818 -0.00018159747
0.0045768293 0.00090909092 -0.004272223
0.002655691 -0.0018181818 -0.007908334
-0.0037857722 -0.00068181817 -0.0043858513
0.0017516259 0.0021590909 -0.0077947057
0.0018646341 -0.00022727273 -0.0034768234
-0.0043508131 -0.00022727273 -0.0074538202
0.0057069105 0.0014772727 -0.0019996532
0.0017516259 0 -0.011317189
0.0052548777 0.0011363636 -0.0037040804
-0.0028817072 -0.0018181818 -0.0064311638
-0.00039552845 0.0023863637 -0.0065447926
0.0019776423 0.0019318182 -0.0087037338
-0.0035597561 0.00068181817 -0.0097263902
-0.0067239837 -0.0014772727 -0.0013178823
0.00062154472 -0.0011363636 -0.0034768234
0.0040117884 0.00079545454 -0.0054085078
0.0031077235 0.0021590909 -0.0057493933
0.0025426829 0.00022727273 -0.0038177089
-0.0060459347 -0.0013636363 -0.00074973988
0.0018646341 0.0010227272 -0.0038177089
0.0051418697 0.0022727272 -0.0035904518
0.0016386178 0.0019318182 -0.004272223
-0.0055939024 -0.0021590909 -0.0027950525
-0.0041247965 -0.00079545454 -0.0043858513
0.0034467478 -0.00125 -0.0088173617
0.0054808944 0.0015909091 -0.0027950525
0.00028252031 0.0020454545 -0.0048403651
0.0024296746 0.0019318182 -0.0069993064
0.0011865853 -0.0021590909 -0.0055221361
0.00039552845 -0.0022727272 -0.0058630216
-0.0064979675 -0.0019318182 -0.00018159747
0.0010735772 -0.0017045455 -0.004613108
0.0057069105 0.0017045455 -0.0016587677
0.0022036585 -0.0017045455 -0.0054085078
-0.006384959 -0.0017045455 4.5659493e-05
-0.0059329267 -0.0023863637 -0.0019996532
0.0040117884 0.00011363636 -0.004613108
-0.0067239837 -0.0013636363 -0.0029086811
-0.0040117884 -0.00011363636 -0.0043858513
0.0051418697 0.0022727272 -0.0040449658
0.0007345528 0.0022727272 -0.008590105
-0.0025426829 0.0018181818 -0.007908334
-0.0017516259 0.0015909091 -0.010067276
0.0032207316 -0.0013636363 -0.0058630216
-0.0010735772 -0.00022727273 -0.003135938
0.0012995935 0.0010227272 -0.011089931
-0.0035597561 0.0010227272 -0.009271876
0.002655691 -0.0017045455 -0.0059766499
0.0035597561 0.0023863637 -0.004613108
-0.0064979675 -0.0018181818 -0.00018159747
0.0033337397 -0.00079545454 -0.0050676223
-0.0028817072 0.0017045455 -0.0076810773
-5.6504065e-05 0.0022727272 -0.0058630216
0.0060459347 0.0023863637 -0.0021132817
0.0059329267 0.0022727272 -0.0019996532
0.0012995935 -0.0020454545 -0.0058630216
-0.0058199186 -0.0011363636 -0.0034768234
-0.00028252031 -0.0023863637 -0.006885678
-0.0016386178 0.0005681818 -0.011317189
-0.0048028454 -0.0014772727 -0.0034768234
0.0017516259 -0.0014772727 -0.0043858513
-0.00096056907 -0.00034090909 -0.003135938
-0.0064979675 -0.0022727272 -0.0023405387
0.0057069105 0.0015909091 -0.0013178823
0.0020906504 0.0020454545 -0.0082492195
0.0058199186 0.0022727272 -0.002454167
-0.0024296746 0.0010227272 -0.004272223
0.0012995935 -0.0013636363 -0.0041585942
0.0017516259 0.0022727272 -0.0064311638
0.0028817072 0.0022727272 -0.0055221361
-0.0029947155 0.0015909091 -0.0060902783
-0.0035597561 0.00125 -0.0067720492
0.0058199186 0.00125 -0.0013178823
0.0043508131 0.0020454545 -0.0037040804
0.0029947155 0.0021590909 -0.0058630216
-0.00039552845 -0.0023863637 -0.0060902783
-0.0010735772 0.0019318182 -0.0094991326
0.00096056907 0.0019318182 -0.0098400181
0.0017516259 0.0021590909 -0.0069993064
-0.00016951219 0.0022727272 -0.0056357644
-0.006384959 -0.0011363636 -0.0013178823
0.0061589428 0.0019318182 0.0010683158
-0.0055939024 -0.00125 -0.0032495665
0.0066109756 0.0022727272 -0.0010906253
5.6504065e-05 -0.0015909091 -0.010408161
-0.00084756094 0.0022727272 -0.0081355907
0.0051418697 0.0017045455 -0.003135938
0.0037857722 0.0015909091 -0.0056357644
0.0064979675 0.0014772727 -0.00029522594
-0.00050853658 0.00079545454 -0.011430817
-0.0012995935 -0.0020454545 -0.0089309905
-0.0023166665 -0.0020454545 -0.0080219628
-0.0031077235 0.0013636363 -0.0090446193
0.0064979675 0.0013636363 -0.00074973988
-0.0032207316 -0.0021590909 -0.004272223
0.0031077235 -0.0010227272 -0.0049539935
0.00096056907 -0.0021590909 -0.0089309905
-0.0018646341 -0.0018181818 -0.004272223
-0.00016951219 0.0021590909 -0.0054085078
0.0032207316 -0.0015909091 -0.0067720492
-0.00039552845 -0.0023863637 -0.0058630216
0.0018646341 0.0021590909 -0.0072265635
-0.0060459347 -0.0018181818 0.002545486
0.0057069105 0.0017045455 -0.0021132817
-0.0054808944 -0.0017045455 -0.004272223
-0.0016386178 -0.0011363636 -0.0038177089
0.0044638212 0.0022727272 -0.0039313375
-0.0060459347 -0.0019318182 -0.00018159747
-0.0067239837 -0.0019318182 -0.0029086811
-0.0028817072 -0.0023863637 -0.0048403651
0.0019776423 -0.0005681818 -0.0037040804
-0.0064979675 -0.0022727272 -0.0012042538
-0.0041247965 0.00045454546 -0.008590105
-0.0020906504 -0.0019318182 -0.0043858513
-0.0011865853 -0.00068181817 -0.011430817
0.00028252031 0.00090909092 -0.011317189
-0.0050288616 -0.0022727272 -0.0041585942
-0.0041247965 -0.00068181817 -0.0084764762
0.00016951219 0.0021590909 -0.0090446193
-0.00050853658 -0.0023863637 -0.0062039071
-0.0017516259 -0.0014772727 -0.010408161
0.00028252031 0.0022727272 -0.005294879
-0.0037857722 0.0005681818 -0.009271876
0.0017516259 -0.0019318182 -0.0093855048
0.0034467478 0.0022727272 -0.004272223
-0.0046898373 -0.00068181817 -0.0043858513
0.0032207316 0.00034090909 -0.010294532
-0.002655691 0.00011363636 -0.010862675
0.0012995935 -0.0021590909 -0.0067720492
0.00084756094 0.0022727272 -0.0083628483
-0.0061589428 -0.0023863637 -0.0026814241
0.0037857722 -0.0011363636 -0.0072265635
-0.0040117884 -0.00022727273 -0.0051812506
-0.0024296746 -0.0020454545 -0.0065447926
-0.0067239837 -0.0018181818 -0.0026814241
0.006384959 0.0023863637 -0.0012042538
-0.0042378046 0.0005681818 -0.0072265635
-0.0055939024 -0.0015909091 -0.004272223
0.0035597561 -0.00125 -0.0080219628
-0.0022036585 0.0017045455 -0.0094991326
0.0012995935 -0.00079545454 -0.0034768234
-0.0035597561 0.0011363636 -0.0090446193
0.0057069105 0.0014772727 -0.0041585942
0.00050853658 0.0019318182 -0.0098400181
-0.0029947155 -0.0019318182 -0.0043858513
-0.0034467478 -0.00125 -0.0088173617
-0.00028252031 0.0022727272 -0.006885678
-0.0016386178 0.0020454545 -0.0084764762
0.0007345528 0.0023863637 -0.0060902783
-0.0064979675 -0.0022727272 -0.0026814241
0.0062719509 0.00125 -0.0026814241
0.0024296746 -0.00068181817 -0.0039313375
-0.0034467478 -0.00079545454 -0.0097263902
0.0050288616 0.0019318182 -0.004613108
-0.0041247965 -0.00045454546 -0.0059766499
-0.0052548777 -0.0020454545 -0.0043858513
0.0042378046 -0.00034090909 -0.0066584209
-0.006384959 -0.0019318182 0.0012955727
0.0025426829 -0.00125 -0.010067276
-0.0011865853 -0.0021590909 -0.0088173617
0.0017516259 0.0022727272 -0.0066584209
0.0007345528 -0.0022727272 -0.0062039071
-0.0057069105 -0.0014772727 -0.0023405387
-0.002655691 -0.0018181818 -0.007908334
0.0010735772 0.0020454545 -0.0043858513
0.0037857722 0 -0.0096127614
-0.0016386178 -0.0017045455 -0.0098400181
-0.006384959 -0.0017045455 0.00072743039
-0.0060459347 -0.0023863637 -0.0030223094
0.00084756094 0.0022727272 -0.006885678
0.0048028454 0.0022727272 -0.0037040804
-0.00084756094 0.0020454545 -0.0093855048
-0.0019776423 -0.0015909091 -0.010067276
0.0017516259 0.0013636363 -0.010521789
0.0055939024 0.0015909091 -0.0041585942
0.00084756094 0.0023863637 -0.0057493933
0.00028252031 -0.0005681818 -0.003135938
-0.0032207316 -0.0005681818 -0.0043858513
-5.6504065e-05 -0.0022727272 -0.0058630216
0.0033337397 0.0015909091 -0.006885678
0.0007345528 0.00125 -0.0037040804
0.0045768293 0.0011363636 -0.0040449658
-0.00028252031 -0.0017045455 -0.0041585942
0.00050853658 -0.00068181817 -0.003135938
-0.0007345528 0.0022727272 -0.0064311638
-0.0036727642 0.00034090909 -0.0050676223
0.0024296746 0.0014772727 -0.0097263902
0.0066109756 0.0013636363 -0.0032495665
0.0066109756 0.0021590909 -0.003135938
-0.0050288616 -0.0022727272 -0.0038177089
-0.0066109756 -0.0022727272 -0.0016587677
-0.0033337397 0.00034090909 -0.0043858513
0.0011865853 -0.0022727272 -0.0069993064
0.0032207316 0.0015909091 -0.0083628483
-0.00096056907 0.0020454545 -0.009271876
0.0038987803 0.00034090909 -0.009271876
0.0019776423 -0.0010227272 -0.010749046
0.00050853658 -0.0014772727 -0.010635418
0.0015256098 -0.00034090909 -0.011430817
-0.00050853658 -0.0019318182 -0.0043858513
-0.0025426829 -0.00125 -0.010180904
-0.0052548777 -0.0013636363 -0.0043858513
0.00028252031 0.0022727272 -0.007908334
0.006384959 0.0017045455 0.0011819443
0.0040117884 0.0021590909 -0.0050676223
0.0062719509 0.0015909091 0.0012955727
0.0020906504 -0.0020454545 -0.0071129347
-0.0046898373 -0.0020454545 -0.0034768234
0.0012995935 0 -0.0032495665
0.0018646341 0.0023863637 -0.0059766499
0.00016951219 0.0013636363 -0.010862675
0.0028817072 0.0017045455 -0.0082492195
-0.0012995935 -0.0020454545 -0.0088173617
-0.0037857722 -0.0010227272 -0.0087037338
0.00084756094 -0.0011363636 -0.0037040804
-0.0029947155 -0.0017045455 -0.0080219628
5.6504065e-05 0.0020454545 -0.0093855048
-0.0031077235 -0.0015909091 -0.0080219628
0.00039552845 -0.0023863637 -0.0072265635
0.0041247965 -0.00079545454 -0.0074538202
-0.0017516259 -0.0018181818 -0.0094991326
0.0016386178 -0.0005681818 -0.0034768234
0.0025426829 0.0018181818 -0.0084764762
0.00028252031 -0.0020454545 -0.0050676223
-0.0011865853 -0.0020454545 -0.0094991326
-0.0020906504 -0.0022727272 -0.005294879
-0.0031077235 0.0014772727 -0.0062039071
-0.0036727642 0.00125 -0.0077947057
-0.0024296746 0.00125 -0.010294532
0.0015256098 -0.00022727273 -0.0033631949
-0.0031077235 -0.0015909091 -0.0083628483
0.0037857722 -0.00034090909 -0.0093855048
-0.0031077235 0.0014772727 -0.0060902783
-0.0025426829 0.00125 -0.010180904
-0.00039552845 -0.0023863637 -0.007908334
-0.00039552845 0.0022727272 -0.0062039071
0.0007345528 -0.00090909092 -0.0033631949
-0.0027686991 -0.0020454545 -0.0043858513
0.0011865853 -0.00125 -0.0039313375
0.0016386178 -0.0010227272 -0.010862675
0.0062719509 0.00125 -0.0027950525
5.6504065e-05 0.0019318182 -0.0097263902
-0.0010735772 -0.00068181817 -0.0033631949
0.0031077235 -0.0011363636 -0.0097263902
-0.0036727642 -0.0013636363 -0.0063175354
0.0036727642 0.0023863637 -0.004613108
0.0020906504 0.0010227272 -0.010635418
0.00028252031 -0.00011363636 -0.011658074
0.0037857722 0.0011363636 -0.0083628483
-0.0034467478 -0.0014772727 -0.0075674485
-0.0038987803 -0.0015909091 -0.0039313375
-0.0012995935 -0.0021590909 -0.0084764762
