# .PCD v0.7 - Point Cloud Data file format
VERSION 0.7
FIELDS x y z
SIZE 4 4 4
TYPE F F F
COUNT 1 1 1
WIDTH 1203
HEIGHT 1
VIEWPOINT 0 0 0 1 0 0 0
POINTS 1203
DATA ascii
-0.0054768892 -0.00066666666 -0.0028832823
-0.0033395668 -0.0017333333 -0.011039651
-0.0054768892 0.0010666667 -0.012777893
-0.001202244 0.0016 -0.0063597672
-0.0018701573 -0.0014666667 -0.013580159
-0.0041410625 -0.0012000001 -0.0035518371
-0.0016029921 0.0017333333 -0.0094351191
-0.0021373227 -0.0016 -0.012644182
-0.0018701573 -0.0014666667 -0.0039529698
-0.0018701573 0.00053333334 -0.0034181259
-0.0046753935 0.0013333333 -0.0093014082
-0.0032059841 0.0014666667 -0.013045315
0.0048089758 0.00066666666 -0.00034277397
-0.0069462988 -0.00053333334 -0.011307073
-0.00026716533 -0.00013333333 -0.0030169932
-0.0044082282 0.0012000001 -0.013179026
-0.0041410625 0.0013333333 -0.0082317209
-0.0013358267 -0.00013333333 -0.0031507041
0.0054768892 0.00026666667 -0.015050979
-0.0056104721 -0.0010666667 -0.010638517
-0.00053433067 0.0017333333 -0.0074294549
-0.0046753935 0.00026666667 -0.0048889467
-0.001202244 -0.0013333333 -0.0039529698
-0.0066791335 -0.00066666666 -0.012243049
-0.0042746454 -0.0014666667 -0.011440784
0.007213464 -0.00026666667 -0.0091676973
0.0041410625 -0.0010666667 -0.0064934781
-0.005209724 -0.00039999999 -0.01518469
0.00013358267 -0.0017333333 -0.011975627
-0.0037403146 0.0013333333 -0.013045315
-0.0053433068 -0.00066666666 -0.00061019586
-0.0026716534 0.00079999998 -0.016254378
-0.0046753935 0.00079999998 -0.014783558
-0.0042746454 -0.0013333333 -0.0015461725
0.0057440549 0.0010666667 -0.0091676973
0.0068127159 -0.00053333334 -0.011975627
0.0021373227 -0.00039999999 -0.0034181259
-0.0045418106 -0.0016 -0.0020810163
0.001202244 -0.0017333333 -0.0079642991
0.0048089758 0.0013333333 0.00099433563
0.0038738975 0.0017333333 -0.0064934781
0.0026716534 -0.00053333334 -0.01665551
-0.005209724 -0.00039999999 -0.0046215248
-0.0029388187 0.0013333333 -0.0060923453
0.0033395668 -0.0013333333 -0.013580159
-0.0050761416 -0.0014666667 0.0016628904
0.0017365747 -0.0012000001 -0.01518469
-0.00080149603 -0.0012000001 -0.015318401
-0.0066791335 0.00053333334 -0.011708206
0.0010686613 0.0017333333 -0.011841916
-0.0026716534 -0.00013333333 -0.017190354
-0.0037403146 0.00013333333 -0.003685548
-0.0013358267 -0.0017333333 -0.0050226576
-0.005209724 0.00013333333 -0.0051563685
0.00026716533 -0.0016 -0.0090339864
0.00013358267 0.0013333333 -0.014783558
-0.0033395668 -0.0016 -0.011574495
0.0017365747 0.0014666667 -0.01371387
0.00066791335 0.0016 -0.0048889467
0.0016029921 0.0016 -0.0087665645
0.0041410625 -0.0013333333 -0.011574495
0.005209724 0.00093333336 -0.014115003
-0.0022709053 0.0016 -0.0086328536
0.00013358267 0.0016 -0.0089002755
0.0037403146 0.0014666667 -0.0090339864
-0.0025380708 0.00093333336 -0.015986957
0.00066791335 0.0018666667 -0.0068946108
0.0068127159 -0.00066666666 -0.010103674
-0.0021373227 -0.0016 -0.012911604
-0.0044082282 0.00039999999 -0.0047552357
-0.0070798816 0.00013333333 -0.012243049
-0.0044082282 -0.0018666667 -0.0054237903
0.0026716534 -0.00053333334 -0.0038192589
-0.00013358267 -0.0018666667 -0.0079642991
0.0032059841 0.0016 -0.0082317209
-0.00080149603 -0.0016 -0.013045315
0.0016029921 0.00093333336 -0.015719535
0.0013358267 -0.0017333333 -0.0098362518
-0.0030724013 -0.0018666667 -0.0054237903
-0.0058776373 -0.00093333336 -0.011841916
-0.00040074802 0.0016 -0.0055575012
-0.0056104721 -0.0013333333 -0.0051563685
0.0022709053 -0.0013333333 -0.005824923
0.0029388187 0.0018666667 -0.006627189
0.0053433068 0.0016 -0.00061019586
-0.0048089758 -0.0012000001 -0.0076968768
-0.007213464 0.00013333333 -0.011574495
-0.0033395668 -0.0016 -0.0094351191
-0.005209724 -0.0012000001 -0.0064934781
0.00080149603 0.0018666667 -0.0059586344
-0.0042746454 -0.0010666667 -0.0028832823
0.0048089758 0.0018666667 -0.0034181259
-0.002805236 -0.0018666667 -0.0050226576
0.0024044879 -0.0016 -0.012243049
-0.00093507866 0.0017333333 -0.010504806
-0.0010686613 0.0014666667 -0.0052900794
0.0030724013 -0.0014666667 -0.011307073
-0.0018701573 0.0016 -0.0091676973
0.0066791335 0.00039999999 -0.013045315
0.0057440549 -0.00079999998 -0.007295744
-0.0040074801 0.0010666667 -0.0064934781
-0.0054768892 -0.00066666666 -0.0011450397
-0.0014694093 -0.0017333333 -0.006627189
0.0062783854 0.00066666666 -0.012911604
-0.00040074802 0.0017333333 -0.0078305872
-0.0016029921 -0.00066666666 -0.016789222
-0.0010686613 -0.0012000001 -0.003685548
-0.00013358267 0.0010666667 -0.015585823
0.0016029921 0.0016 -0.012777893
0.00053433067 -0.00026666667 -0.017457776
-0.0030724013 0.0013333333 -0.014115003
-0.0020037401 -0.0016 -0.011574495
0.0014694093 -0.00093333336 -0.016254378
-0.0026716534 0.0017333333 -0.011307073
0.0054768892 0.00026666667 -0.01518469
0.0064119683 -0.00079999998 -0.0087665645
-0.003606732 -0.00093333336 -0.015452112
-0.0030724013 0.0010666667 -0.015318401
-0.0037403146 0.0012000001 -0.0067608999
-0.00093507866 -0.0016 -0.013179026
-0.0033395668 -0.0016 -0.011975627
0.0049425587 0.0013333333 0.0004594918
0.0042746454 -0.0010666667 -0.0062260563
-0.0025380708 -0.00093333336 -0.015986957
-0.0021373227 -0.0018666667 -0.0059586344
-0.0017365747 0.0013333333 -0.014649847
-0.0033395668 -0.0013333333 -0.013580159
0.0018701573 0.0014666667 -0.0070283217
0.0033395668 -0.0014666667 -0.010504806
-0.0033395668 0.0012000001 -0.014248714
-0.0025380708 0.00093333336 -0.015853245
0.0053433068 0.00079999998 -0.00034277397
-0.0045418106 -0.0016 -0.0027495711
-0.0058776373 0.00093333336 -0.00809801
-0.0022709053 0.0017333333 -0.011173362
-0.0021373227 -0.0016 -0.01237676
0.0025380708 0.00039999999 -0.016922932
0 -0.0017333333 -0.010772229
-0.0016029921 0.00093333336 -0.016120667
-0.0024044879 -0.0016 -0.0091676973
0.00080149603 0.00093333336 -0.0165218
-0.003606732 0.0014666667 -0.012243049
-0.0060112202 -0.00093333336 -0.012109338
0.0058776373 -0.00093333336 -0.01237676
0.00040074802 0.0012000001 -0.015318401
-0.0037403146 0.0014666667 -0.011039651
-0.0040074801 -0.0016 -0.0098362518
0.0021373227 0 -0.0034181259
-0.0056104721 -0.00079999998 -0.0043541025
-0.0032059841 0.0016 -0.010237385
-0.0029388187 0.0014666667 -0.0075631659
0.0024044879 -0.0016 -0.011440784
0.00026716533 -0.0016 -0.012777893
0.0017365747 -0.0016 -0.011440784
0.0010686613 0.0012000001 -0.015050979
-0.0044082282 0 -0.003685548
-0.0040074801 0.0014666667 -0.010371096
0.00093507866 -0.00039999999 -0.0031507041
0.0049425587 0.0014666667 5.835891e-05
0.0021373227 0.0016 -0.0084991427
0.0045418106 -0.00079999998 -0.0059586344
-0.0056104721 -0.0010666667 -0.0020810163
-0.0045418106 0.0010666667 -0.0074294549
0.0017365747 0.00079999998 -0.003685548
0.0044082282 -0.0013333333 -0.011975627
0.0048089758 -0.00066666666 -0.014917268
0.0044082282 0.0014666667 -0.0020810163
0.0056104721 0.00093333336 -0.003685548
0.0030724013 0.00026666667 -0.0038192589
-0.001202244 -0.0018666667 -0.0074294549
0.0046753935 0.00093333336 -0.014248714
-0.00040074802 -0.0010666667 -0.003685548
0.0030724013 0.00053333334 -0.0165218
0.0042746454 0.0010666667 -0.0014124616
-0.0058776373 -0.00079999998 -0.007295744
-0.0034731494 0.00079999998 -0.0050226576
-0.0048089758 -0.0018666667 -0.0035518371
-0.0044082282 -0.0012000001 -0.012911604
0.0030724013 0.0014666667 -0.012109338
-0.0049425587 -0.00026666667 -0.0040866807
-0.0061448026 -0.00093333336 -0.011975627
0.0042746454 0.0013333333 -0.0027495711
0.0046753935 0.00053333334 -0.0030169932
-0.00040074802 0.0017333333 -0.0062260563
0.0013358267 -0.00079999998 -0.016388088
0.0030724013 0.0013333333 -0.0038192589
0.0054768892 0.0010666667 -0.0082317209
0.0038738975 -0.0013333333 -0.0084991427
0.0014694093 0.00039999999 -0.003284415
-0.0024044879 0.0013333333 -0.014516136
-0.00093507866 -0.0017333333 -0.010371096
-0.00066791335 -0.0010666667 -0.003685548
0.0038738975 0.0014666667 -0.0089002755
-0.0025380708 -0.0014666667 -0.014115003
0.0057440549 0.00079999998 -0.0064934781
-0.0010686613 0.0016 -0.0090339864
-0.0040074801 0.00013333333 -0.003685548
-0.0038738975 0.00066666666 -0.015719535
0.0042746454 -0.0013333333 -0.010237385
-0.0026716534 -0.0010666667 -0.015719535
0.0016029921 -0.0016 -0.0067608999
0 -0.0014666667 -0.01371387
-0.002805236 0.00093333336 -0.0050226576
0.0061448026 0.00093333336 -0.0087665645
-0.0040074801 0.00026666667 -0.0043541025
0.0018701573 -0.0012000001 -0.015318401
0.005209724 0.0010666667 0.0021977343
-0.0038738975 0.0012000001 -0.013045315
0.0056104721 0.0010666667 -0.0079642991
-0.0022709053 0.0012000001 -0.0052900794
-0.002805236 -0.0010666667 -0.003685548
0.0034731494 -0.0014666667 -0.0079642991
-0.0056104721 -0.00093333336 -0.0030169932
-0.0020037401 -0.00093333336 -0.016120667
0.0017365747 0.0017333333 -0.0050226576
0.002805236 -0.0016 -0.0090339864
-0.0041410625 0.0010666667 -0.006627189
-0.0037403146 0 -0.01665551
-0.0048089758 -0.0017333333 -0.0014124616
-0.0025380708 -0.0014666667 -0.013312737
-0.002805236 -0.0014666667 -0.014115003
-0.0032059841 0.0013333333 -0.0067608999
0.0014694093 0.0016 -0.0047552357
-0.0069462988 0.00039999999 -0.01237676
0.0040074801 0 -0.003685548
-0.00053433067 0.0017333333 -0.0078305872
-0.0025380708 0.0016 -0.00809801
-0.0058776373 -0.00093333336 -0.012109338
-0.0026716534 0.0012000001 -0.0059586344
0.0020037401 0.0018666667 -0.0068946108
0.0049425587 0.00079999998 -7.5352051e-05
0.0049425587 0.0013333333 0.00072691368
-0.0061448026 -0.00039999999 -0.0064934781
-0.00066791335 0.00093333336 -0.0034181259
0.0045418106 0 -0.0044878135
-0.0034731494 -0.0014666667 -0.013045315
0.0056104721 -0.00093333336 -0.012510471
0.0054768892 0.0016 -0.0050226576
0.0029388187 -0.0014666667 -0.013045315
-0.0014694093 -0.0017333333 -0.0050226576
0.0060112202 -0.00079999998 -0.013045315
-0.0060112202 0.00093333336 -0.0090339864
0.0048089758 0.00026666667 -0.0038192589
-0.0056104721 -0.00066666666 -0.0056912121
0.0044082282 -0.00093333336 -0.0063597672
-0.0049425587 -0.0018666667 -0.0047552357
0.00013358267 -0.0018666667 -0.0075631659
0.0064119683 0 -0.013981292
-0.0060112202 0.00039999999 -0.014248714
-0.0017365747 0.0010666667 -0.0046215248
-0.0054768892 -0.00066666666 -0.0024821493
-0.0042746454 0.00066666666 -0.015452112
-0.0054768892 -0.00093333336 -0.01237676
0.0017365747 -0.00039999999 -0.017056644
-0.0030724013 0.00053333334 -0.0042203916
-0.0048089758 -0.0013333333 -0.0067608999
0.00093507866 -0.0017333333 -0.011975627
0.0064119683 -0.00079999998 -0.011574495
-0.0044082282 -0.0014666667 -0.0027495711
-0.002805236 -0.0014666667 -0.003685548
-0.0045418106 -0.0017333333 -0.0035518371
0.0042746454 0.00093333336 -0.0014124616
0.0042746454 -0.0012000001 -0.007295744
-0.0062783854 0.00053333334 -0.013045315
-0.00066791335 -0.0018666667 -0.0076968768
-0.0042746454 0.0012000001 -0.0076968768
-0.0053433068 -0.0017333333 -0.0024821493
-0.0022709053 -0.0010666667 -0.015719535
0.00093507866 0.0017333333 -0.00956883
0.005209724 0.0010666667 -0.012109338
0.0053433068 0.00053333334 -0.0008776178
0.00080149603 -0.0017333333 -0.011574495
-0.0017365747 -0.00066666666 -0.016789222
0.0034731494 0.0017333333 -0.0074294549
-0.00066791335 -0.0017333333 -0.011841916
0.0042746454 0.00093333336 -0.0018135945
-0.0065455507 -0.00026666667 -0.0071620326
-0.005209724 -0.00053333334 -0.014783558
0.001202244 0.0018666667 -0.0054237903
-0.0057440549 0 -0.005824923
0.0013358267 -0.0017333333 -0.011841916
0.0010686613 -0.0013333333 -0.014783558
0.0056104721 0.00079999998 -0.0011450397
0 -0.0010666667 -0.003685548
-0.0030724013 -0.0013333333 -0.01371387
0.0030724013 -0.0014666667 -0.0089002755
-0.0050761416 -0.0014666667 0.00072691368
-0.0061448026 0.00093333336 -0.011173362
-0.00026716533 -0.0016 -0.012243049
-0.0038738975 0.0014666667 -0.0084991427
-0.0056104721 -0.0010666667 -0.0083654318
-0.002805236 -0.0016 -0.011708206
-0.0014694093 -0.0017333333 -0.0052900794
0.0041410625 0.0016 -0.0098362518
0.00013358267 -0.0014666667 -0.013580159
-0.0042746454 -0.0017333333 -0.0035518371
0.0040074801 -0.00026666667 -0.0042203916
0.0049425587 0.00053333334 -0.01518469
-0.0016029921 -0.00026666667 -0.003284415
0.0050761416 -0.00013333333 -0.0050226576
0.0056104721 0.00079999998 -0.0028832823
0.005209724 0.00053333334 -0.00074390683
0.00093507866 0.0014666667 -0.013847581
-0.0013358267 0.0016 -0.0070283217
0.00080149603 0.00066666666 -0.0034181259
-0.0018701573 0.0013333333 -0.014783558
0.0065455507 0.00079999998 -0.0097025409
0.0041410625 0.0017333333 -0.0062260563
0.0069462988 -0.00053333334 -0.011039651
0.0021373227 -0.0016 -0.011708206
0.0053433068 0.0010666667 -0.012109338
-0.0053433068 -0.0016 -0.00074390683
0.001202244 -0.0016 -0.0070283217
0.0046753935 0.00013333333 -0.0038192589
0.00026716533 0.0017333333 -0.0076968768
0.0046753935 0.0010666667 0.0011280465
-0.0045418106 -0.0017333333 -0.0034181259
0.0037403146 0.0014666667 -0.0084991427
-0.00093507866 -0.0010666667 -0.015853245
0.0040074801 -0.0012000001 -0.013312737
-0.00066791335 0.0016 -0.0091676973
-0.0040074801 0.0014666667 -0.010237385
-0.0021373227 -0.0017333333 -0.0078305872
-0.00093507866 -0.0017333333 -0.011841916
0.0013358267 -0.0017333333 -0.011173362
0.00066791335 0.0016 -0.011975627
-0.0010686613 -0.0018666667 -0.007295744
-0.0010686613 -0.0010666667 -0.015986957
0.0045418106 0.00093333336 -0.014248714
-0.0070798816 -0.00053333334 -0.010103674
0.003606732 0.0013333333 -0.01371387
-0.0056104721 -0.0014666667 -0.0040866807
-0.0049425587 -0.00039999999 -0.0010113288
-0.0010686613 0.0016 -0.0062260563
0.0018701573 0.0012000001 -0.015318401
-0.0048089758 -0.00093333336 0.0017966013
-0.0046753935 0.00066666666 -0.01518469
0.0030724013 -0.0014666667 -0.012911604
-0.0042746454 0.00093333336 -0.014516136
0.0045418106 0.0016 -0.0008776178
0.0038738975 0.00053333334 -0.016120667
0.0024044879 0.0018666667 -0.0052900794
-0.0034731494 -0.00013333333 -0.0038192589
0.0060112202 -0.00093333336 -0.0098362518
0.0050761416 -0.0012000001 -0.011173362
0.0018701573 0.0017333333 -0.0052900794
-0.001202244 0.0017333333 -0.00809801
0.0056104721 0.0010666667 -0.0043541025
0.0029388187 0.00079999998 -0.016120667
0.0038738975 -0.00066666666 -0.015853245
-0.0049425587 -0.0013333333 -0.0093014082
-0.0050761416 0.00053333334 -0.015318401
0.0064119683 -0.00039999999 -0.01371387
0.002805236 -0.00053333334 -0.0039529698
-0.001202244 -0.00026666667 -0.017324066
0.00053433067 -0.00079999998 -0.003284415
0.0040074801 -0.00013333333 -0.003685548
0.0045418106 -0.0012000001 -0.0083654318
-0.0057440549 0.00093333336 -0.011841916
0.0041410625 0.0017333333 -0.0067608999
-0.003606732 0.0016 -0.010772229
0.0053433068 0.0010666667 -0.013045315
-0.007213464 -0.00026666667 -0.0093014082
-0.0034731494 -0.0016 -0.00809801
0.0016029921 -0.0014666667 -0.0056912121
0.0022709053 0.0014666667 -0.013446448
-0.0014694093 0.00079999998 -0.0034181259
0.0056104721 -0.00026666667 -0.014917268
-0.0030724013 -0.0016 -0.0090339864
0.00013358267 0.0010666667 -0.0038192589
0 0.0017333333 -0.011039651
0.0017365747 -0.0014666667 -0.013981292
0.0049425587 -0.0012000001 -0.011039651
0.0033395668 0.0016 -0.010772229
-0.0050761416 -0.0012000001 -0.0099699628
-0.0040074801 -0.0014666667 -0.007295744
-0.0057440549 -0.00079999998 -0.0062260563
-0.0038738975 -0.00079999998 -0.003685548
0.0064119683 -0.00079999998 -0.011440784
-0.0049425587 -0.0010666667 -0.013179026
0.0045418106 0.00066666666 -0.00074390683
0.001202244 -0.0017333333 -0.011307073
0.0038738975 0.00093333336 -0.015050979
-0.00093507866 0.0014666667 -0.013580159
-0.0021373227 -0.0017333333 -0.011039651
-0.0057440549 -0.00053333334 -0.005824923
-0.0050761416 0.0012000001 -0.010772229
-0.0038738975 -0.0016 -0.0098362518
0.0010686613 -0.0014666667 -0.013580159
0.0013358267 -0.0016 -0.007295744
-0.002805236 0.0013333333 -0.0063597672
0.002805236 -0.0013333333 -0.0064934781
-0.00080149603 0.0017333333 -0.0098362518
-0.0024044879 -0.0017333333 -0.010371096
0.0056104721 0.0014666667 -0.0051563685
0.0030724013 -0.0014666667 -0.0083654318
0.0058776373 -0.00066666666 -0.013981292
-0.00053433067 -0.0014666667 -0.01371387
-0.00093507866 0.0010666667 -0.0042203916
0.00080149603 -0.0017333333 -0.011173362
0.0032059841 0.0018666667 -0.0062260563
-0.0010686613 0.0017333333 -0.011039651
0.0010686613 0.0016 -0.007295744
0.0025380708 0.00093333336 -0.015986957
0.0046753935 0.0010666667 0.0004594918
0.0010686613 0.0010666667 -0.003685548
0.0049425587 -0.0012000001 -0.0097025409
-0.0044082282 -0.00066666666 -0.0020810163
-0.0060112202 0.00093333336 -0.011173362
0.002805236 -0.0016 -0.0083654318
-0.0044082282 0.0013333333 -0.010638517
0.0032059841 -0.0013333333 -0.0076968768
-0.0070798816 -0.00013333333 -0.0082317209
0.0010686613 -0.0013333333 -0.014649847
-0.0020037401 0.0014666667 -0.0068946108
0.0057440549 0.0010666667 -0.00956883
-0.0034731494 -0.0010666667 -0.015050979
-0.0020037401 -0.0016 -0.011708206
0.00013358267 -0.0016 -0.012510471
-0.0010686613 -0.0017333333 -0.00956883
-0.003606732 0.00066666666 -0.0047552357
0.0018701573 -0.00066666666 -0.003685548
-0.0054768892 -0.00066666666 -0.0039529698
-0.005209724 0.0010666667 -0.012777893
0.0065455507 0.00053333334 -0.00809801
0.0057440549 0.00066666666 -0.0056912121
0.0058776373 -0.00093333336 -0.00956883
0.0010686613 0.0017333333 -0.00956883
-0.0054768892 -0.00093333336 -0.013847581
-0.0026716534 0.0016 -0.0097025409
-0.0040074801 -0.0013333333 -0.012777893
-0.0058776373 0.00093333336 -0.0097025409
0.00026716533 0.0014666667 -0.01371387
-0.0042746454 0.0014666667 -0.011841916
-0.0057440549 0.0010666667 -0.0093014082
-0.0060112202 -0.00079999998 -0.013045315
-0.0018701573 0.0017333333 -0.011039651
-0.00080149603 0.00079999998 -0.0034181259
-0.00066791335 -0.00093333336 -0.01665551
0.0070798816 -0.00039999999 -0.011708206
0.0017365747 -0.0014666667 -0.0059586344
0.0034731494 -0.0010666667 -0.014516136
-0.0054768892 -0.0010666667 -0.0091676973
-0.0056104721 -0.0010666667 -0.010237385
-0.0044082282 -0.00079999998 -0.014783558
0.0014694093 0.00093333336 -0.016254378
0.00080149603 -0.0013333333 -0.014382425
-0.00066791335 0.0016 -0.0090339864
0.0017365747 -0.0013333333 -0.014783558
-0.0056104721 -0.0010666667 -0.0028832823
-0.0064119683 -0.00026666667 -0.0068946108
-0.0068127159 -0.00026666667 -0.0076968768
0.0026716534 0.0017333333 -0.0075631659
0.0013358267 -0.0016 -0.012911604
-0.0024044879 -0.0014666667 -0.007295744
0.0049425587 0.0013333333 -0.011708206
-0.0042746454 0.00053333334 -0.015986957
0.0022709053 0.0016 -0.0091676973
-0.0044082282 -0.0018666667 -0.0042203916
0 0.00093333336 -0.016254378
0.0065455507 0.00066666666 -0.0079642991
0.0021373227 0.0016 -0.01237676
0.0048089758 0.00053333334 -0.0015461725
0.005209724 0.00093333336 -0.013580159
-0.0013358267 -0.0017333333 -0.0099699628
0.0020037401 0.0016 -0.0071620326
0.0045418106 0.00013333333 -0.0039529698
-0.0034731494 0.00093333336 -0.0054237903
-0.0013358267 0.0017333333 -0.010237385
-0.0016029921 -0.0017333333 -0.010638517
-0.0013358267 -0.0017333333 -0.0082317209
0.0034731494 0.0016 -0.0093014082
0.0048089758 0.00093333336 0.00086062466
0.0038738975 -0.0010666667 -0.014783558
0.0029388187 -0.00093333336 -0.0048889467
-0.00026716533 0.0010666667 -0.015585823
0.0056104721 0.0013333333 -0.0018135945
-0.0016029921 -0.0010666667 -0.003685548
-0.0042746454 -0.0014666667 -0.011574495
-0.0045418106 0.0013333333 -0.0082317209
0.0032059841 0.0016 -0.0094351191
0.0058776373 0.0010666667 -0.011708206
0.0030724013 0.00066666666 -0.003685548
-0.0058776373 -0.00093333336 -0.011975627
-0.005209724 0.0012000001 -0.01090594
-0.0050761416 -0.0016 -0.0059586344
0.0054768892 0.0017333333 -0.003284415
0.0070798816 0.00039999999 -0.0094351191
-0.0050761416 0.00079999998 -0.0064934781
-0.0042746454 -0.0016 -0.0070283217
0.0048089758 -0.0012000001 -0.011440784
0.00053433067 -0.00066666666 -0.0031507041
-0.0054768892 -0.0010666667 -0.010237385
0.0014694093 0.0016 -0.0086328536
-0.003606732 0.0016 -0.011440784
-0.0045418106 -0.00013333333 -0.003685548
-0.0041410625 -0.0013333333 -0.013179026
0.0042746454 -0.0012000001 -0.0067608999
-0.003606732 -0.00066666666 -0.003685548
-0.0054768892 -0.0016 -0.0038192589
0.0056104721 0.00066666666 -0.0012787507
-0.007213464 0 -0.0089002755
-0.0044082282 -0.00066666666 -0.0012787507
0.0029388187 -0.0013333333 -0.0056912121
0.002805236 -0.0012000001 -0.014382425
0.0062783854 -0.00079999998 -0.0093014082
0.0046753935 -0.00093333336 -0.014382425
-0.0034731494 -0.00093333336 -0.015452112
0.0070798816 0.00013333333 -0.012510471
-0.0029388187 -0.0017333333 -0.0044878135
0.0033395668 -0.0014666667 -0.012644182
0.0030724013 -0.00066666666 -0.0046215248
-0.0016029921 0.00039999999 -0.003284415
-0.0048089758 -0.00039999999 -0.0023484384
0.0049425587 -0.0012000001 -0.0090339864
0.0030724013 -0.00039999999 -0.0039529698
0.00093507866 0.0017333333 -0.0075631659
0.0014694093 -0.0016 -0.0087665645
-0.0010686613 0.0016 -0.0086328536
-0.0064119683 0.00053333334 -0.013045315
-0.005209724 -0.00039999999 -0.0028832823
0.0056104721 -0.0010666667 -0.011307073
0.0014694093 0.0016 -0.0068946108
0.0026716534 0.0017333333 -0.010103674
-0.0014694093 -0.0014666667 -0.013981292
0.0032059841 -0.0014666667 -0.0089002755
-0.002805236 0.0010666667 -0.0054237903
0.0013358267 -0.00066666666 -0.016789222
-0.0037403146 -0.0014666667 -0.0087665645
0.00053433067 0.0017333333 -0.0084991427
-0.0013358267 -0.0018666667 -0.0067608999
-0.0030724013 0.0014666667 -0.012510471
-0.0025380708 0.0010666667 -0.015585823
-0.0057440549 0.00066666666 -0.0067608999
-0.0020037401 0.0016 -0.012510471
0.001202244 -0.0016 -0.0076968768
-0.001202244 0.0017333333 -0.010237385
0.0053433068 0.0010666667 -0.0076968768
-0.0054768892 0.0010666667 -0.010103674
-0.0018701573 0.00066666666 -0.01665551
-0.0050761416 -0.00039999999 -0.0034181259
0.00053433067 -0.0013333333 -0.0046215248
0.0057440549 0.00066666666 -0.013981292
0.00080149603 -0.0017333333 -0.0094351191
0.0032059841 -0.00013333333 -0.016922932
-0.0058776373 -0.00026666667 -0.014649847
0.0014694093 0.0016 -0.0089002755
0.0065455507 0.00039999999 -0.013312737
-0.0021373227 0.0016 -0.0098362518
-0.0073470469 0 -0.011039651
-0.0045418106 -0.0018666667 -0.0042203916
-0.0046753935 0.00093333336 -0.014382425
-0.0053433068 0.00093333336 -0.0070283217
0.00013358267 -0.0014666667 -0.013312737
0.0058776373 0.00026666667 -0.0059586344
-0.0053433068 -0.00066666666 -0.00074390683
-0.0044082282 -0.0014666667 -0.011173362
0.0016029921 -0.0016 -0.005824923
0.0032059841 -0.0014666667 -0.011574495
0.0013358267 -0.00053333334 -0.003284415
-0.005209724 0.0010666667 -0.0079642991
0.0073470469 0 -0.010371096
-0.0049425587 0.0013333333 -0.010103674
-0.0026716534 -0.0016 -0.0040866807
0.0020037401 -0.00079999998 -0.016388088
0.0014694093 -0.0010666667 -0.0044878135
-0.0017365747 -0.0016 -0.0042203916
-0.0049425587 0.00079999998 -0.014783558
-0.0024044879 -0.0018666667 -0.0059586344
-0.0062783854 -0.00079999998 -0.010638517
0.0033395668 0.0017333333 -0.0071620326
0.0045418106 0.0017333333 -0.003685548
-0.00026716533 -0.00093333336 -0.016254378
0.0025380708 0.00013333333 -0.017190354
0.0041410625 0.00066666666 -0.0034181259
-0.0069462988 0.00026666667 -0.0082317209
0 0.0016 -0.012109338
0.00093507866 -0.00079999998 -0.0038192589
-0.00013358267 0.0017333333 -0.011574495
0.0064119683 -0.00079999998 -0.01237676
-0.005209724 0.0012000001 -0.011173362
-0.00053433067 -0.0018666667 -0.005824923
0.00066791335 -0.0018666667 -0.010371096
-0.0045418106 -0.0013333333 -0.0074294549
0.00026716533 0.0016 -0.012911604
0.0040074801 -0.00093333336 -0.014115003
-0.00053433067 -0.0018666667 -0.0055575012
-0.0021373227 0.0016 -0.00809801
0.0066791335 -0.00013333333 -0.0071620326
-0.0017365747 0.0017333333 -0.011574495
-0.0056104721 0.00093333336 -0.0078305872
-0.007213464 -0.00026666667 -0.011039651
0.0032059841 0.0013333333 -0.014115003
-0.0066791335 0.00039999999 -0.0076968768
-0.0056104721 -0.0010666667 -0.0052900794
-0.0058776373 0.00079999998 -0.013045315
-0.0062783854 -0.00093333336 -0.010772229
0.0073470469 0 -0.010504806
-0.00080149603 0.00039999999 -0.017324066
0.0042746454 0.0012000001 -0.0026158602
-0.00066791335 0.0017333333 -0.011841916
0.003606732 0.0016 -0.0071620326
-0.00080149603 0.0016 -0.0086328536
0.0032059841 0.00093333336 -0.015585823
-0.0049425587 -0.00093333336 0.0021977343
0.0056104721 0.0010666667 -0.0090339864
0.0020037401 0.0017333333 -0.0048889467
0.0033395668 0.0018666667 -0.006627189
-0.0053433068 0 -0.0051563685
0.0065455507 0.00066666666 -0.00956883
-0.0029388187 -0.00079999998 -0.016120667
-0.0049425587 0.00079999998 -0.005824923
0.0016029921 0.0014666667 -0.013580159
0.0069462988 -0.00013333333 -0.0079642991
0.003606732 0.0016 -0.010638517
0.0038738975 -0.00079999998 -0.0051563685
-0.0060112202 -0.00066666666 -0.0071620326
-0.0038738975 0.0012000001 -0.007295744
-0.0022709053 -0.0016 -0.006627189
0.0018701573 -0.0014666667 -0.013981292
0.0049425587 0.0012000001 -0.007295744
0.0050761416 0.0018666667 -0.0038192589
-0.0054768892 -0.0016 -0.0034181259
0.0033395668 0.0016 -0.0093014082
-0.00013358267 -0.0016 -0.01237676
-0.001202244 0.00093333336 -0.0165218
-0.0056104721 -0.0010666667 -0.0048889467
0.0048089758 0.00013333333 -0.0044878135
0.00080149603 -0.0017333333 -0.010772229
0.0054768892 -0.0010666667 -0.0091676973
0.0014694093 0.0016 -0.0075631659
0.0064119683 -0.00079999998 -0.011841916
-0.0056104721 -0.0013333333 -0.0035518371
0.0065455507 0.00066666666 -0.011975627
0.0029388187 0.0016 -0.00956883
-0.0041410625 0.00013333333 -0.0039529698
-0.0056104721 -0.00066666666 -0.0054237903
0.0049425587 -0.00093333336 -0.0064934781
0.0050761416 0.0018666667 -0.0050226576
0.00026716533 -0.0017333333 -0.011440784
0.0025380708 -0.00053333334 -0.0165218
0.0056104721 -0.00093333336 -0.013045315
-0.0021373227 0.0017333333 -0.011708206
0.0016029921 -0.00093333336 -0.015986957
-0.0017365747 -0.0017333333 -0.0098362518
0.0066791335 0 -0.013580159
0.0016029921 0.00039999999 -0.017324066
-0.0042746454 -0.0010666667 -0.0024821493
0.0030724013 0.00093333336 -0.015719535
0.0054768892 0.0017333333 -0.0015461725
-0.0056104721 0.00079999998 -0.013446448
0.0040074801 -0.00066666666 -0.015318401
0.0069462988 -0.00053333334 -0.0094351191
-0.0020037401 -0.00039999999 -0.017190354
-0.0014694093 -0.00079999998 -0.0165218
-0.0057440549 -0.0010666667 -0.011173362
0.0040074801 0.0012000001 -0.013580159
0.0048089758 -0.0012000001 -0.010638517
0.001202244 -0.0017333333 -0.011173362
-0.0045418106 -0.0017333333 -0.0038192589
-0.0050761416 -0.00039999999 -0.0022147275
-0.0042746454 -0.0017333333 -0.0062260563
-0.0049425587 -0.0012000001 -0.0076968768
0.0032059841 -0.0014666667 -0.010371096
0.00053433067 0.0013333333 -0.014917268
-0.00026716533 0.00053333334 -0.017190354
0.007213464 -0.00026666667 -0.011708206
0.0041410625 -0.0013333333 -0.01237676
-0.0053433068 0.00093333336 -0.0071620326
0.0034731494 -0.00013333333 -0.0038192589
-0.0042746454 -0.0016 -0.0067608999
-0.003606732 -0.00026666667 -0.01665551
-0.0049425587 -0.0018666667 -0.0056912121
-0.0062783854 -0.00093333336 -0.010103674
0.00013358267 -0.0014666667 -0.0048889467
-0.0018701573 0.00066666666 -0.0035518371
-0.00040074802 -0.00079999998 -0.016789222
-0.0037403146 -0.00079999998 -0.003685548
0.0061448026 0.00093333336 -0.012243049
-0.0024044879 -0.0018666667 -0.0068946108
0.0056104721 0.00093333336 -0.0022147275
0.0026716534 -0.0012000001 -0.014248714
0.001202244 -0.00093333336 -0.016120667
-0.0038738975 -0.0018666667 -0.0059586344
-0.0013358267 0.00093333336 -0.016120667
-0.007213464 0.00013333333 -0.0093014082
-0.0040074801 0.0010666667 -0.014248714
-0.007213464 -0.00039999999 -0.010638517
0.0014694093 0.0018666667 -0.0068946108
0.00013358267 -0.0018666667 -0.0060923453
0.0034731494 -0.0014666667 -0.01237676
0.0013358267 -0.0017333333 -0.010638517
0.0022709053 -0.0013333333 -0.0063597672
-0.0056104721 -0.00093333336 -0.0038192589
0.003606732 -0.0010666667 -0.014649847
-0.0021373227 0.00039999999 -0.017056644
0.0044082282 -0.0013333333 -0.00956883
0.00093507866 0.00026666667 -0.017457776
0.0010686613 0.00066666666 -0.0035518371
0.0049425587 -0.0010666667 -0.007295744
0.003606732 0.0010666667 -0.014783558
-0.0053433068 -0.00053333334 -0.0019473055
0.0025380708 -0.0012000001 -0.014783558
-0.0048089758 -0.00093333336 0.00072691368
0.0044082282 -0.0012000001 -0.013312737
-0.0021373227 -0.0017333333 -0.0050226576
-0.0062783854 0.00066666666 -0.0078305872
0.0017365747 0.0016 -0.013045315
-0.002805236 -0.0016 -0.0039529698
-0.0065455507 0.00013333333 -0.01371387
-0.0025380708 -0.0017333333 -0.0075631659
-0.0057440549 0.0010666667 -0.0087665645
-0.0053433068 -0.0010666667 -0.00034277397
-0.0025380708 -0.00039999999 -0.003685548
0.00080149603 -0.0010666667 -0.0042203916
-0.0064119683 -0.00079999998 -0.0083654318
0.00040074802 -0.0017333333 -0.005824923
0.0048089758 0.0018666667 -0.0044878135
0.0038738975 -0.0010666667 -0.014649847
-0.0048089758 -0.00053333334 -0.0015461725
0.0016029921 -0.0014666667 -0.013847581
0.0037403146 0.0017333333 -0.0040866807
-0.0026716534 -0.0018666667 -0.0050226576
-0.0029388187 -0.0018666667 -0.0064934781
0.0010686613 -0.0014666667 -0.014115003
0.0010686613 0.0018666667 -0.007295744
-0.0050761416 -0.00093333336 0.0021977343
-0.0021373227 -0.0014666667 -0.013446448
0.0057440549 0.00066666666 -0.014248714
-0.0014694093 -0.0017333333 -0.011574495
0.0025380708 0.0016 -0.012109338
0.0050761416 0.0013333333 0.0023314452
-0.0030724013 0.0014666667 -0.012644182
-0.0038738975 -0.0012000001 -0.003685548
0.0018701573 0.0017333333 -0.0054237903
-0.005209724 -0.0013333333 0.0004594918
-0.0022709053 0.00053333334 -0.0035518371
0.0017365747 -0.0014666667 -0.013446448
-0.0032059841 -0.0016 -0.0079642991
-0.00013358267 0.0012000001 -0.015050979
-0.0068127159 0.00053333334 -0.01237676
0.0014694093 -0.0014666667 -0.006627189
0.0054768892 -0.00053333334 -0.014783558
0.0045418106 -0.00026666667 -0.0047552357
-0.0056104721 -0.00093333336 -0.0012787507
-0.00026716533 -0.0017333333 -0.011173362
-0.0013358267 -0.00039999999 -0.017190354
0.0057440549 -0.00079999998 -0.01371387
-0.0020037401 -0.0010666667 -0.015719535
0.0060112202 0.00093333336 -0.0086328536
-0.0025380708 -0.0016 -0.012109338
0.0032059841 0.0017333333 -0.007295744
-0.005209724 0.0010666667 -0.012911604
0.0045418106 -0.0010666667 -0.0070283217
-0.0020037401 -0.0016 -0.0090339864
0.0061448026 0.00079999998 -0.0076968768
0.0050761416 -0.0010666667 -0.011574495
-0.0037403146 0.0010666667 -0.014649847
-0.0022709053 -0.0017333333 -0.011173362
-0.0014694093 0.0013333333 -0.014917268
0.0018701573 0.0017333333 -0.0070283217
0.0054768892 0.0012000001 -0.011173362
-0.0026716534 -0.0013333333 -0.014649847
-0.0064119683 0.00066666666 -0.012777893
-0.0024044879 0.0013333333 -0.014649847
-0.0018701573 -0.0017333333 -0.0047552357
-0.0018701573 0.0016 -0.007295744
-0.0026716534 0.00066666666 -0.016388088
-0.0037403146 -0.0016 -0.0078305872
-0.0020037401 0.0016 -0.011975627
0.00013358267 -0.0016 -0.012109338
0.0020037401 -0.0013333333 -0.0055575012
0.0049425587 0.00093333336 0.00099433563
0.0058776373 -0.00053333334 -0.014115003
-0.00040074802 0.00093333336 -0.015986957
-0.0029388187 -0.0016 -0.011574495
-0.0014694093 -0.0017333333 -0.00809801
-0.0024044879 -0.0018666667 -0.0071620326
-0.0044082282 0.0013333333 -0.012644182
-0.0029388187 0.0016 -0.010371096
0.005209724 0.00093333336 0.0004594918
0.0030724013 -0.0013333333 -0.005824923
0.0046753935 0.0018666667 -0.0042203916
-0.0037403146 0.0014666667 -0.0097025409
0.0032059841 -0.0014666667 -0.010504806
-0.0030724013 0.00039999999 -0.003685548
0.0057440549 -0.00079999998 -0.013312737
-0.0050761416 -0.00093333336 0.0023314452
0.00080149603 -0.0016 -0.013045315
-0.0070798816 -0.00026666667 -0.012243049
-0.00013358267 0.0017333333 -0.010638517
0.0041410625 -0.00013333333 -0.016388088
-0.003606732 0.0010666667 -0.0055575012
0.0066791335 0.00013333333 -0.0071620326
0.0048089758 -0.00026666667 -0.0048889467
-0.00093507866 0.0016 -0.013179026
-0.0038738975 0.0012000001 -0.0067608999
-0.00066791335 -0.00026666667 -0.0031507041
0.0060112202 -0.00079999998 -0.0084991427
0.0060112202 0.00093333336 -0.0090339864
-0.0029388187 0.0014666667 -0.013312737
-0.002805236 -0.0018666667 -0.0056912121
0.00093507866 0.0013333333 -0.0040866807
-0.0064119683 0.00079999998 -0.0083654318
0.0060112202 0.00066666666 -0.013312737
-0.00080149603 0.0016 -0.012911604
-0.0046753935 -0.0012000001 0.0016628904
0.0070798816 0.00013333333 -0.01237676
0.0045418106 -0.0012000001 -0.011841916
0.0026716534 -0.00039999999 -0.003685548
-0.0073470469 0 -0.00956883
-0.001202244 0.0016 -0.0075631659
-0.0020037401 -0.0016 -0.0087665645
-0.0032059841 0.0016 -0.011574495
-0.0048089758 0.0013333333 -0.010638517
-0.0014694093 -0.0016 -0.0086328536
0.00066791335 -0.0014666667 -0.013446448
-0.00040074802 0.0017333333 -0.010772229
-0.0013358267 0.0010666667 -0.015585823
-0.0032059841 -0.0013333333 -0.01371387
-0.00066791335 -0.0016 -0.01237676
0.003606732 -0.0013333333 -0.013446448
-0.0048089758 0.00039999999 -0.015585823
0.0065455507 -0.00013333333 -0.01371387
0.0053433068 0.0017333333 -0.0020810163
-0.0053433068 0.0012000001 -0.0090339864
-0.0061448026 -0.00093333336 -0.0086328536
-0.00080149603 0.0016 -0.0055575012
-0.0017365747 0.0017333333 -0.010371096
-0.0054768892 -0.0010666667 -0.0062260563
0.0046753935 0.0013333333 -0.0076968768
-0.0054768892 -0.00093333336 -0.0068946108
0.0021373227 0.0018666667 -0.0071620326
0.0034731494 0.0016 -0.010103674
0.002805236 -0.0014666667 -0.007295744
-0.0050761416 -0.0017333333 -0.00074390683
0.001202244 -0.00066666666 -0.016789222
-0.0034731494 -0.0016 -0.0079642991
0.0046753935 -0.00039999999 -0.0050226576
-0.0026716534 -0.0018666667 -0.0056912121
-0.0046753935 -0.0013333333 -0.0098362518
0.0062783854 0.00093333336 -0.010638517
0.0030724013 0.0016 -0.0099699628
0.0048089758 0.00053333334 -0.0020810163
0.0044082282 0.00093333336 -0.0019473055
-0.0064119683 -0.00079999998 -0.012243049
-0.0046753935 -0.0013333333 -0.000209063
0 0.0016 -0.0054237903
-0.007213464 -0.00039999999 -0.01090594
0.0018701573 -0.0012000001 -0.015050979
0.0048089758 0.0018666667 -0.0046215248
-0.0058776373 0.00093333336 -0.011574495
0.0054768892 0.0016 -0.0052900794
-0.003606732 -0.00093333336 -0.003685548
-0.0022709053 -0.00079999998 -0.016254378
0.0013358267 -0.0010666667 -0.015452112
0.0038738975 0.0016 -0.0071620326
-0.0033395668 -0.0014666667 -0.012911604
-0.0030724013 0.0013333333 -0.0068946108
0.0046753935 0.0018666667 -0.0040866807
-0.005209724 0.0012000001 -0.0091676973
0.0032059841 0.0012000001 -0.014783558
0.0069462988 -0.00053333334 -0.011173362
-0.0056104721 -0.0010666667 -0.003284415
0.0056104721 0.00066666666 -0.014115003
0.0026716534 -0.0014666667 -0.013981292
-0.0018701573 -0.0013333333 -0.014382425
-0.0054768892 -0.00039999999 -0.015050979
0.0038738975 -0.00013333333 -0.0040866807
-0.0040074801 0.0012000001 -0.01371387
0.00013358267 -0.00053333334 -0.0031507041
-0.0032059841 0.0013333333 -0.0074294549
0.00040074802 -0.0017333333 -0.0074294549
0.0018701573 -0.00093333336 -0.015853245
-0.0024044879 -0.0017333333 -0.01090594
0.0053433068 0 -0.0051563685
-0.002805236 0.0017333333 -0.010103674
0.0034731494 0.0018666667 -0.0048889467
0.00066791335 0.0013333333 -0.014783558
-0.0024044879 0.0017333333 -0.010371096
0.00093507866 0.0018666667 -0.0059586344
0.001202244 0.0017333333 -0.011574495
-0.0061448026 0.00093333336 -0.0098362518
-0.0060112202 0.00093333336 -0.011039651
0 0.00079999998 -0.01665551
-0.0070798816 -0.00039999999 -0.0086328536
-0.0029388187 0.0014666667 -0.013847581
0.0021373227 0.0014666667 -0.0068946108
-0.0045418106 -0.00053333334 -0.0014124616
0.0021373227 -0.0016 -0.012777893
-0.0022709053 0.0014666667 -0.006627189
-0.0053433068 -0.0012000001 0.00019206987
-0.0054768892 0.0010666667 -0.0089002755
0.0054768892 -0.0010666667 -0.0097025409
-0.0060112202 -0.00066666666 -0.007295744
-0.0014694093 -0.0017333333 -0.0079642991
0.0044082282 0.0014666667 -0.0015461725
-0.0045418106 -0.0016 -0.0011450397
0.0062783854 -0.00066666666 -0.012510471
0.0025380708 -0.0016 -0.0091676973
0.0030724013 0.00026666667 -0.016922932
0.0056104721 0.00079999998 -0.0010113288
-0.0020037401 -0.0018666667 -0.0062260563
-0.00013358267 -0.0012000001 -0.0040866807
0.00080149603 -0.0013333333 -0.0050226576
0.0016029921 0.0013333333 -0.014783558
-0.0037403146 0.0013333333 -0.013312737
-0.0021373227 -0.0017333333 -0.0046215248
-0.0017365747 -0.0017333333 -0.011440784
-0.003606732 0.0013333333 -0.01371387
-0.0010686613 -0.0014666667 -0.01371387
-0.003606732 -0.0016 -0.011708206
0.0053433068 0.0010666667 -0.0087665645
0.0020037401 0.00039999999 -0.017056644
-0.0017365747 0.0013333333 -0.0054237903
-0.0053433068 -0.0010666667 -0.0075631659
0 -0.0016 -0.0091676973
-0.0018701573 -0.00039999999 -0.0034181259
-0.0045418106 -0.0010666667 -0.014115003
0.002805236 -0.0010666667 -0.01518469
0.00066791335 -0.0017333333 -0.00956883
-0.0037403146 -0.0018666667 -0.0060923453
0.0049425587 -0.00093333336 -0.013981292
-0.0020037401 0.0016 -0.0082317209
0.0066791335 -0.00066666666 -0.0089002755
0.0018701573 0.0016 -0.0086328536
0.00053433067 -0.00093333336 -0.003685548
-0.0029388187 -0.0016 -0.00956883
0.0053433068 0.0012000001 -0.010504806
0.00040074802 0.0017333333 -0.00956883
0.0030724013 -0.0014666667 -0.0091676973
0.00066791335 -0.0017333333 -0.011440784
-0.0061448026 -0.00093333336 -0.012243049
0.0050761416 0.00013333333 -0.015585823
0.00013358267 0.0017333333 -0.010772229
0.0013358267 -0.0016 -0.0089002755
-0.0013358267 0.0016 -0.0062260563
-0.00040074802 -0.0014666667 -0.013446448
-0.0041410625 -0.00079999998 -0.0031507041
0.0044082282 -0.0013333333 -0.0094351191
0.00093507866 -0.00066666666 -0.016789222
0.005209724 0.0010666667 -0.0078305872
0.0062783854 0.00079999998 -0.0093014082
-0.002805236 -0.0012000001 -0.003685548
0.0056104721 -0.0010666667 -0.0099699628
-0.00093507866 0.0017333333 -0.0082317209
0.0014694093 0.0016 -0.013312737
-0.0068127159 -0.00013333333 -0.013045315
0.0029388187 0.00053333334 -0.003685548
-0.0029388187 0.00026666667 -0.003685548
0.0022709053 0.00026666667 -0.017190354
-0.0042746454 0.00039999999 -0.0046215248
-0.0041410625 -0.0014666667 -0.00809801
0.0026716534 0.0018666667 -0.0048889467
-0.0014694093 0.0016 -0.0071620326
-0.0037403146 0.0014666667 -0.010371096
-0.0050761416 -0.00039999999 -0.0024821493
-0.0041410625 0.0014666667 -0.011708206
0.0016029921 0.0013333333 -0.014649847
-0.001202244 -0.00039999999 -0.017324066
0.0014694093 -0.00093333336 -0.0042203916
-0.0050761416 -0.00093333336 0.00032578083
-0.0013358267 0.00079999998 -0.003685548
-0.0044082282 -0.00079999998 -0.0012787507
-0.0024044879 -0.0010666667 -0.015853245
-0.0056104721 -0.0010666667 -0.0019473055
-0.00066791335 0.00093333336 -0.015986957
0.0053433068 -0.00053333334 -0.014783558
0.0024044879 0.0016 -0.0040866807
-0.0056104721 -0.00039999999 -0.0052900794
0.0029388187 0.0018666667 -0.0050226576
0.0040074801 -0.0013333333 -0.010371096
-0.0024044879 -0.0018666667 -0.0052900794
-0.003606732 -0.0012000001 -0.014248714
0.0010686613 -0.0014666667 -0.0060923453
-0.0026716534 0.00053333334 -0.0038192589
-0.0024044879 -0.0018666667 -0.0062260563
0.0016029921 0.0017333333 -0.011307073
-0.0037403146 -0.00013333333 -0.003685548
-0.00013358267 -0.00039999999 -0.017457776
-0.0037403146 -0.0014666667 -0.012243049
0.0037403146 -0.0014666667 -0.010103674
-0.0046753935 0 -0.0043541025
0.0064119683 0.00013333333 -0.0067608999
-0.00026716533 -0.0018666667 -0.0064934781
-0.0041410625 0.00093333336 -0.015050979
-0.0040074801 -0.0014666667 -0.0075631659
0.0068127159 0.00066666666 -0.010103674
0.003606732 0 -0.0038192589
0.0065455507 0.00066666666 -0.011307073
-0.0053433068 -0.0010666667 0.00032578083
-0.0049425587 -0.0018666667 -0.0044878135
0.0029388187 -0.00093333336 -0.015452112
0.0056104721 0.00093333336 -0.0086328536
0.0020037401 0.0014666667 -0.014115003
-0.0070798816 -0.00039999999 -0.0098362518
0.0056104721 0.00093333336 -0.0015461725
0.0032059841 0.00093333336 -0.0038192589
-0.005209724 -0.0012000001 -0.0094351191
0.0024044879 0.00079999998 -0.0165218
0.0054768892 0.00093333336 -0.013847581
0.0070798816 0.00053333334 -0.011307073
0.0058776373 0.00093333336 -0.01090594
-0.0044082282 -0.0014666667 -0.0023484384
0.0054768892 -0.00066666666 -0.013981292
0.0046753935 0.0018666667 -0.0043541025
0.0050761416 0.00026666667 -0.015585823
-0.0068127159 0.00053333334 -0.0093014082
-0.0014694093 0.00039999999 -0.003284415
-0.0040074801 -0.00093333336 -0.014917268
0.0013358267 0.0016 -0.0074294549
-0.0017365747 0.0017333333 -0.011307073
-0.0033395668 -0.0016 -0.0082317209
0.005209724 -0.00039999999 -0.01518469
0.002805236 -0.0016 -0.0089002755
0.0034731494 0.0010666667 -0.003685548
0.0038738975 0.0014666667 -0.0094351191
0.0062783854 0.00079999998 -0.0087665645
-0.0056104721 -0.0010666667 -0.0055575012
-0.0048089758 -0.0010666667 -0.013580159
-0.0046753935 0.00093333336 -0.006627189
-0.0016029921 0.0017333333 -0.010103674
0.0038738975 0.0016 -0.0067608999
0.00013358267 -0.0018666667 -0.0071620326
0.0034731494 0.00093333336 -0.003685548
0.0066791335 0.00079999998 -0.010237385
-0.0049425587 -0.00093333336 -0.013981292
0.00093507866 -0.0017333333 -0.0098362518
0.001202244 0.0016 -0.012243049
-0.00053433067 -0.0013333333 -0.014516136
0.0018701573 -0.0017333333 -0.011173362
0.0034731494 0.0012000001 -0.014649847
-0.0046753935 -0.00053333334 -0.0008776178
-0.00080149603 -0.0017333333 -0.011975627
-0.0057440549 0.00079999998 -0.013179026
-0.0048089758 0.00039999999 -0.0051563685
0.0070798816 -0.00026666667 -0.0084991427
0.0053433068 0.0012000001 -0.010638517
0.0044082282 -0.0013333333 -0.010772229
0.0056104721 0.0010666667 -0.011975627
0.0021373227 -0.0017333333 -0.0097025409
0.0042746454 0.0010666667 -0.0026158602
-0.00040074802 0.0017333333 -0.0060923453
0.00093507866 0.00066666666 -0.0034181259
-0.0025380708 0.0016 -0.012644182
-0.0033395668 -0.0016 -0.012243049
0.0057440549 0.0010666667 -0.0012787507
0.0064119683 -0.00039999999 -0.0070283217
-0.0024044879 -0.0016 -0.012510471
0.0010686613 0.0010666667 -0.015853245
0.0050761416 -0.00066666666 -0.014917268
0.0029388187 -0.0016 -0.010504806
-0.0050761416 -0.0014666667 -0.00034277397
-0.00013358267 0.0014666667 -0.0048889467
-0.0014694093 0.00079999998 -0.0038192589
0.0025380708 -0.00079999998 -0.0043541025
-0.0064119683 -0.00079999998 -0.011975627
0.0056104721 0.00079999998 -0.0064934781
0.0054768892 0.00093333336 -0.00061019586
-0.003606732 0.0016 -0.010638517
0.00066791335 0.0018666667 -0.0063597672
0.0016029921 0.00079999998 -0.01665551
0.0044082282 0.0013333333 -0.00074390683
-0.0056104721 -0.0010666667 -0.0093014082
0.0060112202 0.00079999998 -0.01237676
-0.005209724 -0.0012000001 0.0020640234
0.0068127159 0 -0.0075631659
-0.00080149603 -0.00079999998 -0.016789222
0.0048089758 -0.00079999998 -0.014248714
-0.0038738975 0 -0.003685548
0.0061448026 0.00066666666 -0.013580159
-0.0054768892 0.0010666667 -0.010371096
-0.001202244 0.00093333336 -0.0040866807
0.0041410625 -0.0012000001 -0.013847581
-0.00040074802 -0.0018666667 -0.0098362518
0.0066791335 0.00066666666 -0.012109338
0.0014694093 0.0017333333 -0.0097025409
-0.0060112202 0.00013333333 -0.014516136
0.0018701573 -0.0017333333 -0.00956883
-0.0021373227 -0.0010666667 -0.015452112
-0.0022709053 -0.0017333333 -0.0048889467
-0.0049425587 -0.0013333333 -0.011975627
-0.00026716533 -0.0014666667 -0.0044878135
0.0029388187 0.00039999999 -0.003685548
0.0060112202 0.00066666666 -0.007295744
0.005209724 0.0012000001 -0.0091676973
0.0046753935 -0.00026666667 -0.015853245
-0.0069462988 0.00039999999 -0.0086328536
-0.00080149603 0.0017333333 -0.011173362
-0.0046753935 -0.0017333333 -0.0026158602
-0.0053433068 -0.00066666666 -0.0020810163
-0.001202244 0.0016 -0.0090339864
0.0046753935 0.0012000001 0.00099433563
0.0026716534 -0.0016 -0.011440784
0.005209724 -0.0010666667 -0.0082317209
0.0034731494 -0.00053333334 -0.016254378
-0.0025380708 0 -0.017190354
-0.0026716534 0.0017333333 -0.010772229
-0.0033395668 -0.0014666667 -0.013179026
-0.00093507866 0.00093333336 -0.016254378
-0.0045418106 -0.0013333333 -0.011440784
-0.00080149603 0.0017333333 -0.0074294549
0.0046753935 -0.00013333333 -0.015986957
0.0010686613 0.00079999998 -0.016789222
0.0010686613 -0.0017333333 -0.01090594
-0.00040074802 0.0016 -0.01237676
0.0070798816 0.00013333333 -0.012243049
0.0058776373 -0.00066666666 -0.013847581
0.0040074801 -0.0013333333 -0.0087665645
-0.0029388187 -0.00026666667 -0.003685548
0.0040074801 0.0016 -0.010504806
0.00053433067 0.0017333333 -0.010237385
0.0053433068 -0.0010666667 -0.011975627
-0.0026716534 0.0016 -0.0099699628
-0.0066791335 0 -0.013446448
-0.0044082282 -0.00013333333 -0.0035518371
-0.0010686613 0.00079999998 -0.0034181259
-0.0016029921 0.0017333333 -0.0099699628
-0.0034731494 0.0010666667 -0.015050979
0.0037403146 0.0010666667 -0.014917268
0.0016029921 -0.00039999999 -0.003284415
0.0017365747 0.0017333333 -0.010638517
0.00053433067 -0.0018666667 -0.0068946108
-0.0018701573 0.0016 -0.0084991427
-0.00026716533 -0.0017333333 -0.011574495
0.0060112202 0.00079999998 -0.012644182
-0.0057440549 0.0010666667 -0.0090339864
-0.0013358267 -0.00026666667 -0.003284415
-0.0017365747 0.0014666667 -0.0056912121
-0.0048089758 -0.00093333336 0.0011280465
0.00040074802 -0.0017333333 -0.0059586344
-0.0021373227 -0.0013333333 -0.014917268
0.0034731494 0.0016 -0.00956883
-0.0054768892 0.00093333336 -0.0078305872
-0.0025380708 -0.0016 -0.012510471
0.00080149603 -0.0012000001 -0.0043541025
-0.003606732 -0.0014666667 -0.013045315
0.0048089758 0.0017333333 -0.0059586344
-0.0020037401 0.00026666667 -0.017190354
-0.00040074802 0.0016 -0.0091676973
0.0016029921 0.0010666667 -0.015585823
0.0049425587 0.00039999999 -0.0027495711
-0.0024044879 -0.0014666667 -0.014115003
-0.0034731494 -0.0017333333 -0.007295744
0.00053433067 -0.0018666667 -0.0082317209
0 0.0018666667 -0.0071620326
-0.0044082282 0.00079999998 -0.005824923
-0.0017365747 0.0017333333 -0.011173362
0.00093507866 0.0017333333 -0.0084991427
-0.005209724 -0.0017333333 -0.0038192589
0.00066791335 -0.0017333333 -0.010772229
0.0048089758 0.00053333334 -0.0031507041
0.0020037401 0.00093333336 -0.015853245
0.0054768892 0.0017333333 -0.0031507041
0.0040074801 -0.0013333333 -0.0097025409
0.00026716533 0.0016 -0.012644182
-0.0020037401 0.0010666667 -0.0047552357
0.0024044879 -0.00013333333 -0.017190354
-0.00053433067 0.0016 -0.013312737
-0.0068127159 -0.00066666666 -0.0097025409
0.0029388187 -0.0012000001 -0.0054237903
-0.0057440549 -0.00026666667 -0.0056912121
-0.0024044879 -0.0016 -0.012911604
-0.0022709053 -0.0017333333 -0.0099699628
0.0010686613 -0.0017333333 -0.0078305872
0.00080149603 -0.0018666667 -0.010371096
0.0041410625 0.0016 -0.0071620326
-0.0014694093 -0.0018666667 -0.005824923
0.003606732 -0.0014666667 -0.011841916
0.0054768892 0.0016 -0.0020810163
0.0062783854 -0.00053333334 -0.0076968768
0.0029388187 0.00013333333 -0.017056644
-0.0046753935 -0.00093333336 0.0013954685
0.0034731494 -0.0013333333 -0.013045315
0.0057440549 0.00079999998 -0.01371387
0.0046753935 0.00053333334 -0.0018135945
0.0065455507 -0.00066666666 -0.011975627
-0.0062783854 0.00093333336 -0.010237385
0.0013358267 -0.00079999998 -0.0165218
0.001202244 0.0010666667 -0.015585823
-0.0025380708 0.00013333333 -0.017190354
0.00040074802 -0.0016 -0.012911604
-0.0030724013 -0.0017333333 -0.010772229
0.0037403146 -0.0013333333 -0.013179026
-0.0038738975 -0.0013333333 -0.012777893
-0.0022709053 -0.0014666667 -0.0070283217
0.0049425587 0.0017333333 -0.0038192589
-0.0034731494 -0.0014666667 -0.012644182
0.00053433067 0.00053333334 -0.0031507041
-0.0065455507 0.00013333333 -0.0070283217
0.0025380708 0.0016 -0.0089002755
-0.0013358267 0.0016 -0.0071620326
0.0013358267 -0.0016 -0.0086328536
0.002805236 -0.00066666666 -0.0043541025
0.0049425587 -0.00066666666 -0.0056912121
0.0040074801 -0.0013333333 -0.010504806
0.00053433067 0.0016 -0.0087665645
-0.00053433067 0.0017333333 -0.01090594
-0.0041410625 0.00013333333 -0.0042203916
0.00053433067 0.0017333333 -0.011173362
-0.0017365747 0.0012000001 -0.0051563685
0.0024044879 -0.0016 -0.012644182
-0.00080149603 -0.0018666667 -0.0056912121
