# .PCD v0.7 - Point Cloud Data file format
VERSION 0.7
FIELDS x y z
SIZE 4 4 4
TYPE F F F
COUNT 1 1 1
WIDTH 1453
HEIGHT 1
VIEWPOINT 0 0 0 1 0 0 0
POINTS 1453
DATA ascii
0.01325 -0.0055 -0.024499999
0.0105 0.0074999998 -0.021
-0.0040000002 -0.00075000001 -0.00125
-0.011 0.0072499998 -0.01675
0.00125 -0.00575 -0.0067500002
-0.00275 0.0060000001 -0.018999999
0.0049999999 0.0070000002 -0.0044999998
-0.0080000004 0.0067500002 -0.0080000004
-0.01475 0 -0.01575
-0.0105 -0.0072499998 -0.0089999996
-0.012 0.0049999999 -0.02475
-0.0055 -0.0015 -0.025
0.01225 -0.0074999998 -0.016000001
-0.01275 0.0074999998 -0.01425
0.01375 -0.0074999998 -0.00875
-0.01425 -0.0044999998 -0.00875
-0.01425 0.001 -0.02475
-0.0070000002 0.0040000002 -0.00125
0.0089999996 0.0074999998 -0.01025
0.014 0.0074999998 -0.0022499999
-0.013 0.00275 -0.02475
0.0065000001 -0.0065000001 -0.01325
-0.013 0.0065000001 -0.00125
0.0040000002 -0.0062500001 -0.01825
-0.0074999998 -0.0072499998 -0.00125
-0.0070000002 -0.0067500002 -0.0175
0.0017500001 0.00575 -0.00125
-0.00875 0.0035000001 -0.02475
-0.00825 0.0067500002 -0.01925
-0.012 0.0074999998 -0.01175
-0.0074999998 0.0065000001 -0.02375
0.0037499999 -0.0062500001 -0.021
0.0024999999 -0.00025000001 -0.00125
0.0080000004 0.0074999998 -0.0015
0.011 -0.0072499998 -0.0105
-0.01225 -0.0074999998 -0.0105
-0.014 0.0062500001 -0.0022499999
0.00875 -0.0070000002 -0.01475
0.0047499998 0.0067500002 -0.0165
-0.00575 0.0032500001 -0.00125
0.01025 -0.0072499998 -0.0072499998
-0.01425 0.0042500002 -0.02125
0.0022499999 -0.0060000001 -0.0062500001
0.0032500001 -0.0060000001 -0.0155
0.015 0.00025000001 -0.01125
-0.013 0.0049999999 -0.024499999
-0.01425 -0.0047499998 -0.01175
-0.01125 -0.0074999998 -0.003
-0.0065000001 0.0067500002 -0.0115
-0.01425 0.00575 -0.00575
-0.01475 0.0037499999 -0.02225
-0.0055 0.0062500001 -0.02125
-0.0099999998 -0.0072499998 -0.0042500002
-0.003 -0.0062500001 -0.01925
0.00825 -0.0067500002 -0.0185
-0.0092500001 -0.0072499998 -0.0094999997
-0.0125 -0.0074999998 -0.022500001
-0.00825 -0.00050000002 -0.00125
-0.01425 0.0040000002 -0.020500001
0.0145 -0.0049999999 -0.00125
0.01525 -0.0017500001 -0.0195
-0.01225 0.0044999998 -0.001
0.015 0.00075000001 -0.018750001
-0.011 -0.0074999998 -0.0055
-0.01425 0.00575 -0.01125
-0.0125 0.0074999998 -0.0195
0.00575 -0.0065000001 -0.0022499999
0.01425 0.00575 -0.0072499998
0.0085000005 0.0015 -0.025
0.01075 -0.0024999999 -0.00125
-0.0085000005 0.0070000002 -0.0092500001
0.01275 -0.0074999998 -0.01325
0.0044999998 -0.0062500001 -0.00575
-0.0044999998 0.0062500001 -0.0037499999
0.0074999998 -0.0065000001 -0.024499999
-0.01225 -0.0035000001 -0.02475
-0.015 -0.0017500001 -0.003
0.00125 0.0060000001 -0.02125
-0.0044999998 -0.0065000001 -0.0185
-0.013 0.0074999998 -0.0092500001
0.0072499998 -0.0067500002 -0.018999999
-0.01325 0.0037499999 -0.00125
-0.00050000002 0.0062500001 -0.00125
-0.01375 0.0074999998 -0.00275
-0.00825 0.0067500002 -0.01175
-0.01125 -0.0074999998 -0.0022499999
-0.0042500002 -0.0062500001 -0.0022499999
0.013 -0.0065000001 -0.024499999
-0.0067500002 -0.0065000001 -0.024499999
0.01175 -0.0074999998 -0.0044999998
0.0092500001 -0.0062500001 -0.024499999
-0.0077499999 0.0040000002 -0.02475
-0.0055 -0.0052499999 -0.001
-0.0017500001 0.00575 -0.019750001
-0.01475 0.0020000001 -0.024499999
0.00275 -0.00275 -0.00125
-0.0115 0.0072499998 -0.0195
0.0032500001 -0.0060000001 -0.018999999
-0.0115 0.0072499998 -0.012
-0.0145 0.0037499999 -0.01275
0.0072499998 0.0070000002 -0.024250001
0.012 0.0074999998 -0.017999999
-0.015 0.001 -0.022
-0.01325 0.00575 -0.00125
-0.01275 -0.0074999998 -0.020500001
0.0145 -0.0035000001 -0.022
0.0099999998 0.0074999998 -0.00575
-0.01525 -0.003 -0.018750001
-0.01525 0.003 -0.017000001
-0.0105 -0.0049999999 -0.00125
0.01075 0.0074999998 -0.021
0.0055 0.0067500002 -0.024499999
-0.00075000001 0.0060000001 -0.0042500002
0.01075 0.00075000001 -0.025
-0.0125 -0.0074999998 -0.0099999998
0.0097500002 0.0074999998 -0.0077499999
-0.012 -0.0037499999 -0.00125
-0.01375 -0.0047499998 -0.024499999
-0.01475 0.0037499999 -0.01425
-0.0115 -0.0047499998 -0.02475
-0.0060000001 0.0065000001 -0.0065000001
0.0099999998 -0.0072499998 -0.0099999998
0.0035000001 -0.0060000001 -0.0099999998
-0.0115 -0.0074999998 -0.021749999
-0.0077499999 -0.0070000002 -0.020749999
0.015 -0.0020000001 -0.016249999
0.00825 0.0074999998 -0.0047499998
-0.01525 -0.00275 -0.01175
0.01525 -0.0022499999 -0.01525
0.0052499999 0.0067500002 -0.017750001
-0.0070000002 0.0052499999 -0.024499999
0.01325 -0.0049999999 -0.00125
0.01275 -0.0032500001 -0.00125
0.0145 0.0044999998 -0.0017500001
0.015 0 -0.022500001
-0.0135 -0.0074999998 -0.02275
0.0037499999 -0.0062500001 -0.0070000002
-0.013 0.0074999998 -0.023250001
-0.0145 0.0015 -0.00125
0.0072499998 0.0052499999 -0.00125
-0.00875 0.0070000002 -0.018999999
-0.0089999996 -0.0070000002 -0.01925
-0.015 -0.0017500001 -0.0097500002
-0.0105 0.0022499999 -0.00125
-0.01125 -0.0074999998 -0.02125
0.01425 -0.0055 -0.00575
0.0135 0.00575 -0.024499999
-0.0042500002 -0.0040000002 -0.02475
-0.01375 -0.0074999998 -0.0099999998
0.0024999999 -0.0060000001 -0.0099999998
0.013 0.0070000002 -0.00125
-0.0115 0.0072499998 -0.01925
-0.0094999997 0.0044999998 -0.02475
0 -0.00575 -0.021
-0.012 0.0040000002 -0.001
0.0080000004 -0.0037499999 -0.02475
0.015 -0.00125 -0.0099999998
0.0145 0.0055 -0.02225
-0.0032500001 -0.0062500001 -0.021500001
0.0145 -0.00025000001 -0.024499999
-0.0042500002 -0.0065000001 -0.018999999
-0.0067500002 0.0065000001 -0.00275
0.0074999998 -0.0067500002 -0.021749999
-0.01025 0.0074999998 -0.00050000002
-0.0065000001 0.00275 -0.02475
-0.0105 -0.0072499998 -0.02275
-0.0115 -0.0074999998 -0.01725
0.0074999998 -0.003 -0.02475
-0.015 0.001 -0.0072499998
-0.0094999997 -0.0072499998 -0.0049999999
-0.0092500001 -0.0072499998 -0.015
-0.0077499999 0.0067500002 -0.020749999
0.0105 0.0074999998 -0.0070000002
-0.00825 -0.0024999999 -0.00125
-0.01525 0.0037499999 -0.021
0.0049999999 0.0047499998 -0.02475
0.00075000001 0.0062500001 -0.0099999998
0.0070000002 -0.0067500002 -0.0099999998
0.0097500002 0.003 -0.00125
-0.011 0.0072499998 -0.00575
-0.01425 -0.0052499999 -0.017750001
0.00875 0.0074999998 -0.0105
0.014 -0.0067500002 -0.01925
-0.0020000001 0.003 -0.02475
-0.01525 0.0035000001 -0.0094999997
-0.0077499999 -0.0067500002 -0.0035000001
0.0067500002 0.00075000001 -0.00125
-0.01525 0.0020000001 -0.0060000001
-0.015 -0.0020000001 -0.014
-0.014 0.0070000002 -0.01525
-0.0052499999 0.003 -0.02475
0.00125 0.0062500001 -0.01725
-0.01425 0.0074999998 -0.017999999
-0.0135 -0.0074999998 -0.0042500002
-0.0105 0.0037499999 -0.02475
0.001 0.0072499998 -0.00125
0.015 0.001 -0.0022499999
-0.015 -0.001 -0.0067500002
0.0105 -0.0072499998 -0.0052499999
-0.015 0.0020000001 -0.0065000001
0.0067500002 0.0070000002 -0.021
0.01425 0.0055 -0.0094999997
0.01425 -0.0055 -0.0065000001
-0.0080000004 0.0070000002 -0.0077499999
-0.01425 -0.0062500001 -0.023
-0.0040000002 -0.0065000001 -0.0015
0.01325 -0.00075000001 -0.00125
0.01225 0.0074999998 -0.00825
0.0092500001 0.0072499998 -0.02225
0.0105 0.001 -0.00125
-0.0052499999 -0.0065000001 -0.021749999
0.01525 -0.0015 -0.0022499999
0.0135 -0.0035000001 -0.00125
-0.00125 0.00575 -0.012
-0.01425 -0.00575 -0.02125
0.01525 0.003 -0.021749999
0.01525 -0.00275 -0.0049999999
-0.0097500002 -0.0049999999 -0.00125
0.0094999997 -0.001 -0.00125
0.01425 0.00575 -0.016000001
-0.0044999998 -0.0062500001 -0.0070000002
-0.0099999998 0.0060000001 -0.00050000002
-0.001 -0.0017500001 -0.00125
0.014 -0.0062500001 -0.02375
0.00125 -0.00575 -0.01075
0.01175 0.0074999998 -0.023499999
-0.00575 -0.0065000001 -0.01225
0.0099999998 0.0074999998 -0.00075000001
0.01525 -0.00275 -0.00125
0.0047499998 -0.0065000001 -0.001
-0.0060000001 -0.0024999999 -0.025
-0.0022499999 -0.0022499999 -0.00125
0.00050000002 0.0060000001 -0.003
-0.0062500001 0.0065000001 -0.0040000002
-0.0155 0.0037499999 -0.0044999998
-0.014 -0.0074999998 -0.01525
-0.015 -0.00075000001 -0.0080000004
-0.01375 -0.00575 -0.024499999
-0.0135 0.0074999998 -0.0077499999
-0.0145 0.0037499999 -0.021749999
-0.0015 0.00575 -0.024250001
-0.003 0.0035000001 -0.02475
0.015 0.0032500001 -0.01425
0.01125 0.0074999998 -0.0094999997
-0.0044999998 0.0062500001 -0.022
0.0022499999 -0.0060000001 -0.0135
0.01175 -0.0052499999 -0.02475
0.01425 0.0060000001 -0.02025
0.0024999999 -0.0042500002 -0.00125
-0.0047499998 0.0062500001 -0.0165
-0.0052499999 -0.0047499998 -0.00125
0.01425 0.0062500001 -0.0105
0.003 -0.0060000001 -0.019750001
0.015 -0.00025000001 -0.014
-0.0037499999 0.00050000002 -0.00125
0.01175 -0.0074999998 -0.0015
0.015 0.00075000001 -0.0097500002
0.0022499999 -0.0060000001 -0.02
-0.01325 -0.0074999998 -0.0032500001
0.0155 -0.0032500001 -0.02125
0.01325 -0.0074999998 -0.01075
-0.015 -0.00075000001 -0.01825
-0.0047499998 -0.0040000002 -0.02475
-0.0065000001 0.0067500002 -0.0015
0.0017500001 -0.0022499999 -0.025
0.0072499998 -0.0067500002 -0.0165
-0.0085000005 0.0060000001 -0.00025000001
0.0052499999 0.0067500002 -0.0085000005
-0.0022499999 0.00575 -0.02225
-0.0037499999 -0.0062500001 -0.012
-0.0040000002 0.0062500001 -0.01425
-0.015 -0.0017500001 -0.01475
0.0017500001 0.0060000001 -0.023499999
0.0037499999 -0.0062500001 -0.0080000004
0.01175 0.0074999998 -0.0060000001
0.01425 0.0070000002 -0.021
0.0089999996 0.0040000002 -0.02475
-0.0089999996 -0.0070000002 -0.0125
-0.0052499999 -0.0052499999 -0.02475
0.014 -0.0067500002 -0.01275
0.014 0.0074999998 -0.011
0.01275 -0.0074999998 -0.0020000001
0.0097500002 0.0074999998 -0.00575
0.01425 0.0049999999 -0.024499999
-0.01425 0.0052499999 -0.022
0.01275 0.0074999998 -0.017999999
-0.00075000001 -0.00575 -0.0060000001
0.01225 0.0072499998 -0.024499999
0.0067500002 -0.0065000001 -0.021
-0.0070000002 0.0067500002 -0.016249999
0.00575 0.0070000002 -0.020749999
-0.01425 0.0052499999 -0.0072499998
-0.01425 -0.0062500001 -0.023499999
0.014 -0.0067500002 -0.018999999
0.0040000002 0.0067500002 -0.01375
-0.00025000001 -0.0055 -0.0072499998
-0.014 0.0065000001 -0.022500001
0.01125 0.0060000001 -0.024499999
0.0145 0.0037499999 -0.0089999996
-0.0085000005 -0.003 -0.025
-0.01025 0.0072499998 -0.0065000001
-0.00025000001 -0.00575 -0.0085000005
0.01525 -0.0032500001 -0.01525
0.0062500001 -0.0065000001 -0.02125
-0.0065000001 -0.0067500002 -0.0060000001
-0.012 -0.0074999998 -0.020749999
0.0089999996 -0.0042500002 -0.02475
-0.0032500001 -0.0074999998 -0.00125
0.01425 -0.0055 -0.0017500001
-0.0049999999 -0.0022499999 -0.025
-0.00275 0.0060000001 -0.0060000001
-0.01325 -0.0032500001 -0.02475
0.01375 -0.00025000001 0.0020000001
0.0115 -0.0047499998 -0.02475
0.00050000002 -0.0055 -0.00125
0.0047499998 -0.0024999999 -0.02475
-0.01125 -0.0072499998 -0.0072499998
0.01525 -0.0032500001 -0.01025
0.014 -0.0074999998 -0.0074999998
0.01075 0.0074999998 -0.01475
0.01225 -0.0074999998 -0.0035000001
-0.0125 0.0072499998 -0.024250001
-0.01225 0.0072499998 -0.023
0.0042500002 0.0035000001 -0.025
0.0074999998 -0.0060000001 -0.024499999
0.00025000001 0.0060000001 -0.01175
0.0052499999 0.0067500002 -0.0042500002
-0.012 0.0074999998 -0.0037499999
0.00125 0.0062500001 -0.024499999
0.0062500001 0.0067500002 -0.022500001
-0.00125 -0.0060000001 -0.0105
-0.00025000001 -0.00575 -0.01075
0.0015 0.00050000002 -0.025
-0.01525 0.0032500001 -0.0125
-0.0047499998 0.00025000001 -0.00125
-0.0115 0.0074999998 -0.0099999998
0.0074999998 0.0072499998 -0.0097500002
0.0017500001 0.0060000001 -0.023
0.0070000002 -0.00025000001 -0.025
0.0105 0.0052499999 -0.02475
0.0052499999 0.0067500002 -0.01225
-0.01525 -0.0024999999 -0.003
-0.01325 -0.0072499998 -0.024499999
-0.0062500001 0.0065000001 -0.0089999996
-0.01225 -0.00075000001 -0.00125
0.0070000002 0.0060000001 -0.02475
0.01425 0.0067500002 -0.017999999
0.015 0.0032500001 -0.01225
-0.0155 0.0072499998 -0.0085000005
0.01075 -0.0032500001 -0.02475
0.015 0.0032500001 -0.0135
0.0024999999 -0.0032500001 -0.00125
-0.0089999996 0.0070000002 -0.0065000001
-0.0097500002 -0.0072499998 -0.00025000001
-0.01175 0.0044999998 -0.001
-0.015 -0.0032500001 -0.016249999
0.011 0.0074999998 -0.019750001
-0.014 0.0062500001 -0.0072499998
-0.01425 0.0049999999 -0.021749999
0.0145 0.0035000001 -0.01125
0.0055 -0.0015 -0.025
-0.014 0.0074999998 -0.022
0.0040000002 -0.0049999999 -0.02475
-0.0044999998 -0.0035000001 -0.025
0.0072499998 -0.0067500002 -0.0032500001
-0.01525 -0.0032500001 -0.0165
-0.00025000001 0.0060000001 -0.0089999996
-0.00125 0.0074999998 -0.00125
-0.0085000005 0.0072499998 -0.00025000001
-0.0037499999 0.0062500001 -0.02225
-0.00575 0.0065000001 -0.0037499999
0.0072499998 -0.0067500002 -0.0125
0.01125 -0.0072499998 -0.0052499999
0.0099999998 0.0065000001 -0.00025000001
0.0145 0.0060000001 -0.020749999
0.01225 -0.0074999998 -0.0195
-0.0077499999 -0.0070000002 -0.0089999996
0.00025000001 0.0060000001 -0.020500001
0.011 -0.0072499998 -0.00075000001
0.0089999996 0.0074999998 -0.0135
-0.0024999999 0.0060000001 -0.01325
0.012 -0.0055 -0.024499999
0.0125 -0.0032500001 -0.00125
-0.0089999996 0.00125 -0.00125
-0.0022499999 0.0060000001 -0.0097500002
-0.003 0.0060000001 -0.0125
0.0125 0.0074999998 -0.01125
-0.01025 -0.0040000002 -0.00125
-0.00075000001 0.0042500002 -0.00125
-0.0055 0.0065000001 -0.01125
-0.003 -0.0062500001 -0.01525
-0.0055 0.0049999999 -0.00125
-0.01075 0.0072499998 -0.016249999
0.0060000001 -0.0065000001 -0.0047499998
-0.015 -0.00050000002 -0.01425
-0.01325 -0.0052499999 -0.02475
0.0094999997 -0.0070000002 -0.0035000001
0.00050000002 -0.00575 -0.0047499998
-0.013 -0.0067500002 -0.024499999
0.0047499998 -0.0047499998 -0.00125
0.01075 0.0072499998 -0.02225
0.012 -0.0074999998 -0.0049999999
0.01425 -0.0055 -0.003
0.01425 -0.0049999999 -0.01375
0.01525 -0.0020000001 -0.0085000005
-0.0145 -0.0037499999 -0.0185
-0.015 -0.00050000002 -0.00275
-0.01425 -0.00575 -0.01525
-0.0080000004 -0.0070000002 -0.0074999998
-0.0092500001 -0.0072499998 -0.0060000001
-0.00075000001 0.0060000001 -0.01075
0.0115 -0.0060000001 -0.024499999
0.0015 0.0062500001 -0.00825
-0.015 -0.0017500001 -0.0125
-0.014 -0.0067500002 -0.01175
-0.0105 -0.0047499998 -0.00125
-0.0077499999 -0.003 -0.00125
-0.0065000001 -0.0017500001 -0.00125
0.01175 -0.0074999998 -0.01175
-0.0072499998 0.0067500002 -0.013
0.00050000002 0.0060000001 -0.017999999
0.014 0 0.0024999999
0.0067500002 0.0070000002 -0.01725
0.00825 0.0070000002 -0.00025000001
-0.0022499999 0.0072499998 -0.00125
-0.0017500001 -0.0060000001 -0.016000001
-0.0055 -0.0065000001 -0.00825
-0.00825 -0.0070000002 -0.02025
-0.01375 -0.0074999998 -0.024
-0.01475 0.0017500001 -0.024499999
0.0070000002 0.00025000001 -0.025
-0.0037499999 -0.0032500001 -0.025
0.014 0.00025000001 -0.001
0.01175 0.0070000002 -0.024499999
-0.0047499998 -0.0065000001 -0.02125
-0.0065000001 0.003 -0.00125
0.01525 0.003 -0.0015
0.003 -0.00075000001 -0.00125
0.014 -0.0067500002 -0.01525
0.0092500001 0.0035000001 -0.025
-0.015 -0.001 -0.0070000002
-0.00075000001 0.00050000002 -0.025
-0.0020000001 0.0017500001 -0.025
-0.0085000005 0.0074999998 -0.00025000001
-0.0094999997 0.00275 -0.02475
0.0145 0.0037499999 -0.01375
-0.0155 0.0035000001 -0.0035000001
-0.0049999999 -0.0042500002 -0.00125
0.01025 -0.0072499998 -0.01825
-0.0062500001 0.0065000001 -0.0145
0.015 0.0015 -0.014
0.00125 -0.00575 -0.01025
-0.00575 -0.00125 -0.00125
0.014 0.0065000001 -0.016000001
0.0097500002 0.0074999998 -0.0085000005
-0.015 0.00025000001 -0.0105
-0.0074999998 0.0067500002 -0.01575
-0.0055 -0.0065000001 -0.0094999997
0.014 -0.0074999998 -0.0105
-0.00125 0.0072499998 -0.00125
0.01425 -0.0044999998 -0.012
0.01175 -0.0074999998 -0.01375
-0.0037499999 0.0062500001 -0.021500001
-0.01375 -0.0074999998 -0.02275
0.01475 -0.0017500001 -0.024499999
0.012 -0.0074999998 -0.011
-0.0070000002 0.0060000001 -0.00025000001
-0.01525 0.0022499999 -0.02
0.0145 0.0037499999 -0.0035000001
0.015 -0.0035000001 -0.018750001
0.01325 0.0074999998 -0.0024999999
0.01425 -0.0047499998 -0.01475
0.01125 0.0074999998 -0.02375
-0.00875 0.0070000002 -0.0072499998
0.0065000001 0.0032500001 -0.025
0.01225 0.0047499998 -0.00125
0.01525 0.0015 -0.00125
0.01275 0.0060000001 -0.00125
0.0145 0.0040000002 -0.0065000001
0.015 -0.00125 -0.0044999998
-0.0065000001 0.0020000001 -0.00125
-0.0085000005 0.0070000002 -0.024250001
0.003 0.0020000001 -0.00125
0.00875 -0.0070000002 -0.0145
-0.0020000001 -0.0060000001 -0.0185
-0.01275 -0.0074999998 -0.024250001
0.0055 0.0049999999 -0.00125
-0.0077499999 0.0035000001 -0.02475
-0.01275 0.00025000001 -0.001
-0.001 -0.0020000001 -0.025
-0.00825 0.0067500002 -0.01075
-0.00125 -0.0060000001 -0.021500001
0.014 -0.0070000002 -0.02025
-0.01425 -0.0055 -0.0097500002
-0.01525 0.003 -0.0049999999
0.0074999998 -0.0067500002 -0.0089999996
-0.01525 0.003 -0.0020000001
-0.0065000001 0.0065000001 -0.0145
0.01075 -0.00125 -0.025
0.01225 -0.001 -0.00125
-0.01525 0.0032500001 -0.0074999998
0.015 0.0017500001 -0.0035000001
0.0022499999 -0.0060000001 -0.01475
-0.00275 -0.00575 -0.00125
-0.015 0.00025000001 -0.0089999996
0.01125 0.0074999998 -0.018999999
0.01525 -0.0020000001 -0.01475
-0.014 0.0070000002 -0.0070000002
-0.01525 0.0049999999 -0.00125
-0.0040000002 -0.0044999998 -0.02475
0.0052499999 0.0070000002 -0.0044999998
-0.014 0.0065000001 -0.0092500001
-0.0044999998 0.0040000002 -0.00125
-0.00875 0.0074999998 -0.00125
0.0145 -0.0037499999 -0.01575
-0.015 -0.0020000001 -0.0115
-0.01475 0.0035000001 -0.00125
0.01425 -0.0049999999 -0.00875
-0.0055 0.0032500001 -0.00125
0.0047499998 -0.0062500001 -0.00575
0.0037499999 0.001 -0.00125
-0.0092500001 0.0037499999 -0.001
0.0042500002 0.0067500002 -0.0145
0.0042500002 -0.0024999999 -0.00125
-0.01525 -0.003 -0.016249999
0.01425 -0.00575 -0.0085000005
0.01475 0.0032500001 -0.01675
-0.0097500002 0.00275 -0.02475
-0.001 -0.00575 -0.021500001
0.0032500001 -0.0024999999 -0.02475
-0.01025 -0.0074999998 -0.00025000001
0.0032500001 0.00050000002 -0.025
0.003 0.0065000001 -0.0022499999
-0.0052499999 -0.0065000001 -0.0080000004
0.00275 -0.0060000001 -0.020749999
-0.01525 0.0022499999 -0.0049999999
0.0015 -0.003 -0.00125
0.01425 -0.0042500002 -0.0072499998
-0.0067500002 0.0052499999 -0.02475
0.014 -0.0065000001 -0.02225
-0.00125 -0.0060000001 -0.0155
-0.00075000001 -0.0022499999 -0.025
-0.0055 0.0035000001 -0.02475
-0.015 0.001 -0.01825
0.0094999997 0.0074999998 -0.0035000001
-0.00575 -0.0065000001 -0.0070000002
0.0074999998 0.0072499998 -0.0185
-0.0024999999 0.0060000001 -0.0077499999
0.01425 -0.0049999999 -0.016249999
-0.014 -0.0062500001 -0.01075
-0.0022499999 -0.0060000001 -0.01175
0.0080000004 0.0062500001 -0.00025000001
-0.00050000002 0.0055 -0.023250001
-0.00275 -0.0062500001 -0.01675
0.0080000004 0.0020000001 -0.00125
0.0105 0.0074999998 -0.01325
-0.001 -0.00575 -0.021749999
-0.0070000002 0.0067500002 -0.020749999
-0.0097500002 -0.0072499998 -0.0042500002
-0.0060000001 0.0015 -0.025
0.0047499998 -0.0015 -0.025
-0.00275 -0.0060000001 -0.0080000004
0.0020000001 -0.001 -0.00125
0.0017500001 -0.00575 -0.021
-0.00125 -0.00575 -0.0072499998
0.0074999998 0.0015 -0.025
0.001 -0.00575 -0.01325
0.01225 0.0074999998 -0.019750001
-0.0135 -0.0074999998 -0.0145
-0.014 -0.0067500002 -0.02
0.01175 0.0070000002 -0.001
-0.0047499998 -0.0062500001 -0.02475
0.01525 0.0032500001 -0.021
0.01475 -0.0015 -0.00125
0.01075 0.0042500002 -0.00125
0.0099999998 -0.0037499999 -0.001
0.0115 -0.0037499999 -0.02475
-0.01075 0.0072499998 -0.014
-0.0099999998 -0.00025000001 -0.00125
0.01175 -0.0074999998 -0.0165
-0.0074999998 0.0060000001 -0.00025000001
-0.01075 0.0072499998 -0.01675
-0.01425 0.0047499998 -0.021749999
0.0055 0.0070000002 -0.00875
0.0020000001 -0.0060000001 -0.0080000004
0.0072499998 0.0072499998 -0.016249999
-0.0042500002 0.0062500001 -0.0115
0.01475 0.0032500001 -0.0077499999
-0.01475 0.0037499999 -0.01675
-0.00875 -0.0072499998 -0.0165
-0.00125 0.00575 -0.022
-0.0080000004 -0.0070000002 -0.024499999
-0.01425 -0.0047499998 -0.0037499999
0.01425 -0.0049999999 -0.01275
-0.003 0.0060000001 -0.0047499998
-0.01425 -0.0044999998 -0.02
0.01525 -0.0015 -0.01125
0.015 0 -0.011
0.01525 -0.0017500001 -0.01925
-0.0072499998 0.0067500002 -0.0072499998
-0.01425 -0.0055 -0.0094999997
-0.01175 0.0074999998 -0.0074999998
0.01475 0.0035000001 -0.02
-0.0074999998 -0.0017500001 -0.00125
-0.01375 -0.0015 -0.02475
-0.01325 0.0074999998 -0.01225
-0.0105 0.0072499998 -0.0047499998
0.001 -0.00575 -0.00275
0.011 -0.0072499998 -0.01375
0.0115 0.0074999998 -0.0135
-0.01425 -0.0055 -0.020749999
0.00050000002 -0.00575 -0.0135
0.00825 -0.0067500002 -0.0024999999
-0.01175 -0.0072499998 -0.001
-0.01425 -0.0040000002 -0.02
-0.00275 -0.0062500001 -0.018999999
-0.01425 -0.0047499998 -0.0070000002
-0.015 -0.001 -0.022500001
-0.01075 0.0072499998 -0.0089999996
-0.015 -0.00075000001 -0.0125
-0.01525 0.0022499999 -0.023
0.0155 -0.0035000001 -0.017000001
-0.00125 -0.0047499998 -0.02475
0.0074999998 -0.0067500002 -0.0125
0.0097500002 -0.0070000002 -0.024499999
-0.0049999999 -0.0065000001 -0.016249999
0.015 0.0015 -0.0035000001
0.01075 0.0074999998 -0.0024999999
0.014 -0.0070000002 -0.01175
-0.0089999996 -0.0070000002 -0.003
0.00025000001 0.0060000001 -0.02
-0.0155 0.003 -0.022500001
-0.015 0.0020000001 -0.0175
-0.0044999998 0.0062500001 -0.0055
0.00825 0.0072499998 -0.011
0.0155 -0.003 -0.021500001
-0.0074999998 -0.0037499999 -0.00125
0.00075000001 -0.0037499999 -0.00125
-0.01525 -0.0024999999 -0.02025
0.0115 0.0037499999 -0.00125
-0.0024999999 0.0060000001 -0.01075
0.015 0.0015 -0.016000001
0.0040000002 0.0065000001 -0.021749999
0.0015 -0.00575 -0.0155
-0.0047499998 -0.0037499999 -0.00125
0.014 -0.0060000001 -0.014
0.01425 -0.0044999998 -0.022500001
0 -0.0037499999 -0.02475
-0.00575 0.0037499999 -0.00125
0.0135 0 0.0020000001
0.011 0.0074999998 -0.0024999999
-0.0145 0.0037499999 -0.0020000001
0.01425 -0.00575 -0.024
0.01375 0.0062500001 -0.024499999
-0.0067500002 0.0065000001 -0.0185
-0.00575 0.0070000002 -0.0015
-0.0115 -0.0020000001 -0.02475
-0.0070000002 0.0065000001 -0.024499999
0.014 0.0074999998 -0.0115
-0.0049999999 0.00075000001 -0.025
-0.00575 -0.0065000001 -0.023499999
-0.0032500001 0.0060000001 -0.022
-0.0044999998 0.0067500002 -0.0015
-0.0060000001 -0.0065000001 -0.0077499999
0.0042500002 -0.0062500001 -0.003
0.01275 0.0074999998 -0.01375
-0.0155 0.0072499998 -0.01275
-0.01125 -0.0074999998 -0.02375
0.014 -0.0074999998 -0.016000001
0.0065000001 -0.001 -0.025
-0.011 0.0072499998 -0.0047499998
0.0040000002 0.0067500002 -0.0105
0.00825 -0.0067500002 -0.02
0.0067500002 0.0070000002 -0.0074999998
0.00575 -0.0065000001 -0.0072499998
-0.01425 -0.0052499999 -0.0052499999
-0.0055 -0.0017500001 -0.00125
-0.0145 0.003 -0.02475
-0.0040000002 0.0062500001 -0.0074999998
-0.0047499998 0.0062500001 -0.022
0.01075 0.0032500001 -0.025
0.01475 0.0032500001 -0.0072499998
-0.01325 -0.0074999998 -0.013
0.0052499999 -0.0055 -0.00125
0.01275 0.0015 -0.00125
0.0065000001 -0.0065000001 -0.0052499999
0.01075 0.0024999999 -0.00125
-0.01275 -0.0074999998 -0.0089999996
0.0085000005 -0.0070000002 -0.02025
-0.0125 0.0074999998 -0.0185
-0.015 -0.001 -0.022
-0.0089999996 -0.0072499998 -0.0135
-0.011 0.0072499998 -0.022
-0.014 -0.0065000001 -0.017750001
0.01325 -0.0074999998 -0.01425
-0.0047499998 0.0062500001 -0.0062500001
-0.0022499999 0.00275 -0.00125
-0.01225 -0.00075000001 -0.02475
0.015 0.00125 -0.017999999
0.0077499999 -0.0070000002 -0.00825
-0.0077499999 0.0067500002 -0.02125
0.01525 0.0032500001 -0.0067500002
-0.00025000001 -0.00050000002 -0.025
-0.014 0.0020000001 -0.02475
-0.01425 -0.0047499998 -0.00875
-0.00125 -0.0060000001 -0.023
-0.01475 -0.0017500001 -0.00125
-0.01125 0.0072499998 -0.01175
-0.0022499999 0.0070000002 -0.0015
-0.00125 -0.00575 -0.00125
0.0135 -0.0044999998 -0.00125
-0.00125 0.0067500002 -0.0015
0.013 0.0022499999 -0.00125
-0.0062500001 -0.0067500002 -0.0017500001
-0.014 -0.0072499998 -0.0072499998
-0.01425 -0.0044999998 -0.0105
-0.00825 -0.0067500002 -0.024499999
-0.01425 -0.0052499999 -0.00125
-0.01325 0.0074999998 -0.017999999
0.013 0.0074999998 -0.0145
-0.0094999997 -0.0072499998 -0.0145
0.01425 0.00575 -0.023499999
-0.0085000005 0.0070000002 -0.0044999998
-0.01475 0.0037499999 -0.02
-0.01425 0.00575 -0.0044999998
-0.015 0.00075000001 -0.01375
-0.0099999998 -0.0035000001 -0.00125
0.0145 -0.0060000001 -0.00125
0.01225 -0.0074999998 -0.0042500002
-0.00275 -0.0062500001 -0.01525
0.0070000002 0.0070000002 -0.0089999996
0.0015 -0.00575 -0.0047499998
-0.00275 -0.0060000001 -0.0094999997
0.0060000001 0.0070000002 -0.00025000001
-0.014 -0.0060000001 -0.022
0 -0.0022499999 -0.00125
-0.0099999998 -0.0072499998 -0.0065000001
0.01425 -0.0055 -0.0060000001
0.014 -0.0065000001 -0.01025
0.0049999999 -0.0024999999 -0.00125
-0.015 0 -0.0042500002
0.0145 -0.0037499999 -0.0032500001
0.0065000001 -0.0024999999 -0.02475
0.01525 -0.003 -0.00125
0.0042500002 -0.0062500001 -0.0097500002
-0.0052499999 -0.0017500001 -0.00125
-0.0080000004 -0.0070000002 -0.0022499999
0.0015 -0.00575 -0.02025
-0.0085000005 -0.0070000002 -0.0052499999
0.014 0.0072499998 -0.017000001
0.0099999998 0.0074999998 -0.01525
-0.00050000002 0.0047499998 -0.00125
-0.01425 0.0049999999 -0.017999999
0.01425 0.0074999998 -0.0185
-0.01025 0.0072499998 -0.01175
0.0085000005 0.0072499998 -0.0074999998
-0.01525 0.0022499999 -0.0115
0.0055 -0.0040000002 -0.02475
-0.0089999996 -0.0070000002 -0.0022499999
-0.01225 -0.0074999998 -0.0040000002
0.0092500001 0.0072499998 -0.023
0.014 0.0074999998 -0.0024999999
0.00075000001 0.0062500001 -0.01425
0.012 0.00050000002 -0.00125
-0.01375 0.00075000001 -0.001
0.0017500001 0.0062500001 -0.01825
0.01425 -0.0040000002 -0.016000001
0.0099999998 0.0040000002 -0.02475
-0.01125 0.0072499998 -0.01275
0.01225 -0.0074999998 -0.0062500001
-0.0020000001 0.0060000001 -0.0037499999
0 0.0060000001 -0.01075
-0.0070000002 -0.0070000002 -0.017999999
0.0074999998 0.0032500001 -0.025
0.0042500002 0.0067500002 -0.01025
-0.0145 0.0037499999 -0.01075
0.0070000002 0.00125 -0.00125
0.01325 0.0074999998 -0.00825
0.015 0.0017500001 -0.0092500001
0.011 -0.0072499998 -0.022500001
0.01425 -0.0040000002 -0.0115
0.01375 -0.0074999998 -0.016249999
-0.0020000001 0.0070000002 -0.0015
0.01425 0.0060000001 -0.0085000005
0.0017500001 0.0062500001 -0.0074999998
0.0080000004 0.0052499999 -0.02475
0.01525 -0.0017500001 -0.0020000001
-0.01025 0.0072499998 -0.0032500001
-0.00075000001 -0.0060000001 -0.021
-0.015 0.001 -0.00575
0.0135 -0.0074999998 -0.020500001
0.00050000002 0.0060000001 -0.0175
-0.0047499998 -0.00125 -0.00125
-0.0077499999 0.0070000002 -0.0105
-0.0062500001 0.00075000001 -0.025
-0.014 0.0067500002 -0.0125
0.0044999998 -0.0017500001 -0.025
0.0040000002 -0.00025000001 -0.00125
-0.0072499998 0.0067500002 -0.022
-0.011 -0.0074999998 -0.02225
0.0060000001 -0.0072499998 -0.00125
0.015 0.0015 -0.023
0.0145 0.0044999998 -0.0115
-0.0089999996 0.0049999999 -0.02475
0.0040000002 0.0067500002 -0.02
0.0080000004 -0.003 -0.00125
-0.01225 -0.0074999998 -0.021500001
-0.00025000001 -0.0049999999 -0.00125
0.0092500001 -0.00275 -0.00125
-0.0085000005 -0.0070000002 -0.00575
0.0042500002 -0.0062500001 -0.0165
-0.0105 0.0072499998 -0.0060000001
0.0135 0.0017500001 -0.00125
-0.015 0.0017500001 -0.01675
0.00050000002 -0.0024999999 -0.025
-0.015 0.00075000001 -0.00825
-0.0047499998 0.0070000002 -0.0015
-0.01125 -0.0072499998 -0.0065000001
-0.0052499999 -0.0065000001 -0.0049999999
0.01375 -0.0074999998 -0.021749999
0.0155 -0.0055 -0.00125
0.003 -0.0017500001 -0.025
0.01225 0.0074999998 -0.0060000001
0.01375 -0.00025000001 0.001
0.00875 0.0022499999 -0.00125
-0.0067500002 0.0065000001 -0.02125
0.01175 0.0074999998 -0.0067500002
0.0070000002 -0.0067500002 -0.0024999999
-0.0035000001 0.0037499999 -0.02475
0.0035000001 0.0067500002 -0.0060000001
-0.014 0.0070000002 -0.0024999999
0.0020000001 -0.0047499998 -0.00125
-0.01525 0.0037499999 -0.017750001
0.01175 0.0074999998 -0.0105
-0.0074999998 -0.00025000001 -0.025
-0.0105 -0.0072499998 -0.0099999998
0.01225 -0.0074999998 -0.01475
0.01075 -0.0072499998 -0.0077499999
-0.0052499999 0.0062500001 -0.02125
-0.01525 -0.0022499999 -0.0165
0.0020000001 -0.0060000001 -0.0067500002
-0.0042500002 0.0065000001 -0.0085000005
-0.01425 -0.00575 -0.013
0.0052499999 0.0035000001 -0.025
-0.003 -0.0047499998 -0.02475
-0.0065000001 0.0065000001 -0.02125
-0.0062500001 -0.0067500002 -0.024499999
-0.01425 0.0044999998 -0.022500001
0.01475 -0.0035000001 -0.00125
0.01425 0.0052499999 -0.016000001
-0.015 -0.00025000001 -0.01175
0.0099999998 0.0074999998 -0.01325
-0.01425 0.0055 -0.017000001
0.0145 0.0049999999 -0.023
0.01025 -0.0072499998 -0.0032500001
-0.01425 0.0044999998 -0.02125
-0.01525 -0.0022499999 -0.012
-0.0094999997 0.0070000002 -0.01725
-0.0092500001 0.0070000002 -0.0055
0.015 0.00075000001 -0.01175
-0.0062500001 0.0065000001 -0.0195
0.00025000001 -0.00575 -0.01725
0.0035000001 0.0065000001 -0.01825
0.0015 -0.00575 -0.021
0.01225 0.0074999998 -0.014
-0.01525 -0.003 -0.024499999
0.00275 -0.003 -0.02475
-0.015 0.001 -0.0049999999
0.01425 -0.0052499999 -0.01375
0.001 0.0062500001 -0.00125
0.01525 -0.0032500001 -0.01075
0.01525 -0.00275 -0.0015
0.0145 0.0044999998 -0.01225
0.0145 0 -0.00125
-0.013 -0.0037499999 -0.02475
0.014 0.0074999998 -0.01175
0.0145 0.0044999998 -0.0175
-0.01425 0.00575 -0.014
-0.01525 -0.0024999999 -0.01025
0.015 0.00125 -0.01025
0.014 0.0072499998 -0.0074999998
-0.01475 0.0065000001 -0.00125
-0.0092500001 0.0022499999 -0.025
-0.00275 -0.0062500001 -0.01375
-0.01425 -0.0049999999 -0.01675
-0.0097500002 0.0070000002 -0.0089999996
0.0052499999 -0.0065000001 -0.0032500001
-0.014 -0.0072499998 -0.02225
-0.01025 0.0017500001 -0.025
-0.0024999999 -0.0060000001 -0.003
-0.00050000002 0.0060000001 -0.01225
0.014 0.0067500002 -0.0044999998
0.0145 0.0040000002 -0.01425
0.0024999999 0.0055 -0.00125
0.0032500001 0.0065000001 -0.0099999998
-0.0035000001 0.0062500001 -0.01025
0.0094999997 -0.0020000001 -0.025
-0.0040000002 0.0062500001 -0.0052499999
-0.015 -0.00050000002 -0.018750001
-0.01525 -0.00275 -0.021
-0.014 0.0060000001 -0.020500001
-0.01525 -0.0022499999 -0.021500001
-0.00275 0.0060000001 -0.012
-0.015 -0.00125 -0.01075
-0.0049999999 -0.0032500001 -0.025
0.0067500002 0.0074999998 -0.00575
-0.0037499999 -0.0062500001 -0.0105
-0.01125 0.0072499998 -0.01825
0.0135 0.0074999998 -0.01275
-0.01525 0.001 -0.023
-0.0015 -0.00575 -0.0080000004
-0.014 -0.0067500002 -0.0115
-0.00050000002 0.0022499999 -0.025
-0.01425 0.0042500002 -0.01525
-0.01475 0.0047499998 -0.00125
-0.01225 -0.0017500001 -0.00125
0.001 0.0062500001 -0.020749999
-0.00025000001 0.0060000001 -0.01675
-0.0049999999 0.0062500001 -0.01325
-0.00575 -0.0067500002 -0.0185
-0.01275 -0.0074999998 -0.021
-0.01525 0.0024999999 -0.01175
0.0044999998 0.0060000001 -0.00125
0.014 -0.0074999998 -0.0047499998
0.0072499998 -0.0020000001 -0.025
-0.0115 0.0072499998 -0.015
-0.0089999996 0.0070000002 -0.0185
0.0037499999 -0.0055 -0.024499999
0.01375 0.0020000001 -0.00125
0.01375 -0.0020000001 -0.02475
0.0017500001 -0.0022499999 -0.001
0.001 0.0065000001 -0.0017500001
-0.0032500001 0.0060000001 -0.02275
0.0077499999 0.00575 -0.024499999
0.0135 0.0074999998 -0.021500001
-0.0015 0.0072499998 -0.00125
0.0072499998 0.0072499998 -0.0185
-0.01425 0.0042500002 -0.023
-0.01425 -0.0040000002 -0.01675
-0.0097500002 0.0070000002 -0.003
0.0047499998 0.0067500002 -0.001
-0.012 -0.0074999998 -0.0099999998
-0.00825 -0.0055 -0.001
0.015 0.0017500001 -0.01925
0.00050000002 0 -0.025
0 0.0060000001 -0.014
-0.014 0.0072499998 -0.01375
0.01525 -0.0035000001 -0.015
-0.0022499999 -0.0044999998 -0.02475
0.0085000005 -0.001 -0.025
-0.0070000002 0.0065000001 -0.02225
-0.01425 0.0074999998 -0.0185
-0.0022499999 -0.0060000001 -0.022
0.0135 -0.003 -0.00125
-0.0074999998 0.0074999998 -0.00125
0.01425 0.0065000001 -0.023499999
-0.013 0.00275 -0.001
-0.01425 -0.0044999998 -0.01125
0.015 -0.0032500001 -0.022
-0.01525 0.0022499999 -0.01375
-0.01425 0.0049999999 -0.00875
0.00825 0.0060000001 -0.00025000001
-0.01525 -0.0024999999 -0.018999999
0.0135 0.0074999998 -0.0070000002
-0.0070000002 0.0067500002 -0.0047499998
0.0017500001 -0.00575 -0.023499999
0.00075000001 0.0062500001 -0.0085000005
0.0040000002 0.0067500002 -0.02025
-0.00125 -0.0060000001 -0.02125
0.01225 0.0074999998 -0.02275
-0.01375 0.0074999998 -0.018999999
0.0074999998 0.0072499998 -0.0024999999
0.0125 0.0032500001 -0.00125
-0.012 -0.0074999998 -0.01325
0.0135 0.0074999998 -0.02275
0.0115 0.0074999998 -0.0094999997
-0.01525 0.0024999999 -0.0185
0.015 -0.0035000001 -0.0175
0.01425 -0.0052499999 -0.02375
0.0094999997 -0.0070000002 -0.020500001
-0.01325 0.0042500002 -0.001
-0.0145 -0.0042500002 -0.0044999998
0.0067500002 -0.0062500001 -0.024499999
0.0077499999 -0.0060000001 -0.00025000001
-0.01525 -0.0022499999 -0.0044999998
-0.0145 0.0037499999 -0.0022499999
0.0067500002 0.0070000002 -0.018750001
-0.00125 -0.0060000001 -0.01725
0.01075 0.0074999998 -0.0085000005
-0.015 -0.00025000001 -0.01375
-0.015 0.00075000001 -0.017750001
-0.0155 -0.0060000001 -0.00125
0.0040000002 -0.0062500001 -0.01125
-0.0020000001 -0.0040000002 -0.00125
0.0125 0.0074999998 -0.00825
-0.0047499998 -0.0065000001 -0.01375
-0.01425 0.00575 -0.024
-0.01275 -0.0074999998 -0.017750001
-0.0032500001 -0.001 -0.00125
0.01425 0.0049999999 -0.013
0.0070000002 0.0052499999 -0.024499999
-0.01525 0.00125 -0.023499999
-0.01525 0.0022499999 -0.022500001
-0.01525 0.0024999999 -0.0077499999
-0.0062500001 0.0065000001 -0.0035000001
-0.0035000001 -0.0062500001 -0.021
-0.01125 0.0067500002 -0.00050000002
0.01375 0.00025000001 0.001
0.001 -0.00575 -0.016000001
0.00050000002 0.0062500001 -0.00125
-0.011 -0.0074999998 -0.0020000001
-0.01425 0.0044999998 -0.014
-0.014 0 -0.00075000001
0.0017500001 -0.0052499999 -0.02475
0.0097500002 0.0017500001 -0.025
0.0115 -0.0044999998 -0.001
0.00050000002 0.0060000001 -0.0155
0.01275 -0.0074999998 -0.017750001
-0.0115 0.0072499998 -0.0155
-0.01425 -0.0044999998 -0.00125
0.0067500002 -0.0037499999 -0.00125
-0.00275 -0.001 -0.025
0.015 -0.00125 -0.014
0.0099999998 -0.0074999998 -0.001
-0.0080000004 -0.0049999999 -0.02475
-0.015 0.0017500001 -0.020749999
0.00825 -0.0035000001 -0.02475
0.0105 -0.0072499998 -0.01925
0.00050000002 0.0060000001 -0.01575
-0.0074999998 0.0067500002 -0.01225
0.00125 -0.001 -0.025
0.0032500001 0.0065000001 -0.01525
-0.01375 0.0074999998 -0.0060000001
0.0042500002 -0.0044999998 -0.00125
0.0077499999 0.0070000002 -0.021500001
0.01025 0.0024999999 -0.00125
-0.003 0.0060000001 -0.02275
0.0047499998 -0.0062500001 -0.023499999
-0.0052499999 0.0065000001 -0.017750001
-0.015 0.0015 -0.01125
-0.0060000001 -0.00050000002 -0.025
-0.0155 0.0035000001 -0.023
0.01075 0.0074999998 -0.00275
-0.0135 -0.0074999998 -0.02125
-0.01525 0.0020000001 -0.02375
0.00875 -0.0070000002 -0.0020000001
0.0135 0.0035000001 -0.02475
-0.001 -0.00575 -0.00575
-0.0067500002 0 -0.025
-0.0020000001 -0.0060000001 -0.0020000001
-0.00075000001 0.0060000001 -0.0067500002
-0.01425 0.0044999998 -0.0115
0.014 -0.0067500002 -0.01125
0.0060000001 0.0070000002 -0.024
0.0067500002 0.0070000002 -0.017999999
-0.01525 -0.00275 -0.020749999
-0.0074999998 0.0065000001 -0.022500001
0.013 -0.001 -0.00125
0.0037499999 0.0062500001 -0.024499999
-0.01425 -0.0062500001 -0.011
0.0135 -0.0074999998 -0.02375
-0.00825 0.0067500002 -0.00875
-0.00275 0.001 -0.00125
-0.0155 0.0072499998 -0.0052499999
0.0042500002 -0.001 -0.025
-0.01525 0.0022499999 -0.0085000005
0.00075000001 -0.00575 -0.0070000002
0.0070000002 0.0070000002 -0.0020000001
0.0049999999 0.0067500002 -0.015
0.0032500001 -0.0049999999 -0.02475
0.015 -0.00075000001 -0.0085000005
-0.01525 0.003 -0.0185
0.0089999996 -0.0070000002 -0.01675
-0.0125 -0.0074999998 -0.01825
-0.0145 -0.0049999999 -0.00125
-0.013 -0.0074999998 -0.0070000002
0.015 -0.0032500001 -0.0047499998
-0.01125 -0.0074999998 -0.014
0.015 0.00050000002 -0.024
-0.0115 -0.0072499998 -0.0092500001
-0.0024999999 0.0060000001 -0.020500001
-0.00875 -0.0070000002 -0.023250001
0.014 -0.0074999998 -0.0049999999
-0.01175 -0.0052499999 -0.02475
0.015 -0.00050000002 -0.012
-0.0092500001 0.0070000002 -0.019750001
-0.0024999999 0.0060000001 -0.022
0.011 -0.0072499998 -0.00050000002
0.00025000001 -0.00025000001 -0.025
-0.01475 0.0037499999 -0.0105
0.01225 -0.0022499999 -0.02475
0.01375 -0.0037499999 -0.00125
-0.01425 -0.0047499998 -0.0155
-0.0089999996 -0.0074999998 -0.00075000001
-0.0089999996 0.0035000001 -0.02475
0.01525 0.0024999999 -0.0175
-0.0074999998 0.0067500002 -0.01475
0.014 -0.0067500002 -0.00125
-0.01425 -0.0074999998 -0.00125
-0.01425 0.0040000002 -0.0155
-0.01275 -0.00025000001 -0.001
-0.01175 -0.0065000001 -0.001
0.0022499999 0.00275 -0.00125
-0.0040000002 -0.0065000001 -0.024250001
0.01425 0.0072499998 -0.02275
0.0080000004 0.0072499998 -0.0105
0.014 -0.0067500002 -0.00575
-0.015 0.001 -0.019750001
0.014 0.0070000002 -0.01425
-0.0062500001 0.0067500002 -0.0074999998
0.00575 -0.00025000001 -0.025
-0.0042500002 0.0062500001 -0.0042500002
0.01175 -0.0074999998 -0.018999999
0.0060000001 0.0070000002 -0.01575
-0.0037499999 0.0062500001 -0.01075
-0.0062500001 0.0065000001 -0.01925
0.0022499999 0.0065000001 -0.0145
0.01375 -0.0024999999 -0.02475
-0.015 0.0040000002 -0.0017500001
-0.0067500002 0.0065000001 -0.017999999
-0.00875 -0.00575 -0.00075000001
0.012 0.0074999998 -0.00125
-0.01375 -0.0074999998 -0.0175
0.00575 -0.003 -0.02475
0.014 0.0067500002 -0.0092500001
0.0092500001 -0.0070000002 -0.02275
0.0099999998 0 -0.00125
-0.0105 0.0017500001 -0.00125
0.012 -0.0074999998 -0.0015
-0.0135 -0.0074999998 -0.01525
0.0017500001 0.0042500002 -0.00125
-0.0085000005 -0.0037499999 -0.02475
0.0060000001 0.0070000002 -0.0022499999
-0.01425 -0.00575 -0.00575
0.014 -0.0049999999 -0.00125
0.011 -0.0072499998 -0.001
-0.015 0.00125 -0.0094999997
-0.014 -0.00075000001 -0.001
-0.0067500002 0.0065000001 -0.01925
0.00125 -0.00575 -0.01375
0.0047499998 -0.0062500001 -0.01925
0.01425 -0.0044999998 -0.01925
0.00275 -0.0024999999 -0.02475
0.00125 -0.00575 -0.00275
-0.0145 0.0037499999 -0.02
-0.01425 0.0074999998 -0.00875
0.0022499999 -0.0020000001 -0.00125
0.011 0.0074999998 -0.0094999997
-0.0094999997 0.0070000002 -0.0035000001
0.01425 0.0062500001 -0.0094999997
0.014 -0.0065000001 -0.014
-0.015 -0.001 -0.01475
-0.01525 -0.0032500001 -0.0195
0.0065000001 0.0067500002 -0.02275
-0.01525 0.00275 -0.0099999998
-0.0020000001 0.0042500002 -0.00125
-0.0065000001 -0.0060000001 -0.00025000001
0.0115 -0.0072499998 -0.023499999
-0.01275 0.0074999998 -0.0072499998
0.0032500001 0.0060000001 -0.02475
0.0145 0.0032500001 -0.00125
-0.0015 0.0055 -0.02475
0.0125 -0.0074999998 -0.0067500002
-0.00025000001 -0.00575 -0.024
-0.0042500002 0.0062500001 -0.0074999998
-0.0070000002 -0.00275 -0.025
-0.01425 -0.00575 -0.020749999
-0.0037499999 0.0062500001 -0.02025
-0.015 -0.001 -0.0185
0.015 0.00050000002 -0.01125
-0.01325 -0.0074999998 -0.0060000001
-0.00825 0.0067500002 -0.0049999999
0.015 0.0015 -0.021
-0.0015 0.00575 -0.01675
0.01025 -0.0072499998 -0.01025
-0.0070000002 0.0052499999 -0.001
0.0035000001 0.0044999998 -0.02475
0.0052499999 0.0067500002 -0.01075
0.01525 -0.0022499999 -0.01375
-0.0099999998 0.0049999999 -0.001
0.00575 0.0070000002 -0.0062500001
0.00025000001 0.0052499999 -0.02475
-0.0097500002 -0.0072499998 -0.0145
-0.0042500002 -0.0062500001 -0.0044999998
-0.01275 -0.0074999998 -0.01575
0.015 0.0015 -0.017750001
-0.015 0.0017500001 -0.0089999996
-0.0067500002 -0.0060000001 -0.00050000002
0.0055 -0.0065000001 -0.023250001
0.0080000004 -0.0067500002 -0.0044999998
0.01525 0.0022499999 -0.01525
-0.014 -0.0067500002 -0.01025
-0.0020000001 0.0074999998 -0.00125
0.0094999997 -0.0070000002 -0.01125
-0.015 -0.00050000002 -0.0024999999
0.015 0.00050000002 -0.015
0.00075000001 0.0022499999 -0.025
0.0020000001 0.0047499998 -0.00125
-0.001 0.0020000001 -0.001
-0.01225 -0.0037499999 -0.00125
0.00050000002 -0.00575 -0.00125
-0.0042500002 0.00075000001 -0.00125
0.01225 -0.0074999998 -0.0074999998
-0.014 0.0022499999 -0.00125
0.015 0.0017500001 -0.0065000001
-0.0065000001 -0.0067500002 -0.0165
0.01425 -0.0047499998 -0.0155
-0.0022499999 0.00575 -0.023250001
-0.0047499998 0.0017500001 -0.025
0.011 0.0044999998 -0.02475
-0.0080000004 0.0067500002 -0.01375
0.014 -0.0062500001 -0.0099999998
0.01525 0.00275 -0.024250001
0.01125 -0.0072499998 -0.022500001
-0.001 -0.00575 -0.023
0.01225 -0.0022499999 -0.00125
-0.01375 0.0074999998 -0.0072499998
-0.0052499999 -0.0065000001 -0.0067500002
0.0040000002 0.0067500002 -0.01275
-0.0049999999 0.0062500001 -0.014
0.00275 0.0065000001 -0.0077499999
0.01525 -0.0017500001 -0.01175
-0.015 0.00025000001 -0.01275
0.01425 -0.0055 -0.0055
-0.0125 -0.0074999998 -0.0097500002
0.00075000001 0.00575 -0.023250001
0.0080000004 0.0072499998 -0.016249999
-0.01275 -0.00050000002 -0.02475
0.01375 0.00575 -0.024499999
0.00275 0.0060000001 -0.023
-0.00875 -0.0049999999 -0.02475
0.00875 -0.0055 -0.024499999
-0.01525 0.00275 -0.021749999
-0.0055 -0.0067500002 -0.020749999
0.0052499999 -0.0065000001 -0.0017500001
0.01525 -0.0024999999 -0.0165
-0.0080000004 0.0067500002 -0.02025
0.0060000001 -0.0065000001 -0.02375
0.0052499999 0.00075000001 -0.025
-0.0092500001 0.0070000002 -0.021749999
0.01325 0.0074999998 -0.02125
0.01425 -0.0040000002 -0.0055
-0.014 0.0074999998 -0.021749999
-0.014 0.0072499998 -0.0085000005
-0.0077499999 0.0067500002 -0.0072499998
-0.01425 0.0074999998 -0.0065000001
-0.0060000001 0.0074999998 -0.00125
0.0105 -0.0020000001 -0.00125
-0.0015 -0.0060000001 -0.0047499998
-0.01125 -0.0015 -0.025
0.015 -0.001 -0.0062500001
0.0052499999 -0.0065000001 -0.0072499998
-0.0017500001 -0.00075000001 -0.025
0.0097500002 -0.0070000002 -0.0145
-0.00875 -0.0072499998 -0.0155
-0.0024999999 -0.0047499998 -0.00125
0.0145 0.0037499999 -0.0065000001
-0.0080000004 -0.0067500002 -0.00025000001
0.00125 -0.00025000001 -0.025
0.0035000001 -0.0060000001 -0.020749999
0.00275 0.0072499998 -0.00125
0.015 -0.001 -0.00825
-0.01425 -0.0052499999 -0.0022499999
0.0074999998 -0.0067500002 -0.0022499999
-0.014 -0.0062500001 -0.02
-0.0020000001 -0.0060000001 -0.00125
0.01225 -0.0074999998 -0.01575
0.015 0.00050000002 -0.014
0.00125 -0.00575 -0.0065000001
-0.014 -0.0065000001 -0.01225
-0.014 0.0074999998 -0.01275
0.011 0.003 -0.00125
0.01075 0.0072499998 -0.024250001
0.00050000002 0.0060000001 -0.016249999
-0.01425 0.0047499998 -0.01375
-0.00050000002 0.00050000002 -0.00125
0.0065000001 0.0052499999 -0.00125
-0.00025000001 -0.00575 -0.014
-0.0052499999 -0.0065000001 -0.016000001
0.00025000001 0.0060000001 -0.0020000001
-0.0024999999 -0.0060000001 -0.023499999
0.0089999996 -0.0022499999 -0.025
0.0074999998 -0.0067500002 -0.02025
0.0049999999 0.0067500002 -0.0115
0.01475 -0.0022499999 -0.00125
0.0070000002 0 -0.00125
0.0089999996 -0.0074999998 -0.00125
-0.011 -0.0074999998 -0.0040000002
0.0099999998 0.0074999998 -0.014
-0.01575 0.0060000001 -0.00125
-0.0022499999 0.0060000001 -0.0049999999
0.01425 0.0055 -0.0135
-0.0024999999 0.0060000001 -0.0060000001
0.0052499999 0.0067500002 -0.01175
-0.0092500001 -0.0065000001 -0.00025000001
-0.0094999997 0.0040000002 -0.02475
0.0052499999 0.0065000001 -0.023499999
-0.00050000002 -0.00575 -0.0052499999
0.0035000001 -0.0060000001 -0.00575
0.0097500002 0.0074999998 -0.01375
0.01425 0.0060000001 -0.0125
0.0015 0.0062500001 -0.0105
-0.0097500002 -0.0072499998 -0.021749999
-0.0065000001 0.0072499998 -0.00025000001
-0.001 0.0024999999 -0.001
-0.01475 -0.0032500001 -0.0060000001
0.0105 -0.0072499998 -0.01325
-0.0040000002 -0.0065000001 -0.02
-0.0037499999 -0.0017500001 -0.025
0.01425 -0.0052499999 -0.0024999999
0.015 0.0017500001 -0.02
0.013 -0.0074999998 -0.019750001
0.00125 -0.00575 -0.0049999999
0.00875 0.0074999998 -0.00050000002
-0.0145 -0.0042500002 -0.024
0.014 0.0072499998 -0.01025
0.012 0.0074999998 -0.01125
0.01525 0.0032500001 -0.0105
0.0077499999 0.0070000002 -0.021
-0.01325 0.0074999998 -0.02
0.0062500001 0.0070000002 -0.0092500001
-0.01525 -0.0024999999 -0.0032500001
0.01325 0.0020000001 -0.00125
0.0060000001 -0.0065000001 -0.022500001
-0.01425 0.0074999998 -0.0070000002
0.0020000001 -0.0060000001 -0.0135
-0.0042500002 0.0062500001 -0.020500001
-0.00050000002 0.0037499999 -0.00125
-0.0097500002 -0.0072499998 -0.016000001
0.01125 -0.0072499998 -0.0065000001
0.011 -0.0072499998 -0.0185
0.0015 0.0065000001 -0.00125
-0.014 -0.0074999998 -0.0042500002
-0.01475 0 -0.0099999998
-0.01325 -0.00025000001 -0.02475
-0.0089999996 -0.003 -0.025
0.0135 0.0074999998 -0.0060000001
0.0052499999 0.0072499998 -0.0015
-0.01475 -0.0032500001 -0.0070000002
-0.014 0.0070000002 -0.01725
0.015 0.0020000001 -0.01475
-0.01175 0.0074999998 -0.01725
0.0097500002 0.00125 -0.025
0.01425 0.0062500001 -0.0049999999
-0.0067500002 0.0065000001 -0.018750001
-0.0077499999 -0.0072499998 -0.00125
0.0067500002 -0.0065000001 -0.0074999998
-0.0060000001 -0.0065000001 -0.0065000001
-0.014 0.0074999998 -0.0060000001
-0.0042500002 0.0060000001 -0.023
-0.00050000002 0.00575 -0.021500001
-0.0042500002 -0.0062500001 -0.0085000005
0.01525 -0.00050000002 -0.018999999
-0.01525 0.0020000001 -0.0015
0.0145 0.0052499999 -0.021749999
-0.0099999998 0.0015 -0.00125
-0.01425 -0.0047499998 -0.0032500001
0 0.0037499999 -0.00125
-0.014 -0.0015 -0.00125
0.0065000001 -0.0070000002 -0.00025000001
0.0089999996 -0.0070000002 -0.0060000001
-0.0052499999 0.0065000001 -0.019750001
0.0097500002 -0.0070000002 -0.01175
-0.0145 0.00025000001 -0.00125
-0.0052499999 0.0072499998 -0.001
0.00075000001 0.0060000001 -0.02125
0.01075 0.0074999998 -0.0060000001
0.0060000001 0.0070000002 -0.0105
-0.0052499999 -0.0065000001 -0.001
-0.0035000001 0.0060000001 -0.0195
0.0125 0.0037499999 -0.00125
0.012 0.0074999998 -0.022
0.0092500001 0.0074999998 -0.0099999998
-0.01275 -0.0035000001 -0.00125
-0.01475 0.00125 -0.00125
-0.01425 -0.003 -0.024499999
-0.0135 0.0032500001 -0.00125
0.0032500001 0.0065000001 -0.00125
0.0145 -0.0035000001 -0.012
0.01425 -0.0044999998 -0.019750001
0.00875 0.00050000002 -0.025
0.015 0 -0.01675
0.0077499999 -0.0067500002 -0.012
0.0135 0.0074999998 -0.0049999999
0.0024999999 -0.0065000001 -0.00125
0.0032500001 -0.0060000001 -0.0032500001
-0.01425 0.0074999998 -0.01575
0.0040000002 0.0024999999 -0.00125
0.01175 0.0074999998 -0.0089999996
0.0067500002 0.00125 -0.025
-0.014 -0.0067500002 -0.0052499999
-0.01425 -0.0060000001 -0.0040000002
0.01125 0.0032500001 -0.02475
0.01425 -0.0049999999 -0.0049999999
-0.01225 0.0074999998 -0.0074999998
0.012 -0.0047499998 -0.02475
-0.01225 -0.0074999998 -0.021
0.0077499999 0.0072499998 -0.0024999999
-0.015 0.00025000001 -0.01725
0.0115 -0.0072499998 -0.01025
-0.01525 -0.0022499999 -0.00575
0.0055 -0.0065000001 -0.01475
-0.01425 -0.0052499999 -0.0049999999
0.01475 -0.001 -0.024499999
0.0047499998 0.0067500002 -0.01375
0.014 -0.0062500001 -0.0094999997
0.00575 -0.0065000001 -0.0145
0 -0.0065000001 -0.00125
0.0017500001 -0.00575 -0.00575
-0.00025000001 0.0062500001 -0.0017500001
0.0089999996 0.0072499998 -0.024250001
-0.01425 0.0047499998 -0.0055
-0.01025 0.0074999998 -0.00825
0.014 -0.0067500002 -0.01025
-0.0077499999 0.0070000002 -0.0115
-0.0115 -0.0074999998 -0.014
0.01425 -0.0052499999 -0.01175
0 0.00050000002 -0.00125
0.01425 -0.0044999998 -0.0099999998
-0.01125 0.0032500001 -0.00125
0.01175 -0.0055 -0.024499999
-0.0094999997 -0.0070000002 -0.0035000001
0.0145 -0.0037499999 -0.0067500002
0.0060000001 -0.0065000001 -0.0052499999
-0.0085000005 0.0070000002 -0.01025
-0.0017500001 -0.001 -0.00125
0.0094999997 0.0074999998 -0.0085000005
-0.00075000001 -0.00575 -0.024250001
0.014 -0.0044999998 -0.024499999
0.0049999999 -0.0062500001 -0.0195
0.0035000001 -0.0060000001 -0.011
-0.00275 0.0060000001 -0.00125
-0.0097500002 0 -0.00125
0.001 0.001 -0.00125
0.01125 0.0060000001 -0.001
0.01025 0.0049999999 -0.00125
0.0017500001 0.0024999999 -0.025
-0.0037499999 0.0062500001 -0.01125
0.0024999999 0.0049999999 -0.02475
-0.012 -0.0074999998 -0.02225
0.0145 0.00275 -0.00125
-0.015 0.0037499999 -0.0115
-0.0085000005 0.003 -0.02475
-0.01525 0.0032500001 -0.0077499999
-0.015 -0.0020000001 -0.0052499999
-0.014 0.0067500002 -0.0155
-0.01425 -0.0044999998 -0.017999999
0.011 -0.0062500001 -0.024499999
0.0049999999 0.0070000002 -0.0049999999
-0.014 0.0072499998 -0.0062500001
0.0065000001 0.0070000002 -0.0089999996
0.0035000001 -0.0060000001 -0.0022499999
-0.01525 -0.0032500001 -0.01525
