# .PCD v0.7 - Point Cloud Data file format
VERSION 0.7
FIELDS x y z
SIZE 4 4 4
TYPE F F F
COUNT 1 1 1
WIDTH 1190
HEIGHT 1
VIEWPOINT 0 0 0 1 0 0 0
POINTS 1190
DATA ascii
-0.0044083656 0.0045474926 -0.0066470588
0.018793557 -0.003148264 -0.0087647056
-0.0069605769 0.00034980712 -0.0054705883
-0.010440866 0.002215445 -0.0087647056
-0.023201924 0.0043142876 -0.0047647059
0.012297019 -0.0043142876 -0.0085294116
0.019257596 0.0043142876 -0.001
0.013689134 0.0036146736 -0.0087647056
-0.0053364425 -0.0043142876 -0.0087647056
-0.01832952 -0.0045474926 -0.00076470588
-0.01832952 0.0010494214 -0.0047647059
-0.016241346 -0.0045474926 -0.0057058823
-0.0037123077 0.0010494214 -0.0085294116
0.022041827 -0.00011660237 -0.002882353
0.010440866 -0.0045474926 -0.0012352942
0.023665961 0.0029150592 -0.0082941176
0.0067285579 0.0045474926 -0.0040588235
0.0090487497 0.0045474926 -0.0047647059
-0.0032482692 -0.002215445 -0.0087647056
0.0092807692 0.003148264 -0.00029411764
-0.0025522115 0.0045474926 -0.0033529412
0.019257596 -0.0017490356 -0.0087647056
0.016473366 -0.00011660237 -0.0054705883
-0.017401442 -0.002215445 -0.0087647056
-0.019025577 0.0010494214 0.001117647
0.022969903 -0.004081083 -0.0087647056
0.015777308 -0.00034980712 -0.00029411764
-0.0016241346 -0.0045474926 -0.0073529412
-0.01183298 -0.0038478782 -0.0087647056
-0.019953653 -0.0038478782 -0.0087647056
-0.0044083656 0.0010494214 -0.0085294116
0.022969903 -0.0043142876 -0.0075882352
-0.022737885 -0.002215445 -0.00029411764
-0.02413 -0.0029150592 -0.0035882352
-0.016241346 0.0012826261 0.0020588236
-0.004872404 0.0045474926 -0.0049999999
0.015777308 0.0045474926 -0.00052941177
0.0020881731 -0.0045474926 -0.0087647056
-0.0081206728 0.00034980712 -0.0054705883
0.0032482692 -0.00081621658 -0.003117647
-0.022505866 -0.0036146736 -0.0087647056
0.0090487497 -0.0012826261 0.001117647
-0.016009327 0.0015158309 -0.00029411764
-0.0055684615 0.0045474926 -0.0026470588
-0.016705384 -0.0010494214 0.001117647
0.010208846 0.00011660237 -0.0054705883
-0.0088167312 0.0010494214 0.00088235294
0.012993077 0.0045474926 -0.0078235297
0.00046403846 0.0036146736 -0.00029411764
-0.022737885 0.0045474926 -0.0057058823
-0.023897981 0.0019822402 -0.0075882352
0.0044083656 -0.0038478782 -0.00029411764
0.023665961 -0.002215445 -0.0087647056
-0.012065 -0.0012826261 -0.00029411764
-0.0099768266 -0.00034980712 -0.00029411764
0.0046403846 0.0045474926 -0.0068823528
0.0046403846 -0.00011660237 -0.0026470588
0.013921154 0.0045474926 -0.002882353
0.015777308 0.0045474926 -0.0019411765
0.00092807692 0.0010494214 -0.0054705883
-0.01183298 -0.0045474926 -0.0073529412
0.019721635 0.0010494214 -0.0038235295
-0.017169423 0.0045474926 -0.0068823528
0.0081206728 0.0045474926 -0.0033529412
-0.010440866 0.0045474926 -0.0080588236
0.022737885 0.0010494214 -0.00029411764
-0.005104423 -0.0045474926 -0.002882353
-0.020417692 -0.0045474926 -0.0059411763
-0.0092807692 -0.00034980712 -0.0054705883
-0.02413 0.004081083 -0.0045294119
-0.014385193 -0.00034980712 -0.0054705883
-0.004872404 0.0045474926 -0.0024117648
0.0064965384 0.0015158309 0.00064705883
0.017401442 0.003148264 -0.0087647056
-0.0062645194 0.0029150592 -0.00029411764
0.0039443271 0.003148264 -0.00029411764
0.022273846 0.0043142876 -0.0042941174
-0.0013921154 0.0010494214 -0.0042941174
0.01531327 0.0033814688 -0.0087647056
-0.0069605769 0.0033814688 -0.00029411764
0.015545288 0.0045474926 -0.00052941177
-0.012761057 -0.0045474926 -0.0061764708
-0.019257596 0.0036146736 -0.00029411764
0.02111375 -0.0045474926 -0.0049999999
0.010440866 0.00034980712 -0.0054705883
-0.019257596 0.00034980712 -0.00029411764
0.010672885 0.0045474926 -0.0024117648
0.016009327 0.0043142876 -0.0047647059
-0.0071925963 0.0010494214 -0.0087647056
-0.023897981 -0.0038478782 -0.0064117648
0.0027842307 -0.0017490356 -0.00029411764
-0.0064965384 -0.0045474926 -0.0066470588
-0.022041827 -0.00034980712 -0.00029411764
-0.0085847117 0.0045474926 -0.0085294116
0.010208846 -0.00011660237 -0.00029411764
-0.02413 -0.002215445 -0.0026470588
0.010208846 0.003148264 -0.0087647056
-0.010440866 -0.0043142876 -0.0080588236
-0.012065 -0.0015158309 -0.00029411764
-0.0092807692 0.0012826261 0.0013529412
0.0064965384 0.0012826261 0.0015882353
-0.0069605769 0.0010494214 -0.0040588235
0.023897981 0.0038478782 -0.0064117648
-0.020417692 0.0045474926 -0.0035882352
-0.012761057 -0.0045474926 -0.001
-0.005104423 -0.0045474926 -0.0017058824
0.012529039 0.00058301183 -0.0054705883
-0.015545288 -0.0045474926 -0.0061764708
-0.022505866 -0.0045474926 -0.0021764706
-0.018561538 -0.0045474926 -0.0061764708
-0.00092807692 0.0045474926 -0.0052352943
0.0064965384 0.0010494214 0.0015882353
-0.01508125 -0.003148264 -0.0087647056
0.00069605769 0.00081621658 -0.0087647056
-0.011136923 0.0045474926 -0.003117647
0.021577789 -0.0033814688 -0.0087647056
0.018793557 0.0033814688 -0.00029411764
-0.00301625 -0.00081621658 -0.0040588235
-0.022969903 0.0043142876 -0.0026470588
0.0071925963 0.00058301183 -0.0026470588
-0.012529039 0.0033814688 -0.00029411764
-0.017401442 0.0019822402 -0.0087647056
0.016937403 -0.00081621658 -0.00029411764
-0.0081206728 0.00034980712 -0.0087647056
0.012065 0.0010494214 -0.0045294119
0.0076566348 -0.003148264 -0.0087647056
-0.022041827 -0.0043142876 -0.0082941176
-0.014153173 0.0045474926 -0.0040588235
-0.00301625 0.0015158309 -0.00029411764
0.00069605769 0.00058301183 -0.00029411764
-0.0069605769 -0.0038478782 -0.00029411764
-0.012761057 -0.00011660237 -0.002882353
0.0095127886 -0.002215445 -0.0087647056
-0.011600962 -0.0045474926 -0.0014705883
0.0083526922 -0.00011660237 -0.0026470588
0.01531327 -0.0019822402 -0.00029411764
0.00069605769 -0.00034980712 -0.00029411764
0.0076566348 -0.0045474926 -0.001
0 0.0045474926 -0.0045294119
0.014153173 0.0015158309 0.0018235294
0.0067285579 0.0045474926 -0.0012352942
0.0037123077 -0.0045474926 -0.00076470588
-0.010904904 0.0045474926 -0.0021764706
-0.011136923 -0.0010494214 0.00017647058
-0.023897981 -0.0019822402 -0.0080588236
0.023897981 0.004081083 -0.0035882352
0.012993077 0.0024486498 -0.0087647056
0.02413 -0.0019822402 -0.0073529412
0.023897981 -0.00034980712 -0.0066470588
0.0076566348 -0.00081621658 -0.0045294119
0.020649713 -0.0045474926 -0.0080588236
-0.014849231 0.00081621658 -0.00029411764
0.012065 0.0038478782 -0.0087647056
0.005104423 0.0045474926 -0.0061764708
0.0081206728 0.0038478782 -0.0087647056
0.02413 0.003148264 -0.0047647059
-0.0092807692 0.0010494214 -0.0033529412
0.018793557 -0.0045474926 -0.003117647
-0.023433942 -0.0033814688 -0.0068823528
0.0078886542 -0.0045474926 -0.00052941177
0.019257596 0.0043142876 -0.0071176472
0.014617211 0.0045474926 -0.0057058823
0.0067285579 -0.0010494214 0.00017647058
-0.020185674 -0.0045474926 -0.0059411763
0.01531327 -0.0033814688 -0.00029411764
-0.004872404 0.0010494214 -0.0049999999
0.00046403846 0.0045474926 -0.0082941176
0.015545288 0.0029150592 -0.0087647056
0.0092807692 -0.00011660237 -0.0087647056
-0.004872404 0.0045474926 -0.0075882352
0.0064965384 -0.0045474926 -0.0068823528
0.013457116 -0.0045474926 -0.002882353
-0.0083526922 0.0010494214 -0.0047647059
0.012993077 -0.0043142876 -0.0085294116
-0.0092807692 -0.0045474926 -0.0047647059
0.011368942 -0.0015158309 -0.0087647056
-0.016241346 -0.0012826261 0.0013529412
0.0039443271 -0.00081621658 -0.0049999999
-0.019257596 -0.0045474926 -0.0064117648
0.011368942 -0.0015158309 0.0020588236
0.00046403846 -0.00058301183 -0.00029411764
-0.014153173 0.0045474926 -0.0019411765
0.018561538 -0.0045474926 -0.0026470588
0.019489616 0.0043142876 -0.0085294116
0.02111375 -0.0045474926 -0.0019411765
-0.013457116 0.0045474926 -0.0071176472
-0.012761057 -0.00081621658 -0.0038235295
-0.015777308 0.0045474926 -0.0021764706
0.012761057 0.0029150592 -0.00029411764
-0.0099768266 0.0010494214 -0.0042941174
-0.0060325 0.0012826261 0.0020588236
0.018793557 -0.0045474926 -0.0012352942
0.023201924 -0.004081083 -0.00029411764
0.020649713 -0.003148264 -0.00029411764
0.0025522115 0.0045474926 -0.0033529412
0.017169423 0.0010494214 -0.0045294119
0.011136923 -0.0045474926 -0.0061764708
0.0023201923 -0.0019822402 -0.00029411764
0.016241346 0.0010494214 0.001117647
-0.02413 0.003148264 -0.0066470588
0.016241346 0.0010494214 0.0020588236
-0.0037123077 0.0036146736 -0.00029411764
0.016009327 -0.003148264 -0.0087647056
-0.01183298 -0.0045474926 -0.0033529412
0.0023201923 -0.0045474926 -0.0047647059
0.0037123077 0.0045474926 -0.0047647059
0.0067285579 0.0010494214 -0.0049999999
-0.02413 -0.0019822402 -0.0021764706
-0.010672885 -0.0029150592 -0.00029411764
0.0046403846 0.0010494214 -0.0052352943
0.023433942 0.00034980712 -0.0052352943
-0.020649713 0.00081621658 -0.00029411764
-0.0099768266 0.0045474926 -0.0085294116
0.012065 -0.004081083 -0.00029411764
-0.014617211 -0.0038478782 -0.00029411764
0.012993077 -0.0045474926 -0.0066470588
0.0088167312 0.0015158309 -0.0087647056
-0.0095127886 0.00034980712 -0.0026470588
-0.016937403 -0.00081621658 -0.0049999999
0.019721635 0.0043142876 -0.0059411763
-0.017401442 -0.0043142876 -0.002882353
0.013689134 -0.00058301183 -0.00029411764
0.0044083656 0.004081083 -0.00029411764
0.013225096 0.0010494214 -0.0089999996
0.018097499 -0.00034980712 -0.00029411764
-0.0062645194 0.00011660237 -0.00029411764
0.019025577 -0.0045474926 -0.0045294119
0.020417692 0.003148264 -0.00029411764
0.016241346 -0.0010494214 0.001117647
-0.02413 0.002215445 -0.00076470588
0.00092807692 -0.0010494214 -0.002882353
0.022505866 0.003148264 -0.0087647056
0.022737885 0.002215445 -0.00029411764
-0.005800481 0.0017490356 -0.0087647056
0.014153173 0.0012826261 0.0015882353
-0.005104423 -0.00081621658 -0.0042941174
-0.016937403 0.0010494214 -0.0035882352
0.023897981 -0.0043142876 -0.0052352943
0.019025577 0.0010494214 -0.0042941174
0.02134577 -0.0045474926 -0.0012352942
-0.010672885 0.0045474926 -0.00029411764
-0.0090487497 0.00058301183 -0.0087647056
-0.016241346 -0.00034980712 -0.00029411764
0.01832952 0.0012826261 -0.0087647056
0.016241346 0.0012826261 0.0025294118
-0.017169423 0.0015158309 -0.00029411764
0.0067285579 0.0015158309 -0.0087647056
0.014385193 0.0045474926 -0.0040588235
-0.019025577 0.0015158309 0.00088235294
-0.013921154 0.0017490356 0.0020588236
-0.0018561538 0.0045474926 -0.0024117648
-0.0095127886 -0.0024486498 -0.0087647056
-0.0023201923 -0.0019822402 -0.0087647056
0.0023201923 -0.00058301183 -0.00029411764
-0.02413 0.0033814688 -0.0054705883
-0.012529039 -0.0045474926 -0.0075882352
0.018097499 -0.0038478782 -0.0087647056
-0.0085847117 -0.0015158309 0.00017647058
-0.019489616 0.0010494214 -0.0038235295
-0.022041827 -0.0045474926 -0.0054705883
0.022041827 -0.0038478782 -0.00029411764
-0.0060325 -0.0045474926 -0.0017058824
0.0041763461 -0.00081621658 -0.0054705883
0.018793557 -0.0045474926 -0.00076470588
-0.013689134 -0.00081621658 -0.0052352943
0.02413 -0.0015158309 -0.0054705883
0.02413 -0.00081621658 -0.0038235295
0.0039443271 0.0010494214 -0.0054705883
-0.013689134 -0.00081621658 -0.0087647056
-0.0085847117 -0.0012826261 -0.0087647056
-0.012065 0.0019822402 -0.00029411764
-0.013457116 0.003148264 -0.0087647056
0.0016241346 0.00011660237 -0.0087647056
0.016705384 -0.0045474926 -0.0012352942
-0.011136923 0.0010494214 0.001117647
0.02134577 0.0043142876 -0.0038235295
0.02413 0.0036146736 -0.0014705883
0.012529039 0.0045474926 -0.0064117648
0.02111375 0.0043142876 -0.0012352942
0.014849231 -0.00081621658 -0.0042941174
0.0095127886 0.0045474926 -0.0024117648
-0.015777308 -0.0045474926 -0.0054705883
0.023897981 0.004081083 -0.0024117648
-0.017633462 0.00058301183 -0.00029411764
-0.012065 -0.0045474926 -0.0012352942
-0.01832952 0.0010494214 -0.0042941174
0.0081206728 0.0012826261 -0.00029411764
-0.0053364425 -0.00081621658 -0.0038235295
0.01508125 0.0045474926 -0.0012352942
-0.0016241346 0.0015158309 0.00017647058
-0.016473366 -0.0036146736 -0.00029411764
-0.0011600961 0.0045474926 -0.001
-0.0095127886 0.0015158309 -0.00029411764
-0.010440866 0.0010494214 -0.0047647059
0.0032482692 -0.00081621658 -0.0087647056
0.0034802884 -0.0045474926 -0.0040588235
-0.023201924 -0.0043142876 -0.0073529412
0.0092807692 -0.0038478782 -0.00029411764
0.00092807692 -0.0038478782 -0.0087647056
0.016241346 -0.0026818546 -0.00029411764
0.0034802884 -0.0045474926 -0.0042941174
0.0016241346 -0.00011660237 -0.0057058823
0.0083526922 0.0045474926 -0.0019411765
0.015545288 0.00034980712 -0.0054705883
-0.019721635 0.00034980712 -0.00029411764
0.017633462 -0.0045474926 -0.0040588235
-0.012993077 0.0045474926 -0.0026470588
-0.0083526922 0.0010494214 -0.00029411764
0.020881731 0.0043142876 -0.0049999999
0.0081206728 0.002215445 -0.0087647056
0.0074246153 -0.0043142876 -0.00029411764
0.010208846 0.0017490356 -0.0089999996
-0.00023201923 0.0045474926 -0.0049999999
0.0018561538 0.0010494214 -0.0049999999
-0.0081206728 -0.00081621658 -0.0087647056
-0.0018561538 0.00058301183 -0.0087647056
0.018793557 -0.00081621658 -0.0047647059
-0.017401442 0.0017490356 -0.00029411764
-0.0067285579 -0.0045474926 -0.00076470588
-0.0097448081 -0.0045474926 -0.0071176472
-0.0081206728 -0.00034980712 -0.0026470588
-0.013457116 -0.00081621658 -0.0045294119
-0.017401442 -0.00081621658 -0.0089999996
-0.017633462 0.0010494214 -0.0047647059
0.0071925963 -0.004081083 -0.00029411764
-0.013225096 0.0045474926 -0.0059411763
0.023897981 0.0015158309 -0.0080588236
0.020185674 -0.0045474926 -0.0014705883
-0.02413 0.0029150592 -0.001
0.019025577 0.0043142876 -0.0047647059
0.016705384 -0.00058301183 -5.8823531e-05
-0.0062645194 0.0017490356 0.00064705883
-0.0064965384 -0.00081621658 0.0018235294
0.0037123077 0.0019822402 -0.0087647056
0.013225096 -0.00081621658 -0.0042941174
0.00092807692 -0.00034980712 -0.0057058823
-0.010672885 -0.0045474926 -0.0024117648
-0.012761057 0.0017490356 -0.00029411764
0.015777308 -0.00058301183 -0.0087647056
0.00046403846 0.002215445 -0.0085294116
-0.022273846 -0.0045474926 -0.0061764708
0.0039443271 0.0045474926 -0.00029411764
0.01508125 -0.0045474926 -0.0024117648
0.020881731 0.0043142876 -0.0082941176
0.017633462 0.0029150592 -0.00029411764
-0.0081206728 0.0024486498 -0.00029411764
0.020417692 -0.0045474926 -0.00076470588
-0.023433942 -0.0036146736 -0.0073529412
-0.02134577 0.0036146736 -5.8823531e-05
-0.016009327 -0.00081621658 -0.0033529412
0.0025522115 -0.0045474926 -0.0040588235
-0.011600962 0.0045474926 -0.0049999999
0.021809807 -0.0045474926 -0.0073529412
-0.02413 -0.0026818546 -0.0012352942
0.021809807 0.0043142876 -0.0082941176
-0.010672885 -0.00011660237 -0.0054705883
-0.0088167312 -0.0045474926 -0.0057058823
-0.00069605769 -0.0017490356 -0.00029411764
-0.014385193 0.0045474926 -0.0035882352
-0.020649713 0.0045474926 -0.0080588236
0.0092807692 -0.0015158309 -0.0087647056
0.011368942 0.0010494214 -0.002882353
0.019489616 0.00081621658 -0.002882353
-0.023897981 0.00011660237 -0.0082941176
0.019489616 -0.0010494214 -0.0087647056
0.012297019 0.00034980712 -0.00029411764
-0.0069605769 0.00058301183 -0.0087647056
0.0076566348 -0.0036146736 -0.00029411764
-0.023897981 0.0010494214 -0.0068823528
-0.0088167312 -0.00081621658 0.00041176472
0.02413 -0.0033814688 -0.002882353
-0.00092807692 -0.00081621658 -5.8823531e-05
0.0097448081 -0.0015158309 -0.0087647056
-0.017865481 0.0015158309 -0.00029411764
0.00023201923 0.0029150592 -0.00029411764
0.02413 0.0012826261 -0.0019411765
0.0064965384 -0.0045474926 -0.0052352943
0.013921154 -0.0010494214 0.0022941176
-0.004872404 0.004081083 -0.00029411764
-0.01531327 -0.0038478782 -0.0087647056
0.0037123077 0.00034980712 -0.00029411764
0.0025522115 0.0017490356 -0.0085294116
0.012297019 0.0024486498 -0.0087647056
0.0095127886 -0.0010494214 -0.00029411764
0.0090487497 0.0045474926 -0.0026470588
-0.0018561538 0.0012826261 -0.0085294116
-0.0025522115 0.0045474926 -0.0017058824
0.016473366 0.0010494214 -0.0045294119
-0.020185674 0.00058301183 -0.0087647056
0.0016241346 -0.0045474926 -0.0033529412
0.020185674 0.0043142876 -0.0066470588
-0.016241346 -0.0010494214 0.0015882353
-0.022505866 0.0015158309 -0.00029411764
-0.02413 0.002215445 -0.002882353
0.00069605769 0.00011660237 -0.0057058823
-0.014153173 -0.0015158309 0.0013529412
0.02413 0.003148264 -0.0082941176
0.01832952 -0.00081621658 -0.0040588235
0.022273846 -0.00034980712 -0.0087647056
0.0067285579 0.0045474926 -0.0049999999
0.0037123077 -0.0012826261 0.00088235294
0.01508125 0.00011660237 -0.0087647056
0.01531327 -0.0038478782 -0.0085294116
-0.011136923 -0.0045474926 -0.00076470588
0.02134577 0.0043142876 -0.002882353
-0.0018561538 -0.0019822402 -0.00029411764
0.0016241346 -0.00081621658 -0.0038235295
0.021577789 0.0024486498 -0.0087647056
0.0018561538 -0.00081621658 -5.8823531e-05
-0.0034802884 -0.00081621658 -0.0035882352
-0.010672885 -0.0045474926 -0.002882353
0.01531327 0.0043142876 -0.00029411764
0.014153173 0.0010494214 0.00017647058
0.004872404 0.00034980712 -0.0087647056
0.014385193 -0.0045474926 -0.0014705883
0.0034802884 0.0010494214 -0.0049999999
0.02413 0.0033814688 -0.00052941177
0.014385193 0.0045474926 -0.0082941176
0.015545288 0.0045474926 -0.0071176472
-0.014385193 -0.0045474926 -0.0017058824
-0.00301625 -0.0045474926 -0.0033529412
-0.0013921154 0.00034980712 -0.0026470588
0.014385193 0.00081621658 -0.002882353
0.0041763461 -0.0045474926 -0.0042941174
0.016705384 -0.00034980712 -0.002882353
0.0013921154 -0.0045474926 -0.0071176472
0.019721635 -0.00058301183 -0.002882353
0.004872404 0.00081621658 -0.0085294116
0.004872404 -0.0017490356 -0.00029411764
-0.011368942 0.0015158309 0.0015882353
0.0064965384 -0.0029150592 -0.0087647056
0.0023201923 0.0010494214 -0.0045294119
-0.0081206728 -0.0045474926 -0.0071176472
0.0090487497 -0.00058301183 -0.00029411764
0.011600962 -0.0045474926 -0.0014705883
0.015545288 0.003148264 -0.00029411764
-0.010208846 0.0012826261 -0.0087647056
-0.022505866 -0.0015158309 -0.0087647056
0.0013921154 -0.00011660237 -0.0087647056
-0.0037123077 -0.0045474926 -0.0052352943
0.0016241346 0.0045474926 -0.001
0.0060325 0.0045474926 -0.0049999999
0.016009327 -0.00081621658 -0.0033529412
0.020881731 -0.003148264 -0.0087647056
-0.012529039 -0.00058301183 -0.002882353
0.0062645194 -0.0045474926 -0.0066470588
-0.0032482692 0.00034980712 -0.0085294116
0.012065 0.0010494214 -0.0049999999
-0.0090487497 0.004081083 -0.0087647056
0.017401442 0.0012826261 -0.0087647056
0.022969903 -0.0043142876 -0.0066470588
-0.005800481 0.00081621658 -0.0026470588
0.0067285579 -0.0045474926 -0.0040588235
-0.020185674 0.0010494214 -0.0087647056
0.02134577 0.0019822402 -0.0087647056
0.016241346 0.0010494214 -0.003117647
0.015545288 0.00058301183 -0.0087647056
0.01531327 -0.0010494214 -0.00029411764
-0.013225096 -0.0045474926 -0.0017058824
0.010208846 0.0045474926 -0.0017058824
0.022737885 0.0010494214 -0.0045294119
0.00301625 0.0045474926 -0.003117647
0.0044083656 0.0038478782 -0.0087647056
0.0041763461 -0.00058301183 -0.0057058823
-0.018561538 -0.00081621658 -0.0049999999
-0.017401442 -0.003148264 -0.00029411764
0.010440866 -0.0045474926 -0.0066470588
0.010672885 -0.0045474926 -0.0085294116
-0.011136923 0.0010494214 0.00088235294
-0.013689134 -0.0015158309 0.00064705883
-0.0062645194 -0.00081621658 -0.0038235295
0.005104423 -0.0045474926 -0.0021764706
0.012529039 0.0010494214 -0.0045294119
0.0037123077 -0.00058301183 -0.0087647056
0.0016241346 -0.0045474926 -0.0071176472
0.01531327 0.0045474926 -0.0047647059
0.00092807692 -0.0019822402 -0.0087647056
-0.00092807692 -0.0036146736 -0.00029411764
-0.0039443271 -0.0015158309 -0.0087647056
-0.0088167312 0.00058301183 -0.0054705883
0.0062645194 -0.0010494214 0.0020588236
0.0062645194 -0.0045474926 -0.0071176472
-0.0034802884 0.0045474926 -0.0040588235
-0.0064965384 -0.0015158309 0.0022941176
0.01832952 0.0010494214 -0.0033529412
0.02134577 -0.0045474926 -0.0064117648
-0.023665961 -0.0043142876 -0.00076470588
-0.016241346 0.0045474926 -0.0052352943
-0.018097499 -0.00081621658 -0.0047647059
-0.019953653 0.0045474926 -0.001
0.018793557 -0.0036146736 -0.00029411764
-0.014617211 0.0045474926 -0.0019411765
0.022273846 -0.0045474926 -0.0042941174
0.0055684615 0.0010494214 -0.002882353
-0.015777308 0.0029150592 -0.00029411764
-0.011368942 0.0010494214 0.00088235294
0.0076566348 0.0010494214 -0.002882353
0.0041763461 0.0010494214 -0.0052352943
-0.023897981 -0.00011660237 -0.0075882352
0.018561538 -0.0045474926 -0.0054705883
0.011136923 -0.0036146736 -0.00029411764
0.010904904 0.0010494214 -0.003117647
-0.0020881731 0.0010494214 -0.0033529412
-0.02413 -0.004081083 -0.002882353
-0.011136923 0.00081621658 -0.0052352943
0.014153173 0.0029150592 -0.00029411764
-0.0092807692 -0.00081621658 -0.002882353
0.013921154 0.0045474926 -0.0087647056
-0.013689134 -0.0043142876 -0.0080588236
0.00023201923 -0.0045474926 -0.003117647
-0.0034802884 0.0019822402 -0.0085294116
0.013689134 0.0045474926 -0.0066470588
0.017865481 0.00058301183 -0.00029411764
0.0053364425 0.0045474926 -0.00076470588
0.0090487497 0.0015158309 0.0025294118
0.0085847117 -0.00081621658 -0.0049999999
0.0062645194 0.00011660237 -0.0087647056
-0.017633462 0.0045474926 -0.0059411763
-0.011368942 0.0036146736 -0.00029411764
-0.0069605769 -0.0045474926 -0.0075882352
0.02413 0.00034980712 -0.00076470588
-0.01508125 0.0045474926 -0.0075882352
-0.0013921154 -0.0012826261 0.00088235294
-0.0020881731 -0.0045474926 -0.0059411763
0.020185674 -0.0045474926 -0.0066470588
0.019953653 0.0029150592 -0.0087647056
-0.020881731 -0.0038478782 -0.00029411764
0.0037123077 0.0017490356 0.0020588236
-0.015777308 -0.0026818546 -0.0087647056
-0.020649713 0.0010494214 -0.0047647059
-0.0020881731 -0.00058301183 -0.0057058823
-0.022273846 0.0010494214 -0.003117647
0.013689134 0.0015158309 -0.0087647056
-0.020649713 0.0038478782 -0.0087647056
-0.0076566348 -0.0045474926 -0.0080588236
0.014617211 0.0010494214 -0.0052352943
-0.0034802884 0.004081083 -0.0087647056
-0.0027842307 -0.0043142876 -0.00029411764
-0.023897981 0.0017490356 -0.0078235297
0.0067285579 0.0010494214 -0.0035882352
0.023433942 -0.0019822402 -0.0085294116
-0.0085847117 0.0043142876 -0.00029411764
-0.01183298 0.0045474926 -0.0064117648
0.0044083656 0.00034980712 -0.0026470588
-0.0067285579 0.0045474926 -0.0042941174
-0.018793557 -0.0045474926 -0.0049999999
-0.015777308 0.00058301183 -0.00029411764
0.013689134 0.0029150592 -0.0087647056
0.005104423 -0.00058301183 -0.0026470588
-0.020417692 -0.00081621658 -0.0049999999
0.0060325 0.0017490356 -0.0087647056
-0.005800481 0.00034980712 -0.00029411764
0.012529039 -0.002215445 -0.00029411764
-0.01508125 -0.00081621658 -0.0040588235
-0.0013921154 -0.0045474926 -0.0021764706
-0.012993077 0.0012826261 -0.00029411764
0.01183298 -0.00081621658 -0.0033529412
0.021577789 0.0010494214 -0.00029411764
-0.021577789 -0.0033814688 -5.8823531e-05
-0.01183298 0.0045474926 -0.0066470588
0.010208846 0.0045474926 -0.0075882352
0.022273846 0.0015158309 -0.0087647056
0 -0.0045474926 -0.001
0.0018561538 -0.0043142876 -0.0087647056
-0.023201924 0.0026818546 -0.00029411764
-0.0011600961 0.0012826261 -0.0085294116
0.0083526922 0.00081621658 -0.0054705883
0.016009327 0.0043142876 -0.0033529412
0.012297019 0.0017490356 -0.00029411764
-0.018561538 0.00081621658 -0.0087647056
0.02413 0.0029150592 -0.0042941174
-0.011136923 0.0033814688 -0.0087647056
-0.022041827 0.00081621658 -0.0087647056
0.016705384 -0.0015158309 0.00088235294
0.0085847117 0.0012826261 0.0022941176
-0.0013921154 0.0017490356 0.0025294118
-0.016705384 -0.0045474926 -0.001
0.017865481 0.0043142876 -0.0021764706
0.0076566348 0.0045474926 -0.0061764708
-0.01183298 -0.0012826261 -0.0087647056
0.016473366 -0.0045474926 -0.0066470588
0.014385193 -0.0045474926 -0.001
-0.014617211 -0.0045474926 -0.001
-0.0034802884 -0.00034980712 -5.8823531e-05
-0.0046403846 0.0010494214 -0.0042941174
0.014849231 0.00011660237 -0.0054705883
-0.014385193 -0.0045474926 -0.0012352942
-0.0060325 -0.002215445 -0.0087647056
0.0078886542 0.0045474926 -0.0068823528
-0.017169423 -0.0019822402 -0.0087647056
-0.011368942 -0.0045474926 -0.0040588235
-0.012065 0.0045474926 -0.0066470588
0.0095127886 0.0045474926 -0.001
-0.022505866 -0.0045474926 -0.0071176472
-0.004872404 -0.00011660237 -0.0054705883
0.023897981 0.0019822402 -0.0085294116
-0.017865481 -0.0029150592 -0.0087647056
0.0060325 0.0045474926 -0.0047647059
-0.01508125 0.0045474926 -0.0073529412
-0.0069605769 -0.0045474926 -0.0021764706
-0.0069605769 -0.0045474926 -0.0014705883
-0.0041763461 0.0045474926 -0.0040588235
0.015545288 -0.00058301183 -0.002882353
-0.016705384 -0.0015158309 0.00017647058
-0.022041827 -0.0045474926 -0.0052352943
-0.0092807692 -0.0043142876 -0.0087647056
0.012065 -0.0045474926 -0.0042941174
-0.0023201923 -0.00081621658 -0.0045294119
0.0060325 0.0045474926 -0.0038235295
0.023201924 0.0010494214 -0.003117647
0.017401442 -0.00034980712 -0.002882353
0.017401442 -0.0029150592 -0.00029411764
0.015545288 -0.00034980712 -0.00029411764
-0.00023201923 0.00058301183 -0.0026470588
-0.01183298 -0.0045474926 -0.0019411765
0.023897981 0.003148264 -0.00029411764
0.019953653 0.0043142876 -0.0040588235
0.00046403846 -0.0017490356 -0.0087647056
0.021809807 0.0043142876 -0.0012352942
-0.00046403846 -0.00011660237 -0.0057058823
0.004872404 -0.00034980712 -0.0026470588
-0.02413 0.0029150592 -0.0012352942
0.00092807692 0.0045474926 -0.0059411763
0.019257596 0.0010494214 0.0018235294
-0.0034802884 0.0045474926 -0.0068823528
-0.0046403846 0.0045474926 -0.0064117648
-0.016241346 -0.0015158309 0.00017647058
-0.010672885 0.0019822402 -0.0087647056
0.019257596 -0.0010494214 0.00064705883
-0.013921154 0.0017490356 -0.0087647056
0.012065 0.0045474926 -0.0038235295
-0.022273846 0.0045474926 -0.0021764706
0.02413 0.00011660237 -0.0024117648
0.0090487497 0.0029150592 -0.00029411764
0.00301625 -0.00011660237 -0.00029411764
0.012761057 -0.002215445 -0.00029411764
0.0037123077 0.0015158309 0.0013529412
0.01531327 -0.00081621658 -0.0040588235
0.0023201923 0.00081621658 -0.00029411764
-0.0064965384 0.0045474926 -0.0042941174
0.023665961 -0.0038478782 -0.0080588236
0.0088167312 0.0017490356 0.0020588236
-0.018561538 0.0017490356 -0.0087647056
0.0074246153 -0.00081621658 -0.0087647056
0.010208846 0.00011660237 -0.0026470588
-0.01508125 0.0019822402 -0.00029411764
-0.018561538 -0.00011660237 -0.0052352943
0.010440866 -0.00058301183 -0.0087647056
0.020649713 -0.0045474926 -0.0014705883
0.020881731 -0.0033814688 -0.00029411764
-0.0090487497 0.0045474926 -0.0057058823
-0.0013921154 0.0045474926 -0.0064117648
-0.013921154 0.004081083 -0.00029411764
0.02413 0.002215445 -0.0064117648
0.022737885 -0.0012826261 -0.00029411764
-0.0060325 -0.0045474926 -0.0066470588
0.0013921154 -0.002215445 -0.0087647056
-0.00301625 -0.00081621658 -0.0054705883
-0.013689134 -0.0045474926 -0.0047647059
0.0023201923 -0.0045474926 -0.0082941176
0.005800481 -0.0010494214 -0.00029411764
-0.0095127886 0.0029150592 -0.00029411764
-0.012297019 0.0010494214 -0.0040588235
0.004872404 -0.0045474926 -0.0033529412
-0.02413 0.00011660237 -0.0059411763
0.020649713 -0.0033814688 -0.0087647056
-0.0095127886 -0.00081621658 -0.0033529412
0 0.0029150592 -0.0085294116
0.020881731 0.0043142876 -0.0047647059
0.01832952 -0.0045474926 -0.001
0.019953653 0.00034980712 -0.0087647056
0.017633462 0.0043142876 -0.0068823528
0.0011600961 -0.0010494214 0.00064705883
0.0085847117 -0.0045474926 -0.0057058823
0.0071925963 0.0038478782 -0.0087647056
0.0055684615 -0.0036146736 -0.00029411764
-0.0037123077 -0.0038478782 -0.0087647056
0.016241346 -0.00081621658 -0.0087647056
0.0055684615 0.004081083 -0.0087647056
-0.016009327 -0.0045474926 -0.0047647059
-0.019721635 -0.00058301183 -0.002882353
0.0064965384 0.0045474926 -0.0042941174
0.02134577 0.00058301183 -0.002882353
-0.0069605769 -0.00081621658 -0.003117647
-0.00069605769 -0.0012826261 -0.0087647056
-0.0078886542 -0.0045474926 -0.0026470588
-0.0062645194 0.0017490356 -5.8823531e-05
-0.0074246153 0.0019822402 -0.00029411764
0.023433942 -0.00081621658 -0.00029411764
-0.00023201923 -0.0043142876 -5.8823531e-05
-0.023897981 -0.0019822402 -0.0087647056
-0.0092807692 0.0010494214 -0.0047647059
-0.0025522115 0.0015158309 -0.00029411764
0.017169423 0.0043142876 -0.0075882352
0.019257596 0.0015158309 0.001117647
-0.022041827 0.0045474926 -0.0068823528
-0.0023201923 -0.0045474926 -0.0066470588
0.00301625 0.0045474926 -0.0052352943
-0.012065 -0.0045474926 -0.0061764708
0.0067285579 -0.0010494214 0.0022941176
-0.00046403846 0.0045474926 -0.0054705883
0.019489616 -0.0036146736 -0.00029411764
0.0018561538 -0.0024486498 -0.00029411764
0.0062645194 -0.0012826261 0.0020588236
-0.015545288 -0.00058301183 -0.0054705883
-0.02413 0.002215445 -0.0012352942
0.011600962 0.0045474926 -0.00052941177
0.019025577 -0.0045474926 -0.0061764708
0.020881731 -0.004081083 -0.00029411764
-0.0076566348 0.0045474926 -0.0014705883
-0.005104423 0.0045474926 -0.0035882352
0.013457116 -0.0045474926 -0.0066470588
-0.0067285579 -0.00011660237 -0.00029411764
-0.022737885 -0.0045474926 -0.0024117648
-0.013689134 -0.0045474926 -0.00052941177
0.012529039 0.0010494214 -0.0047647059
0.023201924 0.00034980712 -0.0087647056
-0.0039443271 -0.0036146736 -0.0087647056
0.016241346 -0.0045474926 -0.0052352943
-0.013457116 -0.0045474926 -0.0061764708
-0.02413 0.00011660237 -0.0021764706
-0.0095127886 0.002215445 -0.00029411764
-0.0016241346 0.0012826261 0.0018235294
0.005104423 0.00058301183 -0.0026470588
0.023201924 -0.0043142876 -0.0042941174
0.0044083656 0.00081621658 -0.0054705883
-0.02413 0.0026818546 -0.00052941177
-0.00301625 -0.0045474926 -0.003117647
-0.005800481 0.0045474926 -0.0059411763
0.019025577 -0.0045474926 -0.001
-0.005104423 0.0010494214 -0.0047647059
0.020881731 0.0010494214 -0.0045294119
0.022505866 -0.0017490356 -0.00029411764
-0.013689134 -0.0045474926 -0.0059411763
0.0064965384 -0.0012826261 0.0018235294
-0.0055684615 -0.00058301183 -0.00029411764
0.023897981 0.00058301183 -0.0080588236
-0.02413 0.0024486498 -0.0068823528
-0.0060325 0.0010494214 -0.003117647
-0.00046403846 0.0019822402 -0.0085294116
-0.010904904 0.0045474926 -0.003117647
-0.010672885 -0.0045474926 -0.0035882352
-0.02413 -0.0024486498 -0.0021764706
0.017865481 0.00058301183 -0.0087647056
0.019489616 -0.00011660237 -0.00029411764
-0.0020881731 0.0036146736 -0.00029411764
0.014617211 0.0045474926 -0.0017058824
-0.004872404 -0.0045474926 -0.0075882352
-0.0023201923 -0.0045474926 -0.0068823528
-0.012761057 -0.00058301183 -0.0054705883
0.019721635 0.0043142876 -0.0057058823
-0.017865481 0.0010494214 -0.0040588235
0.017865481 -0.0019822402 -0.0087647056
0.013225096 0.0045474926 -0.0082941176
-0.010208846 -0.0045474926 -0.0026470588
-0.0064965384 -0.00058301183 -5.8823531e-05
0.0020881731 -0.0010494214 -0.00029411764
-0.022273846 0.003148264 -0.0087647056
-0.0088167312 0.0012826261 -0.0087647056
0.018793557 -0.0045474926 -0.0047647059
-0.019025577 0.0045474926 -0.0024117648
-0.018097499 0.0045474926 -0.0024117648
0.023897981 0.0012826261 -0.0082941176
-0.022737885 0.0010494214 -0.0045294119
0.022041827 0.0026818546 -0.0087647056
0.023897981 0.00081621658 -0.0068823528
0.013457116 -0.0045474926 -0.0061764708
-0.014617211 0.0017490356 -0.0087647056
0.00301625 -0.0024486498 -0.0087647056
0.01183298 -0.0045474926 -0.0061764708
-0.0097448081 0.0045474926 -0.0042941174
-0.0092807692 -0.0045474926 -0.0061764708
0.010672885 0.0045474926 -0.0042941174
0.0071925963 0.0045474926 -0.0071176472
-0.023433942 0.0026818546 -0.0087647056
-0.01531327 0.0045474926 -0.0035882352
0.01183298 -0.00011660237 -0.0087647056
0.00069605769 0.0017490356 -0.00029411764
0.0053364425 0.0045474926 -0.0057058823
-0.00069605769 -0.0010494214 -0.0052352943
-0.005104423 0.0045474926 -0.003117647
0.01508125 -0.002215445 -0.0087647056
-0.022969903 -0.0043142876 -0.00029411764
0.013921154 0.0045474926 -0.0019411765
0.005104423 0.00034980712 -0.0026470588
-0.0090487497 -0.00034980712 -0.00029411764
0.0039443271 -0.0045474926 -0.0047647059
0.0085847117 -0.0045474926 -0.0021764706
-0.005104423 -0.0045474926 -0.003117647
-0.020417692 -0.003148264 -0.00029411764
0.0034802884 -0.002215445 -0.0087647056
0.013921154 0.0045474926 -0.0057058823
0.014849231 0.0045474926 -0.002882353
-0.013457116 0.0045474926 -0.001
0.0099768266 -0.00081621658 -0.0038235295
0.014617211 -0.00081621658 -0.0035882352
0.019257596 0.0019822402 -0.0087647056
0.015777308 0.0036146736 -0.0087647056
-0.022737885 0.0029150592 -0.0087647056
0.012297019 -0.00081621658 -0.0052352943
0.0097448081 0.0010494214 -0.0049999999
0.020649713 0.0043142876 -0.0073529412
-0.011600962 0.0015158309 0.00017647058
-0.0053364425 -0.0045474926 -0.0082941176
0.017401442 -0.00081621658 -0.0033529412
-0.0062645194 -0.0045474926 -0.0073529412
-0.010672885 -0.0045474926 -0.0082941176
0.013689134 -0.0045474926 -0.0073529412
-0.012297019 -0.00034980712 -0.00029411764
0.0071925963 -0.00011660237 -0.00029411764
-0.01183298 0.0045474926 -0.00076470588
-0.0090487497 -0.004081083 -0.00029411764
0.011600962 0.0010494214 -0.0087647056
-0.018561538 -0.0045474926 -0.0019411765
0.0067285579 -0.0015158309 -5.8823531e-05
0.019257596 -0.0045474926 -0.0024117648
0.020649713 -0.00081621658 -0.0045294119
-0.0055684615 -0.0045474926 -0.001
-0.00092807692 0.0045474926 -0.0085294116
-0.010440866 -0.002215445 -0.0087647056
0.023433942 -0.0036146736 -0.00029411764
0.010672885 -0.0026818546 -0.00029411764
0.018561538 0.0043142876 -0.0035882352
0.020417692 0.0024486498 -0.0087647056
-0.0097448081 -0.0045474926 -0.0082941176
-0.0097448081 -0.0045474926 -0.001
-0.016241346 -0.0010494214 0.00041176472
0.02413 0.0019822402 -0.0049999999
0.00023201923 -0.0045474926 -0.0049999999
-0.022737885 -0.00081621658 -0.0049999999
-0.0011600961 0.00058301183 -0.00029411764
0.021809807 0.0043142876 -0.0061764708
0.01531327 0.00011660237 -0.00029411764
-0.013225096 -0.0045474926 -0.0012352942
-0.012761057 0.0024486498 -0.00029411764
-0.0099768266 -0.004081083 -0.00029411764
-0.0071925963 0.0045474926 -0.0064117648
-0.016473366 -0.00011660237 -0.00029411764
0.00023201923 0.0045474926 -0.0059411763
-0.0016241346 -0.00081621658 -0.0042941174
0.0011600961 -0.0012826261 0.00064705883
-0.022737885 -0.003148264 -0.0087647056
-0.015545288 0.0045474926 -0.0014705883
0.0027842307 0.00011660237 -0.0026470588
0.019257596 -0.0012826261 0.001117647
0.0078886542 0.0045474926 -0.0059411763
0.0027842307 0.0010494214 -0.0035882352
0.0018561538 0.0043142876 -0.00029411764
-0.01832952 0.0045474926 -0.0042941174
0.01832952 0.0043142876 -0.0026470588
-0.020185674 -0.00081621658 -0.0033529412
0.020881731 0.00058301183 -0.00029411764
-0.023201924 0.0015158309 -0.00029411764
0.0062645194 -0.0019822402 -0.0087647056
-0.018793557 0.00034980712 -0.0052352943
-0.023201924 0.00081621658 -0.002882353
0.0018561538 0.0045474926 -0.0024117648
-0.012993077 -0.0045474926 -0.0033529412
0.0067285579 -0.00011660237 -0.00029411764
0.02413 -0.0036146736 -0.00029411764
-0.010672885 0.0045474926 -0.0057058823
-0.010904904 -0.0045474926 -0.0014705883
0.021577789 0.00011660237 -0.0052352943
-0.020881731 -0.00081621658 -0.00029411764
-0.0018561538 0.0017490356 -0.00029411764
0.010440866 0.0045474926 -0.0075882352
0.013457116 -0.00034980712 -0.00029411764
-0.013457116 -0.0045474926 -0.0071176472
-0.010440866 -0.0017490356 -0.0087647056
-0.018793557 -0.0045474926 -0.0042941174
-0.019721635 -0.00081621658 -0.0042941174
-0.02413 0.0026818546 -0.0047647059
-0.023433942 0.0043142876 -0.0012352942
-0.013225096 -0.00034980712 -0.0054705883
0.018793557 -0.0038478782 -0.00029411764
-0.02413 0.0029150592 -0.0045294119
0.023665961 -0.004081083 -0.0085294116
-0.0078886542 -0.0045474926 -0.0075882352
0.004872404 -0.0045474926 -0.0014705883
0 -0.0024486498 -0.00029411764
0.01531327 0.0024486498 -0.00029411764
0.012529039 0.0010494214 -0.0052352943
-0.02413 -0.0015158309 -0.0040588235
-0.0081206728 0.0045474926 -0.0085294116
-0.004872404 -0.00081621658 -0.0087647056
0.013921154 0.0017490356 0.0020588236
-0.014849231 0.0010494214 -0.0033529412
0.011600962 0.00011660237 -0.0054705883
-0.019953653 -0.004081083 -0.00029411764
-0.00069605769 -0.0045474926 -0.0042941174
-0.02413 0.00011660237 -0.0061764708
-0.023665961 0.002215445 -0.0078235297
-0.0027842307 -0.0015158309 -0.00029411764
0.010904904 -0.0045474926 -0.0047647059
0.0055684615 0.0019822402 -0.00029411764
0.00069605769 0.0036146736 -0.0082941176
-0.018793557 0.0010494214 -0.0087647056
-0.023433942 -0.0043142876 -0.0033529412
-0.0067285579 -0.002215445 -0.00029411764
-0.0025522115 0.0045474926 -0.0026470588
-0.011136923 0.0010494214 -0.0038235295
0.019025577 0.0015158309 0.0025294118
0.014849231 -0.004081083 -0.00029411764
0.018793557 0.00058301183 -0.00029411764
0.018097499 0.0043142876 -0.0012352942
0.012761057 0.00081621658 -0.0054705883
-0.02413 0.0010494214 -0.0054705883
0.0046403846 -0.0045474926 -0.0049999999
0.022737885 -0.0045474926 -0.002882353
0.022505866 -0.0029150592 -0.00029411764
-0.0018561538 0.00034980712 -0.0026470588
-0.0069605769 0.0010494214 -0.0035882352
0.013921154 0.0045474926 -0.0082941176
-0.00092807692 0.004081083 -0.0082941176
0.0055684615 0.0033814688 -0.00029411764
-0.016705384 0.0045474926 -0.00076470588
0.0090487497 0.00058301183 -0.00029411764
0.0097448081 -0.0026818546 -0.00029411764
0.011136923 -0.00081621658 -0.0042941174
-0.0023201923 0.0038478782 -0.00029411764
-0.022969903 0.00034980712 -0.0087647056
-0.016705384 -0.0045474926 -0.0061764708
-0.011600962 -0.0019822402 -0.0087647056
-0.0090487497 -0.0015158309 0.001117647
0.019489616 -0.0045474926 -0.0033529412
-0.02134577 0.0033814688 -0.00029411764
-0.0032482692 -0.0045474926 -0.0019411765
-0.015545288 -0.0045474926 -0.0017058824
0.0013921154 0.0026818546 -0.00029411764
-0.010440866 0.0019822402 -0.0087647056
0.012529039 -0.0045474926 -0.0026470588
-0.012993077 0.0045474926 -0.0045294119
0.0041763461 -0.0045474926 -0.0019411765
0.0083526922 0.002215445 -0.00029411764
-0.0064965384 0.0045474926 -0.0075882352
0.023433942 -0.004081083 -0.0085294116
0.00092807692 -0.002215445 -0.00029411764
-0.019953653 0.0045474926 -0.0021764706
-0.01531327 0.0015158309 -0.00029411764
0.010208846 -0.0045474926 -0.0061764708
0.0013921154 -0.0010494214 -0.0052352943
-0.021577789 -0.0045474926 -0.0024117648
-0.0064965384 -0.0045474926 -0.001
0.0044083656 -0.00058301183 -0.0026470588
-0.0092807692 0.0045474926 -0.0049999999
0.0041763461 0.0045474926 -0.0026470588
0.022505866 0.0010494214 -0.0047647059
0.0060325 0.00081621658 -0.0087647056
0.004872404 0.0015158309 -0.00029411764
-0.020185674 -0.0045474926 -0.00052941177
0.00046403846 0.00011660237 -0.0057058823
-0.0032482692 0.0019822402 -0.00029411764
0.0097448081 0.0029150592 -0.0087647056
0.0023201923 0.0043142876 -0.00029411764
-0.0074246153 0.0045474926 -0.003117647
-0.018793557 -0.0010494214 0.0015882353
-0.014617211 0.0036146736 -0.00029411764
-0.005800481 -0.00034980712 -5.8823531e-05
-0.02413 -0.00081621658 -0.0017058824
-0.019257596 -0.0012826261 0.0022941176
-0.0055684615 0.0045474926 -0.0035882352
-0.0018561538 -0.0012826261 -0.0087647056
-0.02413 0.0019822402 -0.00052941177
0.0041763461 -0.0045474926 -0.0014705883
0.005800481 -0.00081621658 -0.0049999999
-0.019025577 -0.0010494214 -0.0089999996
-0.012065 -0.00034980712 -0.00029411764
0.0064965384 -0.00081621658 -0.0042941174
-0.0095127886 -0.0019822402 -0.00029411764
0.0064965384 -0.00081621658 0.0018235294
-0.0085847117 -0.0036146736 -0.00029411764
0.00069605769 0.0012826261 -0.0085294116
0.013225096 0.00058301183 -0.00029411764
-0.010672885 -0.0015158309 -0.0087647056
-0.0016241346 0.0045474926 -0.0045294119
0.0032482692 -0.0045474926 -0.0021764706
-0.02111375 0.0045474926 -0.0066470588
0.0071925963 0.0033814688 -0.00029411764
0.019953653 0.00058301183 -0.002882353
0.021577789 -0.0015158309 -0.00029411764
-0.0062645194 0.00011660237 -0.0054705883
0.0076566348 0.0010494214 -0.0038235295
-0.0023201923 -0.0045474926 -0.0040588235
-0.018097499 -0.0045474926 -0.0012352942
0.01183298 0.0015158309 -5.8823531e-05
-0.016241346 0.0036146736 -0.0087647056
-0.016705384 -0.0043142876 -0.0078235297
0.02413 -0.0010494214 -0.0035882352
-0.018793557 -0.0015158309 0.001117647
0.023897981 -0.00011660237 -0.002882353
0.019721635 0.0043142876 -0.0068823528
0.0088167312 0.0010494214 0.0015882353
0.019489616 0.0043142876 -0.0038235295
0.0034802884 0.0026818546 -0.00029411764
-0.0013921154 -0.0045474926 -0.0061764708
0.021809807 0.0017490356 -0.00029411764
-0.019489616 -0.0012826261 -0.00029411764
0.014153173 -0.0036146736 -0.0087647056
0.0025522115 -0.0017490356 -0.00029411764
-0.0011600961 0.0010494214 0.0020588236
-0.016473366 -0.00081621658 -0.0049999999
0.013689134 -0.00081621658 -0.003117647
0.0092807692 0.00011660237 -0.0054705883
-0.016241346 -0.0038478782 -0.00029411764
-0.0088167312 -0.00081621658 -0.002882353
-0.022737885 -0.0019822402 -0.0087647056
-0.012993077 -0.002215445 -0.00029411764
-0.0083526922 -0.00081621658 -0.0052352943
-0.0062645194 0.00034980712 -0.00029411764
-0.0055684615 0.0038478782 -0.0087647056
0.022273846 0.0043142876 -0.0035882352
0.014617211 0.0012826261 -0.0087647056
-0.014385193 -0.00058301183 -0.00029411764
-0.01832952 -0.0012826261 -0.00029411764
-0.020881731 -0.0015158309 -0.0087647056
-0.016241346 -0.0010494214 0.0022941176
0.013689134 0.0045474926 -0.0024117648
-0.02413 0.003148264 -0.0054705883
0.0062645194 -0.004081083 -0.0087647056
0.0081206728 0.0010494214 -0.002882353
-0.0037123077 0.00034980712 -0.00029411764
-0.018097499 -0.0043142876 -0.00029411764
0.013689134 0.0033814688 -0.0087647056
-0.02111375 0.0045474926 -0.0047647059
-0.0039443271 -0.0045474926 -0.0054705883
0.022969903 0.00081621658 -0.0052352943
-0.016937403 -0.00058301183 -0.00029411764
0.0011600961 -0.00081621658 -0.0087647056
0.02413 -0.0038478782 -0.0024117648
-0.0071925963 -0.00081621658 -0.0040588235
0.0092807692 -0.00081621658 -0.0038235295
0.022273846 0.00034980712 -0.0087647056
0.0078886542 0.0045474926 -0.0033529412
-0.0046403846 -0.00034980712 -0.0087647056
0.0020881731 -0.00081621658 -0.0049999999
-0.0095127886 -0.0045474926 -0.0040588235
-0.019025577 -0.0033814688 -0.0087647056
-0.023897981 -0.0015158309 -0.0078235297
0.016705384 -0.0029150592 -0.0087647056
0.020185674 0.0024486498 -0.00029411764
0.010208846 0.0015158309 -0.00029411764
0.0076566348 -0.00058301183 -0.0087647056
0.011368942 0.0045474926 -0.0042941174
0.0083526922 -0.0026818546 -0.00029411764
0.02413 0.0036146736 -0.00052941177
0.021577789 0.0043142876 -0.001
-0.0088167312 0.0045474926 -0.003117647
0.022505866 0.0012826261 -0.00029411764
0.019721635 -0.00081621658 -0.0049999999
-0.0034802884 -0.0017490356 -0.00029411764
0.0018561538 0.0029150592 -0.00029411764
-0.0062645194 -0.0045474926 -0.001
-0.015545288 0.0045474926 -0.0054705883
-0.0092807692 -0.0045474926 -0.00029411764
-0.0027842307 -0.0045474926 -0.0054705883
-0.023433942 -0.0017490356 -0.0087647056
-0.004872404 -0.0045474926 -0.0071176472
0.02413 -0.0036146736 -0.0054705883
-0.014385193 -0.00034980712 -0.002882353
0.019025577 0.0010494214 0.0015882353
0.019025577 0.0010494214 0.00088235294
-0.01508125 -0.0045474926 -0.0040588235
0.02413 -0.0012826261 -0.0061764708
0.00301625 0.0024486498 -0.0085294116
0.01183298 -0.0045474926 -0.0085294116
0.018561538 0.0043142876 -0.0064117648
0.01183298 0.0045474926 -0.001
-0.0023201923 -0.0033814688 -0.00029411764
0.022041827 -0.00081621658 -0.0035882352
-0.0023201923 -0.0036146736 -0.0087647056
0.021809807 0.0043142876 -0.0045294119
-0.017633462 -0.0045474926 -0.0049999999
0.020185674 0.0010494214 -0.0042941174
0.00069605769 -0.00058301183 -0.0087647056
-0.016473366 0.0045474926 -0.0024117648
-0.0023201923 -0.0045474926 -0.0078235297
-0.005800481 -0.0045474926 -0.0059411763
-0.0097448081 -0.0043142876 -0.00029411764
0.014617211 -0.00034980712 -0.002882353
-0.02413 -0.003148264 -0.0042941174
-0.011136923 -0.00058301183 -0.0026470588
0.011368942 -0.00011660237 -0.0026470588
-0.018097499 0.0045474926 -0.0073529412
0.0025522115 -0.0043142876 -0.00029411764
0.017401442 0.0010494214 -0.0087647056
-0.0027842307 -0.00058301183 -0.0026470588
-0.0018561538 -0.0017490356 -0.00029411764
-0.0069605769 -0.0045474926 -0.0087647056
-0.0020881731 0.00058301183 -0.00029411764
0.01183298 -0.00034980712 -5.8823531e-05
-0.020649713 -0.0045474926 -0.002882353
-0.02413 0.0036146736 -0.0040588235
-0.0069605769 -0.002215445 -0.0087647056
-0.012761057 -0.002215445 -0.0087647056
-0.0025522115 -0.0026818546 -0.0087647056
-0.019489616 -0.0019822402 -0.00029411764
-0.00023201923 -0.0045474926 -0.0024117648
-0.013457116 -0.0045474926 -0.0068823528
-0.023897981 0.00011660237 -0.0064117648
0.02413 -0.0019822402 -0.0049999999
0.00023201923 0.0045474926 -0.0057058823
0.00092807692 0.0045474926 -0.002882353
-0.017401442 -0.00081621658 -0.0038235295
-0.016473366 0.0045474926 -0.0012352942
-0.023897981 -0.003148264 -0.00029411764
-0.01508125 -0.0015158309 -0.0087647056
0.0027842307 0.0026818546 -0.00029411764
-0.011600962 0.0017490356 0.0020588236
-0.0083526922 -0.0015158309 -0.0087647056
0.0034802884 0.0043142876 -0.00029411764
0.019721635 -0.0045474926 -0.0073529412
-0.019721635 -0.0012826261 -0.00029411764
0.023433942 -0.0043142876 -0.0047647059
-0.005800481 -0.00058301183 -0.0026470588
-0.005800481 -0.004081083 -0.00029411764
-0.016705384 -0.0012826261 0.0013529412
-0.0088167312 -0.0029150592 -0.00029411764
-0.0018561538 0.00081621658 -5.8823531e-05
-0.02134577 0.0036146736 -0.0087647056
-0.0020881731 -0.00081621658 -0.0035882352
-0.021809807 0.0045474926 -0.0021764706
-0.017865481 0.0045474926 -0.0078235297
0.0062645194 -0.00034980712 -0.00029411764
-0.02413 0.00034980712 -0.0024117648
0.018097499 0.0043142876 -0.0017058824
-0.0034802884 -0.0045474926 -0.0021764706
-0.0078886542 0.0045474926 -0.0064117648
0.005800481 -0.0045474926 -0.0052352943
0.02413 -0.0019822402 -0.0012352942
0.02413 -0.0026818546 -0.0012352942
-0.023433942 -0.004081083 -0.0080588236
0.0020881731 -0.0045474926 -0.00076470588
-0.0064965384 0.0015158309 0.00041176472
0.017401442 0.0010494214 -0.0042941174
0.00023201923 -0.0010494214 -0.0038235295
0.020881731 -0.0045474926 -0.0052352943
0.02413 -0.0019822402 -0.0019411765
0.0076566348 0.0010494214 -0.0052352943
0.016473366 0.0043142876 -0.0080588236
0.023665961 0.0036146736 -0.0075882352
0.0032482692 0.00034980712 -0.0087647056
-0.0062645194 0.0010494214 0.001117647
-0.01531327 -0.0045474926 -0.0021764706
0.00023201923 -0.002215445 -0.0087647056
0.0097448081 -0.00081621658 -0.0035882352
-0.023665961 0.0010494214 -0.0049999999
0.022969903 -0.0043142876 -0.0035882352
-0.0095127886 0.00034980712 -0.00029411764
-0.02413 0.0015158309 -0.00052941177
-0.022041827 -0.00081621658 -0.0087647056
-0.011136923 0.0045474926 -0.0080588236
-0.013457116 0.00011660237 -0.0087647056
0.021577789 -0.0045474926 -0.0068823528
-0.0081206728 -0.0045474926 -0.00076470588
0.02413 0.00034980712 -0.0059411763
-0.012993077 -0.00081621658 -0.0042941174
-0.0069605769 -0.0033814688 -0.0087647056
-0.0060325 -0.00011660237 -0.0087647056
-0.00023201923 0.0036146736 -5.8823531e-05
0.013225096 0.00081621658 -0.0087647056
0.023665961 -0.004081083 -0.00029411764
0.0053364425 -0.0045474926 -0.0082941176
0.0037123077 -0.0010494214 0.001117647
0.0046403846 -0.0026818546 -0.0087647056
0.016009327 0.0043142876 -0.00052941177
0.018097499 -0.0038478782 -0.00029411764
0.0025522115 0.0024486498 -0.0085294116
-0.005104423 0.0045474926 -0.0026470588
0.014153173 -0.0045474926 -0.001
0.0020881731 0.0036146736 -0.0085294116
0.02413 -0.0036146736 -0.0038235295
0.0088167312 -0.0045474926 -0.0014705883
0.01832952 -0.0045474926 -0.0026470588
0.00092807692 -0.0045474926 -0.0042941174
0.00092807692 0.0045474926 -0.0080588236
0.0095127886 0.0036146736 -0.0087647056
0.0069605769 0.0045474926 -0.0047647059
-0.0055684615 -0.0045474926 -0.0054705883
0.0025522115 0.0010494214 -0.0052352943
0.016705384 -0.0010494214 0.0018235294
0.021577789 -0.0033814688 -0.00029411764
-0.022969903 -0.00011660237 -0.00029411764
0.011136923 -0.0010494214 0.0018235294
0.019257596 -0.0045474926 -0.00029411764
0.016705384 0.00034980712 -0.002882353
-0.01183298 0.00011660237 -0.0087647056
-0.0067285579 -0.0045474926 -0.00052941177
-0.0025522115 -0.0045474926 -0.0026470588
-0.016937403 -0.00058301183 -0.002882353
-0.0090487497 -0.0026818546 -0.00029411764
