# .PCD v0.7 - Point Cloud Data file format
VERSION 0.7
FIELDS x y z
SIZE 4 4 4
TYPE F F F
COUNT 1 1 1
WIDTH 1201
HEIGHT 1
VIEWPOINT 0 0 0 1 0 0 0
POINTS 1201
DATA ascii
-0.014848266 0.0053635132 -0.015012151
-0.025143063 -0.0041716215 -0.00026210057
-0.02791474 0.00099324319 -0.01341755
-0.011680636 -0.00059594592 -0.00026210057
0.023955202 -0.0029797298 -0.018201351
0.010492775 0.0073500001 -0.0066405004
0.00098988437 0.00019864865 0.0077108992
0.0093049137 -0.0073500001 -0.0026540007
-0.00019797689 0.0041716215 -0.013018901
0.026726879 0.00019864865 0.0077108992
0.030290462 -0.00019864865 0.0097041493
-0.014056358 0.0021851351 -0.01580945
0.023559248 0.00099324319 -0.018201351
-0.010888728 0.0073500001 -0.0018567005
-0.024351155 -0.0053635132 -0.0138162
0.024351155 -0.0065554054 -0.012620251
-0.023163294 -0.0073500001 -0.0078364508
0.014452312 -0.00059594592 -0.0178027
0.0049494221 0.0069527025 -0.013018901
0.0029696531 0.0057608108 -0.013018901
-0.014452312 -0.00019864865 -0.01421485
0.032666184 -0.0057608108 -0.015012151
-0.031082369 -0.0049662162 -0.013018901
0.031874277 -0.0073500001 -0.0094310502
-0.014056358 -0.0013905405 -0.016208101
-0.003365607 0.0033770269 -0.010627001
-0.032666184 -0.0041716215 -0.01421485
0.034249999 -0.0045689191 -0.0026540007
0.0089089591 -0.0073500001 -0.010228351
0.034249999 -0.0057608108 -0.0178027
-0.019995665 -0.0073500001 -0.0034513006
-0.031082369 -0.0045689191 -0.012620251
-0.0041575143 0.0037743242 -0.01102565
-0.00098988437 0.0029797298 -0.00026210057
-0.0053453757 -0.0049662162 -0.0138162
-0.024351155 -0.0053635132 -0.018201351
0.013660405 0.0029797298 -0.0114243
-0.028706647 -0.00019864865 0.00053519942
-0.016036127 -0.0073500001 -0.0098297009
-0.030290462 0.0037743242 -0.00026210057
0.031478323 -0.0013905405 -0.01182295
-0.031874277 -0.0069527025 -0.012620251
-0.011284682 -0.0033770269 -0.013018901
0.033854045 -0.00019864865 -0.0066405004
-0.033854045 0.0041716215 -0.0054445504
-0.029102601 -0.0017878378 -0.00026210057
0.031478323 0.0073500001 -0.00066075055
-0.031082369 0.0049662162 -0.013018901
0.010888728 -0.00019864865 0.00093384943
0.033854045 0.0061581079 -0.0066405004
0.029102601 -0.0021851351 -0.01341755
-0.018015895 -0.0073500001 -0.0014580506
0.022371387 -0.0073500001 -0.0074378005
-0.027122833 0.0053635132 -0.013018901
-0.029498555 -0.0073500001 -0.010228351
0.018807804 -0.0061581079 -0.013018901
-0.033062138 0.00019864865 -0.01341755
-0.0085130055 0.0065554054 -0.00026210057
0.031478323 0.0021851351 -0.012620251
-0.023559248 -0.0017878378 -0.00026210057
-0.0037615607 0.0069527025 -0.010228351
-0.023559248 -0.0073500001 -0.010627001
0.027518786 0.00059594592 -0.00026210057
-0.016828034 -0.0073500001 -0.012620251
-0.022371387 0.0073500001 -0.0086337505
-0.032666184 0.0029797298 -0.013018901
0.024351155 -0.0033770269 -0.012221601
-0.034249999 0.0053635132 -0.0034513006
-0.013660405 -0.0073500001 -0.0094310502
0.033854045 0.00019864865 -0.0014580506
0.024351155 0.0057608108 -0.017005401
0.0097008673 0.00019864865 0.0077108992
-0.0041575143 -0.0033770269 -0.014613501
0.011284682 0.00059594592 -0.00026210057
0.02791474 0.0073500001 -0.00026210057
0.033854045 -0.0013905405 -0.0050459006
0.023955202 0.0041716215 -0.0178027
0.010492775 -0.0037743242 -0.00026210057
-0.0053453757 0.0073500001 -0.00026210057
-0.020391619 0.0025824325 -0.00026210057
0.00098988437 -0.00019864865 0.0093054995
-0.00059393066 0.0073500001 -0.013018901
-0.028310694 0.00019864865 0.013292
-0.014848266 0.0045689191 -0.00026210057
0.024747109 0.0017878378 -0.00026210057
-0.021975433 -0.0029797298 -0.00026210057
-0.00098988437 -0.00019864865 0.0097041493
-0.0049494221 -0.0073500001 -0.013018901
-0.019599712 0.00019864865 0.014089299
0.02791474 -0.0073500001 -0.0054445504
-0.0093049137 -0.0049662162 -0.013018901
-0.0041575143 -0.0049662162 -0.01740405
0.033854045 0.0033770269 -0.013018901
0.01643208 0.0073500001 -0.0066405004
0.0037615607 0.0073500001 -0.0070391507
0.028310694 0.0037743242 -0.00026210057
-0.019203758 0.0073500001 -0.0042486005
-0.020787572 0.0033770269 -0.00026210057
0.014056358 -0.00099324319 -0.015012151
-0.014848266 0.0065554054 -0.01580945
-0.003365607 0.0029797298 -0.012221601
0.025539018 0.00059594592 -0.013018901
0.0053453757 -0.00059594592 -0.01660675
0.015640173 0.00059594592 -0.00026210057
-0.033458091 0.00059594592 -0.015012151
0.003365607 -0.0049662162 -0.00026210057
-0.00059393066 -0.0069527025 -0.013018901
-0.0041575143 0.0017878378 -0.01102565
-0.023559248 0.0033770269 -0.015012151
-0.0057413294 0.0025824325 -0.00026210057
-0.0053453757 0.0057608108 -0.01182295
0.033854045 -0.0057608108 -0.0026540007
-0.018411851 0.0021851351 -0.00026210057
0.00059393066 0.0017878378 -0.00026210057
-0.012076589 -0.0073500001 -0.0074378005
0.0081170518 -0.0065554054 -0.013018901
0.012472543 -0.0073500001 -0.0042486005
-0.017619941 0.00019864865 0.00053519942
0.0037615607 -0.0029797298 -0.010228351
0.034249999 -0.0065554054 -0.016208101
-0.017223988 -0.0073500001 -0.0086337505
0.016036127 -0.0057608108 -0.00026210057
0.010096821 0.0065554054 -0.013018901
-0.014848266 0.0049662162 -0.01421485
-0.014452312 -0.0061581079 -0.017005401
0.026726879 -0.00059594592 -0.013018901
-0.024351155 0.0021851351 -0.0114243
-0.0089089591 0.0073500001 -0.012221601
0.024351155 -0.0061581079 -0.014613501
0.014848266 -0.0049662162 -0.0138162
0.014848266 -0.0065554054 -0.01660675
-0.018411851 -0.0073500001 -0.0074378005
0.0053453757 0.0025824325 -0.012221601
-0.034249999 0.0053635132 -0.0062418506
0.0045534684 -0.0065554054 -0.018201351
0.018015895 -0.0073500001 -0.00066075055
-0.0053453757 -0.0065554054 -0.016208101
0.011284682 0.0029797298 -0.00026210057
0.033854045 -0.00059594592 -0.0082351007
0.022371387 0.0021851351 -0.01102565
0.029102601 -0.0073500001 -0.0026540007
0.00059393066 -0.0037743242 -0.013018901
0.0073251445 0.0073500001 -0.0066405004
0.0029696531 0.0033770269 -0.00026210057
0.020787572 -0.00019864865 -0.00026210057
-0.032666184 -0.0065554054 -0.0154108
0.0069291908 0.0073500001 -0.010228351
-0.023955202 0.0073500001 -0.0030526505
-0.016036127 0.0073500001 -0.0074378005
-0.023559248 0.0021851351 -0.0154108
-0.014056358 0.0017878378 -0.0178027
-0.00019797689 0.0073500001 -0.0034513006
-0.0013858381 -0.00059594592 -0.00026210057
0.02157948 -0.0057608108 -0.013018901
0.023163294 -0.0069527025 -0.00026210057
0.023163294 0.0037743242 -0.01660675
0.012868498 0.0073500001 -0.0026540007
-0.013660405 -0.0025824325 -0.01580945
-0.014452312 -0.0037743242 -0.0178027
-0.02791474 -0.0061581079 -0.00026210057
-0.023955202 0.0017878378 -0.01182295
-0.00019797689 0.00019864865 0.0017311494
0.023955202 0.0049662162 -0.0154108
0.029102601 -0.00019864865 0.0085081998
0.0061372831 0.00099324319 -0.01102565
-0.0061372831 0.0029797298 -0.010228351
-0.033854045 -0.0033770269 -0.01740405
0.033854045 0.0025824325 -0.0022553506
0.0073251445 -0.0073500001 -0.0014580506
-0.014848266 0.0073500001 -0.012620251
0.018015895 -0.0045689191 -0.013018901
0.0069291908 -0.0073500001 -0.012221601
-0.011284682 0.0057608108 -0.013018901
-0.01643208 0.0017878378 -0.013018901
-0.010096821 -0.00019864865 0.0049203495
-0.014452312 -0.0033770269 -0.0154108
0.033458091 0.0061581079 -0.0030526505
-0.03227023 0.0073500001 -0.0010594005
0.033458091 -0.0065554054 -0.00026210057
-0.017223988 0.0073500001 -0.0090324003
-0.019203758 0.0073500001 -0.0038499506
0.028706647 0.00019864865 0.014089299
0.0089089591 -0.0013905405 -0.00026210057
-0.023163294 0.0057608108 -0.01660675
-0.0085130055 -0.0065554054 -0.013018901
0.0061372831 -0.0073500001 -0.0066405004
-0.023163294 0.0053635132 -0.0138162
-0.0041575143 0.0049662162 -0.01660675
0.0041575143 -0.0037743242 -0.01102565
0.003365607 0.0021851351 -0.012221601
-0.014452312 0.0073500001 -0.01421485
-0.023955202 -0.0073500001 -0.00026210057
-0.003365607 -0.0025824325 -0.01182295
0.015244219 -0.0073500001 -0.0038499506
-0.010492775 0.00019864865 0.00013654944
0.033854045 0.00019864865 -0.0042486005
-0.020391619 -0.00019864865 0.0021297995
-0.018015895 -0.0033770269 -0.013018901
0.02157948 -0.0073500001 -0.01182295
-0.0061372831 -0.0049662162 -0.00026210057
0.025539018 0.0073500001 -0.013018901
-0.011680636 -0.0029797298 -0.00026210057
-0.012472543 -0.0017878378 -0.00026210057
-0.018015895 0.0037743242 -0.00026210057
0.0077210981 0.0073500001 -0.0050459006
-0.012868498 -0.0073500001 -0.010228351
0.025934972 -0.0021851351 -0.00026210057
-0.011680636 0.00019864865 -0.01341755
-0.010492775 -0.0033770269 -0.00026210057
-0.010492775 -0.0073500001 -0.013018901
-0.0029696531 0.0041716215 -0.00026210057
-0.00098988437 -0.0069527025 -0.00026210057
0.014452312 0.0029797298 -0.017005401
-0.0013858381 0.0013905405 -0.01341755
0.0053453757 -0.0073500001 -0.0070391507
0.029102601 0.0041716215 -0.013018901
0.011680636 -0.0045689191 -0.013018901
-0.013660405 -0.0065554054 -0.01421485
-0.018807804 0.00019864865 0.0057176496
0.03227023 -0.0017878378 -0.0114243
-0.032666184 0.0073500001 -0.0026540007
-0.029102601 -0.00019864865 0.0089068497
-0.02157948 -0.0021851351 -0.00026210057
-0.022371387 -0.0073500001 -0.010228351
0.0041575143 0.0017878378 -0.016208101
-0.0021777456 -0.0069527025 -0.0022553506
-0.015640173 0.0073500001 -0.010627001
0.024747109 0.0073500001 -0.0042486005
0.027518786 0.0017878378 -0.00026210057
-0.0081170518 0.0073500001 -0.0014580506
0.0021777456 -0.0041716215 -0.00026210057
0.0085130055 -0.00019864865 0.0021297995
-0.019995665 -0.0073500001 -0.01102565
-0.027518786 -0.0053635132 -0.013018901
-0.0069291908 -0.0073500001 -0.0086337505
0.0085130055 -0.00019864865 0.0025284495
0.023163294 0.0065554054 -0.015012151
-0.033458091 -0.0049662162 -0.0022553506
0.00098988437 -0.00099324319 -0.00026210057
-0.021975433 0.0073500001 -0.0070391507
0.021183526 -0.0073500001 -0.01182295
-0.013660405 -0.00019864865 -0.01341755
-0.019599712 -0.00019864865 0.0097041493
-0.0025736995 -0.0073500001 -0.010627001
-0.031478323 0.0049662162 -0.012620251
0.00019797689 -0.00019864865 0.0037243995
0.031082369 -0.0041716215 -0.013018901
-0.028310694 -0.0073500001 -0.0090324003
0.025143063 -0.0073500001 -0.0062418506
-0.0049494221 -0.0021851351 -0.00026210057
-0.011284682 -0.0073500001 -0.0038499506
0.025934972 -0.0073500001 -0.0094310502
-0.018807804 -0.00019864865 0.0057176496
-0.031082369 -0.0065554054 -0.012620251
0.029102601 -0.0057608108 -0.013018901
-0.02791474 -0.00019864865 0.0025284495
-0.033062138 -0.0037743242 -0.01580945
-0.010096821 -0.00019864865 -0.01341755
-0.016036127 -0.0017878378 -0.013018901
-0.030686416 -0.0065554054 -0.013018901
0.012076589 0.0073500001 -0.0078364508
0.024351155 0.0049662162 -0.014613501
0.0053453757 -0.00059594592 -0.012620251
0.033854045 -0.00099324319 -0.015012151
-0.0053453757 0.0033770269 -0.01102565
-0.02791474 -0.0073500001 -0.012221601
-0.0041575143 -0.00019864865 -0.018201351
0.031874277 0.0041716215 -0.00026210057
-0.0041575143 -0.0037743242 -0.014613501
-0.03227023 -0.0045689191 -0.01182295
-0.00059393066 0.0073500001 -0.0034513006
0.022371387 0.0069527025 -0.00026210057
-0.033854045 0.00019864865 -0.010228351
-0.0089089591 -0.00019864865 0.0061162994
-0.029498555 -0.0073500001 -0.0010594005
-0.003365607 -0.0057608108 -0.010627001
-0.03227023 -0.0073500001 -0.0030526505
0.01643208 0.0073500001 -0.012221601
-0.031478323 0.0073500001 -0.0010594005
0.021975433 0.0013905405 -0.013018901
-0.033854045 -0.0045689191 -0.00026210057
0.0085130055 0.00019864865 0.0061162994
-0.0093049137 0.0073500001 -0.0114243
0.031478323 0.0017878378 -0.013018901
0.013660405 0.0029797298 -0.0138162
-0.023163294 -0.0069527025 -0.01660675
-0.012868498 -0.0029797298 -0.013018901
0.030290462 -0.0073500001 -0.0026540007
0.029498555 -0.0073500001 -0.0026540007
-0.00019797689 0.0073500001 -0.0030526505
0.032666184 -0.0033770269 -0.00026210057
0.023955202 -0.0073500001 -0.0094310502
-0.0073251445 -0.00019864865 -0.00026210057
-0.023559248 -0.0029797298 -0.01421485
-0.023559248 -0.0021851351 -0.018201351
0.033854045 0.0017878378 -0.0054445504
0.0085130055 -0.0025824325 -0.00026210057
0.0045534684 0.0073500001 -0.013018901
0.023163294 -0.0053635132 -0.014613501
0.0029696531 -0.0069527025 -0.012620251
-0.027518786 -0.0073500001 -0.00066075055
-0.025934972 0.0041716215 -0.012620251
0.033854045 -0.0013905405 -0.0074378005
-0.033458091 -0.0057608108 -0.00026210057
-0.003365607 0.0025824325 -0.01102565
-0.034249999 0.0069527025 -0.013018901
0.033854045 0.00059594592 -0.017005401
-0.0045534684 0.00099324319 -0.018201351
0.026330926 -0.0073500001 -0.0018567005
-0.0041575143 0.0069527025 -0.00026210057
-0.014848266 -0.0037743242 -0.01341755
0.014452312 -0.0021851351 -0.00026210057
-0.0089089591 0.0073500001 -0.0046472503
0.013264451 0.0037743242 -0.00026210057
-0.0089089591 -0.00019864865 0.0037243995
0.016036127 0.0073500001 -0.0074378005
0.023163294 0.0065554054 -0.01740405
0.010096821 -0.00019864865 0.0097041493
-0.015640173 -0.0073500001 -0.012221601
0.030290462 0.00019864865 0.00053519942
0.017223988 0.00019864865 0.00053519942
-0.010888728 -0.00019864865 0.011697399
-0.003365607 -0.0045689191 -0.0114243
0.010096821 0.0073500001 -0.010627001
0.018015895 -0.00019864865 0.010501449
-0.033854045 0.0013905405 -0.012221601
0.019995665 -0.0073500001 -0.0090324003
0.013660405 -0.0041716215 -0.012221601
-0.014452312 0.00099324319 -0.0138162
-0.010096821 0.00099324319 -0.00026210057
-0.0017817919 0.00019864865 0.010102799
-0.03227023 -0.0073500001 -0.0046472503
-0.0077210981 -0.00099324319 -0.01341755
-0.030686416 0.0069527025 -0.013018901
-0.0073251445 -0.0073500001 -0.0046472503
0.023559248 0.0021851351 -0.01421485
-0.013660405 -0.0053635132 -0.013018901
0.028310694 0.0073500001 -0.0046472503
-0.0065332372 -0.0073500001 -0.0082351007
-0.014056358 0.0017878378 -0.00026210057
-0.0053453757 0.0033770269 -0.015012151
-0.00098988437 -0.0073500001 -0.0066405004
0.017619941 0.00019864865 0.0037243995
-0.0041575143 -0.00099324319 -0.015012151
-0.0093049137 0.0029797298 -0.013018901
0.019599712 0.0017878378 -0.01341755
0.0097008673 -0.0073500001 -0.0046472503
0.02157948 0.0073500001 -0.0050459006
-0.028310694 -0.00019864865 0.010501449
-0.028310694 -0.0073500001 -0.0018567005
-0.0049494221 0.0021851351 -0.018201351
-0.027122833 -0.0073500001 -0.012221601
-0.0097008673 0.0049662162 -0.013018901
0.01643208 -0.0061581079 -0.013018901
-0.031082369 -0.0073500001 -0.012620251
-0.0053453757 0.0057608108 -0.016208101
-0.0053453757 0.0037743242 -0.00026210057
-0.00019797689 -0.0053635132 -0.00026210057
0.003365607 -0.0073500001 -0.0026540007
0.030290462 0.00019864865 0.00093384943
0.022371387 -0.00099324319 -0.01182295
-0.023559248 0.0025824325 -0.015012151
-0.010492775 0.0045689191 -0.00026210057
0.019995665 -0.0057608108 -0.013018901
-0.031082369 0.0057608108 -0.013018901
-0.033854045 0.0017878378 -0.0050459006
0.011680636 -0.0073500001 -0.0070391507
0.014848266 -0.0057608108 -0.00026210057
0.019203758 -0.0029797298 -0.013018901
0.017619941 -0.00019864865 0.0033257494
0.0077210981 -0.0073500001 -0.0094310502
0.0045534684 0.00099324319 -0.00026210057
0.0061372831 -0.0073500001 -0.0074378005
0.014848266 -0.0057608108 -0.0138162
-0.00019797689 0.00019864865 0.015285249
0.018411851 0.00019864865 0.0109001
0.033458091 -0.0057608108 -0.013018901
0.0041575143 -0.00059594592 -0.016208101
-0.020787572 -0.00019864865 0.010501449
0.028706647 0.0073500001 -0.0086337505
-0.0065332372 -0.0061581079 -0.00026210057
0.013660405 -0.0049662162 -0.0138162
-0.0041575143 -0.0033770269 -0.0114243
0.003365607 -0.00059594592 -0.010228351
-0.0089089591 -0.00019864865 0.014089299
0.0017817919 0.0073500001 -0.0114243
0.019995665 0.00019864865 0.00013654944
-0.025143063 -0.0065554054 -0.013018901
-0.032666184 -0.0041716215 -0.013018901
0.033854045 -0.00099324319 -0.0094310502
0.014056358 -0.0021851351 -0.01740405
0.012076589 -0.00019864865 -0.00026210057
0.029498555 0.0073500001 -0.01102565
-0.014452312 -0.0057608108 -0.01341755
-0.029498555 -0.0017878378 -0.00026210057
0.033458091 -0.0073500001 -0.0030526505
0.011680636 -0.0061581079 -0.00026210057
-0.01643208 0.0073500001 -0.010627001
0.013660405 0.0045689191 -0.016208101
0.028706647 0.0073500001 -0.0054445504
0.024351155 -0.0061581079 -0.00026210057
-0.029498555 0.0073500001 -0.013018901
0.011680636 -0.0041716215 -0.00026210057
0.033458091 0.0033770269 -0.018201351
0.030686416 -0.0073500001 -0.0022553506
-0.014452312 -0.0013905405 -0.01341755
0.0013858381 -0.0073500001 -0.0082351007
0.003365607 0.0033770269 -0.01102565
0.023163294 0.0065554054 -0.01660675
-0.018807804 0.0033770269 -0.00026210057
-0.022371387 -0.0073500001 -0.0058432007
0.023955202 -0.0021851351 -0.0178027
-0.0041575143 0.0029797298 -0.013018901
0.013264451 -0.0073500001 -0.00026210057
-0.0081170518 -0.0073500001 -0.0090324003
-0.032666184 0.0053635132 -0.015012151
0.0021777456 0.0073500001 -0.00066075055
0.023559248 0.0013905405 -0.017005401
-0.0085130055 0.00099324319 -0.00026210057
-0.018807804 0.0061581079 -0.013018901
0.034249999 0.0069527025 -0.0074378005
-0.012472543 0.0073500001 -0.012620251
-0.0069291908 -0.0073500001 -0.012221601
-0.010492775 0.00019864865 0.0021297995
-0.027518786 0.00019864865 0.010501449
-0.025934972 0.0069527025 -0.00026210057
-0.019995665 0.00019864865 0.0081095491
-0.032666184 -0.0029797298 -0.0114243
-0.00059393066 0.00019864865 0.00093384943
-0.030290462 -0.00019864865 0.0077108992
0.034249999 -0.0049662162 -0.016208101
0.023163294 0.0065554054 -0.018201351
-0.011284682 -0.0073500001 -0.010228351
-0.020391619 -0.0073500001 -0.0042486005
0.023559248 0.0033770269 -0.01182295
0.0037615607 0.0041716215 -0.010228351
-0.010492775 -0.0053635132 -0.00026210057
0.010888728 -0.0025824325 -0.00026210057
-0.019599712 -0.0073500001 -0.0034513006
0.0061372831 0.0021851351 -0.01182295
-0.0041575143 0.0037743242 -0.016208101
0.013660405 0.0013905405 -0.017005401
0.011680636 0.0073500001 -0.0074378005
-0.0013858381 -0.0049662162 -0.013018901
0.015640173 -0.0073500001 -0.0094310502
-0.014056358 -0.0021851351 -0.01740405
-0.026726879 -0.0033770269 -0.013018901
0.0053453757 0.0061581079 -0.01421485
0.031082369 0.0041716215 -0.013018901
0.003365607 -0.0073500001 -0.0030526505
-0.0053453757 0.0045689191 -0.017005401
0.011680636 -0.0041716215 -0.013018901
0.014848266 -0.0037743242 -0.016208101
0.0029696531 0.00099324319 -0.012620251
-0.0057413294 0.0069527025 -0.0098297009
-0.00059393066 -0.0053635132 -0.00026210057
0.0053453757 -0.0073500001 -0.0026540007
-0.023163294 -0.0065554054 -0.017005401
-0.029102601 0.0073500001 -0.0086337505
0.028706647 -0.0073500001 -0.0042486005
-0.010096821 -0.00019864865 0.00013654944
0.0085130055 -0.0073500001 -0.012620251
0.012472543 0.0073500001 -0.0046472503
-0.022767341 0.0037743242 -0.0114243
0.010888728 0.0073500001 -0.01182295
-0.033854045 -0.0065554054 -0.00026210057
-0.012076589 0.0041716215 -0.00026210057
-0.023559248 -0.0037743242 -0.0178027
0.013264451 -0.0073500001 -0.0046472503
0.023559248 -0.0073500001 -0.0114243
-0.029102601 -0.00019864865 0.013292
0.015244219 -0.0073500001 -0.01102565
0.0021777456 -0.0073500001 -0.0054445504
-0.0065332372 0.0053635132 -0.00026210057
-0.0077210981 0.00019864865 0.0013324994
-0.030290462 0.0073500001 -0.0078364508
0.023163294 0.0037743242 -0.0138162
0.025143063 -0.00019864865 -0.01182295
0.033854045 0.0057608108 -0.0082351007
-0.024351155 -0.0053635132 -0.01660675
0.033854045 0.0037743242 -0.0154108
0.032666184 0.0045689191 -0.018201351
0.019995665 0.0073500001 -0.0038499506
0.026726879 -0.0073500001 -0.0098297009
0.027518786 -0.0073500001 -0.0074378005
-0.033062138 -0.0073500001 -0.015012151
0.0053453757 0.0025824325 -0.0138162
0.0089089591 -0.0073500001 -0.0010594005
0.0049494221 0.0073500001 -0.01102565
-0.014056358 -0.00059594592 -0.01580945
0.0041575143 0.00059594592 -0.01102565
-0.023955202 0.0061581079 -0.0154108
0.03227023 -0.0073500001 -0.00026210057
-0.023955202 0.0037743242 -0.01740405
0.033854045 -0.0013905405 -0.015012151
-0.033854045 -0.0029797298 -0.0038499506
-0.0049494221 0.0045689191 -0.00026210057
0.0093049137 -0.0061581079 -0.013018901
-0.013660405 -0.0073500001 -0.00026210057
-0.02791474 0.00059594592 -0.00026210057
-0.033458091 -0.0053635132 -0.00026210057
0.003365607 0.00059594592 -0.010627001
-0.0053453757 -0.0037743242 -0.0178027
0.0061372831 0.0073500001 -0.0086337505
0.0085130055 0.0073500001 -0.00066075055
-0.034249999 0.0065554054 -0.0062418506
0.014056358 -0.0033770269 -0.018201351
-0.033854045 0.0013905405 -0.0038499506
-0.014452312 0.0049662162 -0.00026210057
-0.031874277 -0.00099324319 -0.01182295
0.028706647 0.0073500001 -0.012620251
0.023559248 -0.0069527025 -0.00026210057
0.0053453757 -0.00059594592 -0.014613501
0.010096821 0.0073500001 -0.0030526505
0.014056358 -0.00099324319 -0.0178027
-0.017619941 0.0021851351 -0.00026210057
0.013660405 0.0037743242 -0.017005401
-0.00098988437 0.0073500001 -0.0038499506
0.012076589 0.0017878378 -0.00026210057
-0.022371387 0.0049662162 -0.012620251
0.033854045 -0.0021851351 -0.018201351
-0.023163294 -0.00059594592 -0.0114243
-0.023163294 -0.0049662162 -0.013018901
0.0021777456 -0.0073500001 -0.0074378005
0.01643208 -0.0013905405 -0.013018901
0.0053453757 -0.0049662162 -0.010627001
0.0077210981 0.00019864865 -0.01341755
0.020787572 -0.00019864865 0.0065149493
0.0057413294 0.0013905405 -0.0098297009
-0.031082369 0.0013905405 -0.013018901
-0.023955202 -0.0025824325 -0.01580945
0.013660405 -0.0073500001 -0.01102565
0.014056358 -0.0057608108 -0.017005401
-0.017619941 -0.0073500001 -0.0026540007
-0.02791474 0.0029797298 -0.013018901
0.0081170518 0.0061581079 -0.00026210057
-0.023559248 -0.00059594592 -0.0154108
0.02791474 0.0045689191 -0.013018901
0.033854045 0.0049662162 -0.01421485
0.018411851 0.00019864865 0.00093384943
0.010096821 0.0073500001 -0.0018567005
0.0049494221 -0.0073500001 -0.010627001
-0.031082369 -0.0073500001 -0.00026210057
-0.025143063 0.0073500001 -0.0010594005
-0.0053453757 -0.0073500001 -0.012620251
0.019203758 -0.0073500001 -0.0098297009
-0.034249999 0.0069527025 -0.0154108
-0.0065332372 0.0033770269 -0.012221601
-0.014452312 0.0037743242 -0.018201351
-0.027122833 0.0073500001 -0.0114243
0.0097008673 0.0021851351 -0.00026210057
0.033854045 -0.0025824325 -0.0018567005
0.020391619 0.0073500001 -0.0050459006
0.0049494221 -0.0021851351 -0.018201351
-0.0081170518 -0.0073500001 -0.0030526505
0.031874277 -0.0073500001 -0.0070391507
-0.011680636 0.0073500001 -0.0018567005
0.029498555 0.00019864865 0.0045216996
0.033062138 0.0073500001 -0.0038499506
0.0053453757 -0.0069527025 -0.016208101
-0.0021777456 0.0061581079 -0.00026210057
0.010888728 -0.0073500001 -0.01102565
0.033854045 -0.0033770269 -0.017005401
-0.01643208 -0.0073500001 -0.012620251
0.019599712 0.0065554054 -0.00026210057
0.028706647 0.0073500001 -0.0018567005
-0.023955202 0.0037743242 -0.0154108
-0.024351155 -0.0057608108 -0.0154108
-0.031874277 0.0021851351 -0.00026210057
-0.020787572 -0.00019864865 0.010102799
-0.027122833 -0.0033770269 -0.00026210057
-0.0065332372 0.0029797298 -0.00026210057
0.0017817919 -0.0073500001 -0.0098297009
0.024747109 0.0057608108 -0.00026210057
0.033062138 0.0017878378 -0.0178027
-0.016828034 -0.0073500001 -0.0074378005
0.016828034 -0.0073500001 -0.0066405004
-0.0081170518 -0.00019864865 0.0077108992
0.0085130055 -0.00059594592 -0.00026210057
0.033062138 0.0065554054 -0.00026210057
-0.014848266 0.0049662162 -0.01740405
-0.0089089591 0.0073500001 -0.0086337505
-0.025143063 0.0017878378 -0.01182295
0.022767341 0.0073500001 -0.0014580506
0.0017817919 -0.0073500001 -0.0054445504
-0.0041575143 -0.0061581079 -0.016208101
0.015244219 0.0017878378 -0.00026210057
-0.010492775 0.0049662162 -0.00026210057
0.020787572 0.00019864865 0.0053189993
0.010492775 -0.00059594592 -0.00026210057
-0.033854045 -0.0021851351 -0.0094310502
-0.012868498 0.0045689191 -0.01102565
-0.0017817919 -0.0073500001 -0.0030526505
-0.026726879 -0.0013905405 -0.01341755
-0.0053453757 0.0069527025 -0.0014580506
-0.0037615607 -0.0029797298 -0.00026210057
0.00019797689 0.0073500001 -0.0090324003
0.025143063 -0.0049662162 -0.012620251
-0.0093049137 -0.00019864865 0.0049203495
0.033854045 -0.0061581079 -0.00026210057
-0.028706647 -0.0073500001 -0.0094310502
0.0045534684 0.0069527025 -0.014613501
0.0041575143 -0.0053635132 -0.01102565
0.029102601 -0.0065554054 -0.00026210057
0.017223988 -0.0061581079 -0.00026210057
0.023955202 -0.0013905405 -0.01421485
-0.033854045 0.0021851351 -0.01182295
0.0085130055 -0.0073500001 -0.0082351007
-0.0041575143 0.0061581079 -0.00026210057
0.014452312 0.0057608108 -0.01740405
0.024351155 -0.0073500001 -0.00066075055
-0.026726879 0.0029797298 -0.00026210057
0.0049494221 0.0065554054 -0.01341755
0.015640173 -0.0065554054 -0.00026210057
0.010492775 0.0037743242 -0.013018901
0.028706647 -0.0033770269 -0.013018901
0.034249999 -0.0057608108 -0.0058432007
0.02157948 0.0073500001 -0.0026540007
0.021183526 0.0073500001 -0.012620251
-0.026330926 -0.0037743242 -0.013018901
-0.0041575143 0.0037743242 -0.0138162
-0.033062138 0.0029797298 -0.01740405
-0.033854045 -0.0045689191 -0.012620251
-0.0053453757 0.0049662162 -0.015012151
-0.0081170518 -0.00019864865 0.0049203495
0.032666184 0.0057608108 -0.017005401
-0.012868498 -0.0021851351 -0.01102565
-0.03227023 -0.0049662162 -0.00026210057
-0.010492775 -0.0073500001 -0.00066075055
-0.013264451 -0.0073500001 -0.0058432007
0.033062138 -0.0049662162 -0.018201351
0.016828034 0.00019864865 -0.01341755
0.030290462 -0.0057608108 -0.013018901
-0.010096821 0.00019864865 0.0021297995
0.0053453757 0.00099324319 -0.01740405
-0.017619941 -0.0013905405 -0.00026210057
0.0049494221 0.0073500001 -0.0038499506
-0.0025736995 0.0073500001 -0.0054445504
-0.0041575143 -0.0021851351 -0.0154108
-0.016036127 -0.0041716215 -0.00026210057
0.025143063 0.0045689191 -0.013018901
0.014452312 0.0029797298 -0.0178027
0.03227023 0.0073500001 -0.010228351
0.017223988 -0.0073500001 -0.0090324003
0.010096821 -0.0073500001 -0.0062418506
0.0053453757 -0.0073500001 -0.0046472503
-0.030290462 -0.00019864865 0.012096049
-0.01643208 -0.0049662162 -0.013018901
0.029498555 -0.0029797298 -0.013018901
-0.0037615607 -0.0061581079 -0.00026210057
0.012472543 0.0049662162 -0.00026210057
-0.011284682 0.00019864865 0.0037243995
-0.0049494221 -0.00019864865 -0.018201351
0.012472543 -0.0013905405 -0.00026210057
0.030686416 0.0021851351 -0.00026210057
0.0089089591 0.0073500001 -0.0046472503
-0.026330926 -0.0073500001 -0.00066075055
0.00019797689 0.00019864865 0.012893349
-0.014056358 -0.00099324319 -0.01660675
0.017223988 -0.0073500001 -0.0046472503
0.033062138 0.00099324319 -0.01740405
-0.029102601 0.0017878378 -0.00026210057
-0.018807804 -0.0073500001 -0.0050459006
0.032666184 0.0061581079 -0.01660675
-0.0053453757 0.0013905405 -0.015012151
0.0045534684 0.0037743242 -0.014613501
-0.025539018 -0.0073500001 -0.0062418506
0.003365607 -0.0017878378 -0.012620251
-0.028310694 0.00019864865 0.0089068497
0.032666184 -0.0073500001 -0.0058432007
-0.019203758 0.00019864865 0.0025284495
0.0085130055 0.0061581079 -0.00026210057
0.013660405 -0.0041716215 -0.01182295
-0.025143063 -0.0049662162 -0.00026210057
-0.0061372831 0.00099324319 -0.010627001
0.032666184 0.0073500001 -0.010627001
0.015244219 -0.0061581079 -0.012221601
-0.029498555 -0.0021851351 -0.00026210057
0.03227023 -0.0073500001 -0.0046472503
0.014848266 -0.0057608108 -0.012620251
0.015244219 -0.0073500001 -0.0066405004
-0.014056358 0.0073500001 -0.01740405
-0.033854045 0.0025824325 -0.010627001
-0.019599712 -0.00059594592 -0.01341755
-0.033062138 -0.0069527025 -0.013018901
-0.026726879 0.00019864865 0.0013324994
-0.0077210981 -0.0053635132 -0.00026210057
-0.0041575143 0.00059594592 -0.012620251
-0.0065332372 -0.0073500001 -0.0070391507
0.023163294 0.0073500001 -0.0042486005
0.0017817919 -0.0069527025 -0.00026210057
-0.025143063 0.0073500001 -0.0094310502
0.012868498 -0.0017878378 -0.012620251
-0.022371387 0.0073500001 -0.013018901
0.019995665 -0.00019864865 0.0025284495
0.0089089591 0.00019864865 0.0017311494
0.0097008673 0.0069527025 -0.013018901
0.011680636 0.0073500001 -0.0018567005
-0.012076589 0.0073500001 -0.0098297009
-0.033854045 0.0021851351 -0.012221601
-0.033062138 0.0069527025 -0.015012151
0.003365607 0.0073500001 -0.010228351
-0.0053453757 -0.0029797298 -0.01660675
0.027518786 0.00019864865 0.0081095491
0.021183526 0.0073500001 -0.0098297009
-0.0053453757 0.0013905405 -0.01740405
-0.031082369 0.0073500001 -0.0090324003
-0.012472543 0.0073500001 -0.0030526505
0.011680636 0.0013905405 -0.013018901
0.015640173 0.0017878378 -0.01102565
0.033062138 -0.0065554054 -0.0138162
0.0081170518 -0.00019864865 0.0021297995
0.0061372831 0.0073500001 -0.0090324003
-0.016828034 0.0029797298 -0.00026210057
-0.023955202 -0.0073500001 -0.01102565
0.026330926 -0.0021851351 -0.013018901
0.023955202 -0.0041716215 -0.01740405
-0.0081170518 -0.0049662162 -0.013018901
0.033854045 0.0013905405 -0.0010594005
0.019599712 -0.0073500001 -0.0078364508
-0.010492775 0.0073500001 -0.01102565
0.00059393066 -0.00099324319 -0.00026210057
-0.012868498 0.0073500001 -0.0014580506
0.03227023 0.0073500001 -0.0010594005
0.014848266 0.0037743242 -0.01341755
-0.011284682 -0.00019864865 0.0085081998
0.0053453757 0.00019864865 -0.013018901
-0.0041575143 0.00059594592 -0.010228351
-0.021975433 -0.00019864865 -0.00026210057
0.024747109 0.0073500001 -0.0010594005
-0.024351155 0.0033770269 -0.0138162
0.033062138 -0.0033770269 -0.018201351
0.016828034 -0.0049662162 -0.013018901
-0.0041575143 -0.0053635132 -0.012620251
0.023955202 -0.0017878378 -0.018201351
-0.014452312 0.0021851351 -0.018201351
0.028706647 -0.0073500001 -0.0066405004
-0.029894508 0.0073500001 -0.010228351
-0.018015895 -0.0073500001 -0.010228351
-0.0073251445 0.0073500001 -0.0066405004
0.032666184 0.0057608108 -0.016208101
0.011284682 0.0073500001 -0.0014580506
0.012076589 -0.0073500001 -0.010627001
-0.0077210981 0.0073500001 -0.0070391507
0.00098988437 0.0049662162 -0.00026210057
0.0041575143 0.00099324319 -0.01740405
0.014848266 0.0033770269 -0.00026210057
-0.015640173 0.0073500001 -0.0050459006
0.023163294 -0.0017878378 -0.00026210057
0.017619941 0.0073500001 -0.0058432007
-0.019203758 -0.0073500001 -0.0034513006
-0.013660405 0.00099324319 -0.00026210057
-0.0025736995 0.0073500001 -0.0098297009
0.021975433 0.0073500001 -0.0018567005
0.033854045 -0.00059594592 -0.01660675
-0.010096821 -0.0073500001 -0.0082351007
0.0053453757 0.0029797298 -0.00026210057
-0.029102601 -0.0057608108 -0.00026210057
-0.022767341 0.0065554054 -0.01182295
-0.019599712 0.00019864865 0.00093384943
0.0041575143 0.0065554054 -0.012221601
0.0017817919 -0.0073500001 -0.0018567005
-0.025539018 -0.0073500001 -0.0114243
0.023559248 -0.0021851351 -0.0178027
-0.019203758 0.00019864865 0.010102799
-0.014056358 -0.00099324319 -0.0154108
0.00098988437 0.00019864865 0.0033257494
0.029102601 -0.00019864865 0.01369065
0.013660405 0.0053635132 -0.01740405
0.027122833 -0.0049662162 -0.013018901
0.025934972 0.0073500001 -0.010228351
0.023163294 0.0069527025 -0.0154108
-0.019203758 -0.00099324319 -0.00026210057
-0.021183526 -0.0013905405 -0.00026210057
-0.023955202 0.00059594592 -0.01182295
0.021183526 -0.0073500001 -0.0022553506
-0.0061372831 0.0037743242 -0.01182295
-0.0089089591 -0.00019864865 0.015285249
-0.025143063 0.00099324319 -0.01182295
0.0053453757 0.0029797298 -0.012221601
0.0073251445 -0.0013905405 -0.00026210057
-0.003365607 -0.00099324319 -0.00026210057
-0.033854045 0.00059594592 -0.016208101
0.022371387 0.0037743242 -0.00026210057
-0.020391619 -0.0073500001 -0.0070391507
-0.014848266 0.0033770269 -0.012620251
0.014056358 -0.0025824325 -0.0154108
0.017619941 0.0073500001 -0.00026210057
-0.013264451 0.0029797298 -0.00026210057
0.028706647 0.00019864865 0.012096049
-0.012472543 -0.0073500001 -0.0062418506
-0.024747109 -0.0073500001 -0.0030526505
-0.021975433 -0.0073500001 -0.0026540007
0.020787572 0.0069527025 -0.00026210057
-0.029102601 0.0073500001 -0.0022553506
0.014452312 0.0029797298 -0.0138162
0.033062138 0.0057608108 -0.018201351
-0.030290462 -0.0073500001 -0.0074378005
0.010096821 0.00019864865 0.00013654944
0.023163294 0.0057608108 -0.01341755
-0.017619941 0.00019864865 0.012096049
0.031874277 -0.0073500001 -0.012221601
-0.028310694 0.00019864865 0.0061162994
-0.033062138 0.0025824325 -0.016208101
-0.023163294 -0.0045689191 -0.018201351
0.014056358 0.0013905405 -0.01660675
0.0013858381 0.0073500001 -0.0086337505
0.00098988437 -0.0037743242 -0.013018901
0.014056358 -0.0061581079 -0.0178027
0.027518786 0.0073500001 -0.0078364508
0.010492775 0.0013905405 -0.01341755
0.0097008673 -0.0053635132 -0.00026210057
-0.023955202 0.0033770269 -0.015012151
-0.017619941 -0.00019864865 0.0065149493
0.034249999 -0.0045689191 -0.0046472503
-0.033062138 -0.0029797298 -0.01580945
0.023163294 -0.0025824325 -0.0114243
-0.027122833 -0.0021851351 -0.013018901
-0.019599712 -0.0061581079 -0.00026210057
-0.023559248 -0.00059594592 -0.0178027
-0.0053453757 -0.00019864865 -0.01341755
-0.020391619 -0.0073500001 -0.0094310502
0.029102601 -0.0073500001 -0.0066405004
0.0049494221 0.0065554054 -0.0014580506
0.029894508 0.00019864865 0.0029270994
-0.014452312 -0.0057608108 -0.017005401
0.0061372831 -0.0033770269 -0.010228351
-0.01643208 0.0025824325 -0.013018901
0.011284682 -0.00019864865 0.0109001
-0.030290462 0.0073500001 -0.0038499506
0.033062138 -0.0069527025 -0.00026210057
-0.031478323 -0.0061581079 -0.01182295
-0.0045534684 -0.0069527025 -0.01740405
-0.032666184 -0.0073500001 -0.0022553506
-0.0089089591 -0.00019864865 0.014886599
0.033062138 -0.00099324319 -0.00026210057
-0.033854045 0.0045689191 -0.01740405
-0.011284682 0.0073500001 -0.0058432007
-0.018807804 -0.00019864865 -0.01341755
0.033854045 0.0025824325 -0.0030526505
0.0053453757 -0.0073500001 -0.00026210057
-0.025934972 -0.0073500001 -0.0094310502
-0.020787572 -0.00019864865 0.0061162994
-0.021975433 -0.0073500001 -0.0082351007
-0.0053453757 0.0057608108 -0.0178027
-0.024351155 0.00019864865 -0.01182295
-0.013660405 -0.0073500001 -0.0034513006
-0.029498555 -0.0053635132 -0.00026210057
0.02791474 -0.0037743242 -0.00026210057
-0.033854045 -0.0025824325 -0.01740405
-0.0057413294 0.0045689191 -0.00026210057
0.0053453757 0.00019864865 -0.012221601
0.010888728 0.00019864865 0.0025284495
-0.019599712 -0.00019864865 0.010501449
-0.023559248 -0.0033770269 -0.014613501
0.0081170518 -0.00019864865 0.0037243995
-0.033854045 0.0021851351 -0.0026540007
-0.011680636 -0.0073500001 -0.0042486005
0.023559248 0.0041716215 -0.00026210057
0.014848266 -0.0049662162 -0.00026210057
-0.033854045 -0.0053635132 -0.0086337505
-0.027122833 -0.0073500001 -0.0018567005
-0.0093049137 -0.0073500001 -0.01182295
-0.015640173 0.0013905405 -0.00026210057
0.0029696531 0.0033770269 -0.012620251
0.0037615607 -0.0073500001 -0.0046472503
0.012472543 -0.0073500001 -0.0022553506
0.029894508 -0.00019864865 0.00053519942
-0.024351155 0.0065554054 -0.012620251
0.024351155 -0.0073500001 -0.0086337505
0.00019797689 -0.00019864865 0.0097041493
-0.023955202 0.0041716215 -0.0138162
-0.024351155 -0.0049662162 -0.01660675
-0.018015895 -0.0065554054 -0.00026210057
-0.0089089591 0.0073500001 -0.0062418506
0.0021777456 -0.0033770269 -0.00026210057
-0.031082369 -0.0069527025 -0.012620251
0.010096821 0.0053635132 -0.00026210057
0.022371387 0.0049662162 -0.012221601
-0.011284682 0.0073500001 -0.0078364508
0.033062138 -0.0061581079 -0.01341755
-0.029498555 -0.00019864865 0.0029270994
-0.030686416 -0.0073500001 -0.010228351
-0.033854045 -0.0037743242 -0.0078364508
-0.018411851 -0.0073500001 -0.0046472503
0.0073251445 0.0073500001 -0.0010594005
0.0069291908 0.0037743242 -0.00026210057
-0.016036127 0.00059594592 -0.013018901
-0.029498555 -0.0037743242 -0.013018901
0.023163294 -0.0013905405 -0.012620251
0.019995665 0.0065554054 -0.013018901
-0.011284682 -0.0073500001 -0.0042486005
-0.03227023 0.0073500001 -0.0098297009
0.02791474 0.0073500001 -0.0014580506
-0.024351155 0.0049662162 -0.01341755
0.02791474 -0.00059594592 -0.00026210057
0.031478323 0.0021851351 -0.00026210057
0.014056358 -0.0065554054 -0.016208101
-0.013660405 0.0073500001 -0.0098297009
-0.0053453757 -0.0041716215 -0.0154108
0.0053453757 0.0073500001 -0.0046472503
0.00098988437 -0.00019864865 0.0061162994
0.019995665 0.0073500001 -0.0074378005
0.014452312 0.0045689191 -0.01660675
0.017619941 0.0073500001 -0.013018901
0.033854045 0.0049662162 -0.0050459006
0.028310694 0.0073500001 -0.0018567005
0.014452312 0.0045689191 -0.015012151
-0.0041575143 -0.0013905405 -0.01421485
0.024747109 0.00099324319 -0.00026210057
-0.015640173 0.0021851351 -0.01182295
0.034249999 -0.0033770269 -0.0082351007
-0.0065332372 0.0073500001 -0.0082351007
0.011284682 -0.0073500001 -0.00026210057
-0.03227023 -0.0033770269 -0.01102565
-0.033854045 0.00059594592 -0.0178027
0.027122833 -0.0045689191 -0.00026210057
-0.013660405 -0.0033770269 -0.01580945
0.033854045 -0.0017878378 -0.0010594005
-0.029102601 0.00019864865 0.0045216996
0.003365607 0.0073500001 -0.0030526505
-0.015640173 -0.0073500001 -0.0014580506
-0.011284682 0.00019864865 0.0093054995
-0.033854045 -0.00059594592 -0.00026210057
0.033854045 0.0049662162 -0.017005401
-0.019203758 -0.0037743242 -0.013018901
-0.033854045 -0.0061581079 -0.01660675
-0.0041575143 0.0021851351 -0.01341755
-0.032666184 -0.0013905405 -0.012221601
-0.031082369 0.0037743242 -0.00026210057
-0.0077210981 -0.00019864865 0.0109001
0.033854045 -0.0061581079 -0.015012151
0.033854045 -0.0025824325 -0.014613501
-0.022371387 -0.0041716215 -0.013018901
0.033854045 0.0033770269 -0.0062418506
0.029102601 -0.0073500001 -0.0038499506
0.027518786 0.0073500001 -0.0042486005
-0.0041575143 0.0057608108 -0.01660675
0.0077210981 -0.00019864865 0.0081095491
-0.028706647 -0.0073500001 -0.0034513006
0.0049494221 -0.0073500001 -0.013018901
-0.016036127 0.0073500001 -0.010228351
0.023955202 -0.0013905405 -0.00026210057
-0.0049494221 -0.0073500001 -0.0070391507
-0.010096821 0.0025824325 -0.013018901
-0.031874277 -0.0021851351 -0.01182295
-0.014452312 0.0025824325 -0.015012151
0.0073251445 -0.0065554054 -0.00026210057
0.029498555 -0.00019864865 0.0053189993
0.0045534684 0.0073500001 -0.012620251
-0.033854045 0.0049662162 -0.0050459006
0.02157948 0.0073500001 -0.012620251
-0.012868498 -0.0073500001 -0.0014580506
-0.0041575143 0.0029797298 -0.010627001
-0.028310694 0.00019864865 0.0041230493
0.033854045 0.0053635132 -0.012620251
0.023559248 0.0013905405 -0.01740405
0.0041575143 -0.0069527025 -0.0114243
0.029102601 -0.0073500001 -0.0034513006
-0.020391619 -0.00019864865 0.0081095491
-0.003365607 0.0021851351 -0.00026210057
0.014452312 0.0053635132 -0.01660675
-0.0013858381 -0.0073500001 -0.00066075055
-0.0093049137 -0.00019864865 0.0021297995
-0.033062138 -0.0029797298 -0.018201351
0.023559248 0.00019864865 -0.0138162
-0.010492775 -0.00019864865 0.0093054995
-0.012868498 0.00059594592 -0.0114243
-0.0017817919 0.0073500001 -0.0066405004
0.00059393066 0.0073500001 -0.0054445504
0.0061372831 -0.0073500001 -0.0062418506
0.00019797689 0.0073500001 -0.0062418506
0.033854045 0.0045689191 -0.01102565
-0.010888728 0.0057608108 -0.013018901
0.011284682 0.0073500001 -0.0074378005
0.020787572 0.0045689191 -0.00026210057
0.0085130055 0.00019864865 0.0033257494
0.0013858381 0.0073500001 -0.0066405004
-0.017223988 -0.0073500001 -0.0026540007
-0.012868498 0.0053635132 -0.013018901
-0.023559248 0.0037743242 -0.00026210057
0.014452312 -0.0049662162 -0.018201351
-0.023163294 0.0021851351 -0.01182295
0.0045534684 -0.0041716215 -0.018201351
-0.023559248 0.0073500001 -0.0090324003
-0.0053453757 0.0053635132 -0.0154108
-0.010096821 -0.0073500001 -0.0050459006
0.021975433 0.00059594592 -0.013018901
-0.021183526 0.0073500001 -0.0054445504
-0.011284682 -0.00019864865 0.0045216996
0.00059393066 0.00019864865 0.0093054995
0.033062138 -0.0029797298 -0.016208101
-0.0077210981 0.00019864865 0.00013654944
-0.010096821 -0.00019864865 0.0061162994
0.012868498 0.00059594592 -0.012221601
-0.0053453757 -0.00099324319 -0.0114243
0.033854045 -0.0013905405 -0.0094310502
-0.003365607 -0.00059594592 -0.010627001
0.0085130055 -0.0073500001 -0.010627001
-0.00059393066 -0.0061581079 -0.00026210057
-0.0053453757 0.0013905405 -0.0154108
-0.022767341 0.0073500001 -0.00066075055
-0.027122833 -0.0073500001 -0.00066075055
-0.029894508 -0.0073500001 -0.0054445504
-0.0021777456 0.0065554054 -0.0014580506
-0.031874277 -0.0073500001 -0.0094310502
-0.016036127 0.00059594592 -0.00026210057
0.031478323 0.00059594592 -0.013018901
-0.033062138 0.00019864865 -0.013018901
0.0081170518 0.00019864865 0.00093384943
-0.0089089591 -0.0057608108 -0.013018901
0.02157948 -0.0045689191 -0.013018901
-0.031082369 0.0073500001 -0.0042486005
-0.032666184 0.0073500001 -0.01580945
-0.014848266 0.0073500001 -0.0030526505
-0.011284682 -0.0049662162 -0.013018901
0.028310694 0.00059594592 -0.01341755
-0.024351155 0.0073500001 -0.01102565
-0.015640173 0.00019864865 -0.00026210057
0.022767341 0.0069527025 -0.012620251
0.017619941 0.0073500001 -0.0062418506
0.0085130055 -0.00019864865 0.00053519942
-0.020391619 0.0029797298 -0.013018901
0.0041575143 -0.0049662162 -0.01580945
0.0097008673 -0.0057608108 -0.013018901
0.031874277 0.00099324319 -0.01182295
-0.032666184 0.0049662162 -0.014613501
-0.021975433 -0.00099324319 -0.012620251
0.033854045 0.0021851351 -0.0010594005
-0.023559248 -0.0013905405 -0.018201351
-0.028706647 -0.00019864865 0.0069135996
0.025143063 0.0073500001 -0.010627001
-0.033062138 -0.00059594592 -0.012221601
-0.011680636 -0.0017878378 -0.013018901
0.022767341 0.0061581079 -0.012221601
0.014056358 -0.0073500001 -0.0094310502
-0.023163294 0.0013905405 -0.012221601
0.027122833 -0.0069527025 -0.00026210057
-0.00098988437 0.0069527025 -0.00026210057
-0.032666184 0.0065554054 -0.01740405
0.017619941 -0.0073500001 -0.0090324003
0.027518786 -0.00019864865 0.00093384943
0.0077210981 0.00019864865 0.00013654944
0.0013858381 0.0045689191 -0.013018901
-0.0013858381 -0.0073500001 -0.0074378005
0.0089089591 -0.00019864865 0.0021297995
0.020391619 0.0073500001 -0.013018901
-0.030290462 -0.0073500001 -0.0082351007
-0.0053453757 -0.0025824325 -0.010228351
-0.003365607 0.0045689191 -0.012221601
-0.0097008673 0.0073500001 -0.0014580506
0.0025736995 -0.0073500001 -0.00026210057
0.021975433 -0.0037743242 -0.012620251
-0.026330926 -0.0073500001 -0.01182295
-0.0097008673 -0.0017878378 -0.01341755
-0.024747109 -0.0029797298 -0.00026210057
0.024351155 -0.0069527025 -0.013018901
0.019599712 -0.0017878378 -0.00026210057
0.0017817919 0.0073500001 -0.010228351
0.028706647 -0.00019864865 0.0037243995
-0.0037615607 0.0073500001 -0.0086337505
0.0041575143 0.0053635132 -0.010627001
-0.012868498 0.0037743242 -0.012221601
0.0061372831 -0.0021851351 -0.012221601
-0.0021777456 -0.0073500001 -0.00066075055
0.033854045 0.0057608108 -0.0086337505
-0.033458091 0.00059594592 -0.0178027
0.025934972 0.0073500001 -0.00066075055
0.033458091 0.0061581079 -0.0010594005
0.029102601 0.0073500001 -0.0014580506
0.0061372831 -0.0073500001 -0.0094310502
-0.029102601 -0.00019864865 -0.01341755
-0.0021777456 0.0053635132 -0.013018901
0.014056358 -0.0073500001 -0.01102565
0.021183526 -0.0057608108 -0.013018901
-0.0065332372 0.0065554054 -0.00026210057
0.018807804 0.0073500001 -0.0070391507
0.0061372831 -0.0065554054 -0.0114243
-0.014056358 -0.00059594592 -0.012620251
-0.027518786 -0.0029797298 -0.013018901
-0.019599712 -0.00019864865 0.0025284495
0.010888728 -0.0049662162 -0.00026210057
0.0065332372 -0.0073500001 -0.010228351
0.028706647 0.00019864865 0.0097041493
-0.011680636 -0.0073500001 -0.0082351007
0.010096821 0.00019864865 0.0081095491
-0.012472543 -0.0037743242 -0.00026210057
0.012868498 0.0017878378 -0.01102565
-0.027122833 -0.00019864865 0.0073122494
-0.00098988437 0.0073500001 -0.0026540007
0.017223988 -0.0073500001 -0.0094310502
0.010492775 0.00059594592 -0.01341755
0.0041575143 0.0033770269 -0.013018901
-0.019203758 -0.00019864865 0.0013324994
0.0097008673 -0.0073500001 -0.0058432007
0.0013858381 0.00019864865 0.00013654944
0.0089089591 0.00059594592 -0.01341755
-0.0061372831 0.0037743242 -0.012620251
-0.031874277 0.0025824325 -0.01182295
0.003365607 0.0073500001 -0.0022553506
0.010096821 0.00019864865 0.0021297995
0.028310694 0.00019864865 0.0033257494
0.034249999 -0.0041716215 -0.01102565
0.031478323 0.0073500001 -0.0086337505
-0.0089089591 0.0061581079 -0.013018901
-0.025934972 -0.0045689191 -0.00026210057
0.0025736995 0.00099324319 -0.00026210057
0.024747109 0.0053635132 -0.012221601
0.027518786 -0.0057608108 -0.00026210057
0.015244219 -0.0049662162 -0.012620251
-0.033854045 0.0025824325 -0.0082351007
-0.024351155 -0.0025824325 -0.012221601
0.012868498 -0.0029797298 -0.012221601
0.0065332372 0.0073500001 -0.013018901
0.028706647 -0.0053635132 -0.013018901
-0.013264451 -0.0021851351 -0.010627001
0.0061372831 -0.0073500001 -0.012221601
-0.016828034 0.0053635132 -0.00026210057
-0.014848266 0.0041716215 -0.013018901
-0.0053453757 0.0073500001 -0.0090324003
0.019995665 0.00019864865 -0.01341755
-0.026726879 -0.00019864865 0.0085081998
-0.018015895 -0.00019864865 0.012096049
-0.0053453757 0.0017878378 -0.01421485
-0.0089089591 -0.0073500001 -0.00066075055
-0.029102601 0.0049662162 -0.013018901
-0.030290462 -0.0013905405 -0.01341755
-0.014848266 0.0045689191 -0.0154108
-0.013264451 -0.0025824325 -0.010627001
0.0041575143 -0.0073500001 -0.0082351007
0.033854045 0.00099324319 -0.0138162
0.003365607 -0.0013905405 -0.012221601
0.033854045 -0.0029797298 -0.0058432007
-0.014452312 -0.0033770269 -0.0138162
0.00098988437 -0.0065554054 -0.013018901
-0.030290462 -0.0073500001 -0.012620251
0.028706647 -0.0073500001 -0.0014580506
-0.020391619 0.0073500001 -0.0082351007
-0.028706647 -0.00019864865 0.01369065
0.021183526 -0.00019864865 -0.013018901
0.032666184 -0.00019864865 -0.01182295
0.01643208 0.0045689191 -0.013018901
-0.023559248 0.0033770269 -0.01660675
0.025539018 0.0057608108 -0.012221601
-0.0097008673 0.0013905405 -0.00026210057
-0.019599712 0.0029797298 -0.00026210057
0.014452312 0.0025824325 -0.016208101
-0.0081170518 -0.00019864865 0.00013654944
-0.016036127 0.0061581079 -0.00026210057
0.0037615607 -0.0033770269 -0.010228351
0.010888728 -0.0073500001 -0.0054445504
0.028706647 -0.0021851351 -0.00026210057
-0.030290462 -0.00019864865 0.0025284495
0.028706647 -0.0073500001 -0.0090324003
-0.028706647 0.00019864865 0.015683899
-0.0073251445 0.0017878378 -0.013018901
-0.023163294 -0.0073500001 -0.0086337505
0.0053453757 0.0073500001 -0.01182295
-0.023955202 -0.0029797298 -0.01580945
0.0053453757 0.00059594592 -0.012221601
0.017223988 -0.0049662162 -0.00026210057
0.018411851 0.00019864865 0.011697399
0.033458091 -0.0053635132 -0.018201351
0.0081170518 -0.0073500001 -0.01182295
0.018411851 0.0073500001 -0.01182295
0.01643208 -0.00099324319 -0.013018901
-0.012472543 0.00099324319 -0.012620251
-0.023559248 0.0057608108 -0.01341755
-0.0097008673 0.0029797298 -0.00026210057
-0.014056358 0.00059594592 -0.0154108
0.025539018 -0.0033770269 -0.00026210057
-0.014848266 0.0045689191 -0.015012151
0.022371387 -0.0057608108 -0.00026210057
-0.025143063 -0.0061581079 -0.013018901
0.012472543 0.0073500001 -0.0022553506
-0.014848266 0.0037743242 -0.01341755
-0.020391619 0.00019864865 0.0029270994
-0.012868498 0.0045689191 -0.012221601
0.012868498 0.00099324319 -0.00026210057
0.0049494221 0.0073500001 -0.0030526505
-0.025539018 0.0073500001 -0.00026210057
-0.027122833 0.00099324319 -0.013018901
-0.023955202 0.0021851351 -0.01580945
0.014452312 0.0073500001 -0.0050459006
-0.019599712 0.00019864865 0.014886599
-0.0061372831 -0.0049662162 -0.01102565
0.0093049137 -0.00019864865 0.0093054995
0.032666184 -0.0057608108 -0.01740405
-0.0073251445 -0.0073500001 -0.0058432007
-0.033854045 -0.00059594592 -0.01102565
-0.028706647 -0.0033770269 -0.00026210057
-0.024351155 0.0069527025 -0.017005401
-0.00098988437 0.0073500001 -0.0066405004
0.033062138 0.0021851351 -0.012620251
0.0045534684 -0.0069527025 -0.014613501
0.011680636 -0.0013905405 -0.013018901
-0.0077210981 0.0017878378 -0.013018901
-0.013660405 0.0029797298 -0.00026210057
-0.028310694 0.0073500001 -0.0050459006
-0.024351155 -0.0061581079 -0.014613501
0.014056358 -0.0017878378 -0.01421485
