# .PCD v0.7 - Point Cloud Data file format
VERSION 0.7
FIELDS x y z
SIZE 4 4 4
TYPE F F F
COUNT 1 1 1
WIDTH 1182
HEIGHT 1
VIEWPOINT 0 0 0 1 0 0 0
POINTS 1182
DATA ascii
-0.0010551724 -0.00078 -9.7959128e-05
0.00077379309 -0.0010636364 -0.010059694
-0.0031655172 -0.0034745454 -0.0065520406
-0.00063310342 0.00063818181 -0.010059694
-0.0031655172 0.0038999999 -0.00093979586
-0.0094965519 -0.0019145454 -9.7959128e-05
-0.0014772414 -0.0038999999 -0.00051887747
-0.01005931 -0.003049091 -0.00079948973
0.0034468966 0.0038999999 -0.0057102041
-0.0016179311 -0.0038999999 -0.0064117345
-0.0042910343 0.0027654546 -0.0096387751
-0.0056979312 -0.0012054546 -9.7959128e-05
0.00077379309 0.00035454545 -0.010059694
-0.0064013791 0.0027654546 -0.0094984695
0.0099186208 0.0019145454 -0.0071132653
-0.0020399999 -0.0038999999 -0.0045877551
0.004853793 0.00092181819 -0.010059694
-0.0038689654 -0.0020563637 -9.7959128e-05
-0.00063310342 -0.0038999999 -0.0055698981
-0.0083710346 0.0033327274 -0.00023826525
-0.0059793103 -0.0027654546 -0.0090775508
0.0010551724 0.0038999999 -0.0048683672
0.0013365517 0.0038999999 -0.0038862245
0.0075268964 0.0034745454 -0.0076744896
-0.0097779315 -0.0037581818 -0.0036056121
0.0016179311 -0.0027654546 -0.0072535714
-0.0065420689 -0.0012054546 -0.010059694
-0.0087931035 0.0038999999 -0.0050086733
-0.0102 -0.0024818182 -0.0057102041
0.0102 -0.0027654546 -0.0033249999
0.0087931035 -0.003190909 -0.0062714284
0.0052758623 0.0038999999 -0.0024831633
-0.0011958621 0.0038999999 -0.0012204081
0.0072455173 0.0037581818 -0.0064117345
0.0037282759 -0.0036163637 -0.00023826525
-0.0014772414 -0.0036163637 -0.00023826525
-0.0023213793 -0.0037581818 -0.0066923467
-0.0062606898 -0.00078 -0.010059694
-0.0049944827 0.001489091 -0.0099193873
-0.0013365517 0.0020563637 -0.0085163265
-0.0014772414 0.0038999999 -0.003465306
-0.0049944827 -0.0038999999 -0.0024831633
-0.01005931 0.0021981818 -0.0026234693
0.0093558617 -0.0038999999 -0.0040265303
0.00021103448 0.0024818182 -0.0071132653
-0.0079489658 -0.0027654546 -0.0072535714
-0.0102 0.00078 -0.0030443876
0.0096372413 0.0037581818 -0.0064117345
0.00063310342 -0.0038999999 -0.0043071429
0.0096372413 0.0034745454 -0.0076744896
-0.0102 -0.0010636364 -0.0040265303
0.0023213793 0.003190909 -9.7959128e-05
-0.0092151724 0.0033327274 -0.0073938775
-0.0087931035 -0.0038999999 -0.00023826525
0.0045724139 0.003049091 -0.0079551022
-0.0099186208 -0.0034745454 -0.0020622448
-0.0076675862 -0.0024818182 -0.0099193873
0.0056979312 0.0038999999 -0.0015010203
0.00049241382 -0.0038999999 -0.0055698981
0.00035172413 -0.0038999999 -0.0036056121
0.0064013791 0.0010636364 -9.7959128e-05
0.0021806897 0.0021981818 -0.0096387751
0.0056979312 -0.00021272727 -0.010059694
0.0042910343 -0.0029072727 -0.0066923467
-0.0102 -0.00035454545 -0.0024831633
0.0064013791 -0.00049636362 -9.7959128e-05
-7.0344824e-05 -7.0909089e-05 -0.010059694
0.0056979312 0.001489091 -9.7959128e-05
0.0016179311 0.0038999999 -0.0026234693
0.00049241382 0.0021981818 -0.00837602
-0.00049241382 0.0020563637 -0.0097790817
-0.008511724 -0.0038999999 -0.0016413265
0.004853793 -0.0038999999 -0.0027637754
-0.01005931 0.0020563637 -0.0010801019
0.0066827587 0.0034745454 -0.0073938775
-0.0028841379 0.0038999999 -0.0030443876
0.0083710346 -0.001489091 -0.0099193873
0.00021103448 -0.0038999999 -0.0033249999
-0.0075268964 -0.0029072727 -9.7959128e-05
-0.0027434484 -0.00063818181 -0.010059694
0.0097779315 -0.0026236363 -0.0068326527
0.0102 0.00092181819 -0.0092178574
-0.0054165516 0.001489091 -9.7959128e-05
-0.0086524142 -0.0038999999 -0.0026234693
0.0102 0.0012054546 -0.0094984695
0.0055572414 -0.0038999999 -0.0026234693
0.0049944827 0.0038999999 -0.0048683672
-0.01005931 -0.0027654546 -0.0055698981
-0.0062606898 0.00078 -0.010059694
0.00063310342 0.0019145454 -0.010059694
-0.01005931 0.0010636364 -0.0022025509
-0.0027434484 -0.0038999999 -0.0017816325
-0.007808276 0.0038999999 -0.0058505102
0.0079489658 -0.0027654546 -0.00023826525
0.01005931 7.0909089e-05 -0.0017816325
0.0033062068 0.0021981818 -0.0099193873
-0.0083710346 -0.0038999999 -0.0043071429
0.0094965519 0.0037581818 -0.0062714284
0.0033062068 -0.003049091 -0.00023826525
0.0049944827 -0.0038999999 -0.0017816325
0.0080896551 0.0038999999 -0.0048683672
0.0055572414 -0.0026236363 -0.0099193873
-0.0010551724 -0.0038999999 -0.0048683672
-0.00049241382 -0.0017727272 -9.7959128e-05
-0.0065420689 0.0036163637 -0.00023826525
-0.0055572414 -0.0027654546 -0.0097790817
-0.0099186208 0.003190909 -0.0059908163
-0.0014772414 0.0038999999 -0.0045877551
7.0344824e-05 0.0021981818 -0.0097790817
-0.0068234485 -0.001489091 -0.010059694
-0.0026027586 0.001489091 -0.010059694
-0.0099186208 0.003190909 -0.0010801019
0.0102 -0.003049091 -0.0045877551
-0.0076675862 0.0038999999 -0.0040265303
-0.0082303444 0.0038999999 -0.0055698981
0.0052758623 0.0024818182 -0.010059694
-0.0096372413 -0.0024818182 -0.0085163265
-0.0021806897 -0.0036163637 -0.00023826525
0.0044317241 0.0038999999 -0.0019219387
-0.0099186208 0.00078 -0.0064117345
-0.0065420689 0.001489091 -0.0099193873
0.0102 -0.00092181819 -0.0045877551
-0.0069641378 -0.0036163637 -0.00023826525
0.008511724 0.003049091 -0.0089372443
-0.0058386205 0.0038999999 -0.0054295915
0.0035875861 -0.003190909 -0.00023826525
-0.0097779315 -0.0033327274 -0.0061311224
0.0062606898 0.0038999999 -0.0043071429
-0.0075268964 0.0038999999 -0.0055698981
-0.002462069 -0.0026236363 -9.7959128e-05
0.00063310342 0.00092181819 -9.7959128e-05
0.0075268964 0.0038999999 -0.0030443876
-0.0094965519 0.0034745454 -0.0064117345
0.0096372413 -0.0036163637 -0.0027637754
-0.01005931 0.0019145454 -0.0058505102
-0.0026027586 0.0021981818 -9.7959128e-05
-0.0093558617 0.0033327274 -0.00023826525
0.008511724 0.0024818182 -9.7959128e-05
0.0072455173 0.0038999999 -0.0026234693
0.0093558617 -0.003049091 -0.00023826525
-0.0068234485 0.0038999999 -0.0052892854
0.0047131036 0.003049091 -0.0078147957
0.0102 0.0033327274 -0.0057102041
0.0102 0.001630909 -0.00093979586
0.00063310342 -0.0038999999 -0.0052892854
-0.0028841379 -0.0027654546 -0.0078147957
0.0047131036 -0.0038999999 -0.0052892854
-0.0102 -0.0010636364 -0.0019219387
-0.0011958621 -0.0027654546 -0.0092178574
-0.0018993104 0.0021981818 -0.0080954079
-0.0051351725 -0.0038999999 -0.0022025509
-0.0017586207 0.0038999999 -0.0012204081
0.007808276 0.0038999999 -0.004447449
-0.0038689654 -0.0038999999 -0.00023826525
0.00021103448 -0.0023399999 -0.0099193873
-0.0030248277 -0.0038999999 -0.00051887747
0.0086524142 -0.0029072727 -0.0062714284
0.0080896551 0.0033327274 -0.0079551022
-0.0052758623 -0.0034745454 -0.0065520406
0.0021806897 0.0024818182 -0.0085163265
-0.002462069 0.00092181819 -0.010059694
-0.0076675862 0.0038999999 -0.0015010203
0.0028841379 0.003190909 -9.7959128e-05
0.01005931 -7.0909089e-05 -0.0029040815
0.0083710346 0.0017727272 -9.7959128e-05
-0.0075268964 0.0036163637 -0.0065520406
0.0054165516 -0.0038999999 -0.0038862245
-0.0072455173 -0.0034745454 -9.7959128e-05
0.00612 -0.0027654546 -0.0086566322
-0.0054165516 0.0019145454 -0.0099193873
-0.00035172413 -0.0027654546 -0.0071132653
0.0102 -0.00092181819 -0.0089372443
-0.0056979312 -0.0013472728 -9.7959128e-05
-0.0020399999 -0.0013472728 -9.7959128e-05
-0.0096372413 0.00078 -0.0076744896
-0.004150345 -0.0037581818 -0.00023826525
0.00021103448 -0.0026236363 -0.0099193873
0.0040096552 -0.003190909 -0.00023826525
-0.002462069 -0.0010636364 -9.7959128e-05
0.004853793 0.0021981818 -0.010059694
-0.00612 0.0038999999 -0.0031846939
-0.0096372413 -0.00035454545 -9.7959128e-05
-0.0049944827 0.0038999999 -0.0019219387
-0.0030248277 0.0027654546 -0.0099193873
-0.0034468966 0.00021272727 -9.7959128e-05
-0.0051351725 0.0038999999 -0.0048683672
0.0027434484 -0.001489091 -9.7959128e-05
-0.008511724 0.003190909 -0.00023826525
0.0018993104 0.0026236363 -0.0079551022
-0.0086524142 0.0038999999 -0.00093979586
-0.0018993104 -7.0909089e-05 0.0014454082
-0.0040096552 -0.001630909 -9.7959128e-05
-0.0040096552 -0.0027654546 -0.0071132653
-0.0096372413 7.0909089e-05 -0.0069729588
0.0037282759 -0.00049636362 -0.010059694
-0.01005931 0.0012054546 -0.0015010203
-0.0017586207 -0.0012054546 -9.7959128e-05
0.007808276 0.0038999999 -0.0047280611
0.0052758623 -0.0038999999 -0.0022025509
0.0028841379 -0.00021272727 0.0015857143
-0.0055572414 0.0010636364 -0.0099193873
0.0068234485 -0.0026236363 -9.7959128e-05
-0.0099186208 -0.0012054546 -0.0065520406
0.0068234485 0.0038999999 -0.0026234693
-0.00021103448 0.0023399999 -0.0071132653
-0.0055572414 0.0038999999 -0.0026234693
0.0071048276 -0.0021981818 -9.7959128e-05
0.0099186208 -0.0026236363 -0.0079551022
0.0023213793 -7.0909089e-05 0.0021469388
-0.0033062068 0.00021272727 -9.7959128e-05
0.0016179311 0.0024818182 -0.0099193873
0.0079489658 0.0029072727 -0.0094984695
-0.0073862071 -0.00021272727 -0.010059694
0.0047131036 0.003190909 -0.0072535714
-0.0016179311 -0.0038999999 -0.00079948973
0.0086524142 0.0038999999 -0.0040265303
-0.0035875861 -0.0023399999 -9.7959128e-05
0.0068234485 0.001630909 -9.7959128e-05
0.0027434484 -0.00021272727 0.002427551
0.0035875861 0.0026236363 -0.0082357144
-0.0069641378 -0.0029072727 -0.0068326527
0.0028841379 0.00035454545 0.0017260205
0.0010551724 -0.0034745454 -0.00023826525
-0.0092151724 0.0026236363 -0.0073938775
-0.007808276 -0.0038999999 -0.0051489794
0.0051351725 0.0036163637 -0.0065520406
-0.002462069 -0.00021272727 0.0022872449
7.0344824e-05 0.0038999999 -0.0064117345
-0.01005931 0.001630909 -0.004447449
0.0010551724 -0.003190909 -0.0066923467
0.0058386205 0.0024818182 -9.7959128e-05
0.0080896551 -0.0023399999 -0.0099193873
0.0042910343 -0.0027654546 -0.0092178574
0.00049241382 0.0017727272 -0.0094984695
-0.0071048276 -0.003190909 -9.7959128e-05
-0.0075268964 0.00049636362 -0.010059694
-0.0094965519 -0.0038999999 -0.0010801019
0.00035172413 7.0909089e-05 -0.010059694
-0.00063310342 0.00063818181 -9.7959128e-05
0.0102 0.001630909 -0.0054295915
-0.0014772414 -0.00035454545 -9.7959128e-05
0.0049944827 -0.0038999999 -0.0054295915
-0.0026027586 -0.0027654546 -0.0090775508
0.01005931 -0.0034745454 -0.0022025509
0.0045724139 -0.0038999999 -0.0006591836
0.0040096552 -0.0037581818 -0.0064117345
0.0099186208 0.0017727272 -0.0066923467
-0.0079489658 0.001630909 -9.7959128e-05
-0.0096372413 -0.0037581818 -0.0058505102
0.0071048276 0.0021981818 -0.010059694
-0.0092151724 0.0024818182 -9.7959128e-05
0.0097779315 -0.0037581818 -0.00023826525
0.0102 -0.00049636362 -0.0085163265
-0.0058386205 -0.0038999999 -0.00037857136
0.0027434484 -0.00078 -0.010059694
-0.0093558617 0.0038999999 -0.0055698981
-0.01005931 0.0012054546 -0.0038862245
0.0042910343 0.0027654546 -0.0099193873
0.0102 0.0033327274 -0.0013607142
0.0073862071 0.0038999999 -0.00079948973
-0.0102 -0.0019145454 -0.0040265303
-0.00612 -0.0027654546 -0.0072535714
-0.00035172413 0.0017727272 -0.0089372443
0.0068234485 0.0037581818 -0.0064117345
0.0058386205 -0.0010636364 -0.010059694
0.0023213793 0.0026236363 -0.0076744896
-0.00077379309 0.00092181819 -0.010059694
-0.0038689654 0.0038999999 -0.0048683672
0.0023213793 -0.0023399999 -9.7959128e-05
-0.0040096552 -0.0027654546 -0.0089372443
-0.0097779315 -0.0034745454 -9.7959128e-05
-0.0020399999 -0.0013472728 -0.010059694
0.0031655172 7.0909089e-05 0.0014454082
-0.01005931 0.001630909 -0.0045877551
0.00035172413 0.00021272727 -9.7959128e-05
-0.0069641378 0.0038999999 -0.0026234693
0.0068234485 0.003190909 -0.00837602
0.0023213793 0.0033327274 -0.0064117345
0.0044317241 -0.0038999999 -0.0024831633
-0.0065420689 0.0027654546 -9.7959128e-05
-0.00077379309 0.0038999999 -0.003465306
0.0089337928 -0.0034745454 -0.0062714284
-0.0094965519 0.0010636364 -0.0071132653
-0.0080896551 -0.0038999999 -0.004447449
0.0011958621 -0.0027654546 -0.0078147957
0.0013365517 0.0038999999 -0.0010801019
0.0037282759 0.00049636362 -0.010059694
0.0016179311 -0.0027654546 -0.0078147957
0.0089337928 -0.0012054546 -9.7959128e-05
0.0102 0.0029072727 -0.00037857136
0.0047131036 0.003049091 -0.0075341836
0.0033062068 -0.0027654546 -0.0073938775
-0.00035172413 0.0020563637 -0.0085163265
0.0010551724 0.0038999999 -0.0033249999
0.0089337928 -0.00078 -9.7959128e-05
0.0076675862 -0.0038999999 -0.0041668369
-0.00077379309 -0.00092181819 -0.010059694
0.0093558617 0.0029072727 -0.0092178574
-0.0092151724 -0.0024818182 -0.0099193873
-0.004150345 0.0020563637 -0.0099193873
-0.0031655172 -0.0038999999 -0.0022025509
7.0344824e-05 -0.0024818182 -0.00023826525
0.0096372413 0.0013472728 -9.7959128e-05
-0.0055572414 -0.0019145454 -9.7959128e-05
0.00612 0.003049091 -0.0085163265
0.0028841379 0.00035454545 0.0028484694
-0.0099186208 0.0034745454 -0.0062714284
-0.0096372413 0.0017727272 -9.7959128e-05
0.0102 -0.003190909 -0.0033249999
-0.0099186208 0.00049636362 -0.0062714284
-0.01005931 0.0020563637 -0.00079948973
0.0011958621 0.0023399999 -0.0097790817
0.0010551724 0.0020563637 -0.0086566322
0.004853793 0.0024818182 -0.0092178574
-0.0096372413 0.0037581818 -0.0052892854
-0.0066827587 0.0034745454 -0.00023826525
0.0014772414 0.0024818182 -9.7959128e-05
-0.00612 0.0023399999 -9.7959128e-05
0.004853793 -0.0038999999 -0.0010801019
0.0083710346 0.0033327274 -9.7959128e-05
0.0099186208 0.0020563637 -0.0078147957
-0.0044317241 -0.001489091 -9.7959128e-05
-0.00077379309 -0.0029072727 -0.00023826525
-0.0099186208 0.00078 -0.0061311224
-0.0079489658 0.0038999999 -0.0036056121
-0.0093558617 0.0010636364 -0.0099193873
0.01005931 -0.00021272727 -0.0026234693
0.0037282759 0.0029072727 -0.0080954079
-0.0102 -0.00049636362 -0.0050086733
-0.0102 7.0909089e-05 -0.00037857136
-0.0044317241 0.0027654546 -0.0080954079
-0.01005931 0.0013472728 -0.0055698981
-0.007808276 -0.0038999999 -0.0024831633
0.0102 -0.0023399999 -0.0087969387
-0.0056979312 0.0023399999 -9.7959128e-05
-0.0089337928 -0.0038999999 -0.0010801019
7.0344824e-05 -0.0038999999 -0.0022025509
0.0099186208 0.0013472728 -0.0099193873
-0.00049241382 -0.0038999999 -0.0012204081
-0.00035172413 0.0038999999 -0.0041668369
-0.0082303444 -0.0029072727 -9.7959128e-05
0.0049944827 0.0038999999 -0.0051489794
0.0031655172 0.0038999999 -0.0062714284
0.0040096552 -0.0038999999 -0.0055698981
0.01005931 0.0026236363 -0.0086566322
-0.0023213793 0.0021981818 -9.7959128e-05
0.0068234485 -0.0038999999 -0.00051887747
0.00063310342 -0.0021981818 -9.7959128e-05
0.0099186208 -0.0026236363 -0.0099193873
0.008511724 -0.0034745454 -0.00023826525
0.0102 -0.00092181819 -0.0033249999
0.0016179311 0.0019145454 -0.0094984695
-0.00035172413 0.0038999999 -0.0047280611
-0.0097779315 0.001489091 -0.009358163
-0.002462069 -0.00021272727 -0.010059694
-0.01005931 0.00078 -0.0033249999
0.00063310342 -0.0038999999 -0.00079948973
0.01005931 0.00049636362 -0.0019219387
-0.0065420689 0.00049636362 -9.7959128e-05
-0.0014772414 -0.0023399999 -0.010059694
0.0075268964 -0.0037581818 -0.0062714284
-0.002462069 0.0021981818 -0.0086566322
0.0013365517 -0.0034745454 -0.00023826525
0.0017586207 0.0013472728 -9.7959128e-05
0.0034468966 0.0038999999 -0.002342857
-0.002462069 0.0026236363 -9.7959128e-05
0.01005931 0.0037581818 -0.0036056121
0.0102 0.0013472728 -0.0050086733
-0.0059793103 0.0038999999 -0.0026234693
0.0072455173 -0.0027654546 -0.0089372443
-0.00077379309 0.0026236363 -9.7959128e-05
-0.004150345 0.003049091 -0.0068326527
-0.0082303444 -0.0029072727 -0.0066923467
0.0023213793 0.00035454545 0.0027081633
0.00077379309 0.0038999999 -0.0052892854
-0.0051351725 -0.0023399999 -9.7959128e-05
-0.0072455173 0.00035454545 0.0014454082
0.0051351725 0.0038999999 -9.7959128e-05
0.0102 -0.00063818181 -0.0068326527
0.0049944827 -0.0023399999 -9.7959128e-05
-0.0020399999 -0.0038999999 -0.0041668369
-0.00091448275 -0.0038999999 -0.0041668369
-0.0059793103 -0.0034745454 -0.0065520406
0.0071048276 0.0020563637 -9.7959128e-05
0.0068234485 0.0038999999 -0.0031846939
-0.00612 7.0909089e-05 -9.7959128e-05
-0.0102 -0.00049636362 -0.0012204081
-0.0086524142 0.0033327274 -0.0080954079
-0.0016179311 -0.0019145454 -9.7959128e-05
0.0093558617 -0.0038999999 -0.0048683672
0.01005931 -0.0033327274 -0.0012204081
0.00035172413 -0.0038999999 -0.0026234693
0.0030248277 -0.00035454545 -9.7959128e-05
-0.0065420689 0.0038999999 -0.0027637754
0.0052758623 -0.0012054546 -0.0099193873
0.0102 0.0026236363 -0.00051887747
-0.0011958621 -0.0027654546 -0.0094984695
-0.0102 -0.0010636364 -0.0057102041
0.0096372413 0.00021272727 -0.010059694
0.002462069 0.0038999999 -0.0036056121
-0.0097779315 0.00078 -0.0097790817
0.0064013791 -0.0027654546 -0.0078147957
0.0099186208 0.0019145454 -0.0086566322
0.0058386205 -0.00078 -0.010059694
0.0056979312 0.0038999999 -0.0019219387
0.0038689654 0.0038999999 -0.00037857136
0.0010551724 0.0038999999 -0.0024831633
0.0086524142 0.0034745454 -0.0076744896
0.00612 -0.0038999999 -0.0010801019
-0.0031655172 -0.0021981818 -0.010059694
0.0040096552 -0.0038999999 -0.0051489794
0.0092151724 -0.0013472728 -9.7959128e-05
-0.0034468966 0.00092181819 -0.010059694
0.0042910343 0.00021272727 -9.7959128e-05
0.0023213793 0.0038999999 -0.004447449
-0.0045724139 -0.003049091 -0.0065520406
0.0058386205 -0.0024818182 -9.7959128e-05
0.01005931 -0.0034745454 -0.0027637754
-0.0099186208 -0.003049091 -0.0061311224
-0.0064013791 0.00063818181 -0.010059694
-0.0102 -0.00063818181 -0.0026234693
-0.0058386205 -0.0038999999 -0.0033249999
0.00021103448 0.0038999999 -0.0016413265
0.0064013791 -0.0038999999 -0.0052892854
0.0068234485 -0.0038999999 -0.0006591836
-0.0040096552 7.0909089e-05 -9.7959128e-05
0.0082303444 0.0038999999 -0.0059908163
-0.0051351725 -0.0027654546 -0.0086566322
0.0066827587 0.0038999999 -0.0057102041
0.0073862071 -7.0909089e-05 0.0028484694
-0.004150345 -0.0037581818 -0.0065520406
-0.0082303444 0.0038999999 -0.0010801019
-0.0102 -0.00021272727 -0.0016413265
0.004853793 -0.0038999999 -0.0022025509
0.0059793103 0.0038999999 -0.0052892854
0.0059793103 0.0027654546 -0.0097790817
0.007808276 0.0038999999 -0.0051489794
0.0071048276 0.0027654546 -0.0097790817
0.0097779315 0.003049091 -0.0082357144
0.0062606898 -0.0020563637 -9.7959128e-05
-7.0344824e-05 0.0038999999 -0.0022025509
0.0028841379 -7.0909089e-05 0.00032295924
-0.0034468966 -0.0027654546 -0.0099193873
-0.0011958621 -0.0027654546 -0.0078147957
-0.0059793103 0.0012054546 -0.0099193873
-0.0092151724 0.0033327274 -0.0078147957
0.0069641378 -0.00035454545 -9.7959128e-05
-0.0037282759 0.0027654546 -0.0096387751
-0.00091448275 -0.0010636364 -9.7959128e-05
0.0099186208 0.0019145454 -0.0099193873
-0.0089337928 0.0023399999 -0.0099193873
-0.0089337928 -0.001630909 -0.010059694
-0.0082303444 0.0020563637 -9.7959128e-05
-0.0064013791 0.003049091 -9.7959128e-05
-0.0055572414 0.0024818182 -0.0099193873
0.0042910343 -0.0036163637 -0.0064117345
-0.00049241382 -0.0027654546 -0.0080954079
-0.0072455173 -0.0038999999 -0.0061311224
-0.0023213793 -0.0023399999 -0.010059694
-0.0094965519 -0.0038999999 -0.00093979586
-0.0092151724 0.0027654546 -0.0097790817
-0.0086524142 -0.0038999999 -0.0041668369
0.0049944827 -0.0024818182 -9.7959128e-05
0.0020399999 -0.0038999999 -0.0031846939
-0.0047131036 -0.0010636364 -0.010059694
0.0097779315 0.0037581818 -0.0059908163
0.0049944827 -0.0027654546 -0.0073938775
0.0096372413 -0.00049636362 -9.7959128e-05
0.0017586207 -0.00078 -9.7959128e-05
-0.0040096552 0.0026236363 -0.0097790817
0.0076675862 0.001630909 -9.7959128e-05
0.0044317241 0.003049091 -9.7959128e-05
-0.0090744831 -0.003049091 -0.0064117345
0.0017586207 7.0909089e-05 -9.7959128e-05
-0.002462069 0.0033327274 -9.7959128e-05
0.0083710346 -0.0038999999 -0.0061311224
0.0030248277 0.0029072727 -0.0071132653
-0.0056979312 -0.00063818181 -9.7959128e-05
0.0076675862 0.0038999999 -0.0022025509
0.00035172413 0.0038999999 -0.0038862245
0.0079489658 -0.0038999999 -0.0059908163
-0.0031655172 -0.0038999999 -0.0027637754
0.0099186208 0.00049636362 -0.0078147957
-0.0020399999 0.0012054546 -0.010059694
0.0030248277 -0.00049636362 -9.7959128e-05
0.0080896551 0.00035454545 0.00088418374
0.0076675862 0.00021272727 0.0017260205
0.0011958621 0.0038999999 -0.00079948973
-0.004150345 0.0038999999 -0.00093979586
-0.0080896551 -0.0010636364 -9.7959128e-05
-0.0097779315 0.0036163637 -0.0055698981
0.00091448275 -0.00092181819 -9.7959128e-05
0.0013365517 0.0038999999 -0.0012204081
-0.0075268964 0.003190909 -0.0076744896
-0.0027434484 0.0024818182 -0.0099193873
-0.0099186208 0.0033327274 -0.0020622448
-0.0082303444 0.0013472728 -9.7959128e-05
0.00021103448 -0.0027654546 -0.0097790817
0.01005931 0.0010636364 -0.0073938775
0.0073862071 0.0037581818 -0.0064117345
0.0089337928 -0.0019145454 -9.7959128e-05
0.00049241382 -0.0027654546 -0.00837602
0.01005931 -7.0909089e-05 -0.003465306
0.01005931 0.00063818181 -0.0058505102
-0.0096372413 -0.0020563637 -0.0076744896
0.0102 0.001489091 -0.0092178574
0.0042910343 0.0038999999 -0.0040265303
0.0020399999 0.0027654546 -0.0073938775
-0.0028841379 0.0038999999 -0.0052892854
0.0093558617 -0.0038999999 -0.0017816325
-0.0047131036 0.0038999999 -0.00037857136
-0.0093558617 -0.0026236363 -0.0080954079
0.0102 0.0019145454 -0.00079948973
0.0096372413 0.0033327274 -0.0080954079
0.0102 -0.00092181819 -0.0094984695
-0.00021103448 0.0038999999 -0.0029040815
-0.0033062068 0.0023399999 -0.0086566322
-0.0076675862 -0.0038999999 -0.0019219387
0.0034468966 0.0038999999 -0.0027637754
-0.01005931 0.00063818181 -0.004447449
0.0102 -0.0020563637 -0.0094984695
0.0064013791 0.003190909 -9.7959128e-05
-0.0099186208 0.0029072727 -0.00037857136
0.0016179311 0.0038999999 -0.0061311224
0.0071048276 -0.0027654546 -0.0086566322
0.00063310342 0.0023399999 -0.0080954079
0.0018993104 0.0019145454 -0.010059694
0.0072455173 0.00021272727 0.0011647959
0.0097779315 0.0027654546 -0.0068326527
0.0042910343 0.0017727272 -9.7959128e-05
-0.0014772414 -0.0027654546 -0.0086566322
-0.0017586207 -0.0027654546 -0.0073938775
0.0083710346 -0.0013472728 -0.0099193873
-0.00049241382 -0.0027654546 -0.0087969387
0.0087931035 0.0021981818 -9.7959128e-05
0.0013365517 -0.00092181819 -9.7959128e-05
-0.00077379309 -0.0038999999 -0.0029040815
0.0087931035 -0.003190909 -0.00023826525
-0.0090744831 -0.0038999999 -0.0016413265
0.0013365517 0.0019145454 -0.0096387751
0.0102 -0.0013472728 -0.0097790817
0.0068234485 -0.0036163637 -0.00023826525
0.0018993104 -0.0038999999 -0.0057102041
0.0023213793 0.001630909 -0.010059694
-0.0097779315 -0.0037581818 -0.00037857136
0.0037282759 0.001489091 -9.7959128e-05
0.007808276 -0.0038999999 -0.0030443876
-0.0034468966 -0.0037581818 -0.00023826525
0.0047131036 -0.0037581818 -0.0062714284
-0.0099186208 -0.0033327274 -0.0054295915
0.0086524142 0.0037581818 -0.0065520406
-0.0052758623 -0.0026236363 -9.7959128e-05
-0.00049241382 0.0038999999 -0.0058505102
0.0045724139 -0.0038999999 -0.0037459182
0.0058386205 0.0013472728 -0.010059694
-0.004853793 -0.001630909 -0.010059694
0.00077379309 -0.0029072727 -0.00023826525
0.01005931 0.001489091 -0.0080954079
-0.0094965519 0.0037581818 -0.0022025509
0.0102 -0.001489091 -0.0086566322
-0.00091448275 -0.0026236363 -0.0099193873
-0.0017586207 0.0010636364 -9.7959128e-05
-0.0042910343 -0.0038999999 -0.0058505102
0.0097779315 0.0029072727 -0.0073938775
-0.0045724139 0.0023399999 -9.7959128e-05
0.0097779315 0.0027654546 -0.0080954079
0.0051351725 -0.0038999999 -0.0033249999
0.00612 -0.0038999999 -0.003465306
-0.0069641378 -7.0909089e-05 0.0020066327
0.0102 -0.0023399999 -0.0050086733
0.0062606898 0.0038999999 -0.0017816325
-0.0051351725 0.00049636362 -9.7959128e-05
-0.0020399999 -0.0027654546 -0.0079551022
0.0075268964 0.0029072727 -0.009358163
-0.007808276 -0.0027654546 -0.0096387751
-0.004853793 -0.0036163637 -0.00023826525
-0.01005931 0.0020563637 -0.0017816325
0.0073862071 0.003190909 -0.00837602
-0.0094965519 0.00063818181 -0.0082357144
-0.0071048276 0.003190909 -0.0078147957
-0.0021806897 0.0038999999 -0.0055698981
-0.0096372413 -0.0024818182 -0.0078147957
0.0056979312 0.0038999999 -0.0051489794
-0.0042910343 -0.00035454545 -9.7959128e-05
0.0010551724 -0.0038999999 -0.0062714284
-0.0052758623 -0.00063818181 -0.010059694
0.002462069 0.0026236363 -0.0082357144
0.0066827587 -0.0019145454 -0.0099193873
-0.0010551724 -0.0027654546 -0.009358163
-0.0065420689 -0.0027654546 -0.0080954079
0.0102 0.0019145454 -0.0078147957
-0.0075268964 -0.0019145454 -0.010059694
0.0102 0.0024818182 -0.0027637754
-0.0027434484 0.0020563637 -0.0099193873
-0.0030248277 -0.0027654546 -0.0086566322
-0.0042910343 0.0038999999 -0.0030443876
-0.0099186208 0.003190909 -0.0036056121
-0.0017586207 0.0029072727 -0.0096387751
-0.0047131036 -0.0038999999 -0.0022025509
-0.0017586207 0.0038999999 -0.0064117345
-0.0020399999 -0.0027654546 -0.0085163265
0.0017586207 0.00021272727 -0.010059694
0.004150345 -0.0037581818 -0.0062714284
-0.0027434484 -0.0027654546 -0.009358163
-7.0344824e-05 -0.0038999999 -0.0015010203
0.0064013791 0.0038999999 -0.0022025509
0.00612 0.00049636362 -9.7959128e-05
0.0102 0.0019145454 -0.0033249999
0.0035875861 -0.0010636364 -0.010059694
-0.0065420689 -0.001630909 -0.010059694
0.0068234485 0.0038999999 -0.0024831633
0.0065420689 -0.0038999999 -0.00051887747
0.0031655172 -0.0019145454 -9.7959128e-05
-0.0016179311 0.0027654546 -0.0065520406
0.0097779315 -0.0029072727 -0.00023826525
0.0037282759 0.0023399999 -0.010059694
0.0018993104 -0.0026236363 -0.0099193873
0.0079489658 0.00035454545 0.0022872449
-0.0042910343 -0.0038999999 -0.002342857
-0.0102 -0.0021981818 -0.0010801019
-0.0056979312 -0.0017727272 -9.7959128e-05
-0.002462069 0.0020563637 -0.0087969387
0.0087931035 -0.0038999999 -0.00079948973
0.0097779315 0.003049091 -0.0073938775
0.0083710346 -0.0027654546 -0.0080954079
-0.0058386205 0.0038999999 -0.0050086733
0.0014772414 0.0038999999 -0.0050086733
0.0038689654 -0.0021981818 -0.0099193873
0.0030248277 0.0038999999 -0.0048683672
0.0035875861 0.0038999999 -0.0045877551
0.0102 0.0023399999 -0.0010801019
0.0102 0.003049091 -0.0062714284
0.0102 0.0034745454 -0.0037459182
0.0076675862 0.00035454545 -0.010059694
0.0031655172 0.0038999999 -0.0016413265
-0.0045724139 -0.0038999999 -0.0037459182
-0.0030248277 0.0038999999 -0.0045877551
0.0040096552 0.003049091 -0.0073938775
-0.01005931 0.00021272727 -0.0047280611
-0.0028841379 -0.0019145454 -9.7959128e-05
-0.00049241382 -0.0038999999 -0.0013607142
0.0073862071 0.0010636364 -9.7959128e-05
0.01005931 0.00078 -0.0052892854
0.0047131036 0.00078 -0.010059694
-0.0035875861 -0.0027654546 -0.0099193873
0.0076675862 0.0017727272 -0.010059694
-0.00063310342 -0.0036163637 -0.0065520406
0.0059793103 0.0019145454 -9.7959128e-05
-0.00612 -0.00078 -0.010059694
-0.0094965519 0.0012054546 -0.0085163265
-0.0097779315 0.0013472728 -0.0097790817
0.0042910343 0.0019145454 -9.7959128e-05
0.0102 0.001630909 -0.0048683672
0.0087931035 -0.0038999999 -0.0061311224
-0.0037282759 -0.0038999999 -0.0036056121
-0.0089337928 -0.0038999999 -0.0033249999
-0.0071048276 -0.0029072727 -9.7959128e-05
-0.0099186208 -0.0034745454 -0.002342857
0.0034468966 -0.0038999999 -0.0054295915
-0.00035172413 0.0038999999 -0.003465306
-0.0087931035 0.001630909 -9.7959128e-05
0.0069641378 -0.0034745454 -0.00023826525
-0.0054165516 -0.0038999999 -0.0048683672
-0.0016179311 0.0020563637 -0.0099193873
-0.0096372413 -0.0024818182 -0.0066923467
0.0014772414 0.0013472728 -0.010059694
-0.0094965519 0.0010636364 -0.0099193873
0.0083710346 0.0037581818 -0.0066923467
0.0056979312 0.0013472728 -0.010059694
-0.0026027586 0.0029072727 -0.0096387751
-0.0026027586 -0.00092181819 -9.7959128e-05
0.0066827587 -0.0038999999 -0.0055698981
0.0023213793 0.0038999999 -0.00037857136
0.0073862071 -0.0024818182 -9.7959128e-05
-0.01005931 -0.003190909 -0.0052892854
0.0102 -0.0026236363 -0.002342857
0.0033062068 -0.0037581818 -0.0065520406
-0.0072455173 -0.00035454545 -0.010059694
0.004150345 0.0027654546 -0.00837602
-0.0079489658 -0.0024818182 -0.010059694
0.0092151724 0.0038999999 -0.0026234693
-0.00077379309 -0.0038999999 -0.0017816325
0.0069641378 -0.003049091 -0.0065520406
0.0055572414 -0.00035454545 -9.7959128e-05
0.0065420689 0.0038999999 -0.00051887747
0.0011958621 0.0038999999 -0.0033249999
-0.0031655172 -0.00035454545 -9.7959128e-05
0.0054165516 -0.0038999999 -0.0058505102
-0.0034468966 0.0038999999 -0.0017816325
0.0071048276 0.0033327274 -0.0079551022
0.0042910343 -0.0027654546 -0.0078147957
0.0031655172 0.0027654546 -0.0078147957
-0.0040096552 0.0012054546 -0.010059694
-0.0055572414 0.0038999999 -0.0019219387
0.0076675862 -0.0026236363 -9.7959128e-05
0.007808276 -0.0027654546 -0.0090775508
0.00035172413 -0.0038999999 -0.00037857136
0.0033062068 0.0029072727 -0.0079551022
-0.0087931035 -0.0027654546 -0.0068326527
0.0021806897 -0.00021272727 -0.010059694
-0.0075268964 -0.0038999999 -0.0031846939
-0.0076675862 0.0038999999 -0.004447449
0.0102 0.0019145454 -0.0080954079
0.0083710346 0.0010636364 -0.010059694
0.0079489658 -0.0038999999 -0.003465306
0.0023213793 0.00021272727 0.0029887755
-0.0065420689 0.0038999999 -0.0062714284
-0.0090744831 -0.0027654546 -0.0075341836
0.004853793 0.003049091 -0.0073938775
0.0027434484 0.00035454545 0.00032295924
0.0056979312 0.0038999999 -0.0013607142
0.0102 0.0017727272 -0.0065520406
0.0031655172 0.0037581818 -0.0062714284
-0.0065420689 0.00092181819 -9.7959128e-05
0.0017586207 -7.0909089e-05 -9.7959128e-05
-0.0013365517 -0.0038999999 -0.00051887747
-0.0018993104 0.0036163637 -0.0064117345
-0.0096372413 -0.00049636362 -0.0080954079
0.0033062068 0.0038999999 -0.003465306
-0.00063310342 -0.0038999999 -0.0010801019
-0.01005931 0.0026236363 -0.0029040815
-0.0035875861 0.00035454545 -0.010059694
-0.00049241382 0.0038999999 -9.7959128e-05
0.0016179311 -0.0038999999 -0.0010801019
0.0102 -0.00078 -0.0089372443
-0.004150345 -0.0038999999 -0.0059908163
0.002462069 -0.0037581818 -0.00023826525
-0.0097779315 -0.0024818182 -0.0064117345
-0.0102 0.001630909 -0.0013607142
0.0097779315 0.0038999999 -0.003465306
0.0026027586 0.00035454545 0.00018265311
-0.0027434484 0.0038999999 -0.00093979586
0.0090744831 0.0037581818 -9.7959128e-05
0.0102 0.001630909 -0.0047280611
0.008511724 0.0027654546 -0.0097790817
-0.0030248277 0.0024818182 -9.7959128e-05
0.0062606898 -0.0027654546 -0.0078147957
0.0044317241 -0.0034745454 -0.0066923467
0.0102 -7.0909089e-05 -0.0089372443
-0.0030248277 -0.0027654546 -0.0078147957
0.0083710346 0.0038999999 -0.0026234693
0.0038689654 -0.0024818182 -0.0099193873
0.0083710346 0.0038999999 -0.0016413265
-0.0034468966 0.0038999999 -0.004447449
0.0026027586 -0.003049091 -0.0066923467
-0.0054165516 -0.0038999999 -0.0012204081
-0.00021103448 -0.0027654546 -0.0089372443
-0.0102 -0.0010636364 -9.7959128e-05
0.0092151724 -0.0027654546 -0.00837602
0.0086524142 -0.00063818181 -9.7959128e-05
-0.0073862071 -0.0023399999 -0.010059694
0.0037282759 -0.0026236363 -0.0099193873
-0.0097779315 -0.00063818181 -0.0073938775
0.0080896551 -0.00035454545 -0.010059694
-0.0094965519 -0.0034745454 -9.7959128e-05
0.0051351725 0.00021272727 -9.7959128e-05
-0.0072455173 -0.00049636362 -0.010059694
-0.00021103448 0.003190909 -0.0064117345
0.0040096552 0.0029072727 -0.0075341836
0.01005931 0.00078 -0.0019219387
-0.0044317241 -0.0017727272 -0.010059694
0.0045724139 -0.0038999999 -0.0054295915
0.0042910343 -0.0027654546 -9.7959128e-05
-0.0086524142 -0.0019145454 -0.010059694
-0.0045724139 0.0029072727 -0.0075341836
-0.0076675862 -0.0027654546 -0.00837602
0.0033062068 -0.0027654546 -0.0099193873
0.0062606898 0.00063818181 -9.7959128e-05
-0.0059793103 -0.0037581818 -0.0065520406
-0.0023213793 -0.0038999999 -0.0020622448
0.0102 -0.00035454545 -0.003465306
0.0073862071 0.0033327274 -9.7959128e-05
-0.00091448275 0.0019145454 -0.0086566322
-0.00021103448 0.0038999999 -0.0037459182
0.0027434484 0.0017727272 -9.7959128e-05
-0.0071048276 0.0038999999 -0.0059908163
0.0034468966 -0.0038999999 -0.0057102041
0.0065420689 0.0027654546 -0.009358163
0.0018993104 0.0027654546 -0.0073938775
7.0344824e-05 0.0021981818 -0.0099193873
-0.00035172413 0.0038999999 -0.00051887747
0.0086524142 -0.0012054546 -0.0099193873
0.0054165516 -0.0027654546 -0.0096387751
-0.0042910343 0.0026236363 -0.0096387751
-0.0069641378 -0.0021981818 -9.7959128e-05
-0.0059793103 0.0038999999 -0.0036056121
0.0014772414 -0.0038999999 -0.0040265303
-0.0040096552 -7.0909089e-05 -0.010059694
0.00063310342 -0.0027654546 -0.00023826525
-0.0011958621 0.0038999999 -0.0015010203
-0.0059793103 0.0038999999 -0.0033249999
0.0092151724 0.00092181819 -0.010059694
-0.0026027586 0.0023399999 -0.0078147957
0.0086524142 0.0038999999 -0.00023826525
0.0033062068 0.0038999999 -0.0062714284
-0.0073862071 0.00035454545 0.00088418374
-0.0102 -0.00049636362 -0.0027637754
-0.0020399999 -0.00021272727 0.00032295924
-0.0089337928 0.0038999999 -0.0051489794
0.0016179311 -0.0024818182 -9.7959128e-05
-0.0033062068 -0.00092181819 -0.010059694
-0.0033062068 -0.0024818182 -9.7959128e-05
0.0018993104 -0.0029072727 -0.00023826525
-0.0065420689 -0.0027654546 -0.0079551022
-0.0055572414 -0.0038999999 -0.0019219387
-0.0096372413 -0.0037581818 -0.0016413265
0.0102 -0.0027654546 -0.0061311224
-0.00035172413 -0.0027654546 -0.0078147957
0.0062606898 0.00035454545 -0.010059694
0.00077379309 -0.0038999999 -0.00037857136
0.0069641378 0.0024818182 -0.010059694
0.008511724 -0.0038999999 -0.0029040815
0.0035875861 -0.0021981818 -9.7959128e-05
0.0020399999 -0.00021272727 -9.7959128e-05
0.0013365517 -0.0038999999 -0.0045877551
0.0034468966 0.003049091 -0.0068326527
-0.00077379309 -0.00049636362 -9.7959128e-05
-0.0099186208 0.0034745454 -0.0037459182
7.0344824e-05 0.0036163637 -0.0064117345
0.00091448275 0.0038999999 -0.0040265303
-0.00091448275 0.0038999999 -0.0057102041
0.0102 -0.00035454545 -0.0076744896
0.0090744831 -0.0038999999 -0.0061311224
-0.01005931 0.0029072727 -0.0051489794
-0.0026027586 -0.0038999999 -0.0058505102
0.0102 0.001489091 -0.0038862245
0.0027434484 0.0038999999 -0.00093979586
0.0049944827 -0.0027654546 -9.7959128e-05
0.0054165516 0.0020563637 -9.7959128e-05
0.0090744831 -0.0027654546 -0.0079551022
-0.0021806897 0.00049636362 -0.010059694
0.00077379309 0.0038999999 -0.0036056121
-0.007808276 0.0038999999 -0.0024831633
0.0069641378 -0.0026236363 -0.0099193873
-0.0059793103 0.0026236363 -0.0096387751
0.0072455173 7.0909089e-05 -0.010059694
-0.004853793 0.0024818182 -0.0090775508
0.0049944827 -0.0038999999 -0.0031846939
-0.0072455173 -0.00021272727 0.00088418374
-0.0071048276 -0.0038999999 -0.0013607142
0.0073862071 0.0038999999 -0.0048683672
-0.0033062068 0.0010636364 -0.010059694
0.0099186208 0.0038999999 -0.0022025509
0.0073862071 -0.0038999999 -0.0048683672
0.0082303444 -0.0027654546 -0.0085163265
0.0049944827 0.0038999999 -9.7959128e-05
0.0092151724 0.0010636364 -9.7959128e-05
-0.0082303444 0.0038999999 -0.0041668369
-0.00612 0.0026236363 -9.7959128e-05
0.0027434484 -0.0026236363 -0.0099193873
0.0054165516 -0.0038999999 -0.0048683672
-0.0064013791 -0.001630909 -9.7959128e-05
0.0017586207 -0.003190909 -0.00023826525
0.0083710346 0.0038999999 -0.00079948973
-0.0017586207 -0.0027654546 -0.0079551022
-0.0092151724 -0.0027654546 -0.0079551022
-0.0010551724 0.0019145454 -9.7959128e-05
-0.0026027586 -0.0027654546 -0.0097790817
0.0033062068 0.0038999999 -0.00023826525
-0.0016179311 -0.0038999999 -0.0006591836
-0.0102 -0.00078 -0.0043071429
0.0080896551 0.0027654546 -0.0096387751
-0.0052758623 0.00092181819 -0.010059694
7.0344824e-05 -0.0038999999 -0.0061311224
0.0028841379 0.0021981818 -0.009358163
-0.0026027586 0.0021981818 -0.00837602
-0.0017586207 -0.003190909 -0.0065520406
-0.0031655172 0.0017727272 -9.7959128e-05
-0.0075268964 0.0029072727 -0.0089372443
0.0102 -0.00092181819 -0.004447449
0.0058386205 0.0038999999 -0.00037857136
0.0010551724 0.0037581818 -9.7959128e-05
0.0040096552 -0.0038999999 -0.0062714284
-0.0082303444 0.0038999999 -0.0050086733
-0.0102 -0.00021272727 -0.0055698981
-0.0102 -0.0010636364 -0.0037459182
0.007808276 -0.0038999999 -0.0026234693
-0.00077379309 -0.0038999999 -0.0010801019
0.0068234485 -0.001489091 -9.7959128e-05
0.0102 -0.00035454545 -0.0094984695
-0.0062606898 0.0038999999 -0.0058505102
0.0045724139 0.0013472728 -0.010059694
-0.0011958621 0.0017727272 -0.0097790817
0.0026027586 0.0038999999 -0.00037857136
0.0092151724 0.0034745454 -0.0078147957
0.0056979312 -0.0038999999 -0.0041668369
-0.0097779315 -0.0019145454 -0.0078147957
-0.0037282759 0.0020563637 -0.009358163
0.0102 -0.0013472728 -0.0026234693
-0.0045724139 0.0038999999 -0.0061311224
-0.0028841379 0.0020563637 -9.7959128e-05
-0.0018993104 -0.00021272727 -9.7959128e-05
0.0080896551 -0.003190909 -0.00023826525
0.0080896551 0.00021272727 0.001305102
0.0102 -0.0019145454 -0.0076744896
-0.0027434484 0.00021272727 0.0018663266
0.0011958621 -0.00035454545 -9.7959128e-05
-0.0051351725 -0.00092181819 -0.010059694
0.0069641378 0.0038999999 -0.002342857
-0.01005931 -0.00092181819 -0.0062714284
-0.0096372413 -0.0036163637 -9.7959128e-05
-0.0054165516 -0.003049091 -0.0066923467
0.00021103448 0.0038999999 -0.0052892854
-0.007808276 0.0029072727 -0.0094984695
0.0102 -0.001489091 -0.0094984695
-0.0086524142 0.0038999999 -0.0033249999
-0.0020399999 0.0038999999 -0.00037857136
0.0102 0.0019145454 -0.0089372443
0.0092151724 0.0038999999 -0.00051887747
0.0090744831 -0.0038999999 -0.0013607142
-0.0072455173 -0.00078 -9.7959128e-05
0.0011958621 0.0038999999 -0.0064117345
0.002462069 0.00092181819 -0.010059694
0.0102 -0.0019145454 -0.0068326527
0.0058386205 -0.0027654546 -9.7959128e-05
-0.004150345 0.0012054546 -9.7959128e-05
0.0092151724 0.0020563637 -0.010059694
-0.0093558617 0.0020563637 -0.0085163265
-0.0075268964 -0.0036163637 -0.0064117345
0.0079489658 -0.0038999999 -0.0062714284
-0.0099186208 0.00078 -0.0062714284
-0.0037282759 -0.0013472728 -9.7959128e-05
-0.0071048276 -0.0027654546 -0.0082357144
0.0083710346 -0.0038999999 -0.0006591836
0.00612 -0.0010636364 -0.010059694
0.0037282759 0.0038999999 -0.0017816325
0.0069641378 -0.00078 -0.010059694
-0.0018993104 0.0020563637 -0.0099193873
-0.0075268964 0.0027654546 -0.0094984695
0.0076675862 -0.00021272727 4.234699e-05
0.0086524142 0.0037581818 -0.0066923467
-0.0087931035 -0.00021272727 -0.010059694
-0.004853793 0.0024818182 -0.0087969387
0.0026027586 -0.0027654546 -0.0072535714
0.0017586207 0.0038999999 -0.0038862245
0.0099186208 -0.0036163637 -0.0024831633
0.0059793103 -0.0038999999 -0.0012204081
-0.0071048276 0.0013472728 -0.0099193873
0.0035875861 0.0029072727 -0.0075341836
0.0026027586 0.0038999999 -0.0061311224
-0.0051351725 0.0012054546 -9.7959128e-05
-0.00077379309 0.0038999999 -0.0045877551
0.004853793 -0.0013472728 -0.0099193873
0.0093558617 -0.00078 -0.0099193873
-0.0052758623 -0.0019145454 -9.7959128e-05
-0.0044317241 0.0038999999 -0.0019219387
-0.0079489658 -0.0038999999 -0.0029040815
0.0086524142 0.0038999999 -0.0019219387
-0.0079489658 -0.0038999999 -0.0015010203
0.00091448275 -0.0038999999 -0.0031846939
0.0020399999 -0.0024818182 -0.0099193873
0.0035875861 -0.0038999999 -0.0030443876
0.0072455173 0.0038999999 -0.0054295915
0.0020399999 0.0038999999 -0.0052892854
0.0082303444 -0.00021272727 -9.7959128e-05
0.0082303444 0.00078 -9.7959128e-05
0.0090744831 -0.0038999999 -0.0019219387
-0.00063310342 0.0024818182 -0.0069729588
-0.0086524142 0.0038999999 -0.0048683672
0.0099186208 0.003049091 -9.7959128e-05
-0.00021103448 -0.00035454545 -0.010059694
-0.0087931035 0.0017727272 -0.0099193873
-0.0030248277 -0.0038999999 -0.0022025509
-0.0035875861 0.0026236363 -9.7959128e-05
0.0010551724 0.0038999999 -0.0059908163
0.0014772414 -0.0027654546 -0.0086566322
0.0038689654 -0.003049091 -0.00023826525
-0.0073862071 -7.0909089e-05 0.0010244899
-0.0042910343 0.0020563637 -9.7959128e-05
-0.0021806897 0.0024818182 -0.0071132653
0.0102 -0.00063818181 -0.0099193873
0.0027434484 -0.0027654546 -0.0078147957
0.0034468966 -0.0038999999 -0.00051887747
0.0044317241 -0.0024818182 -0.0099193873
-0.00091448275 -0.0027654546 -0.0082357144
-0.007808276 -0.0037581818 -0.0064117345
-0.0058386205 0.0027654546 -9.7959128e-05
0.0028841379 -0.00021272727 0.0018663266
-0.0028841379 0.0038999999 -0.0055698981
0.0030248277 -0.0010636364 -9.7959128e-05
7.0344824e-05 0.0038999999 -0.0013607142
-0.0102 -0.001489091 -0.0058505102
-0.0026027586 -0.0038999999 -0.0006591836
0.0040096552 -0.0036163637 -0.0066923467
0.0040096552 -0.00021272727 -0.010059694
-0.0102 -0.0013472728 -0.00023826525
0.0042910343 -0.0027654546 -0.0079551022
-0.0102 -0.001489091 -0.00093979586
0.004853793 0.003049091 -0.0080954079
0.0056979312 0.0021981818 -9.7959128e-05
0.0102 0.0029072727 -0.00093979586
-0.0099186208 0.001630909 -0.0062714284
-0.0033062068 -0.0021981818 -0.010059694
-0.0102 -0.00021272727 -0.0019219387
-0.0049944827 0.0038999999 -0.0020622448
-0.0066827587 0.0012054546 -0.0099193873
-0.00049241382 -0.0027654546 -0.0079551022
0.01005931 0.0026236363 -0.0096387751
0.0031655172 -0.0038999999 -0.00051887747
7.0344824e-05 -0.0027654546 -0.00023826525
0.0099186208 0.0038999999 -0.0054295915
-0.0049944827 0.00092181819 -9.7959128e-05
0.0014772414 -0.0026236363 -0.0099193873
-0.0080896551 -0.00063818181 -0.010059694
-0.00077379309 0.0034745454 -0.0064117345
-0.0037282759 -0.003190909 -0.0065520406
0.0099186208 -0.0036163637 -0.0062714284
0.0065420689 -0.0038999999 -0.0029040815
-0.002462069 -0.00021272727 0.0020066327
-0.0021806897 0.0021981818 -0.0099193873
0.0058386205 -0.00063818181 -0.010059694
-0.0097779315 0.0012054546 -0.0097790817
0.01005931 -0.0034745454 -0.0010801019
-0.0079489658 0.0033327274 -0.00023826525
-0.0068234485 -7.0909089e-05 0.0028484694
0.0034468966 -0.0038999999 -0.0045877551
-0.0083710346 -0.0027654546 -0.0096387751
-0.0089337928 0.0033327274 -0.0079551022
0.0034468966 0.0038999999 -0.00037857136
0.0010551724 0.001489091 -0.010059694
0.0028841379 -0.0038999999 -0.0006591836
0.0033062068 0.0037581818 -9.7959128e-05
-0.0097779315 -0.0010636364 -0.0079551022
0.01005931 -0.0024818182 -0.0076744896
-0.0075268964 -0.0038999999 -0.0043071429
-7.0344824e-05 0.003049091 -9.7959128e-05
-0.0023213793 0.0023399999 -0.0096387751
0.0052758623 0.0038999999 -0.0061311224
-0.00049241382 -0.0019145454 -9.7959128e-05
-0.00021103448 -0.0027654546 -0.0075341836
-0.0071048276 -0.0019145454 -0.010059694
-0.00063310342 0.0019145454 -0.00837602
0.0023213793 0.00021272727 0.002427551
0.0044317241 -0.0027654546 -0.0087969387
-0.0093558617 -0.0038999999 -0.0015010203
-0.0016179311 -0.0034745454 -0.00023826525
0.0062606898 0.0038999999 -0.0040265303
0.01005931 0.00063818181 -0.00051887747
0.0038689654 0.0038999999 -0.0058505102
0.0031655172 0.0038999999 -0.0059908163
-0.0102 0.00049636362 -0.0016413265
-0.0072455173 0.0029072727 -0.0094984695
-0.01005931 0.00078 -0.0019219387
0.0031655172 0.0038999999 -0.00023826525
0.0079489658 0.0019145454 -0.010059694
0.0099186208 -0.0019145454 -0.0099193873
0.0086524142 0.0013472728 -9.7959128e-05
0.0052758623 -0.0038999999 -0.0006591836
-0.0038689654 -0.0038999999 -0.0010801019
0.0102 -0.0012054546 -0.0050086733
-0.0096372413 -0.00049636362 -0.0086566322
-0.0047131036 0.0037581818 -0.00023826525
-0.0080896551 -0.0029072727 -0.0065520406
0.0099186208 0.0020563637 -0.0085163265
0.0059793103 0.00049636362 -0.010059694
0.0069641378 -0.0038999999 -0.0031846939
-0.0042910343 0.0033327274 -9.7959128e-05
0.0092151724 -0.00021272727 -0.010059694
0.0037282759 -0.0038999999 -0.0031846939
0.0102 -0.0017727272 -0.00079948973
-0.0018993104 0.0029072727 -0.0096387751
-0.0011958621 -0.0027654546 -0.009358163
0.0071048276 -7.0909089e-05 -9.7959128e-05
-0.0056979312 -0.0038999999 -0.004447449
0.0044317241 0.0038999999 -0.0006591836
-0.0102 -0.00021272727 -0.004447449
0.0055572414 -0.0034745454 -0.00023826525
0.0102 0.0033327274 -0.00051887747
0.0028841379 -0.0023399999 -0.0099193873
-0.0096372413 0.0037581818 -0.0015010203
0.002462069 -0.0038999999 -0.0033249999
0.0102 0.001630909 -0.00037857136
0.0023213793 -7.0909089e-05 0.00074387761
0.0093558617 -0.0021981818 -9.7959128e-05
-0.0071048276 0.0038999999 -0.00051887747
0.0102 -0.0021981818 -0.0079551022
-0.002462069 0.00035454545 0.00018265311
-0.004853793 0.003190909 -0.0066923467
-0.0055572414 -0.0027654546 -0.0099193873
0.0052758623 -0.00092181819 -9.7959128e-05
0.0045724139 -0.0013472728 -0.0099193873
0.0102 0.003049091 -0.004447449
0.00612 -0.0029072727 -0.0068326527
0.0076675862 0.0026236363 -9.7959128e-05
0.0013365517 -0.0019145454 -0.010059694
-0.00049241382 0.00092181819 -0.010059694
-0.0083710346 0.0027654546 -9.7959128e-05
-0.0045724139 -0.0038999999 -0.0026234693
-0.0031655172 0.0023399999 -0.0085163265
-0.0035875861 0.0013472728 -0.0099193873
0.0082303444 -0.0027654546 -0.0090775508
-0.0092151724 0.0026236363 -0.0072535714
-0.0031655172 -0.001489091 -9.7959128e-05
0.0011958621 -0.0038999999 -0.0019219387
0.0052758623 -0.0038999999 -0.00037857136
-0.00612 0.0038999999 -0.0006591836
0.004150345 0.0020563637 -9.7959128e-05
-0.0027434484 -0.00078 -0.010059694
-0.0102 -0.0017727272 -0.0041668369
-0.0044317241 0.0038999999 -0.0055698981
0.0102 7.0909089e-05 -0.0065520406
-0.0045724139 0.0038999999 -0.0054295915
-0.0093558617 0.0027654546 -0.00023826525
0.0102 -0.0024818182 -0.0013607142
-0.0093558617 0.0019145454 -0.0092178574
-0.0096372413 -0.0020563637 -0.0078147957
-0.002462069 0.0038999999 -0.0054295915
-0.0082303444 -0.0010636364 -0.010059694
7.0344824e-05 0.0017727272 -9.7959128e-05
-0.0069641378 -0.0027654546 -0.0080954079
-0.004150345 -0.0010636364 -0.010059694
0.0069641378 -0.0038999999 -0.0022025509
-0.0035875861 0.0021981818 -0.0092178574
-0.0066827587 -0.0024818182 -9.7959128e-05
-0.0052758623 -0.0038999999 -0.0013607142
-0.0017586207 -0.0017727272 -9.7959128e-05
0.0083710346 0.0037581818 -0.0069729588
0.004853793 -0.0038999999 -0.0033249999
-0.0080896551 0.0038999999 -0.0022025509
-0.0023213793 0.00035454545 4.234699e-05
-0.00049241382 0.0034745454 -0.0064117345
0.0075268964 0.0038999999 -0.0052892854
0.0076675862 -0.00021272727 -0.010059694
0.0086524142 0.0038999999 -0.0006591836
-0.0059793103 0.00078 -9.7959128e-05
0.0102 0.001630909 -0.0072535714
0.00021103448 0.0038999999 -0.00093979586
0.0086524142 0.0019145454 -9.7959128e-05
0.0037282759 -0.001630909 -0.0099193873
-0.01005931 -0.0029072727 -0.0038862245
0.0071048276 0.00092181819 -0.010059694
-0.0087931035 0.0026236363 -9.7959128e-05
-0.0054165516 -0.0027654546 -0.0099193873
-0.0062606898 0.0038999999 -0.0040265303
0.0059793103 -0.0012054546 -0.010059694
-0.0010551724 -0.0023399999 -9.7959128e-05
0.004150345 0.00021272727 -0.010059694
0.0031655172 0.0017727272 -0.010059694
0.0102 0.001489091 -0.0072535714
0.0037282759 -0.0020563637 -0.0099193873
0.01005931 0.00021272727 -0.0047280611
-0.01005931 0.0020563637 -0.004447449
0.0102 0.0029072727 -0.0064117345
0.01005931 -7.0909089e-05 -0.0040265303
-0.0093558617 0.0026236363 -0.0094984695
0.0096372413 -0.0026236363 -0.0069729588
-0.0013365517 0.0038999999 -0.0027637754
-0.00612 0.0038999999 -0.0061311224
0.00021103448 0.0019145454 -0.0092178574
-0.0052758623 -0.0020563637 -0.010059694
0.0038689654 -0.0038999999 -0.0045877551
0.0049944827 -0.0038999999 -0.0059908163
0.0021806897 -0.0038999999 -0.00037857136
-0.0027434484 0.00021272727 0.0027081633
-0.0087931035 0.0033327274 -0.00023826525
0.0073862071 0.0038999999 -0.0006591836
-0.01005931 0.00063818181 -0.0037459182
-0.0016179311 -0.00063818181 -0.010059694
0.0055572414 0.0036163637 -9.7959128e-05
-0.0062606898 -0.0038999999 -0.0064117345
0.0021806897 -0.001630909 -9.7959128e-05
0.0102 0.0021981818 -0.00023826525
0.0028841379 0.0038999999 -0.002342857
-0.0021806897 -0.0038999999 -0.0054295915
-0.0037282759 -0.0038999999 -0.004447449
-0.0031655172 -0.0038999999 -0.00093979586
0.0079489658 -0.0024818182 -9.7959128e-05
-0.0068234485 0.0012054546 -0.0099193873
0.0094965519 -0.0037581818 -0.0037459182
0.007808276 0.0027654546 -9.7959128e-05
-0.0058386205 0.0026236363 -0.0090775508
-0.0035875861 -0.0036163637 -0.00023826525
-0.0069641378 -0.0012054546 -9.7959128e-05
0.00049241382 -0.0038999999 -0.0013607142
0.0059793103 0.0026236363 -9.7959128e-05
-0.0090744831 -0.0036163637 -0.0062714284
0.0073862071 -0.0038999999 -0.00093979586
0.0013365517 -7.0909089e-05 -0.010059694
-0.0086524142 0.0038999999 -0.0031846939
-0.0013365517 -0.0027654546 -0.009358163
0.0055572414 -0.0013472728 -0.0099193873
0.0064013791 0.0034745454 -9.7959128e-05
