# .PCD v0.7 - Point Cloud Data file format
VERSION 0.7
FIELDS x y z
SIZE 4 4 4
TYPE F F F
COUNT 1 1 1
WIDTH 1183
HEIGHT 1
VIEWPOINT 0 0 0 1 0 0 0
POINTS 1183
DATA ascii
-0.017017823 0.00061290321 0.00017966116
0.018466149 -0.00061290321 -6.2711726e-05
-0.0047070575 0.0038000001 -0.0010322033
-0.022811124 -0.00061290321 -0.0078186439
-0.020638637 -0.00085806451 -0.0080610169
0.012672847 0.0038000001 -0.0024864406
0.02039725 0.00012258065 -0.0085457629
-0.0020517942 -0.0038000001 -0.0041830507
0.023535287 -0.0033096774 -0.0073338985
0.0213628 -0.0038000001 -0.0058796611
-0.014845335 -0.0038000001 -0.006122034
-0.022569736 -0.0035548387 -0.0027288136
0.010017584 0.0033096774 -6.2711726e-05
0.013155622 0.00085806451 0.0030881357
-0.022569736 -0.0015935483 -0.0095152538
-0.0042242822 0.0038000001 -0.001516949
-0.01243146 0.00012258065 -0.0095152538
-0.0015690192 -0.0038000001 -0.0056372881
-0.017017823 0.0038000001 -6.2711726e-05
-0.011465909 -0.0038000001 -0.0029711863
-0.0039828946 -0.0030645162 -0.0080610169
-0.014603947 -0.0033096774 -0.0078186439
0.016052272 0.0038000001 -0.0063644066
-0.021604188 -0.00085806451 -6.2711726e-05
-0.012914235 0.0013483871 -0.0085457629
0.013638398 0.0030645162 -0.0092728818
0.018707536 -0.0038000001 -0.0012745762
-0.017741986 0.002083871 -0.0070915255
0.02425945 0.0018387097 -6.2711726e-05
-0.0015690192 -0.0030645162 -6.2711726e-05
-0.019914474 -0.0030645162 -0.007576271
-0.0068795457 -0.0033096774 -6.2711726e-05
-0.01725921 0.0030645162 -0.0092728818
-0.017017823 0.0011032259 -0.0070915255
0.01629366 0.0011032259 -6.2711726e-05
0.011948684 -0.00036774194 -0.0087881358
-0.0071209329 0.0028193549 -0.0097576268
0.015569498 -0.00036774194 -0.0092728818
-0.0022931818 -0.0038000001 -0.0003050846
-0.023776675 0.002083871 -0.007576271
-0.02425945 0.0025741935 -0.0070915255
0.012672847 0.0038000001 -0.0012745762
-0.017983373 0.0038000001 -0.0022440676
0.010258972 0.0038000001 -0.007576271
-0.016776435 0.0035548387 -6.2711726e-05
-0.001086244 -0.0028193549 -0.0068491525
-0.01629366 -0.00061290321 -0.0097576268
-0.016535047 -0.0033096774 -0.007576271
-0.0013276316 -0.0028193549 -0.0083033899
-0.0047070575 0.0030645162 -6.2711726e-05
-0.013638398 0.0028193549 -0.007576271
0.019673087 0.0015935483 -6.2711726e-05
0.0039828946 -0.0030645162 -6.2711726e-05
-0.0213628 0.0038000001 -0.0041830507
-0.019673087 -0.00036774194 -0.0083033899
-0.0035001198 -0.0038000001 -0.0046677967
-0.0063967705 0.0038000001 -0.0003050846
0.018466149 -0.0023290322 -0.0003050846
-0.015569498 -0.0038000001 -0.003455932
-0.012190072 0.0025741935 -0.0080610169
-0.010500359 0.0015935483 -0.0078186439
0.0073623206 -0.0038000001 -0.0044254237
0.022328349 -0.0023290322 -0.0085457629
0.01532811 0.0038000001 -0.003698305
0.0015690192 -0.0038000001 -0.0068491525
-0.018466149 -0.0038000001 -0.0010322033
-0.0042242822 -0.0038000001 -0.0032135593
-0.013879785 0.00012258065 -0.0090305088
0.0042242822 -0.0038000001 -0.0017593219
0.024742225 0.0035548387 -0.001516949
-0.011948684 0.0011032259 -0.0080610169
-0.00036208134 0.0023290322 -0.0087881358
0.00036208134 -0.0023290322 -0.0083033899
0.0090520335 0.0011032259 -6.2711726e-05
-0.02425945 -0.0035548387 -0.0029711863
0.021845575 0.0035548387 -0.0073338985
0.014845335 0.0038000001 -0.0056372881
0.010500359 0.0038000001 -0.0066067795
-0.01532811 0.0030645162 -0.0095152538
-0.023776675 0.0038000001 -0.0027288136
0.025225 0.0033096774 -0.0032135593
-0.010258972 0.0038000001 -0.0017593219
0.015086723 0.0038000001 -0.0046677967
-0.0020517942 -0.0030645162 -6.2711726e-05
0.008086483 -0.0013483871 -0.0085457629
0.00012069378 -0.0023290322 -0.0083033899
-0.01532811 0.0018387097 -0.0070915255
0.016052272 0.0033096774 -0.0080610169
0.025225 -0.0015935483 -0.0049101696
0.016052272 -0.00085806451 -0.0092728818
0.022086961 -0.0038000001 -0.0012745762
-0.023052512 0.0038000001 -0.0007898304
0.0088106459 0.0038000001 -0.0070915255
-0.011224521 -0.0038000001 -0.0063644066
0.025225 0.0023290322 -0.0003050846
-0.019190311 0.0018387097 -0.0070915255
0.01629366 -0.0030645162 -0.0003050846
-0.024983613 -0.0018387097 -0.0012745762
0.01629366 -0.0038000001 -0.0027288136
-0.012190072 -0.00061290321 -0.0090305088
-0.0047070575 -0.0038000001 -0.0012745762
0.00084485649 -0.0038000001 -0.001516949
-0.0068795457 0.00061290321 0.002361017
-0.018707536 0.0038000001 -0.0049101696
-0.021604188 0.0013483871 -6.2711726e-05
-0.0073623206 0.0015935483 -0.0087881358
-0.017500598 0.00036774194 -0.0070915255
0.014845335 0.0038000001 -0.0024864406
0.0025345695 -0.0038000001 -0.0017593219
0.0092934212 0.00085806451 -6.2711726e-05
0.015810885 0.0038000001 -0.0032135593
0.016535047 0.0015935483 -0.0087881358
0.021845575 0.0038000001 -0.0029711863
-0.001086244 -0.0038000001 -0.00054745749
0.012914235 0.0038000001 -0.001516949
-0.013155622 0.0018387097 -0.0097576268
-0.0049484451 -0.0038000001 -0.0068491525
-0.013155622 -0.00036774194 -6.2711726e-05
-0.019673087 -0.00061290321 -6.2711726e-05
0.0020517942 -0.0025741935 -0.0083033899
0.013879785 0.002083871 -6.2711726e-05
0.010741747 -0.0038000001 -0.0039406777
-0.022569736 0.0015935483 -0.0097576268
0.00084485649 -0.0038000001 -0.006122034
0.0039828946 0.0038000001 -0.0032135593
-0.00036208134 0.0035548387 -6.2711726e-05
-0.00084485649 0.0038000001 -0.0049101696
-0.0032587321 0.0033096774 -0.0068491525
-0.010500359 0.0011032259 -0.0085457629
-0.0054312204 -0.0030645162 -0.0080610169
0.0090520335 0.0038000001 -0.0027288136
0.0030173445 0.00061290321 0.0016338985
-0.024983613 -0.0015935483 -0.0012745762
0.0044656699 0.0011032259 -0.0090305088
0.010500359 -0.0038000001 -0.00054745749
0.024742225 -0.0028193549 -0.0080610169
0.0059139952 -0.0011032259 -6.2711726e-05
-0.02425945 0.00085806451 -0.0095152538
-0.017500598 -0.0038000001 -0.0046677967
0.013879785 0.0018387097 -0.0087881358
0.0039828946 0.0018387097 -6.2711726e-05
0.024983613 0.00061290321 -0.0039406777
-0.0030173445 -0.0038000001 -0.0027288136
0.0027759569 0.0038000001 -0.0049101696
-0.00012069378 0.0030645162 -0.0068491525
0.013155622 0.0033096774 -0.0087881358
-0.0068795457 0.0038000001 -0.0066067795
0.0037415072 -0.00036774194 -0.0085457629
-0.024500838 0.0025741935 -0.0066067795
-0.016535047 0.0011032259 -0.0085457629
-0.019673087 -0.0038000001 -0.0024864406
-0.0020517942 0.0013483871 -0.0097576268
-0.0073623206 -0.0038000001 -0.0012745762
-0.018948924 -0.0038000001 -0.0051525421
0.0095348088 0.0033096774 -0.0092728818
-0.0013276316 0.0038000001 -0.0022440676
-0.016052272 -0.0015935483 -0.0003050846
-0.019431699 -0.0038000001 -0.0027288136
-0.017741986 0.00061290321 -0.0083033899
0.021845575 -0.0033096774 -0.0003050846
-0.020638637 0.00012258065 -0.0083033899
0.02425945 -0.0038000001 -0.0041830507
-0.010017584 -0.0038000001 -0.0066067795
-0.0025345695 -0.0038000001 -0.003455932
-0.024742225 0.0030645162 -0.0058796611
-0.018948924 0.0038000001 -0.0027288136
0.0095348088 0.0038000001 -0.00054745749
-0.0042242822 0.0011032259 -6.2711726e-05
-0.0037415072 -0.0038000001 -0.0068491525
0.00084485649 -0.0038000001 -0.0056372881
0.018948924 0.0035548387 -0.0070915255
-0.013879785 0.0028193549 -0.0095152538
0.0018104067 -0.0023290322 -0.0068491525
0.018466149 -0.0018387097 -0.0003050846
0.022328349 0.0038000001 -0.0053949151
0.0018104067 -0.00036774194 -0.0085457629
-0.015086723 0.0035548387 -0.0073338985
-0.0068795457 0.00061290321 0.0018762713
0.0076037082 0.0038000001 -0.0007898304
-0.01436256 -0.0038000001 -0.003455932
-0.018948924 -0.0035548387 -0.0078186439
0.0078450954 -0.0038000001 -0.0046677967
-0.0027759569 -0.0038000001 -0.0020016949
-0.0035001198 0.0038000001 -0.0017593219
0.021121413 0.0025741935 -0.0090305088
-0.011224521 -0.0013483871 -6.2711726e-05
0.022811124 -0.002083871 -0.0087881358
-0.019673087 -0.0011032259 -6.2711726e-05
0.020155862 0.00036774194 -0.0085457629
-0.0042242822 -0.002083871 -0.0083033899
-0.0018104067 -0.0038000001 -0.0020016949
-0.0068795457 0.0038000001 -0.0007898304
-0.020155862 0.0030645162 -6.2711726e-05
0.010017584 -0.0038000001 -0.0022440676
-0.020880025 -0.0038000001 -0.0066067795
0.014845335 -0.0028193549 -0.0003050846
-0.024983613 -0.0015935483 -0.0032135593
0.019914474 0.0018387097 -6.2711726e-05
-0.023052512 -0.0035548387 -0.0029711863
0.0090520335 0.0025741935 -6.2711726e-05
0.0213628 -0.0038000001 -0.0024864406
-0.019431699 0.0025741935 -6.2711726e-05
-0.010017584 0.0038000001 -0.0063644066
-0.0090520335 0.0030645162 -0.0095152538
0.0083278706 0.0038000001 -0.003698305
-0.0073623206 -0.0038000001 -0.0027288136
0.0047070575 0.0011032259 -0.0095152538
0.012190072 -0.0018387097 -0.0083033899
-0.0059139952 -0.0035548387 -0.0073338985
-0.013155622 0.0038000001 -6.2711726e-05
0.0027759569 0.0011032259 0.0021186443
0.01436256 -0.0035548387 -0.0003050846
0.0090520335 -0.00036774194 -0.0085457629
-0.013638398 -0.00036774194 -6.2711726e-05
0.022328349 -0.00085806451 -0.0003050846
-0.013155622 0.0023290322 -0.0085457629
0.024983613 0.00012258065 -0.0022440676
-0.010258972 0.0038000001 -0.0049101696
-0.0032587321 -0.0038000001 -0.0027288136
-0.020155862 -0.0013483871 -6.2711726e-05
0.025225 0.0030645162 -0.0029711863
-0.02039725 0.0038000001 -0.0022440676
-0.018707536 0.0023290322 -0.0070915255
-0.0039828946 0.0038000001 -0.0039406777
0.011224521 -0.0028193549 -0.0003050846
0.012672847 0.0011032259 0.0038152544
-0.020155862 0.0035548387 -0.0085457629
-0.011465909 0.0038000001 -0.0007898304
0.011465909 -0.0023290322 -0.0083033899
0.0073623206 -0.0038000001 -0.003455932
0.024983613 0.002083871 -0.0041830507
-0.011707297 -0.0038000001 -0.0012745762
-0.0032587321 0.0038000001 -0.0058796611
0.016052272 0.0025741935 -6.2711726e-05
-0.0015690192 -0.002083871 -6.2711726e-05
-0.0076037082 0.0023290322 -6.2711726e-05
0.025225 -0.0011032259 -0.006122034
-0.012914235 -0.0018387097 -0.0083033899
-0.011707297 0.0033096774 -6.2711726e-05
0.00060346891 -0.0011032259 -6.2711726e-05
-0.0085692583 0.0038000001 -0.0032135593
-0.0090520335 -0.0035548387 -0.007576271
-0.011707297 0.0035548387 -6.2711726e-05
-0.0088106459 0.0038000001 -0.0020016949
0.0042242822 0.00061290321 -0.0087881358
-0.015810885 0.0038000001 -0.0051525421
-0.0083278706 0.0038000001 -0.003455932
-0.001086244 -0.002083871 -0.0083033899
-0.0073623206 0.0013483871 -0.0097576268
0.019673087 -0.0038000001 -0.0046677967
0.0013276316 -0.0033096774 -0.0080610169
0.0049484451 0.0038000001 -6.2711726e-05
-0.022569736 0.00061290321 0.0021186443
-0.0022931818 -0.0038000001 -0.0041830507
-0.024742225 0.0030645162 -0.003455932
-0.0013276316 0.0018387097 -6.2711726e-05
-0.0054312204 0.002083871 -0.0097576268
-0.014121172 -0.0038000001 -0.0024864406
-0.021845575 -0.0033096774 -0.0073338985
0.018466149 0.00036774194 -0.0087881358
0.015569498 -0.0038000001 -0.003698305
0.013638398 0.0035548387 -6.2711726e-05
-0.015810885 0.0035548387 -0.0070915255
0.019190311 -0.0038000001 -0.0044254237
0.025225 -0.0013483871 -0.0051525421
0.013638398 0.0011032259 -0.0087881358
-0.0088106459 0.0038000001 -0.0049101696
-0.013155622 0.0038000001 -0.0058796611
0.017983373 -0.0038000001 -0.0022440676
0.017983373 0.00085806451 0.0033305087
-0.02425945 0.0025741935 -0.0068491525
0.0083278706 0.0038000001 -0.00054745749
0.0090520335 0.0028193549 -6.2711726e-05
0.017017823 -0.0011032259 -0.0087881358
-0.013638398 -0.0018387097 -0.0083033899
-0.01629366 0.0038000001 -0.0066067795
0.0056726076 0.0023290322 -0.0092728818
0.0015690192 0.0030645162 -0.0070915255
-0.0056726076 -0.0033096774 -0.0066067795
0.0022931818 0.0038000001 -0.006122034
-0.023776675 -0.0035548387 -0.0022440676
-0.016776435 0.0023290322 -0.007576271
-0.014121172 0.0038000001 -0.0032135593
0.0022931818 0.00061290321 0.00260339
-0.0013276316 -0.0038000001 -0.0046677967
-0.0037415072 0.0015935483 -6.2711726e-05
0.0078450954 -0.0018387097 -0.0080610169
0.016776435 0.0038000001 -0.006122034
0.014603947 -0.0038000001 -0.0017593219
-0.0027759569 -0.0038000001 -0.003455932
0.0025345695 0.00036774194 0.0018762713
-0.014845335 0.00085806451 -0.0078186439
-0.0042242822 0.0038000001 -0.0056372881
-0.01339701 0.0038000001 -0.0017593219
0.016052272 -0.0038000001 -0.0017593219
-0.0035001198 0.0023290322 -0.0092728818
0.0022931818 -0.0038000001 -0.003698305
0.01629366 0.0038000001 -0.0007898304
0.0025345695 -0.0023290322 -0.0068491525
0.017017823 -0.0023290322 -0.0003050846
-0.010500359 -0.0038000001 -0.0063644066
-0.0056726076 0.00012258065 -0.0087881358
-0.00060346891 0.0025741935 -0.007576271
-0.021121413 0.0023290322 -0.0070915255
0.024983613 -0.00036774194 -0.0073338985
0.0049484451 -0.0038000001 -0.0010322033
0.010258972 0.00061290321 -0.0095152538
0.0068795457 0.0038000001 -0.0046677967
-0.0092934212 0.0028193549 -6.2711726e-05
-0.011948684 -0.0013483871 -6.2711726e-05
0.010500359 -0.0025741935 -0.0083033899
0.012672847 -0.0038000001 -0.0022440676
0.0054312204 0.0038000001 -0.0056372881
-0.01243146 0.00036774194 0.0030881357
0.0076037082 0.00036774194 0.0013915256
0.0068795457 0.0018387097 -6.2711726e-05
0.012914235 0.00061290321 0.002845763
0.024983613 0.00036774194 -0.0070915255
0.0066381581 0.0025741935 -0.0092728818
-0.00036208134 -0.0038000001 -0.0017593219
0.0047070575 0.0011032259 -0.0097576268
-0.0076037082 0.0038000001 -0.0029711863
0.016776435 -0.00085806451 -6.2711726e-05
-0.020155862 0.0035548387 -0.0070915255
0.00036208134 -0.002083871 -0.0083033899
-0.0020517942 0.00036774194 0.00066440692
0.0068795457 -0.0023290322 -0.0080610169
-0.0083278706 0.00012258065 -0.0090305088
-0.0047070575 0.00061290321 -0.0092728818
0.0088106459 0.0038000001 -0.0058796611
-0.022569736 -0.0035548387 -0.0007898304
0.019431699 0.0038000001 -0.0022440676
-0.0076037082 -0.0038000001 -0.001516949
-0.0015690192 0.0038000001 -0.0010322033
-0.014845335 0.0011032259 -0.0070915255
-0.01436256 0.0030645162 -0.0092728818
0.020880025 0.0038000001 -0.003698305
-0.018466149 0.0033096774 -0.0003050846
-0.023293899 -0.0035548387 -0.0066067795
-0.024742225 0.0025741935 -0.003455932
-0.012914235 -0.00036774194 -6.2711726e-05
0.0061553828 -0.0023290322 -6.2711726e-05
-0.015569498 0.0015935483 -0.0080610169
0.013638398 -0.0038000001 -0.0078186439
-0.0213628 0.0038000001 -0.0053949151
-0.0015690192 0.0038000001 -0.0058796611
-0.022328349 -0.00036774194 -0.0085457629
-0.02039725 -0.0038000001 -0.0012745762
0.00084485649 0.0038000001 -0.0017593219
-0.020880025 -0.0038000001 -0.0049101696
0.01436256 0.0038000001 -0.0063644066
-0.0056726076 0.00061290321 -0.0092728818
-0.016776435 -0.00036774194 -0.0090305088
0.024500838 -0.0033096774 -0.0058796611
-0.0059139952 -0.0038000001 -0.0020016949
-0.020880025 0.0038000001 -0.0032135593
0.0063967705 0.0038000001 -0.0056372881
0.019914474 -0.0038000001 -0.003698305
-0.013638398 0.0028193549 -6.2711726e-05
0.0059139952 -0.0038000001 -0.0022440676
0.0059139952 -0.0035548387 -0.0003050846
0.0059139952 0.00012258065 -6.2711726e-05
-0.023535287 0.0013483871 -0.0083033899
0.01243146 0.00085806451 0.0038152544
-0.0054312204 0.0038000001 -0.0056372881
-0.0092934212 -0.0038000001 -0.0003050846
0.017741986 -0.0038000001 -0.0041830507
0.0092934212 0.0038000001 -0.0051525421
0.022811124 -0.0011032259 -0.0003050846
0.012190072 -0.0038000001 -0.0007898304
-0.0015690192 0.0028193549 -0.0073338985
-0.024983613 -0.0023290322 -0.00054745749
-0.00060346891 0.0038000001 -0.0044254237
0.0047070575 0.0038000001 -0.0007898304
0.0076037082 0.0025741935 -0.0092728818
-0.014845335 0.0038000001 -0.006122034
-0.0056726076 0.0038000001 -0.0041830507
0.025225 -0.0015935483 -0.0012745762
0.0095348088 0.0038000001 -0.0017593219
-0.021121413 0.0038000001 -0.0041830507
-0.0088106459 0.0023290322 -0.0085457629
-0.022811124 0.0013483871 -0.0068491525
0.00084485649 0.0038000001 -0.0066067795
-0.01629366 -0.0038000001 -0.0041830507
-0.013638398 0.0013483871 -0.0097576268
-0.011707297 -0.0038000001 -0.001516949
-0.0090520335 -0.00061290321 -6.2711726e-05
0.024983613 -0.0033096774 -0.0044254237
-0.00036208134 -0.0038000001 -0.0020016949
0.00084485649 -0.00012258065 -0.0085457629
0.0095348088 -0.0011032259 -0.0085457629
0.022811124 0.0038000001 -0.0032135593
-0.024742225 -0.002083871 -0.0087881358
0.017741986 -0.0011032259 -0.0090305088
0.015810885 -0.00085806451 -0.0097576268
0.023052512 0.00061290321 0.00090677984
0.017741986 -0.00061290321 -6.2711726e-05
-0.008086483 -0.0038000001 -0.0024864406
0.024983613 0.0015935483 -0.006122034
0.0025345695 0.0023290322 -6.2711726e-05
0.015569498 0.0035548387 -0.0073338985
-0.011948684 -0.0038000001 -0.0066067795
-0.022811124 -0.0035548387 -0.0041830507
0.012914235 0.0013483871 -6.2711726e-05
-0.021121413 -0.00012258065 -0.007576271
-0.024742225 0.0013483871 -0.0024864406
-0.010258972 0.0035548387 -0.0078186439
0.017500598 0.00036774194 0.0018762713
0.010741747 -0.0038000001 -0.00054745749
-0.00084485649 -0.0030645162 -6.2711726e-05
-0.018707536 0.00085806451 -0.007576271
0.0022931818 0.0038000001 -0.0010322033
-0.008086483 0.0033096774 -0.0092728818
-0.023052512 -0.0028193549 -0.0083033899
-0.02039725 0.0038000001 -0.0029711863
-0.0054312204 -0.0038000001 -0.0053949151
-0.021604188 -0.0023290322 -0.0087881358
-0.021121413 0.0011032259 -6.2711726e-05
0.01243146 -0.0038000001 -0.0058796611
0.0061553828 -0.0038000001 -0.0070915255
-0.0068795457 0.0018387097 -6.2711726e-05
-0.0030173445 0.0038000001 -6.2711726e-05
0.013638398 0.0038000001 -0.0051525421
-0.0054312204 -0.0038000001 -0.0063644066
0.012190072 -0.002083871 -0.0083033899
-0.011707297 0.0030645162 -0.0092728818
0.022569736 -0.0038000001 -0.0012745762
0.0071209329 0.0035548387 -0.0083033899
0.025225 -0.0018387097 -0.0058796611
-0.00012069378 -0.0038000001 -0.0056372881
-0.0068795457 0.0038000001 -6.2711726e-05
0.013155622 0.0038000001 -0.0053949151
0.00036208134 0.0038000001 -0.006122034
-0.011224521 0.0033096774 -0.0092728818
-0.021845575 0.00012258065 -0.0073338985
0.022811124 0.00085806451 0.00066440692
-0.0042242822 -0.0038000001 -0.0073338985
0.014121172 0.00085806451 -6.2711726e-05
0.022328349 0.0038000001 -0.0012745762
0.016535047 0.0033096774 -0.0085457629
0.019914474 0.0038000001 -0.0020016949
0.0076037082 -0.0038000001 -0.0027288136
0.019190311 0.00061290321 -0.0073338985
-0.0015690192 0.0038000001 -0.0063644066
-0.01725921 -0.0038000001 -0.0027288136
-0.0071209329 0.0025741935 -0.0090305088
-0.0018104067 0.0038000001 -0.0027288136
-0.011465909 0.0015935483 -0.0070915255
0.0088106459 0.00085806451 -0.0095152538
0.013879785 0.0038000001 -6.2711726e-05
-0.016776435 0.0028193549 -0.0070915255
-0.017983373 0.0011032259 -0.0083033899
0.0083278706 0.0011032259 -6.2711726e-05
-0.020880025 -0.0030645162 -0.0003050846
0.0015690192 0.0033096774 -0.0068491525
-0.010258972 -0.0033096774 -6.2711726e-05
-0.021845575 0.0035548387 -0.0070915255
-0.01436256 0.0013483871 -0.0078186439
-0.0035001198 -0.0025741935 -0.0083033899
-0.018224761 0.0030645162 -0.0095152538
0.019190311 0.0028193549 -0.0090305088
-0.0092934212 -0.0018387097 -0.0083033899
-0.0059139952 0.0025741935 -0.0097576268
0.020638637 0.0011032259 -6.2711726e-05
0.008086483 0.0033096774 -0.0092728818
0.024500838 0.0015935483 -0.0090305088
-0.017500598 0.00061290321 -0.007576271
0.0035001198 -0.002083871 -0.0068491525
-0.015086723 -0.0030645162 -0.0080610169
0.0073623206 0.00085806451 0.0013915256
-0.011465909 -0.0038000001 -0.0068491525
0.0049484451 -0.0025741935 -6.2711726e-05
-0.016535047 0.0035548387 -0.0070915255
0.019190311 -0.00036774194 -6.2711726e-05
-0.020155862 -0.0011032259 -0.0092728818
0.017983373 0.00085806451 0.00090677984
-0.017500598 -0.0035548387 -6.2711726e-05
0.020880025 0.00085806451 -0.0073338985
-0.02039725 -0.0015935483 -0.0097576268
-0.0027759569 -0.0025741935 -0.0080610169
0.013638398 0.0028193549 -0.0090305088
0.023535287 -0.0038000001 -0.0029711863
-0.016052272 0.0025741935 -0.0095152538
0.0085692583 0.0013483871 -0.0087881358
-0.024983613 -0.0025741935 -0.003455932
-0.0059139952 0.0030645162 -0.0097576268
0.0025345695 0.0038000001 -0.0003050846
-0.0039828946 -0.0030645162 -0.0063644066
-0.014845335 -0.0030645162 -6.2711726e-05
-0.016535047 -0.00036774194 -0.0090305088
0.017017823 -0.0038000001 -0.003698305
0.023535287 -0.0025741935 -0.0083033899
-0.016776435 0.0030645162 -6.2711726e-05
-0.024742225 0.0015935483 -0.0049101696
-0.0042242822 -0.0038000001 -0.0017593219
-0.010983134 0.00061290321 -0.0085457629
-0.014121172 0.0018387097 -0.0087881358
-0.01339701 0.00061290321 -0.0073338985
-0.019914474 0.0013483871 -0.0080610169
0.00060346891 0.0038000001 -0.00054745749
0.022811124 -0.0038000001 -0.00054745749
-0.020638637 0.0025741935 -0.0003050846
-0.019431699 -0.0038000001 -0.0029711863
0.01339701 -0.00085806451 -6.2711726e-05
-0.0056726076 0.0035548387 -0.0073338985
0.0018104067 -0.0013483871 -6.2711726e-05
0.013638398 0.0038000001 -0.0053949151
-0.00036208134 -0.0038000001 -0.0070915255
0.019190311 0.0038000001 -6.2711726e-05
-0.010983134 0.0038000001 -0.0039406777
0.025225 -0.0011032259 -0.003698305
-0.011707297 -0.0038000001 -6.2711726e-05
0.017017823 0.0035548387 -0.007576271
-0.024742225 0.0018387097 -0.0032135593
0.02425945 0.0023290322 -6.2711726e-05
0.0083278706 -0.0030645162 -0.0003050846
-0.0083278706 -0.0033096774 -6.2711726e-05
0.0015690192 -0.0038000001 -0.0049101696
-0.01532811 0.0038000001 -0.0020016949
0.024983613 0.002083871 -0.0017593219
0.022086961 0.0033096774 -0.0083033899
0.010741747 -0.0038000001 -0.0041830507
-0.008086483 0.0035548387 -0.0085457629
-0.023052512 0.0035548387 -0.0070915255
-0.0068795457 -0.0038000001 -0.007576271
-0.00036208134 0.0038000001 -0.0022440676
-0.020638637 -0.0038000001 -0.0066067795
0.0056726076 -0.0038000001 -0.0068491525
0.012672847 -0.0028193549 -0.0066067795
-0.013879785 -0.00012258065 -0.0095152538
-0.017500598 -0.0033096774 -0.007576271
-0.019914474 -0.0038000001 -0.0027288136
0.022569736 0.0018387097 -6.2711726e-05
-0.018224761 0.0013483871 -0.0085457629
-0.0047070575 0.0038000001 -0.0017593219
-0.010500359 -0.0038000001 -0.0049101696
-0.00084485649 -0.0038000001 -0.0073338985
0.0085692583 -0.0015935483 -6.2711726e-05
-0.013879785 0.0018387097 -0.007576271
-0.0063967705 0.0013483871 -0.0085457629
0.001086244 -0.0038000001 -0.0063644066
0.013638398 -0.00061290321 -6.2711726e-05
-0.0049484451 -0.0038000001 -0.0029711863
0.0047070575 -0.0015935483 -0.0070915255
-0.02039725 -0.00012258065 -0.0083033899
0.008086483 -0.00036774194 -6.2711726e-05
0.018224761 0.0038000001 -0.0039406777
0.022328349 -0.0018387097 -0.0095152538
0.00084485649 0.0015935483 -0.0092728818
-0.0027759569 -0.0011032259 -0.0083033899
0.017017823 0.0035548387 -0.0070915255
0.023052512 -0.00036774194 -0.0003050846
-0.013155622 0.0013483871 -0.0070915255
-0.016776435 0.00036774194 -6.2711726e-05
0.013879785 -0.0030645162 -0.0080610169
0.01629366 -0.0035548387 -0.0078186439
0.0044656699 -0.0038000001 -0.0051525421
-0.012672847 -0.0030645162 -0.0080610169
0.0013276316 0.0038000001 -0.0007898304
-0.01725921 0.0018387097 -6.2711726e-05
-0.018707536 0.0030645162 -6.2711726e-05
0.0092934212 -0.0038000001 -0.0017593219
0.0035001198 0.00036774194 -0.0085457629
0.024018062 -0.0013483871 -0.0083033899
0.023535287 0.0038000001 -0.0041830507
-0.021121413 -0.0025741935 -0.0083033899
-0.024500838 0.00061290321 -0.0083033899
0.010741747 0.0038000001 -0.0022440676
-0.0032587321 0.00061290321 -0.0090305088
-0.018707536 0.0015935483 -0.0085457629
0.011948684 -0.002083871 -0.0003050846
-0.024742225 -0.0033096774 -6.2711726e-05
0.0025345695 0.002083871 -6.2711726e-05
0.022569736 -0.0013483871 -0.0003050846
-0.015569498 -0.0035548387 -0.0073338985
0.010741747 0.00085806451 -0.0087881358
0.0013276316 0.0030645162 -0.0095152538
-0.012672847 0.00061290321 0.00017966116
0.0044656699 0.0011032259 -0.0097576268
-0.024018062 0.0038000001 -0.0017593219
-0.0037415072 0.0038000001 -0.0003050846
-0.018224761 -0.0038000001 -6.2711726e-05
-0.020638637 -0.0028193549 -0.0080610169
0.018466149 0.0038000001 -0.0046677967
-0.0027759569 -0.002083871 -6.2711726e-05
0.024983613 0.0013483871 -0.0080610169
0.01532811 -0.0038000001 -0.0022440676
0.018948924 -0.0011032259 -0.0097576268
0.016052272 0.0038000001 -0.0039406777
0.0090520335 0.00036774194 -6.2711726e-05
-0.0049484451 0.0018387097 -0.0097576268
-0.015086723 0.0023290322 -0.0092728818
0.020638637 0.0038000001 -0.0020016949
-0.016535047 0.0023290322 -0.007576271
-0.022086961 0.00085806451 -0.0073338985
0.020880025 0.00085806451 -0.0087881358
-0.0056726076 -0.0038000001 -0.006122034
-0.021845575 0.00012258065 -0.0083033899
0.0035001198 0.0033096774 -6.2711726e-05
-0.0049484451 0.0033096774 -0.0070915255
-0.014121172 0.0028193549 -0.0080610169
-0.016776435 0.002083871 -0.0095152538
-0.0049484451 0.0023290322 -0.0087881358
0.01532811 0.00085806451 -6.2711726e-05
-0.017983373 0.0030645162 -0.0073338985
-0.0027759569 -0.0038000001 -0.0049101696
0.012914235 0.00036774194 -0.0087881358
0.01243146 0.0038000001 -0.006122034
0.0030173445 0.0038000001 -0.0029711863
-0.024742225 0.0015935483 -0.0046677967
0.0049484451 0.00061290321 -6.2711726e-05
0.00060346891 -0.0038000001 -0.0039406777
-0.0042242822 0.0038000001 -0.0017593219
0.0013276316 -0.0038000001 -0.0003050846
0.00060346891 0.0025741935 -6.2711726e-05
0.00036208134 -0.0035548387 -6.2711726e-05
-0.0018104067 0.0033096774 -6.2711726e-05
-0.0022931818 -0.0038000001 -0.0051525421
0.019914474 -0.0038000001 -0.0029711863
0.023293899 -0.0018387097 -0.0003050846
-0.017983373 -0.0038000001 -0.003698305
0.012914235 -0.0011032259 -6.2711726e-05
-0.00012069378 0.0025741935 -0.007576271
0.010258972 -0.0033096774 -0.0003050846
0.0066381581 -0.0038000001 -0.0051525421
-0.0073623206 0.0013483871 -6.2711726e-05
0.017741986 0.00036774194 0.0021186443
0.024500838 -0.0035548387 -0.0012745762
-0.019914474 0.00085806451 -0.0073338985
-0.0068795457 0.0038000001 -0.003698305
-0.019190311 0.0025741935 -0.0070915255
-0.0015690192 -0.00036774194 -6.2711726e-05
-0.016052272 -0.0038000001 -0.0032135593
-0.011465909 0.00012258065 -0.0097576268
-0.021121413 0.002083871 -0.0085457629
0.020638637 0.00085806451 -0.0087881358
-0.008086483 0.0015935483 -0.0087881358
0.012672847 0.00036774194 0.0035728815
0.0044656699 0.0038000001 -0.0022440676
-0.012914235 -0.0038000001 -0.0046677967
-0.010500359 0.0035548387 -0.0078186439
-0.017741986 0.00085806451 -0.007576271
0.024983613 0.0030645162 -0.0007898304
0.011948684 0.0038000001 -0.0053949151
-0.0022931818 -0.00085806451 -6.2711726e-05
-0.014603947 -0.0038000001 -0.0068491525
-0.010983134 -0.0018387097 -6.2711726e-05
0.015569498 0.0038000001 -0.0039406777
0.017017823 -0.00036774194 -0.0097576268
-0.0071209329 0.00085806451 0.0038152544
0.0022931818 0.00061290321 0.00017966116
0.025225 -0.002083871 -0.0078186439
-0.023052512 -0.0030645162 -0.0078186439
-0.024983613 0.00061290321 -0.0012745762
-0.019914474 0.0038000001 -0.0058796611
0.014603947 0.0030645162 -6.2711726e-05
-0.0071209329 0.00036774194 0.0013915256
-0.01243146 -0.00061290321 -0.0090305088
0.01339701 0.0018387097 -0.0087881358
-0.013638398 0.0038000001 -0.0046677967
0.022328349 0.0028193549 -0.0090305088
0.00012069378 0.0030645162 -6.2711726e-05
0.012672847 -0.00036774194 -0.0092728818
0.0095348088 -0.00085806451 -0.0085457629
-0.02039725 0.0028193549 -0.0095152538
-0.0027759569 -0.0038000001 -0.0041830507
-0.012672847 0.00036774194 -0.0097576268
-0.022811124 -0.0028193549 -0.0083033899
0.0042242822 0.0030645162 -0.0083033899
-0.0085692583 -0.00085806451 -6.2711726e-05
0.015569498 0.0038000001 -0.0024864406
-0.012914235 0.002083871 -0.0083033899
0.012914235 -0.0038000001 -0.0051525421
0.0095348088 -0.0038000001 -0.0073338985
0.0068795457 -0.00012258065 -0.0085457629
0.0059139952 -0.0038000001 -0.0070915255
0.024983613 0.0015935483 -0.003698305
0.014603947 0.002083871 -6.2711726e-05
0.0071209329 -0.0038000001 -0.0024864406
-0.0018104067 0.00012258065 -0.0085457629
-0.01532811 0.0013483871 -0.0070915255
-0.008086483 0.0013483871 -0.007576271
-0.0059139952 0.0035548387 -0.0070915255
0.022328349 -0.0038000001 -0.0020016949
-0.0022931818 0.0028193549 -0.0092728818
-0.022811124 0.00085806451 -6.2711726e-05
-0.012672847 0.0033096774 -0.0090305088
0.0022931818 0.0015935483 -6.2711726e-05
-0.022086961 -0.0035548387 -0.0024864406
0.00036208134 0.0038000001 -0.0020016949
-0.00036208134 0.0030645162 -6.2711726e-05
0.0051898328 0.00036774194 -0.0085457629
0.023052512 -0.0015935483 -0.0092728818
-0.0066381581 0.0025741935 -0.0085457629
0.024983613 -0.00061290321 -0.0010322033
-0.01725921 0.0015935483 -0.0083033899
-0.011465909 -0.0038000001 -0.0058796611
-0.014845335 0.00036774194 -0.0078186439
-0.00012069378 0.0038000001 -0.0046677967
-0.0056726076 0.0038000001 -0.0010322033
0.014845335 -0.00012258065 -0.0090305088
0.00012069378 0.0038000001 -0.0051525421
0.024983613 -0.002083871 -0.0003050846
0.018466149 -0.0038000001 -0.0010322033
-0.014121172 0.00085806451 -0.0083033899
-0.0073623206 0.0038000001 -0.00054745749
-0.0018104067 -0.0025741935 -0.0066067795
-0.017500598 0.00012258065 -0.0070915255
0.024983613 -0.0035548387 -0.0029711863
-0.0032587321 -0.0038000001 -0.0007898304
-0.019190311 0.0011032259 -0.0080610169
0.00036208134 -0.0033096774 -0.0080610169
0.008086483 0.00061290321 -0.0092728818
-0.0018104067 -0.0038000001 -0.001516949
0.0044656699 0.0015935483 -0.0092728818
0.015810885 -0.00036774194 -6.2711726e-05
-0.012672847 0.0038000001 -0.0041830507
-0.018466149 0.0013483871 -0.0085457629
0.0059139952 0.0038000001 -0.0068491525
-0.018466149 0.0033096774 -0.0073338985
0.0032587321 0.0038000001 -0.003455932
0.020638637 0.0038000001 -0.0010322033
-0.019673087 0.0033096774 -0.0070915255
-0.022811124 -0.0023290322 -6.2711726e-05
0.01629366 -0.0038000001 -0.0051525421
-0.01436256 -0.0013483871 -6.2711726e-05
-0.020880025 0.0038000001 -0.0053949151
-0.0025345695 0.0038000001 -0.0012745762
0.011948684 0.00061290321 -6.2711726e-05
-0.0061553828 0.00036774194 -6.2711726e-05
0.024018062 -0.0015935483 -0.0003050846
-0.008086483 0.0038000001 -0.0070915255
-0.0054312204 -0.0038000001 -0.0070915255
-0.0039828946 -0.0018387097 -0.0083033899
-0.017017823 -0.0038000001 -0.0044254237
-0.024742225 -0.0033096774 -0.0049101696
-0.016052272 0.0028193549 -0.0080610169
-0.0092934212 0.0038000001 -0.0041830507
-0.017500598 0.0013483871 -0.0080610169
0.012190072 0.0038000001 -0.0039406777
-0.018224761 0.002083871 -0.0083033899
0.015810885 -0.0038000001 -0.0022440676
0.02039725 0.0013483871 -0.0087881358
0.017741986 0.0038000001 -0.0022440676
-0.024500838 -0.0023290322 -0.0070915255
-0.017500598 0.00036774194 0.0011491528
-0.0063967705 0.0030645162 -0.0092728818
0.00060346891 0.0038000001 -0.0017593219
-0.0078450954 0.00085806451 -0.0092728818
-0.015810885 -0.0038000001 -0.0056372881
0.00084485649 -0.00085806451 -0.0085457629
-0.023293899 -0.0025741935 -0.0085457629
-0.01725921 -0.0011032259 -0.0097576268
0.0056726076 -0.0023290322 -6.2711726e-05
-0.0037415072 0.0011032259 -6.2711726e-05
-0.0095348088 0.0013483871 -0.0073338985
0.0047070575 0.00012258065 -6.2711726e-05
0.024983613 0.0015935483 -0.0032135593
-0.018466149 0.0018387097 -0.0095152538
-0.011948684 -0.0038000001 -0.0063644066
-0.024500838 0.00085806451 -0.0097576268
-0.018224761 0.0015935483 -0.007576271
-0.018948924 0.0018387097 -0.0070915255
-0.01243146 0.0038000001 -0.0041830507
0.0015690192 -0.0038000001 -0.0012745762
0.010741747 0.0023290322 -6.2711726e-05
0.016052272 -0.0038000001 -0.0051525421
0.024983613 0.00036774194 -0.0017593219
-0.011224521 0.00036774194 -0.0090305088
0.024983613 0.0011032259 -0.0039406777
-0.016535047 0.0038000001 -0.0024864406
-0.008086483 0.0038000001 -0.001516949
-0.0088106459 -0.0038000001 -0.0046677967
-0.0068795457 0.0025741935 -6.2711726e-05
0.0095348088 -0.0038000001 -0.0041830507
-0.022569736 0.0038000001 -0.0027288136
-0.0073623206 0.0013483871 -0.0087881358
-0.0088106459 -0.0030645162 -6.2711726e-05
-0.021604188 0.00085806451 -0.0078186439
0.0076037082 -0.00085806451 -6.2711726e-05
-0.0032587321 0.0038000001 -0.0041830507
0.016052272 0.00012258065 -0.0087881358
0.016776435 -0.0038000001 -0.0024864406
0.023776675 0.0013483871 -0.0090305088
0.0015690192 0.0038000001 -0.0012745762
0.0068795457 0.0023290322 -0.0090305088
0.013155622 0.0038000001 -0.00054745749
0.023293899 -0.0038000001 -0.006122034
0.011707297 -0.0038000001 -0.001516949
-0.0083278706 0.00085806451 -0.0087881358
-0.0039828946 0.002083871 -0.0095152538
-0.0088106459 0.0018387097 -0.0078186439
0.015810885 -0.0013483871 -0.0083033899
-0.012190072 -0.0038000001 -0.0010322033
0.020880025 -0.0015935483 -0.0092728818
-0.0083278706 -0.00061290321 -0.0085457629
0.024018062 -0.0023290322 -0.0090305088
-0.0042242822 0.0033096774 -0.0095152538
0.012190072 -0.0018387097 -6.2711726e-05
-0.022569736 0.00085806451 0.0040576272
-0.0047070575 0.0038000001 -0.0007898304
-0.0022931818 -0.0038000001 -0.0029711863
0.010500359 -0.00061290321 -0.0085457629
0.019673087 -0.0038000001 -0.0029711863
-0.024742225 0.0033096774 -0.0029711863
0.011224521 0.0038000001 -0.006122034
-0.023052512 0.0023290322 -0.0070915255
0.0018104067 0.0038000001 -0.0053949151
-0.018224761 0.0028193549 -0.0095152538
0.0085692583 -0.0033096774 -0.0080610169
-0.020155862 0.0038000001 -0.0051525421
0.024983613 0.0033096774 -0.0078186439
0.0083278706 -0.0038000001 -0.0068491525
-0.018224761 0.002083871 -0.0085457629
0.0049484451 -0.0038000001 -0.006122034
0.017500598 0.00061290321 0.0038152544
-0.0035001198 -0.0033096774 -0.0063644066
-0.0071209329 0.0030645162 -0.0092728818
0.0027759569 0.002083871 -0.0097576268
0.0013276316 0.0038000001 -6.2711726e-05
-0.011465909 -0.0038000001 -0.0039406777
-0.018466149 0.0018387097 -0.0097576268
-0.023052512 -0.0030645162 -0.007576271
0.010017584 0.0038000001 -0.0046677967
0.0078450954 0.0011032259 -0.0090305088
0.0054312204 0.0038000001 -0.0029711863
-0.023535287 0.0030645162 -0.0095152538
-0.023535287 0.0023290322 -0.0003050846
-0.0085692583 0.0038000001 -0.0044254237
-0.01725921 0.0011032259 0.00042203403
0.011465909 0.0023290322 -6.2711726e-05
-0.025225 -0.0018387097 -0.0032135593
0.024983613 0.00085806451 -0.0017593219
0.018224761 0.0015935483 -6.2711726e-05
-0.023535287 -0.00012258065 -0.0085457629
-0.010258972 -0.0015935483 -6.2711726e-05
-0.024742225 -0.0011032259 -0.0066067795
0.0056726076 0.0013483871 -0.0095152538
-0.012914235 0.0018387097 -0.007576271
-0.02425945 -0.0023290322 -0.0090305088
-0.0076037082 0.00061290321 0.0030881357
-0.019673087 -0.00061290321 -0.0080610169
-0.00060346891 -0.0018387097 -6.2711726e-05
-0.0213628 -0.00085806451 -0.0083033899
0.012190072 0.00036774194 -0.0087881358
-0.0076037082 -0.0033096774 -0.0078186439
0.022811124 0.0011032259 0.00090677984
-0.011465909 0.0035548387 -0.0085457629
-0.018948924 0.0038000001 -0.0020016949
0.011948684 -0.0038000001 -0.0063644066
-0.010017584 0.0011032259 -6.2711726e-05
0.019914474 -0.0038000001 -0.0058796611
-0.023293899 -0.0025741935 -6.2711726e-05
-0.0061553828 -0.0023290322 -0.0080610169
-0.0071209329 0.0033096774 -0.0092728818
-0.0013276316 -0.00036774194 -6.2711726e-05
0.0027759569 0.0038000001 -0.0020016949
-0.010983134 0.0038000001 -0.0017593219
-0.0054312204 -0.0035548387 -0.0078186439
-0.014845335 0.0030645162 -0.007576271
0.024983613 0.0015935483 -0.0046677967
-0.00036208134 0.0038000001 -0.0044254237
0.020155862 0.0018387097 -0.0087881358
0.016052272 0.0038000001 -0.0024864406
-0.001086244 0.0035548387 -0.0068491525
0.0213628 -0.0015935483 -0.0095152538
-0.023776675 0.0025741935 -0.0083033899
0.020155862 -0.0011032259 -0.0090305088
-0.014845335 0.0015935483 -6.2711726e-05
0.020638637 0.0038000001 -0.006122034
-0.012672847 0.0038000001 -0.0039406777
-0.018707536 0.0038000001 -0.0032135593
0.0097761964 -0.0023290322 -6.2711726e-05
-0.0025345695 0.002083871 -0.0097576268
0.0054312204 0.0015935483 -0.0092728818
-0.0061553828 0.0038000001 -0.0051525421
-0.018948924 0.0015935483 -0.0087881358
0.024983613 -0.00036774194 -0.0003050846
0.024983613 0.0013483871 -0.0022440676
0.0083278706 0.0015935483 -0.0087881358
0.012672847 0.0025741935 -0.0090305088
-0.018466149 0.0038000001 -0.0085457629
-0.0088106459 0.0038000001 -0.0070915255
-0.019914474 0.0038000001 -0.0049101696
0.0078450954 0.0033096774 -6.2711726e-05
-0.023776675 0.00012258065 -6.2711726e-05
-0.0037415072 0.0038000001 -0.001516949
0.0032587321 -0.00061290321 -0.0083033899
-0.024742225 -0.0035548387 -0.0046677967
-0.020638637 0.0023290322 -0.0070915255
-0.014121172 -0.002083871 -0.0080610169
0.019190311 0.0038000001 -0.0007898304
-0.017983373 -0.0038000001 -0.0046677967
0.0213628 -0.0025741935 -0.0080610169
0.0054312204 -0.0038000001 -0.0024864406
0.019673087 -0.0038000001 -0.0022440676
0.0027759569 -0.0015935483 -0.0083033899
0.0088106459 -0.0038000001 -0.0056372881
-0.010017584 -0.0013483871 -6.2711726e-05
-0.023776675 -0.0015935483 -0.0083033899
-0.012914235 -0.0038000001 -6.2711726e-05
0.01725921 -0.0011032259 -0.0092728818
-0.0025345695 0.002083871 -0.0095152538
-0.013638398 -0.00012258065 -0.0092728818
-0.001086244 0.0038000001 -0.0029711863
0.01629366 0.0035548387 -6.2711726e-05
0.00084485649 0.0030645162 -0.0097576268
-0.019914474 0.002083871 -0.0095152538
0.024983613 -0.0035548387 -0.0003050846
-0.0049484451 0.0028193549 -0.0097576268
-0.023293899 -0.0023290322 -0.0090305088
-0.014845335 0.0030645162 -0.0092728818
-0.024742225 0.0033096774 -0.0027288136
-0.020880025 0.0028193549 -0.0085457629
0.0027759569 0.0011032259 0.00260339
0.0090520335 0.00085806451 -0.0092728818
-0.013879785 0.0023290322 -0.0080610169
0.024983613 0.0033096774 -6.2711726e-05
-0.0022931818 0.0030645162 -0.0097576268
0.016052272 0.0038000001 -0.00054745749
-0.014603947 0.0015935483 -0.0083033899
-0.0078450954 -0.0025741935 -0.0080610169
0.012914235 -0.0038000001 -0.003698305
-0.02039725 -0.0038000001 -0.006122034
-0.011948684 0.0038000001 -0.0063644066
-0.011465909 0.002083871 -0.0097576268
-0.02425945 -0.0025741935 -6.2711726e-05
-0.0059139952 0.0035548387 -0.0068491525
-0.023535287 -0.0028193549 -6.2711726e-05
0.015810885 -0.0038000001 -0.0029711863
0.0076037082 0.0038000001 -0.0053949151
0.023293899 -0.0015935483 -0.0095152538
-0.0044656699 -0.00061290321 -6.2711726e-05
-0.0035001198 0.0033096774 -0.0097576268
-0.0056726076 0.0015935483 -0.0097576268
-0.014603947 0.002083871 -0.0070915255
-0.01629366 0.0023290322 -0.0097576268
0.0035001198 0.0028193549 -0.0090305088
-0.0090520335 -0.00012258065 -0.0090305088
-0.014603947 0.0030645162 -0.0092728818
0.0039828946 0.0038000001 -0.003698305
0.010983134 -0.0030645162 -0.0078186439
0.011465909 0.0030645162 -0.0092728818
-0.0078450954 0.0015935483 -0.0085457629
0.0047070575 0.0038000001 -0.0010322033
0.024742225 -0.0023290322 -0.0087881358
0.010258972 0.00036774194 -6.2711726e-05
-0.020155862 -0.0023290322 -6.2711726e-05
0.01243146 -0.0038000001 -0.0073338985
-0.012914235 0.0030645162 -0.0095152538
0.001086244 0.0013483871 -0.0090305088
-0.0097761964 -0.0038000001 -0.0058796611
-0.0061553828 0.0018387097 -6.2711726e-05
-0.0078450954 0.0013483871 -0.0080610169
0.018948924 0.0038000001 -0.003455932
-0.0085692583 0.0033096774 -0.0092728818
-0.010500359 -0.0038000001 -0.0053949151
-0.011948684 -0.0038000001 -0.003698305
-0.021845575 -0.0011032259 -0.0085457629
-0.001086244 -0.0038000001 -0.0003050846
-0.021604188 -0.0038000001 -0.001516949
-0.01725921 -0.0038000001 -0.0049101696
0.01436256 0.0038000001 -0.0056372881
-0.01339701 0.0038000001 -0.0012745762
0.011707297 0.0018387097 -0.0087881358
-0.024742225 0.0018387097 -0.0051525421
-0.0073623206 0.00036774194 0.0030881357
-0.0047070575 0.0033096774 -0.0078186439
0.011948684 0.00061290321 -0.0085457629
-0.00060346891 0.00085806451 -0.0087881358
0.02039725 -0.0038000001 -0.0049101696
-0.022086961 0.0018387097 -0.0085457629
-0.0037415072 0.0038000001 -0.0012745762
-0.012914235 -0.0030645162 -0.0080610169
0.01725921 -0.0013483871 -0.0003050846
-0.01339701 -0.0033096774 -6.2711726e-05
0.010017584 -0.0038000001 -0.007576271
-0.016776435 0.0025741935 -0.0003050846
-0.0022931818 -0.00061290321 -0.0085457629
-0.023535287 0.0011032259 -0.0078186439
-0.022811124 -0.0013483871 -0.0087881358
-0.010741747 0.002083871 -0.0087881358
0.023535287 -0.0038000001 -0.0017593219
-0.0085692583 -0.0038000001 -0.00054745749
0.01532811 -0.0038000001 -0.0029711863
0.013155622 0.0038000001 -0.001516949
-0.011948684 0.00085806451 -0.0073338985
0.0044656699 0.0038000001 -0.0053949151
-0.014845335 0.0018387097 -0.0085457629
0.01629366 -0.0035548387 -0.0068491525
0.010017584 0.0038000001 -0.0070915255
0.024742225 0.0028193549 -0.0068491525
0.0015690192 0.0038000001 -0.0058796611
-0.013155622 0.0025741935 -0.0073338985
-0.024500838 0.0035548387 -0.0056372881
-0.022811124 0.0025741935 -0.0095152538
-0.0044656699 0.0018387097 -6.2711726e-05
0.01339701 -0.0038000001 -0.0024864406
0.0088106459 0.0038000001 -0.0044254237
0.0025345695 0.0015935483 -0.0095152538
-0.0047070575 -0.0038000001 -0.0046677967
0.023293899 -0.0015935483 -0.0092728818
-0.010983134 -0.0038000001 -0.0070915255
0.0092934212 -0.00012258065 -6.2711726e-05
-0.024742225 0.0028193549 -0.0010322033
0.0027759569 -0.0038000001 -0.007576271
0.01436256 -0.0015935483 -0.0083033899
-0.0022931818 -0.0038000001 -6.2711726e-05
0.0049484451 0.00012258065 -6.2711726e-05
0.011224521 0.0038000001 -0.0073338985
-0.024983613 0.00061290321 -0.003698305
0.010258972 0.0025741935 -0.0090305088
-0.0073623206 0.0030645162 -0.0092728818
0.024983613 0.0025741935 -0.0090305088
0.022569736 0.0011032259 0.0011491528
0.0027759569 0.0038000001 -0.0032135593
0.025225 0.0030645162 -0.0046677967
0.001086244 0.0038000001 -0.0049101696
-0.001086244 0.002083871 -6.2711726e-05
0.016776435 0.0038000001 -0.0032135593
-0.0095348088 0.0038000001 -0.0092728818
0.0085692583 -0.0023290322 -6.2711726e-05
-0.018707536 0.002083871 -0.0080610169
0.01243146 0.00085806451 -0.0085457629
-0.0073623206 -0.0038000001 -0.0053949151
-0.014603947 0.00061290321 -6.2711726e-05
-0.0076037082 -0.0038000001 -0.00054745749
-0.016052272 0.0038000001 -0.00054745749
0.019190311 -0.0038000001 -0.00054745749
-0.0056726076 0.0038000001 -0.0003050846
-0.008086483 0.0015935483 -0.0097576268
0.023776675 0.0015935483 -0.0070915255
-0.019190311 0.0038000001 -0.0049101696
-0.014603947 0.0038000001 -0.003698305
0.0049484451 0.0030645162 -0.0090305088
0.017741986 0.0038000001 -0.0020016949
0.010258972 0.0023290322 -0.0090305088
-0.022569736 0.0035548387 -0.0066067795
0.018707536 -0.0033096774 -0.007576271
0.023776675 -0.0023290322 -0.0090305088
-0.012190072 0.0035548387 -0.0003050846
0.008086483 0.0038000001 -0.0003050846
-0.0068795457 0.0038000001 -0.0046677967
-0.024742225 0.0030645162 -0.0066067795
0.018466149 0.0038000001 -0.00054745749
0.020638637 -0.0011032259 -0.0095152538
-0.0066381581 -0.0038000001 -0.0029711863
-0.0097761964 0.002083871 -6.2711726e-05
-0.010258972 0.002083871 -0.0087881358
0.0030173445 0.0038000001 -0.0041830507
-0.024983613 -0.00061290321 -0.006122034
-0.010741747 -0.00085806451 -0.0085457629
-0.02039725 0.0023290322 -6.2711726e-05
-0.0056726076 0.0013483871 -0.0090305088
-0.0066381581 -0.0013483871 -6.2711726e-05
0.024742225 0.00036774194 -0.0003050846
0.024983613 0.0028193549 -0.0083033899
-0.020155862 0.0038000001 -0.003698305
0.0095348088 -0.0023290322 -6.2711726e-05
-0.024742225 0.00085806451 -6.2711726e-05
-0.0059139952 -0.0038000001 -0.0046677967
-0.0056726076 0.0038000001 -0.0017593219
0.0063967705 0.0023290322 -6.2711726e-05
0.023535287 -0.00061290321 -0.0085457629
-0.014845335 0.00036774194 -6.2711726e-05
0.0090520335 0.0038000001 -0.0051525421
-0.010983134 -0.0038000001 -0.0044254237
0.014603947 -0.002083871 -0.0003050846
0.015569498 -0.0025741935 -0.0063644066
0.019673087 0.0038000001 -0.006122034
-0.011707297 0.0033096774 -0.0085457629
-0.0085692583 0.0033096774 -0.0095152538
-0.010500359 -0.0035548387 -6.2711726e-05
-0.016052272 -0.0030645162 -6.2711726e-05
-0.0095348088 0.0038000001 -0.0068491525
-0.0090520335 0.00012258065 -0.0095152538
0.010983134 -0.0038000001 -0.0073338985
0.023776675 0.0038000001 -0.00054745749
0.0030173445 0.00061290321 0.0035728815
-0.015569498 0.00085806451 -0.0070915255
-0.0076037082 -0.0038000001 -0.0029711863
-0.0066381581 0.0038000001 -0.0012745762
-0.013155622 -0.0038000001 -0.0068491525
-0.020638637 0.002083871 -0.0080610169
0.025225 -0.0011032259 -0.0049101696
0.0025345695 0.00036774194 0.0016338985
-0.015810885 -0.00085806451 -6.2711726e-05
-0.016052272 0.0018387097 -0.0070915255
-0.0037415072 -0.0030645162 -6.2711726e-05
-0.0085692583 0.0013483871 -0.0080610169
-0.011707297 0.0011032259 -0.0085457629
0.0066381581 -0.0028193549 -6.2711726e-05
-0.0022931818 0.00036774194 0.0013915256
0.0042242822 -0.0023290322 -6.2711726e-05
0.012914235 0.0015935483 -0.0087881358
0.0097761964 -0.0035548387 -0.007576271
-0.014845335 0.0018387097 -6.2711726e-05
0.010258972 -0.0038000001 -0.0003050846
0.012914235 -0.0030645162 -0.0068491525
-0.0056726076 -0.00085806451 -0.0083033899
0.0078450954 -0.0038000001 -0.0010322033
0.023293899 -0.0038000001 -0.003455932
-0.0018104067 -0.0038000001 -0.0046677967
0.018224761 0.0025741935 -0.0090305088
0.020638637 0.00085806451 -6.2711726e-05
0.012190072 0.0028193549 -6.2711726e-05
-0.022569736 -0.0013483871 -6.2711726e-05
-0.021121413 -0.0030645162 -0.0078186439
-0.011948684 -0.0028193549 -0.0080610169
-0.0097761964 0.0035548387 -0.0095152538
-0.021121413 0.0038000001 -0.0010322033
-0.022086961 0.0028193549 -0.0085457629
0.0088106459 -0.0038000001 -0.0063644066
0.025225 0.0015935483 -0.0085457629
-0.023535287 0.0038000001 -0.006122034
-0.0051898328 -0.00061290321 -0.0083033899
-0.014603947 0.002083871 -0.0080610169
-0.00084485649 0.0013483871 -6.2711726e-05
-0.011707297 0.0023290322 -0.007576271
0.013638398 0.0035548387 -0.0080610169
-0.013155622 0.0038000001 -0.0017593219
0.001086244 -0.0038000001 -0.0041830507
-0.0030173445 0.0011032259 -0.0092728818
0.0056726076 0.0035548387 -0.0078186439
0.010017584 -0.0013483871 -0.0083033899
0.019190311 -0.0038000001 -0.0029711863
-0.019190311 -0.0023290322 -0.0083033899
-0.012190072 0.0038000001 -0.0044254237
-0.018707536 -0.0038000001 -0.0041830507
-0.01532811 0.0035548387 -0.0070915255
0.01243146 0.0038000001 -0.00054745749
-0.00036208134 0.0038000001 -0.0041830507
-0.0032587321 0.0023290322 -0.0090305088
0.010983134 0.0038000001 -0.0058796611
-0.020638637 -0.0038000001 -0.0012745762
0.025225 0.0033096774 -0.00054745749
-0.016052272 -0.0038000001 -0.00054745749
-0.013638398 -0.0038000001 -0.0049101696
-0.010741747 0.0038000001 -0.006122034
0.016535047 0.00085806451 -0.0087881358
-0.01629366 0.0038000001 -0.0063644066
-0.024983613 -0.0028193549 -0.0051525421
0.010500359 -0.0038000001 -0.0029711863
-0.011707297 0.0035548387 -0.0080610169
0.014603947 -0.0038000001 -0.0044254237
0.016052272 -0.00036774194 -0.0090305088
0.014845335 -0.00036774194 -0.0097576268
0.010017584 -0.00061290321 -0.0085457629
-0.024742225 0.0011032259 -0.0022440676
-0.011465909 0.0030645162 -6.2711726e-05
-0.0083278706 0.0023290322 -0.0095152538
-0.01725921 0.0033096774 -0.0078186439
0.024500838 0.00061290321 -0.0085457629
-0.0078450954 -0.0038000001 -0.003698305
0.022569736 -0.0038000001 -0.0041830507
-0.00060346891 0.0038000001 -0.0063644066
0.017500598 -0.0038000001 -0.0027288136
-0.012672847 0.0038000001 -0.001516949
0.022811124 -0.00085806451 -0.0003050846
0.014845335 -0.0038000001 -0.0044254237
0.0073623206 0.0038000001 -0.0022440676
0.023293899 0.00036774194 -0.0085457629
0.0018104067 -0.0038000001 -0.006122034
-0.011465909 0.0038000001 -0.0051525421
-0.016052272 0.00085806451 -0.007576271
-0.0039828946 -0.0038000001 -0.0022440676
0.019190311 0.0025741935 -6.2711726e-05
0.0063967705 -0.0038000001 -0.0044254237
-0.024742225 0.0015935483 -0.0010322033
0.022569736 -0.0011032259 -0.0003050846
-0.00084485649 0.0038000001 -0.006122034
-0.021604188 -0.00085806451 -0.0083033899
-0.02039725 0.00085806451 -0.0085457629
-0.021845575 -0.0018387097 -6.2711726e-05
0.022811124 -0.00012258065 -0.0085457629
0.00060346891 0.0028193549 -0.0097576268
-0.0078450954 -0.0038000001 -0.0070915255
-0.01243146 -0.0038000001 -0.003455932
0.0095348088 -0.0025741935 -0.0083033899
-0.015086723 0.0018387097 -0.0070915255
0.01532811 0.0038000001 -0.0056372881
0.019914474 -0.0038000001 -0.0049101696
0.016052272 0.0038000001 -0.0051525421
