# .PCD v0.7 - Point Cloud Data file format
VERSION 0.7
FIELDS x y z
SIZE 4 4 4
TYPE F F F
COUNT 1 1 1
WIDTH 1159
HEIGHT 1
VIEWPOINT 0 0 0 1 0 0 0
POINTS 1159
DATA ascii
0.0018119354 -0.0024508771 -0.0018902326
0.0041100001 -0.0020052632 -0.0018902326
0.0059661288 -0.00013368421 -0.0010927906
-0.0030493548 0.00093578949 -0.0001181395
-0.00066290324 -0.00022280702 -0.0048141861
-0.0064080646 -0.00049017544 -0.00091558136
0.0041100001 -0.0011140351 -0.0033965115
0.00083967741 0.0019161403 -0.001004186
0.0040216129 0.00057929824 -0.0042825579
-0.0016351612 0.00057929824 -0.0001181395
0.0024306451 -0.00049017544 -0.0001181395
0.0052590324 -0.0014705263 -0.0020674418
0.0061429031 0.00040105262 -0.00047255811
-0.0034029032 -0.0012922807 -0.0045483718
0.0024306451 -0.0023617544 -0.0029534884
0.0037564517 -0.0019161403 -0.0038395347
-0.0038448386 -0.0016487719 -0.0041053486
4.4193548e-05 -0.0011140351 -0.00029534879
-0.0045519355 -0.0012031579 -0.0029534884
-0.0040216129 0.00049017544 -0.0018016278
0.0022538709 0.00040105262 -0.0001181395
0.0040216129 -4.4561402e-05 -0.0036623254
0.00092806452 0.0015596491 -0.0043711625
0.0034029032 -0.0023617544 -0.0032193023
-0.0041983873 0.00075754384 -0.0033965115
0.0032261289 -0.0023617544 -0.0020674418
-0.0017235484 -0.0020943859 -0.00127
0.0061429031 -0.00031192982 0.00050209305
0.0019887097 0.0022726315 -0.0017130232
-0.0022538709 0.0016487719 -0.00073837204
-0.0064964513 0.00031192982 -0.0022446511
0.0058777421 -0.00093578949 -0.0021560465
-0.0040216129 0.0015596491 -0.0014472093
0.0030493548 -0.0020052632 -0.0038395347
0.0064964513 0.00013368421 -0.0024218604
-0.0053474191 -0.00031192982 -0.0020674418
0.0055241934 0.0012031579 -0.0022446511
0.0024306451 -0.00022280702 -0.0001181395
0.005082258 0.00075754384 -0.0029534884
-0.0049054837 -0.00057929824 -0.0019788372
-0.00137 -0.0018270175 -0.00091558136
-0.0040216129 -0.00075754384 -0.0041939532
-0.0019003225 0.0016487719 -0.0041939532
-0.0019003225 0.0014705263 -0.00047255811
-0.0054358062 -0.00075754384 -0.0020674418
0.0025190322 0.0024508771 -0.0031306976
0.0059661288 4.4561402e-05 0.0012995349
-0.0063196775 -0.00040105262 0.0016539535
-0.0046403226 -0.00084666669 -0.0029534884
0.006054516 0.00057929824 -0.0018016278
0.00066290324 -0.00084666669 -0.0001181395
0.0027841935 0.0024508771 -0.0018016278
-0.0016351612 0.00022280702 -0.0048141861
0.0061429031 0.00013368421 -0.0026876742
0.0065848385 0.00040105262 0.00059069769
-0.0007512903 -0.0024508771 -0.0032193023
0.0019887097 -0.0015596491 -0.0006497674
-0.003314516 -0.00084666669 -0.0047255815
-0.00013258064 -0.0014705263 -0.00073837204
-0.0015467742 -0.00022280702 -0.0048141861
-0.00030935483 0.0012922807 -0.00038395345
-0.0012816129 0.0024508771 -0.0020674418
0.0030493548 -0.00093578949 -0.0045483718
0.00066290324 0.0024508771 -0.0018902326
-0.0065848385 0.00031192982 0.00059069769
-0.003314516 0.0024508771 -0.0020674418
-0.00092806452 0.0013814035 -0.00047255811
0.0041100001 -0.00049017544 -0.0017130232
0.0039332258 0.0011140351 -0.0044597671
-0.0030493548 0.00013368421 -0.0047255815
0.0040216129 -0.0022726315 -0.0028648837
0.0012816129 -0.0019161403 -0.0010927906
0.00057451613 -0.00057929824 -0.0048141861
-0.0038448386 -0.0017378947 -0.00127
0.0065848385 -0.00031192982 -0.0018016278
0.004286774 -0.0020943859 -0.0021560465
0.0018119354 -0.0024508771 -0.0020674418
-0.0037564517 -0.0020052632 -0.0034851162
0.0037564517 0.0020052632 -0.0013586046
4.4193548e-05 -0.0014705263 -0.0041939532
0.00039774194 0.0020943859 -0.0033965115
-0.0064080646 -0.00040105262 0.0022741861
-0.0041100001 -0.00057929824 -0.0032193023
0.005082258 -0.0015596491 -0.0019788372
-0.0061429031 -0.00040105262 0.00094511628
-0.0067616128 -0.00022280702 0.0002362791
-0.0014583871 -0.0016487719 -0.00073837204
0.0040216129 0.0019161403 -0.0019788372
0.0041100001 4.4561402e-05 -0.0015358139
-0.0047287098 0.0017378947 -0.0028648837
-0.0055241934 0.00031192982 -0.0028648837
0.0064964513 0.00040105262 0.0018311628
-0.0027841935 -4.4561402e-05 -0.0047255815
4.4193548e-05 0.00049017544 -0.0048141861
0.0062312903 -0.00031192982 0.0021855815
0.00083967741 0.0022726315 -0.0033079069
-0.0041100001 0.00093578949 -0.0039281393
-0.0034029032 0.0012031579 -0.00038395345
-0.0011932257 0.0017378947 -0.0041053486
-0.003314516 0.00093578949 -0.0046369769
-0.0063196775 0.00040105262 0.0013881396
0.0035796773 -0.0012031579 -0.0043711625
-4.4193548e-05 0.00093578949 -0.0001181395
-0.0011048387 0.00057929824 -0.0001181395
-0.0034912904 -0.0012922807 -0.0045483718
4.4193548e-05 -0.0017378947 -0.0037509301
0.0029609676 -0.0012031579 -0.00038395345
-0.0062312903 0.00066842104 -0.0020674418
-0.0040216129 0.0011140351 -0.0037509301
-0.0026958063 -0.0023617544 -0.0015358139
0.0026958063 0.0015596491 -0.0044597671
0.0064964513 0.00049017544 -0.0010927906
-0.0045519355 0.0020052632 -0.0022446511
0.0011932257 0.00254 -0.0023332557
-0.0040216129 0.00013368421 -0.0041053486
0.00039774194 -0.0024508771 -0.0028648837
0.0039332258 0.00075754384 -0.00029534879
0.0041100001 -0.00084666669 -0.0037509301
0.0062312903 -0.00057929824 -0.0010927906
0.0031377419 -4.4561402e-05 -0.0047255815
0.0059661288 0.00022280702 -0.0013586046
0.0010164516 -0.0020943859 -0.0033965115
0.0063196775 -0.00040105262 0.0019197675
0.0029609676 -0.00084666669 -0.00029534879
-0.006054516 0.00013368421 -0.0015358139
-0.0028725807 0.00040105262 -0.0001181395
-0.0064964513 -0.00040105262 0.002008372
0.0048170965 -0.00040105262 -0.0019788372
0.0014583871 -0.0018270175 -0.0037509301
0.0040216129 -0.00040105262 -0.00038395345
0.0024306451 0.00254 -0.002510465
0.0012816129 -0.0018270175 -0.001004186
0.0041100001 -0.0012031579 -0.0015358139
-0.00066290324 0.0013814035 -0.00056116277
0.0026958063 -0.00040105262 -0.0001181395
-4.4193548e-05 0.0010249122 -0.0047255815
-0.0037564517 -0.0019161403 -0.00127
-0.0046403226 0.00022280702 -0.0019788372
-0.0007512903 0.00093578949 -0.00020674415
0.0045519355 0.0012031579 -0.0019788372
0.005082258 -0.0015596491 -0.0022446511
0.00057451613 0.0020943859 -0.00127
-0.00013258064 -0.00031192982 -0.0048141861
0.0061429031 -0.00031192982 0.0019197675
0.0012816129 0.0013814035 -0.0044597671
0.0018119354 0.0023617544 -0.0033079069
-0.0036680645 -0.00040105262 -0.0001181395
-0.0037564517 0.00057929824 -0.0001181395
-0.00137 -0.0022726315 -0.0014472093
-0.0038448386 -0.0017378947 -0.0042825579
0.0039332258 0.0012922807 -0.004016744
-0.0007512903 -0.00049017544 -0.0047255815
0.0063196775 0.00040105262 0.00094511628
0.0066732257 -0.00013368421 0.0010337209
0.0028725807 -0.0023617544 -0.0028648837
-0.00039774194 -0.00075754384 -0.0001181395
-0.00030935483 0.0013814035 -0.00038395345
-0.0007512903 -0.0024508771 -0.0028648837
-0.0025190322 0.0024508771 -0.0026876742
-0.0048170965 -0.00084666669 -0.0019788372
-0.0034029032 -0.0024508771 -0.0022446511
0.0041100001 -0.00093578949 -0.0014472093
-0.0010164516 0.0020052632 -0.0014472093
0.006054516 -0.00013368421 0.00041348839
0.0032261289 -0.0020052632 -0.0010927906
-0.0043751611 -0.0020943859 -0.0022446511
0.0026958063 -0.0018270175 -0.004016744
-0.0059661288 0.00075754384 -0.0023332557
0.0011048387 -0.0014705263 -0.0042825579
0.00048612902 0.0012031579 -0.0044597671
0.0067616128 0.00031192982 0.00076790701
-0.0015467742 -0.00093578949 -0.00020674415
-0.0026958063 -0.0022726315 -0.0033965115
0.00137 0.00254 -0.0022446511
-0.0062312903 -0.00040105262 0.00085651164
-0.0064964513 0.00040105262 -0.0006497674
-0.00066290324 -0.00093578949 -0.0046369769
0.0059661288 -0.00013368421 -0.00082697673
0.0031377419 0.0023617544 -0.0018016278
-0.0035796773 -0.0024508771 -0.0022446511
-0.0011932257 -0.0020943859 -0.0036623254
0.0059661288 0.00031192982 -0.0011813953
0.0040216129 -0.00013368421 -0.00091558136
0.0027841935 -0.0023617544 -0.0032193023
0.0024306451 -0.00031192982 -0.0001181395
-0.0011932257 0.0024508771 -0.0018016278
-4.4193548e-05 0.0019161403 -0.0033965115
-0.0028725807 -0.0012031579 -0.0046369769
-0.0021654838 0.00066842104 -0.0001181395
-0.003314516 0.0013814035 -0.0044597671
0.0027841935 0.0012031579 -0.0046369769
0.0036680645 0.0023617544 -0.003042093
-0.005082258 0.0015596491 -0.0019788372
-0.0016351612 -0.0020943859 -0.00127
0.00092806452 0.0011140351 -0.0046369769
0.0067616128 -4.4561402e-05 -0.00091558136
0.0059661288 -0.00013368421 0.0012109303
0.00057451613 0.0024508771 -0.0020674418
-0.0041100001 0.0014705263 -0.0033965115
-0.00083967741 0.0016487719 -0.0039281393
0.0034912904 0.00084666669 -0.0001181395
0.0031377419 0.00022280702 -0.0047255815
0.0064080646 4.4561402e-05 -0.002510465
0.0066732257 -0.00022280702 -0.0016244185
0.0040216129 0.00022280702 -0.00091558136
-0.00039774194 0.0022726315 -0.0016244185
-0.0026958063 -0.00049017544 -0.0001181395
-0.0015467742 0.0022726315 -0.0015358139
0.0061429031 -0.00057929824 -0.0014472093
0.0015467742 0.0020943859 -0.0036623254
0.0029609676 0.00031192982 -0.0001181395
0.0037564517 -0.0010249122 -0.0045483718
-0.0061429031 -0.00040105262 0.00032488376
-0.0007512903 -0.00049017544 -0.0001181395
-0.00066290324 0.00093578949 -0.0001181395
-0.0017235484 0.0013814035 -0.00038395345
-0.0066732257 -0.00022280702 0.0021855815
0.0026074194 -0.00254 -0.0024218604
-0.0040216129 0.00031192982 -0.0037509301
0.0010164516 -0.0024508771 -0.0028648837
0.0017235484 0.0024508771 -0.0031306976
-0.0026958063 -0.0024508771 -0.0031306976
0.00083967741 0.0015596491 -0.0043711625
-0.0012816129 0.0022726315 -0.0033079069
0.0059661288 4.4561402e-05 -0.0015358139
0.0020770968 0.0014705263 -0.00056116277
-0.0037564517 0.0022726315 -0.0017130232
0.003314516 -0.0024508771 -0.0026876742
-0.0023422581 -0.0010249122 -0.0047255815
-0.0066732257 0.00022280702 -0.0010927906
-0.0034912904 -0.0022726315 -0.0016244185
0.00030935483 0.00040105262 -0.0001181395
-0.0062312903 -0.00075754384 -0.0016244185
-0.00092806452 0.0010249122 -0.0044597671
0.0039332258 -0.0018270175 -0.0037509301
-0.0063196775 -0.00040105262 0.00076790701
-0.0039332258 0.0012031579 -0.00047255811
-0.00039774194 0.00093578949 -0.0047255815
-0.0031377419 4.4561402e-05 -0.0001181395
0.00066290324 -0.0014705263 -0.0041939532
0.00057451613 0.0018270175 -0.0038395347
0.0026958063 -0.00093578949 -0.00029534879
0.0027841935 0.00066842104 -0.0048141861
-0.00013258064 0.00066842104 -0.0047255815
0.0064964513 4.4561402e-05 0.0023627908
0.0040216129 -0.00040105262 -0.00047255811
0.0019887097 0.00075754384 -0.0048141861
-0.0034912904 -0.0020943859 -0.0037509301
-0.0034029032 -4.4561402e-05 -0.0047255815
0.0019887097 -4.4561402e-05 -0.0001181395
-0.0044635483 -0.0010249122 -0.0019788372
0.0010164516 0.00254 -0.0021560465
-0.0020770968 0.00013368421 -0.0001181395
-0.00039774194 0.0024508771 -0.0020674418
-0.0040216129 0.00049017544 -0.0046369769
-0.0019887097 -0.0018270175 -0.004016744
0.0019003225 0.00075754384 -0.0001181395
-0.0010164516 -0.0017378947 -0.004016744
-4.4193548e-05 -0.0018270175 -0.0010927906
-0.0065848385 -0.00040105262 0.0021855815
0.0019887097 -0.0014705263 -0.00047255811
0.0021654838 -0.0024508771 -0.0029534884
0.00039774194 0.0014705263 -0.0042825579
-0.0040216129 -0.00031192982 -0.0035737208
0.0026074194 0.0024508771 -0.0033079069
0.0038448386 0.0022726315 -0.003042093
-0.0010164516 0.0012922807 -0.00038395345
0.0041983873 0.0011140351 -0.0029534884
0.0040216129 -0.00031192982 -0.0013586046
-0.006054516 0.00022280702 0.00059069769
-0.0011048387 -0.00093578949 -0.0047255815
0.0046403226 0.0017378947 -0.0021560465
0.00048612902 -0.0023617544 -0.0018016278
-0.0019003225 0.0022726315 -0.0016244185
0.0010164516 0.0024508771 -0.0019788372
0.0023422581 -0.00254 -0.002510465
0.0032261289 -0.0022726315 -0.0033965115
0.0011048387 0.0022726315 -0.0016244185
0.0037564517 -0.0016487719 -0.00073837204
-4.4193548e-05 -0.0017378947 -0.0038395347
-0.0036680645 -0.00031192982 -0.0001181395
0.0032261289 -0.0018270175 -0.00091558136
0.0040216129 0.00040105262 -0.00127
-0.0067616128 -0.00013368421 0.0017425582
0.0067616128 4.4561402e-05 -0.00047255811
0.0034912904 -0.0023617544 -0.0019788372
0.0057009677 -0.00093578949 -0.0024218604
0.00066290324 -0.0015596491 -0.004016744
0.0064080646 0.00040105262 -2.9534849e-05
-0.0019003225 0.0024508771 -0.0018016278
-0.00039774194 0.0019161403 -0.0034851162
0.004286774 0.00040105262 -0.0019788372
-0.0040216129 0.0020943859 -0.0032193023
-0.00048612902 -0.00075754384 -0.0047255815
0.0007512903 -0.0017378947 -0.00082697673
0.0057009677 0.0010249122 -0.0019788372
0.0054358062 0.0012922807 -0.0020674418
-4.4193548e-05 -0.0011140351 -0.00029534879
0.0034029032 0.0020052632 -0.0039281393
0.0023422581 -0.0022726315 -0.0017130232
-0.0014583871 0.00013368421 -0.0048141861
0.004286774 0.0019161403 -0.0020674418
0.0036680645 0.0023617544 -0.0018902326
0.0025190322 -0.00254 -0.0025990696
0.0065848385 0.00031192982 -0.0020674418
0.0020770968 0.0018270175 -0.0041053486
0.0012816129 0.00031192982 -0.0001181395
-0.0066732257 -4.4561402e-05 0.0023627908
-0.0047287098 0.0013814035 -0.0029534884
-0.00066290324 -0.00093578949 -0.00020674415
-0.003314516 0.00057929824 -0.0001181395
0.0066732257 0.00031192982 -0.0014472093
0.0041100001 -0.0012922807 -0.0016244185
-0.0020770968 0.0023617544 -0.0018016278
0.005082258 -0.00040105262 -0.0029534884
-0.0041983873 -0.00031192982 -0.0018902326
0.0031377419 -0.0022726315 -0.0017130232
0.0059661288 0.00031192982 -0.0017130232
0.00057451613 -0.0022726315 -0.0015358139
-0.0043751611 -0.00013368421 -0.0019788372
0.0057009677 4.4561402e-05 -0.0019788372
-0.0064080646 -0.00040105262 0.0002362791
-0.00066290324 -0.00013368421 -0.0001181395
0.0029609676 -0.0018270175 -0.0041053486
-0.0024306451 -0.00254 -0.0023332557
0.0051706452 0.00084666669 -0.0020674418
0.0024306451 -0.0014705263 -0.00047255811
-0.0020770968 0.00084666669 -0.0001181395
-0.0032261289 -0.00093578949 -0.0001181395
-0.0040216129 -0.00040105262 -0.00056116277
-0.0041983873 -0.0022726315 -0.0023332557
-4.4193548e-05 -0.0013814035 -0.00047255811
0.00013258064 -0.0013814035 -0.00056116277
-0.0053474191 0.00084666669 -0.0028648837
-0.0048170965 0.00013368421 -0.0019788372
-0.0039332258 -0.0010249122 -0.0041053486
0.0048170965 -0.00057929824 -0.0019788372
-0.00030935483 -0.0013814035 -0.00047255811
0.0014583871 0.0010249122 -0.0047255815
0.0037564517 0.0011140351 -0.00029534879
0.0034029032 0.00031192982 -0.0047255815
-0.0026074194 -0.0018270175 -0.00091558136
-0.0034029032 0.0013814035 -0.0045483718
0.0066732257 -0.00022280702 0.00014767445
0.0053474191 -4.4561402e-05 -0.0019788372
-0.0041983873 0.00040105262 -0.003042093
0.0018119354 0.0022726315 -0.0033965115
0.0063196775 0.00066842104 -0.00127
0.00092806452 -0.0024508771 -0.0032193023
0.0051706452 -0.00013368421 -0.0029534884
-0.0025190322 0.0010249122 -0.0046369769
-0.0032261289 0.00013368421 -0.0001181395
0.0025190322 -0.00022280702 -0.0001181395
0.0007512903 0.0021835088 -0.0015358139
0.0019003225 0.0012031579 -0.00038395345
-0.0044635483 -0.0011140351 -0.0019788372
0.0041983873 -0.0017378947 -0.0019788372
0.0067616128 -4.4561402e-05 -0.0015358139
-0.0044635483 -0.00022280702 -0.0029534884
-0.00057451613 -0.0016487719 -0.004016744
0.0037564517 0.00066842104 -0.0001181395
-0.0059661288 -0.00013368421 0.0023627908
0.0040216129 0.00022280702 -0.0047255815
-0.0054358062 0.0011140351 -0.0026876742
-0.0036680645 -0.00075754384 -0.0001181395
-0.00022096773 -0.0020943859 -0.0014472093
0.0041100001 -0.00084666669 -0.0011813953
0.0056125806 0.0011140351 -0.0019788372
4.4193548e-05 0.00093578949 -0.0047255815
0.006054516 -0.00022280702 0.0013881396
0.00022096773 0.0014705263 -0.0041939532
-0.00048612902 0.0022726315 -0.0016244185
-0.0036680645 0.00049017544 -0.0001181395
0.0030493548 -0.0010249122 -0.00038395345
-0.0014583871 -0.00084666669 -0.0047255815
0.0063196775 -0.00031192982 0.00050209305
0.0011932257 -0.0015596491 -0.0041939532
-0.0066732257 0.00013368421 0.0023627908
-0.0067616128 -4.4561402e-05 0.00050209305
-0.00083967741 -0.0012031579 -0.0045483718
0.006054516 0.00040105262 -0.0017130232
-0.0039332258 -0.00093578949 -0.0043711625
-0.0043751611 0.00084666669 -0.0019788372
0.00013258064 0.0019161403 -0.0011813953
0.0038448386 0.0017378947 -0.0041939532
-0.00057451613 0.00040105262 -0.0048141861
0.0041983873 -0.00040105262 -0.0031306976
0.0047287098 -0.0018270175 -0.0023332557
0.0038448386 0.0015596491 -0.00073837204
0.0025190322 -0.0022726315 -0.0016244185
-0.0023422581 0.0023617544 -0.0018016278
-0.0020770968 -0.0023617544 -0.0033079069
0.0028725807 0.00254 -0.0022446511
0.0039332258 -0.00057929824 -0.0046369769
0.0026958063 -0.0023617544 -0.0029534884
0.0022538709 0.0023617544 -0.0018016278
-0.004286774 0.0017378947 -0.0020674418
0.003314516 0.0022726315 -0.0017130232
0.0066732257 0.00031192982 0.0022741861
-0.0032261289 -0.0020943859 -0.0011813953
-0.0043751611 0.0012922807 -0.0019788372
-0.0036680645 0.0012031579 -0.0045483718
0.0017235484 0.0024508771 -0.0020674418
-0.0034912904 -0.00031192982 -0.0001181395
-0.0061429031 0.00031192982 0.00059069769
-0.00039774194 0.00075754384 -0.0047255815
-0.00048612902 -0.0016487719 -0.004016744
-0.0055241934 -0.0012031579 -0.002510465
-0.0054358062 -0.0010249122 -0.0027762791
0.0061429031 0.00031192982 0.00050209305
0.0021654838 -0.0020052632 -0.0037509301
-0.0027841935 -0.0023617544 -0.0017130232
0.0007512903 -0.0022726315 -0.0016244185
-0.0032261289 -0.0020052632 -0.0038395347
-0.0040216129 -4.4561402e-05 -0.0015358139
-0.003314516 -0.0023617544 -0.0018016278
0.0040216129 0.00031192982 -0.001004186
0.0039332258 -0.0018270175 -0.0011813953
-0.0041100001 0.00093578949 -0.0033079069
-0.0024306451 0.00057929824 -0.0001181395
0.0039332258 -0.0021835088 -0.0032193023
0.0040216129 0.00084666669 -0.0038395347
-0.00022096773 -0.0024508771 -0.0029534884
-0.0011932257 -0.0015596491 -0.0006497674
0.0046403226 0.00022280702 -0.0019788372
0.0062312903 0.00057929824 -0.0006497674
0.0041100001 -0.0013814035 -0.0032193023
-0.0041100001 0.0012922807 -0.0015358139
-0.0034912904 -0.00057929824 -0.0047255815
-0.0040216129 -0.00031192982 -0.00082697673
0.0021654838 -0.00254 -0.0025990696
0.0024306451 0.0022726315 -0.0015358139
0.0007512903 0.0023617544 -0.0033079069
-4.4193548e-05 0.0022726315 -0.0015358139
-0.00022096773 0.00254 -0.0027762791
0.0028725807 0.00040105262 -0.0001181395
-0.00137 0.00049017544 -0.0047255815
-0.0036680645 0.0023617544 -0.003042093
-0.0036680645 0.00040105262 -0.0001181395
-0.0067616128 -0.00013368421 -0.00020674415
-0.0029609676 0.0015596491 -0.0044597671
-0.0040216129 0.0020052632 -0.0032193023
-0.0034912904 -0.0023617544 -0.0033079069
-0.0059661288 0.00022280702 -0.0018016278
-0.0010164516 0.00093578949 -0.0046369769
-0.0066732257 -0.00022280702 -0.00038395345
-0.00137 0.0023617544 -0.0033079069
-0.00048612902 0.0024508771 -0.0018902326
-0.0029609676 -0.0022726315 -0.0034851162
-0.0053474191 -0.0013814035 -0.0024218604
-0.0028725807 -0.0024508771 -0.0021560465
-0.00048612902 -0.0015596491 -0.0041939532
-0.0022538709 -0.0010249122 -0.0047255815
0.0051706452 -0.00066842104 -0.0029534884
-0.0034029032 0.0016487719 -0.0042825579
0.0019887097 -0.0011140351 -0.0045483718
0.0011932257 4.4561402e-05 -0.0048141861
0.0031377419 0.00066842104 -0.0047255815
-0.00137 0.0022726315 -0.0016244185
-0.00048612902 0.0020943859 -0.0033965115
0.0029609676 -0.00066842104 -0.0001181395
-0.0029609676 -0.0018270175 -0.0041939532
-0.0040216129 0.00013368421 -0.00029534879
-0.0017235484 -0.0019161403 -0.004016744
-0.00137 -0.0016487719 -0.00073837204
0.0014583871 -0.0024508771 -0.0020674418
0.0049054837 0.0017378947 -0.0020674418
-0.0064964513 0.00049017544 -0.0011813953
0.0044635483 -0.0017378947 -0.0019788372
-0.0027841935 -0.0020052632 -0.0038395347
0.0057009677 0.00084666669 -0.0019788372
0.0045519355 0.0019161403 -0.0021560465
-0.0041983873 -0.00093578949 -0.0029534884
-0.00066290324 0.0013814035 -0.00047255811
-0.0026074194 0.00093578949 -0.00020674415
0.0034029032 -0.0023617544 -0.0031306976
0.0055241934 0.00075754384 -0.0019788372
-0.00092806452 0.00093578949 -0.0046369769
0.0028725807 -0.0014705263 -0.00056116277
0.0047287098 0.0011140351 -0.0019788372
-0.0064964513 0.00040105262 -0.0019788372
0.0016351612 0.00022280702 -0.0001181395
0.0057893549 0.00040105262 -0.0028648837
0.0040216129 -0.00040105262 -0.0006497674
-0.0034912904 0.0011140351 -0.0046369769
0.0031377419 -0.0020943859 -0.00127
0.0010164516 0.00022280702 -0.0001181395
-0.0030493548 0.0020943859 -0.0037509301
-0.0043751611 0.00084666669 -0.0029534884
-0.00066290324 -0.0024508771 -0.0022446511
0.0024306451 0.00031192982 -0.0001181395
-0.00083967741 -0.00254 -0.0024218604
-0.0047287098 -0.0014705263 -0.0019788372
-0.0014583871 0.0016487719 -0.0041939532
0.0012816129 0.00093578949 -0.00020674415
0.0052590324 -0.00084666669 -0.0020674418
-0.0011932257 0.0023617544 -0.0033965115
0.0064080646 -0.00040105262 0.0013881396
0.0040216129 -0.0022726315 -0.0024218604
0.00092806452 0.0012031579 -0.00038395345
0.0056125806 -0.0010249122 -0.0020674418
0.0019003225 -0.0024508771 -0.0028648837
-0.00137 -0.0013814035 -0.0043711625
-0.0010164516 0.0024508771 -0.0018016278
-0.00057451613 0.0011140351 -0.0044597671
-0.0025190322 0.0013814035 -0.00038395345
0.00013258064 -0.00013368421 -0.0001181395
-0.0040216129 4.4561402e-05 -0.0045483718
0.0037564517 0.0020052632 -0.0036623254
0.0023422581 0.00093578949 -0.0001181395
0.0046403226 -0.0013814035 -0.0029534884
0.0030493548 -0.0010249122 -0.0045483718
-0.0032261289 0.0021835088 -0.0013586046
-0.0022538709 0.00093578949 -0.00020674415
0.00066290324 -0.00031192982 -0.0048141861
0.00030935483 0.0012031579 -0.0044597671
-0.0028725807 -0.00254 -0.0024218604
0.0061429031 -0.00031192982 0.0012995349
-0.0017235484 -0.00040105262 -0.0001181395
0.0036680645 0.0012031579 -0.00038395345
0.0030493548 -0.0020052632 -0.0010927906
0.0062312903 -0.00049017544 -0.00056116277
-0.0046403226 0.00084666669 -0.0029534884
-0.0012816129 0.0018270175 -0.00127
-0.0049054837 0.0015596491 -0.0027762791
-0.00022096773 0.00254 -0.0023332557
0.0067616128 0.00031192982 0.00050209305
0.00083967741 0.00254 -0.002510465
-0.0039332258 -0.00057929824 -0.0046369769
0.0036680645 -0.0012031579 -0.00038395345
0.0011932257 -0.0024508771 -0.0019788372
0.006054516 0.00013368421 0.0023627908
0.0034029032 0.00084666669 -0.0001181395
0.0055241934 0.0012031579 -0.002510465
-0.0025190322 -0.0011140351 -0.0046369769
0.0046403226 0.00066842104 -0.0029534884
0.0057009677 -0.00075754384 -0.0026876742
-0.0048170965 0.0014705263 -0.0028648837
-0.00030935483 0.0016487719 -0.0039281393
-0.0031377419 0.0022726315 -0.0033965115
0.0041983873 -0.00013368421 -0.0018016278
-0.0067616128 4.4561402e-05 0.0023627908
-0.0011932257 0.0014705263 -0.00047255811
-0.00013258064 4.4561402e-05 -0.0001181395
-0.0032261289 0.0015596491 -0.0006497674
-0.0007512903 -4.4561402e-05 -0.0001181395
-0.0067616128 -0.00022280702 0.0019197675
0.0041100001 0.00057929824 -0.0016244185
0.003314516 0.00057929824 -0.0047255815
0.0010164516 0.0021835088 -0.0033965115
0.0062312903 0.00075754384 -0.0014472093
0.0024306451 0.00040105262 -0.0001181395
-0.00013258064 -0.0020052632 -0.0011813953
-0.0039332258 0.0017378947 -0.004016744
-0.0032261289 0.00093578949 -0.0046369769
-0.0063196775 0.00057929824 -0.00047255811
-0.00039774194 -0.0010249122 -0.0047255815
0.0011932257 0.00031192982 -0.0048141861
-0.0044635483 0.0020052632 -0.0026876742
-0.0058777421 0.00093578949 -0.0021560465
0.00092806452 0.00084666669 -0.0001181395
-0.003314516 -0.0021835088 -0.0011813953
0.0045519355 0.0012922807 -0.0029534884
0.0025190322 0.00075754384 -0.0048141861
0.0041100001 0.0011140351 -0.0029534884
-0.0041100001 -0.0022726315 -0.0021560465
0.0040216129 0.0020943859 -0.0019788372
-0.0012816129 0.0024508771 -0.0032193023
0.0032261289 -0.0021835088 -0.0036623254
-0.0026074194 -0.0014705263 -0.00047255811
-0.0049938709 -0.0012922807 -0.0019788372
-0.0039332258 -0.0016487719 -0.0033965115
-0.0030493548 0.00254 -0.0021560465
0.0034029032 0.00084666669 -0.0047255815
-0.0067616128 -0.00022280702 -0.0001181395
-0.0023422581 0.00049017544 -0.0001181395
-0.0043751611 0.0010249122 -0.0029534884
0.0030493548 0.00093578949 -0.00020674415
0.0040216129 -0.0012922807 -0.0010927906
0.0029609676 -0.0012922807 -0.0044597671
0.0040216129 -4.4561402e-05 -0.00127
0.0039332258 -0.0021835088 -0.0031306976
-0.0034912904 0.00049017544 -0.0047255815
0.0054358062 0.0010249122 -0.0019788372
-0.0022538709 -0.00022280702 -0.0001181395
0.00057451613 -0.00093578949 -0.0045483718
-0.00083967741 -0.0020943859 -0.0011813953
-0.0026958063 -4.4561402e-05 -0.0001181395
-0.0026958063 0.00084666669 -0.0047255815
-0.0023422581 -0.0022726315 -0.0017130232
-0.0064964513 -0.00040105262 -0.0020674418
-0.0010164516 0.0016487719 -0.00082697673
4.4193548e-05 0.0020052632 -0.0013586046
0.0044635483 -0.00093578949 -0.0019788372
-0.0046403226 -0.0013814035 -0.0029534884
0.0063196775 0.00040105262 0.00041348839
0.00048612902 0.0012031579 -0.0047255815
-0.0032261289 -0.0021835088 -0.0013586046
-0.0012816129 -0.0020052632 -0.0010927906
-0.0041100001 0.00022280702 -0.0033965115
-0.0040216129 0.00013368421 -0.00091558136
-0.00013258064 0.00057929824 -0.0001181395
-0.0038448386 -0.0015596491 -0.0037509301
0.00137 -0.0024508771 -0.0019788372
0.0026958063 0.0023617544 -0.0033965115
-0.0041100001 -0.00075754384 -0.0017130232
-0.0040216129 0.00022280702 -0.0006497674
0.0036680645 -0.00057929824 -0.0046369769
0.0034029032 -0.00066842104 -0.0046369769
0.006054516 -0.00040105262 -0.00073837204
0.0059661288 -4.4561402e-05 0.0011223255
0.0055241934 0.0012031579 -0.0021560465
-0.0049054837 0.0017378947 -0.0022446511
0.0057893549 -0.00049017544 -0.0027762791
-0.0063196775 0.00066842104 -0.0013586046
-0.0026958063 -0.0023617544 -0.0033079069
-0.00013258064 0.0021835088 -0.0015358139
-0.0044635483 0.00040105262 -0.0019788372
0.0011048387 0.0020052632 -0.0035737208
-0.0040216129 -0.00022280702 -0.001004186
-0.0022538709 -0.0024508771 -0.0033079069
-0.0034912904 -0.0022726315 -0.0034851162
0.0067616128 0.00013368421 0.0020969769
-0.0059661288 4.4561402e-05 -0.001004186
0.0010164516 -0.00049017544 -0.0001181395
0.0014583871 -0.0020943859 -0.0036623254
0.0057009677 0.00013368421 -0.0019788372
-0.0016351612 -0.0024508771 -0.0018902326
0.0057009677 -0.00093578949 -0.002510465
-0.0067616128 -4.4561402e-05 -0.0017130232
0.0061429031 -0.00031192982 0.0011223255
-0.0025190322 0.0014705263 -0.00056116277
0.00092806452 -0.0012031579 -0.0044597671
-0.00048612902 -0.0013814035 -0.00047255811
-0.0010164516 -0.0012922807 -0.00047255811
0.0041100001 -0.00093578949 -0.0010927906
-0.0041983873 0.00031192982 -0.0018902326
-0.0056125806 -0.00075754384 -0.0027762791
0.0024306451 0.00254 -0.0025990696
0.0064080646 -0.00049017544 -0.0011813953
-0.0032261289 0.00254 -0.0026876742
-0.0026074194 0.0023617544 -0.0029534884
-0.00092806452 0.00093578949 -0.0045483718
0.0059661288 4.4561402e-05 0.00032488376
-0.0012816129 0.00040105262 -0.0001181395
-0.0035796773 0.0023617544 -0.0028648837
-0.0011048387 -0.0020052632 -0.0035737208
0.0059661288 4.4561402e-05 -0.00073837204
-0.0019887097 0.0011140351 -0.00029534879
-0.0023422581 0.0019161403 -0.004016744
0.005082258 -0.0013814035 -0.0019788372
0.00137 -0.0017378947 -0.004016744
0.0015467742 -0.0010249122 -0.0045483718
-0.0037564517 -0.0023617544 -0.0017130232
0.0025190322 0.00254 -0.002510465
0.0032261289 0.0024508771 -0.0029534884
-0.0046403226 0.0018270175 -0.0025990696
4.4193548e-05 0.00049017544 -0.0001181395
0.0039332258 -0.00040105262 -0.0001181395
-0.0049938709 0.00075754384 -0.0029534884
-4.4193548e-05 -0.00254 -0.0025990696
-0.0038448386 -0.0017378947 -0.001004186
-0.0041983873 0.0013814035 -0.0019788372
0.0018119354 -0.0021835088 -0.0036623254
-0.0041983873 0.0020943859 -0.0020674418
0.0029609676 0.0012922807 -0.00038395345
-0.0014583871 -0.0020943859 -0.0036623254
0.003314516 -0.0015596491 -0.0041939532
0.0064080646 0.00049017544 -0.0010927906
0.0029609676 -0.0015596491 -0.0041939532
-0.0007512903 -0.0020052632 -0.0036623254
0.00013258064 0.00040105262 -0.0001181395
0.0019003225 -0.0021835088 -0.00127
-0.00030935483 -0.0024508771 -0.0018902326
-0.0016351612 0.0014705263 -0.00047255811
-0.0046403226 -0.0017378947 -0.0019788372
0.0023422581 -0.0017378947 -0.0041939532
-0.0017235484 4.4561402e-05 -0.0001181395
0.0011048387 0.0013814035 -0.0044597671
-0.0024306451 0.0015596491 -0.0006497674
0.0028725807 0.0014705263 -0.00056116277
-0.0011048387 0.0020052632 -0.0036623254
0.0011932257 0.0021835088 -0.0014472093
-0.00066290324 -0.00254 -0.0026876742
-0.0040216129 0.00013368421 -0.0035737208
-0.00066290324 -0.00031192982 -0.0001181395
0.0065848385 0.00040105262 0.0021855815
-0.0067616128 4.4561402e-05 0.00076790701
-4.4193548e-05 -0.0024508771 -0.0029534884
-0.0065848385 -0.00031192982 0.0021855815
-0.0065848385 -0.00031192982 0.0014767442
0.0036680645 -0.0014705263 -0.0041939532
-0.0054358062 -0.0012922807 -0.0021560465
-0.0046403226 -0.00075754384 -0.0019788372
-0.0040216129 -0.0023617544 -0.0023332557
-0.0036680645 0.0024508771 -0.0020674418
0.0011932257 0.00254 -0.0026876742
0.00066290324 0.00013368421 -0.0048141861
0.0041983873 0.0017378947 -0.0019788372
-0.0062312903 0.00057929824 -0.00091558136
-0.0017235484 4.4561402e-05 -0.0048141861
4.4193548e-05 0.0018270175 -0.0035737208
-0.0040216129 0.00022280702 -0.001004186
0.0056125806 -0.00040105262 -0.0020674418
0.0046403226 -0.00040105262 -0.0029534884
-0.00137 -0.0015596491 -0.0041939532
-0.0022538709 -0.0024508771 -0.0019788372
0.0040216129 0.00022280702 -0.0038395347
0.0067616128 0.00013368421 0.0018311628
0.0046403226 0.0014705263 -0.0021560465
4.4193548e-05 0.0019161403 -0.00127
-0.0034029032 0.0011140351 -0.0046369769
0.0027841935 0.0024508771 -0.0028648837
0.0038448386 0.0019161403 -0.004016744
0.0021654838 0.00066842104 -0.0048141861
0.0020770968 0.0021835088 -0.0034851162
-0.0051706452 -0.00031192982 -0.0020674418
-0.0035796773 -0.00075754384 -0.0001181395
-0.005082258 -4.4561402e-05 -0.0019788372
-0.0059661288 -4.4561402e-05 5.90698e-05
-0.00039774194 -0.0021835088 -0.0033965115
0.0025190322 -0.0013814035 -0.0044597671
0.00013258064 0.0018270175 -0.0036623254
-0.0039332258 -0.0011140351 -0.0041053486
0.00022096773 0.00254 -0.002510465
-0.0012816129 0.0023617544 -0.0033079069
0.0037564517 0.0018270175 -0.0041053486
-0.006054516 -0.00022280702 -0.001004186
0.00039774194 -0.0023617544 -0.0018016278
-0.0037564517 0.0011140351 -0.0046369769
0.0041100001 0.00057929824 -0.0031306976
-0.0039332258 0.00084666669 -0.00038395345
0.00083967741 0.0016487719 -0.0041053486
-0.00039774194 0.0012031579 -0.0044597671
4.4193548e-05 0.0012922807 -0.0044597671
-0.0029609676 -0.00093578949 -0.00020674415
0.00066290324 0.00254 -0.0023332557
-0.0021654838 0.0022726315 -0.0017130232
-0.00013258064 0.00013368421 -0.0048141861
0.0034029032 0.00040105262 -0.0001181395
0.0025190322 -0.0015596491 -0.0006497674
-0.0040216129 -0.00022280702 -0.0016244185
-0.0007512903 -0.0024508771 -0.0021560465
-0.0036680645 0.0023617544 -0.0017130232
0.0022538709 0.00040105262 -0.0048141861
0.00137 0.0012031579 -0.0046369769
-4.4193548e-05 0.00254 -0.0022446511
0.006054516 -0.00022280702 0.00094511628
0.0028725807 -0.0015596491 -0.0041939532
-0.0037564517 0.0012922807 -0.00038395345
-0.0034912904 0.0020052632 -0.0010927906
-0.0011932257 0.0024508771 -0.0019788372
-0.00083967741 -0.0022726315 -0.0017130232
0.0064964513 0.00040105262 -2.9534849e-05
-0.0011048387 0.0021835088 -0.0033965115
0.0038448386 0.0016487719 -0.0011813953
-0.0040216129 0.0011140351 -0.0006497674
-0.0010164516 0.0018270175 -0.0038395347
0.0065848385 0.00040105262 0.0012109303
0.0024306451 0.00049017544 -0.0001181395
-0.0044635483 0.0012922807 -0.0020674418
-0.0066732257 -0.00031192982 0.0012995349
0.0064080646 -0.00040105262 -0.00020674415
0.0019003225 0.0016487719 -0.0042825579
-0.0031377419 -4.4561402e-05 -0.0047255815
0.0012816129 -0.00049017544 -0.0047255815
0.0022538709 0.00254 -0.0021560465
0.0038448386 -0.00075754384 -0.0045483718
-0.0010164516 -0.0024508771 -0.0031306976
-0.0031377419 -0.0020052632 -0.0038395347
-0.0014583871 -0.0010249122 -0.0047255815
0.0038448386 -0.0012031579 -0.00038395345
0.0019887097 0.00254 -0.0024218604
0.0026074194 -0.0023617544 -0.0027762791
0.0034029032 0.0021835088 -0.0037509301
0.0067616128 -4.4561402e-05 0.00041348839
-0.0026958063 0.0017378947 -0.0042825579
0.0019887097 0.0015596491 -0.0006497674
-0.0040216129 -0.00049017544 -0.0018016278
0.0011932257 -0.0022726315 -0.0016244185
0.0026958063 -0.0020943859 -0.00127
-0.00048612902 -0.00084666669 -0.0001181395
0.0066732257 -0.00013368421 -0.0001181395
0.004286774 0.0019161403 -0.0029534884
0.0021654838 0.0012922807 -0.00038395345
0.0011048387 0.0021835088 -0.0013586046
0.0010164516 0.0015596491 -0.0043711625
-0.0037564517 0.00066842104 -0.0001181395
-0.0055241934 -0.00057929824 -0.0029534884
0.0020770968 -0.00084666669 -0.0001181395
0.0044635483 0.00066842104 -0.0029534884
0.00066290324 -0.0017378947 -0.001004186
0.0041100001 -4.4561402e-05 -0.0033965115
-0.0054358062 -0.0012922807 -0.0020674418
0.0066732257 -0.00013368421 -0.0018902326
-0.0010164516 -0.0024508771 -0.0029534884
0.0019003225 0.0021835088 -0.0035737208
-0.0061429031 0.00031192982 -0.00073837204
0.0015467742 -0.00084666669 -0.0047255815
-0.0040216129 -0.00084666669 -0.0036623254
-0.0066732257 0.00031192982 0.0019197675
-0.006054516 -0.00031192982 0.00014767445
0.0023422581 -0.0022726315 -0.0014472093
0.0037564517 -0.00075754384 -0.0045483718
-0.0063196775 -0.00040105262 0.00067930238
0.0054358062 -0.0011140351 -0.0026876742
0.0053474191 -0.00066842104 -0.0020674418
0.00048612902 -0.00093578949 -0.0046369769
-0.0052590324 0.0010249122 -0.0019788372
0.0040216129 4.4561402e-05 -0.0045483718
-0.0038448386 0.00066842104 -0.0046369769
0.0028725807 -0.00254 -0.0025990696
0.0047287098 -0.00093578949 -0.0029534884
-0.0020770968 -0.0011140351 -0.00029534879
0.0034029032 -0.00031192982 -0.0047255815
-0.0062312903 0.00049017544 -0.0013586046
-0.0022538709 0.0024508771 -0.0018016278
-4.4193548e-05 -0.00049017544 -0.0048141861
0.0027841935 0.0011140351 -0.00029534879
-0.0048170965 -0.0010249122 -0.0029534884
0.0007512903 0.00084666669 -0.0048141861
-0.0037564517 -0.00066842104 -0.0047255815
-0.0049054837 0.00049017544 -0.0019788372
-0.0011048387 0.0016487719 -0.0010927906
0.0051706452 0.0010249122 -0.0019788372
-0.0015467742 -0.0022726315 -0.0016244185
0.0038448386 0.00013368421 -0.0001181395
0.0041100001 -0.0014705263 -0.0017130232
-0.0059661288 -0.00049017544 -0.0018902326
-0.0057009677 -0.0010249122 -0.0020674418
-0.0046403226 -0.00066842104 -0.0029534884
-0.0040216129 0.0018270175 -0.0016244185
-0.0040216129 0.0012922807 -0.0038395347
0.0041983873 -0.0011140351 -0.0018902326
-0.00013258064 0.0020052632 -0.0015358139
-0.0041100001 0.0020943859 -0.0019788372
-0.0016351612 -0.00057929824 -0.0047255815
-0.006054516 0.00013368421 -0.0001181395
-0.006054516 -0.00022280702 0.0015653488
0.0064964513 -0.00040105262 0.0017425582
0.0038448386 -0.00057929824 -0.0046369769
-0.0007512903 0.0012031579 -0.00038395345
0.0011932257 0.0012031579 -0.00038395345
-0.0012816129 0.00254 -0.0028648837
-0.00092806452 0.00254 -0.0026876742
0.0038448386 0.0012922807 -0.0044597671
0.0036680645 -0.0012031579 -0.0042825579
0.0017235484 0.0024508771 -0.0018016278
0.00137 0.0016487719 -0.0042825579
0.0022538709 -0.0019161403 -0.001004186
-0.00022096773 0.0012031579 -0.00038395345
-0.0040216129 -0.00057929824 -0.0011813953
-0.0040216129 0.0012031579 -0.00047255811
-0.0051706452 -0.0015596491 -0.0023332557
-0.0047287098 -0.0016487719 -0.0028648837
-0.0049054837 0.00066842104 -0.0029534884
-0.0056125806 0.00084666669 -0.0026876742
-0.00083967741 -0.0024508771 -0.0021560465
-0.0038448386 -0.0015596491 -0.0035737208
0.00137 -0.0014705263 -0.00047255811
0.0020770968 0.0022726315 -0.0016244185
0.0034029032 -0.00022280702 -0.0001181395
0.0011048387 0.0016487719 -0.0041939532
0.00013258064 0.00040105262 -0.0048141861
0.0056125806 4.4561402e-05 -0.0020674418
0.0027841935 -0.00057929824 -0.0001181395
0.0018119354 -0.0023617544 -0.0018016278
0.00048612902 -0.0021835088 -0.0033965115
-0.0034912904 -0.0019161403 -0.004016744
0.0011048387 -0.0019161403 -0.0011813953
0.0040216129 -0.00057929824 -0.00029534879
0.0025190322 0.00084666669 -0.0048141861
0.0011932257 -0.0024508771 -0.0029534884
-0.0040216129 -0.00049017544 -0.0006497674
0.0028725807 -0.0022726315 -0.0033965115
0.0041100001 0.00049017544 -0.0031306976
-0.0017235484 0.0022726315 -0.0017130232
-0.0067616128 -0.00013368421 0.0012109303
-0.0045519355 0.00066842104 -0.0019788372
0.0039332258 -0.0011140351 -0.0042825579
0.0038448386 0.0018270175 -0.004016744
0.0026074194 0.00031192982 -0.0047255815
-0.0030493548 0.0020052632 -0.0011813953
-0.0059661288 -0.00022280702 -0.0016244185
-0.0019003225 0.0018270175 -0.0039281393
-0.0029609676 -0.0024508771 -0.0019788372
0.0034029032 -0.0011140351 -0.00038395345
-0.0044635483 -0.0013814035 -0.0029534884
-0.00039774194 -0.0017378947 -0.00082697673
-0.00057451613 0.00254 -0.0023332557
0.0041100001 -0.00093578949 -0.0015358139
0.00030935483 -0.0018270175 -0.0010927906
-0.0019887097 0.0019161403 -0.00127
0.0048170965 0.00013368421 -0.0019788372
-0.0055241934 -0.00013368421 -0.0019788372
-0.0041100001 4.4561402e-05 -0.0018902326
-0.0012816129 -0.0021835088 -0.0034851162
0.0029609676 0.0022726315 -0.0017130232
-0.0014583871 0.0023617544 -0.0033079069
-0.00048612902 -0.0010249122 -0.00029534879
0.0040216129 -0.00040105262 -0.00082697673
0.0024306451 0.00057929824 -0.0001181395
0.0035796773 -0.0012031579 -0.00038395345
-0.00048612902 0.00093578949 -0.00020674415
-0.0007512903 0.0013814035 -0.00047255811
-0.0044635483 -0.0019161403 -0.0020674418
0.0038448386 0.0017378947 -0.00082697673
-0.0064964513 -0.00049017544 -0.0016244185
0.00048612902 0.00031192982 -0.0001181395
-0.0039332258 -0.00013368421 -0.0046369769
0.00083967741 0.0016487719 -0.00082697673
-0.00092806452 0.0017378947 -0.0010927906
-0.00030935483 0.0018270175 -0.0010927906
0.00039774194 -0.0011140351 -0.00029534879
-0.0041100001 0.00031192982 -0.0018902326
0.00039774194 0.0019161403 -0.0034851162
-0.0040216129 -0.00031192982 -0.0036623254
0.0059661288 4.4561402e-05 0.00067930238
-0.0048170965 -0.0016487719 -0.0027762791
0.00022096773 0.0013814035 -0.0043711625
-0.0067616128 -0.00013368421 0.0012995349
-0.0036680645 0.0019161403 -0.0039281393
-0.00048612902 0.0017378947 -0.0037509301
-0.0047287098 0.0015596491 -0.0020674418
0.0021654838 -0.0016487719 -0.00073837204
0.0014583871 0.0019161403 -0.001004186
-0.0011932257 -0.00049017544 -0.0001181395
0.0011048387 -0.0017378947 -0.00082697673
0.0020770968 -0.0024508771 -0.0018902326
-0.0026958063 -0.00031192982 -0.0047255815
-0.00030935483 -0.00013368421 -0.0048141861
-0.0024306451 -0.00022280702 -0.0047255815
0.0059661288 0.00022280702 -0.00073837204
-0.0038448386 0.0011140351 -0.0046369769
0.0024306451 0.00084666669 -0.0048141861
-0.0041100001 0.0016487719 -0.0031306976
0.0035796773 -0.0023617544 -0.003042093
0.0029609676 -0.0021835088 -0.0035737208
0.0066732257 0.00013368421 -0.0020674418
-0.0034029032 -0.0023617544 -0.003042093
-0.0040216129 -0.00075754384 -0.0039281393
0.0046403226 -0.0012031579 -0.0019788372
-0.0015467742 -0.0019161403 -0.0039281393
0.00083967741 0.0012922807 -0.0044597671
0.0040216129 0.00093578949 -0.00127
-0.0041983873 0.00084666669 -0.0031306976
0.0059661288 0.00040105262 -0.0018016278
-0.0019003225 -0.0013814035 -0.00047255811
0.0030493548 0.0024508771 -0.0018902326
-0.0016351612 -0.0014705263 -0.00047255811
0.0045519355 -0.0010249122 -0.0029534884
0.0044635483 0.0015596491 -0.0020674418
-0.0024306451 -0.0024508771 -0.003042093
0.0040216129 -0.0011140351 -0.0043711625
-0.00039774194 -0.0020052632 -0.0034851162
0.0023422581 0.0024508771 -0.0031306976
-0.00022096773 0.0011140351 -0.0044597671
0.00039774194 -0.0016487719 -0.0038395347
-0.0025190322 0.0017378947 -0.0041939532
-0.0021654838 -0.00031192982 -0.0047255815
-0.0062312903 -0.00057929824 -0.001004186
-0.0041983873 0.0018270175 -0.0029534884
0.0062312903 -0.00066842104 -0.0014472093
0.0067616128 4.4561402e-05 0.00050209305
-0.0038448386 0.0020943859 -0.0036623254
-0.0030493548 0.0019161403 -0.0041053486
0.0039332258 -0.0012922807 -0.00056116277
-0.0041983873 0.0010249122 -0.003042093
-0.0035796773 0.0023617544 -0.0033079069
-0.006054516 -0.00031192982 0.0020969769
-0.00057451613 -0.0015596491 -0.0041939532
0.00022096773 -0.00066842104 -0.0047255815
0.0032261289 0.00031192982 -2.9534849e-05
0.0011932257 0.00066842104 -0.0001181395
-0.0018119354 -0.00031192982 -0.0001181395
-0.0048170965 0.0016487719 -0.0020674418
0.0037564517 0.0018270175 -0.0041939532
0.003314516 -0.0020052632 -0.0036623254
0.0040216129 -0.00093578949 -0.0042825579
0.0040216129 -0.0011140351 -0.0035737208
-4.4193548e-05 0.0019161403 -0.0013586046
0.0040216129 -0.00040105262 -0.0037509301
0.0020770968 -0.00040105262 -0.0047255815
-0.0040216129 -0.00057929824 -0.0041939532
0.0037564517 -0.0023617544 -0.0033079069
-0.0062312903 -0.00075754384 -0.0019788372
-0.0025190322 0.00031192982 -0.0001181395
-0.0043751611 -0.00093578949 -0.0029534884
0.0028725807 -0.0023617544 -0.0027762791
-0.0029609676 0.0011140351 -0.0046369769
-0.0019003225 0.0020943859 -0.0014472093
0.0010164516 -4.4561402e-05 -0.0048141861
0.0019003225 -0.00084666669 -0.0001181395
0.00039774194 -0.0019161403 -0.0035737208
0.004286774 -0.00031192982 -0.0019788372
-0.0031377419 -0.0010249122 -0.0047255815
0.0035796773 0.0011140351 -0.0046369769
0.0028725807 0.00075754384 -0.0001181395
0.0040216129 0.00057929824 -0.00091558136
-0.00048612902 0.00254 -0.0024218604
0.0035796773 0.00057929824 -0.0001181395
0.0019887097 0.00075754384 -0.0001181395
0.0067616128 -4.4561402e-05 -0.00029534879
0.0040216129 -0.00022280702 -0.00038395345
0.0017235484 -0.0010249122 -0.0045483718
0.0027841935 0.00040105262 -0.0047255815
0.0041983873 0.0022726315 -0.0024218604
0.00013258064 -0.00093578949 -0.0001181395
0.0021654838 0.00022280702 -0.0047255815
0.0065848385 0.00031192982 -0.00056116277
-0.0045519355 -0.0015596491 -0.0029534884
0.0040216129 0.00084666669 -0.0036623254
-0.00048612902 -0.00013368421 -0.0001181395
-0.0041983873 -0.0014705263 -0.0019788372
-0.0024306451 0.0021835088 -0.0036623254
0.0022538709 -0.00040105262 -0.0001181395
0.0040216129 0.00040105262 -0.0046369769
-0.00083967741 0.0022726315 -0.0033079069
0.0015467742 -0.0017378947 -0.0039281393
0.0063196775 -0.00049017544 -0.0022446511
0.0067616128 -4.4561402e-05 0.0002362791
-0.00137 -0.0012922807 -0.00047255811
0.0039332258 0.0013814035 -0.0033079069
0.0012816129 -0.00013368421 -0.0048141861
-0.0047287098 0.0013814035 -0.0020674418
0.0039332258 0.0016487719 -0.003042093
0.0029609676 -0.0023617544 -0.0027762791
4.4193548e-05 0.0011140351 -0.0044597671
0.0059661288 0.00013368421 -0.0015358139
0.0064080646 0.00049017544 -0.00073837204
0.0035796773 0.00022280702 -0.0001181395
0.0016351612 0.0010249122 -0.0047255815
-0.0039332258 0.0017378947 -0.001004186
0.0062312903 0.00057929824 -0.00091558136
0.0032261289 0.0019161403 -0.001004186
0.0026074194 -0.0013814035 -0.00047255811
0.0040216129 0.00031192982 -0.0044597671
0.0039332258 -0.0016487719 -0.0037509301
-0.0045519355 0.00093578949 -0.0020674418
-0.0023422581 0.00057929824 -0.0001181395
0.0038448386 -0.0023617544 -0.003042093
0.0031377419 0.00254 -0.002510465
-0.0041983873 0.0021835088 -0.002510465
0.0039332258 -0.0022726315 -0.003042093
-0.0040216129 0.0019161403 -0.0013586046
0.0047287098 0.0012031579 -0.0021560465
-0.0040216129 -0.0013814035 -0.0018902326
0.0023422581 -0.0016487719 -0.00073837204
-0.0063196775 0.00040105262 0.00059069769
-0.0020770968 0.0023617544 -0.0033079069
0.0059661288 -4.4561402e-05 -0.0027762791
-0.006054516 0.00013368421 0.00076790701
0.0023422581 -0.0024508771 -0.0019788372
0.0056125806 0.00013368421 -0.0020674418
-0.0039332258 -0.0016487719 -0.0018902326
-0.0040216129 -0.00084666669 -0.00127
-0.0064964513 -0.00049017544 -0.00082697673
0.0049938709 0.00066842104 -0.0029534884
0.0041100001 -0.00075754384 -0.0037509301
0.0052590324 0.0012031579 -0.0020674418
-0.00137 -0.0020943859 -0.0011813953
0.00022096773 0.0022726315 -0.0033965115
0.0039332258 0.0018270175 -0.0017130232
-0.0061429031 0.00031192982 0.00041348839
0.0018119354 0.0013814035 -0.0044597671
0.0011932257 -0.0022726315 -0.0017130232
0.00048612902 -0.0023617544 -0.0033079069
-0.0065848385 0.00031192982 0.00094511628
0.0014583871 0.0020943859 -0.0010927906
-0.0014583871 -0.00254 -0.0023332557
-0.0011048387 0.0023617544 -0.0018016278
-0.0011048387 -0.0020052632 -0.0010927906
0.0023422581 0.00254 -0.0022446511
0.0021654838 -0.00254 -0.0023332557
0.00083967741 -0.00084666669 -0.0046369769
0.0030493548 -0.0020052632 -0.0039281393
-0.0040216129 0.00066842104 -0.0010927906
-0.0041100001 -0.00057929824 -0.0031306976
-0.00048612902 -0.0014705263 -0.0006497674
0.00092806452 -0.0024508771 -0.0031306976
-0.0040216129 -0.0010249122 -0.0031306976
0.0061429031 -0.00066842104 -0.0023332557
0.0016351612 0.0010249122 -0.00029534879
-0.0026074194 0.00075754384 -0.0001181395
-0.0026958063 0.0011140351 -0.0046369769
-0.0012816129 -0.00093578949 -0.00020674415
-0.0020770968 -0.0020052632 -0.0010927906
-0.0015467742 -0.0024508771 -0.0029534884
0.0048170965 0.00031192982 -0.0019788372
4.4193548e-05 0.0020943859 -0.0015358139
-0.0059661288 -0.00022280702 0.0012995349
-0.0036680645 -0.0016487719 -0.0042825579
0.00022096773 0.0016487719 -0.0039281393
-0.0037564517 0.0013814035 -0.00047255811
0.0010164516 -0.0020052632 -0.0034851162
-0.00039774194 -0.0010249122 -0.00029534879
0.0040216129 0.00049017544 -0.0042825579
-0.0049938709 -0.00066842104 -0.0029534884
0.0021654838 0.0022726315 -0.0017130232
-0.0034912904 0.00066842104 -0.0046369769
0.0055241934 0.0011140351 -0.0025990696
-0.00057451613 0.0024508771 -0.0029534884
-0.00137 -0.00093578949 -0.0047255815
0.0019003225 0.0022726315 -0.0015358139
-0.0035796773 -0.0024508771 -0.0021560465
0.00083967741 -0.0024508771 -0.0018902326
0.0035796773 -0.00084666669 -0.00029534879
-0.0010164516 0.00031192982 -0.0048141861
-0.0029609676 -0.0021835088 -0.0013586046
-0.0064080646 -0.00040105262 5.90698e-05
0.0007512903 -0.0019161403 -0.00127
-0.00048612902 -0.0024508771 -0.0029534884
0.0011932257 0.0015596491 -0.0042825579
0.0041100001 0.0016487719 -0.0029534884
-0.00066290324 0.00084666669 -0.0001181395
0.00039774194 -0.00049017544 -0.0048141861
-0.0055241934 0.00022280702 -0.0029534884
-0.0017235484 -0.00040105262 -0.0047255815
-0.0007512903 0.00013368421 -0.0048141861
-0.00039774194 0.00254 -0.0024218604
-0.0040216129 0.0017378947 -0.0016244185
0.0041100001 -0.0019161403 -0.0031306976
-0.0021654838 0.00066842104 -0.0047255815
-0.0011932257 0.00254 -0.0026876742
0.0046403226 0.0011140351 -0.0029534884
0.0034029032 -0.0023617544 -0.0033079069
-0.0061429031 -0.00040105262 0.0016539535
0.0019887097 -0.0019161403 -0.001004186
0.004286774 0.0011140351 -0.0029534884
-0.0039332258 0.0017378947 -0.00091558136
-0.0031377419 -0.0018270175 -0.00091558136
0.0041100001 -0.0013814035 -0.0016244185
0.0032261289 0.00022280702 -2.9534849e-05
0.0067616128 4.4561402e-05 0.0023627908
-0.0038448386 -0.00093578949 -0.00029534879
-0.0038448386 -0.0020943859 -0.0016244185
0.0040216129 0.00075754384 -0.0045483718
-0.0040216129 -0.0012922807 -0.0034851162
-0.004286774 0.0020943859 -0.002510465
-0.0061429031 0.00057929824 -0.002510465
-0.0011048387 0.00013368421 -0.0001181395
-0.0049938709 0.0012922807 -0.0028648837
-0.00030935483 -4.4561402e-05 -0.0048141861
-0.0034912904 -0.00066842104 -0.0047255815
0.0046403226 -0.0015596491 -0.0029534884
0.0064080646 -0.00031192982 -0.0023332557
0.00013258064 0.00066842104 -0.0001181395
-0.0030493548 4.4561402e-05 -0.0047255815
0.0017235484 -0.00057929824 -0.0001181395
-0.0039332258 -0.0010249122 -0.00091558136
0.0021654838 0.0021835088 -0.0036623254
-0.00066290324 -0.0022726315 -0.0017130232
-0.0063196775 -0.00066842104 -0.00127
0.0048170965 0.0015596491 -0.0028648837
-0.0041100001 0.00075754384 -0.00082697673
0.0034029032 0.0021835088 -0.0036623254
0.0046403226 -0.00084666669 -0.0019788372
-0.0029609676 -0.0012031579 -0.0046369769
0.0067616128 0.00022280702 0.0014767442
