# .PCD v0.7 - Point Cloud Data file format
VERSION 0.7
FIELDS x y z
SIZE 4 4 4
TYPE F F F
COUNT 1 1 1
WIDTH 1190
HEIGHT 1
VIEWPOINT 0 0 0 1 0 0 0
POINTS 1190
DATA ascii
-0.0017549091 -0.0036869999 0.00048490913
0.0037869089 -0.0034069747 0.0087052733
-0.0049876361 -0.0014467975 0.0037176365
9.2363633e-05 0.0030336075 0.007689273
0.0021243636 -0.0019135063 0.0028863638
-0.0013854546 -0.0035003165 0.0087052733
0.0028632726 -0.0036869999 0.0031634546
0.0034174544 0.0021001899 0.002609273
0.0049876361 -0.0006067215 0.0079663638
-0.0036945455 0.00023335443 0.0046412731
0.0027709091 -0.0036869999 0.00066963641
-0.0035098181 0.00023335443 0.0046412731
-0.0048029092 -0.0006067215 0.00030018185
0 -0.0023802151 0.0068580001
0.0034174544 0.0028469241 0.004826
0.00083127269 0.00014001266 0.0068580001
0.0039716363 0.0031269493 0.0023321819
0.0017549091 -0.0036869999 0.0084281825
0.0045258179 -0.0007000633 0.0015932728
0.0023090909 -0.0036869999 0.0059343637
0.0041563637 -0.0035936583 -0.00090054545
-0.00092363637 -0.0036869999 0.0084281825
0.0020319999 -0.0027535823 -0.0011776363
-0.0048952727 -0.0013534557 0.0072274548
0.0026785454 -0.0012601139 0.0087052733
-0.0025861817 -0.00014001266 -0.00053109089
-0.0041563637 -0.0036869999 0.006950364
0.0038792726 -0.00079340505 -0.0010852728
0.0036021818 -0.0015401392 0.0087052733
-0.0038792726 0.0020068481 0.0073198183
-0.0044334545 0.0021935317 0.002609273
-0.0028632726 -0.00079340505 0.0037176365
0.0021243636 -0.0012601139 0.0030710911
0.0012007273 -0.0022868735 0.0067656366
0.004341091 -0.0006067215 0.0018703637
0.00508 -0.0034069747 0.0049183639
-0.0029556362 0.0003266962 0.0078739999
-0.0035098181 0.0010734304 0.00020781823
-0.0049876361 -0.0033136329 0.0065809092
-0.0020319999 -0.001633481 0.0020550911
-0.0030479999 0.00023335443 0.0051954547
9.2363633e-05 -0.0036869999 0.007689273
0.0039716363 -0.00023335443 0.0081510916
0.00036945453 -0.00051337975 0.0082434546
-0.00073890906 0.0027535823 0.00020781823
-0.0049876361 -0.0013534557 0.00085436372
0.0018472727 -0.0020068481 0.00076200004
-0.0024014546 0.0014467975 0.00020781823
-0.0031403636 -0.0006067215 0.0042718183
-0.0033250907 0.0013534557 0.0027016364
0.0033250907 0.0019135063 -0.00016163633
-0.0037869089 -0.0031269493 0.0087052733
0.0032327273 0.00088674686 0.0073198183
0.00508 -0.0034069747 0.0023321819
-0.00064654544 0.0012601139 0.0072274548
-0.0029556362 -0.0036869999 0.0072274548
-0.0031403636 0.0033136329 2.3090948e-05
0.0021243636 -0.0022868735 0.0051954547
0.00055418181 -0.0015401392 0.0087052733
0.00018472727 0.0033136329 0.00020781823
-0.0013854546 0.001633481 0.0077816364
0.0037869089 0.0018201645 -0.00016163633
-0.0049876361 -0.0011667721 0.007689273
0.0021243636 0.0003266962 0.006950364
-0.0033250907 0.0026602405 0.002609273
-0.0025861817 -0.0009800886 -0.00099290907
0.00064654544 -0.0022868735 0.00076200004
-0.0015701818 -0.0032202911 0.0068580001
0.0017549091 -0.0019135063 0.00076200004
-0.00508 -0.0026602405 0.00039254551
-0.0026785454 -0.0027535823 0.0087052733
-0.00018472727 0.0018201645 0.0072274548
0.0047105453 4.6670884e-05 0.0073198183
-0.0031403636 0.0007000633 -0.00016163633
-0.0022167272 0.0028469241 0.0074121822
-0.0012007273 -0.0006067215 -0.00062345451
-0.00073890906 -0.0013534557 0.00076200004
0 -0.0012601139 0.0068580001
-0.00508 -0.0027535823 0.0063961819
-0.0012930909 -0.0026602405 0.0087052733
0.00073890906 -0.0003266962 0.00066963641
0.0036945455 0.00079340505 0.004826
-0.0048029092 0.0006067215 0.0051954547
0.0038792726 0.0033136329 0.00020781823
0.0035098181 -0.0007000633 0.0059343637
-0.0049876361 -0.0035003165 0.0075969095
0.0021243636 -0.0027535823 0.0044565457
-0.0047105453 -0.0036869999 0.0084281825
0.0030479999 -0.0006067215 0.0066732732
0.00036945453 0.0013534557 0.0077816364
-0.0027709091 0.0010734304 0.0073198183
0.0033250907 -0.00051337975 0.001778
0.00508 -0.0011667721 -0.00016163633
0.0017549091 -0.0032202911 -0.0010852728
0.0030479999 -0.0015401392 -0.0011776363
0.0038792726 0.0021935317 0.007689273
0.0017549091 -0.0024735569 -0.0011776363
0.0022167272 0.0011667721 -0.00016163633
-0.0033250907 -0.0013534557 -0.0010852728
0.0021243636 -0.0026602405 0.0038100001
-0.0018472727 -0.0035003165 0.00076200004
9.2363633e-05 -0.0036869999 0.0080587277
0.0013854546 -0.00014001266 0.0068580001
0.0048952727 -0.00051337975 0.0070427274
0.0023090909 4.6670884e-05 -0.00062345451
0.0023090909 0.00042003798 0.00039254551
-0.0039716363 0.0010734304 0.0051954547
-0.0038792726 0.00051337975 0.0051954547
-0.0041563637 -0.00051337975 0.00057727279
-0.00508 -0.0022868735 0.0068580001
-0.0034174544 -0.0006067215 0.0068580001
0.0044334545 0.00023335443 0.0047336365
-0.00027709091 0.0024735569 -6.927269e-05
-0.0027709091 0.00042003798 0.004826
-0.0021243636 -0.0009800886 -0.0010852728
-0.0034174544 -0.0007000633 0.001778
-0.0031403636 -0.0036869999 -0.00034636361
-0.0049876361 -0.0010734304 0.0075969095
0.0038792726 -0.0035003165 0.0035329093
-0.0030479999 -0.0011667721 -0.0010852728
0.0030479999 0.0029402659 0.007689273
-0.0035098181 0.0029402659 0.00020781823
0.0037869089 0.0027535823 0.0051954547
-0.00508 -0.0031269493 0.0077816364
0.0021243636 -0.0021935317 0.0041794549
0.0024014546 -0.00042003798 -0.00062345451
-0.0037869089 0.0017268228 0.0023321819
0.00508 -0.0017268228 -0.00099290907
0.0021243636 -0.0028469241 0.0030710911
0.0039716363 -0.0033136329 0.0086129094
0.00092363637 -0.0024735569 0.00066963641
-0.0031403636 -0.00079340505 0.0086129094
-0.0039716363 -0.0010734304 0.0086129094
0.00508 -0.0019135063 0.0031634546
-0.0034174544 4.6670884e-05 0.00030018185
0.0022167272 -0.0035003165 0.0011314546
-0.0016625454 -0.0007000633 0.00066963641
0.0041563637 -0.0007000633 0.004087091
0.00018472727 -0.0031269493 0.00076200004
0.0036945455 0.00051337975 -0.00025399998
0.0032327273 0.00014001266 0.006950364
0.0039716363 0.0014467975 0.0074121822
-0.0044334545 0.0019135063 0.0051954547
0.0028632726 0.00051337975 0.0022398182
-0.0017549091 -0.0013534557 0.00076200004
-0.00046181818 -0.00088674686 0.00066963641
0.0019396363 0.0036869999 0.0075969095
0.0042487271 0.00088674686 0.0051954547
0.0035098181 0.0030336075 0.00020781823
0.0028632726 0.0014467975 0.0023321819
-0.0035098181 -0.0003266962 0.0043641818
0.0036021818 0.0028469241 0.0051030912
0.0023090909 0.00014001266 0.0049183639
-0.0023090909 0.0009800886 0.0077816364
0.0034174544 0.0018201645 0.0073198183
-0.00508 -0.0031269493 -0.00025399998
-0.0047105453 -0.0035936583 0.001039091
0.0034174544 0.0035003165 -0.00016163633
0.0020319999 4.6670884e-05 -0.00062345451
-0.00055418181 0.0003266962 0.0079663638
-0.0020319999 -0.0032202911 0.0065809092
-0.0049876361 -0.001633481 0.0082434546
-0.0020319999 -0.0018201645 0.0041794549
-0.0037869089 0.0017268228 0.0027016364
-0.004341091 0.001633481 0.004826
0.0014778181 -0.0026602405 0.0087052733
0.0027709091 0.0021001899 -0.00016163633
-0.0044334545 -0.0003266962 0.0029787275
-0.00064654544 0.0021935317 0.0077816364
-0.0013854546 -0.0030336075 -0.00099290907
-0.0010159999 0.0012601139 0.0077816364
0.0024938181 -0.0024735569 -0.0011776363
0.0036021818 0.0035003165 0.002609273
-0.0042487271 -0.0036869999 0.0015932728
-0.0013854546 -0.0021935317 -0.0011776363
-0.0048952727 -0.0035936583 -0.00043872723
0.0015701818 -0.0013534557 0.00076200004
-0.0044334545 0.0003266962 0.007689273
0.0042487271 0.0022868735 0.0074121822
0.0015701818 -0.00023335443 0.0083358185
0.00046181818 -0.00088674686 0.00076200004
-0.0047105453 -0.0006067215 0.0055649094
0.0021243636 0.0033136329 0.00020781823
0.0039716363 -0.00014001266 0.00066963641
-0.0012930909 -0.0034069747 -0.00043872723
0.0032327273 -0.0018201645 -0.0011776363
0.0024938181 0.0023802151 0.007689273
0.00508 -0.0014467975 0.0028863638
-0.0048029092 -0.0007000633 0.0045489091
0.0016625454 0.0020068481 0.0073198183
0.0047105453 -4.6670884e-05 0.0047336365
0.0013854546 -0.0036869999 0.00076200004
0.0045258179 0.0018201645 0.0024245456
-0.0033250907 -0.0020068481 0.0087052733
-0.0027709091 -0.00051337975 0.0042718183
0.0013854546 -0.0036869999 2.3090948e-05
0.0023090909 4.6670884e-05 0.0050107273
0.00508 -0.0009800886 0.0025169093
0 0.0028469241 -6.927269e-05
-0.0032327273 0.0018201645 0.0051030912
-0.0029556362 0.0012601139 0.00020781823
0.0026785454 -4.6670884e-05 0.0023321819
-0.00018472727 0.0021935317 0.0077816364
9.2363633e-05 0.0025668987 0.0073198183
-0.0012930909 0.0012601139 -0.00016163633
-0.0014778181 -0.0007000633 -0.00090054545
0.0036021818 -0.0035936583 0.006211455
0.00046181818 0.0031269493 0.0075969095
0.00508 -0.0025668987 0.0013161818
-0.0033250907 -0.0036869999 0.0039947275
0.0036021818 -0.0007000633 0.0061190911
-0.0014778181 -0.0010734304 0.0087052733
-0.0029556362 0.0029402659 -0.00016163633
0.00508 -0.0017268228 0.00039254551
-0.0048029092 -0.0020068481 -0.0010852728
-0.0023090909 -0.0036869999 0.0025169093
-0.0015701818 0.0033136329 0.0074121822
0.00036945453 -0.00079340505 0.0084281825
0.0041563637 0.0013534557 0.0027016364
-0.00073890906 0.0013534557 0.00020781823
-0.0049876361 -0.0013534557 0.00094672735
-0.00092363637 -0.0036869999 0.00020781823
0.00508 -0.0031269493 0.00094672735
0.00018472727 -0.0036869999 0.0071350913
-0.0045258179 -0.0028469241 0.0087052733
0.00508 -0.001633481 0.0038100001
0.0021243636 -0.00042003798 0.0083358185
0.00508 -0.0028469241 0.0024245456
0.0032327273 0.0012601139 0.00020781823
-0.00036945453 0.0029402659 0.0073198183
0.0029556362 -0.00051337975 0.00066963641
-0.00073890906 0.0032202911 0.0074121822
0.00027709091 0.00051337975 0.0077816364
0.0024014546 0.0006067215 -0.00016163633
-0.0039716363 0.0019135063 0.0073198183
0.00055418181 -0.00042003798 0.00066963641
-0.0038792726 -0.0036869999 0.0057496368
-0.0045258179 0.0022868735 0.002609273
-0.0024938181 -0.0028469241 0.0087052733
-0.0031403636 0.0022868735 0.0050107273
0.0024014546 -0.0006067215 0.0057496368
-0.0030479999 0.001633481 0.00020781823
0.0029556362 -0.0007000633 0.0035329093
0 -0.0012601139 2.3090948e-05
-0.0031403636 -0.0036869999 0.0036252728
0.0024014546 0.0036869999 0.0075045456
0.0029556362 -0.0036869999 -0.00016163633
-0.0020319999 -0.0032202911 0.0021474545
-0.00046181818 -0.0027535823 0.0068580001
-0.0025861817 -0.0036869999 0.004826
-0.0029556362 -0.0036869999 0.0030710911
0.0033250907 0.00042003798 0.0027940001
-0.0047105453 -0.0021001899 0.0087052733
-0.0015701818 -0.0017268228 0.00076200004
-0.0024938181 0.00051337975 0.0049183639
0.0038792726 -0.0003266962 0.0068580001
-0.0048952727 -0.0009800886 -0.00080818182
0.0021243636 -0.0036869999 -0.00062345451
0.0039716363 -0.0034069747 -0.0010852728
0.0041563637 -0.0035003165 0.0034405456
-0.0020319999 -0.0022868735 0.0027940001
-0.0047105453 -0.00088674686 0.0014085455
-0.00018472727 0.001633481 0.0077816364
0.00508 -0.0014467975 0.00030018185
0.0021243636 -0.0014467975 0.0031634546
-0.0025861817 -0.0018201645 0.0087052733
-0.0023090909 -0.00079340505 0.001039091
0.0029556362 0.0023802151 0.00020781823
0.0029556362 0.0019135063 -0.00016163633
0.0024014546 -4.6670884e-05 0.0051954547
-0.0036945455 -0.0036869999 0.00030018185
-0.0012007273 -0.0036869999 0.0083358185
-0.0034174544 0.00051337975 -0.00016163633
-0.0040639997 0.0028469241 0.00020781823
-0.0028632726 -0.00079340505 0.0015932728
-0.00073890906 -0.0020068481 0.00066963641
-0.00036945453 0.0026602405 0.0073198183
-0.00508 -0.0031269493 -0.00071581814
-0.0025861817 0.0010734304 0.00020781823
0.0020319999 0.0025668987 -0.00016163633
-0.0048029092 -0.0029402659 -0.0010852728
0.004341091 -0.0006067215 -0.00062345451
-0.00092363637 -0.0035003165 -0.00016163633
0.0019396363 0.0029402659 -0.00016163633
0.0021243636 -0.0014467975 0.0028863638
0 -0.00051337975 0.0068580001
-0.0017549091 -4.6670884e-05 -0.00053109089
-0.0029556362 -0.0015401392 0.0087052733
0.0015701818 -0.0017268228 -0.0011776363
0.00508 -0.0026602405 0.0066732732
-0.00508 -0.0022868735 -0.00034636361
0.00046181818 0.0006067215 -6.927269e-05
-0.0020319999 -0.0022868735 0.0037176365
-0.0048029092 -0.0014467975 -0.0010852728
-0.0027709091 0.00051337975 0.004826
0.00508 -0.0021001899 -6.927269e-05
0.0036945455 -0.0036869999 0.0058420002
0.0029556362 -0.0029402659 0.0087052733
-0.0036945455 0.0030336075 0.004826
0.0040639997 0.0011667721 0.004826
0.0018472727 -0.0007000633 -0.00090054545
0.0014778181 0.0011667721 0.00020781823
0.0044334545 -0.0035003165 0.0013161818
0.0032327273 -0.0019135063 -0.0011776363
-0.0047105453 0.00042003798 0.007689273
0.0045258179 -0.00023335443 -0.00062345451
0.0031403636 -0.0036869999 0.006211455
-0.0044334545 -0.00079340505 0.006211455
0.0035098181 0.0022868735 0.0023321819
-0.0038792726 -0.0036869999 -6.927269e-05
0.0040639997 0.0026602405 0.0051030912
0.0016625454 -0.001633481 0.0067656366
-0.0023090909 0.0013534557 0.0072274548
0.00036945453 0.0035003165 0.0075045456
-0.0031403636 0.0009800886 0.0051954547
0.0046181818 0.00023335443 0.007689273
-0.0044334545 -0.0036869999 0.0030710911
-0.0035098181 4.6670884e-05 -0.00043872723
0.00064654544 0.0032202911 -6.927269e-05
-0.0026785454 -0.00042003798 0.0068580001
0.0022167272 -0.0033136329 0.0054725455
0.0022167272 -0.0035936583 0.0036252728
0.0049876361 -0.00088674686 0.0020550911
0.0019396363 -0.0036869999 0.0077816364
0.0021243636 0.0006067215 0.0071350913
-0.00508 -0.0027535823 0.00094672735
0.0048952727 -0.0006067215 0.0043641818
-0.0011083636 -0.0020068481 0.0068580001
0.0045258179 0.001633481 0.0075045456
0.0028632726 -0.00014001266 0.0068580001
0.00083127269 -0.0014467975 0.00076200004
0.0032327273 -0.0035936583 0.0037176365
0.0039716363 0.0003266962 0.0054725455
0.0048952727 -0.0031269493 0.0085205454
0 -0.00014001266 0.0082434546
9.2363633e-05 4.6670884e-05 -6.927269e-05
-0.0027709091 -0.0036869999 0.0021474545
-0.0028632726 -0.0036869999 0.001778
-0.0049876361 -0.0034069747 0.0077816364
0.0026785454 -0.0035003165 -0.0010852728
0.0042487271 4.6670884e-05 0.0070427274
0.0037869089 0.0021935317 0.0073198183
0.0021243636 -0.0015401392 0.00094672735
0.0045258179 0.0003266962 0.0073198183
0.00018472727 -0.0021935317 0.0068580001
0.00508 -0.0021935317 0.0020550911
0.0040639997 -0.0036869999 0.0041794549
0.0037869089 0.00088674686 0.0024245456
0.00036945453 0.0024735569 0.0077816364
0.0039716363 0.00023335443 0.0021474545
-0.0047105453 0.00051337975 0.0051954547
0.0038792726 0.0007000633 0.0027016364
0.0021243636 -0.0027535823 0.0060267276
-0.0026785454 -0.0035936583 0.0038100001
0.0034174544 0.00023335443 -0.00053109089
-0.0044334545 -0.0028469241 -0.0011776363
0.0037869089 -0.0027535823 -0.0011776363
0.0027709091 -0.0035936583 0.0038100001
-0.0041563637 -0.0003266962 0.00057727279
0.0047105453 -0.0021001899 -0.0011776363
-0.00092363637 -0.0020068481 -0.00043872723
0.0026785454 0.0014467975 0.00020781823
-0.00046181818 0.0003266962 0.00039254551
0.0037869089 0.0029402659 0.0049183639
-0.0023090909 -0.0006067215 0.0056572729
0.00055418181 0.0009800886 0.0077816364
0.0022167272 0.0020068481 -0.00016163633
-0.0017549091 -0.0036869999 -0.00025399998
-0.0037869089 -0.0018201645 -0.0011776363
-0.0019396363 0.0015401392 0.00020781823
0.0021243636 -0.0009800886 0.004826
0.0037869089 -0.0036869999 0.0029787275
0.0018472727 -0.0011667721 0.00076200004
-0.00018472727 0.0021001899 0.0072274548
0.0038792726 -0.0036869999 0.00048490913
-0.0021243636 -0.0010734304 0.0061190911
-0.00073890906 0.0009800886 0.0077816364
0.0029556362 0.0036869999 -6.927269e-05
-0.0030479999 0.0029402659 0.00020781823
0.0038792726 -0.0007000633 0.0035329093
-0.0021243636 -0.0011667721 0.0041794549
-0.00508 -0.0024735569 0.0032558183
-0.0049876361 -0.0015401392 0.00066963641
0.004341091 0.00042003798 0.007689273
-0.0029556362 0.0033136329 0.0074121822
0.0030479999 -0.0036869999 0.00048490913
0.0023090909 0.0015401392 -0.00016163633
-0.0017549091 -0.0022868735 0.0087052733
0.00508 -0.0015401392 0.0071350913
0.00508 -0.0031269493 0.0075045456
-0.0033250907 0.0027535823 0.0074121822
0.00508 -0.0023802151 0.0084281825
-0.0049876361 -0.0014467975 0.0042718183
-0.0038792726 0.0027535823 0.002609273
-0.00508 -0.0021001899 0.00011545459
-0.0039716363 0.0020068481 0.0074121822
-0.0034174544 0.00042003798 0.0022398182
0.0012007273 0.0010734304 0.0072274548
-9.2363633e-05 0.00023335443 0.0080587277
0.0029556362 -0.00023335443 0.00066963641
0.0034174544 0.0012601139 0.007689273
0.0022167272 0.0014467975 0.0077816364
0.00064654544 0.0026602405 0.0073198183
-0.0047105453 -0.0007000633 0.00057727279
0.0011083636 0.00088674686 0.0077816364
-0.0038792726 -0.00014001266 0.0080587277
0.0021243636 -0.0015401392 0.0028863638
0.0023090909 -0.0031269493 0.0087052733
-0.0020319999 -0.0026602405 0.0028863638
0.0011083636 -0.00014001266 -0.00025399998
0.00055418181 -0.0026602405 0.0087052733
0.00083127269 0.0034069747 0.007689273
0.00508 -0.0030336075 0.0049183639
0.004341091 -0.00051337975 -0.00062345451
0.0011083636 0.00079340505 0.0077816364
-0.00083127269 0.0032202911 0.0075969095
9.2363633e-05 -0.0017268228 2.3090948e-05
0.00508 -0.0033136329 0.0057496368
0.0024938181 -0.0003266962 0.0052878181
-0.0020319999 -0.0014467975 0.0019627274
0.0015701818 -0.0032202911 0.0068580001
-0.0025861817 -0.00023335443 0.0027016364
0.0029556362 0.0021001899 0.0073198183
0.0026785454 -0.0011667721 -0.0011776363
-0.0032327273 -0.0036869999 0.0015932728
0.00508 -0.0023802151 0.0044565457
-0.0046181818 -0.0036869999 0.0027940001
-0.0049876361 -0.00051337975 0.0073198183
-0.0021243636 -0.0010734304 0.004826
0.0025861817 0.0029402659 0.0073198183
0.0013854546 -0.0023802151 -0.0010852728
-0.0032327273 0.0021935317 0.0027016364
-0.0037869089 -0.0036869999 0.0083358185
0.0030479999 -0.0036869999 0.0047336365
-0.0036021818 0.0011667721 0.007689273
0.0021243636 -0.0021001899 0.0030710911
-0.0032327273 -0.0011667721 0.0086129094
0.0029556362 0.0021935317 0.00020781823
0.0042487271 0.0024735569 -0.00016163633
0.00508 -0.0032202911 0.0084281825
0.00083127269 0.0019135063 -6.927269e-05
0.0047105453 0.0007000633 0.0075969095
0.0023090909 -0.0006067215 0.0021474545
-0.0034174544 0.0007000633 0.0023321819
-0.0031403636 -0.0036869999 0.0079663638
0.00092363637 -0.00023335443 0.0083358185
0 0.0022868735 -6.927269e-05
-0.0020319999 0.0022868735 0.007689273
0.0023090909 -0.0009800886 0.0087052733
-0.0039716363 0.0011667721 0.004826
0.0031403636 -0.0006067215 -0.00062345451
-0.00083127269 -0.0018201645 -0.00043872723
-0.0036021818 -0.0036869999 0.0052878181
0.0045258179 0.00088674686 -0.00016163633
0.00073890906 -0.0020068481 -0.00016163633
-0.0021243636 -0.0012601139 0.0018703637
-0.0015701818 -0.0025668987 -0.0011776363
-0.0037869089 -0.0036869999 -6.927269e-05
0.0044334545 0.0021001899 0.0075045456
-0.0010159999 0.0024735569 0.00020781823
-0.00508 -0.0021935317 0.0045489091
0.0024938181 0.00051337975 0.00030018185
0.004341091 0.0026602405 0.0075045456
0.0021243636 -0.0021935317 0.0060267276
-0.0018472727 0.0031269493 0.0075969095
0.00083127269 -0.0022868735 0.0087052733
0.0037869089 -4.6670884e-05 0.00066963641
-0.00036945453 0.0033136329 0.00020781823
-0.0012007273 -0.0023802151 -0.00080818182
0.0012007273 -0.0019135063 -0.00080818182
0.0026785454 -0.0036869999 0.0053801821
-0.0036021818 -0.00088674686 0.0086129094
-0.0038792726 -0.00023335443 0.0070427274
-0.0042487271 -0.0028469241 0.0087052733
0.0049876361 -0.00088674686 -0.00016163633
0.0022167272 0.00088674686 0.0071350913
0.00508 -0.0024735569 0.0042718183
0.0035098181 -0.0036869999 0.0084281825
0.0028632726 0.0009800886 0.0072274548
-0.0014778181 -0.0029402659 0.0068580001
-0.00046181818 -0.0017268228 0.0068580001
-0.0048029092 -0.0035936583 -0.00080818182
0.004341091 -0.0007000633 0.0083358185
0.0025861817 -4.6670884e-05 0.00066963641
0.0014778181 0.0024735569 0.00020781823
-0.0021243636 -0.0035003165 0.0020550911
-0.0037869089 -0.0021935317 0.0087052733
-0.0021243636 -0.00088674686 0.0041794549
-0.0042487271 0.0012601139 0.004826
0.0030479999 0.00023335443 0.0079663638
0.00508 -0.0021935317 0.0073198183
0.0023090909 0.00023335443 0.00048490913
-0.0048029092 -0.0035936583 0.0011314546
-0.0048029092 -0.00088674686 0.0063961819
-0.0012007273 0.0032202911 0.00020781823
-0.0044334545 -0.0035936583 0.0035329093
-0.0027709091 0.0021935317 0.00020781823
0.0046181818 -0.0035936583 0.0043641818
0.0021243636 -0.0011667721 0.0031634546
0.0049876361 -0.0033136329 0.0018703637
0.0036021818 -0.0003266962 0.0056572729
0.0029556362 -0.0036869999 -0.00080818182
-0.0029556362 0.00042003798 0.0051954547
-0.0021243636 -0.0010734304 0.006211455
-0.0049876361 -0.0034069747 0.00011545459
0.0037869089 0.0020068481 0.007689273
0.0044334545 0.0009800886 0.0051030912
-0.0032327273 -0.0017268228 -0.0011776363
-0.0038792726 -4.6670884e-05 0.0054725455
-0.0049876361 -0.0019135063 -0.00080818182
-0.0049876361 -0.0034069747 0.0054725455
0.00092363637 -0.0022868735 0.0087052733
-0.0022167272 -0.0036869999 0.0034405456
0.00508 -0.0010734304 0.0027016364
-0.0040639997 0.0011667721 0.007689273
-0.0021243636 -0.0010734304 0.0055649094
0.00092363637 0.0025668987 0.00020781823
0.0039716363 -0.0035003165 -0.0010852728
0.0015701818 -0.0036869999 -0.00016163633
-0.0048952727 -0.0003266962 0.0027016364
0.0023090909 -0.00088674686 -0.0010852728
0.0041563637 -0.0035936583 0.0031634546
0.00046181818 0.0022868735 -6.927269e-05
-0.00018472727 0.0033136329 0.0075969095
0.0034174544 0.0006067215 0.0051954547
0.0039716363 0.0014467975 0.007689273
0.00064654544 -0.0036869999 0.0079663638
0.0018472727 0.0022868735 0.0073198183
9.2363633e-05 0.0003266962 0.0080587277
0.0014778181 -0.0007000633 -0.00071581814
-0.00092363637 -0.0026602405 -0.00034636361
-0.00036945453 -0.0025668987 0.0087052733
0.00508 -0.0015401392 0.0051030912
-0.0038792726 -0.0036869999 0.0085205454
-0.00083127269 -0.0027535823 0.0068580001
0.0021243636 -0.001633481 0.0087052733
0.0042487271 -0.0007000633 0.0012238183
0.0041563637 -0.0018201645 0.0087052733
-0.0016625454 0.0010734304 -0.00016163633
-0.0042487271 -0.001633481 0.0087052733
0.0023090909 0.0020068481 0.00020781823
0.0044334545 0.0020068481 0.002609273
0.0035098181 0.0026602405 0.007689273
0.0040639997 -0.00051337975 0.0056572729
0.0031403636 -0.0035936583 0.0038100001
0.0013854546 0.0010734304 0.0072274548
-0.0033250907 0.0009800886 0.007689273
-0.0024014546 -0.0003266962 0.0027016364
-0.0010159999 0.00014001266 0.0080587277
0.0036945455 -0.0036869999 0.00057727279
0.0024014546 -0.0036869999 0.0015009092
0.0044334545 -0.0032202911 0.0086129094
-0.0031403636 -0.0036869999 0.0041794549
-0.0014778181 0.0003266962 -0.00034636361
-0.0011083636 -0.0012601139 -0.00062345451
0.00508 -0.0018201645 0.0068580001
0.0024014546 -0.0007000633 0.0039023638
-0.0035098181 0.0029402659 0.0049183639
-0.0042487271 -4.6670884e-05 0.0071350913
0.00073890906 -0.0019135063 -0.00016163633
0.0027709091 -0.0021935317 -0.0011776363
-0.0046181818 -0.00051337975 0.0028863638
9.2363633e-05 -0.0010734304 -6.927269e-05
0.0011083636 0.0036869999 -6.927269e-05
-0.0014778181 -0.00088674686 0.00066963641
-0.0040639997 -0.0036869999 0.004087091
-0.0020319999 -0.0027535823 0.003348182
-0.0049876361 -0.0035003165 0.00094672735
-0.0032327273 -0.0007000633 0.0063961819
-0.0012007273 -0.0027535823 0.0087052733
0.0019396363 -0.0031269493 -0.0010852728
0.0021243636 -0.0017268228 0.0051954547
0.0040639997 0.001633481 0.007689273
0.0023090909 -0.0021935317 0.0087052733
-0.0017549091 0.0026602405 0.0074121822
0.0045258179 -0.0035936583 0.0029787275
0.00036945453 0.00051337975 0.00030018185
0.0048952727 -0.0006067215 0.0053801821
0.0033250907 0.00023335443 0.006950364
-0.0022167272 0.0033136329 0.0074121822
0.00508 -0.0021935317 0.0070427274
-0.0030479999 -0.0014467975 -0.0011776363
0.00073890906 -0.00088674686 -0.00016163633
-0.0034174544 -4.6670884e-05 0.0054725455
-0.0017549091 0.0024735569 -0.00016163633
0.0038792726 -0.00023335443 0.0019627274
-0.00092363637 -0.00023335443 0.0083358185
0.00027709091 -0.0029402659 0.0068580001
0.0016625454 -0.0035003165 -0.00062345451
-0.0038792726 -0.0036869999 0.0084281825
-0.0012007273 0.0034069747 0.00020781823
-0.0036945455 -0.0006067215 0.00066963641
-0.00064654544 -0.0023802151 0.0087052733
0.0012007273 -0.00023335443 0.0068580001
0.0049876361 -0.001633481 -0.0011776363
-0.0019396363 0.0024735569 0.00020781823
-0.0022167272 -0.0013534557 0.0087052733
0.0019396363 0.0026602405 0.00020781823
-0.00055418181 0.00014001266 0.00048490913
-0.0042487271 -0.0003266962 0.0030710911
-0.0026785454 -0.0023802151 0.0087052733
-0.0031403636 4.6670884e-05 0.0054725455
0.0045258179 -0.0012601139 -0.0011776363
-0.0027709091 0.0020068481 -0.00016163633
-0.0049876361 -0.001633481 0.0054725455
-0.0038792726 0.0019135063 0.007689273
-0.00508 -0.0028469241 0.0067656366
-0.0011083636 0.001633481 -6.927269e-05
-0.0020319999 -0.0014467975 0.0015009092
-0.0049876361 -0.0018201645 0.004087091
0.00046181818 -0.0015401392 0.0068580001
-0.0048029092 -0.0035936583 0.0039947275
-0.0021243636 0.0023802151 0.0073198183
0.00064654544 -0.0035003165 0.0086129094
-9.2363633e-05 0.0013534557 0.00020781823
0.004341091 -0.00088674686 -0.0010852728
-0.0034174544 -0.0036869999 0.0063961819
0.0036945455 0.0026602405 0.0023321819
0.00508 -0.0019135063 0.0050107273
-0.0026785454 -0.0028469241 -0.0011776363
0.0012007273 -0.00079340505 -0.00071581814
-0.0025861817 -0.00042003798 0.0031634546
-0.0049876361 -0.0019135063 0.0051954547
-0.0036021818 -0.0036869999 0.0036252728
0.0016625454 -0.0025668987 0.0087052733
0.0034174544 0.0009800886 0.0023321819
-0.0045258179 0.0012601139 0.007689273
0.0049876361 -0.00079340505 0.0029787275
0.0013854546 -0.0009800886 0.0068580001
-0.0039716363 -0.00079340505 0.003348182
-0.0037869089 -0.00023335443 0.0081510916
0.00046181818 0.0019135063 0.00020781823
-0.0024014546 0.00079340505 0.0077816364
-0.0016625454 0.0026602405 -6.927269e-05
-0.0039716363 -0.0036869999 0.0015932728
0.0024014546 -0.00014001266 0.004826
-0.0042487271 0.0013534557 0.0027016364
-0.0026785454 0.0033136329 -0.00016163633
0.0034174544 0.0019135063 0.004826
0.0022167272 -0.0033136329 0.0015932728
-0.0044334545 -0.0021001899 0.0087052733
0.00508 -0.0033136329 0.0074121822
-0.004341091 0.0021935317 0.0027016364
-0.0024938181 0.00079340505 0.0072274548
0.0022167272 -0.0034069747 0.0051954547
-0.0020319999 -0.0015401392 0.0058420002
0.0029556362 -0.0024735569 0.0087052733
-0.0039716363 -0.0036869999 0.0064885458
-0.0022167272 0.0012601139 0.00020781823
0.0040639997 0.0031269493 0.002609273
0.0048029092 -0.0035936583 0.0075969095
0.0027709091 -0.00014001266 0.0020550911
0.0035098181 -0.0006067215 0.0058420002
-0.0011083636 0.0026602405 0.0074121822
0.00073890906 -0.0018201645 0.00076200004
0.0032327273 -0.0030336075 0.0087052733
-0.0042487271 0.0009800886 0.007689273
0.0042487271 4.6670884e-05 0.0080587277
-0.0026785454 0.0029402659 0.00020781823
0.00073890906 -0.0007000633 -0.00016163633
-0.0024014546 -0.0010734304 -0.0010852728
-0.0039716363 0.0025668987 0.00020781823
0.0036021818 -0.00023335443 0.0068580001
-0.00092363637 -0.00014001266 0.00066963641
-0.0010159999 4.6670884e-05 0.0068580001
0.00508 -0.0022868735 0.0070427274
-0.004341091 0.0007000633 0.0023321819
0.00508 -0.0024735569 0.0011314546
-0.0027709091 0.0014467975 0.002609273
-0.0034174544 -0.0035936583 0.0014085455
0.00046181818 -0.00088674686 0.0087052733
-0.00508 -0.0032202911 0.0064885458
0.0033250907 4.6670884e-05 0.0031634546
0.0012930909 0.0030336075 -0.00016163633
-0.0027709091 0.0015401392 0.00020781823
-0.0010159999 0.0009800886 0.0077816364
-0.0041563637 0.0022868735 0.007689273
-0.004341091 -0.00051337975 0.006950364
0.0025861817 -0.0010734304 -0.0011776363
-0.0041563637 0.0020068481 0.004826
0.00083127269 0.001633481 0.00020781823
0.00018472727 -0.0030336075 2.3090948e-05
0.00508 -0.0021935317 0.0086129094
0.0013854546 0.0014467975 0.0077816364
-0.0024938181 0.0021935317 0.007689273
-0.0045258179 -0.00023335443 0.0022398182
0.00508 -0.0014467975 0.004826
-0.0012930909 0.0012601139 0.0072274548
0.0019396363 -0.0036869999 0.0078739999
-0.0020319999 -0.0014467975 0.0041794549
-0.00092363637 0.0014467975 0.0077816364
0.00046181818 0.0021935317 0.0077816364
0.0020319999 0.0003266962 -0.00043872723
0.0047105453 -4.6670884e-05 0.00020781823
0.0048952727 -0.0003266962 0.0050107273
0.0021243636 -0.00051337975 0.0051954547
0.0018472727 -0.0009800886 0.0087052733
0.0031403636 0.0009800886 0.004826
-0.0019396363 -0.0021001899 -0.0011776363
0.0039716363 -0.00051337975 0.0081510916
0.0044334545 0.00079340505 0.0051954547
0.0039716363 0.0014467975 -0.00016163633
-0.0048952727 -0.00088674686 0.0022398182
-0.0018472727 -0.0010734304 -0.0011776363
0.0029556362 0.0014467975 0.0075969095
0.0049876361 -0.00079340505 0.0045489091
0.0011083636 0.0019135063 0.0072274548
-0.00036945453 0.0028469241 -6.927269e-05
-0.00508 -0.0022868735 0.0024245456
-0.0026785454 -0.0006067215 0.001778
-0.0024938181 -0.00079340505 0.00094672735
-0.0024938181 -0.0035936583 0.0014085455
0.00508 -0.0032202911 0.001778
0.0046181818 -0.0036869999 2.3090948e-05
-0.0024938181 -0.00051337975 0.0028863638
-0.0016625454 0.0031269493 0.0075969095
0.00508 -0.0029402659 0.004826
-0.0036021818 0.0030336075 0.00020781823
-0.0015701818 -0.0031269493 0.0087052733
-0.00036945453 -0.0036869999 0.00066963641
0.0015701818 0.00042003798 0.0079663638
-0.00508 -0.0022868735 0.0064885458
0.0030479999 -0.0036869999 0.0067656366
-0.0049876361 -0.0020068481 0.0068580001
0.0044334545 -0.0035936583 0.0054725455
0.0039716363 0.001633481 0.0051030912
-0.0012930909 0.0026602405 0.007689273
-0.0036021818 0.0029402659 0.007689273
-0.0024938181 -0.0003266962 0.0068580001
-0.00508 -0.0033136329 0.00057727279
0.0023090909 0.0032202911 -0.00016163633
0.004341091 0.0025668987 0.0024245456
-0.0038792726 -0.0006067215 0.00066963641
0.0028632726 0.0009800886 0.0051954547
0.00073890906 0.0012601139 -6.927269e-05
0.0024014546 0.00088674686 0.00020781823
0.0037869089 -0.0007000633 0.0016856365
0.0023090909 -0.0036869999 0.0049183639
0.0013854546 0.0029402659 0.007689273
0.0041563637 -0.0007000633 0.0063961819
0.0041563637 -0.0035936583 0.00085436372
0.0035098181 0.00023335443 0.0045489091
-0.0022167272 -0.00042003798 0.0083358185
-0.0039716363 0.0029402659 -0.00016163633
0.00092363637 -0.0022868735 -0.00016163633
-0.0013854546 -0.0015401392 0.0087052733
0.0032327273 -0.0007000633 0.0086129094
-0.0013854546 -0.0015401392 -0.0011776363
-0.0030479999 -0.0036869999 0.0016856365
0.0012007273 0.0009800886 0.0072274548
-0.0030479999 0.0007000633 0.0023321819
0.0016625454 0.0035936583 0.00020781823
-0.0021243636 -0.0033136329 0.0051954547
-0.0046181818 -0.0036869999 0.004087091
-0.0049876361 -4.6670884e-05 0.0075045456
-0.0015701818 -0.0033136329 -0.0010852728
0.0036945455 -0.0003266962 0.0056572729
0.0025861817 -0.0007000633 0.00094672735
0.00092363637 -0.0015401392 -0.00025399998
0.00018472727 0.00088674686 0.0077816364
0.00508 -0.0033136329 0.001039091
-0.0048029092 0.0007000633 0.0075969095
-0.0040639997 0.00023335443 0.0077816364
0.0028632726 -0.0036869999 -0.00016163633
0.0034174544 0.0031269493 0.0027016364
-0.0029556362 -0.00042003798 0.00066963641
-0.0024014546 -0.0007000633 0.0084281825
0.0027709091 -0.00088674686 -0.0010852728
-0.0036021818 -0.0035936583 0.0038100001
0.0036945455 -0.00088674686 0.0087052733
-0.0033250907 -4.6670884e-05 0.0054725455
0.0028632726 0.0032202911 0.007689273
0.0017549091 0.0018201645 0.00020781823
-0.0017549091 -0.0033136329 -0.0011776363
-0.0049876361 -0.0013534557 0.004087091
-0.0026785454 0.0011667721 0.0050107273
0.0045258179 0.001633481 0.0074121822
-0.0045258179 0.0019135063 0.0051954547
-0.0017549091 -0.0031269493 -0.0011776363
-0.0020319999 -0.0021935317 0.0045489091
0.0012930909 -0.0018201645 0.00076200004
0.0036945455 0.0010734304 0.0023321819
-0.0026785454 -0.0007000633 0.0060267276
0.0022167272 -0.0036869999 0.0082434546
0.0030479999 0.00014001266 0.004826
-0.0048029092 -0.00079340505 0.0053801821
-0.0021243636 0.0012601139 0.00020781823
0.0022167272 0.0031269493 0.007689273
0.0018472727 -0.0036869999 0.0070427274
0.0049876361 -0.0033136329 0.0056572729
0.0021243636 -0.0029402659 0.001778
-0.0018472727 0.0011667721 0.0072274548
-0.0022167272 -0.00079340505 0.0018703637
0.0039716363 -0.0007000633 0.0061190911
-0.0035098181 0.0028469241 0.0049183639
0.00508 -0.0019135063 0.0022398182
0.0047105453 0.00088674686 0.0024245456
-0.0021243636 -0.0034069747 0.0061190911
-0.0015701818 -0.0032202911 -0.0010852728
0.004341091 -0.0035936583 -0.00062345451
-0.00046181818 0.0035003165 -6.927269e-05
-0.00508 -0.0022868735 0.0028863638
0.0029556362 -0.0020068481 0.0087052733
0.0022167272 -0.0033136329 0.0060267276
0.0026785454 -4.6670884e-05 0.0067656366
-0.0044334545 -0.0035936583 0.0037176365
0.0023090909 4.6670884e-05 0.004826
-0.0018472727 0.00023335443 0.00039254551
0.0037869089 0.0023802151 0.0073198183
-0.0036945455 -0.0006067215 0.0032558183
-0.0048952727 -0.0003266962 0.004826
-0.0020319999 -0.0023802151 0.0012238183
-0.0031403636 -0.00023335443 0.00057727279
0.0021243636 -0.0017268228 0.0031634546
0.0013854546 0.0015401392 -0.00016163633
-0.0049876361 -0.0021001899 0.0070427274
-0.0026785454 0.00014001266 0.00030018185
0.0036021818 0.001633481 0.0027016364
0.0021243636 -0.0009800886 0.0038100001
-0.0038792726 4.6670884e-05 0.0046412731
-0.00055418181 0.0033136329 -6.927269e-05
-9.2363633e-05 -0.0010734304 0.0068580001
0.0030479999 0.0019135063 0.00020781823
0.0047105453 -0.0035003165 0.00057727279
-0.0042487271 -0.00079340505 0.0086129094
0.0026785454 0.0009800886 0.0051030912
0.0016625454 -0.0036869999 0.0077816364
-0.0044334545 0.00042003798 -0.00016163633
0.004341091 -0.0035003165 0.0014085455
-0.0049876361 -0.0031269493 0.0080587277
-0.0030479999 0.0032202911 0.0074121822
-0.0036945455 -0.0036869999 0.0030710911
0.0012930909 -0.0021935317 0.0087052733
0.0036021818 -0.00014001266 0.00066963641
-0.00508 -0.00079340505 0.0075045456
0.0026785454 -0.0006067215 -0.00062345451
0.00036945453 -0.00079340505 0.0083358185
-0.0049876361 -0.0035003165 0.0025169093
-0.0010159999 0.0034069747 0.00020781823
-0.0042487271 -0.00023335443 -0.00053109089
0 -0.0036869999 0.0074121822
0.0046181818 0.0009800886 0.007689273
-0.0011083636 0.0019135063 0.00020781823
0.00073890906 -0.0033136329 -6.927269e-05
0.0034174544 0.0011667721 -0.00016163633
-0.0044334545 -0.0009800886 0.0086129094
0.0036945455 0.0006067215 0.0073198183
-0.0032327273 -0.00042003798 -0.00062345451
-0.0031403636 -0.00051337975 0.0068580001
-0.0020319999 -0.0027535823 0.0036252728
-0.0013854546 -0.0011667721 0.00066963641
-0.0012007273 0.0021935317 -6.927269e-05
-0.0018472727 0.0022868735 -0.00016163633
-0.0036945455 -0.0036869999 -0.00016163633
-0.0046181818 -0.0003266962 0.00030018185
-0.00036945453 -0.0009800886 0.0068580001
0.0016625454 -0.00023335443 0.0083358185
-0.0038792726 -0.0024735569 0.0087052733
-0.00018472727 -0.00014001266 0.00066963641
-0.0036945455 0.0003266962 0.0071350913
-0.0011083636 0.001633481 0.00020781823
0.004341091 -0.0014467975 -0.0011776363
-0.0024014546 -0.0036869999 0.0039023638
0.0021243636 -0.0011667721 0.0028863638
0.0022167272 -0.0036869999 0.0085205454
-0.0020319999 -0.0036869999 0.0071350913
0.0024938181 0.0022868735 0.00020781823
0.0039716363 -0.0010734304 0.0087052733
0.00508 -0.0026602405 0.0027940001
0.0039716363 0.0021935317 0.0023321819
-0.0040639997 -0.00051337975 0.00057727279
-0.0046181818 -0.0036869999 0.0032558183
0.0027709091 -0.0030336075 0.0087052733
0.0037869089 -0.0036869999 -0.00080818182
-0.0023090909 -0.0036869999 -0.00053109089
0.0024938181 -4.6670884e-05 0.0082434546
0.00018472727 -0.0036869999 0.0070427274
0.00055418181 0.0015401392 0.0072274548
-0.00046181818 -0.0036869999 0.0074121822
0.0033250907 0.0024735569 0.002609273
0.00073890906 0.0003266962 0.00039254551
0.0018472727 0.00088674686 0.0077816364
-0.0026785454 -0.0036869999 0.0082434546
-0.0023090909 -0.00042003798 0.00066963641
-0.0019396363 -0.0028469241 -0.0011776363
-0.0032327273 -0.0003266962 -0.00053109089
0.00508 -0.0012601139 0.0037176365
0.00508 -0.001633481 0.0025169093
0.00036945453 0.0030336075 0.0073198183
0.0010159999 0.0019135063 0.0077816364
-0.0021243636 -0.00088674686 0.0039023638
-0.00508 -0.0029402659 0.0078739999
0.0022167272 0.0033136329 -0.00016163633
0.0019396363 -0.0023802151 0.0067656366
0.0015701818 -0.001633481 -0.0011776363
-0.0020319999 -0.0015401392 0.0038100001
0.0032327273 -0.0007000633 0.0063961819
-0.0023090909 0.0029402659 0.00020781823
0.0021243636 -0.0010734304 0.0046412731
-0.0016625454 0.0030336075 -6.927269e-05
-0.0042487271 -0.00079340505 0.0085205454
-0.00018472727 0.0019135063 0.0077816364
0.0010159999 0.0011667721 0.0072274548
0.0039716363 0.0007000633 0.0027016364
-0.0024014546 -0.0035936583 0.0063038184
-0.0030479999 -0.00042003798 0.0068580001
-0.0048029092 -0.00014001266 0.0027016364
-0.00092363637 -0.00042003798 0.0083358185
-0.0036945455 0.0025668987 -0.00016163633
-0.00508 -0.0017268228 0.0050107273
0.0021243636 -0.0030336075 0.0030710911
-0.0018472727 -0.0035936583 -0.00080818182
0.0047105453 -0.00023335443 0.0071350913
0.0045258179 -0.0035936583 0.0039947275
0.0037869089 0.0023802151 -0.00016163633
0.00018472727 -0.0023802151 0.0087976363
-0.0010159999 0.0007000633 0.0078739999
-0.0038792726 -0.00051337975 0.0068580001
0.0013854546 -0.0035936583 0.00076200004
0.0021243636 -0.0018201645 0.0018703637
0.0032327273 0.0019135063 0.0051954547
-0.0033250907 0.00023335443 0.0047336365
-0.00036945453 -0.0036869999 0.00020781823
-0.0049876361 -0.0019135063 0.0066732732
0.0019396363 0.0020068481 0.0073198183
0.00018472727 0.00051337975 0.0071350913
-0.0012930909 -0.0034069747 0.0087052733
-0.0020319999 -0.0021935317 0.0049183639
0.0026785454 0.00014001266 0.0023321819
0.0019396363 -0.0036869999 0.0072274548
-0.0033250907 0.0035003165 0.0074121822
0.0028632726 0.0015401392 0.0023321819
-0.0020319999 -0.0021935317 0.004826
0.00036945453 0.0028469241 0.0073198183
-0.0039716363 -0.00042003798 0.00057727279
-0.0023090909 -4.6670884e-05 0.0025169093
0.0012930909 -0.0013534557 0.0068580001
0.0044334545 -0.0007000633 0.001778
0.0049876361 -0.0033136329 0.0035329093
-0.00508 -0.0028469241 0.0051030912
-0.0021243636 0.0027535823 0.007689273
0.0038792726 0.0009800886 0.0027016364
-0.0023090909 0.0030336075 0.0075969095
0.0034174544 -0.0007000633 0.0063038184
-0.0012930909 -0.0023802151 0.00076200004
0.0035098181 -0.00014001266 0.0018703637
0.00083127269 -0.001633481 0.0087052733
-0.0048029092 -0.00088674686 0.0043641818
0.00027709091 -0.0036869999 0.0074121822
0.0023090909 -0.0015401392 0.0087052733
0.0047105453 -0.00023335443 0.0028863638
0.0027709091 0.0003266962 0.0079663638
0.0025861817 0.0018201645 -0.00016163633
0.0021243636 -0.0027535823 0.0014085455
-0.00508 -0.0026602405 0.001778
0 -0.001633481 0.00066963641
-0.0034174544 -0.0036869999 0.0022398182
-0.0036945455 0.0007000633 0.0027016364
0.0037869089 0.0015401392 -0.00016163633
-0.00508 -0.0030336075 -0.00034636361
0.004341091 -0.0007000633 -0.00099290907
-0.0049876361 -0.0015401392 0.0059343637
-0.0040639997 0.00051337975 0.0027016364
0.0012930909 0.0028469241 0.007689273
0.0021243636 -0.0010734304 0.0039023638
-0.00508 -0.0019135063 0.0047336365
0.0022167272 -0.0007000633 0.0013161818
0.00036945453 -0.0011667721 0.00076200004
0.00508 -0.0011667721 0.0075969095
-0.0022167272 -0.0007000633 0.0084281825
-0.0015701818 -0.0027535823 0.00076200004
-0.0028632726 -0.00014001266 -0.00053109089
-0.0021243636 -0.0010734304 0.0063038184
0.00508 -0.0026602405 -0.00071581814
0.00508 -0.001633481 0.0047336365
-0.0049876361 -0.0015401392 0.0015932728
0.0040639997 0.00088674686 0.00020781823
0.00036945453 -0.00042003798 0.0082434546
0.00508 -0.0029402659 0.0073198183
0 0.0020068481 -6.927269e-05
-0.0037869089 0.0012601139 0.00020781823
-0.0012007273 -0.00088674686 -0.00071581814
-0.00508 -0.0029402659 0.0025169093
-0.0049876361 -0.001633481 0.0037176365
0.0030479999 -0.0036869999 -0.00034636361
-0.0022167272 -0.0036869999 0.0057496368
-0.00036945453 0.001633481 -6.927269e-05
-0.0021243636 -0.0036869999 -0.00016163633
-0.0025861817 0.00014001266 -0.00043872723
0.0014778181 -0.0017268228 0.00076200004
-0.0044334545 0.0020068481 0.0051954547
0.0048952727 -0.0003266962 0.00020781823
-0.0049876361 -0.0018201645 0.0020550911
0.00508 -0.0011667721 0.00020781823
0.0045258179 0.0018201645 0.0075045456
-0.0042487271 -0.0021001899 0.0087052733
-0.0030479999 -0.00023335443 0.006950364
0.0021243636 -0.00051337975 0.0049183639
-0.0020319999 0.0021001899 -0.00016163633
-0.0012007273 0.0026602405 -6.927269e-05
-0.0034174544 0.0028469241 0.002609273
-0.0013854546 0.0023802151 0.00020781823
0.0044334545 0.0007000633 0.0051954547
-0.0021243636 -0.0034069747 0.0058420002
-0.0023090909 0.0032202911 -0.00016163633
0.00508 -0.0015401392 0.0036252728
-0.0011083636 -0.0036869999 0.0086129094
-0.0020319999 -0.0013534557 0.0031634546
0.0044334545 -0.0035003165 0.001039091
0.0012007273 -0.0003266962 0.0068580001
-0.00055418181 -0.00079340505 0.0084281825
-0.0014778181 0.0033136329 0.00020781823
-0.0035098181 0.00051337975 0.0073198183
-0.0049876361 -0.0035003165 0.0051030912
0.0019396363 0.0015401392 0.00020781823
0.0046181818 0.00023335443 0.0073198183
-0.0049876361 -0.0015401392 0.001778
-0.00508 -0.0027535823 0.0064885458
0.0041563637 0.00014001266 0.0028863638
-0.0039716363 0.0033136329 0.0049183639
-0.00508 -0.0028469241 0.00085436372
-0.00092363637 0.0006067215 0.0078739999
0.0012930909 0.0032202911 0.0073198183
0.0018472727 4.6670884e-05 0.006950364
0.0029556362 0.00042003798 0.0070427274
-0.0048029092 -0.0035936583 0.0027940001
-0.00508 -0.0024735569 0.0013161818
0.0028632726 -0.0036869999 -0.00090054545
0.0021243636 -0.0019135063 0.0052878181
-0.0036021818 -0.0036869999 0.0075045456
-9.2363633e-05 -0.0025668987 -6.927269e-05
-0.0037869089 -0.00079340505 0.0086129094
-0.00508 -0.0020068481 0.004826
-0.0049876361 -0.00042003798 0.00020781823
0.0019396363 -0.00023335443 0.00066963641
-0.0046181818 -0.0006067215 0.00057727279
-0.0024014546 -0.00023335443 -0.00062345451
0.0024938181 0.0027535823 0.0073198183
-0.0041563637 0.0033136329 0.0075045456
-0.0025861817 -0.0007000633 0.0041794549
-0.0032327273 -4.6670884e-05 0.0079663638
-0.0029556362 0.0030336075 0.00020781823
-0.0034174544 0.0027535823 0.0074121822
0.0049876361 -0.00088674686 0.0051030912
0.0021243636 -0.0025668987 0.0043641818
-0.0048952727 -0.00014001266 -0.00016163633
-0.0040639997 0.0014467975 0.007689273
0.00064654544 -0.0028469241 0.0068580001
-0.0017549091 0.0029402659 0.00020781823
-0.0020319999 -0.0031269493 0.0053801821
-0.0026785454 -0.0036869999 0.00057727279
-0.0046181818 0.00088674686 0.0073198183
0.0019396363 0.0012601139 0.0077816364
-0.00055418181 -0.0013534557 0.00066963641
0.0030479999 -0.00042003798 0.0081510916
-0.00092363637 -0.0006067215 0.0068580001
-0.0048029092 -0.00079340505 0.0020550911
-0.0011083636 -0.0017268228 0.00076200004
0.00508 -0.0032202911 0.0023321819
0.0024014546 0.00042003798 0.0051030912
0.004341091 0.0018201645 -0.00016163633
-0.00027709091 -0.0020068481 -6.927269e-05
0.0031403636 -0.0033136329 0.0087052733
-0.0036021818 -0.0036869999 0.002609273
0.0011083636 -0.0036869999 0.00030018185
-0.0012007273 -0.00079340505 -0.00080818182
-0.0024938181 -0.0031269493 -0.0011776363
-0.0048952727 0.00014001266 0.0074121822
-0.0021243636 -0.0010734304 0.0056572729
0.0029556362 0.0024735569 -0.00016163633
0.0021243636 -0.0021935317 0.0032558183
-0.0016625454 0.00088674686 0.00020781823
0.0022167272 -0.0007000633 0.0035329093
0.0036945455 0.0035936583 0.002609273
-0.0036945455 0.0015401392 0.0073198183
-0.004341091 -0.00079340505 0.0063961819
-0.0042487271 0.0017268228 0.0051954547
-0.0022167272 0.0031269493 -0.00016163633
-0.0042487271 -0.0036869999 0.00066963641
0.0021243636 -0.0020068481 0.0029787275
-0.00055418181 -0.0030336075 0.0068580001
0.0021243636 -0.0017268228 0.0024245456
0.0022167272 -0.0007000633 0.00076200004
0.00508 -0.0017268228 0.0030710911
0.0013854546 0.00042003798 0.0070427274
0.0018472727 -0.0034069747 0.0068580001
-0.0019396363 -0.0028469241 0.00085436372
0.0012007273 -0.0031269493 0.00076200004
-0.0017549091 0.0017268228 0.0073198183
0.0044334545 0.0015401392 0.00020781823
0.004341091 0.001633481 0.004826
-0.0021243636 -0.0035003165 0.0063038184
-0.0035098181 0.0021935317 0.007689273
-0.0048952727 -0.00088674686 0.00030018185
0.00064654544 0.0010734304 0.0072274548
-0.0016625454 0.0021001899 0.00020781823
0.0036945455 -0.0003266962 0.0043641818
0.0048029092 4.6670884e-05 0.00020781823
0.0032327273 0.0012601139 -0.00016163633
0.0022167272 -0.0035936583 0.0027016364
0.00508 -0.0015401392 0.0072274548
0.00064654544 0.001633481 -6.927269e-05
0.0012930909 -0.0033136329 0.00076200004
0.00073890906 -0.0021001899 0.0068580001
-0.0032327273 -0.0036869999 -6.927269e-05
0.0030479999 0.00042003798 0.0052878181
0.0048029092 0.00023335443 0.00020781823
0.0023090909 0.0021001899 0.007689273
-0.0036945455 -0.0036869999 0.0023321819
0.0010159999 0.0031269493 0.00020781823
0.0018472727 0.00014001266 0.00057727279
0.0023090909 -0.0035936583 0.0029787275
-0.0024938181 -0.0036869999 2.3090948e-05
-0.0020319999 -0.0017268228 0.0032558183
-0.0017549091 -0.0035936583 -0.00071581814
0.0036945455 0.0035936583 0.0050107273
-0.0036021818 -0.0036869999 0.00011545459
0.0040639997 -0.0028469241 0.0087052733
0.0038792726 0.0024735569 0.0051954547
-0.00073890906 -0.0011667721 0.0087052733
-0.0032327273 -0.00051337975 0.0082434546
0.0040639997 0.0018201645 0.0073198183
0 -0.0018201645 0.0087976363
0.0048952727 -0.00051337975 0.006950364
-0.0016625454 0.0035936583 0.0074121822
-0.0011083636 -0.0028469241 0.0068580001
0.0020319999 0.00079340505 0.0078739999
-0.0021243636 -0.0009800886 0.0015932728
0.0034174544 -0.0035936583 0.0013161818
-0.0035098181 0.0011667721 0.004826
-0.0041563637 -0.0036869999 0.0077816364
0.00073890906 0.0031269493 0.00020781823
0.0022167272 -0.0031269493 0.0034405456
-0.0038792726 -0.0009800886 0.0086129094
-0.0022167272 -0.0021001899 -0.0011776363
-0.0048029092 -0.00079340505 0.0082434546
0.0017549091 -0.00042003798 0.0083358185
0.0029556362 -0.0036869999 0.004087091
0.0044334545 0.0019135063 0.0027016364
-0.0012930909 -0.0011667721 0.00066963641
-0.0045258179 -0.0036869999 0.0020550911
-0.0021243636 -0.00088674686 0.0025169093
-0.0037869089 0.0021935317 0.0027016364
0.0034174544 -0.0036869999 -6.927269e-05
-0.0012007273 -0.0036869999 0.0081510916
-0.0046181818 -0.0036869999 0.00039254551
-0.0027709091 -0.00088674686 -0.00099290907
-0.00064654544 0.0028469241 0.007689273
-0.00508 -0.0031269493 0.00066963641
0.0012007273 -0.0029402659 -0.00034636361
-0.0015701818 -0.0035936583 -0.00053109089
0.0036021818 -0.0007000633 0.0035329093
-0.0025861817 -0.0036869999 0.00057727279
-0.0028632726 0.0011667721 0.0077816364
0.0016625454 0.0010734304 -0.00016163633
0.00036945453 -0.0025668987 0.0087052733
-0.0042487271 -0.0036869999 0.0081510916
-0.00508 -0.0026602405 0.0077816364
-0.00508 -0.0025668987 0.0041794549
-0.0019396363 -4.6670884e-05 0.006950364
0.0024938181 -0.0036869999 0.00066963641
-0.0016625454 -0.0024735569 0.0067656366
0.0039716363 0.0015401392 -0.00016163633
-0.0024938181 -0.00051337975 0.0027940001
0.0015701818 -0.0009800886 -0.0011776363
-0.004341091 0.0006067215 0.007689273
0.00508 -0.001633481 0.00039254551
-0.0024014546 -0.0006067215 0.0019627274
-0.0013854546 0.0027535823 -6.927269e-05
-0.0020319999 -0.0020068481 0.0037176365
-0.0016625454 -0.0014467975 -0.0011776363
-0.0035098181 -0.0036869999 0.0075045456
0.0021243636 -0.0021001899 0.0058420002
0.0015701818 -0.0036869999 0.00039254551
-0.0049876361 -0.0017268228 0.0016856365
0.0033250907 0.0029402659 -0.00016163633
0.00055418181 0.0013534557 0.00020781823
-0.00508 -0.0025668987 0.0043641818
-0.0012007273 0.0006067215 0.0072274548
-0.0041563637 -0.0036869999 0.0027016364
0.0031403636 0.0015401392 -0.00016163633
0 -4.6670884e-05 0.0068580001
-0.0036945455 -0.0036869999 -0.00090054545
0.0017549091 0.0033136329 0.0073198183
0.00036945453 0.0007000633 0.00020781823
-0.00092363637 -0.0021001899 0.0068580001
-0.00083127269 0.0015401392 0.0072274548
0.0030479999 4.6670884e-05 0.00066963641
0.0028632726 -0.0036869999 0.0074121822
-0.0047105453 -0.0036869999 0.00011545459
