# .PCD v0.7 - Point Cloud Data file format
VERSION 0.7
FIELDS x y z
SIZE 4 4 4
TYPE F F F
COUNT 1 1 1
WIDTH 1246
HEIGHT 1
VIEWPOINT 0 0 0 1 0 0 0
POINTS 1246
DATA ascii
0.0045719999 0.0010171034 0.015011242
-0.0040639997 -0.00025427586 0.018166522
0.0021589999 -0.0026698965 0.0042832918
0.00050799997 0.001779931 0.00011832293
-0.003175 -0.00050855172 0.00062316761
0.00508 -0.0013985173 -0.00038652177
0.0021589999 0.00012713793 0.00049695646
-0.00254 0.00025427586 0.00037074529
0.00508 -0.0020342069 0.0099627944
0.004826 -0.0034327242 0.0092055276
-0.0043179998 0.00050855172 0.0076909936
0.0038099999 -0.00063568965 0.010846273
-0.0045719999 -0.0036869999 0.0047881366
0.000635 -0.0033055863 0.00074937881
-0.0020319999 -0.0022884829 0.013244285
0.0026670001 -0.0036869999 0.01059385
0.0040639997 0.00050855172 0.00516677
0.0022859999 -0.0020342069 -0.0011437888
-0.004191 0.001779931 0.0049143475
0.0035559998 0.0031784482 0.00011832293
0.0021589999 -0.0016527931 0.012487018
-0.003175 0 0.0054191924
0.0013969999 -0.0033055863 -0.0002603106
-0.0044450001 -0.00038141379 0.0094579495
-0.003175 -0.0024156207 0.018797576
-0.0021589999 -0.0033055863 0.013244285
-0.0027939999 -0.00063568965 0.0041570803
-0.001143 0.0036869999 -7.8882485e-06
-0.0026670001 -0.00038141379 0.010846273
-0.0036829999 0.0010171034 0.017661676
0.0021589999 -0.001907069 0.016147142
0.004191 0.0012713793 0.014885031
-0.0049529998 -0.001779931 0.0069337264
0.0021589999 -0.00076282758 0.013496707
0.0044450001 0.001779931 0.0074385712
-0.0049529998 -0.003559862 0.008069627
0.0026670001 0.0026698965 0.017409254
-0.0026670001 -0.00038141379 0.0093317386
0.00508 -0.0012713793 0.017156832
-0.0038099999 0.00025427586 0.0027687575
0.0039369999 -0.003559862 0.018545154
0.0038099999 0.0024156207 0.0076909936
0.0040639997 -0.00025427586 0.013118074
-0.0020319999 -0.001907069 0.0045357142
0.0021589999 -0.00088996551 0.0073123598
-0.0039369999 0.0010171034 0.0074385712
0.00254 -0.0036869999 0.0027687575
0.0022859999 -0.003559862 0.0052929809
0.0030479999 -0.0031784482 0.018671365
0.004191 -0.0036869999 0.012991862
-0.0036829999 0.0015256552 0.0098365834
0.0035559998 0.003559862 0.017661676
0.0013969999 -0.0020342069 -0.0011437888
-0.00012699999 -0.0033055863 0.01690441
0.003175 -0.0036869999 0.0052929809
-0.0035559998 0.0031784482 0.0025163353
0.0036829999 0.00012713793 -0.00051273295
0.0021589999 -0.00063568965 0.014885031
0.003429 0.00012713793 0.0094579495
-0.0017779999 0.0027970346 0.00011832293
0.00025399998 0.00012713793 -7.8882485e-06
-0.00050799997 0.0021613447 0.017914098
-0.0049529998 -0.0020342069 -0.0007651553
0.00508 -0.0013985173 0.0088268938
0.0021589999 -0.0022884829 0.0015066458
-0.0027939999 -0.00088996551 0.018671365
0.0010159999 -0.0033055863 -7.8882485e-06
0.0049529998 -0.00088996551 0.0013804347
0.0021589999 -0.0033055863 0.0084482608
0.0045719999 0 0.0073123598
-0.0030479999 0 0.0076909936
-0.003429 -0.0036869999 0.010215217
-0.000635 0.00012713793 0.01690441
0.00508 -0.0015256552 0.012234596
-0.0049529998 -0.0020342069 0.0010018011
0.0035559998 -0.00038141379 0.0094579495
0.003302 0.001779931 0.00516677
0.003429 -0.00050855172 0.016525775
0.0044450001 -0.00050855172 0.013118074
0.00254 -0.0025427586 -0.0011437888
-0.0046989997 0.0010171034 0.017409254
0.0044450001 0 0.0028949687
0.0030479999 -0.0024156207 0.018797576
-0.0045719999 -0.0013985173 0.018671365
-0.00508 -0.0031784482 0.011729751
-0.003175 -0.0036869999 0.0018852794
-0.0040639997 -0.00063568965 0.018418944
0.0049529998 -0.00088996551 0.0097103724
-0.0045719999 0.0020342069 0.0074385712
0.00508 -0.0015256552 0.011477329
0.003302 -0.00076282758 0.013875341
0.00508 -0.0013985173 0.013622919
-0.00508 -0.0033055863 0.018418944
0.0040639997 -0.0036869999 0.014632608
0.0021589999 -0.0031784482 0.0059240372
-0.0044450001 -0.00025427586 0.017914098
-0.00508 -0.0027970346 0.00049695646
0.0010159999 -0.0015256552 0.016778197
0.00038099999 -0.0036869999 0.017787887
-0.000635 0.00088996551 0.00011832293
-0.0020319999 -0.0025427586 0.0074385712
0.004826 -0.00050855172 0.0070599373
0.001905 -0.0015256552 0.016778197
0.003302 0.0011442414 0.00516677
0.0021589999 -0.0029241724 0.0041570803
0.004191 -0.00025427586 0.01059385
-0.0043179998 0.0013985173 0.00516677
0.003175 0.00012713793 0.0095841615
0.00508 -0.0027970346 0.0022639129
-0.0029209999 0.0010171034 0.0099627944
-0.0046989997 -0.003559862 0.011224906
0.003302 -0.00038141379 0.0017590682
0.00508 -0.0029241724 0.0037784469
-0.00508 -0.0022884829 0.0011280123
-0.0035559998 0.0022884829 0.012613229
-0.00508 -0.0027970346 0.0070599373
0.002413 -0.0036869999 0.01273944
-0.0026670001 0.00088996551 0.00011832293
-0.0035559998 0.00063568965 0.00516677
0.0039369999 -0.00076282758 0.0090793166
0.003175 -0.00050855172 -0.0006389441
0.00050799997 0.00038141379 0.018040311
-0.0027939999 0.00012713793 0.0022639129
-0.00508 -0.0033055863 0.010467639
0.0021589999 -0.0034327242 0.0041570803
-0.00508 -0.0021613447 0.0064288815
0.0035559998 0.0025427586 0.015137453
0.0035559998 0.00025427586 0.014506397
0.0021589999 -0.001907069 0.0056716148
0.003429 0.001779931 0.012360807
0.003429 -0.00076282758 0.0059240372
-0.0026670001 -0.00050855172 0.016525775
0.0026670001 -0.00038141379 0.0083220489
-0.0026670001 -0.0036869999 0.0022639129
-0.00508 -0.0031784482 0.011351118
0.0049529998 -0.0033055863 0.0061764591
-0.0021589999 -0.003559862 0.011224906
0.0044450001 -0.0031784482 -0.0010175776
0.00508 -0.0013985173 0.0061764591
0.0021589999 -0.00088996551 0.0098365834
-0.0049529998 -0.0013985173 0.0068075154
-0.000635 0.00063568965 0.017914098
0.00038099999 -0.00038141379 0.018418944
0.00508 -0.0024156207 0.016525775
-0.0049529998 -0.00088996551 -0.00013409942
0.00508 -0.0026698965 0.0013804347
0.001651 -0.0021613447 -0.0011437888
0.0017779999 -0.0020342069 0.018797576
-0.003302 0.00050855172 0.017787887
0.0010159999 0.0034327242 0.00011832293
-0.0045719999 -0.0036869999 0.0097103724
-0.0021589999 -0.0034327242 0.0061764591
-0.003175 0.0025427586 0.0025163353
-0.0020319999 -0.0013985173 0.016273353
0.0040639997 -0.00063568965 0.013496707
0.003429 -0.00076282758 0.001632857
-0.0026670001 0 0.017030621
0.00508 -0.0026698965 0.0036522357
-0.0020319999 -0.0030513103 0.0093317386
0.0021589999 -0.00025427586 0.0023901241
0.003302 0.00025427586 0.017030621
0.0022859999 -0.00076282758 0.006681304
-0.00088899996 -0.00050855172 0.00062316761
-0.0038099999 0.0026698965 0.0099627944
0.00508 -0.0022884829 0.0021377017
0.0049529998 -0.0034327242 0.014001552
0.0021589999 -0.0026698965 0.016273353
-0.0049529998 -0.0024156207 0.01160354
-0.0039369999 -0.0036869999 0.0028949687
0.003302 0.00038141379 -0.00038652177
-0.003302 0.0021613447 0.014885031
0.00025399998 0.00063568965 0.017156832
0.00038099999 -0.0029241724 0.01690441
0.003429 -0.00025427586 0.010720062
0.0026670001 -0.00063568965 0.018545154
0.0035559998 -0.0036869999 0.005040559
-0.0039369999 -0.0036869999 0.0089531047
0.0021589999 -0.00076282758 0.0044095027
-0.0035559998 -0.0036869999 0.010972484
0.0036829999 0.0021613447 0.014885031
0.00508 -0.0030513103 -7.8882485e-06
0.0021589999 -0.001779931 0.0042832918
-0.0029209999 -0.00012713793 0.01059385
0.0017779999 -0.00050855172 0.018418944
0.0010159999 -0.001779931 0.018797576
-0.0030479999 -0.0036869999 0.015516086
0.0035559998 -0.00076282758 0.0064288815
0.0049529998 -0.00076282758 0.0049143475
0.003175 0.0012713793 0.012360807
-0.0046989997 0.00050855172 0.00011832293
0.00076199998 0.00012713793 0.01690441
0.0035559998 0.0011442414 0.0023901241
-0.0030479999 0.0012713793 0.015137453
-0.00508 -0.0030513103 0.00037074529
0.0017779999 0.0021613447 -0.00013409942
-0.00508 -0.0026698965 0.0032736023
-0.0040639997 0.0024156207 0.0073123598
-0.0043179998 0.001907069 0.0026425463
0.0045719999 -0.00050855172 0.015642298
-0.0038099999 0.00038141379 0.00011832293
-0.003429 -0.00063568965 0.0093317386
0.0030479999 -0.0036869999 -0.0007651553
0.0021589999 -0.0024156207 0.0018852794
-0.0040639997 -0.0036869999 0.0090793166
-0.0038099999 -0.0024156207 0.018797576
-0.0026670001 -0.00063568965 0.016020931
-0.0013969999 -0.0022884829 0.00074937881
-0.00038099999 -0.0027970346 -7.8882485e-06
-0.0040639997 -0.0036869999 0.0052929809
0.00025399998 0.00050855172 0.00024453411
-0.0049529998 -0.0034327242 0.014506397
0.004191 -0.00063568965 0.015768509
0.00508 -0.0029241724 0.0017590682
-0.0049529998 -0.0010171034 0.014127763
-0.0021589999 -0.0036869999 -0.0007651553
-0.003175 0.0022884829 0.005040559
-0.00025399998 -0.0036869999 0.018418944
-0.0022859999 -0.00076282758 0.0042832918
-0.0049529998 -0.0011442414 0.01160354
-0.0035559998 -0.00076282758 -0.0010175776
0.0030479999 0.00088996551 0.012360807
0.0040639997 0 0.018040311
0.00508 -0.0011442414 0.0018852794
0.0021589999 -0.0031784482 0.01589472
-0.0045719999 0.00076282758 0.00011832293
0.00508 -0.0031784482 0.0055454033
0.004826 -0.00050855172 0.017030621
0.00012699999 0.00088996551 0.00011832293
0.004191 -0.0036869999 0.0022639129
0.0045719999 -0.0034327242 0.0059240372
-0.0044450001 0.0015256552 0.00011832293
0.0044450001 0.00088996551 0.014885031
-0.0021589999 -0.0010171034 0.01374913
-0.003302 -0.0036869999 0.010846273
0.00508 -0.0011442414 0.016399564
-0.0049529998 -0.0020342069 0.0070599373
0.0046989997 0 0.00516677
0.00508 -0.0025427586 0.017283043
0.003302 -0.00025427586 0.0031473911
0.0021589999 -0.0027970346 0.001632857
0.0046989997 -0.00025427586 -0.00038652177
-0.003429 0.0025427586 0.0026425463
-0.0020319999 -0.0013985173 0.0015066458
0.00508 -0.0013985173 0.0023901241
0.00254 -0.00076282758 0.0063026706
0.00508 -0.0016527931 0.014885031
0.0013969999 -0.0027970346 0.00062316761
-0.000635 0.0021613447 0.017661676
0.0022859999 -0.003559862 0.0020114905
-0.002413 -0.0036869999 0.0083220489
-0.0049529998 -0.0015256552 0.015137453
0.00508 -0.0010171034 0.0054191924
0.001905 -0.0031784482 0.018671365
0.0049529998 -0.00038141379 -0.00013409942
0.0049529998 -0.0033055863 0.018545154
-0.0045719999 -0.00050855172 0.008069627
0.00508 -0.0026698965 0.0039046581
-0.0010159999 -0.00088996551 0.01690441
0.000635 -0.00088996551 0.00074937881
0.0039369999 0.00088996551 0.012360807
-0.0036829999 0.0021613447 0.017661676
0.003429 -0.00050855172 0.01160354
0.0027939999 -0.0036869999 0.0031473911
-0.003302 0.0026698965 0.012613229
-0.00127 0.00063568965 -0.00013409942
-0.0036829999 0.0020342069 0.00516677
-0.0040639997 0.0030513103 -7.8882485e-06
0.0044450001 -0.00012713793 0.0055454033
0.0043179998 0.0024156207 0.0023901241
-0.0020319999 -0.001907069 0.0073123598
0.00025399998 -0.00012713793 -7.8882485e-06
0.0038099999 0.001907069 0.0026425463
0.0029209999 -0.00076282758 0.0037784469
-0.0021589999 -0.00076282758 0.0075647822
0.002413 -0.0036869999 0.014758819
0.0017779999 -0.00050855172 0.00062316761
-0.00508 -0.0031784482 0.0076909936
0.0021589999 -0.0029241724 0.0047881366
0.0049529998 -0.00076282758 0.012991862
-0.0029209999 0.00088996551 0.0099627944
-0.00076199998 -0.00012713793 0.018418944
-0.001524 0.001907069 0.017283043
0.0039369999 0.0016527931 0.0074385712
0.0038099999 0.0031784482 0.017661676
0.00025399998 -0.0015256552 -7.8882485e-06
0.0045719999 -0.00076282758 0.0064288815
0.004191 -0.00025427586 0.018166522
0.0038099999 0.0016527931 0.00516677
-0.003175 -0.003559862 0.018671365
0.0021589999 -0.0033055863 0.008195838
0.0038099999 0.0029241724 0.0049143475
0.0043179998 0.00012713793 0.014758819
0.003429 0.00012713793 0.011982174
-0.0013969999 -0.00050855172 0.00062316761
-0.0044450001 0.00025427586 0.0098365834
0.0040639997 -0.0031784482 0.018671365
-0.0029209999 -0.0036869999 0.0090793166
-0.0027939999 -0.0036869999 0.017914098
-0.00508 -0.0021613447 0.0025163353
-0.00076199998 -0.003559862 -0.00013409942
0.00254 0.00025427586 0.014885031
0.00508 -0.0021613447 0.018292733
0.00508 -0.0030513103 0.0092055276
-0.0029209999 0.0010171034 0.012613229
0.00088899996 -0.0036869999 0.018418944
-0.0020319999 -0.0030513103 0.0064288815
-0.004191 -0.0022884829 -0.0011437888
-0.00508 -0.0029241724 0.0025163353
-0.0020319999 -0.0029241724 0.010089005
0.003175 0.001779931 0.010215217
0.00508 -0.0021613447 0.016651986
0.0020319999 0.0025427586 0.00011832293
-0.0036829999 0.0022884829 0.0049143475
-0.00508 -0.0031784482 0.0049143475
-0.0045719999 -0.00088996551 0.0037784469
0.0038099999 0.0031784482 0.00011832293
0.0030479999 -0.00076282758 0.0012542235
0.0030479999 -0.003559862 0.016399564
0.003302 -0.0036869999 0.0076909936
0.0029209999 0 0.0054191924
-0.0035559998 -0.0036869999 0.005040559
-0.001524 0.0033055863 0.00011832293
0.0044450001 -0.00076282758 0.014253975
0.0036829999 -0.00050855172 0.0017590682
-0.004826 -0.00088996551 0.018545154
0.00508 -0.0026698965 0.01273944
0.001651 0.0012713793 0.017283043
-0.003302 0.0010171034 0.015137453
-0.0029209999 0.0015256552 0.017661676
0.004191 0.00088996551 0.012360807
-0.0038099999 0.0024156207 0.015137453
-0.0036829999 0.00038141379 -0.0002603106
0.00508 -0.0029241724 0.015389876
-0.00254 0 0.0074385712
0.00508 -0.0011442414 0.0087006828
-0.0027939999 0.00025427586 0.012613229
-0.0039369999 -0.00050855172 0.014506397
0.0026670001 -0.00025427586 0.015389876
-0.004191 -0.0036869999 0.0030211799
0.002413 -0.00076282758 0.006555093
0.00088899996 0.0022884829 -7.8882485e-06
-0.0020319999 -0.0027970346 0.0097103724
-0.0035559998 -0.0036869999 0.0018852794
0.0043179998 0.0015256552 0.017661676
-0.0026670001 -0.00025427586 0.0030211799
-0.0049529998 -0.00063568965 0.0023901241
0.0043179998 0.00025427586 0.017787887
0.0022859999 0.0034327242 -0.00013409942
0.00254 -0.0036869999 -0.0007651553
-0.00508 -0.0010171034 0.0074385712
-0.00508 -0.0024156207 0.0041570803
0.00076199998 -0.0025427586 -7.8882485e-06
-0.0029209999 -0.0036869999 0.012991862
-0.00508 -0.0021613447 0.0069337264
-0.0049529998 0.00012713793 0.012487018
0.003302 0.0015256552 0.015137453
-0.0022859999 -0.003559862 0.011351118
-0.00050799997 0.003559862 0.00011832293
-0.0020319999 -0.0027970346 0.0095841615
-0.0029209999 -0.0036869999 0.0039046581
0.0038099999 -0.0036869999 0.007817205
-0.0046989997 -0.00038141379 0.00011832293
0.0029209999 -0.0036869999 0.017409254
-0.0043179998 -0.00088996551 0.0085744718
-0.002413 -0.0036869999 0.015768509
0.00508 -0.0011442414 0.0095841615
0.0017779999 -0.0026698965 -0.0011437888
0.0026670001 0.0016527931 -0.00013409942
0.004191 0.00025427586 0.017283043
0.0046989997 -0.0024156207 0.018671365
-0.003429 -0.00063568965 0.016020931
0.00508 -0.0013985173 0.0060502482
0.0039369999 0.00025427586 0.0095841615
0.0036829999 -0.00038141379 0.015642298
0.00127 0.0020342069 0.017535465
0.0021589999 -0.0033055863 0.0064288815
-0.0043179998 -0.0036869999 0.006555093
0.003429 0.0010171034 0.01273944
-0.0013969999 -0.0036869999 0.018040311
0.0044450001 0.001907069 0.0099627944
-0.0049529998 -0.001907069 0.0037784469
0.0030479999 -0.003559862 0.0039046581
0.004191 -0.00025427586 -0.0006389441
-0.0039369999 -0.00076282758 0.0063026706
-0.0038099999 0.0024156207 0.0026425463
-0.004826 -0.00088996551 0.013244285
0.0017779999 0 0.00062316761
-0.0046989997 0.00012713793 0.015137453
0.00254 -0.00050855172 0.014127763
0.0049529998 -0.00088996551 0.014380186
0.004191 -0.00063568965 0.01160354
0.0013969999 -0.0027970346 0.01690441
0.002413 0.0013985173 0.00011832293
-0.00508 -0.0011442414 -7.8882485e-06
0.0021589999 -0.0033055863 0.0013804347
0.004191 0.001907069 0.0076909936
-0.00012699999 0.0021613447 0.00011832293
0.00127 -0.00038141379 0.00062316761
0.0030479999 -0.00038141379 0.014253975
0.0038099999 -0.00038141379 0.0044095027
-0.00088899996 -0.0026698965 -0.0002603106
-0.0021589999 -0.00076282758 0.0031473911
-0.00508 -0.0024156207 0.011351118
-0.0038099999 -0.0036869999 0.0090793166
0.0030479999 -0.0036869999 0.0060502482
0.0038099999 0.00050855172 0.00516677
0.0021589999 -0.0011442414 0.0027687575
0.0036829999 0.0031784482 0.0026425463
-0.00254 -0.0025427586 0.018797576
0.0021589999 -0.001907069 0.0055454033
0.00508 -0.0027970346 0.011477329
-0.0029209999 -0.00088996551 0.0090793166
0.001651 0.00025427586 -0.00038652177
0.0038099999 0.0016527931 0.010215217
0.001524 -0.00088996551 0.018671365
0.0036829999 0.0024156207 0.0026425463
0.0036829999 -0.003559862 0.00074937881
-0.0045719999 -0.0036869999 0.0064288815
-0.003302 -0.0036869999 0.00516677
0.0027939999 -0.00025427586 -0.0006389441
-0.003429 0.0029241724 -0.00013409942
0.0039369999 0.0029241724 0.0026425463
-0.00508 -0.0026698965 0.0076909936
-0.0026670001 -0.00050855172 -0.0006389441
-0.001143 0.00088996551 0.017914098
-0.0020319999 -0.0011442414 0.016273353
-0.003429 0.00088996551 0.015263664
-0.000635 -0.0024156207 0.018797576
-0.0046989997 -0.00088996551 0.011224906
0.0021589999 -0.0029241724 0.016525775
0.003429 -0.00076282758 0.0040308693
0.00508 -0.0025427586 0.016651986
0.0038099999 0.00012713793 0.0094579495
0.0029209999 -0.0036869999 0.0015066458
-0.00127 -0.0033055863 0.018671365
-0.0049529998 -0.001907069 0.010720062
-0.0049529998 -0.0015256552 0.0045357142
-0.0043179998 -0.0021613447 0.018671365
0.0049529998 -0.00088996551 0.01273944
0.0035559998 0.00076282758 0.00011832293
-0.0020319999 -0.0020342069 0.014885031
-0.0020319999 -0.0027970346 0.010972484
-0.00254 -0.0036869999 0.0054191924
-0.0049529998 -0.0012713793 0.0031473911
-0.0022859999 -0.001907069 -0.0011437888
0.0044450001 -0.0034327242 0.011351118
0.001143 -0.00088996551 0.00074937881
0.002413 0.0025427586 0.017661676
0.0021589999 -0.0024156207 0.0070599373
-0.0045719999 0.00025427586 0.00516677
0.0021589999 -0.001907069 0.010215217
-0.00076199998 0.0031784482 0.00011832293
-0.00508 -0.0016527931 0.0074385712
-0.0043179998 0.0024156207 0.017661676
-0.0038099999 0.0011442414 0.01273944
0.0030479999 -0.0029241724 -0.0011437888
-0.0035559998 -0.003559862 0.018671365
0.0045719999 0.00012713793 0.0026425463
0.00254 -0.0027970346 0.018797576
-0.0038099999 0.00025427586 0.00024453411
0.001905 0.003559862 0.017535465
-0.004191 -0.00063568965 0.014506397
-0.004191 -0.0036869999 0.018040311
0.00254 0.001779931 0.017661676
-0.0029209999 0.00038141379 0.010215217
0.0026670001 0.00025427586 0.0027687575
-0.0036829999 0.00076282758 0.010215217
0.0044450001 -0.00076282758 0.00087558996
0.003302 -0.0036869999 0.018418944
-0.0049529998 -0.001907069 -0.0010175776
-0.0040639997 0.00063568965 0.010215217
0.0022859999 -0.00038141379 0.00074937881
0.004191 -0.00088996551 0.0012542235
-0.0043179998 -0.00063568965 0.013118074
-0.00025399998 -0.0036869999 0.01690441
0.00508 -0.0024156207 0.0032736023
-0.0039369999 -0.00076282758 0.0037784469
0.0040639997 -0.0016527931 0.018797576
0.0039369999 0.00063568965 0.0047881366
-0.004191 -0.0036869999 0.0068075154
0.0036829999 -0.00025427586 0.0069337264
-0.0021589999 -0.0036869999 0.017535465
-0.00127 -0.0010171034 -0.0010175776
0.0044450001 -0.00038141379 0.015642298
0.001651 0.0016527931 0.00011832293
0.0021589999 -0.0012713793 0.01374913
-0.0017779999 0.0021613447 0.00011832293
-0.003302 -0.00012713793 0.015642298
-0.0029209999 0.0015256552 0.0099627944
-0.00254 0.00076282758 0.0023901241
0.0045719999 -0.00038141379 0.018166522
-0.00038099999 0.0026698965 -7.8882485e-06
0.00088899996 0.0015256552 0.017914098
0.0043179998 -0.00038141379 -0.0006389441
-0.0021589999 -0.0010171034 0.013496707
0.003302 -0.0036869999 0.01589472
-0.0049529998 -0.0015256552 0.010720062
0.0038099999 0.0031784482 0.010089005
0.0049529998 -0.00076282758 -0.0007651553
-0.000635 0.0021613447 0.017787887
-0.00050799997 0.001907069 0.017156832
0.0045719999 0.0010171034 0.012613229
0.00508 -0.0021613447 0.0076909936
0.0021589999 -0.0015256552 0.015137453
-0.0021589999 -0.0033055863 0.01273944
-0.0039369999 -0.003559862 -0.0011437888
0.00508 -0.001779931 0.017283043
-0.003429 -0.0036869999 0.0054191924
0.000635 -0.0029241724 0.00074937881
0.0046989997 -0.003559862 0.0071861488
0.0039369999 -0.0034327242 0.0063026706
0.0045719999 0.0013985173 0.015011242
-0.0044450001 -0.00076282758 0.010720062
0.00038099999 0.0015256552 0.017914098
-0.001651 -0.0036869999 0.017661676
-0.0040639997 0.0020342069 0.0098365834
0.00508 -0.0012713793 -0.0002603106
-0.0038099999 -0.0036869999 0.0032736023
-0.0030479999 0.00063568965 0.0026425463
-0.002413 0.0030513103 0.00011832293
-0.0029209999 -0.0036869999 -0.0002603106
-0.00508 -0.0033055863 0.0039046581
0.0044450001 -0.00012713793 0.0020114905
0.003429 0.0011442414 0.0023901241
-0.00088899996 0 0.00062316761
-0.0043179998 -0.0036869999 0.0049143475
-0.0049529998 -0.0013985173 0.010341428
0.00038099999 -0.001779931 0.018797576
0.00025399998 -0.0030513103 0.018671365
-0.00127 0.0021613447 -7.8882485e-06
-0.00050799997 0.0010171034 0.017914098
0.0044450001 0.00088996551 0.0098365834
-0.00088899996 0.0020342069 0.017283043
-0.00127 -0.0026698965 -0.0007651553
0.00508 -0.0011442414 0.011982174
-0.0029209999 -0.0013985173 0.018671365
-0.0029209999 -0.00076282758 0.016147142
-0.0049529998 -0.0011442414 0.0046619251
0.0030479999 -0.003559862 0.0012542235
-0.0049529998 -0.0024156207 0.0098365834
0.003175 0.00050855172 0.0076909936
-0.0029209999 -0.00088996551 -0.0011437888
-0.00508 -0.0031784482 -0.00013409942
0.0049529998 -0.00076282758 0.0099627944
0.000635 -0.00012713793 0.018418944
0.0035559998 0.001779931 -0.00013409942
0.00508 -0.0010171034 0.017156832
-0.003175 0.00063568965 0.00011832293
0.00508 -0.0025427586 0.0098365834
-0.0020319999 -0.001779931 0.0085744718
-0.0020319999 0.00076282758 0.00011832293
-0.0049529998 -0.0015256552 0.014127763
-0.0020319999 -0.0020342069 0.0069337264
0.0043179998 0 0.010467639
-0.002413 -0.0034327242 -0.0011437888
-0.001651 0.00088996551 -0.00013409942
0.004191 0.0010171034 0.0023901241
-0.0027939999 0.00088996551 0.017283043
-0.0020319999 -0.0016527931 0.0015066458
0.003302 0.00012713793 0.008069627
-0.0022859999 -0.00076282758 0.0037784469
-0.0036829999 0.00076282758 0.017787887
-0.0021589999 -0.00088996551 0.013118074
0.0035559998 -0.0036869999 0.0060502482
-0.0038099999 0.0031784482 0.0049143475
-0.0017779999 -0.001907069 0.016778197
-0.0049529998 -0.0024156207 -7.8882485e-06
0.00508 -0.0030513103 0.0090793166
-0.0020319999 -0.0013985173 0.0087006828
0.0035559998 0.00063568965 0.010215217
-0.0045719999 0.00012713793 0.017409254
0.0040639997 0.00063568965 0.0023901241
-0.004826 -0.003559862 0.0093317386
0.0036829999 -0.003559862 0.0040308693
0.0021589999 -0.0022884829 0.005040559
-0.0049529998 -0.0012713793 0.008195838
0.0029209999 -0.00038141379 0.0083220489
-0.0039369999 -0.0036869999 -0.0007651553
0.0036829999 -0.0036869999 0.008195838
0.0035559998 0.001779931 0.0074385712
0.0044450001 -0.00076282758 0.001632857
-0.0020319999 -0.0034327242 0.016651986
-0.0038099999 -0.00025427586 0.0030211799
0.0021589999 -0.0026698965 0.011098695
-0.0020319999 -0.0022884829 0.0060502482
0.004191 -0.00076282758 -0.0010175776
-0.00508 -0.0026698965 0.0010018011
0.0021589999 -0.0025427586 0.013875341
0.0035559998 0.00076282758 0.0047881366
-0.0046989997 0.00025427586 0.0026425463
0.0029209999 0.0015256552 0.017661676
0.0021589999 -0.0026698965 0.0068075154
-0.004191 -0.0036869999 0.0085744718
0.001524 0.0025427586 0.017535465
-0.0020319999 -0.001907069 0.007817205
0.0021589999 -0.0015256552 0.016399564
0.00508 -0.001907069 0.015011242
0.0038099999 0.0024156207 0.012613229
-0.0044450001 0.0015256552 0.0076909936
-0.00508 -0.0025427586 0.0046619251
0.00088899996 0.0021613447 0.017283043
-0.0030479999 -0.00012713793 0.012865651
0.0045719999 -0.00076282758 0.0059240372
0.00076199998 -0.0022884829 0.018797576
0.00254 -0.0036869999 0.014253975
0.0021589999 -0.0027970346 0.0088268938
-0.0035559998 -0.00063568965 0.014380186
-0.0020319999 -0.0027970346 0.0037784469
-0.0022859999 -0.0036869999 0.00011832293
-0.0049529998 -0.0016527931 0.015642298
-0.0044450001 0.001779931 0.0098365834
-0.0049529998 0 0.0026425463
-0.0020319999 -0.0016527931 0.0037784469
-0.001905 0.0033055863 -7.8882485e-06
0.0013969999 -0.0022884829 0.018671365
-0.0035559998 -0.0036869999 0.0059240372
0.00127 0.0025427586 0.017535465
0.00088899996 -0.001907069 -0.0002603106
-0.0021589999 -0.00088996551 0.01059385
0.003302 0.00012713793 0.015642298
-0.00127 -0.00088996551 -0.0007651553
-0.0017779999 -0.00076282758 0.01690441
-0.0035559998 -0.0036869999 0.012108385
-0.0020319999 -0.0015256552 0.016399564
-0.003429 -0.0030513103 0.018797576
0.004191 -0.0036869999 0.010341428
-0.004826 -0.003559862 0.014127763
-0.004191 -0.0020342069 0.018797576
0.0035559998 -0.00050855172 0.0017590682
0.0043179998 0.0020342069 0.012613229
0.0038099999 0.00088996551 0.0098365834
-0.001905 0.00076282758 0.017914098
0.00254 0.0036869999 0.00011832293
-0.0045719999 0.00063568965 0.012613229
0.003175 -0.0010171034 -0.0011437888
0.0038099999 0.0010171034 0.015263664
-0.0046989997 -0.0036869999 0.015516086
0.0021589999 -0.0020342069 0.0015066458
0.001143 -0.00063568965 0.018545154
0.004191 0.00088996551 0.010215217
-0.001905 0.00076282758 0.017283043
-0.0038099999 -0.0036869999 0.012487018
0.004826 -0.00063568965 0.015516086
-0.0010159999 -0.0022884829 0.00062316761
0.0040639997 0.0021613447 0.010089005
0.00508 -0.0010171034 0.012613229
-0.0043179998 -0.0020342069 -0.0011437888
0.0022859999 -0.00076282758 0.016147142
-0.0026670001 0 0.012234596
-0.0049529998 -0.0013985173 0.013244285
0.000635 -0.0012713793 0.018797576
-0.0030479999 -0.00076282758 0.016273353
0.0049529998 -0.00076282758 0.0073123598
-0.0036829999 0.0020342069 0.0076909936
-0.0020319999 -0.003559862 0.018671365
-0.004191 0.0020342069 0.0076909936
-0.00025399998 0.0020342069 0.017914098
0.001905 0.00038141379 0.00037074529
-0.0043179998 0.00050855172 0.015137453
-0.0039369999 0.00088996551 0.010215217
0.0036829999 -0.0025427586 0.018797576
-0.0036829999 -0.00076282758 0.0010018011
0.001905 -0.0036869999 0.017914098
-0.0038099999 0.0010171034 0.01273944
-0.0030479999 -0.00076282758 0.013622919
-0.00508 -0.0027970346 0.0073123598
-0.0020319999 -0.0021613447 0.010341428
-0.004191 0.0024156207 0.015137453
0.0036829999 0.00063568965 0.00516677
-0.0038099999 0.0016527931 0.017661676
0.0022859999 -0.0036869999 0.00516677
-0.0030479999 0.0012713793 -0.00013409942
0.0020319999 0.0012713793 0.00011832293
0.0027939999 0.00012713793 0.0073123598
-0.00025399998 -0.00076282758 0.00062316761
-0.004826 0.00088996551 0.015011242
0.004826 -0.0034327242 0.0017590682
0.0045719999 -0.00012713793 0.010341428
-0.0040639997 -0.0036869999 0.0044095027
0.0020319999 0.0026698965 0.017661676
-0.0049529998 -0.0011442414 0.016651986
0.0044450001 0.00063568965 0.00516677
-0.003302 0.00050855172 0.014758819
0.00508 -0.001779931 0.0021377017
0.0036829999 0.0012713793 0.0074385712
0.00038099999 0.0034327242 0.00011832293
-0.0029209999 0.001779931 0.0026425463
0.0036829999 0.00025427586 0.0054191924
-0.003302 0.00012713793 0.00037074529
0.0039369999 0.00050855172 0.015263664
0.0029209999 -0.00076282758 0.0063026706
-0.0049529998 -0.003559862 0.015768509
0.0026670001 -0.0022884829 -0.0011437888
-0.0020319999 -0.0015256552 0.0071861488
-0.001651 0.0024156207 0.017535465
0.0022859999 -0.00063568965 0.0095841615
0.00508 -0.0010171034 0.0094579495
0.0038099999 0.0029241724 0.00011832293
0.00508 -0.0016527931 0.016399564
0.003175 0.0034327242 -0.00013409942
-0.004191 0.0015256552 0.017409254
-0.0046989997 -0.00076282758 0.016778197
0.0027939999 0.0012713793 0.0099627944
-0.004826 -0.00012713793 0.010089005
-0.0010159999 0.0031784482 -7.8882485e-06
0.004826 -0.003559862 0.0073123598
0.00508 -0.0026698965 0.0021377017
0.0021589999 -0.0013985173 0.013244285
-0.00025399998 -0.0012713793 0.00062316761
-0.0043179998 -0.003559862 -0.0011437888
0.0030479999 -0.0015256552 -0.0011437888
0.0021589999 -0.00088996551 0.016525775
-0.0020319999 -0.0022884829 0.0068075154
-0.00508 -0.0026698965 0.0057978258
-0.0020319999 -0.0016527931 0.0064288815
-0.004191 0.00088996551 -0.00013409942
-0.0021589999 -0.00076282758 0.01273944
-0.00088899996 0.00076282758 -7.8882485e-06
-0.0010159999 -0.001779931 -0.0006389441
-0.0038099999 0.0016527931 0.014885031
0.004191 -0.00025427586 0.0044095027
0.0046989997 0.00050855172 0.0023901241
-0.0021589999 -0.0010171034 0.011351118
0.0039369999 -0.0036869999 0.01690441
0.001651 -0.0036869999 0.018418944
-0.00038099999 0.003559862 -7.8882485e-06
-0.004191 -0.0036869999 0.0011280123
0.004191 0.00038141379 0.017787887
-0.0030479999 0 0.0027687575
0.0046989997 -0.003559862 0.014506397
-0.00508 -0.0031784482 0.0090793166
-0.0044450001 0.00025427586 0.010215217
0.00508 -0.001779931 0.015137453
-0.0036829999 0.00063568965 -0.00013409942
-0.0039369999 -0.0036869999 0.00049695646
-0.0020319999 -0.0024156207 0.0088268938
-0.000635 -0.0036869999 0.00024453411
-0.00025399998 0.0025427586 0.00011832293
0.0021589999 -0.003559862 -0.0010175776
0.00076199998 -0.0026698965 0.018671365
0.00508 -0.0031784482 0.0021377017
-0.0026670001 -0.0036869999 0.012613229
-0.0044450001 -0.00012713793 0.0022639129
0.0030479999 0.0013985173 0.0023901241
0.0021589999 -0.0016527931 0.011855962
-0.0021589999 -0.0010171034 0.007943416
-0.004191 0.0030513103 0.017535465
-0.0044450001 -0.0036869999 0.015642298
-0.001651 0.001779931 0.017661676
0.00508 -0.0020342069 0.0037784469
-0.00508 -0.0033055863 0.00087558996
0.0021589999 -0.0034327242 0.012613229
-0.00508 -0.0020342069 0.014632608
0.0035559998 -0.00063568965 0.0068075154
-0.003175 -0.00025427586 0.011982174
0.003429 0.00050855172 0.01273944
-0.00508 -0.0021613447 0.013875341
-0.0038099999 0.00025427586 -0.0002603106
0.0021589999 -0.0022884829 0.013875341
-0.0046989997 0.00025427586 0.017661676
-0.003302 -0.0015256552 0.018671365
0.0035559998 -0.0036869999 0.0046619251
0.002413 -0.00025427586 0.01690441
0.0044450001 -0.00025427586 0.0069337264
0.0021589999 -0.0011442414 0.0074385712
0.0043179998 -0.00076282758 0.0087006828
-0.003429 -0.0036869999 0.017535465
-0.00508 -0.0022884829 0.0042832918
-0.00025399998 -0.00038141379 0.018418944
0.0021589999 -0.0020342069 0.0073123598
0.00508 -0.0012713793 0.0084482608
0.0035559998 -0.0021613447 0.018797576
0.003302 -0.0036869999 0.0083220489
0.002413 0.0022884829 0.017409254
-0.004191 0 0.0027687575
0.0029209999 -0.0036869999 -0.0007651553
0.002413 -0.0036869999 0.018166522
0.0021589999 -0.0015256552 0.0056716148
-0.0020319999 -0.001907069 0.0069337264
0.003175 -0.0036869999 0.0046619251
-0.0036829999 -0.0036869999 0.0061764591
-0.003175 0.0012713793 0.014885031
0.0021589999 -0.0034327242 0.012991862
-0.0040639997 0.0012713793 0.01273944
0.0021589999 -0.00050855172 0.0099627944
0.0045719999 0.0015256552 0.015137453
0.00508 -0.0024156207 0.0018852794
-0.0043179998 -0.0036869999 0.0070599373
0.0030479999 0.0012713793 0.0073123598
-0.00508 -0.0021613447 0.017535465
0.002413 -0.00050855172 0.014632608
0.00254 0.001907069 0.00011832293
0.003429 -0.00063568965 0.010972484
-0.0049529998 -0.0013985173 0.012991862
-0.0021589999 -0.0012713793 0.0015066458
0.0044450001 0.00050855172 0.01273944
-0.0039369999 0.00012713793 0.014632608
0.0036829999 0.0021613447 0.017661676
-0.0021589999 -0.00088996551 0.0083220489
0 -0.001907069 0.00011832293
-0.0027939999 0.0029241724 -0.00013409942
-0.003302 0.0031784482 0.00011832293
0.0020319999 -0.0029241724 0.00074937881
-0.0049529998 -0.0011442414 0.015642298
0.00508 -0.0012713793 0.017030621
-0.003302 -0.0036869999 0.016147142
-0.00508 -0.0022884829 -0.0007651553
-0.0045719999 0.00050855172 0.00516677
0.0026670001 0.0010171034 0.00011832293
-0.0026670001 -0.0036869999 0.01160354
0.0035559998 -0.0036869999 0.012234596
-0.0049529998 -0.0033055863 -0.0007651553
0.00088899996 -0.00038141379 0.00074937881
0.0027939999 -0.00025427586 0.015768509
0.0043179998 -0.00063568965 0.01059385
-0.0017779999 0.00076282758 0.017283043
-0.00254 0.0011442414 0.017283043
0.00508 -0.0013985173 0.010467639
-0.0021589999 -0.00063568965 0.012487018
0.0021589999 -0.0027970346 0.01273944
0.0017779999 -0.003559862 -0.0006389441
-0.00254 0.0025427586 0.017535465
-0.0036829999 0.0013985173 0.0026425463
-0.001524 -0.0036869999 0.018040311
-0.0049529998 -0.00038141379 0.017409254
-0.0036829999 0.0022884829 0.005040559
0.0021589999 -0.0029241724 0.0011280123
0.001905 0.0015256552 0.00011832293
-0.000635 0.001907069 0.00011832293
0.0021589999 -0.0029241724 0.014758819
-0.00254 0.001779931 0.017409254
0.00254 -0.0036869999 0.0075647822
-0.0030479999 -0.0034327242 -0.0011437888
-0.0049529998 -0.00076282758 0.0049143475
-0.0020319999 -0.001779931 0.011729751
0.0043179998 -0.00025427586 0.008195838
-0.0020319999 -0.0029241724 0.011982174
-0.0045719999 -0.0036869999 0.0040308693
0.0021589999 -0.0033055863 0.016273353
-0.004191 0.0015256552 0.01273944
0.0043179998 0.00050855172 0.0074385712
-0.0035559998 0.00025427586 0.010467639
0.00508 -0.0022884829 0.0071861488
0.0039369999 0.0021613447 0.0076909936
-0.003429 -0.0036869999 0.0027687575
0.00508 -0.0025427586 0.010720062
0.00050799997 0.00050855172 0.017156832
-0.0022859999 -0.00076282758 0.0033998135
0.004191 -0.001779931 -0.0011437888
-0.0027939999 -0.0036869999 0.007943416
0.0021589999 -0.0036869999 0.017535465
0.004191 0.0022884829 0.012360807
0.003429 -0.00025427586 0.0044095027
-0.00254 -0.0036869999 0.018671365
-0.0026670001 -0.00050855172 0.01160354
-0.0013969999 0.0015256552 0.017914098
0.004191 -0.0036869999 0.012487018
0.0027939999 0.0013985173 0.0076909936
0.0043179998 0.00025427586 0.014885031
0.0036829999 0.00012713793 0.0031473911
-0.0029209999 -0.00012713793 0.014632608
-0.0049529998 -0.0011442414 0.01589472
-0.004191 -0.0036869999 0.014506397
0.0043179998 -0.00063568965 0.013244285
-0.0036829999 -0.0036869999 0.0094579495
-0.0038099999 -0.0031784482 0.018797576
0.001651 -0.00012713793 -0.0006389441
0.00508 -0.0027970346 0.010972484
0.0027939999 -0.0036869999 0.00024453411
-0.0039369999 0.00038141379 0.017283043
-0.004191 0.0024156207 0.017409254
0.0027939999 0.00076282758 0.0022639129
-0.0040639997 -0.00076282758 0.013622919
0.0043179998 -0.00076282758 0.0064288815
-0.0046989997 0.00063568965 0.00516677
0.00508 -0.0015256552 0.0061764591
-0.0020319999 -0.0029241724 0.01273944
0 -0.0036869999 0.018671365
0.0049529998 -0.0034327242 0.010972484
0.00025399998 0.0024156207 0.00011832293
-0.00127 -0.0026698965 0.00062316761
0.001143 0.00076282758 0.017914098
-0.0010159999 0.00063568965 0.017283043
0.00254 -0.0030513103 0.018671365
0.0021589999 -0.0021613447 0.0056716148
-0.0020319999 -0.0025427586 0.0020114905
0.00508 -0.0024156207 -0.0007651553
-0.0035559998 0.0015256552 0.0098365834
-0.0036829999 0.0029241724 0.012360807
-0.0039369999 0.0016527931 0.01273944
0.003302 0.0025427586 0.010215217
-0.00508 -0.0029241724 0.012487018
-0.00038099999 -0.001779931 0.00062316761
0.00508 -0.0020342069 0.018545154
0.0022859999 -0.00050855172 0.015011242
-0.001524 -0.0036869999 -7.8882485e-06
-0.003429 0.0013985173 0.017661676
0.00050799997 0.00012713793 0.018166522
-0.00508 -0.0029241724 0.01690441
0 -0.0036869999 0.00062316761
0.0049529998 -0.00076282758 0.017030621
-0.0049529998 -0.001907069 0.0090793166
0.002413 -0.00012713793 0.010341428
0.0046989997 0.00038141379 0.010089005
-0.0021589999 -0.0012713793 0.0026425463
0.0029209999 -0.0036869999 0.010089005
0.0027939999 0.0013985173 0.00516677
-0.000635 0.0011442414 -7.8882485e-06
0.0036829999 -0.0036869999 0.0093317386
0.0021589999 -0.0027970346 0.014506397
0.0029209999 -0.0036869999 0.016525775
0.00088899996 -0.0031784482 0.018671365
-0.00025399998 0.0024156207 -7.8882485e-06
-0.0035559998 0.00076282758 -0.00013409942
-0.00050799997 -0.0013985173 0.018797576
0.0020319999 0.0021613447 0.00011832293
-0.0049529998 -0.0015256552 0.0018852794
-0.0043179998 0.0022884829 0.0076909936
0.004826 0 0.005040559
-0.0027939999 0 0.018166522
0 0 -7.8882485e-06
0.0043179998 -0.0024156207 0.018797576
-0.0017779999 -0.00012713793 0.017030621
0.004826 -0.003559862 0.0075647822
-0.0036829999 -0.0036869999 -0.0007651553
-0.003429 -0.0036869999 0.011855962
0.00508 -0.0033055863 0.015516086
0.003302 -0.0036869999 0.001632857
0.0035559998 -0.00076282758 0.018671365
-0.0038099999 -0.0025427586 0.018797576
-0.0020319999 -0.001779931 0.0094579495
-0.0045719999 -0.0031784482 0.018671365
0.0021589999 -0.00063568965 0.0018852794
0.0036829999 -0.0036869999 0.0022639129
0.0021589999 -0.00088996551 0.010089005
-0.0021589999 -0.00088996551 0.0027687575
0.001905 -0.0010171034 0.018797576
0.00050799997 0.00050855172 -7.8882485e-06
-0.00508 -0.0024156207 -0.00013409942
0.00038099999 -0.001779931 -7.8882485e-06
0.0013969999 -0.001779931 0.016778197
-0.0020319999 -0.0031784482 0.01059385
0.0043179998 0.0011442414 0.0098365834
-0.003302 -0.0036869999 0.014253975
-0.0036829999 -0.0036869999 0.014632608
0.0030479999 -0.00012713793 0.0044095027
0.00050799997 -0.0031784482 0.018671365
0.00127 0.00063568965 -0.00013409942
0.0040639997 0 0.01059385
0.003429 0.0013985173 0.015263664
-0.003429 -0.0036869999 0.0085744718
-0.00025399998 0.001779931 -7.8882485e-06
-0.00508 -0.0033055863 0.007817205
-0.00508 -0.0030513103 0.012487018
0.003175 -0.00063568965 0.01589472
0.0049529998 -0.0033055863 0.0010018011
-0.004191 0.0013985173 0.00516677
-0.0026670001 -0.0036869999 0.005040559
-0.0049529998 -0.003559862 -0.00089136645
0.0029209999 -0.0036869999 0.0098365834
-0.0046989997 0.00063568965 0.0098365834
-0.0044450001 -0.00038141379 0.011855962
0.0038099999 0.0022884829 0.0023901241
-0.0049529998 -0.0013985173 0.0060502482
-0.0046989997 0.00038141379 0.017409254
-0.0022859999 -0.0036869999 0.0027687575
0.00050799997 -0.0036869999 -7.8882485e-06
0.00508 -0.0033055863 0.012234596
0.0021589999 -0.0012713793 0.012487018
-0.00508 -0.0031784482 0.01589472
-0.0039369999 0.001779931 0.0049143475
0.0044450001 -0.00050855172 0.0056716148
0.0021589999 -0.0010171034 0.012108385
-0.0030479999 0.0010171034 0.01273944
-0.0049529998 -0.0016527931 0.0054191924
-0.0043179998 0.0016527931 -0.00013409942
-0.0049529998 -0.0016527931 0.0071861488
-0.0020319999 -0.0022884829 0.015642298
0.0040639997 -0.00012713793 0.015642298
0.0040639997 0 0.0069337264
-0.00254 -0.0036869999 0.012360807
-0.0021589999 -0.0011442414 0.01374913
0.0021589999 -0.001907069 0.015011242
-0.003302 -0.0036869999 0.0027687575
0.003302 0.0012713793 0.01273944
0.003302 0.00025427586 0.018166522
0.0045719999 -0.0033055863 0.016273353
-0.003302 0.001779931 0.0023901241
-0.0027939999 -0.0036869999 0.008195838
0.0044450001 0.00050855172 0.0076909936
-0.00508 -0.0024156207 0.00074937881
-0.00254 0.00025427586 0.018166522
-0.0020319999 -0.0024156207 0.011982174
-0.0026670001 -0.0036869999 0.0055454033
0.0022859999 -0.0033055863 0.018671365
-0.00025399998 -0.0013985173 0.00062316761
-0.001905 0.0027970346 -0.00013409942
0.0036829999 0.0016527931 0.010215217
-0.0030479999 0.00063568965 0.017787887
0.001905 -0.0015256552 0.00074937881
0.0040639997 -0.0034327242 0.0064288815
-0.004191 -0.001779931 0.018671365
0.0039369999 -0.0034327242 0.0061764591
-0.0049529998 -0.0013985173 -0.0002603106
0.00508 -0.0011442414 -7.8882485e-06
-0.003429 0.00012713793 0.012108385
-0.00088899996 0.0011442414 0.00011832293
0.0017779999 -0.0030513103 0.018671365
0.0045719999 -0.0034327242 0.00087558996
0.0044450001 -0.00076282758 0.01589472
0.00025399998 -0.001907069 0.00062316761
0.0026670001 -0.0036869999 0.012360807
0.0035559998 0.0013985173 0.00516677
0.00508 -0.0020342069 0.0023901241
0.0021589999 -0.0010171034 0.0049143475
-0.0036829999 0.0029241724 0.0074385712
0.0049529998 -0.00088996551 0.011224906
0.003429 -0.00076282758 0.0041570803
0.003175 -0.00063568965 0.0017590682
-0.0027939999 0 0.010215217
-0.0036829999 0.00025427586 0.0027687575
0.0040639997 -0.0036869999 0.018166522
-0.002413 -0.00050855172 0.0052929809
-0.0020319999 -0.0015256552 0.0074385712
-0.0027939999 -0.0036869999 0.012865651
-0.001905 0.0016527931 0.017914098
0.0027939999 -0.00012713793 0.010341428
-0.0049529998 -0.001779931 0.0093317386
0.003175 0.0010171034 0.0023901241
0.0040639997 0.0011442414 0.0074385712
-0.00012699999 0.0013985173 0.017914098
0.004826 -0.0033055863 0.016147142
-0.00508 -0.0026698965 0.016273353
-0.0038099999 -0.0036869999 0.017787887
-0.0010159999 -0.0022884829 0.01690441
0.0040639997 0.00050855172 0.0076909936
-0.0026670001 0.00088996551 0.012487018
0.003429 -0.0036869999 0.014001552
0.00508 -0.0026698965 0.00062316761
-0.0044450001 -0.00038141379 0.0030211799
-0.0038099999 -0.0036869999 0.0011280123
0.0021589999 -0.0031784482 0.0025163353
0.0029209999 0.0013985173 0.017661676
0.0021589999 -0.0025427586 0.0059240372
-0.0040639997 0.0030513103 -0.00013409942
-0.00508 -0.0030513103 0.0063026706
0.0036829999 0.0010171034 0.017661676
-0.001524 -0.003559862 -0.00051273295
0.0029209999 -0.00076282758 0.011477329
-0.0038099999 0.0013985173 0.010215217
-0.0044450001 -0.0036869999 0.0027687575
0.00508 -0.0033055863 0.007817205
-0.0043179998 0.0021613447 0.0049143475
-0.0044450001 -0.0036869999 -0.0010175776
-0.00025399998 0.00038141379 0.017914098
-0.004826 0.00088996551 0.0049143475
0.00508 -0.0011442414 0.01690441
0.0027939999 0.00076282758 0.017787887
0.0013969999 -0.00038141379 -0.00051273295
0.00050799997 -0.00038141379 0.01690441
-0.0026670001 -0.00050855172 0.018545154
-0.0027939999 -0.0036869999 0.016147142
-0.00038099999 -0.0026698965 -7.8882485e-06
-0.0046989997 -0.0012713793 -0.0010175776
-0.0021589999 -0.003559862 0.011729751
-0.0020319999 -0.0016527931 0.0075647822
-0.0020319999 -0.0027970346 0.016525775
0.00038099999 -0.0013985173 0.00062316761
0.0030479999 0.0013985173 0.0076909936
-0.003175 0.00088996551 0.010215217
-0.003175 -0.00038141379 0.014380186
0.00508 -0.0033055863 0.0095841615
-0.003302 -0.0036869999 0.013496707
-0.003302 0.0021613447 0.0073123598
-0.003302 0.0012713793 0.0074385712
-0.0049529998 -0.0012713793 0.0071861488
-0.0049529998 -0.0024156207 0.0057978258
-0.003302 -0.0036869999 0.017914098
0.0021589999 -0.0012713793 0.0063026706
0.00038099999 0.00012713793 0.018166522
-0.0020319999 -0.0030513103 0.014001552
0.00254 0.001779931 0.0075647822
0.0026670001 0.00063568965 0.0047881366
-0.0049529998 -0.0011442414 0.014253975
0.001651 -0.0036869999 0.017535465
0.003429 0.0027970346 0.017409254
0.00076199998 0.00038141379 -7.8882485e-06
0.0038099999 0.00063568965 0.0023901241
-0.001143 0.003559862 -7.8882485e-06
0.0021589999 -0.0021613447 0.014001552
-0.0021589999 -0.0036869999 0.012108385
0.00127 0.0015256552 0.017283043
-0.0020319999 0.003559862 0.00011832293
0.0049529998 -0.00063568965 0.007817205
0.00254 0.003559862 0.00011832293
-0.0049529998 -0.0015256552 0.00024453411
0.0021589999 -0.0027970346 0.0075647822
0.0046989997 -0.00063568965 0.011855962
-0.0030479999 -0.00050855172 -0.0006389441
0.0035559998 -0.00076282758 0.016273353
0.000635 0.0020342069 0.017283043
0.002413 -0.00038141379 0.0052929809
-0.0035559998 0.0029241724 0.0049143475
-0.0036829999 -0.0036869999 0.0042832918
0.0040639997 -0.0036869999 0.0097103724
-0.0049529998 -0.001779931 0.014380186
0.003175 -0.0024156207 0.018797576
-0.003302 -0.0036869999 0.007817205
0.0013969999 -0.0016527931 -0.0010175776
0.00508 -0.0010171034 0.010341428
-0.00508 -0.0021613447 -0.0007651553
0.00088899996 -0.0024156207 0.00062316761
0.0021589999 -0.0027970346 0.0069337264
0.001524 0.0022884829 -7.8882485e-06
0.0036829999 -0.003559862 0.0090793166
0.00127 0.0020342069 0.00011832293
-0.0030479999 0.001907069 0.0098365834
-0.0020319999 -0.0021613447 0.0075647822
-0.0026670001 0.0011442414 0.015011242
-0.003429 0.0021613447 0.017409254
-0.0021589999 -0.0036869999 0.0073123598
0.00254 -0.00038141379 0.015642298
0.004826 -0.00050855172 0.0094579495
0.0043179998 -0.003559862 0.011351118
-0.003302 0.001907069 0.0026425463
0.0036829999 -0.0036869999 0.010467639
-0.0030479999 -0.00063568965 0.014253975
-0.004191 -0.00076282758 0.0092055276
-0.0043179998 0.00012713793 0.017787887
0.00508 -0.0010171034 0.016020931
0.00508 -0.0012713793 0.016147142
-0.003175 0.0025427586 0.0075647822
-0.0027939999 0.00038141379 0.00024453411
0.0026670001 -0.00076282758 0.016273353
0.00025399998 -0.0036869999 0.01690441
0.004191 -0.00050855172 0.00074937881
-0.00088899996 0.0027970346 -7.8882485e-06
0.0046989997 0.00088996551 0.0025163353
-0.0043179998 -0.00050855172 0.0018852794
-0.0049529998 -0.0013985173 0.00062316761
-0.0049529998 -0.003559862 0.0033998135
0.0026670001 -0.00076282758 0.006681304
-0.0029209999 0.001907069 -0.00013409942
-0.0010159999 0.0024156207 0.00011832293
-0.003175 -0.00076282758 -0.0007651553
-0.0038099999 0.00025427586 0.017156832
0.001524 0.0015256552 -0.00013409942
0.004191 -0.003559862 0.0018852794
0.004191 -0.0036869999 0.011855962
0.001905 0.0034327242 0.017535465
-0.0039369999 -0.0036869999 0.00037074529
-0.003429 0.00038141379 0.010341428
0.001905 -0.0033055863 -0.0011437888
0.0017779999 -0.0036869999 0.01690441
0.00508 -0.0026698965 0.00516677
-0.0026670001 -0.0029241724 -0.0011437888
0.002413 0.00063568965 0.0074385712
0.003429 0.0012713793 0.015137453
0.00508 -0.0033055863 0.0056716148
-0.003302 0.0010171034 0.0074385712
0.003429 0.0036869999 0.017535465
0.0021589999 -0.0021613447 0.0092055276
0.00050799997 -0.00025427586 -7.8882485e-06
0.002413 -0.00050855172 0.0054191924
-0.003175 0.0030513103 -0.00013409942
-0.0039369999 -0.001907069 -0.0011437888
0.003302 0.0011442414 0.010215217
0.004191 0.00076282758 0.0026425463
0.003175 -0.003559862 0.016147142
0.00508 -0.001907069 0.0021377017
0.00076199998 -0.0036869999 0.017535465
-0.0020319999 0.0025427586 0.017535465
0.002413 -0.00076282758 -0.0011437888
0.003429 -0.00025427586 0.014380186
0.002413 -0.00063568965 0.0031473911
-0.003429 0.0016527931 0.0049143475
-0.0039369999 -0.0031784482 -0.0011437888
-0.0045719999 0.00038141379 0.017409254
0.0021589999 -0.0024156207 0.0059240372
0.0021589999 -0.0030513103 0.0088268938
0.00508 -0.0029241724 0.0052929809
0.0021589999 -0.0026698965 0.014127763
-0.0038099999 -0.0036869999 0.00074937881
-0.00508 -0.0026698965 0.010972484
-0.0049529998 -0.0016527931 0.00062316761
0.0049529998 -0.00088996551 0.0037784469
0.0021589999 -0.0020342069 0.015137453
-0.0049529998 -0.0020342069 0.0059240372
0.0043179998 0.00025427586 0.0076909936
0.0039369999 0.00088996551 0.0026425463
-0.001524 -0.00076282758 -0.0011437888
-0.00012699999 -0.0031784482 0.018671365
0.0021589999 -0.0034327242 0.014632608
0.00088899996 -0.0012713793 0.00062316761
-0.0026670001 -0.00076282758 0.0015066458
0.0026670001 0 0.018292733
0.002413 0.00088996551 0.017787887
0.00508 -0.0012713793 -0.0010175776
-0.0020319999 -0.0030513103 0.0098365834
0.0036829999 0.00050855172 0.0071861488
0.001524 0.0021613447 0.00011832293
-0.0021589999 -0.003559862 0.012865651
-0.0029209999 -0.00076282758 0.0089531047
0.0029209999 0 0.010720062
0.00508 -0.0027970346 0.0033998135
0.0044450001 0.0021613447 0.0074385712
0.003302 0.001779931 0.012360807
-0.0044450001 -0.003559862 0.018166522
0.0027939999 0.0030513103 0.00011832293
-0.0021589999 -0.003559862 0.0023901241
0.00508 -0.0010171034 -0.0006389441
-0.0027939999 0.0012713793 0.00011832293
0.0030479999 -0.0036869999 0.00062316761
0.001905 -0.0036869999 0.017661676
0.0046989997 0.0010171034 0.005040559
0.0049529998 -0.0034327242 0.0044095027
-0.0046989997 0.00012713793 -0.00013409942
-0.0049529998 -0.00012713793 0.012487018
-0.0039369999 0.0016527931 0.010215217
-0.000635 -0.0022884829 0.016778197
-0.0020319999 0.00050855172 -0.0002603106
-0.002413 -0.001779931 0.018797576
0.0045719999 -0.00038141379 0.008195838
-0.0043179998 -0.0036869999 0.010972484
0.001905 -0.00050855172 0.00074937881
0.001524 0.00012713793 -0.00038652177
0.0039369999 -0.003559862 0.00087558996
-0.001524 -0.0036869999 -0.00013409942
0.00038099999 0.00025427586 0.01690441
0.0039369999 -0.0036869999 0.00011832293
-0.002413 -0.0036869999 0.017030621
0.0039369999 -0.0036869999 0.017409254
0.0021589999 -0.0029241724 0.0092055276
-0.0027939999 -0.0036869999 0.018292733
-0.0026670001 -0.0036869999 0.015263664
0.00254 -0.00063568965 0.0083220489
-0.0020319999 -0.0031784482 0.014632608
-0.0022859999 0.00076282758 0.017283043
-0.0027939999 -0.0036869999 -0.0006389441
0.002413 -0.00025427586 0.0027687575
0.00508 -0.0022884829 0.0044095027
0.0046989997 -0.003559862 0.017661676
-0.00508 -0.0021613447 0.018292733
0.00508 -0.0015256552 0.008195838
-0.0017779999 0.0024156207 -0.00013409942
0.0046989997 -0.00076282758 0.015768509
