# .PCD v0.7 - Point Cloud Data file format
VERSION 0.7
FIELDS x y z
SIZE 4 4 4
TYPE F F F
COUNT 1 1 1
WIDTH 1197
HEIGHT 1
VIEWPOINT 0 0 0 1 0 0 0
POINTS 1197
DATA ascii
-0.0045357142 0.00031240741 -0.0024284001
-0.0024622448 0.00084796298 -9.5599993e-05
-0.0030670068 -0.00022314815 -0.0025148001
-0.004794898 -0.00058018521 -0.00026840001
-0.0023758505 0.00022314815 -0.0056252
0.00021598639 0.001205 -0.00035479999
-0.0022894558 -0.00031240741 0.0016324001
0.002635034 0.00031240741 -0.0068348004
-0.0050540818 0.00022314815 -0.0073532001
0.0063499999 -0.00013388888 -0.0015644
-0.0027214286 0.00022314815 -0.0076988004
0.0028078232 0.00084796298 -0.0025148001
4.319728e-05 -0.00031240741 -0.0058844001
-0.0018574831 0.00058018521 -0.0025148001
-0.0046221088 -0.00058018521 -0.00026840001
-0.0013391157 -0.001205 -0.00095960003
0.005572449 0.0011157407 -9.19999e-06
0.004794898 -0.0011157407 -0.0014780001
-0.0049676872 0.00022314815 0.0010276
0.00073435373 0.001205 -0.0013052
0.0027214286 -0.00031240741 -0.0070076003
0.0022894558 0.00013388888 -0.0046748002
-0.0048812926 0.00031240741 -0.0038972001
0.0042765308 0.001205 -0.0017372001
-0.0054860543 -0.001205 -0.00044120001
-0.0022030612 -0.00013388888 -0.0064892001
-0.005226871 -0.00049092592 -0.0025148001
0.0027214286 -0.00022314815 -0.0074396003
-0.0063499999 -0.00066944445 -0.0016508
-0.0051404764 -0.00022314815 0.0019780002
-0.0043629254 0.00058018521 -0.0024284001
-0.0050540818 -0.00084796298 -0.0024284001
0.004794898 -4.4629629e-05 -0.0046748002
0.001079932 -0.0011157407 -0.0024284001
-0.0016846939 -0.001205 -0.00018199999
-0.0050540818 0.00031240741 -0.0057116002
-0.0041901362 0.001205 -0.0023420001
-0.0014255103 -0.00049092592 -0.0025148001
0.0049676872 -0.0011157407 -0.0011324
-0.0053132656 -0.00013388888 0.00033640003
-0.0023758505 -0.00031240741 -0.0064892001
-0.00047517006 0.001205 -0.0025148001
-0.00047517006 -0.00075870368 -0.0025148001
0.00090714288 0.001205 -0.0023420001
-0.0025486394 -0.00031240741 -0.0073532001
-0.0025486394 0.001205 -0.0023420001
-0.00030238097 -0.00084796298 -9.19999e-06
0.00021598639 0.00022314815 -0.0038972001
-0.0048812926 -0.00031240741 -0.0057116002
0.0042765308 0.001205 -0.0022556002
0.0050540818 -0.00049092592 -0.00026840001
0.00030238097 -0.00031240741 -0.0046748002
-0.0053996597 -0.00031240741 7.7200013e-05
-0.0029806122 -0.0011157407 -9.19999e-06
0.00030238097 -0.00013388888 -0.0048476001
0.0023758505 -0.001205 -0.00070040004
-0.0028078232 0.00013388888 -0.0040700003
0.0056588436 -0.00022314815 -9.19999e-06
0.0033261906 -0.00040166668 -0.00018199999
0.00038877552 -0.0011157407 -0.0025148001
0.0053132656 0.001205 -0.0013052
0.0062636053 0.00040166668 -0.0020828
0.0053132656 0.00093722221 -0.0024284001
0.004794898 -0.00040166668 -0.00026840001
0.0059180274 0.0011157407 -0.0024284001
0.0031534014 0.001205 -0.0013916
0.004794898 4.4629629e-05 0.0011140001
-0.0060908166 -0.00066944445 -0.00026840001
-0.0012527211 -0.00058018521 -0.00026840001
0.0029806122 0.001205 -0.0016508
-0.00082074833 0.00013388888 -0.0025148001
-0.0049676872 -0.00031240741 -0.0045884
-0.0051404764 -0.00084796298 -9.5599993e-05
-0.0051404764 0.00022314815 -0.0064028003
0.00090714288 0.0010264815 -0.0025148001
-0.0027214286 0.00022314815 -0.0061436002
-0.00047517006 0.001205 -0.0022556002
-0.0062636053 0.00066944445 -0.0023420001
0.0025486394 0.00031240741 -0.0076988004
-0.002635034 -0.00031240741 -0.0045884
0.0053996597 0.001205 -0.0017372001
0.0041901362 -0.00031240741 -0.00018199999
0.003412585 0.001205 -0.0020828
0.00038877552 -0.00066944445 -0.0025148001
-0.0033261906 -0.001205 -0.0023420001
-0.0019438775 0.001205 -0.001046
-4.319728e-05 0.00031240741 -0.0079580005
-0.0051404764 -0.00031240741 -0.0062300004
0.0028078232 0.00013388888 -0.0026876
0.00021598639 -0.001205 -0.0007868
0.0025486394 0.00031240741 -0.0054524001
0.0062636053 -0.00049092592 -0.0018236
-0.00021598639 -0.001205 -0.0023420001
0.0053132656 4.4629629e-05 -0.0065756002
-0.0024622448 -0.00031240741 -0.0045020003
-0.0021166666 0.001205 -0.0005276
0.00073435373 -0.001205 -0.00044120001
-0.00030238097 4.4629629e-05 0.0010276
-0.0022030612 -0.00022314815 -0.0072668004
-0.006004422 0.00013388888 -9.19999e-06
0.0013391157 0.001205 -0.0023420001
0.0058316328 0.0011157407 -0.001046
-0.0061772112 0.00093722221 -0.0014780001
0.0012527211 -0.001205 -0.0022556002
0.0062636053 0.00031240741 -0.0020828
-0.00030238097 4.4629629e-05 0.00033640003
0.0063499999 0.00040166668 -0.0013052
-0.0011663266 -0.001205 -0.0016508
0.0030670068 0.001205 -0.0013052
0.0038445578 4.4629629e-05 -0.0025148001
0.00030238097 0.00013388888 0.0012868
-0.0062636053 -0.00084796298 -0.0013916
-0.00030238097 0.00022314815 0.0013732001
0.0015982994 -0.001205 -0.0011324
-0.0011663266 0.001205 -0.0022556002
-0.0048812926 -0.001205 -0.00087320001
-0.0041037416 -0.0011157407 -9.19999e-06
-0.00064795918 -0.001205 -0.00044120001
0.0042765308 0.00040166668 -9.5599993e-05
-0.00030238097 0.00022314815 -0.0050204
-0.0028078232 -0.00022314815 -0.0033788001
-0.004017347 -0.00084796298 -9.5599993e-05
-0.004794898 -4.4629629e-05 -0.0050204
0.0049676872 -0.00022314815 -0.0044156001
0.0035853742 0.00013388888 -0.0025148001
-0.0025486394 0.00013388888 0.0019780002
0.0041901362 0.0011157407 -9.19999e-06
0.0036717688 0.00084796298 -0.0024284001
-0.0022030612 0.00040166668 -0.0025148001
-0.00021598639 0.00031240741 -0.0047612004
0.0053132656 -4.4629629e-05 0.0018052001
0.004794898 -4.4629629e-05 0.0017188
0.0022894558 0.00022314815 -0.0067484002
0.0027214286 0.00031240741 -0.0047612004
0.0063499999 0.00013388888 -0.0021692
4.319728e-05 0.00084796298 -0.0025148001
-0.0028078232 -0.001205 -9.19999e-06
-0.003239796 0.00031240741 -0.0025148001
0.0047085034 0.001205 -0.0013052
-0.0025486394 0.00031240741 -0.0072668004
-0.0047085034 -0.001205 -0.0020828
0.0049676872 -0.00022314815 -0.0065756002
-0.0062636053 -0.00049092592 -0.00044120001
0.0054860543 -0.0010264815 -0.00018199999
-0.0028078232 -0.00013388888 -0.0062300004
0.004794898 -0.0011157407 -0.00095960003
0.0063499999 0.00066944445 -0.0012188001
0.0050540818 -0.00013388888 7.7200013e-05
-0.00030238097 -4.4629629e-05 0.00068200001
0.0015119048 0.00084796298 -9.19999e-06
-0.0047085034 0.0011157407 -0.0023420001
-0.00030238097 -0.00013388888 -0.0030332
0.0022894558 0.00022314815 -0.0026876
0.0050540818 -0.00031240741 0.001546
-0.0025486394 0.00031240741 0.0017188
4.319728e-05 -0.00084796298 -9.19999e-06
0.00056156464 0.00013388888 -0.0025148001
0.0024622448 -0.00049092592 -0.00026840001
-0.0015119048 0.00031240741 -0.0025148001
0.006004422 0.00040166668 -0.0024284001
0.0049676872 -0.00031240741 -0.0076124002
0.00047517006 -0.001205 -0.00035479999
-0.00021598639 0.00022314815 0.0018052001
-0.0027214286 0.00022314815 -0.0051932
-0.0036717688 -0.00093722221 -9.19999e-06
0.0015982994 -0.0011157407 -0.0025148001
0.0049676872 -0.00031240741 -0.0045020003
0.0024622448 -0.001205 -0.0013052
0.0023758505 -0.00013388888 0.001546
0.0063499999 -0.00013388888 -0.0017372001
0.0036717688 -0.00022314815 -9.19999e-06
0.0060908166 -0.00093722221 -0.0019100001
-0.002030272 -0.001205 -0.0014780001
-0.00030238097 0.001205 -0.00061400002
-0.0011663266 0.00031240741 -9.19999e-06
0.0027214286 -0.00022314815 -0.0065756002
0.0021166666 -0.00084796298 -0.0025148001
-0.0017710885 0.001205 -0.00070040004
0.0057452382 -0.0010264815 -0.001046
0.0047085034 0.001205 -0.0007868
0.004794898 -4.4629629e-05 -0.0034652001
-0.0050540818 0.00031240741 -0.0049340003
0.004794898 0.001205 -0.0023420001
-0.0023758505 0.001205 -0.0016508
-0.0017710885 0.00049092592 -0.0025148001
0.0011663266 0.001205 -0.0021692
0.005226871 -0.00013388888 0.0010276
-0.0024622448 -0.001205 -0.00061400002
0.0033261906 0.001205 -0.0023420001
0.0050540818 -0.0011157407 -0.001046
-0.004794898 -0.00013388888 -0.0048476001
-0.0060908166 0.00093722221 -0.0011324
0.0051404764 -0.0011157407 -0.00070040004
-0.0054860543 0.00013388888 -9.19999e-06
-0.0063499999 -0.00022314815 -0.00087320001
0.0053996597 -0.00075870368 -0.0023420001
-4.319728e-05 0.0011157407 -9.19999e-06
-0.0030670068 -0.00040166668 -0.00018199999
0.005572449 -0.00013388888 -9.19999e-06
-0.002635034 -4.4629629e-05 0.0019780002
-0.004017347 4.4629629e-05 -9.19999e-06
-0.0043629254 -0.001205 -0.00095960003
0.00021598639 0.00022314815 -0.0062300004
0.0019438775 -0.001205 -0.0014780001
-0.0035853742 0.0011157407 -0.0024284001
-0.0049676872 0.001205 -0.0013052
0.002635034 0.001205 -0.0023420001
-0.0022030612 -0.001205 -9.19999e-06
0.0059180274 0.00093722221 -9.19999e-06
4.319728e-05 -0.00031240741 -0.0031196
-0.0034989796 -0.001205 -0.00018199999
0.0053996597 -0.0011157407 -0.0023420001
0.0015982994 -0.001205 -0.00026840001
0.0024622448 -0.00013388888 -0.0078715999
0.00099353748 -0.001205 -0.0013052
-0.0028078232 -0.001205 -0.0012188001
-0.0024622448 0.00031240741 -0.0063164001
-0.0062636053 0.00084796298 -0.0011324
-0.005572449 -0.0011157407 -0.0021692
-0.0050540818 0.001205 -0.00095960003
0.0036717688 0.001205 -0.00044120001
-0.0016846939 0.001205 -0.00026840001
-0.0028942178 0.001205 -0.0013916
0.0028078232 0.00031240741 0.00042280002
-0.004794898 4.4629629e-05 -0.0042428002
0.005226871 -4.4629629e-05 0.0018916001
-0.00090714288 0.00049092592 -0.0025148001
0.00012959183 0.0010264815 -0.0025148001
-0.00073435373 0.00084796298 -9.5599993e-05
-0.0013391157 0.001205 -0.00035479999
0.0017710885 4.4629629e-05 -0.0025148001
0.0053132656 4.4629629e-05 -0.0068348004
0.0053132656 -4.4629629e-05 -0.0057980004
0.0024622448 -0.00066944445 -0.0025148001
0.0049676872 -0.00013388888 0.00076840003
-0.0028078232 -0.0010264815 -0.0025148001
-0.005226871 -0.00031240741 0.00076840003
-0.0014255103 -0.001205 -0.0017372001
-0.0061772112 -0.00040166668 -9.19999e-06
-0.0051404764 -0.00031240741 -0.0031196
0.0033261906 -0.001205 -0.00044120001
-0.005226871 0.00040166668 -0.00018199999
0.0028078232 4.4629629e-05 -0.0033788001
-0.0049676872 0.00031240741 0.00033640003
-0.0028942178 -0.001205 -0.0016508
0.0018574831 -0.001205 -0.0019100001
-0.0038445578 -4.4629629e-05 -9.19999e-06
0.0014255103 0.001205 -0.0013916
0.0061772112 0.00093722221 -0.00095960003
0.0047085034 0.00040166668 -0.00018199999
-0.0063499999 -0.00022314815 -0.00026840001
-0.00021598639 -0.00013388888 -0.0077852001
0.00021598639 0.001205 -0.0020828
-0.00021598639 0.00031240741 -0.0033788001
0.00021598639 -0.00093722221 -0.0025148001
-0.0024622448 0.00031240741 -0.0070076003
-0.0049676872 -0.00031240741 -0.0040700003
0.00030238097 -0.00022314815 -0.0051932
0.0050540818 0.00031240741 0.0012004001
0.004794898 -4.4629629e-05 -0.0049340003
0.0048812926 0.001205 -0.00070040004
0.003412585 0.001205 -0.0013052
0.0024622448 -0.00022314815 -0.0040700003
-0.0024622448 -0.001205 -0.00035479999
0.004794898 -0.00093722221 -0.00018199999
0.00030238097 -0.00031240741 -0.0045020003
0.00030238097 -0.00013388888 -0.0034652001
0.0049676872 -0.00022314815 -0.0069212001
0.00030238097 0.001205 -0.0005276
0.00444932 0.001205 -0.0018236
-0.0021166666 0.00093722221 -0.0025148001
-0.00030238097 -4.4629629e-05 -0.0051932
-0.0028078232 -0.00031240741 0.00068200001
0.0012527211 0.001205 -0.0025148001
-0.00030238097 4.4629629e-05 0.0018052001
4.319728e-05 -0.00031240741 -0.0051932
-0.002635034 0.00031240741 -0.0051932
0.004794898 -0.00013388888 -0.0070076003
0.0053996597 -0.00084796298 -0.0023420001
0.003239796 -0.001205 -0.00044120001
-0.0054860543 -0.001205 -0.001046
-0.0041901362 0.00031240741 -9.19999e-06
-0.0037581634 -0.00049092592 -0.0025148001
0.00099353748 -0.0010264815 -9.19999e-06
0.004017347 0.00084796298 -9.5599993e-05
-0.0030670068 0.001205 -0.00061400002
-0.0024622448 0.00031240741 -0.0026876
0.0060908166 -0.00093722221 -0.0020828
0.0028078232 -4.4629629e-05 -0.0053660003
0.0028078232 0.00031240741 -0.0041564
0.0014255103 0.00084796298 -9.19999e-06
0.0043629254 -0.00031240741 -9.19999e-06
0.0023758505 0.001205 -0.0018236
0.0023758505 -0.00013388888 0.0011140001
0.0015982994 0.00040166668 -9.19999e-06
-0.001079932 0.00058018521 -0.0025148001
-0.0021166666 0.001205 -0.0007868
0.005226871 -0.00013388888 -0.0038972001
-0.0028078232 0.00022314815 0.00094120007
4.319728e-05 -0.00031240741 -0.0036380002
-0.0028078232 -0.001205 -0.00061400002
-4.319728e-05 -0.001205 -9.19999e-06
-0.001079932 -0.001205 -0.00026840001
-0.002635034 -0.00031240741 -0.0070076003
0.0011663266 -0.00075870368 -0.00018199999
0.0046221088 0.00093722221 -0.0024284001
0.00030238097 -4.4629629e-05 -0.0072668004
0.0027214286 -0.00022314815 -0.0067484002
0.0053132656 -0.0011157407 -0.0011324
0.0037581634 -0.00084796298 -0.0024284001
-0.0053132656 -0.00013388888 -0.0036380002
0.0043629254 0.00066944445 -0.00026840001
-0.0036717688 0.00075870368 -0.00018199999
0.0024622448 -0.00022314815 0.0012868
-0.0049676872 -0.00031240741 -0.0065756002
0.0023758505 -0.001205 -0.00035479999
0.0054860543 -0.00022314815 -0.0024284001
-0.0061772112 -0.00093722221 -0.0013052
-0.0053132656 0.00013388888 -0.0026012
-0.0063499999 0.00040166668 -0.0015644
-0.00030238097 -4.4629629e-05 -0.0072668004
0.0056588436 -0.00066944445 -0.0023420001
0.00021598639 -0.001205 -0.0022556002
0.002030272 0.001205 -0.0018236
0.0038445578 -0.001205 -0.0018236
0.0024622448 0.00013388888 -0.0079580005
0.0031534014 0.00040166668 -9.5599993e-05
0.0045357142 0.00049092592 -0.0024284001
-0.0022030612 -0.00022314815 -0.0041564
-0.0033261906 0.001205 -0.0016508
-0.0033261906 -0.00040166668 -9.19999e-06
0.0031534014 0.001205 -0.00095960003
0.0024622448 0.00031240741 0.0018052001
-0.0025486394 0.00058018521 -0.00026840001
-0.0041037416 0.001205 -0.0018236
-0.00030238097 4.4629629e-05 -0.0026876
0.005572449 0.00049092592 -0.0024284001
0.0062636053 -0.00058018521 -0.0019964001
-0.0028078232 -4.4629629e-05 0.0013732001
0.0045357142 0.001205 -0.0020828
-0.0045357142 0.001205 -0.0005276
-0.0063499999 0.00031240741 -0.0021692
-0.0029806122 -0.001205 -0.00095960003
0.0053132656 4.4629629e-05 0.0013732001
0.0022894558 -4.4629629e-05 -0.0041564
-0.0013391157 -0.0010264815 -0.0025148001
0.0036717688 0.00066944445 -0.0024284001
0.00444932 -0.001205 -0.00070040004
-0.0049676872 -0.00031240741 0.0016324001
-4.319728e-05 -0.00031240741 -0.0076988004
-0.0033261906 0.001205 -0.0014780001
-4.319728e-05 -0.001205 -0.0014780001
-0.0028078232 -0.00013388888 -0.0061436002
-0.0063499999 -0.00013388888 -0.00070040004
-0.0017710885 0.001205 -0.0017372001
0.0054860543 -4.4629629e-05 -9.19999e-06
0.0062636053 -0.00040166668 -0.0017372001
-0.0063499999 -0.00040166668 -0.0015644
-0.00030238097 0.00013388888 -0.0041564
-0.00021598639 -0.00031240741 -0.0058844001
0.0034989796 -0.00040166668 -0.0025148001
0.0027214286 -0.001205 -0.0011324
-0.0027214286 -0.001205 -9.5599993e-05
0.0051404764 0.00031240741 -0.0063164001
0.0048812926 0.00031240741 -0.0036380002
-0.0041901362 -0.001205 -0.0014780001
0.00012959183 0.001205 -0.0015644
-0.0015119048 -0.00093722221 -9.19999e-06
-0.00073435373 -0.001205 -0.0013052
0.00064795918 0.00049092592 -0.0025148001
-0.004794898 -0.00013388888 0.0017188
4.319728e-05 0.0010264815 -0.0025148001
-0.0012527211 -0.00058018521 -0.0025148001
0.0015119048 -0.001205 -0.00035479999
0.0063499999 0.00040166668 -0.0011324
-0.002635034 -0.00031240741 -0.0057980004
4.319728e-05 -0.001205 -0.0019100001
0.002635034 0.00031240741 -0.0032924002
-0.0062636053 0.00084796298 -0.0017372001
0.00444932 0.00040166668 -9.19999e-06
0.0049676872 0.00031240741 -0.0070076003
-0.0025486394 0.001205 -0.00070040004
0.0028942178 0.001205 -0.0017372001
-0.005572449 0.001205 -0.00087320001
-0.0058316328 0.00031240741 -0.0024284001
-0.0013391157 -0.001205 -0.0016508
0.00030238097 4.4629629e-05 0.00042280002
0.0062636053 -0.00066944445 -0.00095960003
0.0015982994 0.001205 -0.0019100001
-0.0059180274 -0.0011157407 -0.0018236
-0.0062636053 -0.00013388888 -9.5599993e-05
-0.0022030612 0.00049092592 -0.0025148001
-0.0013391157 -0.00040166668 -9.19999e-06
0.00021598639 -0.001205 -0.00070040004
0.0012527211 0.001205 -0.0024284001
0.0027214286 -0.00040166668 -0.0025148001
0.00073435373 -0.001205 -0.0014780001
0.002635034 0.00040166668 -9.19999e-06
-0.0031534014 0.001205 -0.0013052
0.0022894558 -4.4629629e-05 -0.0034652001
0.0063499999 4.4629629e-05 -0.0011324
0.0037581634 -0.00084796298 -0.00018199999
0.0023758505 0.00031240741 -0.0041564
0.0014255103 0.00013388888 -9.19999e-06
0.005226871 -0.00013388888 -0.0076124002
-0.0027214286 0.00031240741 -0.0075260005
0.0062636053 -0.00031240741 -0.0012188001
-0.0018574831 -0.001205 -0.0019964001
-0.0023758505 0.00013388888 -0.0048476001
-0.0036717688 0.00040166668 -0.00018199999
0.0046221088 0.001205 -0.001046
0.0018574831 0.00022314815 -0.0025148001
0.0061772112 -0.00066944445 -0.00026840001
0.00030238097 -4.4629629e-05 0.0014596001
-0.0023758505 -0.001205 -0.00026840001
-0.0027214286 0.00031240741 -0.0057116002
-0.0048812926 0.00031240741 0.0012004001
0.0015982994 -0.00022314815 -0.0025148001
0.001079932 -0.001205 -0.00018199999
0.0049676872 -0.0011157407 -0.0013916
-0.0023758505 -0.00013388888 0.0020644001
0.0028078232 -4.4629629e-05 -0.0067484002
0.0049676872 -0.00049092592 -0.00026840001
-0.0051404764 0.00022314815 -0.0038972001
-0.002030272 -0.00093722221 -9.19999e-06
0.0053132656 -0.0011157407 -0.0016508
0.0028078232 0.00022314815 -0.0072668004
0.00030238097 -0.00013388888 -0.0076124002
-0.0025486394 0.00031240741 -0.0032060002
0.0039309524 -0.00013388888 -9.19999e-06
0.0022894558 -4.4629629e-05 0.0013732001
-0.0024622448 0.00031240741 -0.0074396003
0.0024622448 -0.00022314815 0.0010276
0.003239796 -0.00075870368 -0.0025148001
0.0022894558 0.00022314815 -0.0057116002
4.319728e-05 0.001205 -0.00044120001
0.00030238097 0.001205 -0.00035479999
-0.0048812926 0.001205 -0.00061400002
-0.0063499999 -0.00049092592 -0.00095960003
-0.005226871 0.001205 -0.0013052
0.0025486394 0.00040166668 -0.0026876
0.0029806122 -0.0010264815 -0.00018199999
-0.0041037416 -0.001205 -0.0016508
-0.0053132656 -0.00013388888 -0.0076988004
-0.0015119048 -0.001205 -0.0020828
-0.003239796 0.001205 -0.0021692
0.00099353748 0.00049092592 -0.00026840001
0.0012527211 -0.00058018521 -0.0025148001
0.0024622448 -0.00022314815 -0.0058844001
0.0028078232 0.00013388888 -0.0032924002
0.003239796 0.00040166668 -0.0025148001
-0.0021166666 -0.001205 -0.0011324
-0.0019438775 0.001205 -0.0007868
0.001079932 0.00031240741 -9.19999e-06
-0.00021598639 0.00084796298 -0.0025148001
-0.0051404764 -0.00031240741 -0.0055388003
-0.0039309524 0.00031240741 -0.0025148001
0.0024622448 0.001205 -0.0011324
4.319728e-05 0.00031240741 -0.0061436002
0.005226871 0.00031240741 -0.0066620004
0.0027214286 0.00031240741 -0.0045884
-0.00030238097 0.001205 -0.0013916
0.0041901362 0.001205 -0.0024284001
-0.0035853742 -0.001205 -0.0024284001
-0.0033261906 0.001205 -0.0017372001
-0.0048812926 -0.0011157407 -0.0024284001
0.0027214286 4.4629629e-05 -0.0079580005
0.00082074833 0.001205 -0.0005276
-0.002030272 0.001205 -0.0019100001
0.0049676872 0.00093722221 -9.19999e-06
-0.0053132656 0.00058018521 -0.00026840001
0.004794898 -0.0011157407 -0.0011324
0.0014255103 -0.00084796298 -0.0025148001
0.00082074833 -0.00058018521 -0.0025148001
-0.0016846939 -0.00058018521 -0.00026840001
0.002635034 -0.001205 -0.00044120001
0.0014255103 0.001205 -0.00035479999
0.005226871 0.00022314815 -0.0077852001
-0.00082074833 -0.001205 -0.0020828
-4.319728e-05 0.001205 -0.0020828
-0.0027214286 -0.00031240741 -0.0051932
-0.0028942178 0.00075870368 -0.00018199999
-0.004017347 4.4629629e-05 -0.0024284001
0.0049676872 -0.00013388888 0.00068200001
0.0043629254 0.0010264815 -0.0024284001
-0.0028942178 -0.001205 -0.0012188001
0.004794898 0.00013388888 -0.0058844001
-0.002030272 0.00031240741 -0.0025148001
0.006004422 0.0010264815 -0.00035479999
0.00021598639 -0.001205 -0.0024284001
-0.0056588436 -0.00049092592 -0.00026840001
-0.0022030612 -0.001205 -9.5599993e-05
0.0028078232 0.00040166668 -0.00018199999
-0.00030238097 0.001205 -0.00035479999
0.0023758505 0.001205 -0.00087320001
-0.0027214286 0.001205 -0.0015644
0.00090714288 0.00022314815 -9.19999e-06
-0.0022894558 -4.4629629e-05 0.0012004001
-0.0053132656 0.001205 -0.0013916
0.004017347 0.0010264815 -0.0024284001
0.0058316328 0.0011157407 -0.00070040004
0.0027214286 0.001205 -0.00061400002
0.0050540818 -0.00031240741 -0.0069212001
-0.0049676872 -0.00031240741 0.00059560005
0.00090714288 -0.001205 -0.0023420001
0.00012959183 0.001205 -0.0017372001
0.0027214286 0.00031240741 -0.0037244002
0.0023758505 -0.00022314815 -0.0064028003
0.0049676872 -0.00031240741 -0.0067484002
0.0053132656 4.4629629e-05 0.00085480005
0.0058316328 -0.00031240741 -0.00018199999
-0.00030238097 -0.00013388888 -0.0047612004
-0.0019438775 4.4629629e-05 -9.19999e-06
0.0028078232 0.00022314815 0.0012004001
-0.0062636053 0.00084796298 -0.0013916
0.005226871 -0.0010264815 -0.0023420001
0.0053132656 0.00022314815 -0.0050204
0.0051404764 -4.4629629e-05 0.0020644001
0.0028078232 -0.00013388888 -0.0072668004
-0.00099353748 -0.001205 -0.00026840001
-0.004794898 4.4629629e-05 -0.0076124002
0.0041901362 -0.001205 -0.00087320001
-0.0042765308 -0.00066944445 -0.0024284001
-0.002030272 -0.001205 -0.001046
-0.002635034 -0.001205 -0.0022556002
-0.003239796 0.00084796298 -0.0025148001
0.006004422 0.00066944445 -0.00026840001
-4.319728e-05 0.00031240741 0.00076840003
-0.0012527211 0.00040166668 -0.00018199999
-0.0063499999 -0.00031240741 -0.00018199999
-0.0011663266 -0.001205 -0.0011324
-0.0023758505 0.00013388888 0.00042280002
-0.002030272 -0.00022314815 -9.19999e-06
-0.002635034 -0.00031240741 -0.0036380002
-0.0060908166 0.00093722221 -0.00087320001
0.0056588436 0.00040166668 -9.19999e-06
-0.0041901362 0.001205 -0.00061400002
-0.0047085034 -0.00022314815 -9.19999e-06
0.0024622448 -0.00022314815 -0.0054524001
-0.002030272 -0.001205 -0.0013052
0.00030238097 0.001205 -0.0018236
0.0050540818 -0.00031240741 -0.0035516
-0.004794898 -4.4629629e-05 -0.0057980004
0.0025486394 0.00031240741 0.0017188
0.0017710885 0.001205 -0.0020828
-0.00030238097 0.001205 -0.0019100001
-0.0051404764 -0.0011157407 -9.19999e-06
-0.0014255103 -4.4629629e-05 -0.0025148001
0.00030238097 -0.00031240741 -0.0050204
-0.0031534014 0.00040166668 -9.19999e-06
-0.0022030612 -0.00013388888 -0.0047612004
-0.0022030612 -0.00013388888 -0.0061436002
0.0028078232 0.00022314815 0.0013732001
0.0058316328 -0.0010264815 -0.00035479999
0.005226871 0.001205 -0.00018199999
-4.319728e-05 -0.00031240741 -0.0054524001
0.005572449 -4.4629629e-05 -0.0025148001
0.004017347 0.00058018521 -0.0024284001
-0.0053132656 -0.00031240741 0.00025000001
0.0062636053 0.00066944445 -0.0017372001
-0.00082074833 -0.001205 -0.00026840001
-0.0022030612 -0.00013388888 -0.0038108001
0.0025486394 0.00031240741 -0.0068348004
0.0037581634 0.0010264815 -0.0024284001
-0.0027214286 0.00031240741 -0.0032060002
0.005226871 -0.00013388888 0.00059560005
-0.0016846939 -0.00084796298 -9.19999e-06
-0.0013391157 0.00022314815 -0.0025148001
0.0060908166 -0.00093722221 -0.0015644
-0.00064795918 -0.001205 -0.0021692
-0.0036717688 -0.00013388888 -0.0025148001
-0.0060908166 0.00013388888 -0.0024284001
-0.0036717688 0.00049092592 -0.0025148001
0.0035853742 0.00049092592 -0.0025148001
-0.00012959183 -0.001205 -0.00026840001
0.00099353748 0.001205 -0.0024284001
-0.0060908166 -0.0010264815 -0.0011324
0.0060908166 0.00093722221 -0.0019100001
-0.0027214286 0.00040166668 -9.19999e-06
0.0062636053 0.00013388888 -0.0019964001
-0.0034989796 0.001205 -0.0023420001
0.00064795918 -0.001205 -0.00026840001
-0.0062636053 0.00066944445 -0.0019964001
0.0062636053 0.00058018521 -0.00026840001
0.0022894558 0.00022314815 -0.0050204
0.0025486394 -0.00031240741 -0.0074396003
0.0022030612 0.00013388888 -0.0026012
0.0048812926 0.00031240741 -0.0075260005
-0.0054860543 -0.00040166668 -9.19999e-06
0.00021598639 4.4629629e-05 0.0020644001
0.00099353748 -0.00040166668 -9.19999e-06
0.0024622448 0.00031240741 -0.0043292004
-0.0013391157 0.00093722221 -0.0025148001
-0.00021598639 0.00031240741 -0.0029468001
0.00021598639 -0.00031240741 0.00033640003
0.005226871 -0.00022314815 -0.0076124002
0.004794898 0.00013388888 -0.0029468001
-0.0028942178 -0.001205 -9.5599993e-05
0.0024622448 -0.00031240741 -0.0064892001
0.0054860543 -0.0011157407 -0.0016508
0.0059180274 -0.0010264815 -0.0021692
-0.0049676872 -0.00031240741 0.00076840003
0.0028078232 -4.4629629e-05 0.0010276
-0.0022030612 -0.00013388888 -0.0071804002
0.0016846939 0.001205 -0.0014780001
0.0012527211 0.001205 -0.0013916
-0.003239796 0.00013388888 -9.19999e-06
-0.0027214286 0.00022314815 -0.0042428002
0.00030238097 4.4629629e-05 -0.0033788001
-0.0019438775 -0.00049092592 -0.00026840001
0.0048812926 0.00031240741 -0.0068348004
-0.0013391157 0.00049092592 -0.00026840001
-0.004017347 -0.00040166668 -9.5599993e-05
0.00012959183 -0.00031240741 -0.0029468001
-0.0053132656 4.4629629e-05 -0.0065756002
0.004017347 0.001205 -0.0005276
-0.004794898 4.4629629e-05 -0.0060572
-0.00021598639 -0.00049092592 -0.00026840001
0.005226871 -0.00022314815 0.00094120007
0.0028078232 0.00022314815 -0.0060572
0.00444932 0.001205 -0.0011324
0.0028078232 0.00013388888 0.00016360002
0.0018574831 0.001205 -0.00026840001
-0.004794898 4.4629629e-05 -0.0061436002
0.0048812926 0.001205 -0.0015644
0.0024622448 0.00031240741 -0.0058844001
0.002030272 0.00058018521 -0.0025148001
0.0062636053 -0.00066944445 -0.0014780001
-0.004794898 -4.4629629e-05 -0.0055388003
0.0028078232 -4.4629629e-05 -0.0071804002
-0.0023758505 -0.00084796298 -9.19999e-06
0.0051404764 -0.0011157407 -0.0015644
-0.00030238097 4.4629629e-05 -0.0050204
-4.319728e-05 -0.0010264815 -0.0025148001
0.0057452382 -0.0010264815 -0.0014780001
0.00030238097 -4.4629629e-05 -0.0042428002
-0.0041901362 0.001205 -0.00087320001
-0.0053996597 -0.00058018521 -0.0024284001
-0.0049676872 0.00031240741 -0.0049340003
-0.0061772112 0.00058018521 -0.0023420001
-0.0015982994 -0.001205 -0.0015644
-0.00021598639 0.00031240741 -0.0043292004
0.00038877552 -0.00058018521 -0.0025148001
-0.00099353748 -0.001205 -0.0014780001
0.0051404764 -0.00013388888 -0.0031196
0.0013391157 0.0010264815 -9.19999e-06
0.0062636053 -0.00040166668 -0.0018236
-0.00030238097 0.00022314815 -0.0076124002
0.0048812926 0.00040166668 -9.5599993e-05
-0.0041901362 -0.00013388888 -9.19999e-06
0.0022030612 0.001205 -0.00095960003
-0.0063499999 -0.00031240741 -0.0020828
0.00012959183 0.0010264815 -9.19999e-06
-0.0054860543 0.001205 -0.0017372001
0.0060908166 -0.00093722221 -0.0013052
-0.0022030612 -0.00013388888 0.0011140001
0.00021598639 0.00022314815 -0.0074396003
-0.0017710885 0.00022314815 -9.19999e-06
-0.0025486394 0.001205 -0.001046
-0.0022894558 -0.00031240741 -0.0073532001
-0.0051404764 0.00013388888 -0.0076988004
-0.002030272 0.001205 -0.0018236
0.0056588436 0.00013388888 -0.0024284001
0.0063499999 0.00022314815 -0.00087320001
0.0038445578 -0.00022314815 -0.0025148001
-4.319728e-05 0.00040166668 -9.5599993e-05
0.0043629254 0.001205 -0.0021692
-0.0024622448 0.001205 -0.0013916
0.002635034 0.00031240741 0.00068200001
-0.0063499999 -0.00031240741 -0.00087320001
-0.0022030612 -0.00022314815 0.00016360002
0.0023758505 -0.001205 -0.001046
0.0050540818 -0.00031240741 -0.0050204
0.0028078232 -0.00013388888 0.00042280002
-0.0058316328 -0.0011157407 -0.0007868
-0.0017710885 -0.00031240741 -9.19999e-06
0.0036717688 -0.00040166668 -0.0025148001
-0.0057452382 -0.00013388888 -9.19999e-06
-0.00012959183 0.00031240741 -0.0037244002
-0.0054860543 0.001205 -0.0007868
-0.0015982994 0.001205 -0.0019100001
0.0056588436 0.00075870368 -0.0024284001
0.0036717688 0.00049092592 -0.00026840001
0.0028078232 4.4629629e-05 -0.0040700003
0.0022894558 -4.4629629e-05 -0.0064028003
0.00012959183 0.00031240741 -0.0058844001
-0.0048812926 0.00022314815 -0.0072668004
0.0036717688 -0.001205 -0.00061400002
0.0037581634 0.001205 -0.00061400002
0.0022894558 0.00022314815 -0.0029468001
-0.00056156464 0.00049092592 -0.00026840001
-0.0028078232 -0.00022314815 0.0013732001
-0.001079932 0.00031240741 -0.0025148001
0.00444932 -0.00058018521 -0.0024284001
-0.0012527211 -0.001205 -0.0021692
0.0014255103 -0.0011157407 -0.00018199999
0.0051404764 -4.4629629e-05 -0.0080444003
-0.0015982994 -0.001205 -0.0019964001
0.0041901362 0.001205 -0.0018236
0.0049676872 -0.00022314815 -0.0042428002
-0.0035853742 -0.001205 -0.0022556002
-0.0051404764 -0.00031240741 0.0017188
0.00030238097 -0.00022314815 -0.0076988004
0.00012959183 -0.00066944445 -0.0025148001
0.002635034 -0.00022314815 0.0020644001
-0.0042765308 0.001205 -0.0019964001
0.0053132656 4.4629629e-05 -0.0057980004
-0.0053132656 -0.00013388888 -0.0070076003
0.00030238097 4.4629629e-05 -0.0068348004
-0.00021598639 -0.00022314815 0.00085480005
0.0022030612 -0.00040166668 -9.19999e-06
-0.00056156464 0.00040166668 -9.5599993e-05
0.0053132656 4.4629629e-05 0.0012868
-0.005226871 0.00022314815 0.00050920004
0.00021598639 -0.001205 -0.001046
0.002635034 0.00031240741 -0.0032060002
0.0050540818 0.00031240741 -0.0075260005
-0.004794898 -0.00013388888 -0.0075260005
-0.0028078232 -4.4629629e-05 -0.0063164001
0.0049676872 0.00022314815 0.0018052001
0.0062636053 0.00075870368 -0.0020828
0.0047085034 -0.001205 -0.0019964001
0.0015982994 -0.0010264815 -0.0025148001
0.0027214286 -0.001205 -0.0019964001
-0.0053996597 -0.001205 -0.0024284001
4.319728e-05 0.001205 -0.00026840001
-0.0022894558 4.4629629e-05 -0.0062300004
0.00021598639 -0.00031240741 -0.0073532001
-0.0051404764 0.001205 -0.0019964001
0.0021166666 0.00013388888 -0.0025148001
0.00082074833 -0.001205 -0.0023420001
0.00056156464 -0.00093722221 -9.19999e-06
-0.0011663266 -4.4629629e-05 -9.19999e-06
-0.0030670068 -0.001205 -0.00095960003
0.00444932 -0.00084796298 -0.00018199999
-0.002635034 -0.00031240741 -0.0035516
0.0028078232 -4.4629629e-05 0.0016324001
-0.0063499999 0.00022314815 -0.0014780001
-0.0022894558 -4.4629629e-05 -0.0026876
-0.0062636053 0.00075870368 -0.0014780001
-0.0017710885 -0.001205 -0.0019964001
0.0030670068 0.001205 -0.0019964001
0.00030238097 4.4629629e-05 0.0011140001
-0.0063499999 0.00013388888 -0.0015644
-0.0043629254 -0.001205 -0.0019964001
0.00090714288 -0.00040166668 -9.5599993e-05
0.0031534014 -0.001205 -0.0019100001
0.0050540818 -0.00084796298 -0.0023420001
0.002635034 0.00031240741 7.7200013e-05
0.0051404764 0.00031240741 0.0014596001
0.0022894558 0.00022314815 0.00085480005
0.005226871 0.00040166668 -9.19999e-06
0.003239796 0.001205 -0.00061400002
0.0048812926 0.00022314815 0.0010276
-0.0063499999 0.00013388888 -0.0021692
0.002635034 0.00031240741 0.00025000001
0.0046221088 0.00049092592 -0.0024284001
-0.0033261906 4.4629629e-05 -9.19999e-06
0.0033261906 -0.001205 -0.00018199999
0.005226871 0.00031240741 -0.0054524001
-0.0053132656 4.4629629e-05 -0.0032924002
-0.0053132656 -0.00013388888 -0.0071804002
0.002635034 -4.4629629e-05 0.0019780002
-0.004017347 0.001205 -0.0023420001
0.002635034 0.001205 -0.0019100001
4.319728e-05 0.00031240741 -0.0051932
-0.0028078232 4.4629629e-05 -0.0068348004
-0.0050540818 -0.00075870368 -0.00018199999
-0.0025486394 -4.4629629e-05 0.0021508001
0.0049676872 -0.00031240741 -0.0064028003
-0.0041037416 0.0011157407 -0.0024284001
-0.0028078232 0.00093722221 -0.0025148001
0.005226871 -0.0011157407 -0.001046
-0.00030238097 -4.4629629e-05 -0.0046748002
-0.00038877552 -0.00075870368 -0.00018199999
0.0027214286 -0.00022314815 0.00042280002
0.00021598639 0.00075870368 -0.00018199999
-0.005226871 -0.001205 -0.0016508
0.0053132656 -4.4629629e-05 -0.0074396003
-0.003412585 4.4629629e-05 -9.19999e-06
0.0043629254 -0.001205 -0.0019100001
0.0023758505 0.00031240741 0.00025000001
-0.00444932 -0.0010264815 -0.0024284001
-0.00030238097 -0.00013388888 -0.0026876
0.0061772112 -0.00075870368 -0.00061400002
0.0053132656 0.0010264815 -9.19999e-06
-0.005226871 -0.00031240741 -0.0064028003
-0.0053132656 4.4629629e-05 -0.0047612004
0.0049676872 -0.00049092592 -0.0024284001
0.0015119048 -0.001205 -0.0014780001
-0.00047517006 0.00022314815 -9.19999e-06
0.00012959183 -0.001205 -0.0023420001
0.006004422 -0.00066944445 -0.0023420001
-4.319728e-05 0.00031240741 -0.0071804002
0.0027214286 0.00031240741 -0.0050204
0.0030670068 0.00031240741 -9.19999e-06
-0.0022030612 -0.00022314815 -0.0050204
-0.0028942178 -0.0011157407 -0.0025148001
0.0053132656 -0.00031240741 -9.5599993e-05
-0.0041037416 -0.00084796298 -9.5599993e-05
-0.0022894558 0.001205 -0.0013916
-0.0024622448 -0.00031240741 0.0011140001
0.0036717688 0.00040166668 -0.00018199999
-0.0022030612 0.001205 -0.0021692
0.00030238097 -0.00013388888 0.0016324001
0.0029806122 -0.0011157407 -0.0022556002
0.00064795918 0.001205 -0.0011324
-0.0036717688 -0.001205 -0.0013052
0.0059180274 4.4629629e-05 -9.19999e-06
-0.0022030612 -0.001205 -0.00087320001
0.0025486394 0.00066944445 -0.0025148001
0.0062636053 -4.4629629e-05 -0.0019100001
-0.0013391157 0.001205 -0.00044120001
0.0056588436 0.0011157407 -0.0024284001
-0.0018574831 -4.4629629e-05 -0.0025148001
0.00030238097 -0.001205 -0.0024284001
0.00012959183 -0.00031240741 -0.0038108001
-0.003412585 -4.4629629e-05 -9.19999e-06
0.0061772112 -0.00075870368 -0.00026840001
0.0034989796 -0.00022314815 -9.19999e-06
-0.0048812926 0.00031240741 0.001546
0.0028078232 -4.4629629e-05 -0.0045884
-0.0056588436 -0.00022314815 -0.0025148001
-0.0048812926 0.00022314815 -0.0028604001
-0.0022030612 -0.00022314815 -0.0057116002
0.0050540818 -0.00013388888 0.00076840003
0.0041037416 -0.001205 -0.0015644
-0.0022030612 0.00031240741 -0.0025148001
0.0033261906 -0.001205 -0.0013916
-0.002030272 -0.001205 -0.00018199999
-0.0023758505 -0.001205 -0.00018199999
-0.00082074833 0.001205 -0.0021692
-0.0047085034 -0.0011157407 -9.19999e-06
-0.001079932 -0.00058018521 -0.00026840001
-0.0023758505 0.00084796298 -0.0025148001
0.005226871 -0.00022314815 -0.0072668004
0.0017710885 0.00084796298 -9.19999e-06
0.00012959183 0.00031240741 -0.0037244002
0.0049676872 -0.0010264815 -0.0023420001
0.0023758505 -0.00013388888 -0.0062300004
0.0053132656 0.001205 -0.00035479999
0.00012959183 -0.00031240741 -0.0040700003
-0.0063499999 4.4629629e-05 -0.001046
-0.0051404764 0.00013388888 0.0016324001
-0.0028942178 -0.00066944445 -0.00026840001
-0.0053132656 -4.4629629e-05 -0.0074396003
0.0015119048 -0.00058018521 -0.0025148001
0.0035853742 -0.00049092592 -0.00026840001
-0.00030238097 0.00031240741 0.0017188
-0.0053132656 -4.4629629e-05 -0.0041564
0.0053132656 0.00022314815 -0.0047612004
-0.0028942178 -0.001205 -0.0007868
0.0024622448 -0.00022314815 0.00042280002
-0.0057452382 -0.0011157407 -0.0005276
-4.319728e-05 -0.001205 -0.0019100001
0.0025486394 0.00031240741 -0.0070076003
-0.0027214286 0.00031240741 -0.0073532001
0.0024622448 -0.00022314815 -0.0067484002
0.0053132656 0.00022314815 0.00042280002
0.00030238097 4.4629629e-05 -0.0054524001
0.0022894558 -4.4629629e-05 0.00059560005
-0.0047085034 0.001205 -0.0007868
0.0025486394 0.00031240741 -0.0045884
0.0022894558 4.4629629e-05 -0.0027740002
-0.0017710885 -4.4629629e-05 -0.0025148001
0.00030238097 -4.4629629e-05 -0.0057116002
0.00073435373 0.001205 -0.0011324
-0.00021598639 0.00031240741 -0.0038108001
-0.0022894558 -0.00093722221 -9.19999e-06
-0.002635034 -0.00031240741 -0.0060572
-0.0037581634 -0.001205 -0.0012188001
-0.0022894558 4.4629629e-05 -0.0032060002
0.0014255103 -0.001205 -0.0011324
0.0022894558 4.4629629e-05 -0.0047612004
-0.004794898 -4.4629629e-05 -0.0044156001
-0.0028078232 0.00040166668 -9.5599993e-05
0.0045357142 -0.001205 -0.00035479999
-0.0042765308 -0.001205 -9.19999e-06
0.006004422 4.4629629e-05 -9.19999e-06
-0.005226871 0.00022314815 -0.0032924002
0.0028078232 0.00013388888 -0.0033788001
-0.003239796 -0.001205 -0.0023420001
-0.0053132656 4.4629629e-05 0.0017188
0.0035853742 -0.001205 -0.0020828
-0.00082074833 0.00049092592 -0.0025148001
0.0027214286 -0.00031240741 -0.0032924002
-0.0012527211 -0.001205 -0.0012188001
0.0024622448 0.00031240741 -0.0028604001
0.0053996597 -0.0011157407 -0.0016508
-0.0028078232 4.4629629e-05 0.0011140001
-0.004017347 -0.0011157407 -9.19999e-06
0.0014255103 -0.001205 -0.0015644
-4.319728e-05 0.00031240741 -0.0065756002
-0.004794898 -0.00022314815 -0.0070940005
0.0039309524 -0.00093722221 -0.0024284001
0.002030272 4.4629629e-05 -0.0025148001
-0.00012959183 -0.00031240741 -0.0038108001
-0.0011663266 -0.001205 -0.0019100001
0.00021598639 0.00031240741 0.00068200001
-0.0053132656 -0.00031240741 -0.0026876
-0.0022894558 -4.4629629e-05 0.00059560005
-0.0028078232 -0.00013388888 -0.0076988004
0.002635034 0.00031240741 -0.0050204
-0.00030238097 -4.4629629e-05 -0.0029468001
-0.0018574831 -0.00013388888 -9.19999e-06
0.0042765308 -0.00031240741 -9.19999e-06
-0.004794898 0.0011157407 -0.00018199999
-0.003239796 -0.001205 -0.00095960003
0.004794898 4.4629629e-05 -0.0045884
-0.0013391157 0.001205 -0.0012188001
0.0061772112 4.4629629e-05 -9.19999e-06
0.0015119048 0.001205 -0.0019964001
-4.319728e-05 0.00031240741 -0.0031196
0.0024622448 -0.00075870368 -0.00018199999
0.0061772112 -0.00084796298 -0.00035479999
-0.0021166666 -4.4629629e-05 -9.19999e-06
0.0022030612 0.00058018521 -0.00026840001
0.0022894558 0.00031240741 -0.0026876
0.0025486394 0.00031240741 0.001546
-0.0036717688 -0.00058018521 -0.0025148001
0.00030238097 0.001205 -0.0015644
-0.0028078232 -0.00013388888 -0.0066620004
-0.0028078232 -0.0010264815 -9.19999e-06
-0.00012959183 -0.00031240741 -0.0039836001
0.00073435373 -0.00066944445 -0.0025148001
-0.0043629254 0.0011157407 -0.0024284001
0.0060908166 0.00093722221 -0.0022556002
0.0011663266 0.00040166668 -9.5599993e-05
0.0028078232 -4.4629629e-05 -0.0045020003
-0.005226871 0.00013388888 -0.0041564
0.0023758505 -0.001205 -0.0007868
-0.0027214286 0.001205 -0.00026840001
0.0028078232 -0.00013388888 0.00068200001
-0.0021166666 0.001205 -0.0012188001
-0.0029806122 -0.00040166668 -0.0025148001
-0.00030238097 0.00022314815 -0.0052796002
-0.0063499999 -0.00066944445 -0.0005276
0.0053132656 -4.4629629e-05 -0.0065756002
-0.0053132656 0.001205 -0.00026840001
0.0028078232 0.00049092592 -0.0025148001
0.0048812926 0.00084796298 -9.19999e-06
0.0028078232 4.4629629e-05 -0.0067484002
-0.0018574831 -0.001205 -0.00087320001
0.0042765308 0.001205 -0.0020828
-0.0025486394 -0.00058018521 -0.0025148001
-0.0048812926 0.00031240741 -0.0041564
0.0022894558 -0.00049092592 -0.00026840001
-0.0024622448 0.001205 -0.00026840001
-0.0046221088 -0.001205 -0.0015644
0.0062636053 0.00075870368 -0.0017372001
0.0046221088 0.00040166668 -9.19999e-06
-0.0039309524 0.0011157407 -0.0024284001
-0.00047517006 -0.00066944445 -0.00026840001
0.0028078232 0.00084796298 -9.5599993e-05
-0.00082074833 -0.001205 -0.00061400002
0.0053132656 4.4629629e-05 -0.0046748002
0.0023758505 0.00022314815 -0.0079580005
-0.0050540818 0.001205 -0.0020828
0.005226871 -0.00022314815 0.00016360002
-0.00030238097 0.00031240741 -0.0046748002
0.00090714288 -0.0010264815 -9.19999e-06
0.0022894558 4.4629629e-05 0.0010276
-0.00099353748 -0.001205 -0.0013916
-0.0011663266 -0.00031240741 -0.0025148001
0.005226871 0.00031240741 -0.0026012
0.005226871 -0.0011157407 -0.00061400002
0.0062636053 -0.00040166668 -0.0020828
-0.0028078232 0.00013388888 0.00076840003
0.004017347 -0.0010264815 -0.00018199999
-0.0045357142 0.001205 -0.0013916
-0.0045357142 -0.001205 -0.0007868
-0.00030238097 0.00022314815 -0.0075260005
-0.0041037416 -0.001205 -0.0013052
-0.00030238097 0.00013388888 -0.0070940005
0.0043629254 -0.00066944445 -0.00026840001
-0.0047085034 -0.001205 -0.00070040004
0.0062636053 0.00084796298 -0.0015644
-0.0019438775 0.001205 -0.0022556002
0.0059180274 -0.00084796298 -0.00018199999
0.0045357142 0.001205 -0.00095960003
0.0062636053 -0.00058018521 -0.0018236
-0.0033261906 0.001205 -0.0022556002
0.0062636053 -0.00058018521 -0.00070040004
0.0053996597 0.00075870368 -0.0024284001
-0.0022030612 0.00013388888 -0.0025148001
0.0022894558 -0.00066944445 -0.0025148001
0.0028942178 0.001205 -0.00061400002
0.002030272 -0.001205 -0.0005276
-0.0031534014 -0.00093722221 -9.19999e-06
-0.0018574831 0.00093722221 -9.19999e-06
0.0019438775 -0.001205 -0.0021692
0.0053132656 -0.00022314815 -9.19999e-06
-0.0033261906 -0.001205 -0.0020828
-0.00021598639 -0.00022314815 -0.0076988004
-0.00030238097 0.00031240741 -0.0071804002
0.0054860543 -0.0010264815 -0.0023420001
-0.0062636053 -0.00049092592 -0.00061400002
-0.0022030612 -0.00022314815 0.0012868
-0.00073435373 0.00040166668 -9.19999e-06
-0.0042765308 0.00013388888 -0.0024284001
-0.0028942178 -0.001205 -0.0020828
0.0054860543 -0.00031240741 -9.5599993e-05
-0.00030238097 4.4629629e-05 -0.0070940005
-0.0028078232 0.001205 -0.0011324
-0.0049676872 0.001205 -0.00095960003
0.00056156464 0.001205 -0.001046
0.0060908166 0.00022314815 -0.0024284001
-0.0053996597 -0.00049092592 -0.0024284001
0.00030238097 -0.001205 -0.0015644
-0.0049676872 -0.00031240741 0.001546
-0.0014255103 0.00075870368 -0.0025148001
-0.00021598639 -0.00031240741 0.0014596001
0.0012527211 -0.0011157407 -0.0024284001
0.0023758505 -0.00022314815 -0.0055388003
0.0049676872 -0.00031240741 0.001546
-4.319728e-05 0.00031240741 -0.0045884
-0.0018574831 -0.00066944445 -0.00026840001
-0.0050540818 4.4629629e-05 0.0018916001
-0.0018574831 -0.00075870368 -0.0025148001
0.00064795918 0.0010264815 -0.0025148001
4.319728e-05 0.001205 -0.0014780001
-0.0063499999 0.00049092592 -0.0022556002
-0.0063499999 -0.00022314815 -0.0016508
-0.0035853742 -0.001205 -0.0013052
-0.003412585 0.001205 -0.0014780001
0.0042765308 0.00022314815 -0.0024284001
4.319728e-05 -0.001205 -0.00087320001
0.00073435373 4.4629629e-05 -0.0025148001
0.0039309524 0.00040166668 -9.5599993e-05
0.004794898 0.00022314815 7.7200013e-05
0.0046221088 -0.001205 -0.0016508
-0.0045357142 -0.00093722221 -0.0024284001
0.0011663266 0.001205 -0.0025148001
0.00021598639 -0.00031240741 -0.0050204
0.00021598639 -0.00031240741 -0.0051068002
-0.00030238097 -4.4629629e-05 -0.0026876
0.0025486394 0.00031240741 0.0011140001
-0.0034989796 0.00075870368 -0.00018199999
0.002635034 0.001205 -0.0013916
-0.00021598639 -0.00031240741 -0.0039836001
-0.0062636053 0.00058018521 -0.0012188001
-0.0053132656 -0.00022314815 0.0011140001
-0.0053132656 -0.00022314815 -0.0070076003
0.001079932 -0.001205 -0.00035479999
-0.0057452382 0.001205 -0.0007868
-0.005226871 0.00022314815 -0.0030332
0.0054860543 0.00040166668 -9.19999e-06
0.0057452382 -0.0010264815 -0.0016508
-0.0050540818 0.00031240741 -0.0051068002
0.0053132656 0.00058018521 -0.00026840001
0.0035853742 0.00013388888 -9.19999e-06
-0.0041037416 -0.001205 -0.00018199999
-0.005572449 -0.0011157407 -0.0011324
0.004794898 -4.4629629e-05 -0.0058844001
-0.0049676872 0.00022314815 -0.0033788001
-0.0027214286 -0.001205 -0.0014780001
-0.002030272 0.00066944445 -0.0025148001
-4.319728e-05 0.00031240741 -0.0070940005
0.0038445578 -0.001205 -0.0012188001
-0.002635034 -0.001205 -0.0015644
0.0050540818 -0.00031240741 0.00050920004
-0.0014255103 -0.001205 -0.0013052
-0.002635034 -0.00031240741 -0.0077852001
0.0022894558 4.4629629e-05 0.0013732001
0.0039309524 0.0011157407 -0.0024284001
0.00090714288 4.4629629e-05 -9.19999e-06
0.0031534014 -0.001205 -0.00095960003
0.0024622448 -0.001205 -0.001046
0.0059180274 0.0011157407 -0.0013916
-0.00064795918 0.001205 -0.00087320001
-0.00082074833 -0.001205 -0.0018236
0.004794898 4.4629629e-05 -0.0051068002
-0.0016846939 0.001205 -0.0007868
0.0018574831 -0.00013388888 -9.19999e-06
-0.00021598639 0.001205 -0.0024284001
0.0037581634 -0.00031240741 -0.00018199999
-0.0028078232 -0.00013388888 0.00042280002
0.0025486394 0.00031240741 -0.0037244002
0.00030238097 4.4629629e-05 0.00094120007
-0.0049676872 0.00022314815 0.00059560005
-0.0037581634 0.00031240741 -0.0025148001
-0.0042765308 -0.001205 -0.0016508
0.0042765308 -0.001205 -0.0005276
-0.0053132656 -0.001205 -0.0013052
0.0058316328 0.00049092592 -0.00026840001
-0.005226871 -0.00031240741 -0.0068348004
-0.001079932 -0.00049092592 -0.0025148001
0.00021598639 0.00031240741 -0.0031196
-0.00099353748 0.00084796298 -9.19999e-06
-0.0016846939 0.00084796298 -9.5599993e-05
-0.0027214286 0.00013388888 -0.0077852001
0.0057452382 -0.00084796298 -0.0023420001
-0.0047085034 0.00049092592 -0.00026840001
4.319728e-05 0.00031240741 -0.0032924002
0.002030272 -0.00031240741 -0.0025148001
-0.0050540818 -0.001205 -0.0019100001
-0.00047517006 -0.00093722221 -0.0025148001
0.006004422 0.0010264815 -0.00026840001
0.0027214286 -0.001205 -0.00035479999
-0.005226871 -0.00084796298 -0.0024284001
-0.0015119048 0.001205 -0.0013916
-0.005226871 -0.00031240741 -0.0067484002
0.00012959183 -0.00031240741 -0.0052796002
-0.0019438775 0.00040166668 -9.5599993e-05
0.0050540818 0.00022314815 0.0019780002
-0.0025486394 0.00031240741 -0.0028604001
-0.00099353748 -0.001205 -0.0015644
0.005572449 -0.0011157407 -0.00026840001
0.0054860543 0.001205 -0.0005276
-0.0023758505 0.00013388888 -0.0046748002
0.0046221088 0.001205 -0.00087320001
0.0029806122 0.001205 -0.00026840001
0.0061772112 -0.00040166668 -0.00018199999
-0.0022894558 -0.00013388888 0.0017188
-0.006004422 -0.00049092592 -0.00026840001
-0.0063499999 -0.00013388888 -0.0005276
0.0053132656 -4.4629629e-05 -0.0060572
-0.0025486394 0.0011157407 -9.5599993e-05
-0.0041901362 -0.001205 -0.001046
4.319728e-05 0.00031240741 0.0013732001
0.0060908166 -0.00013388888 -0.00018199999
-0.0038445578 0.001205 -0.0020828
-0.00021598639 -0.00031240741 -0.0071804002
0.0043629254 -0.001205 -0.0014780001
0.0028942178 0.00084796298 -0.0025148001
-0.0025486394 -0.00040166668 -0.0026876
-0.00012959183 -0.00031240741 -0.0048476001
-0.0016846939 -0.001205 -0.00095960003
-0.0049676872 0.001205 -0.0021692
-0.0012527211 -0.001205 -0.0014780001
-0.0053132656 0.00013388888 -0.0054524001
-0.0024622448 0.00031240741 0.0016324001
-0.0041901362 -0.00040166668 -9.5599993e-05
0.0062636053 0.00022314815 -0.0019964001
0.0058316328 -0.0010264815 -0.0015644
-0.0023758505 -0.00031240741 -0.0027740002
-0.0053132656 0.00013388888 -0.0038972001
0.0022030612 0.001205 -0.0013916
0.0016846939 -0.001205 -0.0019964001
-0.002635034 -0.00031240741 0.0016324001
0.0015982994 0.00058018521 -0.0025148001
0.0025486394 -0.00031240741 0.0012868
-0.00030238097 -0.00013388888 0.0018052001
0.0053132656 4.4629629e-05 -0.0027740002
-0.0049676872 -0.00066944445 -0.00026840001
-0.004017347 0.001205 -0.00070040004
0.0031534014 0.00049092592 -0.0025148001
-0.00082074833 -0.001205 -0.0025148001
-0.0042765308 -0.0010264815 -9.19999e-06
0.0022030612 -0.001205 -0.00018199999
-0.0062636053 -0.00013388888 -9.19999e-06
-0.0062636053 -0.00031240741 -0.00061400002
0.0022894558 0.00022314815 -0.0039836001
-0.00021598639 -0.00031240741 -0.0047612004
0.0025486394 0.001205 -0.00095960003
-0.0062636053 0.00040166668 -0.00061400002
0.0038445578 0.001205 -0.0019100001
-0.00073435373 -0.001205 -9.5599993e-05
-0.006004422 0.00093722221 -0.001046
-0.0035853742 0.00031240741 -0.0025148001
4.319728e-05 0.00031240741 0.00076840003
0.0025486394 -0.00031240741 -0.0029468001
0.0056588436 0.00066944445 -0.00026840001
0.0038445578 0.001205 -0.00044120001
-0.0023758505 0.00022314815 -0.0073532001
-0.0062636053 -0.00084796298 -0.0015644
-0.0053996597 -0.001205 -0.001046
0.0051404764 -0.00022314815 0.0012868
-0.005226871 0.00022314815 -0.0073532001
0.0056588436 -0.0010264815 -0.0017372001
-0.0035853742 0.0010264815 -9.5599993e-05
0.0025486394 -0.00075870368 -0.0025148001
0.002635034 -0.00031240741 0.0010276
-0.0024622448 -0.00031240741 0.0013732001
0.0058316328 -0.0010264815 -0.00070040004
-0.0028078232 -0.00022314815 -0.0053660003
0.0050540818 0.00031240741 -0.0072668004
-0.00021598639 -0.00031240741 -0.0038972001
0.00073435373 4.4629629e-05 -9.19999e-06
0.002635034 -0.00031240741 -0.0062300004
-0.0016846939 0.00084796298 -0.0025148001
0.0039309524 0.00058018521 -0.00026840001
0.0061772112 4.4629629e-05 -0.0024284001
-0.0028078232 0.00084796298 -0.0025148001
0.0028078232 -4.4629629e-05 -0.0069212001
0.0053132656 -0.0011157407 -0.0019964001
-0.00038877552 0.001205 -0.0011324
-0.0016846939 0.001205 -0.0005276
0.00030238097 -0.00013388888 -0.0031196
0.004794898 4.4629629e-05 -0.0069212001
0.005226871 -0.00013388888 -0.0041564
0.00056156464 -0.00049092592 -0.0025148001
-0.00073435373 0.001205 -0.0005276
0.0012527211 0.001205 -0.00061400002
0.004017347 -4.4629629e-05 -0.0025148001
0.0023758505 0.00031240741 -0.0069212001
-0.0013391157 0.00013388888 -0.0025148001
