# .PCD v0.7 - Point Cloud Data file format
VERSION 0.7
FIELDS x y z
SIZE 4 4 4
TYPE F F F
COUNT 1 1 1
WIDTH 1210
HEIGHT 1
VIEWPOINT 0 0 0 1 0 0 0
POINTS 1210
DATA ascii
0.0019087301 0.015064953 -0.017215626
0.0080753965 -0.014187383 -0.0073343753
0.0071944445 -0.014772429 -0.01053125
-0.0016150794 0.01389486 -0.030875001
-0.0016150794 0.015064953 -0.0076250001
-0.0089563495 -0.0057042055 -0.029421875
-0.0089563495 -0.011847196 -0.0015218752
0.0092500001 0.0033640186 -0.0157625
0.0083690472 0.013017289 -0.02448125
0.0019087301 -0.014772429 -0.00035937509
-0.0089563495 0.0042415885 -0.013146875
0.0089563495 -0.0097995326 -0.028550001
-0.0083690472 0.013309813 -0.022737501
-0.0042579365 -0.00073130842 -0.033199999
0.0077817459 -0.0036565419 -0.0021031252
-0.0089563495 0.0068742987 -0.0090781255
-0.0086626988 -0.011554672 -0.027678126
0.0074880952 0.0033640186 -0.03261875
-0.00014682539 0.01389486 -0.030875001
-0.0089563495 -0.007751869 -0.0090781255
-0.0060198414 0.015064953 -0.015181251
-0.0092500001 -0.0074593457 -0.011403126
0.0004404762 -0.011554672 -0.031746875
-0.0086626988 -0.013602336 -0.0018125002
-0.0092500001 -0.0027789718 -0.030584376
-0.0010277778 0.0016088785 -0.033199999
0.0004404762 0.0071668224 -0.032328125
0.0092500001 -0.0027789718 -0.02680625
-0.0089563495 0.010677103 -0.0012312501
-0.0063134921 0.01565 -0.0032656251
0.0086626988 -0.01126215 -0.031165626
-0.0089563495 -0.0086294394 -0.0087875007
0.0083690472 -0.01389486 -0.0099499999
0.0080753965 0.0062892521 -0.0018125002
0.0089563495 0.0089219622 -0.013146875
0.0063134921 0.013309813 -0.031746875
0.0010277778 0.0045341118 -6.8750087e-05
0.0013214286 0.015064953 -0.0073343753
-0.0086626988 0.012139719 -0.0087875007
0.0083690472 0.013602336 -0.016634375
0.0086626988 -0.011554672 -0.020703126
-0.0092500001 0.0062892521 -0.0067531252
-0.0042579365 0.0019014018 -0.032909375
-0.0057261903 0.014479906 -0.0239
0.0083690472 -0.013017289 -0.01866875
-0.0092500001 0.0024864485 -0.0320375
-0.00014682539 -0.015064953 -0.017215626
0.0063134921 0.0068742987 -0.03261875
-0.0089563495 0.0045341118 -0.01634375
-0.0074880952 0.0065817754 0.0016749999
-0.0077817459 0.0059967288 0.001965625
0.0016150794 -0.00043878503 -6.8750087e-05
-0.0086626988 0.0089219622 -0.0012312501
0.0048452383 -0.0048266356 -0.03261875
0.0089563495 -0.0068742987 -0.014890625
0.005138889 0.015357477 -0.0084968749
0.003376984 -0.0065817754 -6.8750087e-05
-0.0092500001 0.0024864485 -0.030003125
-0.0083690472 0.011847196 -0.024771875
0.005138889 0.0068742987 -6.8750087e-05
0.0010277778 0.015064953 -0.0064625004
-0.0092500001 0.0083369156 -0.0041375002
0.0024960318 -0.012432243 -0.031456251
-0.0069007939 0.011847196 -6.8750087e-05
-0.0074880952 -0.014187383 -0.0111125
0.0092500001 -0.0097995326 -0.0079156253
0.0019087301 -0.015064953 -0.0032656251
-0.0089563495 -0.0071668224 -0.027968751
0.0042579365 -0.015357477 -0.0111125
0.0092500001 0.0013163551 -0.025934376
-0.0074880952 -0.0089219622 -0.03261875
-0.0092500001 -0.0024864485 -0.0297125
0.0074880952 0.014187383 -0.010240626
0.00014682539 -0.014479906 -0.021575
0.0092500001 0.0042415885 -0.028840626
0.0086626988 0.012139719 -0.022737501
-0.0092500001 -0.01389486 -0.0041375002
0.0089563495 0.0074593457 -0.025062501
0.0089563495 0.0097995326 -0.030584376
-0.0089563495 0.0059967288 -0.031746875
0.0086626988 0.012432243 -0.012565625
0.0042579365 -0.01389486 -0.024771875
-0.0077817459 -0.0010238318 -6.8750087e-05
-0.0092500001 0.0042415885 -0.004428125
0.0054325396 -0.015064953 -0.020121876
0.0092500001 0.0071668224 -0.004428125
-0.0039642858 0.00043878503 -6.8750087e-05
-0.0039642858 -0.012724766 -6.8750087e-05
0.0069007939 -0.0042415885 -6.8750087e-05
0.0048452383 0.0074593457 -6.8750087e-05
-0.0092500001 -0.010092055 -0.0047187502
-0.0057261903 0.015357477 -0.012275
0.0086626988 0.010969626 -0.02913125
0.0054325396 0.015064953 -0.019831251
-0.0086626988 -0.01126215 -0.030875001
0.0089563495 0.0057042055 -0.020703126
-0.0092500001 -0.0030714953 -0.023318751
0.0089563495 -0.0080443919 -0.014018751
-0.0089563495 -0.0097995326 -0.014890625
-0.0092500001 0.013309813 -0.0047187502
-0.0069007939 0.0036565419 -0.032909375
0.0086626988 -0.0033640186 -0.03261875
0.0045515872 0.01126215 -6.8750087e-05
0.0092500001 -0.0080443919 -0.0035562501
-0.0083690472 -0.01389486 -0.013146875
0.0060198414 0.015064953 -0.014018751
-0.0092500001 0.0042415885 -0.0038468752
0.0024960318 0.0080443919 -0.032328125
-0.0004404762 0.012724766 -0.031746875
-0.0027896825 -0.015357477 -0.0096593751
-0.0092500001 0.0030714953 -0.031165626
0.0030833334 0.0071668224 -0.032328125
0.0089563495 0.0074593457 -0.021575
0.0022023809 0.010384579 -0.0320375
-0.0057261903 0.01565 -0.0035562501
0.0089563495 0.0089219622 -0.018378126
-0.0086626988 -0.0033640186 -0.00035937509
0.0092500001 0.0013163551 -0.011984375
-0.0092500001 -0.0010238318 -0.018959375
0.0080753965 0.013309813 -0.023609376
0.0089563495 0.0083369156 -0.018959375
-0.0074880952 -0.012139719 -6.8750087e-05
0.0019087301 -0.0068742987 -0.032328125
0.003376984 -0.01389486 -0.025643751
0.0077817459 -0.013017289 -6.8750087e-05
0.0074880952 0.014479906 -0.00035937509
0.0089563495 0.009214486 -0.016634375
0.00073412701 0.015064953 -0.011403126
-0.0092500001 -0.0095070088 -0.00035937509
-0.0077817459 -0.0062892521 0.0028375001
-0.0089563495 0.0059967288 -0.02913125
0.0019087301 -0.01389486 -0.028840626
0.0048452383 -0.01565 -0.005009375
0.00073412701 -0.013017289 -0.031746875
-0.0092500001 -0.0039490652 -0.0239
0.0063134921 -0.0071668224 -0.03261875
0.0086626988 -0.0036565419 -0.03261875
0.0027896825 0.013602336 -0.031456251
0.0010277778 -0.013602336 -0.027968751
-0.0057261903 -0.01565 -0.0032656251
0.0083690472 0.012724766 -0.01634375
0.003376984 0.0086294394 -6.8750087e-05
0.0092500001 0.0016088785 -0.022446876
-0.0092500001 0.011847196 -0.0021031252
0.0054325396 -0.015064953 -0.016925
-0.00073412701 -0.015064953 -0.011693751
-0.0045515872 -0.01389486 -0.030003125
-0.0039642858 -0.010677103 -6.8750087e-05
0.0024960318 0.0042415885 -6.8750087e-05
0.0069007939 0.0057042055 -0.03261875
-0.0086626988 -0.01126215 -0.031456251
-0.0089563495 0.0097995326 -0.0320375
-0.0089563495 0.010677103 -0.0084968749
-0.0089563495 0.0065817754 -0.029421875
0.0089563495 0.0074593457 -0.011403126
-0.00014682539 0.015064953 -0.01053125
-0.0092500001 0.0033640186 -0.015471876
0.0089563495 -0.0042415885 -0.03261875
0.0045515872 -0.0057042055 -0.03261875
-0.0063134921 0.013309813 -0.03261875
-0.0030833334 -0.0086294394 -6.8750087e-05
-0.0083690472 0.0042415885 -0.00065000012
0.0060198414 0.01126215 -6.8750087e-05
-0.0089563495 0.0065817754 -0.031746875
-0.0080753965 -0.013309813 -0.021575
-0.0092500001 -0.00073130842 -0.017796876
-0.0092500001 -0.0048266356 -6.8750087e-05
-0.0092500001 0.0030714953 -0.024771875
0.0086626988 0.012432243 -0.020121876
0.0022023809 0.01389486 -0.028550001
-0.0022023809 0.0054116822 -0.03261875
0.0045515872 0.01565 -0.014309376
-0.0089563495 0.0071668224 -0.020412501
0.0083690472 -0.012724766 -0.027678126
-0.0083690472 -0.01389486 -0.017796876
0.0092500001 0.0068742987 -0.005009375
0.0089563495 0.0054116822 -0.021575
-0.0019087301 0.015064953 -0.0076250001
0.0089563495 -0.0068742987 -0.030584376
0.0089563495 -0.0080443919 -0.030875001
-0.0019087301 -0.0048266356 -0.03261875
-0.005138889 0.014479906 -0.022737501
-0.0022023809 0.015357477 -0.005009375
-0.0089563495 -0.0059967288 -0.012275
-0.0013214286 -0.01389486 -0.031165626
0.0089563495 -0.0068742987 -0.01634375
0.0022023809 0.010677103 -0.0320375
0.0092500001 -0.0021939252 -0.0035562501
-0.0024960318 0.014479906 -0.021284375
0.0092500001 -0.0021939252 -0.023028126
-0.0089563495 0.0048266356 -0.017796876
0.0092500001 0.0030714953 -0.02448125
-0.0089563495 0.0089219622 -0.017215626
0.0089563495 0.0016088785 -6.8750087e-05
0.0039642858 0.015064953 -0.01866875
0.0089563495 -0.0089219622 -0.017215626
0.0092500001 0.0019014018 -0.0297125
0.0092500001 0.0036565419 -0.011984375
-0.0089563495 0.0057042055 -0.032328125
0.0063134921 0.010969626 -0.03261875
-0.0030833334 0.0016088785 -6.8750087e-05
-0.0092500001 -0.0010238318 -0.012856251
0.0089563495 -0.007751869 -0.014890625
0.0092500001 -0.0033640186 -0.0273875
0.0092500001 -0.00043878503 -0.0099499999
0.0004404762 0.015064953 -0.022446876
0.0089563495 -0.0048266356 -0.0157625
0.0092500001 0.0086294394 -0.0064625004
0.003376984 -0.01565 -0.002684375
0.005138889 -0.013602336 -0.026515625
-0.0069007939 0.014772429 -0.018087501
-0.0092500001 0.0019014018 -0.026515625
-0.0089563495 -0.0051191589 -0.0090781255
0.0092500001 -0.00043878503 -0.011693751
0.0086626988 -0.012432243 -0.0087875007
0.0089563495 0.0059967288 -0.018959375
0.0022023809 -0.01389486 -0.031456251
0.0092500001 0.0083369156 -0.0076250001
-0.0063134921 -0.010384579 -6.8750087e-05
-0.0089563495 0.014772429 -0.0061718752
-0.0069007939 0.00043878503 -6.8750087e-05
0.0036706349 -0.0051191589 -6.8750087e-05
-0.0092500001 -0.0027789718 -0.023609376
0.0086626988 0.0054116822 -6.8750087e-05
-0.0092500001 -0.00073130842 -0.00035937509
-0.0092500001 0.012139719 -0.00704375
-0.0092500001 -0.0062892521 -0.0058812504
-0.0092500001 0.012432243 -0.0073343753
-0.0060198414 0.015064953 -0.010821875
0.0063134921 -0.014772429 -0.021865625
0.0042579365 0.0097995326 -0.0320375
0.0083690472 -0.013017289 -0.011403126
-0.0089563495 -0.0097995326 -0.023609376
0.0066071427 0.01565 -0.00704375
0.0071944445 0.012139719 -6.8750087e-05
-0.0080753965 0.012139719 -0.032328125
-0.0039642858 0.015064953 -0.018959375
-0.0092500001 -0.0051191589 -0.0029750001
0.0086626988 -0.014772429 -0.0076250001
0.0086626988 -0.010384579 -0.031456251
0.0074880952 -0.014479906 -0.016634375
0.0089563495 0.010092055 -0.014018751
0.0010277778 0.014772429 -0.019831251
-0.0089563495 0.0089219622 -0.0111125
-0.0089563495 0.011847196 -0.0015218752
0.0071944445 0.0057042055 -0.032909375
0.0063134921 0.0057042055 -6.8750087e-05
-0.0036706349 -0.013602336 -6.8750087e-05
-0.0071944445 -0.010969626 -6.8750087e-05
0.0092500001 0.00073130842 -0.0029750001
-0.0089563495 -0.010092055 -0.010821875
-0.0092500001 0.010092055 -6.8750087e-05
0.0083690472 -0.013017289 -0.0146
0.0089563495 -0.0042415885 -0.022446876
-0.0080753965 -0.012139719 -0.032328125
-0.0071944445 -0.014772429 -0.0079156253
0.0024960318 -0.015357477 -0.017796876
0.0092500001 0.0024864485 -0.031456251
-0.0016150794 -0.0057042055 -0.03261875
-0.0027896825 -0.015357477 -0.018378126
-0.0092500001 -0.0033640186 -0.00704375
-0.0092500001 0.013602336 -0.00704375
-0.0089563495 -0.0086294394 -0.0297125
-0.0030833334 0.01389486 -0.025934376
0.0004404762 0.0048266356 -6.8750087e-05
0.00073412701 0.015064953 -0.0073343753
0.005138889 -0.01565 -0.004428125
0.0074880952 -0.014479906 -0.012856251
-0.0027896825 0.01565 -0.0038468752
0.0083690472 -0.009214486 -6.8750087e-05
-0.0092500001 0.0024864485 -0.016634375
-0.0036706349 -0.015357477 -0.0146
-0.0066071427 -0.014772429 -0.022446876
-0.0039642858 0.0057042055 -0.03261875
0.0063134921 0.0045341118 -0.032909375
-0.0054325396 0.011554672 -0.0320375
-0.0060198414 -0.013602336 -0.025353126
0.0022023809 0.011847196 -0.031746875
0.003376984 -0.011847196 -0.031746875
-0.0022023809 -0.01389486 -0.026225001
-0.0092500001 0.0010238318 -0.0058812504
-0.0092500001 -0.013309813 -0.0021031252
0.0004404762 -0.014479906 -0.02448125
-0.0089563495 -0.0083369156 -0.016634375
0.0092500001 0.0021939252 -0.0032656251
-0.0092500001 0.01126215 -0.0038468752
-0.0054325396 0.0030714953 -6.8750087e-05
-0.0080753965 -0.00014626168 -0.00035937509
0.0083690472 0.013602336 -0.012856251
-0.0024960318 0.015357477 -0.018378126
-0.0089563495 -0.0095070088 -0.01053125
-0.0092500001 -0.0021939252 -0.0273875
-0.00014682539 0.01389486 -0.027096875
0.0092500001 -0.0027789718 -0.0038468752
-0.0086626988 -0.012432243 -0.00035937509
-0.0077817459 -0.013309813 -0.031165626
-0.003376984 -0.010092055 -6.8750087e-05
-0.0030833334 -0.00043878503 -6.8750087e-05
0.0016150794 -0.01389486 -0.026515625
-0.0071944445 -0.00073130842 -0.032909375
-0.0089563495 0.0051191589 -0.02448125
0.0013214286 0.014187383 -6.8750087e-05
0.0092500001 -0.0027789718 -0.025353126
0.0039642858 -0.015064953 -0.01925
-0.0086626988 -0.0074593457 -0.00035937509
-0.0092500001 -0.0042415885 -0.0084968749
-0.0057261903 0.013602336 -0.027968751
-0.0089563495 -0.0074593457 -0.018959375
0.0016150794 -0.01389486 -0.027678126
-0.0030833334 0.015064953 -0.00035937509
-0.0086626988 0.0074593457 -0.03261875
0.0089563495 0.0074593457 -0.02680625
0.005138889 -0.013602336 -0.029421875
-0.0083690472 0.0071668224 -0.03261875
-0.0019087301 0.014479906 -0.024190625
0.0054325396 -0.014772429 -0.02215625
-0.0089563495 0.0059967288 -0.02448125
-0.0086626988 0.010969626 -0.030584376
0.0071944445 -0.0010238318 -0.00094062509
0.00073412701 -0.015064953 -0.0058812504
0.0089563495 -0.010384579 -0.022446876
0.00073412701 -0.0068742987 -6.8750087e-05
0.0092500001 -0.0024864485 -0.020703126
-0.0086626988 0.010677103 -0.025062501
-0.0022023809 0.015357477 -0.011403126
-0.0039642858 0.013602336 -0.026515625
-0.0080753965 0.013017289 -0.028840626
-0.005138889 0.01565 -0.0058812504
-0.0083690472 -0.013309813 -0.01634375
0.0083690472 0.015357477 -0.005009375
0.0083690472 -0.012139719 -0.02448125
-0.0069007939 -0.0068742987 -0.03261875
-0.0092500001 -0.00073130842 -0.016634375
0.0089563495 -0.01126215 -0.011984375
0.0071944445 -0.013602336 -0.030293752
0.0089563495 0.0080443919 -0.014890625
-0.0048452383 0.0033640186 -0.032909375
-0.0016150794 -0.015064953 -0.0067531252
0.0060198414 -0.015064953 -0.010821875
0.0013214286 0.00014626168 -6.8750087e-05
-0.0092500001 -0.0039490652 -0.0073343753
-0.0069007939 -0.014479906 -6.8750087e-05
0.0089563495 0.0048266356 -0.028840626
0.0092500001 -0.0016088785 -0.0058812504
0.0077817459 -0.0054116822 -0.03261875
-0.0092500001 -0.0042415885 -0.0029750001
-0.0063134921 0.014187383 -0.00035937509
0.0013214286 -0.015064953 -0.023028126
0.0089563495 0.0089219622 -0.017215626
-0.0071944445 0.0033640186 -0.032909375
-0.0045515872 -0.01565 -0.0084968749
0.0022023809 -0.015357477 -0.011403126
0.0086626988 0.011554672 -0.02215625
0.0024960318 0.012724766 -6.8750087e-05
-0.0092500001 -0.0033640186 -0.0111125
0.0089563495 -0.0089219622 -0.025934376
-0.0092500001 -0.010384579 -0.0053000003
-0.0077817459 -0.0042415885 -0.00094062509
-0.0089563495 0.0059967288 -0.020121876
0.0089563495 0.0080443919 -0.025643751
0.0089563495 -0.0097995326 -0.020993751
-0.0089563495 -0.0083369156 -0.0146
0.0092500001 0.0021939252 -0.032328125
0.0077817459 -0.014187383 -0.021865625
-0.0066071427 0.0027789718 -0.032909375
0.0092500001 0.012139719 -0.002684375
0.0019087301 0.0042415885 -6.8750087e-05
-0.0045515872 0.01565 -0.014309376
-0.0071944445 0.0042415885 -6.8750087e-05
-0.00073412701 -0.014772429 -6.8750087e-05
0.0077817459 -0.015064953 -0.0023937502
-0.0083690472 -0.012724766 -0.02215625
-0.0089563495 -0.014479906 -0.0023937502
-0.0092500001 0.00073130842 -0.019831251
-0.0083690472 -0.013309813 -0.019540625
-0.0004404762 0.012432243 -0.031746875
0.0092500001 -0.0057042055 -0.0079156253
0.0036706349 -0.00073130842 -6.8750087e-05
0.0013214286 0.015064953 -0.002684375
-0.0063134921 -0.0068742987 -0.03261875
0.0083690472 -0.0097995326 -0.032328125
0.0077817459 -0.014479906 -0.023609376
0.0089563495 -0.0095070088 -0.021284375
0.0092500001 -0.014187383 -0.0032656251
0.0030833334 -0.011554672 -0.031746875
-0.0042579365 -0.012139719 -6.8750087e-05
-0.0092500001 0.00043878503 -0.011984375
0.0092500001 -0.00073130842 -0.021575
0.0066071427 0.013602336 -0.0320375
-0.0089563495 -0.010384579 -0.01925
0.0074880952 -0.014187383 -0.011984375
-0.0089563495 -0.0051191589 -0.028840626
-0.0060198414 -0.015064953 -0.010240626
-0.0089563495 0.0071668224 -0.0093687503
-0.0016150794 0.0030714953 -6.8750087e-05
-0.0089563495 0.0065817754 -0.0090781255
-0.0089563495 0.0065817754 -0.010240626
0.0042579365 0.015064953 -0.019831251
-0.0045515872 0.01565 -0.0146
0.0080753965 0.0024864485 -0.00035937509
0.0019087301 -0.013017289 -6.8750087e-05
0.0057261903 0.00014626168 -0.032909375
0.0016150794 0.0016088785 -0.033199999
0.0013214286 0.0054116822 -0.03261875
0.0066071427 0.007751869 -0.03261875
-0.0036706349 0.01389486 -0.028840626
0.0086626988 0.0045341118 -6.8750087e-05
0.0027896825 -0.015064953 -0.020121876
0.0092500001 0.0033640186 -0.00704375
-0.0042579365 -0.0068742987 -0.03261875
0.0071944445 -0.01565 -0.0047187502
-0.0092500001 -0.0051191589 -0.022446876
-0.0030833334 -0.0065817754 -0.03261875
-0.0024960318 -0.015357477 -0.0073343753
0.00073412701 0.01389486 -0.025934376
-0.0013214286 -0.0057042055 -6.8750087e-05
0.0089563495 0.0083369156 -0.028550001
0.0092500001 -0.011554672 -0.005009375
0.0022023809 -0.015064953 -0.02215625
0.0024960318 -0.010677103 -0.0320375
0.00014682539 0.0051191589 -0.03261875
0.0092500001 -0.0016088785 -0.0032656251
0.0010277778 -0.0083369156 -6.8750087e-05
-0.0089563495 -0.007751869 -0.01053125
0.0019087301 -0.015064953 -0.0053000003
0.0092500001 0.0021939252 -0.014890625
-0.0092500001 0.00073130842 -0.024771875
-0.0060198414 -0.015064953 -0.013728125
0.0092500001 -0.0027789718 -0.020993751
0.0092500001 -0.013309813 -0.0061718752
-0.0089563495 -0.0039490652 -0.026225001
0.0089563495 0.007751869 -0.0157625
0.0027896825 0.015357477 -0.0053000003
0.0048452383 -0.015357477 -0.01634375
-0.0092500001 0.0024864485 -0.0023937502
-0.003376984 -0.014772429 -0.020121876
-0.0063134921 0.0051191589 -0.03261875
0.0069007939 0.013602336 -0.026515625
-0.0092500001 -0.0016088785 -0.020412501
-0.0071944445 -0.013309813 -0.030293752
-0.0027896825 -0.013017289 -0.031456251
0.0092500001 -0.01389486 -0.0023937502
-0.0092500001 -0.0057042055 -0.0053000003
0.0019087301 -0.015064953 -0.011403126
0.0027896825 0.015357477 -0.010821875
0.0080753965 -0.01389486 -0.013728125
-0.0089563495 0.0086294394 -0.011403126
-0.0089563495 -0.007751869 -0.010240626
0.0092500001 -0.0024864485 -0.027096875
-0.0030833334 0.014772429 -0.020703126
-0.0092500001 0.0036565419 -0.028259376
0.0004404762 0.014772429 -0.01866875
-0.0089563495 -0.013017289 -0.0015218752
0.0086626988 0.011554672 -0.025643751
0.0089563495 -0.0054116822 -0.0096593751
0.0013214286 0.015064953 -0.014018751
0.0016150794 -0.0089219622 -6.8750087e-05
-0.003376984 0.01565 -0.0055906251
0.0016150794 0.015064953 -0.018087501
-0.0071944445 0.0051191589 -6.8750087e-05
0.0080753965 -0.013017289 -0.025934376
-0.0083690472 -0.015357477 -0.0067531252
0.0010277778 -0.0057042055 -6.8750087e-05
0.0092500001 -0.00043878503 -0.012275
0.0013214286 -0.015064953 -0.010821875
0.003376984 -0.015357477 -0.015181251
0.0060198414 0.015064953 -0.010240626
0.0022023809 -0.011847196 -6.8750087e-05
0.0086626988 0.00014626168 -6.8750087e-05
0.0089563495 -0.0048266356 -0.02215625
-0.0022023809 0.0074593457 -0.032328125
-0.0092500001 -0.0036565419 -0.0099499999
-0.0074880952 -0.0097995326 -6.8750087e-05
0.0092500001 0.011847196 -0.0073343753
-0.0071944445 0.0062892521 0.0037093749
0.0092500001 0.012139719 -0.0067531252
-0.0092500001 -0.00014626168 -0.030003125
0.0092500001 0.012724766 -0.0035562501
0.0027896825 -0.014772429 -0.0239
-0.003376984 -0.015064953 -0.023028126
-0.0092500001 0.0062892521 -0.0055906251
0.0019087301 0.0019014018 -6.8750087e-05
-0.0022023809 0.010092055 -6.8750087e-05
-0.0092500001 0.00073130842 -0.032328125
-0.0045515872 0.014479906 -0.02215625
0.0089563495 0.01126215 -0.02215625
-0.0089563495 0.0086294394 -0.021575
0.0089563495 -0.0065817754 -0.011984375
0.0074880952 -0.01565 -0.0067531252
0.0083690472 -0.012724766 -0.01866875
-0.0092500001 -0.0013163551 -0.0021031252
0.0092500001 -0.009214486 -0.0067531252
0.00014682539 -0.0068742987 -0.03261875
0.0016150794 0.0033640186 -0.032909375
0.0086626988 0.011554672 -0.014018751
-0.0089563495 0.0042415885 -0.021284375
0.0036706349 0.01565 -0.0041375002
-0.0092500001 -0.0016088785 -0.017506251
0.0092500001 0.0010238318 -0.030003125
-0.0077817459 -0.014479906 -0.023609376
-0.0092500001 -0.0054116822 -0.022446876
-0.0092500001 0.0057042055 -0.004428125
0.003376984 0.014187383 -0.024771875
-0.0057261903 -0.013602336 -0.0297125
-0.0089563495 -0.0065817754 -0.020121876
0.0024960318 -0.015357477 -0.017506251
0.0019087301 0.01126215 -6.8750087e-05
-0.0045515872 0.013602336 -6.8750087e-05
-0.0077817459 0.015357477 -0.0067531252
0.0045515872 -0.01565 -0.0073343753
0.0092500001 -0.0074593457 -0.0058812504
0.0092500001 -0.0010238318 -0.015181251
-0.0054325396 -0.013602336 -0.030293752
-0.0074880952 0.014479906 -0.015471876
-0.0066071427 -0.015064953 -0.0134375
-0.003376984 -0.01389486 -0.025934376
0.0089563495 -0.0054116822 -0.031165626
0.0092500001 0.0045341118 -0.022446876
0.0089563495 0.0039490652 -0.011693751
0.0092500001 -0.007751869 -0.0067531252
-0.0089563495 0.01126215 -0.017796876
-0.0060198414 -0.01565 -0.004428125
0.0083690472 0.012724766 -0.017215626
-0.0086626988 -0.011847196 -0.023318751
0.0092500001 -0.0051191589 -0.002684375
0.0060198414 -0.014772429 -0.021865625
0.0089563495 0.007751869 -0.0087875007
0.003376984 0.01389486 -0.0297125
-0.0013214286 -0.0071668224 -6.8750087e-05
-0.0086626988 -0.010969626 -0.028550001
0.0077817459 -0.0039490652 -0.032909375
0.005138889 0.015357477 -0.0111125
-0.0092500001 -0.0019014018 -0.0093687503
-0.0048452383 -0.015064953 -0.00065000012
0.0066071427 -0.011847196 -6.8750087e-05
-0.0080753965 -0.013309813 -0.02448125
-0.0092500001 -0.010384579 -0.0041375002
-0.0089563495 -0.0097995326 -0.012275
0.0089563495 -0.010092055 -0.027968751
0.0083690472 -0.013309813 -0.021865625
0.0089563495 0.0048266356 -0.025934376
0.0092500001 -0.0033640186 -0.0058812504
-0.0089563495 0.0080443919 -0.027678126
-0.0089563495 0.0048266356 -0.012275
-0.0089563495 -0.0042415885 -0.02448125
0.0089563495 -0.007751869 -0.0157625
0.00014682539 -0.015064953 -0.0035562501
0.0069007939 0.014479906 -0.021575
-0.0089563495 0.013602336 -0.0012312501
-0.0086626988 -0.012432243 -0.012565625
0.0089563495 -0.0095070088 -0.010240626
0.0004404762 0.014772429 -0.018087501
0.0089563495 0.0071668224 -0.02913125
0.0024960318 -0.015064953 -0.019540625
-0.0089563495 -0.0068742987 -0.0099499999
0.0092500001 -0.0019014018 -0.028840626
0.0092500001 0.0019014018 -0.011693751
0.0039642858 -0.011554672 -0.031746875
-0.0092500001 0.0013163551 -0.025062501
0.0092500001 0.0019014018 -0.031165626
-0.0092500001 -0.00043878503 -0.010821875
-0.0092500001 -0.0051191589 -0.0079156253
-0.0092500001 -0.0010238318 -0.0146
0.0039642858 -0.01565 -0.005009375
0.0074880952 -0.0057042055 -0.032909375
-0.0074880952 -0.011554672 -0.03261875
-0.0074880952 0.014187383 -0.019540625
-0.0092500001 -0.0048266356 -0.016634375
0.0074880952 -0.0065817754 -6.8750087e-05
-0.0092500001 -0.00014626168 -0.02680625
0.0048452383 0.015357477 -0.011693751
0.0019087301 -0.015064953 -0.0090781255
-0.0013214286 0.01126215 -0.031746875
0.0013214286 -0.015064953 -0.0029750001
-0.0063134921 -0.0042415885 -6.8750087e-05
-0.0092500001 0.0019014018 -0.028259376
0.0089563495 -0.007751869 -0.024190625
-0.0054325396 -0.015357477 -0.0087875007
0.0039642858 -0.013602336 -0.030584376
0.0092500001 0.0024864485 -0.027096875
0.0092500001 -0.0042415885 -0.0061718752
-0.0057261903 0.015064953 -0.019831251
0.0069007939 -0.00014626168 -0.032909375
0.0004404762 -0.0062892521 -0.03261875
-0.0089563495 0.0062892521 -6.8750087e-05
0.0092500001 0.0013163551 -0.020703126
-0.0092500001 -0.0013163551 -0.016925
0.0071944445 -0.0013163551 -0.00065000012
0.0077817459 0.01389486 -0.010821875
0.0086626988 -0.013017289 -0.0079156253
0.0074880952 0.013017289 -0.03261875
0.0086626988 -0.012432243 -0.022737501
0.0057261903 0.0021939252 -6.8750087e-05
-0.0092500001 -0.0016088785 -0.027968751
-0.0004404762 0.0057042055 -0.03261875
0.0042579365 0.0051191589 -0.03261875
-0.0089563495 0.010092055 -0.020412501
0.0089563495 -0.007751869 -0.018959375
-0.003376984 -0.015357477 -0.0079156253
0.0013214286 -0.014772429 -0.023609376
-0.005138889 0.0071668224 -6.8750087e-05
-0.0069007939 0.0074593457 -6.8750087e-05
-0.0039642858 -0.0019014018 -6.8750087e-05
-0.0071944445 -0.013309813 -0.02913125
-0.0077817459 -0.013309813 -0.026225001
-0.0030833334 0.0086294394 -6.8750087e-05
0.005138889 0.0071668224 -6.8750087e-05
0.0048452383 0.0042415885 -6.8750087e-05
-0.0089563495 0.0068742987 -0.019540625
0.005138889 -0.013602336 -0.027968751
-0.0089563495 -0.0095070088 -0.021284375
0.0092500001 0.0016088785 -0.03261875
0.0054325396 0.01565 -0.0041375002
-0.0092500001 -0.0095070088 -0.0023937502
-0.0086626988 0.011554672 -0.021575
0.0092500001 0.0042415885 -0.0079156253
0.00014682539 -0.012432243 -6.8750087e-05
0.0019087301 -0.013309813 -0.031456251
-0.0077817459 0.01389486 -0.002684375
0.0004404762 -0.014479906 -0.020412501
-0.0030833334 -0.0016088785 -0.033199999
-0.0089563495 0.0042415885 -0.0320375
-0.0074880952 0.014479906 -0.0029750001
0.0089563495 0.0083369156 -0.018378126
-0.0042579365 0.015357477 -0.014309376
0.0019087301 0.014772429 -6.8750087e-05
0.0083690472 0.0068742987 -0.0021031252
0.0089563495 -0.0083369156 -0.025934376
-0.0054325396 0.01565 -0.004428125
-0.0089563495 -0.0054116822 -0.023609376
0.0089563495 0.00014626168 -6.8750087e-05
-0.0092500001 -0.0048266356 -0.004428125
-0.0089563495 -0.013602336 -0.0076250001
-0.0089563495 0.010092055 -0.021865625
-0.0027896825 -0.013309813 -0.031456251
-0.0016150794 0.01389486 -0.026515625
0.0057261903 -0.01389486 -6.8750087e-05
-0.0092500001 0.0021939252 -0.031746875
-0.0089563495 0.0089219622 -0.011984375
-0.0089563495 0.010092055 -0.0134375
-0.0092500001 0.0030714953 -0.025643751
0.0039642858 -0.015357477 -0.017215626
0.0004404762 0.015064953 -0.02215625
0.0089563495 -0.0097995326 -0.0084968749
0.0092500001 0.013602336 -0.0029750001
0.0089563495 0.0039490652 -0.00035937509
-0.0092500001 -0.012724766 -0.0029750001
-0.0092500001 0.00073130842 -0.028259376
-0.0086626988 0.012432243 -0.023318751
-0.0092500001 -0.0074593457 -0.0038468752
0.0089563495 -0.0097995326 -0.011403126
-0.0080753965 -0.0074593457 -0.0015218752
0.0092500001 0.0074593457 -0.005009375
-0.0039642858 0.013602336 -0.030875001
-0.0092500001 0.0083369156 -0.0076250001
0.0013214286 0.0030714953 -0.032909375
-0.0083690472 -0.012432243 -0.0320375
0.0086626988 -0.011554672 -0.011693751
-0.0089563495 0.011554672 -0.0134375
0.0074880952 -0.014187383 -0.0082062501
0.003376984 -0.015064953 -0.019540625
0.0054325396 -0.012432243 -6.8750087e-05
0.0054325396 0.015357477 -0.01866875
0.0083690472 0.015357477 -0.0047187502
-0.00073412701 -0.015064953 -0.010821875
0.0092500001 0.014187383 -0.002684375
0.0045515872 0.010092055 -0.0320375
-0.0083690472 -0.013017289 -0.011403126
-0.0089563495 0.010092055 -0.0087875007
-0.0036706349 0.00073130842 -0.033199999
-0.0089563495 0.010092055 -0.027968751
-0.0092500001 -0.00043878503 -0.021865625
0.0004404762 -0.012432243 -6.8750087e-05
0.00073412701 -0.015064953 -0.0076250001
0.0089563495 0.0036565419 -0.00035937509
-0.0089563495 0.0051191589 -0.01925
0.0092500001 -0.0036565419 -0.017506251
-0.0080753965 -0.014479906 -0.011693751
-0.0092500001 -0.0030714953 -0.01634375
-0.0089563495 -0.01126215 -0.0099499999
0.0024960318 -0.013602336 -0.031456251
-0.0089563495 -0.0083369156 -0.021865625
-0.0016150794 -0.015064953 -0.017506251
-0.0089563495 0.0054116822 -0.012856251
-0.0092500001 -0.0054116822 -0.016634375
-0.0089563495 -0.0068742987 -0.026515625
0.0016150794 0.010677103 -0.0320375
-0.005138889 0.013602336 -0.031456251
-0.0074880952 0.014479906 -0.01053125
-0.0030833334 0.0033640186 -0.032909375
0.0030833334 0.015357477 -0.0111125
-0.0089563495 0.0097995326 -0.030584376
-0.0092500001 -0.0048266356 -0.0035562501
-0.0092500001 -0.01389486 -0.005009375
0.0092500001 -0.0024864485 -0.022446876
-0.0086626988 0.012432243 -0.016634375
-0.0039642858 -0.007751869 -0.032328125
0.0016150794 0.014479906 -0.021284375
0.0092500001 0.00043878503 -0.030875001
0.0057261903 -0.013602336 -0.0273875
-0.0092500001 0.0030714953 -0.0079156253
0.0092500001 0.0010238318 -0.0021031252
-0.00014682539 0.012724766 -6.8750087e-05
-0.0089563495 0.0080443919 -0.0090781255
0.0089563495 -0.0065817754 -0.013728125
0.0092500001 -0.007751869 -0.0023937502
-0.0013214286 -0.015064953 -0.0073343753
0.0092500001 0.0036565419 -0.016053125
-0.0063134921 -0.013309813 -0.031456251
0.005138889 -0.013017289 -0.031456251
0.005138889 -0.0024864485 -6.8750087e-05
-0.0089563495 0.013602336 -0.00065000012
-0.0083690472 -0.012724766 -0.025062501
-0.0071944445 0.01389486 -6.8750087e-05
-0.0080753965 0.013017289 -0.027968751
-0.0077817459 0.009214486 -6.8750087e-05
0.0089563495 0.009214486 -0.0093687503
0.0024960318 0.015357477 -0.014018751
0.0080753965 -0.01389486 -0.011403126
-0.0027896825 0.0074593457 -0.032328125
0.0089563495 -0.0054116822 -0.010240626
-0.0086626988 0.01126215 -0.025062501
-0.0086626988 -0.011554672 -0.030293752
0.0013214286 -0.014187383 -0.024771875
0.0080753965 -0.0048266356 -6.8750087e-05
0.0083690472 -0.013309813 -0.012856251
-0.0092500001 -0.010092055 -0.0064625004
0.0060198414 -0.015064953 -0.01053125
-0.0080753965 0.013017289 -0.032328125
0.0016150794 0.0074593457 -0.032328125
-0.0019087301 0.015064953 -0.015471876
-0.0089563495 -0.0074593457 -0.01634375
-0.0063134921 -0.012432243 -6.8750087e-05
-0.0083690472 -0.0054116822 -0.00035937509
-0.0074880952 -0.0027789718 -0.00065000012
-0.0074880952 -0.0033640186 -0.0015218752
0.0089563495 -0.0068742987 -0.018959375
0.0077817459 -0.01389486 -0.0058812504
0.0092500001 0.0097995326 -0.0073343753
0.0054325396 -0.01389486 -0.0021031252
-0.0089563495 -0.0097995326 -0.022737501
-0.0022023809 -0.01389486 -0.028840626
0.0022023809 -0.009214486 -6.8750087e-05
0.0086626988 -0.015357477 -0.0032656251
0.0092500001 0.009214486 -0.005009375
-0.0080753965 -0.0039490652 -0.0021031252
0.0024960318 -0.01565 -0.005009375
0.0089563495 0.0083369156 -0.0146
-0.0077817459 0.0030714953 -6.8750087e-05
-0.0036706349 -0.0086294394 -0.032328125
-0.0066071427 0.01389486 -0.0015218752
-0.0089563495 0.0045341118 -0.0023937502
0.005138889 -0.014187383 -0.0021031252
0.0083690472 0.009214486 -0.0015218752
-0.0092500001 -0.013309813 -0.00704375
0.0010277778 -0.011847196 -6.8750087e-05
-0.0089563495 -0.0039490652 -0.01925
-0.0054325396 0.013602336 -0.030584376
-0.0089563495 -0.0042415885 -0.031456251
-0.0045515872 0.01389486 -6.8750087e-05
-0.0057261903 -0.0074593457 -0.032328125
0.0010277778 -0.014772429 -0.00094062509
-0.0092500001 0.01126215 -0.005009375
0.0074880952 -0.014479906 -0.0090781255
0.0045515872 0.013602336 -0.028840626
-0.0066071427 0.014772429 -0.019540625
0.0089563495 -0.009214486 -0.031165626
0.0092500001 -0.0039490652 -0.005009375
0.0086626988 0.00043878503 -0.0021031252
0.0013214286 0.0059967288 -0.03261875
-0.0089563495 -0.0059967288 -0.018378126
0.0010277778 -0.0021939252 -6.8750087e-05
-0.0089563495 0.0045341118 -0.0096593751
-0.0074880952 0.014187383 -0.0064625004
-0.0066071427 0.014772429 -0.018378126
-0.0004404762 -0.014479906 -0.024190625
-0.005138889 -0.01389486 -6.8750087e-05
-0.0054325396 -0.0013163551 -6.8750087e-05
0.0045515872 -0.00073130842 -0.033199999
-0.0057261903 -0.015357477 -0.01634375
0.0016150794 -0.01389486 -0.026225001
-0.0027896825 -0.015357477 -0.011984375
0.0086626988 0.010384579 -0.031456251
0.0089563495 0.009214486 -0.0146
0.0089563495 0.0074593457 -0.020703126
0.0063134921 0.0065817754 -6.8750087e-05
-0.0083690472 -0.013017289 -0.011693751
-0.0027896825 0.015064953 -0.00035937509
-0.0010277778 -0.015064953 -0.018087501
0.0016150794 -0.01389486 -6.8750087e-05
0.0022023809 0.0080443919 -0.032328125
-0.0036706349 0.014479906 -0.021284375
-0.0042579365 -0.0054116822 -6.8750087e-05
0.0080753965 0.013017289 -0.025934376
0.0010277778 -0.013602336 -0.0273875
0.0039642858 -0.012432243 -6.8750087e-05
0.0092500001 0.010092055 -0.0053000003
0.0092500001 -0.0013163551 -0.0157625
-0.0016150794 -0.015064953 -0.0073343753
-0.0092500001 0.0010238318 -0.024190625
0.003376984 -0.0062892521 -0.03261875
-0.0092500001 -0.0030714953 -0.030003125
0.0080753965 -0.010092055 -6.8750087e-05
-0.005138889 -0.014772429 -0.020993751
0.0016150794 0.015064953 -0.01053125
-0.0080753965 -0.0057042055 -0.0018125002
-0.003376984 0.01565 -0.0067531252
0.0089563495 0.0065817754 -0.03261875
0.0024960318 -0.01565 -0.0029750001
-0.0092500001 0.0033640186 -0.0021031252
-0.0092500001 0.0019014018 -0.031746875
0.0019087301 0.015064953 -0.0087875007
0.0092500001 0.00043878503 -0.015181251
-0.0092500001 -0.0051191589 -0.02215625
0.0092500001 -0.0019014018 -0.0111125
0.0048452383 -0.015357477 -0.0084968749
0.0083690472 0.0010238318 -0.03261875
0.0092500001 0.0039490652 -0.0079156253
0.0083690472 0.013309813 -0.013728125
0.0036706349 0.01389486 -0.027968751
0.0089563495 0.01126215 -0.020993751
0.0092500001 -0.0083369156 -0.004428125
0.00014682539 0.011554672 -0.031746875
-0.0092500001 0.0013163551 -0.012856251
-0.0092500001 -0.00073130842 -0.0084968749
0.005138889 -0.012139719 -0.031746875
-0.0077817459 -0.0048266356 -6.8750087e-05
-0.0074880952 -0.0019014018 -0.0012312501
0.0089563495 -0.010969626 -0.014018751
0.005138889 -0.010092055 -6.8750087e-05
0.0092500001 0.0010238318 -0.0064625004
-0.0092500001 -0.0030714953 -0.026225001
0.0042579365 0.013602336 -0.030293752
0.0092500001 -0.0074593457 -0.0041375002
-0.0074880952 0.014187383 -0.0087875007
0.0030833334 0.014772429 -0.021284375
-0.0083690472 -0.012724766 -0.010240626
0.0004404762 0.0054116822 -0.03261875
-0.0022023809 -0.014772429 -0.0012312501
0.003376984 0.01389486 -0.025062501
0.0036706349 -0.01389486 -0.025353126
0.0016150794 -0.01389486 -0.028550001
-0.00014682539 -0.012139719 -6.8750087e-05
-0.0089563495 -0.0097995326 -0.021575
0.0092500001 0.0021939252 -0.011984375
0.0089563495 0.007751869 -0.0099499999
0.0086626988 -0.011847196 -0.017215626
-0.0077817459 0.0016088785 -0.032909375
0.0092500001 0.0016088785 -0.0038468752
-0.00073412701 -0.007751869 -6.8750087e-05
-0.0010277778 -0.015064953 -0.0067531252
-0.00014682539 0.014479906 -6.8750087e-05
0.00073412701 0.013602336 -6.8750087e-05
-0.0092500001 0.0036565419 -0.02680625
-0.0089563495 -0.0068742987 -0.0096593751
0.00014682539 -0.0013163551 -6.8750087e-05
0.0024960318 0.011554672 -0.031746875
-0.0092500001 -0.0083369156 -0.005009375
-0.0086626988 0.0016088785 -0.00035937509
-0.0089563495 -0.0045341118 -0.028550001
-0.0027896825 0.015357477 -0.012275
0.0042579365 0.014772429 -6.8750087e-05
-0.0083690472 0.0036565419 -6.8750087e-05
-0.0054325396 0.015357477 -0.01053125
-0.0086626988 -0.011554672 -0.031165626
-0.0074880952 0.014187383 -0.011984375
-0.0092500001 -0.0027789718 -0.031165626
0.0057261903 -0.0016088785 -0.032909375
0.0016150794 0.01389486 -0.0297125
-0.0092500001 0.011554672 -0.0029750001
-0.0004404762 0.015064953 -0.015471876
-0.0092500001 0.0021939252 -0.0087875007
0.0010277778 -0.015064953 -0.0064625004
0.0027896825 -0.013602336 -0.031456251
0.0077817459 0.0021939252 -0.03261875
0.0089563495 -0.009214486 -0.020412501
0.0045515872 0.01565 -0.0067531252
0.0089563495 0.014772429 -0.0055906251
-0.0089563495 -0.0057042055 -0.017796876
-0.0030833334 0.015357477 -0.0093687503
0.0092500001 -0.00043878503 -0.00035937509
0.0022023809 -0.01565 -0.0053000003
-0.0074880952 -0.014772429 -0.012275
0.0013214286 0.015064953 -0.0090781255
-0.0092500001 -0.0057042055 -0.0084968749
-0.0030833334 -0.015064953 -0.022737501
-0.0039642858 -0.00073130842 -0.033199999
0.0092500001 0.0019014018 -0.027968751
-0.003376984 0.015357477 -0.012275
-0.0092500001 0.0033640186 -0.018087501
-0.0086626988 -0.0057042055 -0.00035937509
0.0013214286 0.0010238318 -0.033199999
-0.0074880952 0.01389486 -0.021865625
0.0092500001 -0.0016088785 -0.0035562501
-0.0074880952 -0.014772429 -0.018378126
0.0010277778 0.0080443919 -6.8750087e-05
-0.00073412701 0.015064953 -0.0157625
0.0054325396 -0.013017289 -0.031456251
-0.0057261903 -0.015357477 -0.014018751
-0.0092500001 -0.0071668224 -0.015471876
0.0086626988 -0.010384579 -0.00094062509
0.0089563495 0.0062892521 -0.025934376
0.0060198414 -0.011554672 -6.8750087e-05
0.0030833334 0.00043878503 -0.033199999
-0.0089563495 -0.009214486 -0.018087501
-0.0092500001 0.0021939252 -0.028840626
-0.0089563495 -0.0054116822 -0.020121876
-0.0042579365 0.01389486 -0.025353126
-0.0092500001 -0.00014626168 -0.0032656251
0.0066071427 0.0071668224 -6.8750087e-05
0.00073412701 -0.0033640186 -6.8750087e-05
-0.0063134921 -0.015064953 -0.017796876
0.003376984 0.015064953 -0.0021031252
0.0089563495 0.0071668224 -0.027968751
0.0024960318 0.0030714953 -6.8750087e-05
-0.0019087301 -0.0019014018 -0.032909375
-0.0083690472 -0.0048266356 -0.0021031252
0.0089563495 0.0083369156 -0.025353126
0.0089563495 -0.0057042055 -0.02680625
0.0036706349 -0.014479906 -0.024190625
-0.0074880952 -0.0042415885 -6.8750087e-05
-0.0071944445 -0.013309813 -0.025643751
-0.0048452383 0.015064953 -0.019540625
-0.00073412701 -0.0071668224 -6.8750087e-05
-0.003376984 -0.015357477 -0.010240626
0.0013214286 -0.015064953 -0.011984375
-0.0048452383 0.014479906 -0.0018125002
0.0013214286 -0.014187383 -0.025062501
0.00073412701 -0.015064953 -0.0134375
-0.0004404762 0.015064953 -0.0096593751
0.0092500001 -0.0027789718 -0.011693751
-0.0089563495 -0.014479906 -0.0021031252
-0.0089563495 0.0068742987 -0.031165626
-0.0089563495 0.0074593457 -0.023318751
-0.0092500001 -0.0033640186 -0.013728125
0.0027896825 -0.009214486 -6.8750087e-05
-0.0083690472 -0.012432243 -0.031165626
-0.0089563495 -0.009214486 -0.016634375
0.0074880952 -0.0048266356 -6.8750087e-05
0.0089563495 -0.0097995326 -0.0297125
0.0048452383 0.014772429 -0.00094062509
-0.0092500001 -0.00073130842 -0.02215625
-0.0074880952 0.013309813 -0.031746875
-0.0089563495 -0.0071668224 -0.0320375
-0.0019087301 -0.015064953 -0.0134375
0.0030833334 0.01389486 -0.026515625
-0.0016150794 0.0051191589 -6.8750087e-05
0.0089563495 0.0051191589 -0.0273875
-0.0042579365 -0.00043878503 -6.8750087e-05
0.0083690472 -0.015357477 -0.0035562501
0.0045515872 -0.0019014018 -6.8750087e-05
0.0077817459 -0.0086294394 -0.03261875
-0.0048452383 -0.0042415885 -6.8750087e-05
-0.0089563495 0.0051191589 -0.025934376
0.0089563495 0.0080443919 -0.030584376
-0.00073412701 -0.0019014018 -6.8750087e-05
0.0074880952 0.014187383 -0.019831251
-0.0083690472 -0.013017289 -0.0134375
0.0083690472 0.01389486 -0.018378126
0.0083690472 0.01389486 -0.018087501
0.0083690472 0.013602336 -0.013728125
-0.0069007939 0.014772429 -0.016634375
-0.0010277778 -0.0045341118 -6.8750087e-05
0.0089563495 0.010677103 -0.010821875
0.0086626988 -0.012724766 -0.0079156253
0.0036706349 0.01389486 -0.028840626
-0.0089563495 0.010677103 -0.012856251
-0.0080753965 -0.01389486 -0.0084968749
-0.0089563495 -0.0057042055 -0.018378126
0.005138889 0.013602336 -0.026225001
0.0057261903 0.014772429 -0.02215625
0.003376984 -0.0080443919 -0.032328125
-0.0083690472 0.011847196 -0.030875001
0.0092500001 -0.0065817754 -6.8750087e-05
0.0089563495 -0.0095070088 -0.028550001
0.0004404762 0.015064953 -0.0096593751
-0.0083690472 -0.012724766 -0.028840626
-0.0092500001 0.0030714953 -0.016925
-0.0089563495 0.0071668224 -0.02913125
0.0010277778 -0.0019014018 -6.8750087e-05
0.0074880952 -0.013602336 -0.0021031252
0.0092500001 0.009214486 -0.00704375
-0.0086626988 -0.011554672 -0.029421875
0.0077817459 -0.0062892521 0.001965625
0.0074880952 -0.0054116822 -0.032909375
0.0092500001 0.00073130842 -0.0073343753
0.0042579365 0.010384579 -0.0320375
-0.0092500001 -0.0045341118 -0.018378126
-0.0089563495 -0.0062892521 -0.0297125
0.0092500001 0.00043878503 -0.010240626
0.005138889 -0.015357477 -0.00035937509
-0.0092500001 -0.007751869 -0.0023937502
0.0083690472 -0.011847196 -0.029421875
0.0010277778 -0.0030714953 -6.8750087e-05
0.0077817459 0.0042415885 -6.8750087e-05
-0.0080753965 -0.014187383 -0.011693751
0.0013214286 0.0051191589 -0.03261875
0.0048452383 -0.015357477 -0.016925
-0.0092500001 -0.0083369156 -0.0038468752
0.0089563495 -0.0071668224 -0.02680625
-0.003376984 -0.015357477 -0.0099499999
-0.0013214286 -0.0065817754 -0.03261875
-0.0089563495 -0.0071668224 -0.020121876
0.0004404762 -0.0089219622 -6.8750087e-05
-0.0066071427 -0.0065817754 -0.03261875
-0.0089563495 0.0039490652 -0.0239
-0.0036706349 0.015357477 -0.011403126
-0.0092500001 -0.0019014018 -0.027968751
0.0013214286 0.01389486 -0.031165626
0.0092500001 0.0010238318 -0.018959375
0.0092500001 -0.0033640186 -0.005009375
-0.0086626988 -0.007751869 -0.0021031252
0.0016150794 0.0054116822 -6.8750087e-05
-0.0077817459 -0.0068742987 -0.03261875
0.0092500001 0.0062892521 -6.8750087e-05
0.0089563495 -0.0089219622 -0.027968751
-0.00073412701 0.014772429 -0.0021031252
0.0022023809 -0.010384579 -0.0320375
0.0089563495 -0.0074593457 -0.016053125
0.0048452383 0.01565 -0.0058812504
0.0045515872 -0.013602336 -0.026225001
-0.0092500001 -0.0036565419 -0.002684375
0.0083690472 -0.012724766 -0.020121876
0.0092500001 -0.009214486 -0.0061718752
0.0016150794 -0.0083369156 -6.8750087e-05
0.0048452383 -0.01126215 -0.0320375
0.0066071427 0.0030714953 -0.032909375
-0.0089563495 0.0083369156 -0.016634375
-0.0092500001 0.0010238318 -0.023028126
-0.0086626988 0.011847196 -0.016634375
-0.0027896825 -0.015357477 -0.002684375
-0.0092500001 0.0010238318 -0.01053125
-0.0092500001 0.012724766 -0.0053000003
0.0024960318 0.0036565419 -6.8750087e-05
-0.0027896825 -0.01389486 -0.026225001
0.0089563495 0.0051191589 -0.027678126
0.0080753965 0.01389486 -0.017796876
-0.0089563495 0.0062892521 -0.012856251
0.0071944445 -0.010677103 -6.8750087e-05
0.0071944445 0.014187383 -0.00035937509
0.0069007939 -0.013602336 -0.00065000012
0.0092500001 0.00043878503 -0.0029750001
-0.0074880952 -0.014479906 -0.015181251
0.0060198414 0.015064953 -0.0099499999
-0.0089563495 0.014772429 -0.0023937502
-0.0089563495 0.01126215 -0.011403126
-0.0027896825 0.015357477 -0.010821875
0.0092500001 -0.011554672 -0.0073343753
0.0024960318 -0.015357477 -0.0079156253
0.0024960318 -0.014772429 -0.0012312501
0.0083690472 -0.01389486 -0.012856251
0.0089563495 -0.0062892521 -0.030003125
0.0092500001 -0.00073130842 -0.018959375
-0.003376984 0.012724766 -6.8750087e-05
0.00073412701 0.015064953 -0.00035937509
0.0089563495 0.0057042055 -0.02680625
-0.00073412701 0.015064953 -0.011693751
0.0036706349 -0.0095070088 -0.0320375
0.0092500001 -0.0013163551 -0.0053000003
0.0045515872 0.015064953 -0.00065000012
-0.0039642858 -0.015357477 -0.011984375
-0.0036706349 0.014772429 -0.02215625
0.0092500001 0.00073130842 -0.026225001
-0.0036706349 0.015357477 -0.015471876
0.0092500001 0.0027789718 -0.032328125
-0.0060198414 0.015064953 -0.017506251
-0.0077817459 0.015357477 -0.0061718752
-0.0092500001 -0.0089219622 -0.0035562501
-0.003376984 0.01565 -0.0032656251
0.0086626988 -0.012139719 -0.010240626
0.0089563495 0.0068742987 -0.0239
-0.0042579365 -0.01389486 -0.0297125
-0.00014682539 -0.0045341118 -0.03261875
-0.0036706349 -0.01565 -0.0061718752
0.0042579365 -0.013309813 -6.8750087e-05
-0.0069007939 -0.014772429 -0.015471876
0.003376984 -0.01389486 -0.030003125
0.0092500001 -0.013309813 -0.0073343753
0.0010277778 0.0036565419 -6.8750087e-05
0.0089563495 -0.0083369156 -0.016053125
-0.0083690472 -0.01389486 -0.012856251
0.0092500001 0.0036565419 -0.02215625
-0.0092500001 -0.0039490652 -0.0035562501
-0.0036706349 0.01389486 -0.028550001
-0.0074880952 -0.0048266356 -6.8750087e-05
0.0083690472 -0.013309813 -0.020703126
-0.0080753965 -0.013309813 -0.02913125
0.0066071427 -0.014772429 -0.016925
0.0089563495 -0.010384579 -0.0157625
-0.0092500001 -0.0016088785 -0.016925
0.0092500001 0.0036565419 -0.031456251
-0.0030833334 0.0095070088 -0.0320375
-0.0074880952 0.014479906 -0.011403126
0.0074880952 0.014479906 -0.0087875007
-0.0092500001 0.013602336 -0.005009375
-0.0071944445 -0.0027789718 -0.03261875
0.0092500001 -0.0019014018 -0.01925
-0.0089563495 0.0057042055 -0.02448125
0.0089563495 -0.007751869 -0.025062501
-0.00073412701 -0.015064953 -0.018378126
-0.0089563495 -0.0083369156 -0.014018751
0.0063134921 0.0071668224 -0.03261875
-0.0092500001 -0.010384579 -0.0079156253
-0.0092500001 0.009214486 -0.0079156253
0.0092500001 -0.0013163551 -0.0084968749
-0.0074880952 0.014479906 -0.0067531252
-0.0089563495 0.0089219622 -0.020703126
0.0019087301 -0.013602336 -0.031456251
-0.0089563495 0.0089219622 -0.021865625
-0.0092500001 -0.0021939252 -0.004428125
-0.0092500001 -0.014187383 -0.0029750001
-0.0083690472 0.013309813 -0.019540625
-0.0045515872 0.012724766 -0.031456251
-0.0092500001 0.0048266356 -0.0041375002
-0.0063134921 -0.013017289 -0.03261875
-0.0045515872 0.010969626 -0.0320375
-0.0086626988 0.012432243 -0.016925
0.0086626988 0.00014626168 -0.03261875
0.0092500001 -0.0033640186 -0.021865625
0.0027896825 0.015357477 -0.00704375
0.00073412701 -0.015064953 -0.013728125
-0.00073412701 0.014479906 -0.020993751
0.0016150794 -0.014479906 -0.02448125
0.0019087301 0.0021939252 -0.032909375
0.0089563495 -0.0062892521 -0.0096593751
0.0092500001 0.0019014018 -0.013728125
-0.0060198414 -0.015064953 -0.0087875007
-0.005138889 0.013602336 -0.028259376
0.0092500001 -0.007751869 -0.0053000003
0.0042579365 -0.015064953 -0.020121876
0.0092500001 -0.00043878503 -0.030875001
0.0074880952 -0.010969626 -6.8750087e-05
0.0074880952 0.012724766 -6.8750087e-05
-0.0089563495 0.0054116822 -0.023028126
-0.0092500001 -0.011847196 -0.00704375
0.0092500001 -0.00073130842 -0.019831251
0.0089563495 -0.0065817754 -0.029421875
0.0042579365 -0.0089219622 -6.8750087e-05
-0.0019087301 0.009214486 -6.8750087e-05
-0.0066071427 -0.014772429 -0.023609376
-0.0057261903 0.013602336 -0.030003125
-0.0089563495 -0.0097995326 -0.0021031252
0.0089563495 0.0068742987 -0.01634375
0.0092500001 0.0083369156 -0.002684375
0.0092500001 0.00043878503 -0.002684375
0.0066071427 -0.014772429 -0.014309376
-0.0074880952 -0.012724766 -0.023609376
-0.0074880952 -0.0059967288 0.00051249994
0.0092500001 0.014187383 -0.0064625004
0.0092500001 0.0013163551 -0.0099499999
0.0089563495 -0.0097995326 -0.027968751
0.0089563495 0.0083369156 -0.021575
0.0092500001 -0.0030714953 -0.0064625004
-0.0092500001 -0.0021939252 -0.030875001
0.0080753965 0.013017289 -0.026225001
0.0004404762 -0.00043878503 -0.033199999
0.003376984 -0.00014626168 -6.8750087e-05
0.0089563495 -0.0080443919 -0.0297125
0.0083690472 0.009214486 -6.8750087e-05
-0.0083690472 0.012432243 -0.028259376
-0.0086626988 0.010384579 -0.031165626
0.0069007939 -0.00043878503 -0.0012312501
-0.0042579365 -0.011847196 -6.8750087e-05
-0.0089563495 0.007751869 -0.030875001
0.0089563495 -0.015064953 -0.0064625004
-0.0089563495 0.010969626 -0.017796876
0.0086626988 0.012139719 -0.010240626
0.0092500001 0.0027789718 -0.012275
0.0089563495 0.0080443919 -0.016925
0.0092500001 0.00014626168 -0.023318751
0.0083690472 -0.01389486 -0.022737501
-0.0089563495 -0.0051191589 -0.017506251
0.0016150794 -0.014772429 -0.0239
0.0069007939 0.0068742987 -6.8750087e-05
-0.0074880952 0.014187383 -0.0029750001
-0.0063134921 -0.011847196 -0.03261875
0.0074880952 -0.014187383 -0.016053125
-0.0004404762 -0.0074593457 -6.8750087e-05
-0.0089563495 -0.0039490652 -0.03261875
-0.0054325396 -0.014187383 -0.0012312501
-0.0060198414 0.011847196 -0.03261875
0.0092500001 -0.0021939252 -0.0111125
-0.0086626988 -0.010969626 -0.027096875
0.0089563495 -0.009214486 -0.026225001
-0.0071944445 0.0059967288 0.00051249994
0.0083690472 -0.009214486 -0.00035937509
-0.0039642858 -0.0021939252 -0.032909375
-0.0016150794 0.011847196 -6.8750087e-05
0.0089563495 -0.010384579 -0.0084968749
-0.0036706349 0.0097995326 -6.8750087e-05
-0.0004404762 0.0097995326 -0.0320375
0.0089563495 0.010384579 -0.0082062501
-0.0063134921 -0.013309813 -0.0320375
-0.0092500001 0.013309813 -0.0021031252
0.0089563495 -0.0062892521 -0.02215625
0.0074880952 0.013017289 -6.8750087e-05
0.0092500001 0.0033640186 -0.031456251
0.0069007939 0.013602336 -0.02680625
0.0013214286 -0.0013163551 -6.8750087e-05
-0.0089563495 0.0051191589 -0.020993751
0.0089563495 -0.009214486 -0.010821875
0.0074880952 -0.014479906 -0.015471876
-0.0066071427 -0.014772429 -0.021865625
-0.0069007939 -0.0048266356 -0.032909375
-0.0083690472 0.0086294394 -6.8750087e-05
-0.0089563495 0.010969626 -0.00035937509
-0.0024960318 -0.015357477 -0.00704375
0.0089563495 -0.0068742987 -0.014018751
0.0092500001 -0.012724766 -0.0055906251
0.0016150794 -0.014772429 -0.00094062509
