# .PCD v0.7 - Point Cloud Data file format
VERSION 0.7
FIELDS x y z
SIZE 4 4 4
TYPE F F F
COUNT 1 1 1
WIDTH 1232
HEIGHT 1
VIEWPOINT 0 0 0 1 0 0 0
POINTS 1232
DATA ascii
-0.034114152 -0.00127 -0.00018937506
-0.0073855384 0.00090714288 -0.00018937506
0.039741229 -0.00090714288 -0.00018937506
-0.03938954 0.00018142856 0.001228125
0.015122768 -0.00127 -0.00018937506
-0.041147999 -0.00127 -0.0019612501
0.013716 -0.00018142856 0.00051937497
0.043609846 -0.00127 -0.0016068751
0.041851383 0.00018142856 -0.0076312502
0.025321845 0.00090714288 -0.00018937506
0.031652305 0.00018142856 -0.005150625
0.04431323 0.00090714288 -0.0023156251
-0.0035169229 0.00018142856 -0.00018937506
-0.037631076 -0.00018142856 -0.0023156251
-0.02602523 0.00018142856 -0.00018937506
0.034114152 -0.00018142856 -0.00018937506
0.041851383 -0.00018142856 -0.0026700001
-0.0063304612 0.00018142856 -0.0069225002
-0.0070338459 0.00127 -0.00018937506
0.036575999 -0.00018142856 0.001228125
-0.011254153 -0.00018142856 0.00016499995
0 -0.00054428569 -0.00054375007
-0.0063304612 0.00018142856 -0.005150625
-0.041499693 0.00127 -0.00018937506
0.016529538 0.00018142856 -0.005859375
-0.0087923072 -0.00127 -0.0023156251
-0.044664923 0.00018142856 -0.006568125
0 -0.00127 -0.00054375007
-0.021804923 -0.00018142856 0.0015824999
-0.017936308 0.00127 -0.00089812506
0.014419384 -0.00090714288 -0.00018937506
0.034114152 0.00018142856 0.00087374996
-0.0021101539 -0.00127 -0.00018937506
-0.0056270766 -0.00127 -0.0023156251
-0.010902462 -0.00018142856 -0.00018937506
0.0080889231 -0.00054428569 -0.00054375007
-0.026728615 0.00018142856 0.00087374996
0.036927693 0.00018142856 -0.007276875
-0.020749846 0.00054428569 -0.0023156251
0.023211692 -0.00054428569 -0.0023156251
-0.0038686153 0.00018142856 -0.004441875
-0.036575999 0.00018142856 -0.00018937506
0.042203076 -0.00127 -0.0023156251
0.034465846 -0.00018142856 -0.005150625
-0.043258153 0.00127 -0.0012525001
-0.025673538 0.00054428569 -0.0023156251
-0.039037846 -0.00018142856 -0.0023156251
0.0045719999 0.00127 -0.0012525001
-0.0038686153 0.00018142856 -0.0026700001
0.04255477 0.00127 -0.00089812506
0.0035169229 -0.00127 -0.0019612501
-0.034465846 -0.00090714288 -0.00018937506
-0.015122768 0.00127 -0.00089812506
0.0014067692 0.00127 -0.0019612501
-0.032003999 0.00018142856 -0.007276875
0.018288 0.00127 -0.00018937506
0.0063304612 -0.00018142856 0.00087374996
-0.03938954 0.00054428569 -0.00054375007
-0.0087923072 0.00018142856 -0.0047962503
-0.03938954 0.00018142856 -0.0033787501
0.01969477 0.00090714288 -0.0023156251
0.033059075 -0.00090714288 -0.00018937506
-0.040092923 0.00127 -0.0019612501
-0.028487077 0.00127 -0.0016068751
-0.03938954 -0.00018142856 -0.0047962503
-0.023915077 0.00018142856 0.0015824999
-0.02602523 -0.00127 -0.0012525001
0.034817539 -0.00127 -0.0016068751
-0.011605846 0.00018142856 0.0019368749
-0.040444616 -0.00127 -0.00018937506
0.021804923 0.00054428569 -0.0023156251
0.030245537 -0.00127 -0.0016068751
-0.037279382 -0.00054428569 -0.00018937506
-0.011254153 -0.00018142856 -0.0047962503
0.031652305 -0.00018142856 0.0019368749
-0.027432 0.00127 -0.0023156251
-0.044664923 0.00054428569 -0.00054375007
-0.011605846 0.00018142856 0.00051937497
0.013716 0.00018142856 -0.0026700001
0.039741229 -0.00090714288 -0.0023156251
0.011605846 0.00018142856 -0.005150625
0.020749846 -0.00127 -0.0023156251
0.035872616 -0.00127 -0.0023156251
-0.013716 0.00018142856 -0.0069225002
0.017232923 0.00054428569 -0.0023156251
0.012660922 0.00127 -0.00089812506
-0.03938954 -0.00127 -0.00018937506
0.041499693 -0.00127 -0.0023156251
-0.027080307 0.00127 -0.0016068751
-0.040796306 0.00127 -0.00054375007
0.034465846 -0.00018142856 0.0015824999
0.03938954 0.00018142856 -0.0062137502
-0.032003999 -0.00018142856 -0.004441875
0.020046461 -0.00090714288 -0.00018937506
0.024266768 0.00018142856 -0.0030243751
-0.034114152 0.00127 -0.0019612501
0.035520922 -0.00127 -0.00089812506
-0.011254153 0.00018142856 0.00229125
-0.027080307 -0.00127 -0.0012525001
-0.02145323 0.00018142856 0.00051937497
0.022156615 -0.00127 -0.0023156251
0.041851383 0.00018142856 -0.00018937506
0.028487077 0.00127 -0.0019612501
0.023915077 -0.00018142856 -0.0055050002
0.037982769 0.00018142856 -0.0023156251
-0.03059723 -0.00054428569 -0.0023156251
-0.0017584615 -0.00127 -0.0016068751
-0.0063304612 0.00018142856 0.00087374996
0.016529538 0.00018142856 -0.00018937506
-0.029542154 -0.00127 -0.00018937506
0.0014067692 -0.00018142856 -0.0026700001
-0.034465846 0.00054428569 -0.00054375007
-0.018991385 0.00127 -0.0023156251
0.02602523 0.00090714288 -0.0023156251
-0.016529538 -0.00018142856 -0.0026700001
-0.013716 -0.00054428569 -0.0023156251
-0.036224306 0.00127 -0.0023156251
-0.023211692 -0.00127 -0.00054375007
0.017936308 -0.00054428569 -0.00054375007
0.017936308 0.00018142856 -0.0023156251
0.01969477 -0.00127 -0.00054375007
0.016881231 -0.00054428569 -0.00054375007
0.025673538 -0.00127 -0.00089812506
-0.037631076 -0.00127 -0.00054375007
0.034114152 -0.00018142856 0.00087374996
-0.011605846 0.00018142856 0.0015824999
0.036224306 0.00127 -0.0016068751
-0.022508306 0.00127 -0.0012525001
0.014067692 -0.00018142856 -0.007276875
0.036224306 -0.00090714288 -0.00018937506
-0.012660922 0.00054428569 -0.00054375007
0.00070338458 0.00127 -0.00054375007
0.027080307 0.00018142856 -0.00018937506
-0.025321845 0.00054428569 -0.0023156251
0.034817539 -0.00054428569 -0.0023156251
0.024266768 -0.00018142856 -0.005150625
-0.0087923072 -0.00018142856 -0.006568125
-0.020398153 0.00127 -0.0012525001
-0.030245537 0.00054428569 -0.00054375007
-0.0077372305 -0.00054428569 -0.0023156251
0.0073855384 -0.00127 -0.0019612501
-0.04255477 -0.00127 -0.0023156251
0.023915077 0.00090714288 -0.00018937506
-0.034114152 0.00018142856 0.00051937497
-0.014771077 0.00018142856 -0.0023156251
-0.001055077 0.00018142856 -0.006568125
0.021101538 -0.00127 -0.00054375007
0.02919046 0.00018142856 -0.004441875
-0.04431323 0.00018142856 -0.003733125
-0.0094956923 0.00127 -0.00054375007
0.011605846 -0.00127 -0.0019612501
0.016529538 -0.00018142856 0.00016499995
-0.0021101539 0.00127 -0.00018937506
-0.0014067692 0.00127 -0.0019612501
-0.035872616 0.00127 -0.00018937506
0.018639691 -0.00054428569 -0.0023156251
-0.023915077 0.00018142856 -0.005150625
0.021101538 0.00127 -0.0016068751
0.0063304612 0.00018142856 -0.0047962503
-0.00070338458 -0.00127 -0.0016068751
-0.031300616 0.00127 -0.00018937506
0.026728615 -0.00018142856 -0.0076312502
0.0014067692 -0.00018142856 -0.00018937506
0.0063304612 0.00018142856 -0.0030243751
0.0035169229 -0.00018142856 -0.007276875
-0.014067692 0.00018142856 0.001228125
0.0091439998 0.00127 -0.00018937506
0.04255477 -0.00127 -0.0019612501
-0.019343076 -0.00127 -0.0019612501
-0.045368306 0.00090714288 -0.0012525001
-0.019343076 -0.00054428569 -0.0023156251
0.02919046 -0.00127 -0.00089812506
0.0094956923 -0.00127 -0.0023156251
0.04431323 0.00018142856 -0.0033787501
0.026376922 -0.00127 -0.00089812506
0.014419384 0.00090714288 -0.0023156251
0.010902462 -0.00127 -0.0012525001
-0.023563385 0.00127 -0.0016068751
0.028487077 -0.00054428569 -0.0023156251
-0.035169229 0.00018142856 -0.0023156251
-0.041851383 0.00018142856 -0.0076312502
-0.0014067692 -0.00018142856 -0.0047962503
-0.02919046 -0.00090714288 -0.00018937506
-0.026728615 0.00018142856 0.00016499995
0.011605846 -0.00018142856 0.0015824999
0.035169229 -0.00090714288 -0.00018937506
-0.0094956923 0.00018142856 -0.0023156251
-0.025673538 0.00127 -0.0012525001
-0.018288 0.00018142856 -0.00018937506
-0.011254153 0.00018142856 -0.0069225002
-0.024266768 -0.00018142856 -0.0033787501
-0.036927693 -0.00018142856 0.0019368749
-0.032003999 -0.00054428569 -0.0023156251
0.017936308 0.00127 -0.0012525001
-0.034465846 0.00018142856 -0.0033787501
-0.033410769 -0.00127 -0.0019612501
0.0073855384 0.00018142856 -0.00018937506
-0.0014067692 -0.00127 -0.0012525001
-0.020046461 0.00127 -0.00018937506
0.043961536 -0.00054428569 -0.0023156251
-0.034465846 0.00018142856 -0.0069225002
0.03938954 0.00018142856 -0.0076312502
0.041851383 -0.00018142856 -0.0062137502
-0.001055077 0.00018142856 0.00051937497
-0.0017584615 -0.00090714288 -0.0023156251
-0.0031652306 0.00018142856 -0.00018937506
-0.020749846 0.00090714288 -0.00018937506
0.015826153 -0.00127 -0.00018937506
-0.0056270766 0.00090714288 -0.0023156251
0.02145323 -0.00018142856 0.00087374996
0.014067692 0.00054428569 -0.00054375007
-0.026728615 0.00018142856 -0.00018937506
0.0087923072 -0.00018142856 -0.0030243751
0.0087923072 0.00018142856 0.0015824999
-0.016529538 0.00018142856 -0.003733125
0.0052753845 -0.00018142856 -0.0023156251
-0.021804923 0.00018142856 0.00051937497
0.037631076 -0.00054428569 -0.0023156251
-0.032003999 0.00018142856 -0.0030243751
-0.017584614 0.00090714288 -0.0023156251
0.04572 -0.00054428569 -0.0023156251
0.036927693 0.00018142856 0.00229125
0.015122768 -0.00090714288 -0.0023156251
-0.038334459 0.00127 -0.0023156251
0.024266768 -0.00018142856 -0.0033787501
0.020046461 -0.00127 -0.00054375007
0.011254153 -0.00018142856 -0.0055050002
-0.020398153 -0.00127 -0.0016068751
0.0056270766 0.00127 -0.0019612501
-0.025321845 0.00127 -0.00018937506
0.0098473849 0.00127 -0.0012525001
-0.0063304612 -0.00018142856 -0.004441875
0.013716 -0.00018142856 -0.0030243751
0.032003999 0.00090714288 -0.0023156251
0.043609846 -0.00054428569 -0.0023156251
-0.0084406156 0.00018142856 -0.00018937506
0.045368306 -0.00090714288 -0.0023156251
0.032707386 0.00127 -0.0016068751
0.026728615 0.00090714288 -0.00018937506
0.024266768 0.00018142856 -0.0040875003
-0.038686153 -0.00054428569 -0.00018937506
-0.012660922 -0.00054428569 -0.0023156251
-0.044664923 -0.00127 -0.00089812506
0.0017584615 0.00127 -0.0019612501
-0.0031652306 -0.00127 -0.00089812506
0.043961536 -0.00127 -0.00089812506
0.0073855384 -0.00090714288 -0.0023156251
-0.033410769 -0.00127 -0.0016068751
-0.035872616 0.00090714288 -0.0023156251
-0.027432 0.00090714288 -0.0023156251
0.0087923072 -0.00018142856 -0.0033787501
-0.020398153 -0.00018142856 -0.00018937506
0.01969477 -0.00127 -0.0023156251
-0.024266768 0.00018142856 -0.006568125
0.037982769 -0.00127 -0.00018937506
0.034465846 -0.00018142856 0.00229125
-0.016177846 -0.00127 -0.0023156251
0.0038686153 -0.00018142856 -0.0076312502
0.040796306 -0.00054428569 -0.00054375007
-0.0063304612 0.00127 -0.0019612501
-0.023915077 -0.00127 -0.0016068751
-0.013364308 -0.00054428569 -0.0023156251
-0.032003999 0.00018142856 -0.004441875
-0.013012615 0.00127 -0.00089812506
-0.0042203078 0.00127 -0.0019612501
-0.020046461 -0.00127 -0.0016068751
0.040092923 -0.00018142856 -0.0023156251
0.02919046 0.00018142856 0.0019368749
-0.027783692 0.00127 -0.00018937506
0.0087923072 0.00018142856 -0.0030243751
-0.020398153 -0.00018142856 -0.0023156251
0.01969477 -0.00054428569 -0.00054375007
0.034465846 -0.00018142856 -0.005859375
0.029893845 -0.00127 -0.0019612501
0.0059787692 -0.00127 -0.00018937506
-0.044664923 0.00018142856 -0.0055050002
0.023211692 -0.00127 -0.0023156251
0.018639691 -0.00127 -0.0016068751
0.041851383 -0.00018142856 -0.0047962503
-0.026728615 0.00127 -0.0016068751
0.023915077 -0.00127 -0.0023156251
0.0073855384 0.00018142856 -0.0023156251
-0.036224306 0.00127 -0.0016068751
0.013716 0.00090714288 -0.0023156251
0.011605846 0.00018142856 -0.0069225002
-0.013716 0.00018142856 -0.0047962503
0.02286 0.00127 -0.0023156251
0.038334459 -0.00127 -0.0016068751
-0.035872616 0.00127 -0.0023156251
0.03938954 -0.00018142856 0.002645625
0.013364308 -0.00090714288 -0.0023156251
0.0024618462 -0.00018142856 -0.00018937506
0.024970153 0.00127 -0.0023156251
0.045016613 0.00090714288 -0.00018937506
-0.023915077 -0.00018142856 -0.0076312502
0 0.00127 -0.00054375007
-0.03938954 0.00018142856 -0.006568125
0.016177846 -0.00127 -0.00089812506
0.0077372305 0.00054428569 -0.0023156251
-0.035872616 -0.00127 -0.0012525001
-0.011957538 -0.00090714288 -0.00018937506
-0.04431323 0.00018142856 -0.0026700001
-0.031652305 0.00127 -0.00018937506
0.014067692 0.00054428569 -0.0023156251
0.036927693 -0.00018142856 -0.0040875003
0.0080889231 0.00127 -0.00054375007
-0.018991385 0.00018142856 -0.0047962503
0.03938954 0.00127 -0.0016068751
-0.018991385 0.00018142856 -0.0062137502
0.0063304612 0.00018142856 0.00229125
-0.045016613 0.00127 -0.00089812506
0.011254153 -0.00127 -0.0023156251
-0.001055077 0.00090714288 -0.00018937506
-0.028838769 -0.00127 -0.0016068751
-0.0070338459 -0.00127 -0.00054375007
0.040796306 0.00054428569 -0.00054375007
0.0021101539 0.00127 -0.0012525001
-0.036927693 0.00054428569 -0.00054375007
-0.0063304612 -0.00018142856 -0.00018937506
-0.034465846 -0.00018142856 0.001228125
0.02145323 -0.00127 -0.00054375007
-0.012660922 -0.00090714288 -0.0023156251
-0.029893845 0.00090714288 -0.0023156251
0.031652305 -0.00018142856 0.00016499995
0.014771077 -0.00127 -0.0016068751
-0.0052753845 -0.00127 -0.0016068751
0.034114152 0.00018142856 -0.0069225002
-0.02145323 -0.00018142856 0.001228125
-0.04431323 0.00054428569 -0.00054375007
0.010199076 0.00127 -0.00089812506
0.0070338459 -0.00127 -0.0023156251
-0.025321845 -0.00054428569 -0.0023156251
0.030948922 -0.00054428569 -0.00054375007
0.034817539 -0.00090714288 -0.0023156251
-0.026728615 0.00054428569 -0.00054375007
-0.024266768 -0.00127 -0.00018937506
0.040092923 -0.00127 -0.00054375007
-0.033059075 -0.00127 -0.0019612501
0.016881231 0.00018142856 -0.00018937506
-0.0042203078 0.00054428569 -0.0023156251
-0.01969477 0.00054428569 -0.0023156251
-0.018639691 -0.00127 -0.00018937506
0.022508306 -0.00054428569 -0.0023156251
0.027080307 -0.00127 -0.0012525001
-0.031652305 0.00090714288 -0.00018937506
0.022508306 0.00018142856 -0.0023156251
0.0049236924 -0.00127 -0.00089812506
-0.016529538 -0.00018142856 0.002645625
-0.034114152 0.00018142856 -0.005859375
0.036575999 -0.00018142856 0.00051937497
0.011957538 0.00018142856 -0.0023156251
-0.026376922 0.00018142856 -0.00018937506
-0.034817539 0.00127 -0.00018937506
0.043609846 0.00054428569 -0.00054375007
0.018991385 0.00018142856 -0.006568125
-0.0031652306 0.00054428569 -0.0023156251
-0.00070338458 -0.00127 -0.0023156251
0.00070338458 -0.00054428569 -0.0023156251
0.013716 -0.00018142856 -0.006568125
-0.040092923 -0.00127 -0.0019612501
-0.0066821538 0.00127 -0.0023156251
0.023563385 -0.00054428569 -0.00054375007
-0.014067692 -0.00018142856 -0.004441875
0.0063304612 0.00054428569 -0.00054375007
0.045368306 0.00090714288 -0.00018937506
-0.023915077 -0.00018142856 -0.007276875
0.041851383 -0.00054428569 -0.00054375007
0.01969477 -0.00127 -0.0012525001
0.032355692 0.00054428569 -0.0023156251
-0.021101538 -0.00018142856 -0.0023156251
0.036927693 0.00127 -0.0019612501
0.024618462 0.00054428569 -0.0023156251
0.036927693 0.00127 -0.00018937506
0.03938954 0.00018142856 -0.005859375
-0.026728615 -0.00018142856 -0.005150625
-0.041499693 -0.00054428569 -0.0023156251
0.013716 -0.00018142856 -0.0040875003
-0.016529538 -0.00090714288 -0.0023156251
0.014067692 0.00018142856 -0.0076312502
-0.014771077 0.00127 -0.0012525001
0.013364308 -0.00127 -0.0012525001
-0.016177846 0.00090714288 -0.00018937506
-0.020749846 0.00018142856 -0.00018937506
-0.018991385 -0.00018142856 -0.0069225002
-0.04431323 -0.00018142856 0.00016499995
-0.014771077 0.00127 -0.0016068751
-0.032003999 0.00018142856 -0.003733125
0.0021101539 -0.00018142856 -0.0023156251
0.021101538 0.00054428569 -0.0023156251
0.04431323 -0.00018142856 -0.003733125
-0.02919046 0.00018142856 0.0015824999
-0.010199076 -0.00127 -0.0023156251
-0.0063304612 -0.00018142856 0.00016499995
-0.034114152 -0.00018142856 -0.0047962503
-0.014067692 0.00127 -0.0012525001
-0.041499693 -0.00127 -0.0012525001
0.032707386 -0.00127 -0.0016068751
0.034465846 0.00018142856 -0.0069225002
-0.001055077 -0.00018142856 -0.0055050002
0.027783692 -0.00127 -0.0023156251
-0.0017584615 0.00127 -0.0023156251
-0.001055077 0.00018142856 -0.003733125
-0.026728615 -0.00018142856 -0.0047962503
-0.041147999 -0.00054428569 -0.00018937506
0.011254153 0.00127 -0.00089812506
-0.0045719999 -0.00127 -0.0016068751
0.017232923 -0.00127 -0.0019612501
-0.03059723 -0.00127 -0.00054375007
0.0042203078 0.00127 -0.00018937506
0.037631076 0.00018142856 -0.00018937506
0.00070338458 0.00127 -0.0016068751
0.032707386 0.00127 -0.00018937506
0.0080889231 -0.00127 -0.00054375007
0.044664923 0.00127 -0.00054375007
0.029893845 0.00127 -0.0012525001
0.024970153 0.00127 -0.00018937506
-0.0024618462 0.00054428569 -0.00054375007
0.0024618462 0.00127 -0.00054375007
0.0080889231 -0.00127 -0.0012525001
0.034465846 0.00018142856 -0.004441875
0.036224306 0.00127 -0.00089812506
0.0028135383 -0.00054428569 -0.0023156251
0.037279382 -0.00127 -0.00054375007
0.037982769 -0.00018142856 -0.00018937506
-0.0066821538 -0.00127 -0.0023156251
-0.030245537 -0.00127 -0.0019612501
-0.036575999 0.00018142856 -0.0047962503
0.0021101539 -0.00054428569 -0.0023156251
0.018639691 -0.00127 -0.0023156251
-0.036575999 0.00018142856 0.00051937497
-0.02919046 -0.00018142856 -0.0033787501
0.042203076 0.00018142856 -0.006568125
-0.044664923 -0.00018142856 -0.0055050002
-0.014067692 -0.00054428569 -0.0023156251
-0.0014067692 0.00018142856 -0.0076312502
0.033762462 -0.00018142856 -0.00018937506
0.02602523 -0.00127 -0.00054375007
-0.045368306 -0.00090714288 -0.0012525001
-0.043258153 -0.00090714288 -0.00018937506
0.024970153 0.00090714288 -0.0023156251
0.0059787692 0.00127 -0.0012525001
-0.026728615 0.00127 -0.0019612501
-0.035169229 -0.00127 -0.0019612501
0.041851383 -0.00018142856 -0.006568125
0.031652305 0.00018142856 -0.004441875
-0.0031652306 0.00127 -0.0023156251
0.036927693 -0.00018142856 -0.003733125
0.020046461 0.00090714288 -0.00018937506
-0.013716 -0.00018142856 -0.0026700001
-0.013012615 0.00127 -0.00018937506
0.032355692 0.00127 -0.0016068751
-0.039741229 -0.00054428569 -0.00018937506
0.0059787692 -0.00127 -0.00089812506
0.0063304612 -0.00018142856 0.00051937497
0.04431323 -0.00018142856 -0.007276875
0.042203076 -0.00054428569 -0.00054375007
0.014419384 0.00054428569 -0.00054375007
-0.037982769 -0.00127 -0.0016068751
0.041851383 0.00018142856 0.00051937497
-0.036224306 0.00018142856 -0.00018937506
-0.019343076 0.00127 -0.00054375007
0.0038686153 -0.00018142856 -0.0033787501
0.017584614 0.00127 -0.00054375007
0.040092923 -0.00127 -0.0016068751
0.020046461 -0.00127 -0.0012525001
-0.026728615 -0.00127 -0.0012525001
-0.028135384 -0.00054428569 -0.0023156251
-0.016529538 0.00054428569 -0.0023156251
-0.014771077 -0.00127 -0.00089812506
-0.034465846 -0.00127 -0.00089812506
0.011605846 -0.00127 -0.0023156251
0.035520922 0.00127 -0.0023156251
-0.0028135383 -0.00018142856 -0.00018937506
0.04431323 -0.00127 -0.0012525001
0.00070338458 -0.00018142856 -0.00018937506
-0.033762462 -0.00127 -0.00018937506
-0.0087923072 -0.00054428569 -0.00054375007
-0.018991385 -0.00127 -0.00018937506
0.0038686153 -0.00018142856 -0.004441875
-0.04255477 -0.00090714288 -0.0023156251
0.030245537 -0.00090714288 -0.00018937506
-0.0087923072 0.00018142856 0.0015824999
0.016529538 -0.00054428569 -0.00054375007
-0.023915077 0.00018142856 0.00229125
-0.013716 0.00127 -0.0012525001
-0.0091439998 0.00018142856 0.00016499995
0.023211692 0.00018142856 -0.0023156251
0.014067692 0.00127 -0.0023156251
-0.032003999 -0.00018142856 -0.0055050002
-0.031652305 0.00127 -0.0012525001
0.0098473849 0.00054428569 -0.0023156251
-0.022156615 -0.00054428569 -0.0023156251
0.021804923 0.00018142856 -0.0055050002
-0.032355692 -0.00127 -0.0016068751
-0.024266768 0.00018142856 -0.0040875003
0.014419384 -0.00127 -0.0023156251
-0.034465846 -0.00018142856 0.00229125
0.018991385 -0.00127 -0.0016068751
0.013364308 0.00054428569 -0.00054375007
0.0035169229 -0.00018142856 -0.0023156251
0.041499693 -0.00054428569 -0.00054375007
-0.023915077 0.00127 -0.00018937506
0.041499693 0.00127 -0.00054375007
-0.0063304612 0.00018142856 -0.006568125
-0.0038686153 0.00018142856 0.001228125
0.036927693 -0.00090714288 -0.00018937506
0.03938954 0.00127 -0.0023156251
-0.011605846 0.00127 -0.0012525001
-0.011254153 0.00018142856 -0.005859375
0.013716 -0.00018142856 -0.0033787501
0.021804923 -0.00018142856 -0.0030243751
-0.001055077 0.00018142856 -0.0047962503
-0.0063304612 -0.00127 -0.0012525001
0.03938954 -0.00090714288 -0.00018937506
-0.04431323 -0.00018142856 -0.0040875003
-0.020749846 -0.00018142856 -0.00018937506
0.0017584615 -0.00127 -0.00089812506
-0.042203076 0.00018142856 -0.0023156251
-0.0073855384 0.00127 -0.0012525001
0.0077372305 -0.00054428569 -0.0023156251
-0.0098473849 0.00054428569 -0.00054375007
-0.023915077 0.00018142856 -0.003733125
0.0042203078 -0.00054428569 -0.0023156251
-0.024618462 -0.00090714288 -0.00018937506
-0.04431323 0.00127 -0.00018937506
-0.011254153 -0.00018142856 -0.007276875
-0.03938954 0.00018142856 0.002645625
0.0070338459 0.00127 -0.00054375007
-0.0087923072 0.00018142856 -0.007276875
-0.018991385 -0.00018142856 0.00087374996
0.031652305 0.00018142856 -0.0033787501
0.024618462 -0.00018142856 -0.00018937506
-0.027783692 -0.00054428569 -0.0023156251
0.04255477 0.00018142856 -0.00018937506
0.0049236924 -0.00090714288 -0.0023156251
0.001055077 -0.00018142856 -0.0076312502
-0.035872616 0.00054428569 -0.0023156251
-0.045016613 0.00127 -0.0016068751
-0.033059075 -0.00054428569 -0.0023156251
0.04431323 0.00018142856 0.001228125
0.016177846 -0.00090714288 -0.00018937506
0.0028135383 -0.00127 -0.0012525001
0.018991385 0.00127 -0.00018937506
0.036224306 0.00054428569 -0.0023156251
0.025673538 0.00127 -0.0016068751
0.045368306 -0.00054428569 -0.00054375007
-0.02286 0.00127 -0.0019612501
-0.022508306 -0.00018142856 -0.0023156251
0.025673538 -0.00127 -0.00054375007
-0.0098473849 -0.00054428569 -0.00054375007
0.014067692 -0.00018142856 0.002645625
-0.012309231 -0.00090714288 -0.00018937506
0.018288 0.00054428569 -0.00054375007
-0.0056270766 0.00018142856 -0.00018937506
0.023211692 0.00090714288 -0.00018937506
-0.04572 0.00018142856 -0.0016068751
0.043258153 -0.00018142856 -0.0023156251
-0.040092923 0.00127 -0.0016068751
0.0059787692 0.00018142856 -0.0023156251
-0.02145323 0.00018142856 -0.0069225002
0.020398153 -0.00090714288 -0.00018937506
-0.02919046 0.00018142856 -0.006568125
-0.033410769 -0.00127 -0.00054375007
-0.036575999 0.00054428569 -0.00054375007
-0.016529538 -0.00018142856 0.00087374996
0.012660922 -0.00127 -0.0023156251
0.025321845 -0.00018142856 -0.0023156251
-0.023915077 -0.00127 -0.0012525001
-0.021804923 -0.00018142856 -0.0069225002
-0.032003999 0.00018142856 -0.0069225002
-0.015826153 0.00127 -0.00054375007
0.030245537 0.00127 -0.00089812506
-0.034114152 0.00018142856 -0.0047962503
0.0091439998 0.00127 -0.00089812506
0.011605846 0.00018142856 0.00051937497
-0.027080307 0.00090714288 -0.0023156251
-0.0017584615 0.00127 -0.0016068751
-0.026376922 0.00018142856 -0.0023156251
0.013716 -0.00127 -0.00054375007
-0.0014067692 0.00018142856 -0.007276875
0.02919046 -0.00127 -0.00054375007
-0.035520922 0.00054428569 -0.00054375007
0.02919046 0.00018142856 -0.005150625
-0.0052753845 0.00127 -0.0016068751
0.041499693 0.00018142856 -0.0023156251
-0.031652305 0.00018142856 -0.0076312502
0.013364308 -0.00127 -0.00018937506
-0.011254153 -0.00127 -0.00054375007
0.0028135383 0.00054428569 -0.00054375007
-0.015122768 -0.00054428569 -0.00054375007
0.0038686153 -0.00127 -0.0023156251
-0.035520922 0.00127 -0.0016068751
0.0098473849 0.00090714288 -0.0023156251
-0.0014067692 -0.00018142856 0.00051937497
0.021804923 0.00127 -0.00054375007
0.016177846 -0.00127 -0.00018937506
0.0077372305 -0.00127 -0.00054375007
0.02145323 -0.00018142856 -0.005150625
-0.038686153 0.00054428569 -0.0023156251
0.00070338458 -0.00127 -0.00018937506
0.038334459 -0.00090714288 -0.00018937506
-0.0052753845 -0.00090714288 -0.00018937506
0.013364308 -0.00127 -0.0019612501
-0.016529538 0.00018142856 0.001228125
-0.034114152 0.00127 -0.00054375007
-0.020398153 0.00127 -0.00054375007
0.024970153 -0.00127 -0.0016068751
0.044664923 0.00018142856 -0.003733125
0.036927693 -0.00018142856 -0.006568125
-0.031652305 0.00127 -0.0019612501
0.0073855384 0.00090714288 -0.00018937506
0.013012615 0.00127 -0.00018937506
0.0098473849 -0.00127 -0.00018937506
-0.03938954 -0.00018142856 0.00051937497
0.036927693 -0.00018142856 -0.0047962503
-0.0063304612 -0.00018142856 -0.005150625
-0.040796306 -0.00090714288 -0.0023156251
-0.02919046 0.00090714288 -0.0023156251
0.021101538 0.00090714288 -0.00018937506
-0.043961536 -0.00054428569 -0.0023156251
0.0038686153 -0.00127 -0.00018937506
0.045368306 -0.00054428569 -0.0023156251
-0.033762462 0.00127 -0.0019612501
0.0094956923 0.00054428569 -0.0023156251
0.0024618462 -0.00090714288 -0.0023156251
-0.022508306 -0.00127 -0.00018937506
0.0070338459 -0.00127 -0.0019612501
-0.00035169229 0.00127 -0.0016068751
-0.0066821538 0.00018142856 -0.00018937506
-0.042203076 0.00127 -0.00018937506
0.0014067692 -0.00054428569 -0.00054375007
-0.043609846 -0.00127 -0.00089812506
-0.0073855384 0.00127 -0.0019612501
-0.016529538 -0.00127 -0.0023156251
0.036927693 -0.00018142856 0.002645625
0.0035169229 -0.00127 -0.0016068751
-0.013012615 0.00090714288 -0.00018937506
0.02602523 -0.00127 -0.0019612501
0.0014067692 -0.00127 -0.0019612501
0.028487077 -0.00127 -0.0023156251
0.018991385 -0.00018142856 0.00229125
-0.035169229 -0.00018142856 -0.00018937506
-0.001055077 -0.00018142856 -0.003733125
-0.0049236924 0.00127 -0.0012525001
0.0024618462 -0.00127 -0.0012525001
0.016529538 -0.00018142856 0.00229125
-0.020046461 0.00127 -0.00054375007
0.043258153 0.00127 -0.0023156251
0.04431323 -0.00018142856 -0.0040875003
-0.0042203078 0.00127 -0.0023156251
0.018991385 0.00018142856 -0.0033787501
0.014771077 0.00090714288 -0.00018937506
0 0.00127 -0.0023156251
0.045016613 0.00127 -0.00089812506
-0.027432 -0.00127 -0.0012525001
-0.00070338458 -0.00054428569 -0.0023156251
0.001055077 -0.00018142856 0.0019368749
0.037982769 -0.00127 -0.0023156251
0.021804923 0.00018142856 0.001228125
-0.018288 0.00127 -0.00018937506
0.0059787692 0.00054428569 -0.0023156251
0.028135384 0.00127 -0.00089812506
0.045368306 -0.00090714288 -0.0019612501
0.035169229 0.00018142856 -0.00018937506
0.014771077 0.00054428569 -0.0023156251
0.040092923 0.00054428569 -0.00054375007
-0.029893845 0.00127 -0.0023156251
-0.020046461 0.00090714288 -0.0023156251
0.011605846 -0.00018142856 -0.003733125
-0.019343076 0.00127 -0.0019612501
-0.035520922 0.00090714288 -0.0023156251
-0.039741229 0.00054428569 -0.00054375007
-0.02286 0.00127 -0.00054375007
0.03938954 0.00054428569 -0.00054375007
-0.0049236924 0.00127 -0.00018937506
-0.0073855384 -0.00127 -0.00054375007
-0.024618462 0.00127 -0.00054375007
-0.036927693 0.00018142856 -0.0030243751
0.036575999 0.00127 -0.0016068751
-0.028838769 0.00090714288 -0.0023156251
0.02919046 0.00018142856 -0.0040875003
-0.0080889231 0.00018142856 -0.0023156251
0.011605846 0.00127 -0.00054375007
-0.041147999 -0.00127 -0.00018937506
0.012309231 0.00018142856 -0.0023156251
-0.011605846 -0.00018142856 -0.0069225002
-0.013364308 -0.00127 -0.0012525001
0.027080307 -0.00054428569 -0.0023156251
0.034817539 0.00127 -0.0023156251
0.0084406156 0.00127 -0.0012525001
0.017584614 0.00127 -0.00018937506
-0.011254153 0.00127 -0.0012525001
0.02602523 -0.00090714288 -0.00018937506
0.0028135383 0.00127 -0.0016068751
0.014771077 0.00127 -0.0016068751
0.036927693 -0.00127 -0.00089812506
0.038334459 0.00018142856 -0.00018937506
-0.040796306 -0.00054428569 -0.00018937506
0.038334459 0.00127 -0.00018937506
0.04572 -0.00018142856 -0.00018937506
0.0087923072 0.00127 -0.00089812506
-0.0031652306 0.00127 -0.00054375007
-0.001055077 0.00090714288 -0.0023156251
0.033059075 0.00090714288 -0.0023156251
0.013716 -0.00018142856 0.00087374996
-0.025673538 -0.00090714288 -0.00018937506
-0.016881231 -0.00127 -0.0016068751
0.0028135383 -0.00127 -0.0023156251
-0.039037846 -0.00127 -0.0016068751
0.0091439998 0.00127 -0.0019612501
-0.034465846 0.00127 -0.0023156251
-0.0094956923 -0.00127 -0.00054375007
-0.0087923072 -0.00018142856 -0.00018937506
-0.0091439998 0.00090714288 -0.0023156251
0.024618462 0.00127 -0.00089812506
-0.019343076 -0.00127 -0.0023156251
0.034465846 0.00018142856 0.00051937497
-0.00035169229 -0.00127 -0.00018937506
0.011254153 -0.00127 -0.00054375007
-0.043609846 -0.00127 -0.0016068751
0.044664923 0.00018142856 -0.0055050002
-0.0087923072 -0.00018142856 -0.005150625
-0.015826153 -0.00054428569 -0.00054375007
-0.013716 0.00127 -0.00089812506
-0.040796306 -0.00018142856 -0.00018937506
0.00035169229 -0.00054428569 -0.00054375007
-0.037631076 -0.00127 -0.0023156251
-0.0017584615 -0.00127 -0.00089812506
-0.044664923 0.00018142856 0.00051937497
-0.023915077 -0.00018142856 0.0015824999
0.034817539 -0.00054428569 -0.00054375007
-0.022508306 0.00054428569 -0.0023156251
-0.023211692 -0.00054428569 -0.00018937506
-0.024618462 -0.00127 -0.0023156251
0.0073855384 0.00127 -0.0019612501
0.033410769 -0.00018142856 -0.0023156251
-0.0014067692 -0.00018142856 0.00087374996
0.0063304612 -0.00018142856 -0.0069225002
0.013012615 0.00018142856 -0.0023156251
-0.015474461 -0.00127 -0.00054375007
-0.016177846 0.00127 -0.00089812506
-0.023915077 0.00018142856 0.00087374996
-0.014419384 0.00127 -0.0012525001
0 -0.00127 -0.0012525001
-0.016529538 -0.00127 -0.00054375007
-0.022156615 0.00054428569 -0.0023156251
0.0073855384 -0.00054428569 -0.00054375007
-0.030948922 0.00127 -0.0019612501
-0.010550769 0.00018142856 -0.00018937506
-0.026728615 0.00018142856 -0.0069225002
0.043258153 -0.00127 -0.00018937506
0.014067692 -0.00018142856 0.001228125
-0.0059787692 0.00127 -0.00054375007
0.045016613 0.00127 -0.0019612501
-0.025673538 -0.00090714288 -0.0023156251
-0.041499693 0.00127 -0.0016068751
-0.016177846 -0.00127 -0.0016068751
-0.032003999 -0.00018142856 -0.006568125
0.034114152 0.00127 -0.0023156251
0.041851383 0.00018142856 -0.0040875003
0.038686153 -0.00127 -0.0016068751
-0.024266768 -0.00127 -0.0023156251
0.0045719999 -0.00127 -0.00054375007
0.016529538 0.00018142856 0.00087374996
-0.02145323 0.00018142856 -0.0040875003
-0.045016613 -0.00054428569 -0.00018937506
-0.034114152 -0.00018142856 -0.0033787501
0.011605846 0.00018142856 -0.0047962503
-0.020749846 -0.00127 -0.0016068751
0.036927693 0.00018142856 0.00051937497
0.013716 0.00018142856 -0.007276875
-0.041851383 -0.00018142856 -0.0069225002
0.045016613 0.00127 -0.0016068751
-0.018639691 0.00127 -0.0016068751
-0.0087923072 0.00018142856 -0.0033787501
-0.0035169229 0.00127 -0.00054375007
0.0087923072 0.00018142856 -0.003733125
-0.014067692 0.00018142856 -0.00018937506
0.02145323 -0.00054428569 -0.00054375007
-0.024618462 -0.00127 -0.0016068751
0.04431323 0.00127 -0.00089812506
-0.0042203078 -0.00054428569 -0.0023156251
0.035169229 0.00054428569 -0.00054375007
0.0035169229 0.00127 -0.00089812506
0.02286 0.00127 -0.00018937506
-0.041851383 -0.00018142856 0.001228125
-0.029893845 0.00127 -0.0019612501
-0.021804923 -0.00018142856 -0.007276875
0.040092923 -0.00018142856 -0.00018937506
0.020046461 0.00127 -0.0023156251
0.041499693 -0.00018142856 -0.0023156251
0.026728615 0.00018142856 -0.0026700001
-0.012660922 -0.00054428569 -0.00054375007
0.037631076 -0.00127 -0.00018937506
-0.044664923 0.00127 -0.0012525001
-0.0087923072 0.00090714288 -0.0023156251
-0.018639691 0.00018142856 -0.0023156251
0.013716 0.00054428569 -0.0023156251
-0.044664923 -0.00018142856 -0.007276875
0.0080889231 -0.00018142856 -0.00018937506
-0.043961536 -0.00127 -0.0023156251
-0.041851383 -0.00018142856 0.0015824999
-0.0031652306 0.00018142856 -0.0023156251
0.0042203078 0.00090714288 -0.0023156251
0.014067692 -0.00127 -0.00018937506
-0.028487077 -0.00018142856 -0.0023156251
0.0028135383 0.00127 -0.00089812506
-0.04572 0.00054428569 -0.0019612501
0.026728615 0.00018142856 0.0019368749
0.0031652306 -0.00090714288 -0.0023156251
-0.022508306 0.00090714288 -0.00018937506
-0.0094956923 0.00054428569 -0.0023156251
-0.00035169229 0.00127 -0.0012525001
-0.024266768 0.00018142856 -0.0076312502
-0.036575999 -0.00018142856 0.00051937497
0.0063304612 -0.00018142856 -0.005150625
-0.0066821538 -0.00054428569 -0.0023156251
-0.027783692 0.00054428569 -0.0023156251
-0.014771077 0.00090714288 -0.00018937506
0.040444616 0.00090714288 -0.00018937506
0.037982769 0.00127 -0.0019612501
-0.013716 0.00018142856 -0.0076312502
-0.016881231 -0.00127 -0.00089812506
0.011254153 -0.00018142856 -0.0076312502
0.0066821538 0.00018142856 -0.00018937506
0.021804923 0.00018142856 0.00087374996
0.016529538 -0.00018142856 -0.007276875
0.0035169229 0.00018142856 0.00051937497
-0.036224306 -0.00090714288 -0.00018937506
0.044664923 0.00127 -0.0023156251
0.03938954 -0.00127 -0.00018937506
-0.041499693 -0.00127 -0.00089812506
-0.012309231 -0.00127 -0.00018937506
-0.0063304612 -0.00018142856 0.00087374996
0.0070338459 -0.00127 -0.00089812506
0.042203076 -0.00018142856 -0.00018937506
0.0024618462 0.00018142856 -0.0023156251
-0.02145323 -0.00018142856 0.00087374996
-0.011254153 0.00018142856 -0.0062137502
-0.025673538 -0.00127 -0.0019612501
0.012309231 0.00127 -0.00018937506
-0.013716 0.00018142856 -0.00018937506
-0.033762462 -0.00054428569 -0.00018937506
0.037631076 -0.00127 -0.0023156251
0.021804923 0.00018142856 -0.0076312502
-0.0059787692 0.00054428569 -0.0023156251
0.026376922 -0.00127 -0.00018937506
-0.042203076 0.00127 -0.0019612501
-0.037982769 -0.00054428569 -0.00018937506
-0.015826153 0.00127 -0.0019612501
-0.020749846 -0.00127 -0.00054375007
-0.011957538 0.00054428569 -0.00054375007
0.0063304612 -0.00018142856 0.0019368749
0.0035169229 0.00018142856 -0.0040875003
-0.013012615 -0.00127 -0.0012525001
0.013012615 0.00127 -0.0019612501
0.041499693 -0.00054428569 -0.0023156251
0.017936308 0.00127 -0.0016068751
0.025321845 -0.00127 -0.00054375007
0.011254153 -0.00054428569 -0.0023156251
-0.037279382 0.00054428569 -0.0023156251
-0.040444616 0.00127 -0.0023156251
-0.015474461 0.00127 -0.00018937506
0.034114152 0.00054428569 -0.0023156251
0.024266768 0.00018142856 0.00087374996
-0.011605846 0.00018142856 0.001228125
0.030948922 -0.00127 -0.0012525001
-0.04431323 0.00090714288 -0.00018937506
0.023915077 0.00018142856 -0.0023156251
0.017584614 -0.00127 -0.0023156251
0.03938954 -0.00018142856 0.00087374996
-0.041499693 0.00018142856 -0.00018937506
0.043961536 -0.00127 -0.00054375007
0.04431323 -0.00018142856 -0.0069225002
-0.0049236924 0.00127 -0.00054375007
0.018991385 -0.00018142856 0.0015824999
-0.019343076 -0.00018142856 0.00229125
0.010199076 -0.00018142856 -0.0023156251
-0.040092923 0.00127 -0.00018937506
-0.034817539 -0.00127 -0.0016068751
0.013364308 0.00127 -0.0023156251
0.036575999 0.00018142856 -0.0040875003
0.028135384 -0.00127 -0.0023156251
0.030948922 -0.00018142856 -0.0023156251
-0.034817539 -0.00127 -0.00054375007
0.011957538 0.00054428569 -0.00054375007
0.010550769 -0.00054428569 -0.00054375007
0.026728615 0.00018142856 -0.00018937506
0.023563385 0.00127 -0.0016068751
-0.023915077 -0.00018142856 -0.005859375
-0.020398153 0.00054428569 -0.0023156251
-0.040796306 -0.00127 -0.00018937506
-0.044664923 0.00127 -0.00018937506
-0.0042203078 -0.00127 -0.0016068751
-0.010550769 -0.00054428569 -0.0023156251
0.040444616 -0.00127 -0.0019612501
-0.0087923072 0.00018142856 -0.005150625
-0.03938954 -0.00018142856 -0.007276875
-0.027432 -0.00127 -0.00054375007
0 0.00127 -0.0019612501
-0.026376922 0.00090714288 -0.0023156251
0.033059075 0.00127 -0.00018937506
0.043961536 0.00018142856 -0.00018937506
-0.035169229 0.00018142856 -0.00018937506
0.0014067692 0.00018142856 0.00051937497
-0.001055077 -0.00054428569 -0.00054375007
0.0014067692 -0.00018142856 -0.007276875
0.040092923 0.00018142856 -0.00018937506
0.045368306 0.00090714288 -0.0016068751
0.039741229 -0.00018142856 -0.0023156251
0.035169229 -0.00127 -0.0012525001
0.013012615 0.00054428569 -0.0023156251
-0.02145323 0.00018142856 -0.0033787501
-0.040444616 0.00018142856 -0.0023156251
-0.031652305 -0.00018142856 -0.0076312502
-0.02919046 0.00127 -0.00018937506
-0.02919046 0.00018142856 -0.003733125
0.014771077 -0.00127 -0.0023156251
-0.024618462 -0.00054428569 -0.0023156251
-0.024266768 -0.00090714288 -0.0023156251
-0.044664923 0.00127 -0.0019612501
0.02145323 -0.00018142856 -0.005859375
-0.021804923 0.00018142856 -0.005150625
-0.031652305 -0.00018142856 0.00016499995
0.0035169229 -0.00018142856 0.00087374996
-0.014419384 0.00090714288 -0.00018937506
0.03938954 -0.00018142856 0.00016499995
-0.037631076 -0.00127 -0.00089812506
-0.013716 0.00018142856 -0.006568125
0.001055077 -0.00127 -0.0023156251
-0.0031652306 -0.00054428569 -0.00054375007
-0.013716 -0.00127 -0.00018937506
0.0059787692 0.00127 -0.0023156251
0.0038686153 -0.00018142856 0.00016499995
-0.017936308 0.00127 -0.00018937506
-0.032355692 -0.00054428569 -0.00018937506
0.01969477 0.00018142856 -0.0023156251
-0.031652305 -0.00127 -0.00018937506
0.024266768 -0.00127 -0.00018937506
-0.039037846 0.00127 -0.00018937506
0.011957538 0.00054428569 -0.0023156251
0.0094956923 0.00018142856 -0.00018937506
0.0014067692 -0.00018142856 -0.0047962503
0.039037846 0.00127 -0.0012525001
-0.013012615 -0.00090714288 -0.00018937506
0.025321845 0.00127 -0.00054375007
-0.0063304612 -0.00090714288 -0.0023156251
0.0087923072 -0.00090714288 -0.00018937506
0.038686153 -0.00127 -0.00018937506
0.011605846 0.00018142856 -0.0040875003
-0.038334459 -0.00127 -0.00089812506
0.012660922 0.00090714288 -0.0023156251
0.014419384 -0.00127 -0.0012525001
0.026376922 -0.00127 -0.00054375007
-0.023563385 -0.00054428569 -0.00018937506
0.019343076 -0.00018142856 0.0015824999
0.04431323 0.00018142856 0.002645625
-0.01969477 -0.00018142856 -0.00018937506
0.0035169229 0.00018142856 -0.006568125
-0.0014067692 -0.00018142856 0.0019368749
0.02286 -0.00127 -0.0012525001
0.023563385 -0.00090714288 -0.0023156251
0.041851383 -0.00127 -0.0016068751
-0.031652305 0.00018142856 0.00229125
-0.036224306 0.00018142856 -0.0023156251
0.0021101539 0.00127 -0.00018937506
0.021804923 0.00018142856 -0.00018937506
-0.036927693 -0.00018142856 -0.0055050002
-0.041499693 -0.00127 -0.0019612501
-0.013716 0.00127 -0.00018937506
0.04431323 -0.00054428569 -0.0023156251
-0.022156615 0.00054428569 -0.00054375007
-0.040092923 -0.00090714288 -0.0023156251
0.02286 0.00018142856 -0.00018937506
-0.028135384 -0.00054428569 -0.00018937506
-0.032355692 0.00090714288 -0.0023156251
0.036575999 -0.00018142856 -0.0047962503
-0.039037846 -0.00090714288 -0.0023156251
0.0073855384 0.00127 -0.00089812506
-0.021804923 0.00018142856 0.00229125
0.011254153 0.00090714288 -0.00018937506
-0.01969477 0.00127 -0.00054375007
-0.0049236924 -0.00054428569 -0.0023156251
0.0035169229 0.00127 -0.00054375007
-0.023915077 0.00127 -0.0012525001
0 0.00127 -0.00018937506
-0.027080307 0.00054428569 -0.00054375007
-0.037631076 0.00090714288 -0.0023156251
0.028135384 0.00054428569 -0.00054375007
0.017584614 0.00127 -0.0012525001
-0.0028135383 -0.00054428569 -0.00054375007
-0.02286 -0.00018142856 -0.0023156251
0.0063304612 0.00018142856 -0.0026700001
0.014067692 0.00018142856 -0.0026700001
-0.037982769 0.00090714288 -0.0023156251
-0.016529538 0.00018142856 0.00051937497
-0.040444616 -0.00127 -0.0016068751
0.021804923 -0.00018142856 -0.0040875003
-0.0052753845 -0.00054428569 -0.00054375007
0.021804923 -0.00090714288 -0.00018937506
-0.036575999 0.00127 -0.00054375007
0.010902462 -0.00018142856 -0.00018937506
0.00035169229 0.00090714288 -0.00018937506
-0.011254153 0.00018142856 -0.006568125
-0.025321845 -0.00127 -0.00089812506
0.027080307 0.00090714288 -0.0023156251
0.04255477 -0.00127 -0.00054375007
-0.036224306 -0.00018142856 -0.00018937506
0.023915077 -0.00127 -0.0012525001
-0.026728615 -0.00018142856 0.00087374996
0.0038686153 0.00090714288 -0.00018937506
-0.033762462 -0.00090714288 -0.0023156251
-0.001055077 -0.00090714288 -0.0023156251
-0.0035169229 -0.00018142856 -0.0055050002
-0.016529538 -0.00018142856 -0.0076312502
0.0035169229 -0.00127 -0.00089812506
-0.039037846 -0.00090714288 -0.00018937506
0.02145323 -0.00018142856 -0.0062137502
0.022508306 0.00127 -0.0023156251
0.042203076 0.00018142856 0.00229125
-0.0091439998 -0.00127 -0.00018937506
0.015826153 0.00018142856 -0.00018937506
-0.043609846 -0.00127 -0.0019612501
-0.016881231 0.00018142856 -0.00018937506
0.0087923072 -0.00018142856 -0.005859375
-0.040796306 0.00127 -0.0012525001
0.044664923 0.00018142856 -0.0062137502
-0.04431323 -0.00054428569 -0.00018937506
-0.0087923072 -0.00018142856 -0.0055050002
0.035520922 0.00127 -0.00018937506
0.027080307 -0.00090714288 -0.0023156251
0.0077372305 -0.00127 -0.0016068751
0.016529538 -0.00127 -0.0012525001
0.0014067692 -0.00018142856 -0.0040875003
-0.013716 0.00018142856 0.0015824999
-0.035169229 -0.00090714288 -0.0023156251
0.04431323 -0.00018142856 -0.005859375
-0.041147999 -0.00127 -0.00054375007
0.0024618462 0.00127 -0.0016068751
0.036575999 -0.00018142856 -0.007276875
-0.0084406156 0.00054428569 -0.00054375007
-0.0052753845 0.00090714288 -0.00018937506
0.036927693 0.00127 -0.0023156251
0.030245537 -0.00018142856 -0.00018937506
-0.017584614 0.00090714288 -0.00018937506
-0.0094956923 -0.00090714288 -0.0023156251
0.02145323 -0.00054428569 -0.0023156251
0.013716 -0.00018142856 0.001228125
-0.04255477 0.00054428569 -0.00054375007
0.03938954 0.00127 -0.0012525001
0.0070338459 -0.00090714288 -0.00018937506
-0.028487077 -0.00018142856 -0.00018937506
0.0073855384 -0.00127 -0.0016068751
0.011254153 0.00018142856 -0.006568125
0.029542154 0.00127 -0.0012525001
-0.0038686153 0.00018142856 -0.0069225002
0.025321845 0.00090714288 -0.0023156251
-0.010550769 -0.00054428569 -0.00054375007
-0.024266768 -0.00018142856 -0.0047962503
0.0035169229 0.00054428569 -0.0023156251
0.031652305 -0.00127 -0.00089812506
-0.04572 0.00054428569 -0.0023156251
-0.0087923072 0.00127 -0.0023156251
-0.017232923 0.00018142856 -0.0023156251
-0.036575999 -0.00018142856 -0.007276875
0.013364308 0.00090714288 -0.0023156251
0.021804923 -0.00018142856 -0.0033787501
0.01969477 -0.00018142856 -0.0023156251
-0.0087923072 -0.00127 -0.00018937506
0.036575999 0.00018142856 -0.005150625
-0.028487077 0.00127 -0.00089812506
-0.032355692 -0.00054428569 -0.0023156251
0.013716 0.00018142856 -0.0062137502
-0.024266768 -0.00127 -0.0019612501
0.0038686153 0.00127 -0.00089812506
0.0031652306 -0.00127 -0.00018937506
0.019343076 -0.00090714288 -0.0023156251
-0.00070338458 -0.00127 -0.0012525001
0.044664923 0.00127 -0.0012525001
-0.0028135383 0.00127 -0.0012525001
-0.032003999 0.00018142856 -0.0040875003
0.0049236924 -0.00127 -0.00054375007
0.045016613 0.00127 -0.00054375007
0.023211692 0.00127 -0.00018937506
0.011254153 0.00127 -0.0019612501
-0.0038686153 0.00054428569 -0.0023156251
-0.014419384 -0.00127 -0.00089812506
-0.022156615 0.00127 -0.0023156251
-0.026728615 0.00018142856 0.00051937497
0.016881231 -0.00018142856 -0.0023156251
0.0091439998 0.00018142856 -0.004441875
-0.034817539 -0.00127 -0.0012525001
-0.011957538 0.00054428569 -0.0023156251
-0.032003999 0.00018142856 -0.0047962503
0.0084406156 0.00127 -0.0023156251
0.045368306 -0.00018142856 -0.0016068751
-0.031652305 -0.00018142856 -0.004441875
0.001055077 0.00018142856 -0.003733125
0.010902462 -0.00090714288 -0.00018937506
0.0091439998 0.00018142856 -0.005859375
-0.03938954 -0.00127 -0.0019612501
0.029893845 -0.00127 -0.00018937506
-0.012309231 0.00127 -0.0016068751
0.0063304612 0.00127 -0.0016068751
-0.0024618462 -0.00127 -0.0012525001
0.029893845 0.00018142856 -0.0023156251
-0.023563385 0.00127 -0.0023156251
-0.0035169229 -0.00018142856 0.00087374996
0.0087923072 0.00018142856 -0.0026700001
-0.0091439998 -0.00018142856 -0.0026700001
-0.0080889231 -0.00018142856 -0.00018937506
-0.0042203078 -0.00054428569 -0.00054375007
0.036575999 -0.00127 -0.0012525001
-0.0028135383 0.00127 -0.0019612501
-0.0014067692 -0.00090714288 -0.00018937506
-0.028487077 0.00127 -0.0023156251
-0.02602523 0.00127 -0.0023156251
-0.012309231 -0.00018142856 -0.00018937506
0.031300616 -0.00127 -0.0023156251
-0.018991385 0.00018142856 -0.0069225002
-0.033059075 0.00054428569 -0.0023156251
0.021804923 -0.00127 -0.00054375007
0.028135384 -0.00127 -0.00018937506
-0.03059723 0.00127 -0.0016068751
0.018991385 -0.00018142856 -0.0076312502
-0.0038686153 -0.00127 -0.0016068751
-0.028487077 0.00127 -0.0012525001
0.037279382 -0.00127 -0.00018937506
0.016529538 0.00018142856 -0.0055050002
0.033762462 -0.00127 -0.00089812506
0.041851383 -0.00018142856 -0.0069225002
-0.0049236924 0.00018142856 -0.00018937506
0.032003999 -0.00018142856 -0.00018937506
0.0038686153 0.00018142856 -0.0040875003
-0.039741229 -0.00018142856 -0.0023156251
0.016529538 0.00090714288 -0.0023156251
0.015826153 -0.00054428569 -0.00054375007
-0.036575999 -0.00127 -0.0016068751
-0.03059723 -0.00018142856 -0.00018937506
0.037279382 -0.00090714288 -0.0023156251
-0.028838769 -0.00054428569 -0.00018937506
-0.023211692 0.00127 -0.00089812506
0.043258153 0.00127 -0.00054375007
0.013364308 0.00127 -0.00089812506
-0.032003999 -0.00018142856 -0.005859375
0.016177846 -0.00018142856 -0.00018937506
-0.035520922 -0.00018142856 -0.00018937506
-0.034465846 -0.00018142856 -0.0062137502
-0.00035169229 0.00054428569 -0.0023156251
0.014067692 -0.00018142856 -0.0047962503
-0.0056270766 -0.00127 -0.00018937506
0.0098473849 -0.00127 -0.00089812506
-0.0077372305 -0.00090714288 -0.00018937506
-0.017232923 0.00127 -0.00054375007
0.011254153 -0.00018142856 -0.005859375
-0.014771077 -0.00090714288 -0.0023156251
0.034114152 -0.00018142856 -0.007276875
-0.0077372305 -0.00127 -0.0023156251
0.021804923 0.00054428569 -0.00054375007
0.018288 -0.00054428569 -0.00054375007
0.040444616 -0.00090714288 -0.0023156251
0 -0.00127 -0.00089812506
-0.028838769 -0.00127 -0.00054375007
-0.026728615 -0.00018142856 0.0019368749
-0.04431323 -0.00018142856 -0.003733125
0.03938954 0.00018142856 0.00087374996
-0.04572 0.00054428569 -0.0012525001
-0.011605846 0.00018142856 -0.0062137502
0.029893845 -0.00127 -0.00054375007
-0.0066821538 -0.00090714288 -0.0023156251
-0.040796306 -0.00127 -0.00089812506
-0.031652305 -0.00127 -0.00054375007
0.020749846 0.00127 -0.00018937506
-0.017936308 0.00127 -0.00054375007
-0.025673538 0.00127 -0.00018937506
0.036575999 0.00127 -0.00018937506
0.022156615 0.00018142856 -0.0023156251
0.014067692 -0.00127 -0.0012525001
0.044664923 0.00018142856 -0.005859375
0.022508306 -0.00127 -0.00018937506
0.011254153 -0.00018142856 -0.0047962503
0.010199076 0.00127 -0.0016068751
-0.0087923072 -0.00127 -0.0012525001
-0.0091439998 -0.00054428569 -0.0023156251
0.011957538 0.00127 -0.00018937506
0.042203076 0.00018142856 -0.005859375
-0.044664923 0.00018142856 -0.007276875
0.041499693 0.00018142856 -0.00018937506
-0.024266768 -0.00018142856 0.00016499995
-0.02145323 -0.00054428569 -0.0023156251
-0.0042203078 0.00127 -0.00018937506
0.041851383 -0.00018142856 0.00016499995
-0.024266768 -0.00018142856 -0.005859375
0.00035169229 -0.00090714288 -0.0023156251
0.02602523 0.00054428569 -0.00054375007
-0.020749846 -0.00127 -0.00089812506
0.033410769 0.00127 -0.0016068751
-0.029542154 0.00127 -0.0012525001
-0.027783692 -0.00054428569 -0.00018937506
-0.032003999 -0.00018142856 -0.0040875003
-0.0087923072 0.00018142856 0.00051937497
0.0031652306 -0.00127 -0.00054375007
0.0091439998 0.00018142856 -0.0040875003
-0.0087923072 0.00018142856 0.002645625
0.02919046 0.00018142856 -0.0062137502
0.030245537 0.00127 -0.0016068751
-0.021804923 0.00018142856 -0.00018937506
-0.034465846 0.00018142856 -0.0040875003
-0.011605846 -0.00018142856 0.0015824999
0.031652305 -0.00018142856 -0.006568125
0.00070338458 0.00127 -0.00089812506
-0.024266768 -0.00018142856 -0.0055050002
0.018991385 0.00018142856 -0.0062137502
0.020749846 -0.00054428569 -0.00054375007
-0.024618462 -0.00054428569 -0.00018937506
-0.036224306 0.00127 -0.0019612501
-0.013716 0.00018142856 -0.0040875003
-0.021804923 -0.00018142856 0.0019368749
0.031300616 -0.00127 -0.00089812506
0.0073855384 -0.00018142856 -0.0023156251
0.001055077 -0.00018142856 -0.0040875003
-0.01969477 0.00127 -0.0019612501
-0.032707386 0.00127 -0.0019612501
0.035872616 -0.00127 -0.00054375007
0.022508306 0.00127 -0.0016068751
0.016881231 0.00127 -0.0016068751
0.036575999 0.00018142856 -0.0047962503
0.0017584615 0.00018142856 -0.00018937506
0.015474461 -0.00127 -0.00018937506
-0.0091439998 0.00018142856 -0.0026700001
-0.036927693 -0.00018142856 -0.0047962503
-0.00070338458 -0.00018142856 -0.0023156251
