# .PCD v0.7 - Point Cloud Data file format
VERSION 0.7
FIELDS x y z
SIZE 4 4 4
TYPE F F F
COUNT 1 1 1
WIDTH 1365
HEIGHT 1
VIEWPOINT 0 0 0 1 0 0 0
POINTS 1365
DATA ascii
0.047244001 0.00084666669 -0.00013499999
0.043434002 0.00127 -0.00091875001
0.00038099999 -0.00127 -0.001310625
-0.032003999 0.00042333335 -0.002094375
0.038481001 0.00127 -0.0017025
0.012192 -0.00042333335 -0.0017025
-0.027051 0.00042333335 -0.001310625
-0.033909 0.00042333335 -0.00052687502
0.033528 -0.00127 -0.00013499999
0.0087630004 0.00042333335 -0.002094375
-0.004191 -0.00042333335 -0.001310625
-0.020192999 0.00084666669 -0.002094375
0.011049001 0.00084666669 -0.00013499999
0.039243001 0.00084666669 -0.00091875001
-0.016001999 0.00084666669 -0.00013499999
0.042291 0.00084666669 -0.00013499999
-0.048387002 0.00042333335 -0.0024862499
-0.045338999 0 -0.002094375
-0.020574 0.00042333335 -0.00091875001
0.038481001 0 -0.00091875001
0.0026670001 -0.00127 -0.002094375
-0.048006002 0.00127 -0.00052687502
0.0022859999 -0.00084666669 -0.002094375
-0.039624002 -0.00084666669 -0.001310625
-0.039243001 0.00127 -0.00091875001
-0.049148999 0.00042333335 -0.00052687502
0.023241 0.00042333335 -0.0017025
0.004191 -0.00042333335 -0.002094375
0.015621 -0.00127 -0.0017025
-0.015621 -0.00084666669 -0.00013499999
0.001524 0.00127 -0.00052687502
-0.017526001 -0.00084666669 -0.0017025
0.044957999 -0.00127 -0.001310625
0.047244001 -0.00127 -0.00052687502
-0.00076199998 -0.00127 -0.00052687502
0.0087630004 -0.00127 -0.0017025
-0.04572 -0.00127 -0.001310625
0.025527 -0.00084666669 -0.00052687502
-0.044576999 0 -0.001310625
0.048006002 -0.00042333335 -0.00091875001
0.028574999 0.00042333335 -0.0017025
0.0099060005 0.00042333335 -0.0017025
0.014478 -0.00127 -0.0017025
-0.042672001 -0.00127 -0.00013499999
0.022479 0.00042333335 -0.002094375
-0.041147999 -0.00042333335 -0.002094375
0.00076199998 -0.00084666669 -0.0017025
0.024383999 -0.00042333335 -0.002094375
0.0026670001 -0.00042333335 -0.0083643747
0.024765 -0.00042333335 -0.001310625
0.046863001 0.00042333335 -0.0017025
-0.022098001 0.00084666669 -0.0017025
0.0053340001 0.00127 -0.001310625
0.01905 -0.00042333335 -0.001310625
-0.0381 -0.00042333335 -0.002094375
-0.0022859999 -0.00042333335 -0.001310625
0 0 -0.0024862499
-0.020192999 0.00042333335 -0.001310625
-0.027813001 0 -0.0040537501
-0.029718 -0.00084666669 -0.002094375
-0.0053340001 0 -0.004445625
0.016001999 0.00042333335 -0.002094375
-0.0053340001 0.00127 -0.00013499999
0.02667 0 -0.00052687502
-0.0076200003 -0.00084666669 -0.00013499999
0.032384999 0 -0.001310625
0.008382 0 -0.001310625
-0.042291 -0.00042333335 -0.002094375
-0.020574 0 -0.0048374999
0.010668 0.00042333335 -0.001310625
-0.029337 -0.00042333335 -0.0017025
0.0080009997 -0.00084666669 -0.00013499999
-0.044196002 -0.00084666669 -0.001310625
-0.028574999 -0.00042333335 -0.0024862499
0.021717001 -0.00084666669 -0.0017025
0.043053001 0 -0.00327
0.028956 0.00127 -0.002094375
-0.043434002 0 -0.0083643747
-0.044196002 0.00127 -0.001310625
-0.048387002 0.00042333335 -0.00091875001
0.0045719999 0 -0.00013499999
0.038862001 0.00084666669 -0.00052687502
0.0091439998 -0.00127 -0.00091875001
-0.048767999 0.00084666669 -0.002094375
0.046863001 -0.00084666669 -0.001310625
0.046101 -0.00127 -0.001310625
0.024003001 0 -0.001310625
0.017906999 -0.00127 -0.002094375
-0.048387002 0.00084666669 -0.002094375
-0.033147 -0.00042333335 -0.00052687502
0.024765 -0.00127 -0.0017025
0.041529 0.00127 -0.00052687502
0.021336 0.00042333335 -0.0017025
-0.032003999 -0.00127 -0.002094375
-0.0026670001 -0.00127 -0.002094375
0.025146 -0.00084666669 -0.00091875001
0.032003999 0.00084666669 -0.00091875001
-0.0381 -0.00042333335 -0.00052687502
-0.02667 0.00042333335 -0.00052687502
-0.032765999 0 -0.00013499999
-0.0053340001 -0.00084666669 -0.001310625
0.020192999 0 0.0026081251
0.017526001 0.00042333335 -0.001310625
-0.021336 -0.00042333335 -0.00091875001
-0.040385999 -0.00127 -0.00091875001
0.017526001 0 0.001040625
-0.020955 0.00127 -0.001310625
-0.029718 0.00084666669 -0.00013499999
0.020955 0.00084666669 -0.00052687502
-0.001524 0 -0.001310625
-0.020192999 0.00127 -0.00091875001
-0.0091439998 -0.00084666669 -0.00013499999
-0.020574 0.00127 -0.00013499999
-0.019431001 0 -0.00091875001
0.012573 0.00042333335 -0.00052687502
-0.026289001 -0.00084666669 -0.0017025
-0.0095250001 0.00084666669 -0.002094375
-0.024383999 0.00042333335 -0.002094375
-0.048387002 -0.00084666669 -0.001310625
-0.01905 0.00084666669 -0.00013499999
-0.027432 -0.00127 -0.001310625
0.028194001 0.00127 -0.001310625
-0.004191 0.00042333335 -0.00052687502
-0.026289001 -0.00127 -0.00013499999
-0.003429 -0.00127 -0.0024862499
-0.026289001 0.00127 -0.0024862499
-0.024765 -0.00084666669 -0.00091875001
0.0049530002 -0.00042333335 -0.001310625
-0.042672001 0.00127 -0.001310625
0.016001999 -0.00042333335 -0.0017025
0.024765 0.00127 -0.00052687502
0.046101 0.00042333335 -0.002094375
0.02286 0 -0.0087562501
0.004191 -0.00042333335 -0.0024862499
0.010668 -0.00042333335 -0.00091875001
0.022479 0.00042333335 -0.001310625
0.022098001 0.00084666669 -0.001310625
0.0038100001 0.00084666669 -0.002094375
0.027813001 0 -0.0064050001
-0.020192999 0 -0.0028781251
-0.039243001 -0.00042333335 -0.002094375
-0.036956999 0.00042333335 -0.001310625
0.0095250001 -0.00042333335 -0.00013499999
-0.023622001 0 -0.00013499999
0.013716 -0.00084666669 -0.0017025
-0.010287 -0.00084666669 -0.0017025
-0.0038100001 0.00127 -0.00013499999
-0.0026670001 0.00127 -0.00052687502
-0.035813998 0 -0.001310625
0.005715 -0.00127 -0.002094375
-0.012573 -0.00042333335 -0.00052687502
0.0080009997 -0.00084666669 -0.00052687502
-0.0038100001 0.00127 -0.0017025
0.0064770002 0.00127 -0.00013499999
-0.046482 0 -0.001310625
0.012192 0.00127 -0.0017025
0.011811 0 -0.0017025
0.033909 0.00127 -0.0017025
0.014097 -0.00042333335 -0.00052687502
-0.038862001 0.00042333335 -0.00091875001
-0.025146 -0.00042333335 -0.002094375
0.015240001 0.00084666669 -0.00052687502
0.020574 -0.00042333335 -0.0024862499
0.033147 0 0.00064874999
-0.046863001 0.00084666669 -0.002094375
-0.021336 0.00084666669 -0.00052687502
-0.024765 0.00084666669 -0.00091875001
0.0022859999 0.00042333335 -0.0024862499
-0.020955 0 -0.0024862499
0.010287 -0.00084666669 -0.001310625
-0.046482 -0.00084666669 -0.00091875001
-0.024003001 0.00042333335 -0.0024862499
0.018669 -0.00042333335 -0.00091875001
0.014478 -0.00084666669 -0.00091875001
-0.046863001 0.00042333335 -0.002094375
-0.014478 0.00084666669 -0.002094375
0.0072389999 0.00127 -0.001310625
-0.0022859999 -0.00042333335 -0.002094375
0.043815002 -0.00127 -0.0017025
0.030480001 0.00042333335 -0.002094375
-0.039243001 -0.00042333335 -0.00091875001
0.014478 0.00084666669 -0.002094375
0.017526001 0 -0.001310625
0.025146 0.00042333335 -0.001310625
0.041529 0.00127 -0.001310625
0.048006002 -0.00127 -0.00013499999
-0.027432 -0.00084666669 -0.00052687502
0 0 -0.00091875001
-0.027813001 0 -0.0075806249
0.0022859999 0 0.00025687501
0.011049001 -0.00127 -0.0017025
-0.024765 0.00084666669 -0.001310625
0.001524 0.00127 -0.00013499999
0.0019050001 0.00084666669 -0.00052687502
-0.0060959999 0.00127 -0.00091875001
0.0019050001 -0.00127 -0.001310625
-0.02667 0.00127 -0.00052687502
0.0045719999 -0.00127 -0.0017025
0.030861 -0.00084666669 -0.00052687502
-0.028194001 -0.00084666669 -0.0017025
0.010668 -0.00042333335 -0.00013499999
0.004191 0 -0.001310625
0.040385999 0 -0.0083643747
0.024003001 0.00084666669 -0.00013499999
0.035052001 -0.00084666669 -0.0017025
0.020574 -0.00127 -0.0017025
-0.043434002 0.00127 -0.00013499999
-0.021336 0.00042333335 -0.00091875001
0.010287 0.00084666669 -0.0017025
0.048387002 0 0.0022162499
0.021336 0.00042333335 -0.00052687502
-0.026289001 -0.00042333335 -0.001310625
-0.014478 0 -0.00013499999
0.025908001 -0.00084666669 -0.002094375
0.0026670001 -0.00042333335 -0.002094375
0.020192999 -0.00042333335 -0.00327
-0.04572 0 0.0014325
-0.0064770002 0.00084666669 -0.00052687502
0.035433002 0.00127 -0.00091875001
0.024003001 0.00084666669 -0.001310625
-0.043434002 0 0.00064874999
0.042291 0.00084666669 -0.00052687502
-0.004191 0.00084666669 -0.0017025
0.025908001 0.00042333335 -0.001310625
-0.011811 -0.00042333335 -0.00052687502
-0.032765999 0.00042333335 -0.002094375
0.043434002 0.00042333335 -0.0024862499
0.026289001 0 -0.001310625
0.024003001 0 -0.00091875001
0.004191 -0.00084666669 -0.00052687502
-0.014478 0.00127 -0.002094375
-0.015240001 0 -0.0017025
-0.013716 -0.00127 -0.0017025
0.001143 -0.00042333335 -0.00013499999
0.037719 -0.00084666669 -0.00052687502
-0.028956 0.00127 -0.002094375
0.023241 0.00084666669 -0.00091875001
-0.048767999 -0.00127 -0.0017025
-0.024383999 0 -0.002094375
-0.013716 0.00042333335 -0.00091875001
0.047244001 -0.00084666669 -0.00013499999
0.004191 -0.00042333335 -0.00052687502
0.043053001 0 0.001824375
-0.046101 0.00084666669 -0.00013499999
0.020192999 0 -0.00013499999
0.035433002 0 -0.0052293749
-0.028194001 -0.00042333335 -0.00013499999
0.0087630004 0 -0.00052687502
0.0068580001 -0.00084666669 -0.001310625
0.044196002 0.00127 -0.00091875001
0.031242 0.00127 -0.00013499999
-0.032765999 -0.00042333335 -0.00091875001
0.0076200003 0 -0.0056212498
-0.021336 0.00127 -0.00013499999
0.042291 0 -0.00052687502
0.02286 -0.00084666669 -0.002094375
0.033528 0.00042333335 -0.001310625
0.015240001 -0.00042333335 -0.00052687502
0.047244001 -0.00127 -0.002094375
-0.01143 0.00042333335 -0.00091875001
-0.015240001 0 0.0026081251
-0.044576999 0.00127 -0.0017025
-0.027813001 -0.00042333335 -0.00052687502
-0.018669 0.00127 -0.002094375
-0.025146 0 -0.006796875
-0.017526001 -0.00084666669 -0.00013499999
-0.011049001 0.00042333335 -0.001310625
-0.017145 0.00127 -0.00052687502
-0.0087630004 -0.00042333335 -0.00091875001
-0.041147999 0 -0.00091875001
0.046482 0.00127 -0.00052687502
-0.016764 0 -0.002094375
-0.0045719999 -0.00042333335 -0.00052687502
0.005715 0.00127 -0.002094375
0.024383999 -0.00127 -0.00013499999
0.029337 -0.00042333335 -0.001310625
-0.015621 0.00084666669 -0.00091875001
0.031242 -0.00084666669 -0.001310625
-0.047244001 -0.00042333335 -0.001310625
0.043434002 0.00127 -0.00013499999
0.045338999 0 -0.001310625
0.038481001 0.00042333335 -0.0017025
0.0026670001 -0.00042333335 -0.004445625
-0.023622001 -0.00127 -0.00013499999
0.033909 -0.00127 -0.00013499999
0.023622001 0.00084666669 -0.0024862499
0.020574 0.00042333335 -0.0017025
0.027813001 0.00084666669 -0.001310625
0.027813001 -0.00127 -0.002094375
0.0076200003 0 -0.00327
-0.030480001 0 0.001040625
-0.021717001 0.00084666669 -0.00091875001
-0.023241 -0.00084666669 -0.00013499999
0.021717001 -0.00127 -0.001310625
0.041529 0 -0.001310625
-0.014859 0.00127 -0.0024862499
0.022479 0.00127 -0.002094375
0.035813998 -0.00084666669 -0.0017025
-0.0026670001 0 -0.004445625
0.024003001 0.00084666669 -0.00052687502
0.033147 -0.00127 -0.00052687502
-0.02286 0 -0.0040537501
-0.038862001 0 -0.0017025
-0.036194999 0 -0.00013499999
-0.024383999 0.00042333335 -0.0024862499
-0.0381 -0.00084666669 -0.00013499999
-0.012192 0.00084666669 -0.00052687502
0.01143 0.00127 -0.0024862499
-0.00076199998 0.00084666669 -0.0017025
-0.040005002 -0.00084666669 -0.00091875001
-0.0049530002 0 0.0022162499
-0.041529 0 -0.00013499999
0.017906999 0 0.0026081251
0.018669 0.00084666669 -0.0017025
0.038862001 0.00127 -0.00013499999
0.013335 0.00084666669 -0.0017025
0.024383999 -0.00127 -0.001310625
-0.014859 -0.00084666669 -0.00091875001
-0.025527 0 -0.0079725003
-0.0072389999 -0.00084666669 -0.0024862499
-0.012573 -0.00127 -0.001310625
-0.043053001 0 -0.0017025
0.033147 0 -0.0075806249
-0.043053001 0 -0.00013499999
-0.028194001 0 0.0014325
-0.032003999 -0.00127 -0.00091875001
-0.037338 -0.00127 -0.00013499999
-0.02286 -0.00042333335 -0.00013499999
-0.019812001 -0.00127 -0.0017025
0.020192999 0.00042333335 -0.00091875001
-0.014097 0.00127 -0.00091875001
-0.0019050001 0 -0.00013499999
0.049148999 0 -0.00091875001
-0.013716 -0.00127 -0.00052687502
-0.0087630004 -0.00084666669 -0.002094375
-0.043053001 -0.00042333335 -0.0024862499
0.010668 -0.00084666669 -0.001310625
-0.00076199998 -0.00084666669 -0.00091875001
-0.040766999 0.00042333335 -0.0024862499
-0.044576999 -0.00127 -0.002094375
0.012954 0.00084666669 -0.001310625
0.025527 0 -0.0052293749
-0.045338999 -0.00127 -0.00052687502
0.003429 -0.00084666669 -0.00091875001
0.012573 0 -0.0075806249
0.04572 -0.00127 -0.001310625
-0.004191 -0.00084666669 -0.0017025
-0.025146 0.00084666669 -0.0017025
-0.010287 0 -0.0036618749
0.015621 0.00042333335 -0.00091875001
0.022098001 -0.00084666669 -0.001310625
0.024383999 -0.00084666669 -0.001310625
-0.035813998 0.00084666669 -0.0017025
-0.020574 0 -0.0087562501
-0.0099060005 -0.00042333335 -0.0017025
-0.028574999 0.00084666669 -0.002094375
-0.024765 -0.00127 -0.00091875001
-0.017906999 0.00127 -0.002094375
-0.044576999 0.00042333335 -0.0017025
0.014859 -0.00084666669 -0.00091875001
0.024765 -0.00127 -0.002094375
-0.016001999 -0.00127 -0.002094375
-0.020955 -0.00042333335 -0.00091875001
-0.028194001 0.00127 -0.0017025
-0.036194999 0.00127 -0.0017025
0.043053001 0 -0.0040537501
0.0091439998 -0.00042333335 -0.0017025
-0.015240001 0.00042333335 -0.002094375
0.0022859999 0 -0.00052687502
0.024003001 -0.00084666669 -0.001310625
0.010668 0 -0.00091875001
-0.047244001 -0.00084666669 -0.00091875001
-0.015240001 -0.00042333335 0.001040625
0.020192999 -0.00042333335 -0.0083643747
-0.0022859999 0 0.00064874999
-0.025908001 0.00127 -0.002094375
0.035813998 0 -0.00013499999
-0.044576999 0.00127 -0.00091875001
-0.011049001 0.00042333335 -0.002094375
0.025908001 -0.00042333335 -0.00091875001
0.0026670001 0 -0.0060131252
0.0022859999 0.00084666669 -0.001310625
0.015240001 0 0.001824375
0.0053340001 0.00127 -0.0024862499
-0.025527 -0.00084666669 -0.0024862499
-0.025908001 -0.00042333335 -0.00013499999
-0.037719 0.00042333335 -0.0017025
-0.026289001 0.00042333335 -0.0017025
0.036575999 -0.00127 -0.00013499999
0.0049530002 0 0.001040625
0.032003999 -0.00042333335 -0.00013499999
-0.030480001 0 -0.0079725003
-0.016001999 -0.00084666669 -0.00013499999
-0.0076200003 -0.00042333335 -0.004445625
0.025908001 -0.00042333335 -0.001310625
0.012954 -0.00127 -0.0017025
-0.034290001 -0.00042333335 -0.00052687502
-0.035813998 -0.00127 -0.002094375
-0.046101 0.00084666669 -0.001310625
0.042291 -0.00127 -0.001310625
0.00038099999 0 -0.00091875001
-0.037338 0.00042333335 -0.001310625
0.042291 -0.00042333335 -0.00052687502
-0.0045719999 0 -0.00052687502
0.0049530002 0 -0.0083643747
-0.024765 -0.00042333335 -0.001310625
0.044576999 0.00042333335 -0.0017025
-0.012192 -0.00042333335 -0.00052687502
-0.012573 -0.00084666669 -0.00091875001
0.040766999 0.00084666669 -0.00052687502
-0.035052001 0.00084666669 -0.00052687502
-0.0022859999 -0.00042333335 -0.00052687502
-0.036956999 -0.00084666669 -0.00052687502
-0.020574 -0.00127 -0.00091875001
0.013716 0 -0.001310625
-0.0064770002 0.00127 -0.001310625
-0.028194001 0 -0.0083643747
-0.013716 -0.00127 -0.00013499999
0.0038100001 0.00127 -0.0017025
0.018669 0 -0.002094375
0.036575999 -0.00042333335 -0.00013499999
0.048387002 0.00127 -0.00052687502
-0.042672001 0 -0.00013499999
0.029337 0 -0.00091875001
0.0022859999 0.00084666669 -0.00013499999
0.014478 0.00042333335 -0.00052687502
0.04191 0.00042333335 -0.0017025
-0.011049001 0.00127 -0.001310625
0.038481001 0 -0.001310625
0.003429 0.00042333335 -0.001310625
-0.042291 -0.00042333335 -0.00052687502
-0.012573 -0.00042333335 0.00025687501
-0.036194999 -0.00127 -0.00013499999
-0.047244001 0 -0.0017025
-0.040385999 -0.00042333335 -0.00091875001
-0.0026670001 -0.00127 -0.00013499999
-0.01143 0.00127 -0.00013499999
-0.0038100001 0.00084666669 -0.001310625
0.014859 0.00042333335 -0.001310625
0.032765999 0.00127 -0.00052687502
0.046101 0.00127 -0.0017025
0.0038100001 0.00042333335 -0.00052687502
0.046101 -0.00084666669 -0.00091875001
-0.034671001 0 -0.002094375
0.035052001 0.00042333335 -0.001310625
0.04572 0 -0.0048374999
0.017145 -0.00127 -0.00091875001
-0.048006002 0 -0.0079725003
0.032003999 0.00042333335 -0.0017025
0.025146 0 0.001040625
0.038862001 -0.00084666669 -0.00091875001
0.017145 0 -0.001310625
-0.021717001 0.00042333335 -0.00052687502
-0.00076199998 0.00127 -0.00013499999
-0.0095250001 -0.00084666669 -0.002094375
0.014859 0.00127 -0.002094375
0.035052001 -0.00042333335 -0.00052687502
0.001524 0.00127 -0.002094375
-0.035433002 -0.00127 -0.001310625
-0.020574 -0.00042333335 -0.0017025
0.044196002 -0.00127 -0.002094375
0.037719 -0.00127 -0.001310625
-0.010668 -0.00127 -0.0017025
0.014478 -0.00127 -0.002094375
0.012954 0.00127 -0.00091875001
0.02286 0 -0.0075806249
0.020955 -0.00127 -0.002094375
0.035813998 0 -0.0056212498
-0.015240001 0 -0.00718875
-0.00038099999 -0.00084666669 -0.00052687502
0.033147 -0.00042333335 -0.00013499999
0.038481001 0.00084666669 -0.001310625
0.038862001 -0.00042333335 -0.00013499999
0.038862001 0.00084666669 -0.0017025
0.025146 0.00127 -0.0017025
0.017906999 0 0.00064874999
0.040766999 0 -0.0024862499
0.0076200003 0.00084666669 -0.00013499999
0.043053001 0 0.001040625
-0.029718 0.00084666669 -0.00091875001
-0.0095250001 0 -0.00091875001
0.021717001 -0.00127 -0.0017025
0.030099001 -0.00042333335 -0.0017025
0.036194999 0.00084666669 -0.00091875001
-0.048006002 0 0.001040625
0.011049001 -0.00042333335 -0.0017025
-0.035433002 0 -0.0087562501
-0.041529 -0.00084666669 -0.00091875001
-0.034671001 0.00127 -0.00052687502
-0.012954 0 -0.002094375
0.012573 0.00042333335 -0.0024862499
0.040005002 0.00127 -0.00013499999
0.011811 0.00084666669 -0.00052687502
0.035433002 0.00084666669 -0.0024862499
0.038481001 0 -0.00013499999
-0.015240001 -0.00042333335 -0.0064050001
0.01905 -0.00042333335 -0.00013499999
0.0076200003 -0.00042333335 -0.00052687502
0.027432 0.00084666669 -0.00013499999
0.027432 0.00042333335 -0.00052687502
-0.032003999 0.00084666669 -0.001310625
-0.0087630004 0.00084666669 -0.00013499999
-0.047625002 0.00042333335 -0.00091875001
-0.022479 -0.00042333335 -0.001310625
0.0064770002 0 -0.00013499999
-0.004191 -0.00084666669 -0.00091875001
-0.010668 -0.00042333335 -0.001310625
-0.024765 -0.00127 -0.002094375
0.029718 0.00127 -0.002094375
-0.030861 -0.00042333335 -0.0024862499
-0.04572 0 0.0026081251
-0.047244001 -0.00042333335 -0.0017025
-0.02286 -0.00084666669 -0.001310625
0.036956999 0 -0.002094375
0.016383 0 -0.001310625
0.020192999 0 -0.0028781251
0.024765 0 -0.00091875001
0.041529 0.00127 -0.0017025
-0.0049530002 -0.00042333335 -0.00718875
0.0064770002 -0.00084666669 -0.00091875001
0.041147999 -0.00084666669 -0.00052687502
-0.0053340001 0.00084666669 -0.00013499999
-0.011049001 0.00127 -0.002094375
-0.029718 -0.00084666669 -0.00091875001
0.020955 -0.00042333335 -0.001310625
0.001524 -0.00127 -0.00013499999
-0.0064770002 -0.00084666669 -0.00013499999
-0.041529 -0.00127 -0.00013499999
-0.0076200003 0 0.0022162499
0.02286 0 -0.0056212498
-0.010287 -0.00084666669 -0.00052687502
-0.0087630004 -0.00042333335 -0.0017025
0.0091439998 -0.00042333335 -0.00091875001
0.0022859999 -0.00084666669 -0.00013499999
0 -0.00127 -0.00052687502
0.0064770002 0.00042333335 -0.002094375
0.047244001 -0.00084666669 -0.00091875001
0.004191 0.00084666669 -0.00091875001
-0.019431001 -0.00042333335 -0.0017025
-0.025908001 0 -0.001310625
0.047244001 0 -0.00052687502
-0.04572 0.00127 -0.002094375
0.048767999 -0.00127 -0.00013499999
0.044576999 -0.00127 -0.00052687502
0.012954 -0.00084666669 -0.0017025
-0.030480001 -0.00084666669 -0.001310625
-0.046482 -0.00127 -0.002094375
0.014478 0.00084666669 -0.00052687502
-0.027813001 -0.00042333335 -0.00091875001
0.036575999 -0.00084666669 -0.00052687502
-0.0068580001 0.00127 -0.002094375
-0.040385999 0 -0.0036618749
-0.00038099999 0.00084666669 -0.00052687502
0.001143 0 -0.002094375
0.038481001 0.00084666669 -0.0024862499
0.025146 0.00127 -0.00091875001
0.035052001 0 -0.002094375
0.008382 0.00042333335 -0.002094375
0.02286 0.00127 -0.00052687502
-0.047625002 -0.00042333335 -0.0017025
-0.031622998 -0.00127 -0.00013499999
0.042672001 -0.00127 -0.0017025
-0.033528 -0.00042333335 -0.002094375
-0.028194001 0 -0.0079725003
-0.012573 -0.00042333335 -0.002094375
0.017526001 0 -0.00091875001
-0.014478 0.00084666669 -0.0017025
0.008382 0.00042333335 -0.0017025
-0.0060959999 0.00127 -0.002094375
0.017526001 0 -0.0024862499
-0.023241 -0.00084666669 -0.00052687502
-0.04572 0 -0.0079725003
-0.048006002 0 -0.0017025
-0.028956 -0.00042333335 -0.00091875001
0.003429 0 -0.00052687502
0.025146 -0.00042333335 -0.0017025
-0.001143 0.00127 -0.00052687502
0.00038099999 -0.00127 -0.00052687502
0.0026670001 0.00084666669 -0.0017025
-0.036956999 0.00127 -0.001310625
-0.0030479999 0.00127 -0.00091875001
-0.047625002 0.00127 -0.0017025
0.0053340001 -0.00084666669 -0.00013499999
0.0064770002 0.00084666669 -0.002094375
-0.01143 0.00084666669 -0.0017025
0.044576999 -0.00127 -0.00091875001
0.033909 -0.00084666669 -0.00091875001
-0.047244001 0.00127 -0.00013499999
0.0072389999 -0.00042333335 -0.00052687502
0.040766999 -0.00042333335 -0.001310625
-0.02667 0.00084666669 -0.00052687502
0.048387002 -0.00127 -0.00052687502
0.04572 0 -0.002094375
-0.023241 -0.00127 -0.00052687502
-0.023622001 -0.00042333335 -0.00091875001
0.026289001 0 -0.00091875001
-0.0030479999 -0.00127 -0.0024862499
0.0080009997 0.00127 -0.001310625
0.045338999 0.00042333335 -0.002094375
-0.035433002 -0.00127 -0.0017025
0.042291 0.00127 -0.002094375
0.00038099999 -0.00127 -0.0017025
-0.0053340001 -0.00084666669 -0.00013499999
-0.023241 -0.00084666669 -0.002094375
-0.0053340001 0 -0.001310625
0.020574 0.00084666669 -0.00091875001
0.011049001 0.00042333335 -0.00052687502
0.046101 0 -0.002094375
0 0 -0.001310625
0.015240001 0 -0.0048374999
0.040766999 0 0.0022162499
-0.017906999 0 0.00025687501
-0.029718 -0.00127 -0.001310625
0.043053001 -0.00042333335 -0.00013499999
0.032003999 0.00084666669 -0.00052687502
0.0049530002 0 -0.0079725003
0.031622998 -0.00042333335 -0.00091875001
0.016383 0.00084666669 -0.002094375
0.0038100001 0.00042333335 -0.00091875001
-0.019431001 -0.00042333335 -0.002094375
0.025527 -0.00084666669 -0.002094375
-0.0022859999 0 -0.00091875001
-0.0053340001 -0.00084666669 -0.00091875001
-0.0060959999 0.00084666669 -0.00052687502
0.0095250001 -0.00084666669 -0.0017025
0.031622998 0.00042333335 -0.001310625
0.015240001 0 -0.0017025
0.010668 0 -0.002094375
0.042291 0.00127 -0.00013499999
0.040005002 0 -0.00052687502
0.019812001 0.00127 -0.00091875001
0.032765999 0 -0.00052687502
0.043815002 -0.00127 -0.00091875001
-0.040005002 -0.00084666669 -0.00052687502
-0.025146 -0.00042333335 -0.00091875001
-0.012573 0.00084666669 -0.00091875001
0.0076200003 -0.00042333335 -0.00091875001
-0.024383999 0.00084666669 -0.0024862499
-0.033909 0 -0.001310625
-0.028574999 -0.00127 -0.00052687502
-0.014859 0.00084666669 -0.00013499999
0.022479 -0.00042333335 -0.0024862499
-0.0019050001 -0.00127 -0.001310625
0.012192 0.00084666669 -0.00013499999
0.040385999 -0.00084666669 -0.00052687502
-0.014478 0.00127 -0.00091875001
-0.021717001 -0.00127 -0.001310625
0.036194999 0.00127 -0.002094375
0.0030479999 0.00127 -0.0024862499
-0.010287 -0.00042333335 -0.00052687502
0.047244001 0.00084666669 -0.002094375
0.0030479999 0 -0.002094375
0.025527 0 -0.0075806249
-0.014097 0.00042333335 -0.0024862499
0.017526001 0.00084666669 -0.001310625
-0.036194999 -0.00042333335 -0.002094375
0.036956999 0.00084666669 -0.00091875001
0.010287 -0.00042333335 -0.001310625
-0.001143 0 -0.00091875001
0.036194999 0.00042333335 -0.002094375
0.017526001 -0.00084666669 -0.00013499999
0.024383999 -0.00084666669 -0.0017025
-0.028956 0 -0.00052687502
0.020574 0 -0.0087562501
-0.040005002 0.00042333335 -0.00091875001
0.020955 0 -0.002094375
-0.032765999 0 0.00064874999
0.032384999 0.00042333335 -0.0017025
0.028194001 0.00127 -0.00013499999
0 0 -0.0064050001
-0.030480001 -0.00127 -0.00013499999
0.0026670001 0 -0.0024862499
-0.040766999 -0.00042333335 -0.0024862499
-0.031242 0 -0.002094375
0.024765 0.00042333335 -0.00052687502
-0.029718 0.00042333335 -0.0017025
-0.025527 0 -0.0091481246
-0.028194001 0 -0.00327
-0.0045719999 -0.00084666669 -0.00013499999
0.029718 -0.00127 -0.00052687502
-0.021717001 0 -0.00052687502
0.046863001 -0.00084666669 -0.00013499999
-0.025908001 0 -0.0024862499
-0.0381 0.00084666669 -0.00052687502
0.037719 0.00127 -0.00091875001
-0.020192999 0 -0.00091875001
0.025146 0.00084666669 -0.00013499999
0.040766999 0 0.0014325
-0.042291 0 -0.0017025
0.008382 0.00084666669 -0.00091875001
-0.01143 0 -0.00052687502
0.047244001 0.00127 -0.001310625
-0.010668 0 -0.0024862499
-0.00076199998 -0.00042333335 -0.00091875001
-0.036194999 0.00042333335 -0.0017025
0.014097 -0.00042333335 -0.0017025
0.010287 -0.00127 -0.001310625
0.012573 0 -0.002094375
-0.0095250001 0.00084666669 -0.0017025
-0.025146 -0.00084666669 -0.00091875001
0.042672001 0.00084666669 -0.0017025
0.041529 0 -0.00052687502
0.025527 0 -0.0040537501
0.02286 -0.00127 -0.002094375
-0.02286 -0.00127 -0.001310625
0.046101 -0.00127 -0.00052687502
-0.027813001 -0.00127 -0.0017025
-0.04572 0.00127 -0.00052687502
0.016764 -0.00042333335 -0.002094375
0.037338 0.00127 -0.00013499999
0.0045719999 -0.00042333335 -0.002094375
0.04191 0.00127 -0.0017025
-0.012954 0.00127 -0.00013499999
-0.0049530002 0.00084666669 -0.00052687502
0.0099060005 -0.00127 -0.00013499999
-0.034671001 -0.00084666669 -0.00013499999
0.005715 -0.00084666669 -0.0017025
0.040766999 -0.00042333335 -0.00052687502
0.012192 -0.00127 -0.001310625
0.038862001 0 -0.0017025
-0.010668 0.00042333335 -0.00052687502
-0.0049530002 -0.00127 -0.001310625
-0.029718 -0.00127 -0.00091875001
-0.048006002 0 -0.0024862499
-0.021717001 0.00127 -0.00013499999
-0.035813998 -0.00127 -0.001310625
-0.00076199998 0 -0.001310625
0.039243001 -0.00084666669 -0.002094375
-0.035052001 -0.00127 -0.00013499999
-0.017526001 0.00084666669 -0.002094375
0.040005002 0.00127 -0.00091875001
-0.039243001 0 -0.00091875001
0.043434002 0.00127 -0.001310625
0.0030479999 0.00127 -0.0017025
-0.013335 0.00127 -0.00052687502
0.003429 -0.00042333335 -0.0024862499
-0.027432 -0.00127 -0.00052687502
0.043815002 0.00084666669 -0.002094375
-0.015240001 0 -0.0083643747
-0.0026670001 0 -0.0064050001
-0.040766999 0.00084666669 -0.00091875001
-0.037338 0.00084666669 -0.00013499999
0.0045719999 0.00127 -0.002094375
0.030099001 -0.00127 -0.00091875001
0.031622998 -0.00084666669 -0.0017025
0.012573 0.00042333335 -0.001310625
0.00076199998 -0.00127 -0.001310625
0.047625002 0.00127 -0.00091875001
0.028956 0.00084666669 -0.00091875001
-0.045338999 -0.00042333335 -0.0017025
0.040766999 0 -0.0040537501
0.028574999 0.00127 -0.001310625
-0.030861 -0.00084666669 -0.00013499999
-0.035052001 0.00084666669 -0.0017025
0.033909 -0.00042333335 -0.00091875001
0.023622001 -0.00084666669 -0.0017025
-0.036956999 0 -0.00091875001
0.035433002 0 -0.0060131252
0.044576999 -0.00042333335 -0.00013499999
0.042672001 -0.00127 -0.001310625
-0.040766999 0 -0.0028781251
0.043053001 -0.00042333335 -0.002094375
0.012192 0.00042333335 -0.00091875001
-0.0068580001 0 -0.00013499999
0.0030479999 0.00042333335 -0.002094375
0.040005002 0.00084666669 -0.00052687502
-0.043434002 0 0.00025687501
0.012573 0.00084666669 -0.001310625
-0.0053340001 0.00084666669 -0.001310625
0.00038099999 -0.00127 -0.00091875001
-0.027813001 0.00084666669 -0.0017025
-0.0022859999 0 -0.00327
-0.0049530002 -0.00084666669 -0.00052687502
0.014478 0.00084666669 -0.00013499999
-0.014478 -0.00127 -0.001310625
0.020574 0.00042333335 -0.00091875001
0.038481001 0.00042333335 -0.002094375
0.028956 0 -0.001310625
0.024003001 -0.00084666669 -0.002094375
0.013335 0.00084666669 -0.001310625
-0.015240001 -0.00127 -0.00052687502
0.018669 -0.00084666669 -0.002094375
-0.036956999 0.00127 -0.00013499999
-0.023622001 -0.00084666669 -0.001310625
-0.023241 0.00042333335 -0.0017025
0.011049001 0.00042333335 -0.00091875001
0.0022859999 -0.00042333335 -0.001310625
0.013716 0.00127 -0.00091875001
0.037719 0.00042333335 -0.00091875001
-0.040385999 -0.00127 -0.00013499999
0.023241 0.00084666669 -0.0017025
0.010287 0 -0.0079725003
-0.048387002 -0.00042333335 -0.002094375
-0.030480001 0 0.00064874999
-0.048767999 0.00127 -0.002094375
0.048006002 -0.00084666669 -0.00013499999
-0.013335 0.00084666669 -0.001310625
-0.019812001 -0.00127 -0.00013499999
0.02286 0 0.00064874999
-0.035813998 0 -0.0079725003
0.020574 -0.00084666669 -0.00013499999
0.014097 0.00127 -0.00013499999
0.045338999 0 -0.00013499999
-0.046482 0 -0.002094375
-0.0072389999 0.00127 -0.001310625
0.027051 -0.00042333335 -0.0017025
0.034671001 0.00127 -0.00052687502
-0.029337 -0.00127 -0.001310625
0.030480001 0.00127 -0.001310625
0.0381 0.00127 -0.00091875001
-0.027432 0.00127 -0.0024862499
-0.00038099999 0 -0.00091875001
-0.020192999 0 -0.0083643747
0.008382 -0.00042333335 -0.00091875001
0.017145 0.00127 -0.00013499999
-0.015240001 0 -0.002094375
0.015240001 0 -0.004445625
0.015240001 0.00042333335 -0.0024862499
0.037338 -0.00084666669 -0.00052687502
0.02286 0.00042333335 -0.00091875001
-0.034290001 0.00042333335 -0.002094375
0.040385999 -0.00042333335 -0.001310625
0.020192999 -0.00042333335 0.0022162499
-0.01143 -0.00127 -0.002094375
-0.024003001 0.00084666669 -0.00052687502
-0.0080009997 0.00042333335 -0.0024862499
-0.001524 -0.00042333335 -0.00052687502
-0.0099060005 0.00084666669 -0.00052687502
0.032384999 0.00084666669 -0.00052687502
-0.020955 0.00084666669 -0.002094375
0.043053001 -0.00127 -0.00091875001
-0.0060959999 -0.00127 -0.00091875001
-0.003429 0.00127 -0.0024862499
0.0019050001 0.00127 -0.0024862499
0.001524 0 -0.001310625
0.015621 -0.00127 -0.00013499999
0.011811 0.00084666669 -0.002094375
-0.017145 -0.00042333335 -0.00052687502
0.040385999 0 -0.00718875
-0.030099001 -0.00127 -0.00091875001
0.0019050001 0 -0.0017025
-0.024003001 -0.00127 -0.002094375
0.029718 0.00127 -0.0017025
0.035433002 -0.00042333335 -0.00091875001
-0.0064770002 -0.00042333335 -0.001310625
0.022479 0.00127 -0.001310625
-0.00038099999 0.00084666669 -0.00013499999
-0.032384999 0.00127 -0.001310625
-0.021336 0.00042333335 -0.00052687502
0.004191 -0.00084666669 -0.0024862499
-0.010668 0.00084666669 -0.00091875001
-0.016764 -0.00084666669 -0.00091875001
0.035433002 -0.00042333335 -0.002094375
-0.041147999 -0.00084666669 -0.00013499999
0.00038099999 -0.00042333335 -0.00091875001
0.030861 0.00084666669 -0.00091875001
0.045338999 0 -0.002094375
-0.02667 -0.00042333335 -0.0017025
-0.047625002 0.00084666669 -0.002094375
0.015621 -0.00042333335 -0.002094375
-0.012954 -0.00127 -0.0017025
0.044196002 0.00042333335 -0.002094375
-0.047625002 -0.00042333335 -0.002094375
-0.032765999 -0.00084666669 -0.00091875001
-0.032765999 0.00127 -0.0017025
-0.012573 0 -0.0017025
-0.024383999 -0.00127 -0.001310625
-0.025527 -0.00127 -0.001310625
0.016383 -0.00084666669 -0.002094375
0.028956 -0.00042333335 -0.002094375
0.015240001 0.00127 -0.00091875001
-0.012192 0.00084666669 -0.0017025
0.022098001 -0.00127 -0.001310625
-0.029337 -0.00127 -0.00013499999
-0.022479 -0.00127 -0.0024862499
0.018669 0.00084666669 -0.002094375
0.016001999 0.00084666669 -0.002094375
-0.043053001 -0.00084666669 -0.0017025
-0.042672001 -0.00084666669 -0.00091875001
0.044196002 -0.00042333335 -0.001310625
-0.02286 0 0.001824375
0.026289001 0.00084666669 -0.001310625
0.0381 0 -0.00091875001
-0.030099001 -0.00042333335 -0.00091875001
0.0026670001 -0.00084666669 -0.0024862499
-0.043815002 -0.00127 -0.00052687502
0.0099060005 0 -0.006796875
0.048767999 -0.00042333335 -0.00013499999
-0.038481001 0.00084666669 -0.002094375
-0.018288 -0.00042333335 -0.00013499999
0.019431001 0 -0.00052687502
-0.016001999 -0.00127 -0.0017025
-0.033528 0.00042333335 -0.00091875001
-0.023622001 0 -0.00052687502
0.025527 0.00042333335 -0.0017025
-0.0060959999 -0.00084666669 -0.00091875001
0.0038100001 0 -0.0017025
-0.025146 0 -0.0060131252
0.00038099999 0.00127 -0.001310625
-0.013716 0.00127 -0.0017025
-0.0064770002 -0.00127 -0.0017025
-0.045338999 0 -0.001310625
0.047244001 -0.00127 -0.0017025
-0.024003001 0 -0.00013499999
-0.010668 0.00127 -0.00091875001
-0.022098001 0 -0.00013499999
-0.015240001 0 -0.0079725003
0.010668 0.00127 -0.00013499999
0.041147999 -0.00084666669 -0.00091875001
0.032765999 0 -0.0056212498
0.038481001 0 -0.002094375
-0.035813998 0 -0.0052293749
0.0053340001 0.00084666669 -0.0024862499
0.033528 0 -0.0024862499
-0.039624002 -0.00127 -0.002094375
0.024765 0.00042333335 -0.002094375
0.0080009997 0 -0.001310625
0.004191 0 -0.0024862499
-0.015621 -0.00084666669 -0.00091875001
-0.044957999 0.00084666669 -0.00013499999
-0.046482 -0.00042333335 -0.001310625
0.020955 0.00127 -0.002094375
-0.033909 -0.00042333335 -0.001310625
0.0381 0 -0.006796875
0.030099001 0 -0.00052687502
-0.00038099999 0.00127 -0.00052687502
-0.0053340001 -0.00042333335 -0.00052687502
-0.032384999 -0.00084666669 -0.00052687502
-0.017906999 0 -0.004445625
-0.0026670001 -0.00084666669 -0.002094375
0.0076200003 0 -0.004445625
-0.020192999 0 -0.0064050001
0.044576999 0.00084666669 -0.002094375
0.01905 -0.00127 -0.0017025
0.0022859999 0.00084666669 -0.00091875001
-0.04191 0.00084666669 -0.00091875001
-0.010668 0 -0.0017025
0.041529 0.00127 -0.00013499999
-0.040005002 -0.00042333335 -0.0017025
0.0095250001 -0.00084666669 -0.002094375
-0.020192999 -0.00042333335 -0.00091875001
-0.038481001 -0.00042333335 -0.00091875001
-0.02286 0 -0.006796875
-0.0072389999 0.00127 -0.00052687502
-0.038481001 0.00084666669 -0.001310625
0.010287 -0.00042333335 -0.0017025
0.028194001 0.00084666669 -0.00013499999
0.020955 0.00084666669 -0.00013499999
-0.046863001 0.00127 -0.00091875001
-0.044576999 0.00042333335 -0.002094375
-0.040005002 0 -0.002094375
0.041147999 -0.00084666669 -0.002094375
-0.043434002 -0.00084666669 -0.001310625
-0.0381 -0.00042333335 -0.0024862499
-0.005715 0.00127 -0.00013499999
-0.019431001 0.00084666669 -0.002094375
-0.00038099999 -0.00042333335 -0.002094375
0.032765999 -0.00084666669 -0.00091875001
-0.020574 -0.00042333335 -0.0024862499
0.022479 0 -0.00091875001
-0.001524 -0.00042333335 -0.0024862499
-0.02667 0.00127 -0.00013499999
-0.046101 0.00042333335 -0.00091875001
0.014859 -0.00042333335 -0.00091875001
0.036956999 -0.00042333335 -0.00052687502
0.019812001 -0.00084666669 -0.00091875001
-0.025527 0 -0.0024862499
-0.033147 -0.00127 -0.0017025
-0.035433002 -0.00127 -0.00052687502
-0.029337 -0.00042333335 -0.00052687502
0.00038099999 0.00127 -0.0024862499
0.017906999 0 0.00025687501
-0.008382 0.00084666669 -0.002094375
-0.030480001 0.00042333335 -0.00052687502
0.038481001 0.00042333335 -0.00052687502
-0.00076199998 0.00084666669 -0.00052687502
-0.033909 0 -0.00052687502
-0.00038099999 -0.00042333335 -0.00013499999
-0.026289001 0.00084666669 -0.0017025
-0.047625002 0.00084666669 -0.00013499999
0.021336 0.00084666669 -0.00052687502
-0.016383 -0.00127 -0.001310625
-0.032765999 0.00127 -0.002094375
-0.049148999 0.00042333335 -0.001310625
0.046101 0.00127 -0.002094375
-0.036194999 0.00127 -0.00091875001
-0.039624002 0 -0.0017025
-0.04572 0 -0.002094375
0.005715 0.00042333335 -0.00052687502
-0.0060959999 -0.00127 -0.00013499999
-0.034290001 -0.00127 -0.0024862499
-0.014859 0.00084666669 -0.002094375
0.010287 0.00042333335 -0.0017025
-0.0076200003 0 -0.00013499999
0.0030479999 0 -0.00013499999
-0.021717001 0.00127 -0.00091875001
-0.028574999 -0.00084666669 -0.00091875001
0.033147 0 -0.0056212498
0.020574 0.00127 -0.00052687502
0.033528 -0.00084666669 -0.002094375
-0.037338 0 -0.002094375
0.043053001 -0.00042333335 -0.0017025
-0.0072389999 0.00127 -0.00091875001
0.016383 -0.00042333335 -0.00091875001
0.028956 0.00084666669 -0.0017025
-0.024765 -0.00127 -0.0024862499
-0.039624002 -0.00042333335 -0.001310625
0.030861 0 -0.00091875001
-0.026289001 0.00127 -0.00013499999
-0.017906999 0 -0.0052293749
-0.0080009997 0.00084666669 -0.00013499999
0.017526001 -0.00084666669 -0.0017025
-0.044576999 0.00084666669 -0.00091875001
0.022479 -0.00042333335 -0.001310625
-0.043434002 -0.00127 -0.00013499999
-0.028956 0.00042333335 -0.002094375
0.020192999 0.00127 -0.0017025
-0.032384999 -0.00084666669 -0.00091875001
0.041147999 -0.00042333335 -0.00013499999
0.048006002 -0.00042333335 -0.0017025
-0.021336 -0.00084666669 -0.00052687502
0.0072389999 0.00127 -0.002094375
-0.036194999 -0.00084666669 -0.00013499999
-0.041529 0.00042333335 -0.002094375
-0.0026670001 0 -0.0017025
0.00076199998 0.00127 -0.00091875001
0.015240001 -0.00084666669 -0.00013499999
0.027432 0 -0.0017025
-0.028574999 0.00084666669 -0.00013499999
-0.0076200003 -0.00042333335 -0.0036618749
0.026289001 -0.00127 -0.002094375
-0.027813001 0 0.00025687501
-0.025146 0 -0.0036618749
-0.024003001 -0.00127 -0.001310625
0.040766999 0.00042333335 -0.00091875001
-0.0049530002 0 -0.002094375
0.042291 -0.00042333335 -0.001310625
0.0030479999 0.00084666669 -0.0017025
0.029718 -0.00042333335 -0.00091875001
0.048006002 0.00042333335 -0.00052687502
0.012573 0 -0.0060131252
0.01905 -0.00084666669 -0.00091875001
0.04572 -0.00042333335 -0.001310625
-0.038481001 0.00042333335 -0.002094375
-0.036194999 -0.00042333335 -0.00052687502
0.045338999 -0.00042333335 -0.001310625
-0.012192 -0.00084666669 -0.00091875001
0.0087630004 0.00084666669 -0.00013499999
0.035433002 -0.00127 -0.00091875001
0.0381 -0.00042333335 -0.00091875001
0.001143 0 -0.00091875001
0.027813001 0.00127 -0.00013499999
-0.0095250001 -0.00127 -0.002094375
0.030861 0.00042333335 -0.001310625
-0.039624002 -0.00084666669 -0.00091875001
-0.032765999 0.00084666669 -0.001310625
-0.048767999 -0.00127 -0.002094375
0.0053340001 0 -0.006796875
0.0022859999 0 -0.0017025
-0.043434002 0.00042333335 -0.00091875001
-0.012954 0 -0.006796875
0.025908001 -0.00084666669 -0.00091875001
-0.020955 -0.00084666669 -0.00091875001
-0.0068580001 0.00127 -0.00013499999
0.024383999 -0.00084666669 -0.0024862499
0.018288 -0.00127 -0.0017025
0.0053340001 -0.00042333335 -0.002094375
0.005715 -0.00042333335 -0.0017025
0.025527 0 -0.00718875
0.02667 0.00127 -0.00052687502
-0.020192999 0 -0.0052293749
-0.013716 -0.00042333335 -0.00052687502
0.033147 0 -0.006796875
-0.019812001 0.00084666669 -0.00052687502
0.0060959999 0.00127 -0.0024862499
0.036956999 0.00127 -0.0017025
0.0060959999 0.00042333335 -0.002094375
0.034290001 0.00084666669 -0.00013499999
-0.026289001 0.00127 -0.0017025
-0.025146 0 -0.00327
0.032765999 0.00127 -0.0017025
0.015240001 -0.00127 -0.00091875001
0.017906999 0 -0.004445625
0.020574 0.00042333335 -0.002094375
0 -0.00084666669 -0.0017025
-0.016001999 0.00084666669 -0.00091875001
-0.04572 0 -0.0064050001
0.01905 0.00042333335 -0.00091875001
0.0099060005 -0.00084666669 -0.00013499999
0.039243001 -0.00042333335 -0.001310625
0.033528 -0.00127 -0.0017025
-0.024383999 -0.00042333335 -0.00013499999
0.04572 0 -0.001310625
0.015240001 0.00127 -0.00052687502
-0.014478 0.00042333335 -0.0017025
-0.029337 -0.00042333335 -0.001310625
0.012192 0.00084666669 -0.00091875001
0.027813001 0 -0.0048374999
0.035433002 0 -0.0024862499
-0.043053001 0 0.00025687501
-0.017145 0.00042333335 -0.0024862499
0.01905 0.00042333335 -0.00052687502
0.0080009997 -0.00084666669 -0.00091875001
0.044196002 0.00042333335 -0.0017025
-0.033909 -0.00127 -0.002094375
-0.042291 0.00042333335 -0.002094375
0.029337 -0.00127 -0.00052687502
-0.012573 -0.00042333335 -0.0040537501
-0.025908001 0.00084666669 -0.0024862499
-0.0019050001 0.00127 -0.0024862499
-0.018288 -0.00042333335 -0.002094375
0.039624002 0.00127 -0.0017025
0.034290001 -0.00127 -0.00091875001
0.021717001 -0.00084666669 -0.001310625
0.04572 0 -0.0024862499
-0.0038100001 0 -0.00013499999
-0.035433002 -0.00127 -0.002094375
-0.012954 0 -0.0056212498
-0.032384999 0.00042333335 -0.001310625
-0.00076199998 0.00084666669 -0.001310625
-0.001143 0 -0.00013499999
0.0087630004 0.00042333335 -0.00091875001
0.038862001 0.00042333335 -0.00091875001
-0.035813998 0.00084666669 -0.002094375
0.026289001 -0.00127 -0.0017025
-0.020574 0.00084666669 -0.00052687502
-0.032765999 0 -0.00091875001
-0.043434002 -0.00084666669 -0.00013499999
-0.0091439998 0.00084666669 -0.0017025
-0.030099001 0 -0.002094375
-0.048767999 0.00127 -0.00091875001
0.042291 0 -0.00091875001
0.021717001 0.00084666669 -0.00013499999
-0.032003999 0 -0.002094375
-0.013335 0.00084666669 -0.0017025
-0.049148999 0 -0.00052687502
-0.030480001 0 -0.0087562501
-0.032003999 -0.00127 -0.001310625
0.010668 0.00127 -0.001310625
0.0076200003 -0.00042333335 -0.00013499999
0.030480001 0 -0.0024862499
-0.0095250001 -0.00042333335 -0.00013499999
0.0045719999 -0.00042333335 -0.00052687502
-0.0049530002 -0.00042333335 -0.00327
-0.030861 0.00084666669 -0.0017025
0.01143 -0.00127 -0.00052687502
0.024383999 0 -0.0017025
-0.0060959999 -0.00127 -0.001310625
0.011811 -0.00127 -0.00091875001
-0.008382 0.00084666669 -0.0017025
-0.030099001 0 -0.0024862499
-0.016764 -0.00127 -0.00052687502
-0.0026670001 0 -0.00052687502
0.044957999 0 -0.001310625
0.026289001 -0.00127 -0.00013499999
-0.017145 0 -0.00091875001
-0.018288 -0.00084666669 -0.001310625
-0.0049530002 -0.00042333335 -0.0075806249
0.0076200003 -0.00042333335 -0.0017025
-0.018669 -0.00042333335 -0.00013499999
0.035052001 0.00042333335 -0.002094375
-0.011049001 -0.00127 -0.00091875001
-0.048387002 0.00127 -0.00052687502
-0.013716 0.00127 -0.001310625
0.035813998 0.00042333335 -0.001310625
0.0076200003 -0.00042333335 -0.0036618749
0.021336 0 -0.0017025
0.013716 0.00084666669 -0.00091875001
0.032765999 0 -0.00013499999
-0.030099001 0.00127 -0.001310625
0.0049530002 -0.00127 -0.001310625
0.004191 0.00127 -0.00052687502
0.042672001 0 -0.00052687502
0.014859 0 -0.00013499999
-0.021717001 0.00042333335 -0.00091875001
0.014859 0.00127 -0.0017025
0.027051 0.00127 -0.00013499999
-0.025527 0.00042333335 -0.00091875001
0.017145 -0.00042333335 -0.002094375
-0.02286 -0.00042333335 -0.0052293749
-0.033147 0 -0.006796875
0.044957999 0.00127 -0.001310625
-0.012573 -0.00042333335 -0.006796875
0.003429 0.00127 -0.0024862499
0.030861 -0.00042333335 -0.00052687502
0.0045719999 -0.00127 -0.002094375
0.035813998 0 -0.0064050001
-0.012954 0 -0.0060131252
-0.034290001 -0.00127 -0.00013499999
-0.0076200003 0.00042333335 -0.00052687502
-0.025527 0.00127 -0.00052687502
-0.024383999 -0.00127 -0.0024862499
-0.036575999 0 -0.001310625
0.034290001 0.00127 -0.002094375
0.010668 0 -0.001310625
0.004191 0 -0.00052687502
0.0095250001 0.00042333335 -0.001310625
-0.025527 0.00084666669 -0.0017025
-0.0053340001 0 -0.00052687502
0.02286 -0.00084666669 -0.00013499999
-0.027432 0.00042333335 -0.002094375
0.01143 0.00127 -0.002094375
0.010287 0 -0.002094375
-0.027813001 0.00127 -0.0017025
0.048767999 0.00084666669 -0.001310625
-0.031622998 -0.00084666669 -0.002094375
0.01905 0.00127 -0.001310625
-0.0053340001 0.00042333335 -0.001310625
-0.042291 0.00084666669 -0.00091875001
-0.021717001 0.00127 -0.002094375
0.030099001 0.00084666669 -0.001310625
0.043434002 -0.00084666669 -0.00091875001
0.0045719999 0.00042333335 -0.00091875001
-0.020955 -0.00042333335 -0.0017025
0.017906999 0 -0.0075806249
-0.032384999 -0.00127 -0.00013499999
-0.014478 -0.00042333335 -0.002094375
0.034290001 0.00084666669 -0.00052687502
0.04572 0 -0.00052687502
-0.041147999 0.00042333335 -0.00091875001
-0.017526001 -0.00042333335 -0.0024862499
-0.0045719999 0.00084666669 -0.00091875001
-0.044576999 -0.00042333335 -0.0017025
-0.043053001 0.00084666669 -0.00091875001
0.020574 0.00084666669 -0.0017025
0.02286 0.00127 -0.0017025
-0.0026670001 0.00042333335 -0.00052687502
-0.033909 -0.00084666669 -0.0017025
-0.0049530002 -0.00084666669 -0.00091875001
-0.024003001 0.00084666669 -0.0024862499
-0.012192 0 -0.0024862499
-0.0030479999 -0.00042333335 -0.0024862499
0.0076200003 -0.00127 -0.00052687502
-0.043815002 0.00042333335 -0.001310625
0.011049001 0 -0.0017025
-0.048006002 -0.00127 -0.002094375
-0.040385999 0.00084666669 -0.00013499999
0.046101 0.00084666669 -0.001310625
0.0095250001 0.00084666669 -0.00052687502
-0.003429 -0.00042333335 -0.00013499999
-0.04572 0 -0.0040537501
-0.033528 0.00042333335 -0.00052687502
-0.0030479999 0.00084666669 -0.00091875001
0.035813998 -0.00127 -0.001310625
0.021717001 -0.00042333335 -0.00052687502
0.04191 0.00042333335 -0.002094375
-0.019431001 0.00127 -0.00091875001
-0.036575999 -0.00084666669 -0.002094375
0.0091439998 0.00127 -0.0017025
0.0080009997 0 -0.00052687502
-0.033147 0.00042333335 -0.00052687502
-0.003429 0 -0.00013499999
0.038481001 -0.00084666669 -0.00091875001
0.039243001 -0.00084666669 -0.0017025
0.0068580001 -0.00084666669 -0.002094375
-0.029718 0.00127 -0.002094375
-0.025527 0.00084666669 -0.00013499999
-0.0060959999 0.00127 -0.0017025
-0.025146 0.00127 -0.002094375
-0.0068580001 0 -0.0024862499
0.0026670001 -0.00042333335 -0.0060131252
-0.04572 0 -0.0075806249
-0.02286 0 -0.0017025
-0.027813001 -0.00127 -0.002094375
-0.014478 0 -0.00052687502
0.0022859999 -0.00127 -0.0017025
0.010287 0.00127 -0.001310625
0.044196002 -0.00084666669 -0.00013499999
-0.025146 0 0.0022162499
0.035433002 0 -0.0036618749
-0.014097 0.00042333335 -0.001310625
-0.034671001 0.00127 -0.002094375
-0.046863001 0.00127 -0.0017025
-0.0022859999 0.00127 -0.00013499999
-0.031622998 0.00127 -0.00091875001
-0.0060959999 -0.00084666669 -0.00052687502
-0.0060959999 0.00042333335 -0.00052687502
-0.033147 -0.00042333335 -0.001310625
-0.032765999 0 -0.002094375
-0.035813998 0.00127 -0.002094375
0.046101 -0.00042333335 -0.00091875001
0.010287 0.00042333335 -0.00091875001
-0.039624002 -0.00127 -0.00013499999
0.046101 0.00042333335 -0.00091875001
0.021336 -0.00084666669 -0.0017025
0.044957999 0 -0.002094375
0.008382 0.00084666669 -0.00013499999
0.028194001 0 -0.0040537501
-0.043815002 -0.00084666669 -0.00013499999
-0.030861 0.00042333335 -0.0017025
-0.042672001 -0.00127 -0.00091875001
-0.034671001 -0.00127 -0.001310625
-0.043053001 0 -0.0087562501
0.0091439998 0 -0.002094375
-0.034671001 -0.00042333335 -0.001310625
0.014097 -0.00084666669 -0.00013499999
0.0064770002 -0.00042333335 -0.00052687502
0.017526001 0 -0.0048374999
0.040385999 -0.00042333335 -0.00013499999
0.00038099999 0 -0.00013499999
-0.017145 0.00127 -0.001310625
0.0049530002 0 -0.0075806249
0.0076200003 0 -0.0028781251
-0.027051 0.00042333335 -0.0024862499
-0.0019050001 0.00127 -0.001310625
0.040766999 0 -0.0064050001
0.0019050001 0.00084666669 -0.002094375
0.0381 0.00084666669 -0.002094375
-0.019812001 0 -0.001310625
0.025908001 0 -0.0017025
0.032003999 -0.00127 -0.001310625
-0.021336 0 -0.0024862499
0.027813001 -0.00042333335 -0.001310625
-0.028194001 -0.00127 -0.001310625
-0.02667 -0.00084666669 -0.00013499999
-0.025527 0 -0.006796875
0.040005002 0 -0.002094375
-0.020955 -0.00127 -0.002094375
0.020192999 -0.00084666669 -0.001310625
0.014859 0 -0.002094375
-0.027051 -0.00084666669 -0.0017025
0.030861 0.00084666669 -0.0017025
0.019812001 0.00084666669 -0.00013499999
-0.0087630004 0 -0.001310625
-0.016764 -0.00042333335 -0.00091875001
-0.044196002 0.00127 -0.00091875001
-0.033147 -0.00042333335 -0.00091875001
0.025527 0.00042333335 -0.00052687502
0.032384999 0.00084666669 -0.0017025
-0.034290001 0.00042333335 -0.0017025
0.040385999 -0.00084666669 -0.0017025
0.012954 0 0.00025687501
0.003429 0.00127 -0.001310625
0.035433002 -0.00127 -0.0017025
-0.0095250001 0.00042333335 -0.00052687502
-0.025527 0 0.001040625
-0.047244001 0 -0.00091875001
0.032765999 0 -0.0040537501
0.032765999 0.00084666669 -0.0017025
0.0038100001 -0.00127 -0.00052687502
-0.020574 0.00042333335 -0.001310625
0.0019050001 0 -0.001310625
0.012192 -0.00084666669 -0.002094375
-0.015621 -0.00084666669 -0.0024862499
-0.044196002 -0.00042333335 -0.001310625
-0.016764 -0.00084666669 -0.002094375
0.023241 0.00127 -0.001310625
0.0091439998 -0.00084666669 -0.00052687502
-0.034290001 0.00084666669 -0.00013499999
0.0381 0 -0.0079725003
-0.017526001 0 -0.002094375
-0.037338 0.00127 -0.00013499999
-0.044196002 0.00042333335 -0.00052687502
-0.028194001 0 -0.0040537501
0.024765 0.00084666669 -0.00013499999
-0.016764 -0.00127 -0.00013499999
0.033147 0.00084666669 -0.001310625
0.017145 -0.00084666669 -0.00052687502
-0.04191 0.00042333335 -0.002094375
0.032765999 0.00084666669 -0.00013499999
-0.039624002 0.00127 -0.002094375
0.0064770002 0.00042333335 -0.0024862499
0.0049530002 0 -0.0052293749
0.035813998 0 -0.0083643747
0.043053001 0 -0.0079725003
