# .PCD v0.7 - Point Cloud Data file format
VERSION 0.7
FIELDS x y z
SIZE 4 4 4
TYPE F F F
COUNT 1 1 1
WIDTH 1319
HEIGHT 1
VIEWPOINT 0 0 0 1 0 0 0
POINTS 1319
DATA ascii
-0.011192191 -0.00095249998 -0.0015360001
-0.0052419123 0.00127 -0.00068550004
0.0086420719 -0.0003175 -0.00040200006
-0.013458963 -0.00095249998 -0.00068550004
0.011475538 0.000635 -0.0021030002
0.015159043 0 -0.00096900004
-0.019125896 0.0003175 -0.0015360001
-0.029609721 -0.00127 -0.00096900004
0.024226135 0.0003175 -0.0026700001
-0.015159043 0.000635 -0.0015360001
-0.01374231 0.000635 -0.0021030002
-0.03470996 0.00095249998 -0.0018195001
0.014875697 0.00095249998 -0.0021030002
0.022809401 -0.0003175 -0.00096900004
0.033293225 -0.0003175 -0.0021030002
0.024792828 -0.00127 -0.0018195001
0.029893067 -0.00095249998 -0.0021030002
-0.028192988 -0.0003175 -0.00011850006
-0.0089254184 0.000635 -0.0012525001
0.0058086053 -0.0003175 -0.0018195001
-0.01799251 -0.000635 -0.0015360001
0.0041085258 0.00095249998 -0.0012525001
-0.015725737 0.00127 -0.0023865001
-0.01459235 -0.000635 -0.0018195001
0.032443188 0 -0.00068550004
0.030176414 -0.000635 -0.00068550004
-0.029043028 -0.0003175 0.00073199999
-0.031026453 0.00127 -0.00068550004
0.033009879 0.00095249998 -0.0023865001
-0.0026917928 0.00095249998 -0.0012525001
-0.030743107 -0.00127 -0.00068550004
-0.0077920319 -0.00127 -0.0021030002
0.0063752988 0.0003175 0.00073199999
-0.029893067 0.00127 -0.00096900004
0.025642868 0.00127 -0.0015360001
-0.017425817 0.00127 -0.0018195001
-0.0080753779 0.00127 -0.0023865001
0.017425817 0 -0.00011850006
0.031593148 -0.0003175 0.001866
0.017709162 0.00127 -0.00068550004
0.034993306 0.000635 -0.0018195001
-0.0072253384 0.00127 -0.0012525001
0.031876493 0.00095249998 -0.0021030002
0.0055252588 0.00095249998 -0.0015360001
0.0069419919 -0.00095249998 -0.0018195001
-0.010625497 -0.000635 -0.0018195001
-0.029043028 -0.0003175 0.0021495
0.0049585658 0.00127 -0.00040200006
0.003258486 -0.00095249998 -0.00068550004
-0.011192191 0 -0.0057885
0.024509482 -0.00127 -0.0018195001
-0.034143265 0 0.0010154999
-0.031026453 0.000635 -0.00040200006
-0.017425817 -0.000635 -0.00068550004
0.031593148 -0.0003175 -0.0052215001
0.012608924 -0.000635 -0.0023865001
0.0060919519 0 -0.0035205001
-0.025076175 0.000635 -0.00040200006
0.0063752988 0 -0.00040200006
0.031309798 -0.00095249998 -0.0021030002
0.015725737 0.0003175 -0.00068550004
0.029043028 0.0003175 -0.0021030002
0.0052419123 0 -0.00011850006
0.034426611 -0.00095249998 -0.0012525001
-0.031309798 -0.0003175 -0.00011850006
0.0077920319 0.00127 -0.00096900004
-0.029043028 0.0003175 0.001299
-0.026776254 0.00095249998 -0.0015360001
-0.031876493 -0.0003175 -0.0074895001
0.0052419123 0.00127 -0.00096900004
-0.012325577 0.00127 -0.00040200006
-0.023092749 0 -0.0015360001
0.0075086849 0.0003175 -0.00040200006
-0.023092749 -0.00127 -0.0012525001
-0.01544239 -0.00095249998 -0.0015360001
-0.029326374 -0.0003175 -0.0023865001
0.012042231 0.0003175 -0.0012525001
-0.029043028 0.000635 -0.0023865001
-0.025076175 -0.000635 -0.0018195001
-0.0018417529 0.000635 -0.0018195001
-0.026492909 -0.00127 -0.00096900004
-0.0001416733 0.00095249998 -0.00068550004
-0.019125896 0.0003175 -0.0032370002
-0.0041085258 0 -0.0057885
-0.017425817 -0.00127 -0.00011850006
-0.012325577 -0.00127 -0.00011850006
-0.0060919519 0 0.001866
0.020259282 -0.0003175 -0.00096900004
0.024226135 0.0003175 -0.0040875003
-0.010342151 0.00095249998 -0.0012525001
0.00099171314 0.000635 -0.0012525001
-0.0001416733 0.000635 -0.0015360001
-0.0015584064 -0.0003175 -0.006639
-0.0038251793 0.0003175 -0.0029535
0.0021250995 -0.00127 -0.00096900004
-0.017142469 0.00095249998 -0.00096900004
-0.0001416733 0.0003175 -0.00040200006
-0.029043028 0 -0.0049380003
-0.021676015 -0.0003175 -0.0032370002
0.025076175 0.000635 -0.0012525001
0.0069419919 -0.00095249998 -0.0023865001
0.021959363 -0.000635 -0.00040200006
0.034993306 0.00095249998 -0.0021030002
-0.01629243 0.0003175 -0.0021030002
-0.025359521 0 -0.00096900004
0.034143265 0.00127 -0.0012525001
0.016859123 0.00127 -0.0021030002
-0.024226135 0.00095249998 -0.00011850006
-0.022526056 -0.00095249998 -0.00040200006
0.03470996 0.000635 -0.00096900004
-0.025642868 0.000635 -0.0018195001
0.014309004 0.00127 -0.0018195001
-0.031876493 -0.0003175 0.001299
0.026209561 0 -0.00011850006
-0.003258486 -0.000635 -0.0023865001
-0.03385992 -0.000635 -0.00068550004
0.03385992 0.0003175 -0.00068550004
-0.0015584064 -0.0003175 -0.0035205001
-0.014875697 0.00095249998 -0.00040200006
-0.011475538 0.00127 -0.00040200006
-0.022526056 -0.0003175 -0.0015360001
0.003258486 0.0003175 -0.0023865001
0.021109322 0.00095249998 -0.0018195001
0.027059602 0.000635 -0.00068550004
0.011192191 0.00095249998 -0.0018195001
-0.011192191 -0.0003175 -0.0012525001
0.029893067 0.00095249998 -0.0023865001
0.016575776 0 -0.0035205001
0.0026917928 0.00127 -0.00096900004
0.0058086053 0.0003175 -0.0012525001
0.028192988 0.000635 -0.00068550004
-0.023942789 -0.00127 -0.00096900004
0.027059602 -0.00095249998 -0.0015360001
-0.012042231 0.000635 -0.00096900004
-0.020259282 -0.0003175 -0.0018195001
-0.012325577 -0.00095249998 -0.00040200006
0.019125896 -0.00127 -0.0012525001
0.03045976 -0.0003175 -0.0021030002
0.0060919519 0 -0.0018195001
0.021959363 0.0003175 -0.0012525001
0.0089254184 -0.00127 -0.00040200006
-0.0058086053 0 -0.0012525001
-0.011758884 -0.00127 -0.00068550004
-0.0055252588 0.00095249998 -0.00068550004
0.014025657 -0.0003175 -0.00040200006
0.020825977 -0.000635 -0.0021030002
-0.033576574 -0.000635 -0.0021030002
-0.003258486 -0.00095249998 -0.00068550004
0.016859123 0.00127 -0.0015360001
0.0001416733 0.00127 -0.0018195001
-0.0021250995 0 -0.00096900004
-0.021676015 -0.00095249998 -0.00068550004
-0.0001416733 0.00127 -0.00040200006
-0.010342151 0.000635 -0.0015360001
0.034426611 -0.000635 -0.00040200006
-0.018559203 -0.00127 -0.0018195001
-0.026492909 0.00127 -0.0023865001
0.026492909 0 -0.0063555003
-0.034426611 -0.00127 -0.0021030002
-0.021959363 -0.00127 -0.00011850006
-0.030176414 -0.00127 -0.00068550004
0.0072253384 0.00127 -0.00068550004
0.0001416733 -0.00127 -0.00040200006
0.019975936 0 -0.0021030002
0.01629243 -0.0003175 -0.0023865001
0.015159043 0.00127 -0.00096900004
0.029043028 -0.00127 -0.0018195001
-0.018275857 0.0003175 -0.0012525001
0.019125896 0.000635 -0.0021030002
0.027626295 0.000635 -0.00096900004
0.010342151 -0.000635 -0.0015360001
0.029326374 0.00127 -0.00040200006
0.0038251793 0.0003175 -0.0046545002
0.019125896 0.0003175 -0.0055050002
0.0015584064 0.00127 -0.0023865001
0.0089254184 0.00127 -0.0015360001
-0.023942789 -0.00095249998 -0.0012525001
-0.021109322 0 -0.00040200006
-0.016575776 0 0.00016499995
0.0063752988 0 -0.0077730003
-0.025076175 -0.00095249998 -0.0023865001
-0.01544239 0.000635 -0.00096900004
0.023942789 0.0003175 -0.0069225002
-0.0058086053 0.00127 -0.00011850006
-0.025076175 -0.0003175 -0.0023865001
0.029326374 -0.0003175 -0.0074895001
0.022809401 0.000635 -0.0021030002
-0.031593148 0.0003175 -0.006639
0.024509482 0.000635 -0.00068550004
-0.032443188 -0.0003175 -0.00068550004
0.03045976 0.0003175 -0.00040200006
0.0041085258 -0.000635 -0.00040200006
-0.015725737 -0.0003175 -0.00096900004
0.0018417529 -0.000635 -0.00040200006
-0.027059602 -0.000635 -0.0015360001
0.0069419919 0 -0.00068550004
0.013458963 0.0003175 -0.00011850006
-0.0049585658 -0.00127 -0.00011850006
0.0092087649 -0.00095249998 -0.00011850006
-0.01544239 -0.00095249998 -0.0012525001
0.026492909 0.000635 -0.00096900004
-0.012608924 -0.0003175 -0.0023865001
-0.023659442 -0.00127 -0.00040200006
-0.013458963 0 -0.00040200006
0.0060919519 0.00127 -0.0021030002
0.0060919519 -0.000635 -0.0023865001
-0.010342151 -0.00095249998 -0.0023865001
0.010342151 -0.00095249998 -0.0015360001
-0.021676015 0 -0.0069225002
-0.011192191 -0.0003175 -0.00068550004
0.01799251 -0.00127 -0.00096900004
-0.011475538 -0.00095249998 -0.0018195001
0.01629243 0.00095249998 -0.0018195001
-0.032443188 -0.0003175 -0.0018195001
-0.010908844 -0.0003175 -0.0023865001
-0.024509482 -0.000635 -0.00096900004
0.019409243 -0.00127 -0.00096900004
0.02139267 0 -0.0012525001
-0.031876493 0 -0.0018195001
-0.0075086849 0.00095249998 -0.0021030002
0.0086420719 0.00095249998 -0.0015360001
-0.0094921114 0.00095249998 -0.00040200006
0.002408446 -0.0003175 -0.0015360001
0.025926214 -0.00095249998 -0.0012525001
-0.019125896 0 -0.0077730003
-0.0012750598 -0.0003175 0.0024329999
-0.010625497 -0.00127 -0.00040200006
0.016009083 0.000635 -0.0015360001
-0.031026453 -0.00095249998 -0.00011850006
0.016009083 -0.00127 -0.0021030002
0.0041085258 0.0003175 -0.00096900004
0.019975936 0.0003175 -0.00040200006
-0.0077920319 0.0003175 -0.0018195001
-0.020542629 0 -0.0012525001
-0.023942789 -0.0003175 -0.0057885
-0.0080753779 -0.000635 -0.0018195001
-0.016575776 0.00095249998 -0.0021030002
0.01459235 -0.000635 -0.0012525001
0.0055252588 0.0003175 -0.00011850006
-0.03385992 -0.00095249998 -0.0018195001
-0.0077920319 0 -0.0023865001
-0.029043028 -0.0003175 -0.00068550004
-0.019125896 -0.0003175 -0.0026700001
0.023376094 -0.000635 -0.00096900004
0.014025657 0 -0.0035205001
-0.017709162 -0.00127 -0.00040200006
-0.00070836651 -0.0003175 -0.00040200006
0.020542629 0.000635 -0.0023865001
-0.020825977 -0.00127 -0.0015360001
-0.012608924 0.0003175 -0.00011850006
0.010908844 0.00127 -0.0023865001
0.0072253384 -0.000635 -0.00096900004
0.0089254184 -0.00127 -0.0023865001
-0.010908844 0.00095249998 -0.0023865001
0.012608924 -0.00095249998 -0.0015360001
-0.010342151 -0.00095249998 -0.0015360001
0.017709162 0.00127 -0.00040200006
-0.03470996 0.000635 -0.0018195001
0.0092087649 0.00127 -0.00096900004
0.015725737 -0.00095249998 -0.0021030002
0.002408446 -0.0003175 -0.0023865001
0.026492909 0.000635 -0.0021030002
0.010058804 0.000635 -0.0023865001
0.020259282 -0.000635 -0.00040200006
0.014025657 0.00127 -0.00068550004
0.0046752188 0.00127 -0.00096900004
0.016859123 0 -0.00040200006
0.032726534 0.00127 -0.0021030002
-0.033293225 0 -0.0012525001
0.0038251793 0 0.0027165001
0.016575776 -0.0003175 -0.0074895001
-0.03045976 -0.0003175 -0.00040200006
-0.025076175 0.00127 -0.0012525001
-0.0072253384 -0.00127 -0.0012525001
0.010908844 0.0003175 -0.00011850006
0.020259282 -0.0003175 -0.00040200006
-0.020825977 -0.0003175 -0.0021030002
0.025076175 0.0003175 -0.00011850006
0.0001416733 0.0003175 -0.00096900004
0.020542629 0.00095249998 -0.0023865001
0.031593148 -0.000635 -0.00040200006
0.010342151 0.00127 -0.00040200006
0.0083587253 0.0003175 -0.0012525001
-0.020542629 -0.00127 -0.00068550004
0.019125896 0.00127 -0.00040200006
0.0012750598 0.0003175 -0.004371
-0.0012750598 0.0003175 -0.0032370002
0.025359521 0.000635 -0.0015360001
-0.014309004 -0.00095249998 -0.00096900004
0.0089254184 -0.00127 -0.0018195001
-0.0038251793 -0.0003175 0.00016499995
-0.0075086849 -0.0003175 -0.00096900004
0.024509482 -0.000635 -0.0021030002
-0.0035418326 0.00127 -0.00011850006
0.010342151 -0.00095249998 -0.0023865001
0.0029751393 0.00127 -0.00011850006
-0.0041085258 0.00127 -0.0021030002
-0.019975936 0.000635 -0.0015360001
0.01459235 -0.00127 -0.0012525001
0.031876493 0 -0.0060720001
0.021109322 0.00127 -0.0021030002
0.011192191 0.0003175 0.0015824999
0.01799251 0.00095249998 -0.0021030002
-0.020259282 0 -0.0018195001
0.01544239 0.00127 -0.00068550004
0.016859123 -0.0003175 -0.00096900004
-0.030743107 -0.00127 -0.0018195001
0.023376094 0.000635 -0.0012525001
-0.016009083 0.0003175 -0.0015360001
0.017709162 0.000635 -0.0023865001
-0.013175617 -0.000635 -0.0023865001
-0.020259282 0.000635 -0.00068550004
0.023092749 -0.00127 -0.0021030002
-0.031593148 0 -0.0057885
0.029893067 0.0003175 -0.00011850006
-0.034143265 0.000635 -0.0015360001
-0.0063752988 0.0003175 -0.0057885
0.033009879 -0.0003175 -0.00096900004
-0.013458963 0 -0.00096900004
0.03385992 -0.00127 -0.00040200006
0.011192191 -0.00127 -0.0021030002
-0.023942789 -0.0003175 -0.0074895001
-0.02790964 -0.0003175 -0.00040200006
-0.010342151 0 -0.00040200006
0.0015584064 0 -0.0023865001
-0.025926214 0.000635 -0.0021030002
-0.030176414 -0.00095249998 -0.0012525001
-0.0075086849 0 -0.0012525001
-0.01374231 0 0.0010154999
0.0072253384 0.00127 -0.00096900004
-0.018559203 -0.0003175 -0.0015360001
-0.017142469 0.00127 -0.0012525001
-0.024226135 0 -0.00096900004
0.031876493 0 -0.0077730003
0.022809401 0.0003175 -0.0015360001
-0.0012750598 -0.0003175 -0.0018195001
-0.029893067 -0.00127 -0.00096900004
-0.026776254 -0.0003175 -0.0052215001
-0.02790964 0.00127 -0.0015360001
0.01289227 0.0003175 -0.00011850006
0.034143265 0 -0.0063555003
-0.017142469 0.0003175 -0.00011850006
-0.023942789 0 -0.0069225002
0.0038251793 -0.0003175 -0.0035205001
0.0089254184 0.000635 -0.0023865001
0.00042501991 0.00127 -0.00040200006
-0.0089254184 -0.0003175 -0.0055050002
-0.0060919519 -0.00095249998 -0.0018195001
-0.026776254 0.0003175 0.0010154999
-0.0058086053 0.0003175 -0.00096900004
0.01459235 -0.00095249998 -0.0018195001
0.0038251793 -0.0003175 -0.0018195001
0.034143265 0 -0.0049380003
-0.01374231 -0.000635 -0.0015360001
0.030743107 -0.00095249998 -0.0023865001
-0.00042501991 -0.00127 -0.0023865001
-0.019125896 0.0003175 -0.0049380003
-0.027059602 -0.00127 -0.0021030002
-0.031593148 0 -0.0074895001
-0.023376094 0.000635 -0.0015360001
0.033293225 -0.00127 -0.00068550004
0.032159839 -0.000635 -0.00040200006
0.0038251793 0 -0.0055050002
-0.029893067 0.0003175 -0.0018195001
-0.016575776 0 0.001866
0.023659442 -0.0003175 -0.00040200006
0.0055252588 -0.00095249998 -0.00011850006
0.027342947 -0.00095249998 -0.00096900004
0.0035418326 0 -0.00068550004
-0.0018417529 0.00127 -0.0015360001
0.010058804 -0.000635 -0.0018195001
0.0092087649 0.00127 -0.00040200006
-0.0038251793 0 -0.0057885
-0.025926214 -0.000635 -0.0018195001
0.020259282 0.00095249998 -0.00096900004
-0.029609721 0.00127 -0.0023865001
-0.0038251793 0.00127 -0.00068550004
-0.024792828 0 -0.0023865001
-0.027626295 -0.0003175 -0.0023865001
-0.033576574 0.000635 -0.0015360001
-0.022242708 -0.00095249998 -0.0023865001
-0.0072253384 0 -0.0018195001
-0.0083587253 -0.00127 -0.0023865001
0.018559203 0.0003175 -0.00011850006
-0.0029751393 0.000635 -0.0023865001
-0.01629243 0.00095249998 -0.0012525001
0.019975936 -0.0003175 -0.00068550004
0.029043028 0.00127 -0.0012525001
-0.015159043 -0.00095249998 -0.00011850006
-0.0026917928 0.00127 -0.0018195001
-0.031593148 0.00095249998 -0.0015360001
0.010625497 0.0003175 -0.00040200006
-0.03045976 0.00095249998 -0.0012525001
-0.017425817 -0.000635 -0.0023865001
-0.014025657 -0.000635 -0.0018195001
0.024509482 0 -0.0012525001
-0.016575776 -0.0003175 0.0015824999
0.023659442 0.000635 -0.0015360001
0.0086420719 0 -0.0023865001
0.031026453 0.00095249998 -0.00040200006
-0.0077920319 0.00127 -0.0012525001
0.0075086849 -0.0003175 -0.00096900004
0.020825977 0.00127 -0.0012525001
0.033009879 -0.00127 -0.00068550004
0.01289227 -0.00127 -0.0012525001
0.023942789 -0.00095249998 -0.0023865001
0.019125896 0.0003175 -0.0063555003
-0.0063752988 0 -0.0035205001
0.024792828 -0.000635 -0.0012525001
0.016575776 0.00095249998 -0.0015360001
-0.030743107 -0.000635 -0.0021030002
0.011192191 -0.00095249998 -0.0023865001
0.020542629 -0.00095249998 -0.0012525001
0.026492909 -0.00095249998 -0.0023865001
0.031309798 -0.00095249998 -0.00096900004
0.0046752188 0.000635 -0.0021030002
0.03045976 -0.00095249998 -0.0018195001
0.014309004 -0.00095249998 -0.0015360001
-0.021676015 0 -0.0074895001
-0.017425817 0.00127 -0.0021030002
-0.0043918723 0.000635 -0.0018195001
-0.033576574 -0.00127 -0.0021030002
0.015725737 0.000635 -0.00096900004
0.00099171314 -0.0003175 -0.00011850006
-0.0043918723 -0.0003175 -0.00011850006
0.0097754579 -0.000635 -0.0023865001
0.029043028 -0.0003175 -0.0060720001
0.01374231 0 -0.0055050002
0.028759681 -0.000635 -0.0018195001
0.030743107 0.00127 -0.00096900004
-0.023092749 -0.00127 -0.00068550004
0.0038251793 0 0.00044849995
-0.024792828 -0.00127 -0.0021030002
-0.032159839 -0.00127 -0.0023865001
0.014025657 0.0003175 -0.0052215001
-0.01629243 -0.0003175 -0.0049380003
-0.0015584064 0 -0.0012525001
0.013175617 -0.00127 -0.0018195001
-0.019975936 -0.000635 -0.0023865001
-0.02139267 0 0.00073199999
-0.0063752988 0 -0.0057885
0.025642868 0.0003175 -0.00011850006
0.016009083 -0.00127 -0.00068550004
0.01459235 -0.0003175 -0.00096900004
-0.0097754579 -0.00127 -0.00011850006
0.028476333 0.00127 -0.00011850006
-0.020825977 0 -0.0023865001
-0.0052419123 0.00095249998 -0.0021030002
-0.0043918723 0.0003175 -0.0012525001
-0.0021250995 0.0003175 -0.00068550004
-0.033293225 -0.00095249998 -0.00011850006
-0.017142469 -0.00127 -0.00068550004
-0.02139267 0.0003175 -0.0021030002
-0.019125896 -0.0003175 -0.0049380003
0.0080753779 -0.00095249998 -0.00040200006
-0.0021250995 -0.0003175 -0.0023865001
0.0015584064 0 -0.0021030002
-0.02790964 0 -0.00096900004
0.021676015 -0.0003175 -0.0049380003
-0.021959363 -0.00095249998 -0.00011850006
-0.019125896 -0.0003175 0.00016499995
0.030176414 -0.0003175 -0.0018195001
-0.0089254184 0.0003175 -0.0032370002
-0.01374231 0.000635 -0.0015360001
-0.021676015 -0.0003175 -0.0018195001
0.030176414 -0.00127 -0.0012525001
0.017142469 0 -0.00068550004
0.0043918723 -0.000635 -0.0015360001
-0.019692589 0.000635 -0.0023865001
-0.01374231 0 -0.0057885
0.012042231 0.0003175 -0.0021030002
0.013175617 -0.000635 -0.00096900004
-0.029326374 -0.0003175 0.00073199999
-0.022526056 0.00095249998 -0.0012525001
-0.019692589 0.0003175 -0.0015360001
-0.031309798 0.00127 -0.0018195001
-0.020259282 -0.00127 -0.00096900004
-0.031593148 0 -0.006639
-0.031876493 -0.0003175 -0.0035205001
-0.020542629 -0.0003175 -0.0021030002
-0.02139267 -0.00127 -0.00040200006
-0.01629243 0 -0.0029535
-0.021109322 -0.0003175 -0.0018195001
0.027626295 -0.0003175 -0.00096900004
0.0018417529 0.00127 -0.0015360001
0.030176414 -0.00127 -0.0015360001
0.0038251793 0 -0.00040200006
0.023659442 0 -0.0012525001
-0.019125896 0.0003175 -0.0074895001
0.021109322 0.00095249998 -0.00011850006
-0.026209561 0.00127 -0.00011850006
0.029326374 0 -0.0015360001
0.020542629 0.000635 -0.0021030002
0.0021250995 0.00095249998 -0.00040200006
0.03045976 -0.000635 -0.00096900004
0.029043028 -0.00127 -0.00040200006
-0.024792828 -0.0003175 -0.0021030002
0.018559203 -0.00095249998 -0.00040200006
0.016575776 -0.00095249998 -0.00011850006
-0.01884255 0 0.0010154999
0.021959363 -0.0003175 -0.0018195001
-0.031593148 0 0.0010154999
0.0058086053 0.00095249998 -0.00096900004
-0.01374231 -0.00127 -0.0023865001
0.018275857 0.0003175 -0.0018195001
0.0094921114 0.00127 -0.0012525001
0.028192988 0.00127 -0.00068550004
0.012608924 0.000635 -0.0015360001
-0.02139267 -0.0003175 -0.0018195001
0.0077920319 0 -0.00096900004
0.026776254 0.0003175 -0.0012525001
-0.029893067 -0.000635 -0.0023865001
-0.034143265 0 -0.0038040001
0.0015584064 -0.00095249998 -0.0023865001
0.032159839 0.00095249998 -0.0023865001
0.020542629 0 -0.00011850006
0.010908844 0.00095249998 -0.00096900004
0.025359521 0 -0.00096900004
-0.01459235 0 -0.00040200006
-0.018559203 -0.00095249998 -0.0018195001
-0.032726534 -0.00127 -0.0012525001
-0.0080753779 -0.00127 -0.0018195001
-0.029893067 -0.0003175 -0.0023865001
-0.03045976 -0.00127 -0.00040200006
0.030176414 0.0003175 -0.00096900004
0.029326374 0 -0.004371
0.0012750598 0.00095249998 -0.0015360001
0.025359521 -0.00095249998 -0.0018195001
0.035276651 0 -0.00040200006
-0.025926214 -0.000635 -0.00096900004
0.0012750598 0 -0.0021030002
0.013175617 0.00095249998 -0.0018195001
-0.016575776 0.0003175 -0.0077730003
0.02139267 -0.000635 -0.00068550004
0.020542629 0.0003175 -0.0018195001
-0.023376094 0.0003175 -0.0018195001
0.011475538 0.00127 -0.00040200006
0.016575776 -0.0003175 -0.0072060004
-0.022526056 0.00127 -0.00040200006
-0.0035418326 0.00095249998 -0.00040200006
0.032726534 0.0003175 -0.0012525001
0.0012750598 0 -0.0038040001
-0.029609721 0 -0.0012525001
-0.017709162 0.0003175 -0.0012525001
-0.031309798 0 -0.00040200006
0.0097754579 0 -0.0018195001
-0.0038251793 -0.0003175 -0.0018195001
-0.022242708 -0.00095249998 -0.00040200006
0.0043918723 -0.00127 -0.0012525001
0.024509482 -0.00095249998 -0.00011850006
-0.031593148 -0.0003175 0.00073199999
0.022242708 -0.00127 -0.0012525001
-0.023942789 -0.0003175 0.00044849995
0.028192988 -0.00095249998 -0.00068550004
-0.028759681 -0.0003175 -0.0021030002
0.026776254 0.0003175 0.001866
-0.014309004 -0.00095249998 -0.0021030002
0.024792828 0.0003175 -0.00096900004
0.016575776 0.00095249998 -0.00011850006
-0.017709162 0.00127 -0.00068550004
0.025359521 -0.00095249998 -0.00011850006
0.017142469 -0.0003175 -0.0018195001
0.024226135 0.0003175 -0.0012525001
-0.025926214 0.000635 -0.00068550004
0.022242708 0.0003175 -0.00011850006
0.029609721 -0.00127 -0.0015360001
0.034426611 0 -0.0060720001
-0.011475538 0.00095249998 -0.00096900004
-0.03045976 0.0003175 -0.00011850006
-0.019692589 0 -0.00011850006
0.017425817 0.00095249998 -0.00068550004
-0.0077920319 -0.00095249998 -0.0012525001
-0.032443188 0.000635 -0.00096900004
-0.0063752988 0 -0.0046545002
0.017425817 0.00095249998 -0.0021030002
0.011475538 0.0003175 0.001866
0.025076175 -0.00095249998 -0.00040200006
-0.021959363 0.000635 -0.0018195001
0.024226135 0 -0.00096900004
-0.0041085258 -0.0003175 -0.00011850006
0.025926214 -0.000635 -0.00068550004
0.01289227 -0.000635 -0.0018195001
-0.034426611 -0.0003175 -0.0060720001
0.0012750598 0.0003175 0.0015824999
-0.034143265 -0.00127 -0.0018195001
0.026492909 0 -0.0023865001
-0.012608924 0 -0.0012525001
-0.017709162 -0.000635 -0.0023865001
-0.018559203 0 -0.00011850006
-0.0094921114 0.00095249998 -0.00011850006
0.0080753779 -0.0003175 -0.00011850006
0.012042231 0 -0.0012525001
0.029609721 0 -0.0018195001
0.026776254 -0.0003175 -0.006639
-0.012325577 0.000635 -0.0023865001
-0.019125896 -0.0003175 0.0024329999
0.0038251793 0.0003175 -0.0038040001
0.027059602 -0.00127 -0.00068550004
0.01459235 -0.00095249998 -0.0023865001
-0.031593148 0 -0.0023865001
-0.02790964 -0.0003175 -0.0012525001
0.0089254184 0 -0.0015360001
0.034143265 -0.0003175 -0.00011850006
-0.029326374 -0.0003175 -0.004371
-0.010908844 -0.00095249998 -0.0023865001
0.029326374 0 -0.0052215001
-0.010908844 0.00127 -0.00040200006
-0.035276651 0.000635 -0.0012525001
-0.026776254 -0.00127 -0.00096900004
0.031876493 -0.0003175 -0.004371
0.026209561 -0.00127 -0.00068550004
-0.025076175 0 -0.00096900004
-0.012325577 -0.00127 -0.00040200006
0.0086420719 0.00127 -0.0021030002
-0.003258486 -0.00127 -0.0018195001
-0.0060919519 0.000635 -0.00040200006
0.031876493 -0.00095249998 -0.0018195001
-0.016859123 -0.000635 -0.0021030002
-0.013458963 0.00095249998 -0.0021030002
0.024226135 -0.0003175 -0.0021030002
0.015159043 -0.00127 -0.0023865001
0.021676015 -0.0003175 -0.00011850006
0.0086420719 0.0003175 -0.0021030002
0.011758884 -0.0003175 -0.00040200006
0.031026453 0.00095249998 -0.0018195001
0.012608924 0.000635 -0.00040200006
-0.0069419919 -0.0003175 -0.0021030002
-0.021676015 0.0003175 -0.0074895001
-0.011758884 0.0003175 -0.0012525001
0.026776254 0 -0.0035205001
-0.019125896 0 -0.0046545002
-0.014875697 0.00095249998 -0.0023865001
-0.01629243 0.0003175 -0.006639
0.030743107 -0.0003175 -0.00040200006
0.031026453 -0.0003175 -0.00040200006
0.027342947 0.00095249998 -0.0018195001
0.01544239 0 -0.00096900004
-0.0080753779 -0.00127 -0.0023865001
-0.027342947 0 -0.0012525001
0.015159043 0.0003175 -0.0015360001
-0.003258486 0 -0.0018195001
-0.0043918723 -0.000635 -0.00068550004
-0.014025657 -0.000635 -0.0015360001
-0.025926214 0.00127 -0.00068550004
-0.0012750598 0 -0.0032370002
0.0015584064 -0.00095249998 -0.0018195001
-0.011192191 -0.000635 -0.0021030002
-0.024509482 -0.00127 -0.0018195001
0.0083587253 -0.0003175 -0.00096900004
-0.01459235 -0.00095249998 -0.0021030002
-0.01884255 0.00127 -0.00068550004
-0.033293225 0 -0.00096900004
-0.019975936 0 -0.0012525001
-0.021109322 0.00127 -0.00068550004
0.0035418326 0 -0.0060720001
0.0049585658 0.0003175 -0.00040200006
-0.012042231 0.00095249998 -0.0018195001
-0.02790964 0.00095249998 -0.0012525001
0.019125896 -0.00127 -0.00068550004
0.0058086053 0.000635 -0.0023865001
0.0046752188 0.00095249998 -0.00096900004
-0.00099171314 0 -0.00040200006
0.018275857 -0.00127 -0.0018195001
-0.016009083 -0.00127 -0.0015360001
-0.01629243 0.0003175 -0.0063555003
0.01374231 0.00095249998 -0.00068550004
0.033009879 0.00095249998 -0.00068550004
-0.021676015 -0.0003175 -0.00068550004
-0.0029751393 -0.00095249998 -0.00068550004
-0.0046752188 0 -0.0021030002
-0.034993306 -0.000635 -0.0018195001
0.0021250995 0 -0.0021030002
0.016575776 -0.0003175 -0.0060720001
0.014025657 -0.0003175 -0.0015360001
0.015159043 0.0003175 -0.00040200006
-0.02139267 0.0003175 -0.00068550004
-0.03470996 -0.00095249998 -0.00011850006
-0.02139267 0.0003175 -0.0052215001
0.031876493 0.0003175 -0.0040875003
-0.019975936 0.00095249998 -0.00068550004
0.019975936 0.00127 -0.0018195001
0.018275857 -0.00095249998 -0.0018195001
-0.012042231 -0.00095249998 -0.0023865001
0.0066586453 0 -0.00068550004
-0.033293225 0.000635 -0.00096900004
0.020259282 0.00095249998 -0.00068550004
0.0097754579 -0.00127 -0.0021030002
0.01459235 0.0003175 -0.0018195001
-0.031593148 0.0003175 -0.004371
-0.0058086053 0.00095249998 -0.0018195001
-0.01884255 0 0.00016499995
-0.01799251 -0.00127 -0.0021030002
-0.014309004 -0.00127 -0.00068550004
-0.024226135 0.0003175 0.0024329999
0.016575776 0 -0.0052215001
0.0089254184 0.00095249998 -0.00011850006
0.0089254184 0.000635 -0.0012525001
0.0086420719 -0.00127 -0.00040200006
-0.028192988 0.00095249998 -0.0023865001
0.0038251793 0.0003175 -0.0055050002
-0.02790964 0 -0.0018195001
-0.010908844 -0.0003175 -0.00040200006
0.025642868 0.000635 -0.00040200006
0.024226135 0.0003175 -0.006639
-0.011475538 -0.00095249998 -0.00068550004
0.03385992 -0.000635 -0.0021030002
-0.01544239 0.000635 -0.0023865001
-0.0094921114 0.00127 -0.00011850006
0.031876493 0.000635 -0.0018195001
-0.010058804 0.0003175 -0.0021030002
-0.031876493 0 0.001299
-0.02139267 -0.0003175 -0.0046545002
-0.01629243 0.00095249998 -0.0018195001
0.024509482 0.0003175 -0.00040200006
0.011192191 0 0.001866
-0.014309004 0.000635 -0.0021030002
0.029893067 0 -0.0021030002
-0.029609721 0.00095249998 -0.0012525001
-0.014025657 0 -0.0055050002
-0.029043028 0.0003175 -0.004371
-0.0089254184 -0.00127 -0.00096900004
-0.019125896 0.00095249998 -0.0018195001
-0.029043028 0 0.00073199999
-0.033576574 0 -0.00011850006
0.014025657 0.000635 -0.0018195001
0.018559203 -0.00095249998 -0.0018195001
-0.0080753779 -0.0003175 -0.0023865001
-0.0097754579 0.000635 -0.0012525001
-0.011192191 0.00127 -0.00011850006
0.025926214 -0.0003175 -0.0023865001
0.010908844 0.00127 -0.00011850006
0.033293225 0.0003175 -0.0023865001
-0.019975936 0.00095249998 -0.0012525001
-0.01374231 -0.00095249998 -0.0021030002
0.031309798 0.00095249998 -0.0015360001
-0.0012750598 -0.00095249998 -0.0021030002
0.002408446 -0.00127 -0.00040200006
-0.0086420719 0 0.001299
0.033576574 0 -0.0015360001
0.011475538 0 -0.0077730003
0.033009879 -0.00127 -0.0021030002
-0.021676015 0.0003175 0.0010154999
-0.012608924 0 -0.00096900004
0.02139267 -0.00095249998 -0.0015360001
0.014875697 0.00127 -0.0015360001
0.029893067 -0.00127 -0.0012525001
-0.0001416733 -0.00095249998 -0.0023865001
0.032159839 0.000635 -0.00096900004
-0.023092749 0.000635 -0.00040200006
-0.0097754579 0.00127 -0.00068550004
0.033009879 0.00095249998 -0.00096900004
-0.0060919519 -0.00127 -0.0012525001
0.014309004 0.00127 -0.00068550004
0.0052419123 -0.000635 -0.0015360001
0.031309798 0.00095249998 -0.00040200006
0.026776254 -0.0003175 0.00044849995
-0.02139267 -0.00095249998 -0.00040200006
-0.017425817 0.00095249998 -0.0021030002
-0.019409243 0 -0.0015360001
-0.025926214 0.000635 -0.0023865001
0.0043918723 -0.0003175 -0.0018195001
-0.028759681 0.00095249998 -0.00068550004
-0.0018417529 0.0003175 -0.0021030002
-0.014875697 -0.00095249998 -0.0018195001
-0.0060919519 0 -0.0057885
0.020259282 -0.0003175 -0.0023865001
0.0038251793 0 -0.0060720001
-0.031876493 -0.00127 -0.0012525001
-0.0089254184 0.00095249998 -0.00040200006
0.0015584064 0 0.001299
0.034143265 0 -0.00096900004
-0.0052419123 0.000635 -0.0021030002
-0.028192988 0 -0.00068550004
-0.0001416733 0.00095249998 -0.00011850006
-0.0041085258 0.00095249998 -0.00096900004
0.015159043 -0.00127 -0.0021030002
0.0089254184 -0.0003175 -0.006639
-0.029609721 0.00095249998 -0.00040200006
-0.032443188 -0.00127 -0.00011850006
0.028476333 -0.00095249998 -0.0015360001
-0.017709162 -0.00095249998 -0.00040200006
0.024792828 0.000635 -0.0015360001
-0.024226135 -0.00095249998 -0.0018195001
-0.0089254184 -0.0003175 -0.0069225002
-0.0086420719 0 0.0015824999
0.010625497 -0.000635 -0.00096900004
-0.019409243 0.000635 -0.0012525001
0.0038251793 0.00127 -0.00068550004
-0.025926214 0.0003175 -0.0018195001
-0.0094921114 0.00127 -0.0023865001
-0.032443188 0.00095249998 -0.0015360001
0.016009083 0.00127 -0.0015360001
-0.031876493 0.00127 -0.0015360001
0.02790964 0 -0.00068550004
0.010058804 0.00095249998 -0.00040200006
0.017425817 0.0003175 -0.00040200006
-0.0089254184 0 -0.00068550004
0.021676015 0.0003175 -0.0046545002
-0.0089254184 0 -0.0057885
-0.03045976 0.00095249998 -0.00096900004
0.0055252588 0 -0.0023865001
-0.010908844 -0.00095249998 -0.00068550004
-0.01629243 -0.0003175 -0.00096900004
0.0080753779 -0.00095249998 -0.0018195001
-0.031026453 0.00095249998 -0.0012525001
0.012042231 -0.00095249998 -0.00068550004
0.023942789 0.0003175 -0.0074895001
0.010908844 0.000635 -0.00068550004
0.016859123 -0.00095249998 -0.0021030002
-0.015159043 0.0003175 -0.00068550004
0.0041085258 0.0003175 -0.0015360001
0.025076175 0.0003175 -0.00096900004
-0.033009879 -0.00127 -0.0018195001
-0.026492909 -0.000635 -0.0012525001
0.02139267 -0.0003175 -0.0035205001
-0.025076175 0 -0.00011850006
0.010625497 -0.00127 -0.0023865001
0.018275857 0.000635 -0.00096900004
0.0026917928 0.0003175 -0.00096900004
-0.02139267 0.000635 -0.0015360001
0.034993306 0.0003175 -0.00011850006
-0.019125896 -0.0003175 -0.0055050002
-0.021959363 -0.00127 -0.00096900004
-0.015159043 -0.00127 -0.0012525001
0.027626295 -0.00127 -0.00011850006
-0.0086420719 0 -0.0069225002
-0.0086420719 -0.00127 -0.0023865001
0.0029751393 -0.00095249998 -0.0018195001
-0.024226135 -0.0003175 -0.0072060004
0.021959363 0 -0.0012525001
0.014025657 -0.0003175 -0.00096900004
-0.012608924 0.00127 -0.0021030002
-0.031876493 0.0003175 -0.0060720001
0.026209561 0.0003175 -0.0023865001
-0.023092749 -0.00127 -0.00040200006
-0.024226135 0 -0.00011850006
-0.023376094 0.0003175 -0.00068550004
-0.010342151 -0.00127 -0.00096900004
0.016575776 0.0003175 -0.0023865001
0.026209561 -0.00127 -0.00096900004
-0.013175617 0.00095249998 -0.00068550004
0.022526056 -0.00095249998 -0.00096900004
0.0089254184 -0.0003175 -0.0055050002
-0.0097754579 -0.00095249998 -0.0023865001
0.025926214 -0.00095249998 -0.0023865001
0.034426611 0 -0.0057885
-0.034426611 -0.0003175 0.00016499995
0.0026917928 0 -0.00040200006
0.031309798 0.00095249998 -0.00096900004
0.0075086849 -0.00095249998 -0.00096900004
0.010058804 -0.000635 -0.0015360001
0.029326374 0.0003175 -0.00068550004
0.0077920319 -0.0003175 -0.00040200006
-0.021109322 -0.00095249998 -0.00096900004
-0.029043028 0.0003175 -0.0026700001
0.00042501991 -0.0003175 -0.00068550004
-0.01884255 0.0003175 -0.00040200006
-0.0086420719 -0.00127 -0.00040200006
0.0094921114 0.0003175 -0.0012525001
0.033293225 0.00127 -0.0018195001
-0.030176414 0.00095249998 -0.00040200006
0.022526056 0.00127 -0.00096900004
-0.0012750598 -0.0003175 -0.0021030002
-0.01799251 -0.00127 -0.00068550004
0.018275857 0 -0.00096900004
-0.0035418326 0 -0.0012525001
-0.0029751393 -0.0003175 -0.0023865001
-0.033009879 -0.00095249998 -0.0021030002
-0.025642868 -0.00095249998 -0.0023865001
-0.0086420719 0.00095249998 -0.0012525001
-0.02139267 -0.000635 -0.0012525001
-0.023376094 0.0003175 -0.00011850006
0.023942789 0 -0.006639
0.017709162 0.00095249998 -0.0012525001
0.029043028 0.000635 -0.0023865001
0.025359521 -0.00127 -0.0015360001
-0.00042501991 0 -0.00040200006
-0.029326374 -0.00095249998 -0.00011850006
-0.029893067 0.0003175 -0.0015360001
0.01799251 -0.0003175 -0.0012525001
0.0015584064 0 -0.0035205001
0.029326374 0.00095249998 -0.0021030002
-0.010625497 -0.00095249998 -0.0015360001
-0.033576574 -0.0003175 -0.00096900004
-0.031593148 0.00127 -0.0015360001
0.014875697 -0.00095249998 -0.00096900004
-0.019692589 0.00095249998 -0.0021030002
-0.034426611 0 -0.0015360001
0.035560001 0.000635 -0.00068550004
0.025359521 0.00127 -0.00096900004
-0.0097754579 -0.0003175 -0.00011850006
-0.021109322 -0.00127 -0.00040200006
-0.0077920319 0 -0.0015360001
0.02139267 0.0003175 -0.0046545002
-0.020259282 0.00095249998 -0.0021030002
0.003258486 -0.00095249998 -0.00011850006
-0.023092749 -0.0003175 -0.0015360001
0.031876493 0.0003175 -0.0032370002
0.0092087649 0 -0.00040200006
0.023092749 -0.00127 -0.00011850006
-0.011192191 0 -0.0072060004
-0.014025657 0 -0.0038040001
-0.010342151 -0.00127 -0.0023865001
0.035276651 0 -0.0023865001
-0.031593148 -0.000635 -0.0018195001
-0.0086420719 -0.000635 -0.0021030002
0.025359521 -0.00095249998 -0.0023865001
-0.002408446 -0.000635 -0.00096900004
-0.0012750598 0 -0.00096900004
0.021676015 0.0003175 -0.0035205001
-0.024792828 -0.000635 -0.0015360001
-0.0012750598 -0.0003175 -0.00096900004
0.025359521 0 -0.00011850006
-0.02139267 0.00127 -0.00011850006
-0.016575776 0 -0.0049380003
0.012042231 0.00095249998 -0.0021030002
0.022526056 0.00127 -0.0015360001
-0.031876493 0.0003175 0.00044849995
-0.02790964 -0.00095249998 -0.0023865001
-0.00042501991 -0.00127 -0.0012525001
-0.026492909 -0.0003175 -0.0072060004
0.026776254 -0.0003175 0.001866
0.019125896 0.0003175 -0.0072060004
-0.0001416733 -0.00095249998 -0.0012525001
0.02139267 0.0003175 -0.0018195001
-0.034426611 0.000635 -0.0023865001
0.011192191 0.000635 -0.00096900004
-0.00099171314 -0.0003175 -0.0021030002
0.03470996 -0.0003175 -0.0015360001
0.0063752988 -0.0003175 0.0015824999
0.034426611 0.000635 -0.00096900004
-0.019125896 -0.000635 -0.00068550004
-0.014025657 0.00127 -0.0012525001
0.011192191 0.00127 -0.0018195001
0.0069419919 -0.00127 -0.0018195001
0.032443188 0.000635 -0.0015360001
0.023092749 0.00127 -0.00011850006
-0.034993306 0.0003175 -0.00068550004
-0.019125896 0.0003175 -0.00040200006
-0.0080753779 0.00127 -0.0012525001
0.0012750598 0.0003175 -0.0049380003
-0.031876493 -0.00127 -0.00096900004
-0.034993306 -0.0003175 -0.00068550004
-0.0086420719 0.00095249998 -0.0021030002
0.014025657 0.0003175 -0.0055050002
0.0094921114 -0.00095249998 -0.0023865001
-0.03385992 0.0003175 -0.0018195001
0.0026917928 -0.000635 -0.00040200006
0.0015584064 0.0003175 0.0010154999
-0.013458963 0 -0.00068550004
0.0021250995 -0.00127 -0.00040200006
-0.00070836651 0.0003175 -0.0015360001
-0.023376094 0.000635 -0.00068550004
-0.029326374 0 -0.0012525001
-0.03470996 0.0003175 -0.0023865001
0.023659442 0.00095249998 -0.00011850006
0.01544239 -0.0003175 -0.00096900004
-0.017425817 -0.000635 -0.0012525001
0.0035418326 0.0003175 -0.0063555003
0.0086420719 0 -0.0046545002
-0.00042501991 -0.0003175 -0.00011850006
0.01459235 -0.00127 -0.00011850006
-0.015725737 0 -0.0012525001
0.0035418326 0 -0.0074895001
-0.0026917928 -0.000635 -0.0012525001
-0.0018417529 0.000635 -0.00040200006
0.01629243 0 0.0021495
0.035276651 0 -0.0015360001
0.010908844 0.00127 -0.00040200006
-0.00099171314 -0.0003175 -0.0015360001
0.0080753779 0.000635 -0.0012525001
-0.01374231 0 -0.0021030002
-0.0094921114 0.0003175 -0.0018195001
0.029609721 0.00095249998 -0.00011850006
0.00099171314 0.00127 -0.00068550004
0.029609721 -0.0003175 -0.0023865001
0.016859123 0.0003175 -0.0018195001
-0.011758884 -0.00127 -0.00040200006
0.0012750598 0 -0.0040875003
-0.03385992 0.000635 -0.00040200006
-0.022242708 0.00095249998 -0.0018195001
0.019409243 -0.00095249998 -0.0021030002
0.026492909 0 0.0010154999
-0.0015584064 0.00095249998 -0.00011850006
-0.013175617 0.0003175 -0.0023865001
-0.0063752988 0.000635 -0.00068550004
-0.0086420719 -0.0003175 -0.0021030002
-0.0055252588 0.00127 -0.00040200006
-0.020825977 0 -0.0021030002
0.034426611 0.00095249998 -0.00068550004
-0.0001416733 -0.00095249998 -0.00096900004
-0.011475538 -0.00127 -0.0015360001
0.0052419123 0.0003175 -0.0012525001
-0.0075086849 0.0003175 -0.00068550004
0.032726534 -0.00127 -0.0018195001
-0.0075086849 -0.000635 -0.0015360001
-0.002408446 0.00127 -0.00096900004
-0.0089254184 0 -0.0023865001
-0.030176414 0.000635 -0.0012525001
0.022242708 -0.0003175 -0.0023865001
0.015159043 -0.0003175 -0.0021030002
0.0080753779 0.00095249998 -0.0015360001
0.0049585658 -0.00095249998 -0.0021030002
-0.0075086849 0.00095249998 -0.00068550004
0.010058804 -0.00095249998 -0.00011850006
-0.028476333 -0.0003175 -0.0015360001
0.019975936 0.0003175 -0.0023865001
0.0052419123 0.000635 -0.00068550004
-0.030176414 -0.00127 -0.00096900004
-0.024226135 0.0003175 -0.0015360001
-0.014309004 -0.00127 -0.0012525001
0.022809401 0.00095249998 -0.0023865001
0.0063752988 -0.0003175 -0.0055050002
-0.025359521 0.00127 -0.00040200006
-0.0094921114 0.00095249998 -0.0018195001
0.023659442 -0.000635 -0.0023865001
-0.011758884 -0.00095249998 -0.00040200006
0.026492909 0.000635 -0.00068550004
0.03470996 -0.0003175 -0.0021030002
-0.014025657 -0.0003175 -0.0074895001
-0.011758884 0.000635 -0.0021030002
0.029893067 0.00095249998 -0.0015360001
0.0060919519 0.0003175 -0.0018195001
-0.030176414 -0.0003175 -0.0012525001
-0.029893067 0.00127 -0.0021030002
-0.0063752988 0.0003175 -0.0012525001
-0.0052419123 0.00095249998 -0.00096900004
-0.01799251 -0.00095249998 -0.0012525001
-0.013175617 -0.000635 -0.0015360001
0.00070836651 -0.0003175 -0.0023865001
0.024509482 -0.000635 -0.0015360001
-0.01544239 0 -0.0018195001
-0.034426611 -0.0003175 -0.0026700001
-0.013175617 0.000635 -0.00096900004
0.034143265 -0.000635 -0.00068550004
0.016009083 0 -0.00011850006
-0.035560001 -0.000635 -0.0015360001
-0.017709162 0.000635 -0.00068550004
-0.033576574 0.00127 -0.00096900004
-0.0049585658 -0.000635 -0.0012525001
-0.01459235 0.00127 -0.00096900004
0.021109322 -0.0003175 -0.0012525001
-0.019125896 -0.00095249998 -0.0018195001
0.0072253384 0.0003175 -0.0015360001
0.0046752188 0 -0.00040200006
0.012042231 0.00095249998 -0.00040200006
-0.011192191 -0.0003175 0.0021495
-0.015725737 0.000635 -0.00068550004
-0.034143265 -0.000635 -0.0021030002
-0.029326374 0.0003175 0.00016499995
-0.0049585658 -0.0003175 -0.0018195001
-0.0063752988 0.00095249998 -0.0012525001
0.0066586453 -0.0003175 -0.00040200006
0.035560001 0.000635 -0.00096900004
-0.034143265 0.00095249998 -0.0018195001
0.010342151 0.00127 -0.00096900004
-0.029043028 0.0003175 -0.0029535
-0.023376094 -0.00095249998 -0.0021030002
0.033576574 -0.00127 -0.00096900004
0.0072253384 -0.00095249998 -0.0012525001
-0.022526056 -0.00095249998 -0.0023865001
-0.0097754579 0 -0.00096900004
0.029326374 0 0.0024329999
0.0043918723 -0.000635 -0.00096900004
-0.01374231 0 0.0021495
-0.023659442 0.00127 -0.00011850006
0.031309798 0.0003175 -0.0015360001
0.0075086849 -0.0003175 -0.00011850006
-0.024226135 0 0.00073199999
-0.01629243 0 -0.0072060004
0.0029751393 0 -0.00011850006
0.03045976 -0.00127 -0.00068550004
-0.022526056 0 -0.00040200006
0.0015584064 -0.00127 -0.0015360001
-0.024226135 0 -0.0021030002
0.021959363 0.00095249998 -0.0018195001
-0.0043918723 0.00127 -0.0012525001
0.03385992 -0.00095249998 -0.0015360001
0.029043028 -0.00095249998 -0.0015360001
0.0015584064 0.0003175 -0.0052215001
-0.026776254 0 0.001866
0.0038251793 -0.00095249998 -0.0012525001
-0.0035418326 0 -0.0055050002
0.032159839 0 -0.0021030002
-0.021109322 -0.000635 -0.0012525001
0.023376094 0.00095249998 -0.0021030002
-0.010058804 0.00127 -0.0015360001
-0.026776254 -0.0003175 -0.0055050002
-0.019125896 -0.00095249998 -0.00096900004
0.01374231 -0.00127 -0.0023865001
0.024226135 0.0003175 -0.0063555003
-0.031876493 0 -0.00011850006
-0.027626295 0.0003175 -0.00011850006
-0.0038251793 0 -0.0080565
-0.003258486 -0.0003175 -0.0023865001
-0.01544239 0 -0.00068550004
0.021959363 -0.000635 -0.00068550004
0.035276651 -0.00095249998 -0.0015360001
0.0080753779 -0.00127 -0.00096900004
0.035276651 0.0003175 -0.00011850006
0.018275857 0.00095249998 -0.0015360001
-0.0075086849 -0.00127 -0.00068550004
0.0038251793 0.0003175 -0.0057885
0.021676015 -0.0003175 -0.0038040001
-0.021676015 0 -0.00068550004
0.021109322 0 -0.00011850006
-0.029043028 0.0003175 -0.0057885
-0.01544239 0 -0.00096900004
-0.015159043 -0.000635 -0.00096900004
-0.025926214 -0.000635 -0.0012525001
0.0001416733 -0.0003175 -0.0015360001
0.016009083 -0.00095249998 -0.0021030002
0.0060919519 0.00127 -0.00011850006
0.026776254 0.0003175 0.001299
-0.0094921114 0.00127 -0.0021030002
-0.01884255 -0.000635 -0.0018195001
0.016575776 0.00127 -0.00040200006
-0.0043918723 -0.0003175 -0.0015360001
0.002408446 -0.00095249998 -0.00040200006
0.0077920319 -0.0003175 -0.00068550004
0.023092749 0.000635 -0.0015360001
-0.012325577 -0.0003175 -0.00096900004
-0.018559203 -0.000635 -0.0015360001
-0.0089254184 -0.00095249998 -0.00040200006
0.0035418326 -0.000635 -0.0012525001
-0.010342151 0 -0.0012525001
0.0063752988 -0.0003175 -0.0060720001
0.011192191 -0.00127 -0.00068550004
-0.014025657 0 0.0010154999
-0.026776254 0.0003175 -0.0035205001
-0.031309798 -0.00095249998 -0.00068550004
-0.01884255 -0.0003175 -0.0015360001
0.01884255 0.00095249998 -0.0023865001
0.011475538 0.000635 -0.00040200006
-0.010908844 0 -0.0012525001
-0.031593148 -0.0003175 0.0021495
0.012042231 -0.000635 -0.0021030002
-0.01544239 -0.00127 -0.00011850006
0.031593148 0.00095249998 -0.0023865001
-0.03470996 -0.00095249998 -0.00040200006
-0.0001416733 -0.00127 -0.00068550004
0.00099171314 -0.00095249998 -0.00096900004
-0.0055252588 0.0003175 -0.00011850006
0.0089254184 0.00127 -0.0018195001
-0.03385992 0.00127 -0.0021030002
0.029043028 -0.0003175 -0.0026700001
-0.016575776 0.0003175 0.0021495
-0.0077920319 -0.00095249998 -0.00011850006
0.014875697 0.0003175 -0.00068550004
-0.01629243 0.0003175 -0.00040200006
-0.023376094 -0.0003175 -0.0021030002
-0.029326374 -0.0003175 0.0021495
-0.0001416733 -0.00127 -0.0023865001
0.0075086849 -0.0003175 -0.0012525001
0.018275857 -0.000635 -0.00096900004
-0.033009879 0.00095249998 -0.0015360001
0.026209561 0.0003175 -0.00011850006
-0.012608924 0.000635 -0.0018195001
-0.0055252588 0.000635 -0.0023865001
-0.032726534 -0.0003175 -0.00096900004
0.0075086849 0.0003175 -0.0018195001
-0.023942789 0.0003175 -0.006639
-0.027342947 0.00127 -0.00040200006
-0.014875697 -0.000635 -0.0021030002
-0.0049585658 -0.00127 -0.0012525001
0.027059602 -0.00095249998 -0.00040200006
-0.0029751393 -0.000635 -0.0023865001
-0.0055252588 0.00127 -0.0021030002
0.02790964 0.00127 -0.00068550004
0.028192988 0.000635 -0.00040200006
0.0052419123 -0.00127 -0.00011850006
-0.013458963 -0.0003175 -0.00068550004
-0.029043028 0 -0.0040875003
-0.023376094 0.00095249998 -0.0018195001
0.022526056 -0.00127 -0.0023865001
-0.0080753779 -0.00095249998 -0.0021030002
-0.016575776 -0.00095249998 -0.00040200006
-0.020825977 0.00127 -0.00040200006
-0.027626295 0.00127 -0.0012525001
0.00070836651 -0.000635 -0.00040200006
0.022526056 -0.000635 -0.00096900004
0.019125896 0 -0.0029535
0.010908844 -0.00127 -0.00068550004
0.0038251793 -0.000635 -0.00096900004
-0.02139267 0.0003175 -0.0018195001
0.017425817 0 -0.0018195001
-0.017142469 0.00095249998 -0.0023865001
0.023659442 -0.0003175 -0.0015360001
-0.016009083 0.00095249998 -0.0021030002
0.016575776 -0.000635 -0.0015360001
-0.029326374 -0.0003175 -0.0015360001
0.0063752988 0 0.00044849995
-0.032159839 0.00127 -0.0018195001
0.0089254184 0 -0.0018195001
0.035276651 -0.00095249998 -0.00068550004
-0.025642868 0.00095249998 -0.00068550004
-0.03470996 -0.000635 -0.0015360001
-0.0069419919 0.0003175 -0.00040200006
-0.015159043 -0.000635 -0.0021030002
-0.0018417529 -0.00127 -0.0018195001
0.026776254 0.00127 -0.0018195001
0.022809401 -0.0003175 -0.0023865001
-0.034426611 0 -0.0035205001
0.018559203 0.000635 -0.0012525001
0.034993306 -0.00095249998 -0.00068550004
-0.028192988 0 -0.0018195001
0.029893067 0.00127 -0.00011850006
-0.023659442 -0.000635 -0.0012525001
0.0066586453 -0.000635 -0.0023865001
-0.021676015 -0.0003175 -0.0057885
0.0066586453 -0.00095249998 -0.0018195001
-0.0055252588 0.00127 -0.0018195001
-0.0075086849 0.00127 -0.00011850006
-0.0092087649 0.000635 -0.0015360001
0.028476333 -0.000635 -0.0021030002
0.022526056 -0.0003175 -0.0018195001
0.0018417529 0.000635 -0.0021030002
-0.0043918723 -0.00127 -0.00040200006
0.017709162 0.00127 -0.00011850006
0.0066586453 0.00095249998 -0.0021030002
0.011192191 -0.00127 -0.00096900004
0.01374231 0 0.00044849995
-0.0012750598 0.0003175 -0.0012525001
-0.02139267 -0.0003175 -0.00011850006
-0.020259282 -0.00095249998 -0.0018195001
0.023092749 -0.0003175 -0.00096900004
0.015725737 -0.000635 -0.0021030002
0.027342947 -0.00127 -0.0023865001
0.024226135 0.0003175 -0.0049380003
-0.021959363 0.00095249998 -0.0015360001
-0.0058086053 -0.00095249998 -0.00011850006
0.02139267 0.00095249998 -0.00096900004
-0.017709162 -0.00127 -0.0015360001
0.014875697 -0.000635 -0.00040200006
0.032726534 0.00095249998 -0.00040200006
0.0089254184 -0.00095249998 -0.0021030002
0.029043028 0 -0.0038040001
-0.0072253384 0 -0.0015360001
0.0097754579 -0.000635 -0.00068550004
0.010342151 -0.00095249998 -0.00011850006
-0.015725737 0.000635 -0.0021030002
-0.023092749 0.00127 -0.0018195001
0.00099171314 0 -0.0063555003
-0.028759681 0.00127 -0.0015360001
-0.0089254184 0 -0.0055050002
0.025076175 0.0003175 -0.00040200006
-0.01289227 -0.00095249998 -0.0015360001
-0.014025657 -0.00127 -0.00068550004
-0.026776254 0 -0.0077730003
-0.023092749 -0.000635 -0.00040200006
-0.011475538 0 -0.00068550004
-0.019975936 0.00127 -0.00011850006
-0.011475538 -0.0003175 -0.0040875003
0.032159839 -0.00127 -0.0018195001
-0.014025657 -0.0003175 -0.0021030002
0.025359521 0.0003175 -0.0015360001
-0.024226135 0.0003175 -0.0029535
0.0083587253 -0.0003175 -0.00040200006
0.018559203 0.00127 -0.0012525001
-0.003258486 -0.00095249998 -0.0015360001
0.013175617 -0.00095249998 -0.0023865001
0.0060919519 -0.00095249998 -0.00011850006
-0.019409243 -0.00127 -0.00040200006
0.01629243 0 -0.004371
-0.010342151 0.000635 -0.0023865001
0.0092087649 0.00095249998 -0.00011850006
-0.017425817 0.000635 -0.0015360001
0.034426611 -0.0003175 -0.00068550004
-0.0083587253 -0.000635 -0.0023865001
0.013458963 -0.00095249998 -0.0015360001
0.03045976 0.0003175 -0.0018195001
-0.0089254184 0.0003175 -0.0063555003
-0.0089254184 0 -0.0021030002
-0.026209561 0.0003175 -0.0015360001
-0.026776254 0 -0.0057885
0.01374231 0.000635 -0.00096900004
0.019975936 -0.0003175 -0.00011850006
0.024792828 -0.0003175 -0.0015360001
0.023376094 -0.00127 -0.00096900004
0.014875697 -0.00127 -0.0018195001
0.0035418326 0.00095249998 -0.00011850006
0.00070836651 -0.0003175 -0.00040200006
-0.019975936 0.0003175 -0.00068550004
0.01544239 0.00127 -0.00040200006
-0.029326374 0 0.001299
0.016009083 -0.000635 -0.0023865001
-0.013175617 0.0003175 -0.00068550004
-0.032726534 -0.000635 -0.00068550004
0.011475538 0 0.0015824999
-0.029609721 -0.0003175 -0.00096900004
0.01289227 0.00127 -0.0023865001
-0.012325577 0.00095249998 -0.0012525001
0.027342947 -0.000635 -0.0023865001
0.0092087649 -0.000635 -0.0023865001
0.03470996 0.00095249998 -0.00068550004
-0.031876493 -0.0003175 0.0021495
0.0097754579 -0.00095249998 -0.00040200006
-0.0018417529 0.00095249998 -0.00040200006
0.032726534 -0.000635 -0.0015360001
-0.0069419919 -0.0003175 -0.0015360001
-0.019692589 -0.00095249998 -0.0018195001
-0.021676015 0.00127 -0.0023865001
-0.029609721 -0.00095249998 -0.0021030002
-0.029893067 -0.0003175 -0.0018195001
0.012042231 -0.00095249998 -0.0023865001
-0.014025657 0.0003175 -0.0035205001
0.0012750598 -0.0003175 -0.0018195001
0.014875697 -0.000635 -0.0018195001
0.012042231 -0.00127 -0.00096900004
0.0055252588 -0.0003175 -0.00096900004
-0.023376094 -0.000635 -0.00068550004
0.0083587253 -0.00127 -0.00068550004
0.0018417529 -0.0003175 -0.00011850006
-0.0012750598 0 -0.00011850006
0.029043028 -0.0003175 -0.00096900004
-0.016575776 0.000635 -0.0023865001
0.0066586453 0.0003175 -0.0023865001
-0.0075086849 -0.000635 -0.00040200006
0.013175617 0.000635 -0.00068550004
