# .PCD v0.7 - Point Cloud Data file format
VERSION 0.7
FIELDS x y z
SIZE 4 4 4
TYPE F F F
COUNT 1 1 1
WIDTH 1222
HEIGHT 1
VIEWPOINT 0 0 0 1 0 0 0
POINTS 1222
DATA ascii
-0.0010160001 0.00025400001 0.0011359459
0.016764 0.00025400001 0.0023221623
0.0040640002 -0.00059266668 -0.0024227027
0.006604 0.00025400001 0.00079702702
0.015409334 0.00076199998 -0.00021972973
-0.011684 8.4666666e-05 0.0014748649
-0.017610667 -0.00093133334 -0.0019143244
0.0013546667 -0.00093133334 -0.0024227027
0.0042333333 -0.00127 -0.0003891892
0.0011853334 0.00127 -0.0003891892
0.006604 -0.00127 -0.0019143244
-0.011176 -8.4666666e-05 -0.0080148652
-0.017272001 0.0011006667 -0.00055864867
-0.011514666 0.00025400001 0.0018137838
0.0088053336 0.00025400001 -0.0085232435
-0.0096519999 0.00076199998 -0.00021972973
0.012361334 0.00059266668 -0.0003891892
0.0060960003 -8.4666666e-05 0.0018137838
-0.0013546667 -0.00025400001 -0.002931081
-0.016086668 0.00127 -0.001067027
0.011684 -0.00025400001 -5.0270271e-05
0.0086360006 -0.00076199998 -0.00021972973
0.0091439998 0.00127 -0.001067027
-0.011176 8.4666666e-05 -0.0086927023
0.0067733335 -0.00127 -0.0019143244
0.0020320001 -0.00127 -0.001405946
0.010498667 0.00127 -0.0019143244
-0.0081280004 0.00127 -0.0003891892
0.0074506667 -0.00076199998 -0.00021972973
-0.009990667 0.00127 -0.0020837837
-0.013546667 -0.00093133334 -5.0270271e-05
-0.0011853334 0.00076199998 -0.0024227027
0.0062653334 -0.0011006667 -5.0270271e-05
0.004910667 -0.00127 -0.0022532432
-0.0074506667 -0.00127 -0.0015754054
0.013885333 0.00025400001 -0.0049645947
0.017102666 -0.00093133334 -0.00021972973
0.014054667 -8.4666666e-05 -0.0042867567
-0.0076200003 -0.00127 -0.00021972973
0.013885333 0.00025400001 -0.0083537837
0.011684 -8.4666666e-05 -0.0078454055
0.0091439998 -0.00076199998 -5.0270271e-05
-0.015070667 0.00025400001 -0.0024227027
-0.011345333 0.00127 -0.00021972973
-0.0093133338 -0.00127 -0.0020837837
-0.014901333 0.00093133334 -0.00021972973
-0.006604 -8.4666666e-05 -0.0042867567
0.0074506667 -0.00127 -0.0003891892
0.0064346669 0.00127 -0.0003891892
0.0086360006 -8.4666666e-05 -0.005811892
-0.0040640002 0.00025400001 -0.002931081
0 0.00127 -0.0019143244
0.011514666 0.00059266668 -0.0003891892
0.0069426666 -0.00127 -0.0019143244
-0.00254 0.00025400001 -0.0024227027
0.017441334 -0.0011006667 -0.0022532432
0.0040640002 -0.00042333335 -0.0003891892
0.0035560001 -0.00059266668 -0.0003891892
-0.0086360006 -0.00025400001 0.0016443243
0.0077893334 -0.00127 -0.0012364865
0.011514666 -8.4666666e-05 0.00045810812
0.01778 0.00025400001 -0.00089756754
-0.0035560001 -0.00127 -0.0024227027
-0.0088053336 -0.00093133334 -5.0270271e-05
0.010837333 0.00127 -0.0015754054
-0.014732 0.00059266668 -0.0003891892
-0.0098213339 0.00127 -0.0019143244
0.011176 0.00025400001 -0.0053035137
0.0082973335 0.00127 -0.0022532432
0.0064346669 0.00025400001 -0.0069981082
-0.0028786666 8.4666666e-05 -5.0270271e-05
0.013885333 0.00025400001 0.00079702702
-0.014224 -0.00025400001 -0.004456216
0.016256001 -8.4666666e-05 -0.002931081
0.0060960003 -0.00127 -0.001405946
0.0074506667 -0.00025400001 -0.0024227027
-0.01016 0.00127 -0.0012364865
-0.0086360006 -8.4666666e-05 -0.0039478377
0.015409334 0.00127 -0.00055864867
0.0027093333 -0.00042333335 -0.0024227027
0.014562667 -8.4666666e-05 -0.0024227027
-0.0011853334 -0.00025400001 0.0024916215
-0.016933333 -0.00127 -0.0019143244
0.0027093333 -0.00127 -0.0015754054
0.010329333 -0.00127 -0.001405946
0.011345333 -0.00025400001 0.0016443243
-0.012869334 -0.00127 -0.00055864867
0.0059266668 8.4666666e-05 -0.0024227027
-0.013377334 8.4666666e-05 -0.0024227027
-0.0089746667 0.00127 -0.0024227027
-0.0089746667 -0.00025400001 -0.0027616217
-0.011345333 -0.00025400001 0.0023221623
0.0020320001 -0.00042333335 -0.0024227027
0.00067733333 8.4666666e-05 -5.0270271e-05
0.0060960003 8.4666666e-05 -0.0027616217
-0.00254 -0.00127 -0.001067027
-0.0079586664 0.00127 -0.00089756754
0.006604 0.00025400001 -0.005134054
-0.0054186666 -0.00042333335 -0.0003891892
0.012022667 0.00127 -0.00021972973
0.011176 0.00025400001 -0.0059813512
0.0011853334 -0.00025400001 -0.0069981082
-0.0035560001 8.4666666e-05 -0.008184324
-0.0015240001 8.4666666e-05 0.00011918919
0.015748 -0.00127 -0.0017448649
-0.0064346669 -8.4666666e-05 0.0024916215
0.0015240001 8.4666666e-05 0.00028864865
-0.0040640002 0.00025400001 0.00045810812
0.0027093333 -8.4666666e-05 -5.0270271e-05
0.011176 8.4666666e-05 -0.008184324
0.011684 -0.00025400001 0.0011359459
0.016256001 -8.4666666e-05 -0.0049645947
-0.016256001 0.00127 -0.0020837837
-0.0054186666 -0.00127 -0.0017448649
-0.0010160001 0.00025400001 -0.0027616217
-0.0071120001 -0.00127 -5.0270271e-05
0.0064346669 0.00025400001 -0.0090316217
-0.011853334 0.00127 -0.0012364865
0.011684 -0.00025400001 0.0023221623
-0.0127 -0.00076199998 -0.0024227027
-0.006604 8.4666666e-05 0.0019832433
0.0069426666 -0.00127 -0.00089756754
0.011176 -0.00025400001 -0.0063202702
-0.0022013334 -0.00127 -0.0024227027
-0.0091439998 -0.00076199998 -0.0024227027
0.011514666 -0.00127 -0.0015754054
-0.017102666 -0.00025400001 -0.0024227027
-0.0044026668 0.00127 -0.0003891892
-0.016256001 -8.4666666e-05 -0.0053035137
0.0015240001 -8.4666666e-05 -0.0027616217
-0.011006667 0.00025400001 -5.0270271e-05
-0.014054667 -0.00025400001 -5.0270271e-05
-0.0022013334 0.00127 -0.00072810811
-0.016764 -8.4666666e-05 -0.003608919
-0.010668 0.00127 -0.0024227027
0.013546667 0.00127 -0.0022532432
-0.012192001 0.00076199998 -0.0024227027
0.00016933333 0.0011006667 -5.0270271e-05
-0.015917333 -0.00127 -0.0019143244
-0.011684 -0.00127 -0.001067027
0.012530667 -0.00127 -0.00055864867
-0.0042333333 0.00025400001 -0.0024227027
0.011176 8.4666666e-05 -0.0039478377
-0.017610667 0.00059266668 -0.00089756754
0.0059266668 0.00127 -0.0024227027
-0.0064346669 -0.00025400001 0.0016443243
-0.011006667 -0.00127 -5.0270271e-05
-0.0015240001 8.4666666e-05 -0.0085232435
0.016764 0.00127 -0.0019143244
0.012530667 -0.00127 -0.0019143244
0.0079586664 0.00042333335 -0.00021972973
0.016764 -8.4666666e-05 0.00062756758
-0.0035560001 -8.4666666e-05 -0.008862162
0.0062653334 -0.00025400001 -0.0059813512
0.016594667 -0.00025400001 -0.0078454055
-0.00084666669 -0.00127 -0.001405946
0.010837333 -0.00127 -0.0022532432
-0.013885333 0.00025400001 0.00062756758
0.0067733335 0.00127 -0.001405946
-0.011176 -8.4666666e-05 -0.0083537837
-0.0015240001 -0.00059266668 -0.0024227027
0.014224 0.00127 -0.001405946
-0.0035560001 -0.00025400001 -0.0063202702
0.00067733333 0.00042333335 -0.00021972973
0.0045719999 0.00127 -0.00072810811
-0.0030480002 -0.00127 -0.0024227027
0.013885333 0.00025400001 -0.004456216
0.0089746667 8.4666666e-05 -0.0073370272
0.0057573332 -0.00059266668 -0.0024227027
-0.016594667 -0.00025400001 0.00028864865
-0.0010160001 0.00025400001 -0.0085232435
-0.0040640002 8.4666666e-05 -0.0025921622
-0.014901333 -0.00127 -0.0019143244
-0.00508 -0.00127 -0.0024227027
0.015578667 -0.00093133334 -0.00021972973
-0.0089746667 0.00127 -0.00089756754
-0.011345333 0.00025400001 0.00079702702
0.01778 0.00042333335 -0.0017448649
0.0084666666 0.0011006667 -0.0024227027
-0.0088053336 0.00025400001 0.0011359459
-0.00508 0.00127 -0.00021972973
-0.011684 -0.00025400001 0.00011918919
0.0086360006 0.00127 -0.00072810811
-0.013885333 0.00025400001 -0.0068286485
-0.015578667 0.00059266668 -0.0024227027
0.0027093333 -0.00127 -0.00021972973
0.014901333 -8.4666666e-05 -0.0024227027
-0.0027093333 -0.0011006667 -0.0024227027
0.0062653334 0.00025400001 0.0013054054
-0.0011853334 0.00076199998 -0.00021972973
-0.00067733333 0.00093133334 -5.0270271e-05
0.016425334 -0.00059266668 -0.00021972973
-0.0038946667 -0.00025400001 -0.005472973
0.010498667 0.00127 -0.0022532432
0.0035560001 0.00025400001 -0.0073370272
0.014054667 -0.00025400001 -0.0066591892
-0.013716 -8.4666666e-05 -0.004795135
0.0010160001 -0.00025400001 0.00096648646
-0.0011853334 0.00127 -0.0022532432
0.0093133338 0.00127 -0.0017448649
0.0089746667 0.00042333335 -0.0025921622
0.0089746667 0.00025400001 -0.0059813512
-0.0010160001 0.00059266668 -0.0003891892
0.0086360006 0.00025400001 0.0016443243
-0.010329333 0.00127 -0.0022532432
-0.0082973335 0.00127 -0.0022532432
0.0016933334 0.00059266668 -0.0003891892
0.0072813337 -0.00025400001 -5.0270271e-05
0.0010160001 0.00025400001 -0.0042867567
-0.0040640002 -0.00025400001 -0.0069981082
-0.013377334 0.00127 -0.00089756754
-0.0064346669 -0.00025400001 -0.005811892
0.015578667 -0.00025400001 -0.0024227027
0.009990667 0.00127 -0.0015754054
0.0062653334 -0.00025400001 -0.005134054
0.0037253334 0.00025400001 -0.0073370272
0.011176 -8.4666666e-05 -0.004795135
-0.013377334 -0.00076199998 -0.00021972973
-0.015240001 -0.00127 -0.001067027
-0.0040640002 -0.00025400001 -0.0083537837
-0.0086360006 -0.00025400001 -0.0071675675
-0.014224 0.00076199998 -0.00021972973
-0.017102666 0.0011006667 -0.0015754054
-0.0010160001 -0.00127 -0.0012364865
-0.0060960003 8.4666666e-05 -0.0078454055
0.0040640002 0.0011006667 -5.0270271e-05
0.0060960003 -8.4666666e-05 -0.0063202702
0.0062653334 -0.00025400001 0.0016443243
0.013377334 0.00127 -0.0012364865
0.0086360006 -8.4666666e-05 0.00045810812
0.0088053336 -0.00127 -0.0019143244
0.00050800003 0.00127 -0.0024227027
-0.014054667 -0.00093133334 -0.0024227027
0.011514666 0.00025400001 -0.002931081
0.011514666 0.00025400001 -0.0039478377
0.0076200003 -0.00025400001 -0.0024227027
0.015409334 0.00127 -0.0019143244
-0.015748 -0.00076199998 -0.0024227027
-0.016425334 -0.00025400001 0.0021527028
0.011176 0.00025400001 0.00045810812
-0.0015240001 8.4666666e-05 0.0013054054
-0.0047413334 -0.00127 -0.001405946
-0.0023706667 0.00076199998 -0.00021972973
-0.0062653334 0.00025400001 0.00011918919
0.013038667 -0.00127 -0.00055864867
0.0016933334 0.00025400001 -5.0270271e-05
0 -0.00127 -0.00055864867
-0.0010160001 0.00025400001 -0.0056424323
-0.011176 -0.00076199998 -0.0024227027
0.017441334 0.00076199998 -0.00021972973
-0.011176 -0.00025400001 -0.00021972973
0.010837333 -0.00127 -5.0270271e-05
-0.0035560001 0.00025400001 -0.0049645947
-0.0015240001 8.4666666e-05 -0.0063202702
0.011684 8.4666666e-05 -0.008862162
0.016594667 -8.4666666e-05 -0.0025921622
0.011345333 0.00025400001 0.0011359459
0.012192001 0.00025400001 -0.0024227027
-0.0057573332 -8.4666666e-05 -5.0270271e-05
0.0015240001 0.00025400001 -0.0059813512
0.015917333 -0.00059266668 -0.00021972973
-0.0010160001 -8.4666666e-05 0.0016443243
-0.0044026668 -0.00042333335 -0.0024227027
-0.0013546667 0.00025400001 -0.0078454055
-0.00050800003 -0.00127 -0.0015754054
0.0088053336 0.00042333335 -0.0027616217
0.0037253334 -0.00025400001 -0.0049645947
-0.0089746667 0.00025400001 0.00028864865
-0.010837333 -0.00042333335 -0.0024227027
-0.016256001 -8.4666666e-05 0.0019832433
0.0010160001 -0.00093133334 -5.0270271e-05
0.0011853334 0.00025400001 -5.0270271e-05
-0.0088053336 0.00025400001 -0.0041172975
0.0037253334 -0.00127 -0.0012364865
0.0020320001 0.00076199998 -0.0024227027
-0.0071120001 0.00127 -0.0019143244
-0.0013546667 0.00025400001 -0.005811892
0.015917333 -0.00059266668 -0.0022532432
-0.0035560001 8.4666666e-05 -0.0053035137
0.0015240001 -8.4666666e-05 -0.0025921622
-0.0060960003 0.00042333335 -0.0024227027
0.012192001 0.00093133334 -5.0270271e-05
-0.0089746667 0.00127 -0.0017448649
-0.0089746667 -8.4666666e-05 -0.0073370272
0.014054667 -0.0011006667 -0.0022532432
0.016594667 -0.00025400001 -0.006150811
0.016425334 -0.00025400001 -0.0034394595
0.011684 0.00025400001 -0.0069981082
0.0010160001 -0.00025400001 0.0016443243
0.0035560001 -8.4666666e-05 0.00079702702
-0.0016933334 0.00127 -0.0022532432
0.0037253334 -0.00025400001 -0.0056424323
0.00067733333 0.00127 -0.001405946
0.013885333 -0.00093133334 -0.0024227027
-0.0088053336 0.00127 -0.001405946
-0.0076200003 0.00127 -0.00021972973
0.0057573332 8.4666666e-05 -0.0024227027
-0.0015240001 -0.00025400001 -0.005472973
-0.0037253334 -0.00025400001 -0.0075064865
-0.014054667 0.00025400001 -0.0064897295
-0.0035560001 0.00025400001 -0.0066591892
-0.0060960003 -8.4666666e-05 -0.0085232435
0.0086360006 -8.4666666e-05 -0.0068286485
-0.014224 -8.4666666e-05 -0.004795135
-0.014562667 0.00127 -0.001067027
0.0084666666 0.00127 -0.001067027
-0.0074506667 -0.00127 -0.001405946
0.01016 0.00127 -0.0020837837
0.0093133338 -0.0011006667 -5.0270271e-05
0.016594667 -0.00093133334 -0.00021972973
0.0076200003 -0.00127 -0.00055864867
0.0010160001 8.4666666e-05 -0.0075064865
-0.0064346669 0.00059266668 -0.0024227027
0.0035560001 -0.00127 -0.001067027
-0.0023706667 -0.00127 -0.00021972973
-0.0064346669 0.00025400001 0.0014748649
-0.0013546667 -0.00025400001 0.0021527028
-0.0020320001 0.00127 -0.00072810811
0.010668 0.00127 -0.0024227027
-0.014224 8.4666666e-05 -0.005472973
-0.016425334 -0.00025400001 -0.008184324
-0.0098213339 0.00076199998 -0.0024227027
0.011684 -8.4666666e-05 0.0013054054
-0.014224 8.4666666e-05 -0.0066591892
0.014901333 0.00076199998 -0.00021972973
0.0040640002 0.00093133334 -5.0270271e-05
-0.016764 0.00042333335 -0.00021972973
0.014054667 -0.00127 -0.0019143244
-0.015748 0.00076199998 -0.0024227027
-0.011684 8.4666666e-05 0.0019832433
0.0013546667 -0.00025400001 -0.0037783785
0.015578667 -0.0011006667 -0.0022532432
0.0040640002 0.00025400001 -0.0039478377
-0.013208 0.00076199998 -0.0024227027
-0.014224 -8.4666666e-05 -0.0063202702
-0.0032173335 -0.00025400001 -0.0024227027
0.014224 -0.0011006667 -0.00021972973
-0.016764 8.4666666e-05 -0.004456216
-0.00084666669 -0.00127 -0.0012364865
0.0037253334 -0.00025400001 0.0023221623
-0.0094826669 -0.00127 -0.00055864867
-0.0010160001 8.4666666e-05 -0.0041172975
0.0094826669 -0.00076199998 -0.00021972973
-0.0088053336 0.00093133334 -5.0270271e-05
0.0060960003 -0.00042333335 -0.0003891892
-0.0060960003 -8.4666666e-05 -0.0027616217
0.012192001 0.00076199998 -0.00021972973
-0.0059266668 0.00059266668 -0.0003891892
-0.016425334 -0.00025400001 -0.0080148652
-0.0069426666 0.0011006667 -0.0024227027
-0.015070667 0.00127 -0.00089756754
-0.00084666669 0.00059266668 -0.0003891892
-0.0040640002 8.4666666e-05 -0.002931081
0.012530667 0.00127 -0.0003891892
-0.006604 8.4666666e-05 -0.0039478377
-0.0044026668 -0.00127 -0.001067027
-0.014901333 0.00127 -0.0017448649
-0.006604 8.4666666e-05 -0.004456216
0.014054667 0.00025400001 -0.0042867567
-0.014224 -0.00127 -0.0017448649
0.0010160001 0.00025400001 -0.004456216
-0.016594667 0.00025400001 0.0023221623
-0.011514666 0.00025400001 0.00062756758
-0.00084666669 -0.00059266668 -0.0024227027
0.013716 -0.00059266668 -0.0024227027
0.010329333 -0.00042333335 -0.0024227027
-0.011345333 -0.00025400001 -0.0068286485
-0.0060960003 -0.00025400001 -0.0046256757
-0.0088053336 0.0011006667 -0.0024227027
-0.012361334 -0.00059266668 -0.0003891892
0.0064346669 8.4666666e-05 -0.0090316217
-0.006604 0.00127 -0.0017448649
0.0015240001 -0.00025400001 -0.0039478377
0.013885333 0.00127 -0.001067027
-0.014054667 -0.00025400001 0.0011359459
0.0010160001 -8.4666666e-05 0.0023221623
-0.0054186666 -0.00127 -0.0022532432
0.017441334 0.0011006667 -0.0003891892
-0.014054667 0.00025400001 0.00079702702
-0.014054667 -0.00127 -0.0015754054
0.015748 0.00042333335 -0.00021972973
0.011684 8.4666666e-05 -0.0080148652
0.017441334 0.0011006667 -0.0024227027
0.0035560001 -0.00025400001 -0.002931081
0.013885333 -0.00127 -0.0017448649
0.0013546667 -0.00127 -0.00072810811
0.014901333 8.4666666e-05 -0.0024227027
0.014393333 0.00127 -0.00089756754
0.0081280004 -0.00025400001 -5.0270271e-05
-0.010329333 0.00127 -0.0017448649
-0.015917333 0.00127 -0.0022532432
0.0091439998 -8.4666666e-05 -0.0042867567
-0.0064346669 0.00025400001 -0.0064897295
0.0023706667 -8.4666666e-05 -0.0024227027
0.00508 -0.00025400001 -0.00021972973
0.013546667 -0.00025400001 -5.0270271e-05
-0.00050800003 0.00127 -5.0270271e-05
0.013377334 0.00127 -0.0019143244
0.011176 -0.00025400001 -0.004795135
-0.011345333 0.00025400001 0.00028864865
-0.016594667 0.00025400001 -0.0039478377
-0.0060960003 -0.00025400001 0.00062756758
0.012530667 -0.00127 -0.00089756754
-0.017610667 -0.00093133334 -0.00089756754
0.0064346669 0.00025400001 0.0018137838
-0.015240001 -0.00127 -0.00089756754
-0.006604 -8.4666666e-05 -0.0063202702
0.014054667 0.00127 -0.001067027
0.011853334 0.00127 -0.001067027
0.0011853334 -0.0011006667 -0.0024227027
0.0089746667 8.4666666e-05 -0.0027616217
-0.0011853334 0.00025400001 -0.0076759458
-0.016764 -0.00127 -0.00021972973
0.015748 0.00127 -5.0270271e-05
0.011514666 0.00025400001 -0.0069981082
0.014224 0.00025400001 0.0021527028
-0.011684 0.00059266668 -0.0003891892
0.016594667 -8.4666666e-05 -0.0090316217
-0.0060960003 -8.4666666e-05 -0.008184324
-0.016764 -8.4666666e-05 0.00011918919
-0.0023706667 -0.00127 -0.0020837837
-0.0013546667 -8.4666666e-05 -0.0090316217
0.011345333 0.00025400001 -0.0066591892
0.0059266668 0.00127 -0.00055864867
-0.0060960003 -0.0011006667 -5.0270271e-05
-0.0069426666 0.00093133334 -0.0024227027
-0.011684 8.4666666e-05 -0.0066591892
-0.016764 -8.4666666e-05 -0.0059813512
0.016425334 0.00127 -0.0020837837
0.0011853334 -0.00127 -0.0024227027
-0.0038946667 -0.00025400001 -0.0086927023
0.0040640002 0.00127 -0.001067027
0.00508 0.00059266668 -0.0003891892
0.016594667 -0.00025400001 0.0023221623
-0.0035560001 -0.00059266668 -0.0024227027
-0.0040640002 -8.4666666e-05 0.00062756758
0.0035560001 8.4666666e-05 -0.0049645947
0.0064346669 0.00025400001 -0.0075064865
0.0037253334 -0.00127 -0.00089756754
-0.0060960003 -0.00127 -0.0024227027
-0.015917333 0.00059266668 -0.0024227027
0.014054667 8.4666666e-05 -0.0059813512
-0.0033866668 0.00059266668 -0.0003891892
-0.0089746667 8.4666666e-05 -0.002931081
-0.0016933334 -0.00127 -0.0020837837
-0.017102666 -0.0011006667 -0.0017448649
-0.0088053336 -0.00025400001 -0.003608919
-0.016256001 -8.4666666e-05 -0.0075064865
-0.004910667 0.00059266668 -0.0003891892
-0.011514666 0.00025400001 -0.0034394595
0.014054667 -8.4666666e-05 0.00062756758
0.0096519999 0.00127 -0.0015754054
-0.011684 8.4666666e-05 -0.0031005405
0.01016 -0.00127 -0.0015754054
0.0064346669 0.00025400001 -0.0073370272
0.014732 0.00076199998 -0.00021972973
0.0089746667 -8.4666666e-05 0.0024916215
0.011684 -8.4666666e-05 -0.0068286485
-0.017610667 -0.00059266668 -0.00055864867
-0.0084666666 0.00025400001 -5.0270271e-05
-0.012192001 0.00127 -0.001405946
-0.0037253334 -0.00127 -0.001067027
-0.010837333 0.00127 -0.0019143244
-0.0037253334 0.00025400001 -0.005811892
-0.0037253334 0.00127 -5.0270271e-05
0.0093133338 -0.00127 -0.001405946
-0.016256001 0.00127 -0.00072810811
0.0057573332 -0.00042333335 -0.0003891892
0.0015240001 8.4666666e-05 -0.0025921622
-0.0089746667 -0.00025400001 -0.0042867567
-0.01016 -0.00042333335 -0.0003891892
0.0020320001 0.00127 -0.0017448649
-0.0030480002 -0.00076199998 -0.00021972973
0.0013546667 0.00025400001 -0.0073370272
-0.0094826669 0.00127 -0.0015754054
0.0088053336 0.00025400001 0.0021527028
-0.0096519999 0.00127 -0.0017448649
0.0015240001 8.4666666e-05 0.00079702702
-0.0062653334 0.00093133334 -5.0270271e-05
-0.009990667 -0.00127 -0.0015754054
0.009990667 0.00127 -5.0270271e-05
-0.0054186666 0.00127 -0.0020837837
0.011176 -8.4666666e-05 -0.0085232435
0.006604 8.4666666e-05 -0.0059813512
0.00033866666 0.00076199998 -0.00021972973
0.011684 0.00127 -5.0270271e-05
0.013885333 -0.00025400001 -0.0066591892
-0.0037253334 0.00127 -0.0020837837
0.015578667 -0.00127 -0.0022532432
0.0028786666 0.00059266668 -0.0024227027
-0.0084666666 8.4666666e-05 -0.0024227027
0.016594667 -0.00025400001 -0.008184324
-0.00508 0.00042333335 -0.00021972973
-0.0084666666 8.4666666e-05 -5.0270271e-05
-0.014224 -8.4666666e-05 -0.0031005405
-0.014224 8.4666666e-05 -0.005134054
0.013546667 -0.00127 -0.001405946
-0.0054186666 -0.00127 -0.00021972973
0.010329333 0.00127 -0.0012364865
0.0040640002 0.00025400001 -0.0053035137
0.0035560001 -8.4666666e-05 -0.0039478377
-0.0040640002 -0.00025400001 -0.004795135
0.0030480002 0.00076199998 -0.0024227027
0.0086360006 0.00025400001 -0.0039478377
-0.011514666 -0.00025400001 -0.0039478377
-0.0094826669 -8.4666666e-05 -0.0024227027
-0.0082973335 0.00127 -0.0020837837
0.0040640002 -0.00025400001 -0.00327
0.015409334 -0.00127 -0.0003891892
0.016425334 0.00025400001 -0.004456216
0.012869334 -8.4666666e-05 -5.0270271e-05
0.011684 -0.00025400001 -0.005811892
-0.004910667 -0.00127 -0.0015754054
0.0077893334 0.00127 -0.00089756754
-0.0052493336 0.00127 -0.00055864867
0.013038667 0.00127 -0.0012364865
0.0028786666 -0.00127 -0.00089756754
0.0054186666 8.4666666e-05 -0.0024227027
-0.014224 -0.00059266668 -0.0003891892
-0.016256001 -8.4666666e-05 -0.0069981082
-0.00016933333 -0.0011006667 -5.0270271e-05
0.017610667 0.00076199998 -0.0019143244
0.012530667 0.00025400001 -0.0024227027
-0.014054667 0.00025400001 -0.0059813512
-0.011514666 -0.00059266668 -0.0003891892
0.0060960003 -0.00127 -0.0012364865
0.0094826669 0.00076199998 -0.0024227027
-0.0088053336 -0.00025400001 -0.00327
0.014054667 -8.4666666e-05 0.00079702702
0.0091439998 8.4666666e-05 -0.0049645947
-0.0022013334 -0.00059266668 -0.0024227027
0.0038946667 0.00025400001 -0.0080148652
-0.0062653334 -0.00025400001 0.0014748649
-0.0030480002 -0.00127 -0.00072810811
-0.0089746667 8.4666666e-05 -0.0083537837
-0.011345333 -0.00025400001 0.00028864865
-0.014224 -8.4666666e-05 0.0014748649
-0.012869334 -8.4666666e-05 -5.0270271e-05
-0.013377334 -0.00127 -0.001067027
-0.0033866668 -0.00127 -0.0022532432
0.012869334 -0.00076199998 -0.00021972973
-0.0015240001 8.4666666e-05 -0.0059813512
0.016256001 8.4666666e-05 -0.0069981082
0.0037253334 -0.00025400001 0.0011359459
0.014732 -0.00076199998 -0.00021972973
-0.014224 8.4666666e-05 -0.0042867567
0.011514666 0.00025400001 -0.0034394595
0.0072813337 0.00042333335 -0.00021972973
-0.013716 8.4666666e-05 -0.008184324
-0.011684 8.4666666e-05 -0.0059813512
0.0098213339 -0.00127 -0.00021972973
0.0091439998 -0.00025400001 -0.0080148652
0.0010160001 8.4666666e-05 0.00011918919
0.011684 -0.00025400001 -0.0037783785
0.014054667 -0.00025400001 -0.008184324
0.006604 -8.4666666e-05 -0.0031005405
0.0042333333 -0.00127 -0.00089756754
0.013208 0.00093133334 -5.0270271e-05
-0.011176 -8.4666666e-05 -0.0086927023
0.0074506667 -0.00127 -0.0012364865
-0.0013546667 0.00025400001 -0.0080148652
0.017272001 0.0011006667 -0.00021972973
-0.0072813337 0.00127 -0.00089756754
0.0093133338 0.00127 -0.0015754054
-0.012192001 -0.00025400001 -5.0270271e-05
0.0071120001 -8.4666666e-05 -0.0024227027
-0.0059266668 0.00093133334 -5.0270271e-05
0.0060960003 -8.4666666e-05 -0.005134054
0.0064346669 -0.00025400001 -0.0083537837
-0.0059266668 0.00127 -0.0015754054
0.0010160001 0.00025400001 0.00096648646
-0.0040640002 -0.00025400001 -0.0034394595
-0.011176 -0.00025400001 0.00096648646
0.0096519999 -0.00042333335 -0.0003891892
0.004910667 0.00127 -0.00021972973
-0.0094826669 -0.00127 -0.0022532432
-0.013885333 0.00025400001 -0.0041172975
-0.0089746667 -0.00025400001 -0.004795135
0.014224 8.4666666e-05 -0.0025921622
0.016256001 -0.00025400001 -5.0270271e-05
-0.00084666669 0.00127 -0.00072810811
-0.0060960003 0.00025400001 -0.0024227027
0.0038946667 0.00025400001 -0.005811892
0.0013546667 -0.00025400001 -0.0059813512
-0.0022013334 -0.0011006667 -5.0270271e-05
0.0011853334 -8.4666666e-05 0.002661081
0.0077893334 -0.00042333335 -0.0003891892
-0.0096519999 0.00076199998 -0.0024227027
0.016256001 0.00127 -0.001405946
-0.014224 8.4666666e-05 0.00079702702
0.016425334 0.0011006667 -5.0270271e-05
0.011345333 0.00025400001 -0.0090316217
-0.0022013334 0.00127 -0.0015754054
-0.0023706667 0.00127 -0.001067027
-0.0091439998 0.00093133334 -5.0270271e-05
0.0093133338 -0.00127 -0.0022532432
0.0084666666 -0.00025400001 -5.0270271e-05
0.0074506667 -0.00127 -0.001067027
-0.0086360006 -8.4666666e-05 -0.003608919
-0.011514666 0.00025400001 0.0014748649
0.0127 -0.00127 -0.00055864867
-0.011684 8.4666666e-05 -0.0085232435
0.0052493336 0.00042333335 -0.00021972973
0.0071120001 0.00127 -0.001405946
-0.011176 0.00025400001 -0.004795135
-0.0035560001 8.4666666e-05 -0.005472973
0 -0.00025400001 -5.0270271e-05
0.0040640002 -0.00127 -0.0024227027
-0.0074506667 0.00127 -0.0012364865
0.0071120001 -0.00127 -0.0017448649
0.0072813337 8.4666666e-05 -0.0024227027
-0.016594667 0.00025400001 -0.0080148652
-0.014393333 -8.4666666e-05 -5.0270271e-05
-0.009990667 -0.00127 -0.0003891892
-0.016425334 0.00025400001 -0.005134054
-0.0094826669 -0.00127 -0.0017448649
-0.0076200003 0.00127 -0.001067027
0.012022667 -0.00127 -0.00021972973
-0.0086360006 8.4666666e-05 -0.008862162
-0.014054667 -0.00025400001 -0.008862162
0.015578667 0.00127 -0.001405946
-0.0064346669 0.00025400001 -0.005134054
-0.016425334 0.00127 -0.00089756754
-0.013208 0.0011006667 -0.0024227027
0.009990667 0.00127 -0.0024227027
0.0098213339 0.00127 -0.0017448649
-0.010837333 -0.00042333335 -0.0003891892
-0.013885333 0.00127 -0.00021972973
0.0035560001 8.4666666e-05 0.0023221623
0.0074506667 0.00127 -0.00089756754
-0.0038946667 0.00025400001 -0.0031005405
0.0010160001 8.4666666e-05 -0.0031005405
-0.016764 0.00059266668 -0.0003891892
0.017441334 -0.0011006667 -0.0003891892
0.0060960003 8.4666666e-05 -0.0071675675
0.0015240001 -0.00025400001 0.0011359459
0.0098213339 -8.4666666e-05 -0.0024227027
-0.0011853334 -0.0011006667 -5.0270271e-05
0.0089746667 -8.4666666e-05 -0.0056424323
-0.016764 -0.00059266668 -0.00021972973
0.011514666 -0.00127 -0.00055864867
-0.016594667 0.00042333335 -0.0022532432
0.0015240001 0.00025400001 -0.002931081
-0.0045719999 0.00059266668 -0.0003891892
0.013546667 0.00076199998 -0.00021972973
-0.00084666669 0.00127 -0.0019143244
-0.0076200003 -0.00059266668 -0.0024227027
0.011853334 -8.4666666e-05 -0.0024227027
0.0011853334 -0.00025400001 -0.0071675675
-0.0074506667 0.0011006667 -0.0024227027
-0.012530667 0.00042333335 -0.0024227027
0.0011853334 0.00025400001 -0.0069981082
-0.011514666 -0.00025400001 -0.0076759458
0.013208 0.00093133334 -0.0024227027
0.011176 -0.00025400001 -0.005134054
-0.0052493336 -8.4666666e-05 -5.0270271e-05
0.0057573332 0.00127 -0.0020837837
0.0033866668 0.00093133334 -5.0270271e-05
0.0091439998 -0.00025400001 -0.0031005405
-0.014562667 -0.00127 -0.001067027
-0.014562667 -0.00127 -0.0020837837
-0.016594667 0.00127 -0.0003891892
0.006604 0.00025400001 -0.005811892
-0.0040640002 0.00025400001 -0.004456216
-0.0062653334 0.00127 -0.001405946
0.0010160001 -0.00025400001 -0.0041172975
-0.010837333 0.00127 -0.001067027
0.0023706667 -0.00127 -0.0022532432
0.014054667 8.4666666e-05 -0.008862162
-0.012869334 -0.00127 -0.0017448649
-0.011514666 -0.0011006667 -5.0270271e-05
0.017610667 0.00059266668 -0.001405946
-0.0098213339 0.00059266668 -0.0024227027
-0.0096519999 -0.00127 -0.0012364865
-0.016086668 -0.00127 -0.0015754054
0.0015240001 -0.00025400001 -0.006150811
-0.0015240001 -0.00059266668 -0.0003891892
-0.0091439998 0.00025400001 -0.0024227027
0.010668 0.0011006667 -5.0270271e-05
-0.016086668 -0.00127 -0.00072810811
-0.0044026668 -0.00127 -0.0024227027
0.0088053336 -0.00025400001 -0.00021972973
-0.011684 -0.00059266668 -0.0024227027
-0.016256001 -8.4666666e-05 -0.008862162
-0.0035560001 -8.4666666e-05 0.00045810812
-0.00508 -0.00025400001 -0.00021972973
0.016425334 0.00025400001 -0.0025921622
0.0091439998 -8.4666666e-05 -0.0046256757
-0.0064346669 0.00025400001 0.00079702702
0.0072813337 0.0011006667 -0.0024227027
-0.017441334 -0.0011006667 -0.0020837837
0.0018626667 0.00127 -0.0020837837
-0.00016933333 -0.00127 -0.0020837837
-0.0037253334 0.00127 -0.0024227027
-0.006604 -0.00025400001 -0.0073370272
0.0011853334 0.00025400001 -0.0037783785
-0.017441334 -0.00059266668 -0.00021972973
-0.0038946667 0.00127 -0.0024227027
-0.015070667 8.4666666e-05 -5.0270271e-05
-0.011345333 0.00025400001 -0.0069981082
0.0084666666 0.00059266668 -0.0003891892
0.0086360006 0.00076199998 -0.0024227027
-0.016764 8.4666666e-05 -0.003608919
0.013208 0.00127 -0.001067027
-0.015917333 -0.00042333335 -0.0024227027
-0.015748 0.00042333335 -0.0024227027
0.0037253334 -0.00025400001 -0.0031005405
0.0062653334 0.00025400001 -0.0083537837
0.0042333333 0.00076199998 -0.0024227027
-0.015578667 -0.00093133334 -0.0024227027
-0.010498667 8.4666666e-05 -5.0270271e-05
-0.0064346669 -0.00025400001 0.0019832433
0.0060960003 -8.4666666e-05 -0.0071675675
-0.0011853334 -0.00025400001 -0.005811892
-0.0037253334 -0.00025400001 -0.006150811
0.0086360006 0.00025400001 -0.0027616217
0.012022667 0.00025400001 -5.0270271e-05
-0.015748 -0.00076199998 -5.0270271e-05
0.014054667 0.00127 -0.00089756754
0.013546667 -0.00076199998 -5.0270271e-05
0.012361334 0.00127 -0.001405946
0.0023706667 -0.00042333335 -0.0024227027
-0.017441334 -0.0011006667 -0.00072810811
-0.0040640002 8.4666666e-05 -0.004795135
-0.011684 -8.4666666e-05 -0.005811892
0.0054186666 0.00127 -0.0012364865
-0.00254 0.00127 -0.0019143244
-0.016764 -0.0011006667 -5.0270271e-05
0.011176 -0.00127 -0.00021972973
0.0038946667 0.00127 -0.001067027
-0.016256001 -0.00127 -0.0003891892
0.011176 0.00025400001 -0.0083537837
0.006604 8.4666666e-05 0.00062756758
-0.0077893334 0.00127 -0.0003891892
-0.0082973335 -0.00076199998 -5.0270271e-05
0.0091439998 0.00025400001 0.0018137838
-0.0037253334 0.00025400001 -0.0076759458
-0.016086668 0.00127 -0.0003891892
-0.011176 -8.4666666e-05 -0.005472973
-0.00254 0.00127 -0.0003891892
-0.011176 0.00025400001 0.00011918919
-0.0084666666 -0.0011006667 -5.0270271e-05
0.016425334 -0.00025400001 -0.0041172975
-0.00508 -0.00127 -0.00089756754
0.0023706667 -0.00127 -0.0015754054
-0.014224 -8.4666666e-05 -0.0056424323
-0.0013546667 -0.00127 -0.0020837837
0.0064346669 -0.00025400001 0.0023221623
0.015917333 0.00025400001 -0.0022532432
-0.015917333 0.00127 -0.0003891892
-0.015917333 0.00025400001 -0.0024227027
0.0062653334 -0.00127 -0.0012364865
0.014054667 -0.00059266668 -0.0003891892
-0.00016933333 0.00093133334 -0.0024227027
-0.014562667 0.0011006667 -0.00021972973
0.0035560001 -8.4666666e-05 -0.002931081
-0.015409334 -0.0011006667 -5.0270271e-05
-0.0015240001 0.00025400001 -0.0037783785
-0.0035560001 -8.4666666e-05 -0.005134054
0.0013546667 -0.00076199998 -0.00021972973
0.014054667 8.4666666e-05 -0.0056424323
-0.0040640002 8.4666666e-05 -0.0031005405
-0.0038946667 -0.00025400001 -0.0063202702
-0.013546667 -0.00127 -0.001405946
-0.006604 -0.00127 -0.0015754054
0.017610667 0.00059266668 -0.0024227027
0.014732 -0.00127 -0.0019143244
-0.0062653334 0.00025400001 -0.004456216
-0.012869334 -0.00127 -0.0012364865
0.0035560001 8.4666666e-05 -0.0071675675
0.016256001 8.4666666e-05 0.00062756758
-0.0089746667 0.00025400001 -0.003608919
0.011514666 -0.00025400001 -0.005134054
-0.0069426666 0.00076199998 -0.0024227027
-0.0089746667 -0.00127 -5.0270271e-05
-0.0077893334 0.00127 -0.00072810811
0.011514666 8.4666666e-05 0.0024916215
0.016594667 -8.4666666e-05 -0.0031005405
-0.010329333 -0.00025400001 -0.00021972973
0.017610667 0.00025400001 -0.00021972973
0.016425334 0.00025400001 0.0016443243
0.012361334 -0.00127 -0.0020837837
0.016594667 0.00025400001 -0.0027616217
-0.0082973335 0.00127 -0.00021972973
-0.011176 -8.4666666e-05 -0.0085232435
-0.006604 0.00025400001 -5.0270271e-05
0.006604 -8.4666666e-05 -0.002931081
0.0088053336 0.00025400001 -0.0083537837
0.014054667 -0.00025400001 -0.003608919
-0.0086360006 -0.00059266668 -0.0003891892
0.0028786666 0.0011006667 -5.0270271e-05
-0.006604 -0.00025400001 -0.0039478377
-0.0011853334 -0.00127 -0.00072810811
-0.00084666669 0.00025400001 -5.0270271e-05
0.010329333 8.4666666e-05 -0.0024227027
0.0060960003 8.4666666e-05 -0.0075064865
0.0015240001 0.00127 -0.001405946
0.0038946667 0.00127 -0.00021972973
0.011006667 0.00076199998 -0.0024227027
0.011684 -0.00076199998 -0.0024227027
0.0040640002 0.00025400001 -0.0034394595
-0.014054667 0.00127 -0.0015754054
0.011684 -0.00025400001 -0.006150811
-0.0091439998 -0.00127 -5.0270271e-05
-0.0035560001 8.4666666e-05 -0.0068286485
-0.00016933333 -0.00127 -0.0019143244
-0.0086360006 8.4666666e-05 0.0011359459
-0.0086360006 -0.00025400001 -0.003608919
-0.0057573332 0.00025400001 -0.0024227027
0.0010160001 0.00025400001 0.00045810812
0.01016 -0.00059266668 -0.0003891892
-0.014054667 -0.00025400001 -0.0059813512
-0.014901333 -0.00093133334 -0.0024227027
0.0052493336 -0.00127 -5.0270271e-05
0.011684 -0.00025400001 -0.0031005405
0.0028786666 0.00127 -0.001067027
-0.013885333 -0.00025400001 -0.006150811
-0.014224 -0.00127 -0.0020837837
0.012192001 0.00127 -0.0019143244
-0.010668 -0.00127 -0.00055864867
-0.013885333 0.00025400001 -0.0046256757
0.0035560001 8.4666666e-05 -0.0080148652
0.0079586664 0.00093133334 -0.0024227027
0.011176 -0.00025400001 -0.0085232435
-0.0094826669 -0.00025400001 -5.0270271e-05
0.0013546667 0.00025400001 -0.0076759458
-0.006604 8.4666666e-05 -0.0086927023
0.013885333 8.4666666e-05 0.0024916215
-0.011176 -0.00025400001 -0.0063202702
0.0010160001 -0.00093133334 -0.0024227027
0.010498667 -0.00127 -0.0012364865
-0.0069426666 -0.00127 -5.0270271e-05
-0.0035560001 0.00076199998 -0.00021972973
0.017272001 0.00025400001 -0.00021972973
0.0067733335 0.00127 -0.0012364865
0.0037253334 0.00025400001 -0.00327
0.0016933334 0.00127 -0.00055864867
0.014732 0.0011006667 -0.0024227027
-0.01016 -0.00127 -0.001405946
-0.0088053336 0.00025400001 -0.008184324
0.0091439998 8.4666666e-05 -0.0025921622
0.0088053336 0.00025400001 -0.0034394595
0.0011853334 -0.00076199998 -0.0024227027
-0.0096519999 -0.0011006667 -0.0024227027
-0.011684 -0.00127 -0.00021972973
0.0089746667 -8.4666666e-05 -0.005811892
-0.0015240001 -0.00093133334 -0.0024227027
0.0010160001 8.4666666e-05 -0.0049645947
-0.0057573332 -8.4666666e-05 -0.0024227027
-0.0067733335 -0.00127 -0.00072810811
0.0044026668 -0.00127 -0.00089756754
-0.0064346669 0.00025400001 -0.006150811
-0.014224 8.4666666e-05 0.0023221623
-0.0047413334 -0.00127 -0.0020837837
-0.015578667 0.00025400001 -5.0270271e-05
-0.0035560001 -0.00025400001 -0.0039478377
0.011684 -0.00093133334 -5.0270271e-05
0.0064346669 0.00025400001 -0.0068286485
-0.0023706667 0.00076199998 -0.0024227027
-0.0060960003 0.0011006667 -5.0270271e-05
0.011684 -0.00025400001 -0.0034394595
0.0060960003 -8.4666666e-05 -0.0068286485
0.016594667 -8.4666666e-05 0.002661081
0.014562667 -0.0011006667 -0.00021972973
0.0035560001 8.4666666e-05 0.00062756758
-0.014901333 -0.00076199998 -5.0270271e-05
-0.016594667 8.4666666e-05 -0.0025921622
0.0010160001 0.0011006667 -0.0024227027
0.016764 0.00127 -0.00021972973
-0.0062653334 -0.00025400001 0.0011359459
0.0013546667 0.00025400001 -0.0042867567
-0.0033866668 0.00127 -0.00072810811
-0.010498667 -0.00127 -0.0024227027
-0.00508 0.00127 -0.001405946
-0.013716 8.4666666e-05 -0.0034394595
0.015917333 0.00042333335 -0.0022532432
-0.0040640002 -0.0011006667 -5.0270271e-05
-0.013885333 0.00025400001 -0.0034394595
-0.011006667 -0.00127 -0.00089756754
0.0037253334 0.00025400001 -0.0053035137
0.014732 -0.00127 -0.00072810811
-0.0074506667 0.00127 -0.00089756754
0.0020320001 -0.00025400001 -0.00021972973
-0.0074506667 -0.00076199998 -5.0270271e-05
-0.0052493336 0.00127 -0.001067027
-0.0010160001 0.00127 -0.00072810811
0.016594667 0.00025400001 -0.0064897295
0.0023706667 -0.00042333335 -0.0003891892
-0.013885333 -8.4666666e-05 -0.0063202702
-0.0013546667 -0.00025400001 -0.008862162
0.0010160001 -0.00025400001 -0.005134054
-0.011853334 0.0011006667 -5.0270271e-05
0.016594667 0.00127 -0.001067027
-0.0035560001 -8.4666666e-05 0.0013054054
-0.012192001 -0.00127 -0.0012364865
-0.0038946667 0.00127 -0.0012364865
-0.0060960003 -8.4666666e-05 0.0011359459
0.0011853334 0.00025400001 0.0018137838
-0.0035560001 -0.00127 -0.0015754054
0.0040640002 -0.00025400001 -0.005134054
-0.014054667 0.00025400001 0.00045810812
0.0040640002 -0.00025400001 -0.005811892
-0.016933333 -0.00059266668 -0.00021972973
0.0015240001 -0.00127 -0.0003891892
0.0040640002 8.4666666e-05 0.00079702702
0.011514666 -0.00025400001 -0.0046256757
0.01016 -0.00127 -0.0017448649
-0.0010160001 0.00025400001 -0.0034394595
0.0082973335 -0.00127 -0.001067027
0.0028786666 0.00127 -0.00072810811
0.011345333 -0.00025400001 -0.0066591892
-0.0077893334 -0.00042333335 -0.0024227027
0.0093133338 -0.00042333335 -0.0024227027
-0.00050800003 -0.00025400001 -5.0270271e-05
0 0.00025400001 -5.0270271e-05
-0.0018626667 -0.0011006667 -5.0270271e-05
0.0035560001 8.4666666e-05 -0.0027616217
0.0055880002 -0.00059266668 -0.0003891892
-0.00067733333 -0.00127 -0.0012364865
-0.011176 8.4666666e-05 0.00096648646
0.0016933334 -0.00127 -0.0017448649
0.016594667 -0.00025400001 -0.0086927023
0.012192001 0.00127 -0.0012364865
-0.016256001 0.00127 -0.0019143244
-0.0015240001 -8.4666666e-05 -0.0078454055
-0.0010160001 0.00025400001 -0.0080148652
0.0060960003 -0.00127 -0.0020837837
-0.015748 -0.00025400001 -5.0270271e-05
0.0018626667 0.00127 -0.001405946
-0.0088053336 -0.00093133334 -0.0024227027
0.0089746667 -0.00025400001 -0.0037783785
0.0069426666 -0.00025400001 -0.00021972973
-0.01016 -0.0011006667 -0.0024227027
0.0060960003 -8.4666666e-05 0.0023221623
0.0011853334 0.00127 -0.00072810811
-0.0040640002 -8.4666666e-05 -0.0027616217
0.012869334 8.4666666e-05 -5.0270271e-05
-0.0038946667 0.00025400001 0.0018137838
-0.0096519999 -0.00093133334 -5.0270271e-05
-0.0069426666 -0.00025400001 -0.0024227027
0.017272001 0.00127 -0.0022532432
0.013885333 -0.00025400001 -0.0046256757
-0.0082973335 0.00127 -0.0017448649
-0.0127 0.00127 -0.001405946
-0.0084666666 0.00093133334 -5.0270271e-05
-0.0011853334 -0.00025400001 -0.0063202702
-0.0069426666 0.00127 -0.0017448649
0.011514666 0.00025400001 -0.0025921622
0.015409334 0.00127 -0.0020837837
-0.0040640002 8.4666666e-05 -0.006150811
0.014054667 -8.4666666e-05 0.0016443243
0.0037253334 -0.00025400001 0.0018137838
-0.010498667 0.00076199998 -0.00021972973
0.0037253334 0.00025400001 -0.0059813512
0.0040640002 -8.4666666e-05 -0.00327
0.0038946667 -0.00127 -0.00055864867
-0.0064346669 0.00025400001 -0.0039478377
-0.013038667 -0.00127 -0.0020837837
0.017272001 -0.0011006667 -0.0019143244
0.0086360006 8.4666666e-05 -0.0027616217
-0.014224 8.4666666e-05 0.0018137838
0.006604 -0.00025400001 -5.0270271e-05
0.0023706667 -8.4666666e-05 -5.0270271e-05
0.01778 0.00042333335 -0.0022532432
0.015748 -0.00059266668 -0.00021972973
0.016256001 -8.4666666e-05 0.00096648646
0.0089746667 0.00025400001 -0.0041172975
-0.0037253334 -0.00025400001 -0.0086927023
0.0096519999 -0.00025400001 -0.0024227027
0.0013546667 -0.00059266668 -0.0003891892
0.0069426666 0.00127 -0.0019143244
0.0081280004 0.00127 -0.00089756754
-0.014393333 -0.00127 -0.0003891892
-0.0098213339 -0.00059266668 -0.0003891892
0.011853334 -0.00042333335 -0.0024227027
-0.0086360006 -8.4666666e-05 0.0013054054
-0.015409334 0.00025400001 -0.0024227027
0.0040640002 -0.00025400001 -0.0064897295
0.0062653334 -0.00025400001 0.00045810812
-0.015409334 -0.00127 -0.001405946
-0.0091439998 -0.00025400001 0.0013054054
0.016933333 0.00076199998 -0.0024227027
0.016256001 0.00076199998 -0.0024227027
0.0040640002 0.00042333335 -0.00021972973
-0.014054667 0.00025400001 -0.0076759458
-0.0062653334 0.00025400001 -0.005811892
0.0086360006 0.00025400001 0.0018137838
0.011514666 0.00127 -0.00089756754
-0.006604 -0.00127 -0.001405946
-0.0086360006 -0.00025400001 -0.0078454055
0.0016933334 -0.00025400001 -0.00021972973
0.0013546667 0.00025400001 -0.0046256757
-0.0089746667 0.00127 -5.0270271e-05
-0.0032173335 0.00127 -0.0012364865
-0.0035560001 -8.4666666e-05 -0.0037783785
0.0093133338 0.00127 -5.0270271e-05
-0.011345333 -0.00025400001 -0.005134054
-0.0096519999 0.00059266668 -0.0024227027
0.015409334 -0.00042333335 -0.00021972973
-0.0037253334 0.00042333335 -0.0025921622
-0.0064346669 -0.00025400001 0.0013054054
0.0023706667 0.00127 -0.0022532432
-0.0028786666 0.00127 -0.00089756754
0.013716 8.4666666e-05 -0.0042867567
0.010668 0.00076199998 -0.0024227027
-0.016594667 0.00127 -0.0020837837
0.0010160001 8.4666666e-05 -0.0034394595
-0.011684 -8.4666666e-05 -0.006150811
-0.016594667 0.00025400001 0.0011359459
-0.013716 -0.00076199998 -0.0024227027
-0.0040640002 -0.00025400001 -0.0049645947
0.013885333 -0.00025400001 0.00028864865
-0.0062653334 8.4666666e-05 -0.0090316217
-0.0016933334 0.00127 -0.0012364865
-0.0057573332 0.00127 -0.001067027
-0.0030480002 0.00127 -5.0270271e-05
0.014054667 -0.00127 -0.0022532432
0.014054667 -0.00025400001 -0.004456216
0.0015240001 -0.00025400001 0.00045810812
0.012192001 -0.00059266668 -0.0003891892
-0.0072813337 -0.00127 -0.00021972973
-0.012530667 -0.00127 -0.0015754054
-0.016933333 0.00093133334 -0.00021972973
-0.0089746667 8.4666666e-05 0.0011359459
0.009990667 0.00127 -0.001405946
0.015917333 -0.00076199998 -0.0022532432
0.0088053336 -0.00025400001 -0.008184324
-0.015917333 -0.00127 -0.00055864867
-0.011684 -8.4666666e-05 0.0016443243
0.0088053336 0.00127 -0.001067027
0.0093133338 0.00025400001 -0.0024227027
0.0010160001 8.4666666e-05 -0.0053035137
-0.010329333 -0.00127 -0.0024227027
-0.011176 -8.4666666e-05 0.00028864865
0.0040640002 0.00025400001 -0.008862162
-0.0089746667 0.00025400001 0.00096648646
0.00067733333 -0.00127 -0.0019143244
0.0035560001 -0.00025400001 -0.0075064865
-0.0089746667 8.4666666e-05 -0.003608919
0.011853334 -0.00127 -0.001405946
-0.0011853334 -0.00059266668 -0.0003891892
0.010329333 0.00076199998 -0.0024227027
0.0045719999 -0.00127 -0.0012364865
0.013885333 -0.00059266668 -0.0003891892
-0.0089746667 -0.00025400001 0.0018137838
0.004910667 -0.00127 -0.0020837837
0.0023706667 0.00093133334 -0.0024227027
-0.0098213339 -0.00127 -0.0003891892
0.0020320001 0.00127 -0.00021972973
-0.016086668 -8.4666666e-05 -5.0270271e-05
0.0062653334 0.00042333335 -0.0027616217
-0.0096519999 0.00093133334 -5.0270271e-05
-0.016764 -8.4666666e-05 -0.005472973
-0.0015240001 -0.00025400001 -0.0039478377
0.011684 0.00025400001 -0.003608919
-0.0060960003 8.4666666e-05 0.0021527028
0.0086360006 -8.4666666e-05 0.0014748649
-0.0089746667 -0.00059266668 -0.0003891892
-0.011514666 0.0011006667 -0.0024227027
0.0062653334 0.00025400001 -0.008862162
-0.0062653334 0.00042333335 -0.00021972973
-0.013038667 0.00127 -0.0015754054
-0.0088053336 -0.00025400001 -0.0076759458
0.013546667 -0.00127 -0.0022532432
-0.0088053336 -0.00025400001 -0.0080148652
0.0089746667 0.00093133334 -5.0270271e-05
-0.0072813337 0.00042333335 -0.0024227027
-0.013716 0.00127 -0.00072810811
-0.013208 -0.00059266668 -0.0024227027
0.0084666666 -0.00059266668 -0.0024227027
-0.014224 -0.00025400001 0.00011918919
-0.011006667 0.00127 -0.0012364865
0.0064346669 -0.00025400001 0.0011359459
-0.015409334 -0.00127 -0.0022532432
-0.0040640002 0.00025400001 -0.00327
-0.0011853334 -0.00025400001 -0.0068286485
0.0015240001 8.4666666e-05 -0.0049645947
-0.00016933333 0.00076199998 -0.00021972973
0.0059266668 -0.0011006667 -5.0270271e-05
-0.0089746667 8.4666666e-05 0.0018137838
0.011684 8.4666666e-05 -0.0069981082
0.015917333 -0.00093133334 -0.0024227027
-0.0015240001 -0.00127 -0.0012364865
-0.015409334 -0.00127 -0.0019143244
-0.0079586664 -0.00025400001 -0.0024227027
0.014054667 -0.00025400001 0.0014748649
-0.00084666669 0.00127 -5.0270271e-05
-0.0098213339 0.00127 -0.0024227027
0.0079586664 -0.00127 -0.00021972973
0.016256001 -8.4666666e-05 0.0021527028
0.0098213339 -0.00025400001 -0.0024227027
-0.0089746667 0.00127 -0.0020837837
0.0060960003 -0.00059266668 -0.0024227027
0.0040640002 0.00025400001 -0.004456216
0.011684 8.4666666e-05 -0.0085232435
-0.0020320001 -0.00127 -0.00021972973
-0.014054667 -0.00076199998 -0.0024227027
-0.0091439998 -0.00025400001 -0.0027616217
0.011176 -0.00127 -0.00089756754
0.0011853334 0.00025400001 -0.0066591892
-0.00016933333 0.00127 -5.0270271e-05
-0.0018626667 0.00076199998 -0.00021972973
-0.0057573332 0.00127 -0.0022532432
0.015070667 8.4666666e-05 -0.0024227027
-0.0028786666 0.00127 -0.0019143244
-0.015578667 0.00127 -0.0012364865
0.013546667 -0.00059266668 -0.0003891892
0.0042333333 0.00127 -0.0003891892
0.0040640002 -0.00076199998 -0.0024227027
-0.016933333 -0.00042333335 -0.0024227027
-0.0022013334 0.00076199998 -0.00021972973
0.01016 -0.00127 -0.001067027
0.0052493336 0.00127 -0.0020837837
-0.010837333 0.00127 -0.00055864867
0.0079586664 0.00127 -0.0012364865
-0.00254 -0.00127 -5.0270271e-05
0.013716 0.00025400001 -0.0027616217
0.017441334 -0.00059266668 -0.0024227027
0.016764 8.4666666e-05 0.00096648646
-0.0015240001 -0.00025400001 -0.0037783785
0.0086360006 8.4666666e-05 0.0011359459
-0.015409334 0.00127 -0.0022532432
0.011684 -0.00127 -0.001067027
-0.013885333 -8.4666666e-05 0.0024916215
-0.0089746667 -0.00025400001 -0.0063202702
0.012022667 -0.00059266668 -0.0003891892
-0.0088053336 -0.00025400001 -0.0059813512
-0.0033866668 0.00127 -0.0020837837
0.0076200003 8.4666666e-05 -5.0270271e-05
0.01778 0.00042333335 -0.001067027
-0.014732 8.4666666e-05 -0.0024227027
-0.016764 0.00127 -0.00072810811
0.00016933333 0.00076199998 -0.00021972973
-0.0062653334 -0.00025400001 0.0021527028
-0.0035560001 0.00025400001 -0.003608919
0.0062653334 8.4666666e-05 -0.0090316217
0.011684 -0.00059266668 -0.0003891892
-0.0015240001 0.00025400001 -0.0083537837
0.013716 -0.00076199998 -0.0024227027
-0.0059266668 0.00127 -0.0020837837
-0.0062653334 -0.00025400001 -0.008184324
0.0081280004 -0.00025400001 -0.00021972973
0.0082973335 0.00127 -0.001067027
0.017441334 0.00025400001 -0.00021972973
0.0060960003 -8.4666666e-05 -0.0083537837
-0.0020320001 -0.00127 -0.0020837837
-0.00084666669 0.00076199998 -0.00021972973
-0.015748 0.00127 -0.0022532432
0.011345333 0.00042333335 -0.00021972973
-0.014224 -8.4666666e-05 -0.0066591892
-0.0089746667 -8.4666666e-05 -0.0046256757
0.0093133338 -0.00127 -0.0024227027
0.011514666 0.00025400001 -0.0031005405
-0.0089746667 0.00059266668 -0.0003891892
0.0072813337 -0.00127 -0.0015754054
-0.0059266668 -0.00076199998 -0.0024227027
-0.0015240001 8.4666666e-05 -0.0069981082
0.011514666 -0.00025400001 -0.0056424323
0.016594667 -0.00025400001 -0.0039478377
0.011684 0.00025400001 -0.0078454055
-0.0038946667 0.00025400001 -0.008184324
-0.015748 0.00076199998 -0.00021972973
0.00050800003 -0.00059266668 -0.0024227027
0.0010160001 0.00025400001 0.0016443243
0.0010160001 0.00076199998 -0.00021972973
-0.011176 -0.00127 -0.0022532432
-0.0015240001 -8.4666666e-05 -0.0049645947
0.014054667 -0.00127 -0.00072810811
-0.014901333 -0.00059266668 -0.00021972973
0.0037253334 -8.4666666e-05 -0.0092010815
0.012869334 0.00127 -0.00055864867
-0.011684 -0.00025400001 -0.0076759458
0.011345333 0.00025400001 -0.0075064865
0.0094826669 0.00127 -0.001405946
0.00033866666 -0.00127 -0.00021972973
-0.0057573332 -0.00127 -0.0020837837
0.016933333 -0.00127 -0.00072810811
0.0127 0.00127 -0.001067027
0.0077893334 8.4666666e-05 -0.0024227027
0.0047413334 -0.00127 -0.0019143244
-0.006604 0.00127 -0.0020837837
0.0089746667 -8.4666666e-05 -0.0076759458
0.0044026668 0.00127 -5.0270271e-05
-0.011684 -0.00127 -0.0020837837
0.0064346669 0.00127 -0.00089756754
0.013716 -0.00127 -0.0017448649
0.016425334 0.00025400001 0.0014748649
0.0033866668 -0.00076199998 -5.0270271e-05
0.0010160001 -8.4666666e-05 -0.0059813512
0.0015240001 -0.00025400001 0.00062756758
-0.011684 -8.4666666e-05 0.0019832433
-0.011345333 -0.00059266668 -0.0003891892
-0.0086360006 0.00076199998 -0.0024227027
-0.0047413334 -0.00042333335 -0.0024227027
-0.0047413334 8.4666666e-05 -5.0270271e-05
0.010668 -0.00127 -0.00072810811
-0.0033866668 0.00127 -0.001067027
-0.0022013334 0.00127 -0.00089756754
0.0038946667 -0.00025400001 -0.0086927023
0.011853334 8.4666666e-05 -0.0024227027
-0.013716 -8.4666666e-05 -0.00327
0.0054186666 -0.00093133334 -0.0024227027
-0.014732 -0.00127 -0.0015754054
-0.0035560001 -8.4666666e-05 -0.0031005405
0.011176 8.4666666e-05 -0.0066591892
0.012869334 0.00059266668 -0.0024227027
0.016594667 0.00025400001 -0.004795135
-0.0094826669 0.00127 -0.00089756754
0.0023706667 -0.00025400001 -0.0024227027
-0.0064346669 0.00025400001 -5.0270271e-05
0.006604 -0.00059266668 -0.0003891892
0.0055880002 -0.00042333335 -0.0003891892
-0.0040640002 0.00025400001 0.00011918919
0.0091439998 -0.00127 -0.00055864867
-0.016933333 0.00127 -0.00055864867
-0.011176 -0.00076199998 -5.0270271e-05
-0.0010160001 8.4666666e-05 -0.0031005405
0.011176 0.00025400001 0.0018137838
0.0015240001 0.00025400001 -0.0066591892
0.011684 8.4666666e-05 -0.0073370272
-0.0062653334 -0.00025400001 0.00096648646
0.015070667 0.00127 -0.0020837837
