# .PCD v0.7 - Point Cloud Data file format
VERSION 0.7
FIELDS x y z
SIZE 4 4 4
TYPE F F F
COUNT 1 1 1
WIDTH 1228
HEIGHT 1
VIEWPOINT 0 0 0 1 0 0 0
POINTS 1228
DATA ascii
-0.0055974075 -0.00127 -0.00052
0.0058169137 -0.00127 -0.00107
-0.0083412351 -0.0006073913 -0.00239
0.0048291357 5.5217391e-05 0.00069000002
0.0082314815 0.00071782607 -0.00239
0.0075729629 5.5217391e-05 0.0025599999
0.0079022227 -5.5217391e-05 -0.0075599998
-0.0055974075 0.0010491305 -0.00239
0.0082314815 -0.00049695652 -0.00030000001
0.00032925926 -0.00127 -0.00095999998
0.002524321 0.00127 -0.00107
-0.0026340741 -0.00027608697 -0.0080000004
0.0054876544 -0.00082826085 -0.00019000001
-0.008670494 0.00082826085 -0.00019000001
-0.0023048148 0.00016565218 -0.0070099998
0.00021950618 0.00027608697 -0.0080000004
0.0050486419 0.00027608697 -0.0080000004
-0.0042803702 0.00127 -0.00030000001
-0.002524321 0.00027608697 -0.0037100001
0.0048291357 5.5217391e-05 -0.00382
-0.0024145679 -0.00038652174 -0.0026100001
-0.0059266668 -0.00127 -0.00073999999
-0.008670494 0.00016565218 -0.00019000001
-0.0053779013 5.5217391e-05 0.00069000002
0 -0.00127 -0.0020600001
-0.0039511113 0.0010491305 -0.00239
0.0043901233 0.0011595652 -0.0024999999
0.0074632098 0.00027608697 0.0021200001
0.00010975309 0.00027608697 0.00069000002
0.0028535803 0.00049695652 -0.00030000001
-0.0079022227 -5.5217391e-05 -0.0026100001
-0.0071339505 0.00093869568 -0.0022799999
0.0074632098 -0.00082826085 -0.00030000001
0.0048291357 0.00027608697 -0.0064599998
-0.0039511113 -0.00127 -0.00030000001
0.0048291357 5.5217391e-05 -0.0055800001
0.0084509877 -0.00071782607 -0.00030000001
0.00032925926 5.5217391e-05 -0.0061300001
0.0028535803 -0.00127 -0.00052
0.0047193826 0.0006073913 -0.0024999999
0 0.00027608697 -0.0046999999
-0.0077924691 -0.00127 -0.00129
-0.0075729629 -0.00127 -0.00118
-0.0027438272 0.00027608697 0.00079999998
0.00021950618 -0.00027608697 -0.00624
0.001317037 0.00016565218 -7.9999998e-05
-0.0026340741 0.00027608697 -0.0052499999
0.0030730865 -0.00127 -0.00030000001
0.0032925927 0.00127 -0.00095999998
-0.00032925926 5.5217391e-05 0.00091
0.0049388888 -0.00127 -0.00162
0.0073534567 -0.00127 -0.00118
0.0018658024 0.00127 -0.00118
0.0088900002 0.00027608697 -0.00030000001
-0.0040608644 0.00127 -0.00030000001
0.0026340741 -0.00027608697 -0.0031600001
-0.0088900002 -0.00038652174 -0.00162
0.0074632098 -0.00027608697 -0.00239
-0.0027438272 0.00016565218 -0.00459
0.0075729629 -0.00027608697 -0.00514
-0.0077924691 -0.00027608697 0.00102
-0.0053779013 -0.00016565218 -0.0030499999
0.0054876544 -0.00093869568 -0.0022799999
-0.0021950617 0.0011595652 -7.9999998e-05
-0.0016462964 -0.00071782607 -0.00030000001
-0.0077924691 5.5217391e-05 0.00069000002
0.00087802473 0.00093869568 -0.0024999999
-0.0019755557 -0.00071782607 -0.00030000001
-0.0024145679 -0.00127 -0.00052
0.0027438272 0.00027608697 -0.00382
-0.0039511113 -0.00127 -0.0019499999
0.0060364199 -0.0011595652 -0.00019000001
0.002524321 0.00127 -0.00085000001
0.0048291357 5.5217391e-05 -0.0086599998
0.0060364199 -0.00027608697 -0.0024999999
-0.002524321 -0.00027608697 -0.00382
-0.0048291357 -0.00127 -0.00118
-0.0023048148 5.5217391e-05 -0.0039300001
-0.0023048148 5.5217391e-05 0.00223
0.0027438272 0.00027608697 -0.00327
-0.0024145679 0.00027608697 -0.0044800001
0.0028535803 0.00027608697 -7.9999998e-05
-0.0050486419 0.00027608697 0.00102
-0.0075729629 0.00127 -0.0014
0 -0.00027608697 -0.0030499999
-0.0063656792 0.00016565218 -0.00239
-0.0027438272 -5.5217391e-05 -0.0030499999
-0.0058169137 -0.00127 -0.00173
0.0075729629 0.00027608697 -0.0086599998
-0.0050486419 0.00027608697 -0.0064599998
0.005158395 -0.00027608697 0.00102
0.0053779013 0.00016565218 0.00135
-0.0079022227 0.00082826085 -0.0022799999
0.0037316049 0.00127 -0.00095999998
-0.0015365432 -0.00127 -0.00217
-0.0074632098 -0.00027608697 -0.0072300001
-0.0069144447 -0.00127 -7.9999998e-05
-0.0027438272 0.00082826085 -0.0024999999
-0.0049388888 -5.5217391e-05 -0.00899
0.0024145679 -0.00027608697 -0.0043700002
-0.0053779013 0.00016565218 -0.00382
-0.0020853088 0.00093869568 -7.9999998e-05
-0.0042803702 0.00082826085 -0.00239
-0.0039511113 -0.0010491305 -7.9999998e-05
0.0072437036 -0.00127 -0.0019499999
0.00032925926 5.5217391e-05 0.00079999998
-0.0048291357 -5.5217391e-05 0.00102
0.0024145679 0.00027608697 -0.0031600001
-0.0023048148 -0.00127 -0.00095999998
0.0023048148 0.00127 -0.00184
-0.00010975309 -0.00027608697 0.0023399999
0.0071339505 5.5217391e-05 -0.0024999999
0.0027438272 -0.00027608697 -0.0057999999
0.0043901233 -0.00038652174 -7.9999998e-05
0.0069144447 -0.00027608697 -7.9999998e-05
-0.005158395 -0.00027608697 -0.0054700002
-0.0070241978 0.0011595652 -0.0022799999
0.00032925926 -0.00127 -0.00041000001
-0.002524321 -0.00027608697 -0.00569
-0.007682716 -0.00127 -0.00019000001
0.0035120989 -0.00127 -0.00162
-0.0075729629 0.00127 -0.0019499999
0.0018658024 -0.0006073913 -0.00030000001
-0.0085607404 -0.00071782607 -0.00239
-0.0083412351 -0.0011595652 -0.00030000001
-0.0024145679 0.00027608697 -0.0039300001
0.00065851852 0.00127 -0.0022799999
-0.0075729629 5.5217391e-05 -0.0091000004
0.0024145679 0.00027608697 -0.0077800001
0.0052681481 -0.00127 -0.00151
0.0074632098 -0.0010491305 -0.0022799999
0.0079022227 0.00016565218 0.0020099999
-0.00054876541 -0.00127 -0.00063000002
0.00032925926 5.5217391e-05 2.9999999e-05
-0.0048291357 -0.00016565218 -0.00679
-0.0053779013 -0.00016565218 -0.0026100001
0.00087802473 5.5217391e-05 -7.9999998e-05
0.0023048148 0.00016565218 -0.00382
-0.002524321 -0.00027608697 -0.0083299996
0.0024145679 5.5217391e-05 0.0026700001
0.005158395 -0.00016565218 -0.0091000004
-0.0044998764 0.00082826085 -0.00019000001
-0.00021950618 -0.00016565218 -0.00624
0.003841358 -0.00127 -0.00118
-0.0074632098 0.00127 -0.00073999999
0.0058169137 0.00127 -0.00217
0.0060364199 -0.00082826085 -0.00030000001
-0.0012072839 -0.00016565218 -0.0024999999
-0.0010975308 0.0011595652 -7.9999998e-05
-0.0010975308 -0.00127 -0.00217
0.0039511113 0.00127 -0.00052
-0.0020853088 -0.00127 -0.0024999999
-0.00032925926 0.00016565218 -0.0063499999
-0.0074632098 0.00016565218 0.0021200001
0.0015365432 0.00127 -0.00041000001
0 -0.0006073913 -0.0024999999
-0.002524321 -0.00016565218 0.0025599999
0.007682716 -0.00016565218 -0.0026100001
0.0087802466 0.00082826085 -0.00052
0.0077924691 0.00027608697 -0.0043700002
0.00054876541 -0.00127 -0.00019000001
-0.00010975309 -0.00038652174 -0.00019000001
-0.0059266668 -0.0010491305 -7.9999998e-05
-0.0084509877 -0.0011595652 -0.00129
-0.0047193826 0.00127 -0.00107
0 -0.00027608697 -0.0086599998
-0.0074632098 0.00127 -0.00019000001
-0.0072437036 0.00127 -0.00184
-0.0049388888 0.00027608697 -0.00459
0.0088900002 0.00027608697 -0.00063000002
-0.0074632098 0.00016565218 -0.0068999999
-0.00021950618 -0.00027608697 0.00135
0.0026340741 -0.00027608697 -0.00569
0.0027438272 -0.00016565218 -0.0053599998
-0.0026340741 0.00127 -0.00085000001
-0.0058169137 0.00127 -0.00151
0.00098777784 0.00127 -0.00063000002
0.0088900002 0.00016565218 -0.00030000001
0.002524321 0.00027608697 -0.0088799996
0.0071339505 -0.0011595652 -0.0022799999
-0.0027438272 0.00038652174 -0.0026100001
-0.00043901236 -0.00016565218 -7.9999998e-05
-0.00032925926 5.5217391e-05 -0.0030499999
0.0054876544 0.0010491305 -0.00239
-0.0062559261 0.00082826085 -0.00239
-0.0087802466 -0.00093869568 -0.00107
-0.0081217289 0.00038652174 -0.0022799999
0.0073534567 -0.00127 -0.0014
0.0053779013 0.00016565218 -0.0085500004
-0.0010975308 -0.0006073913 -0.00030000001
0.0053779013 -0.00127 -0.0020600001
-0.0026340741 -0.00027608697 -0.0077800001
-0.0080119753 0.0010491305 -0.0022799999
0.0035120989 -0.00071782607 -0.00030000001
-0.00032925926 0.00027608697 -0.0060200002
-0.0049388888 -0.00027608697 -0.0088799996
-0.00032925926 -5.5217391e-05 0.00102
0.0074632098 0.00027608697 -0.0046999999
-0.0037316049 0.00049695652 -0.00030000001
0.0024145679 -0.00027608697 -0.0046999999
0.001317037 0.00127 -0.00118
-0.00021950618 5.5217391e-05 0.0026700001
0.002524321 -0.00027608697 -0.0083299996
-0.0070241978 0.0010491305 -0.0022799999
-0.007682716 -0.00027608697 -0.00272
0.0075729629 0.00027608697 -0.0068999999
0.0053779013 0.0011595652 -0.00239
0.00010975309 0.00049695652 -0.0024999999
-0.0071339505 -0.00038652174 -0.00019000001
-0.0026340741 -0.00027608697 -0.0053599998
0.0079022227 0.00016565218 -0.0070099998
-0.00065851852 0.00127 -0.00129
-0.0077924691 0.00093869568 -0.0022799999
-0.0049388888 -0.00027608697 -0.00459
-0.0070241978 0.00027608697 -0.00239
0.0052681481 0.0011595652 -7.9999998e-05
0.0026340741 0.0011595652 -0.0024999999
-0.0079022227 -5.5217391e-05 0.00025000001
-0.0012072839 0.00016565218 -0.0024999999
0.0050486419 -0.00027608697 -0.0082200002
0.0027438272 0.00127 -0.00063000002
-0.0074632098 -0.00027608697 -0.0074499999
-0.00021950618 -0.00016565218 0.00135
-0.0048291357 0.00016565218 -0.0071200002
-0.0039511113 0.00127 -0.00129
-0.0077924691 -0.00027608697 -0.0076700002
0.0027438272 -0.00016565218 0.00025000001
-0.0055974075 -0.00016565218 -7.9999998e-05
0.0026340741 0.00027608697 -0.0028299999
0.0068046916 0.00027608697 -0.0024999999
0 -0.00127 -0.00063000002
0.0027438272 5.5217391e-05 0.00069000002
0.0026340741 -0.00038652174 -0.00019000001
0.0053779013 -0.0006073913 -0.00030000001
0.00010975309 -0.00127 -0.00129
0.0050486419 -0.0010491305 -0.00019000001
0.0026340741 0.00027608697 -0.00327
-0.0087802466 0.00027608697 -0.00052
-0.0049388888 -0.00027608697 0.0023399999
0.0074632098 0.00027608697 0.0014600001
0.0063656792 -0.0010491305 -0.0022799999
0.0034023458 0.00127 -0.00162
-0.001317037 0.0011595652 -7.9999998e-05
0.0024145679 0.00127 -0.00085000001
0.0035120989 0.0010491305 -7.9999998e-05
0.0077924691 0.00127 -0.00063000002
0.0021950617 0.00127 -0.0024999999
0.0079022227 5.5217391e-05 0.00157
0.002524321 -0.00016565218 -0.0091000004
-0.00032925926 5.5217391e-05 0.00157
0 -0.00027608697 0.00014
-0.0070241978 -0.0006073913 -0.00239
-0.003841358 -0.0011595652 -7.9999998e-05
-0.0054876544 0.00127 -0.00162
0.0074632098 -0.00016565218 -0.0048099998
0.0075729629 0.00027608697 -0.00349
-0.0023048148 -5.5217391e-05 -0.0041499999
-0.0074632098 0.00016565218 -0.00844
0.0023048148 0.00027608697 2.9999999e-05
-0.0039511113 -0.00016565218 -7.9999998e-05
0.0073534567 -0.00127 -0.00073999999
-0.0024145679 -0.00027608697 -0.0048099998
0.002524321 -0.0010491305 -0.0024999999
0.0030730865 -0.00093869568 -0.0024999999
0.0075729629 0.00027608697 -0.0026100001
-0.0018658024 -0.00127 -0.0024999999
-0.0049388888 0.00027608697 0.00014
0.0088900002 0.00049695652 -0.0022799999
0.0052681481 -0.00127 -0.00085000001
-0.008670494 0.00082826085 -0.00085000001
-0.005158395 -0.00027608697 -0.0070099998
-0.0069144447 -0.00082826085 -0.00239
0.0027438272 5.5217391e-05 -0.0080000004
-0.00098777784 -0.00082826085 -0.00019000001
0.0052681481 0.00027608697 0.00157
0.00043901236 0.0006073913 -0.00030000001
0.001317037 -0.00038652174 -0.00019000001
0.0024145679 0.00027608697 -0.0030499999
0.002524321 -0.00027608697 -0.0054700002
0.0070241978 -0.00038652174 -0.00030000001
-0.0077924691 -0.00027608697 -0.0074499999
0.0059266668 0.00127 -0.00019000001
-0.0082314815 -0.0011595652 -0.00095999998
-0.0024145679 0.00127 -0.00073999999
0.00010975309 0.00093869568 -7.9999998e-05
0.0080119753 -0.0011595652 -0.00095999998
-0.0052681481 0.00016565218 0.00014
0.0047193826 -0.00016565218 -7.9999998e-05
0.00054876541 -0.0011595652 -0.0024999999
-0.0052681481 -0.00127 -0.00063000002
0.0087802466 -0.00082826085 -0.00073999999
0.0047193826 0.00016565218 2.9999999e-05
-0.0052681481 0.00027608697 -7.9999998e-05
-0.008670494 0.00071782607 -0.00118
0.0049388888 0.00127 -0.00085000001
0.0049388888 0.00027608697 0.0020099999
-0.00021950618 0.00027608697 -0.0033799999
-0.00010975309 0.00127 -0.00151
0.0088900002 -0.00038652174 -0.0020600001
0.0070241978 0.00027608697 -0.00019000001
0.007682716 0.00127 -0.00239
0.00098777784 5.5217391e-05 -7.9999998e-05
-0.0055974075 -0.00127 -0.0014
-0.0064754323 0.00127 -0.00063000002
-0.0026340741 -0.00027608697 -0.0054700002
0.0071339505 0.00038652174 -0.00030000001
0.0063656792 0.00127 -0.00173
-0.0024145679 -0.00027608697 -0.0072300001
-0.0030730865 -0.00082826085 -0.0024999999
-0.0074632098 -0.00027608697 0.00036000001
0.00010975309 0.00027608697 -0.0052499999
-0.0048291357 0.00016565218 -0.00294
-0.0075729629 0.0011595652 -0.00019000001
0.0016462964 0.0010491305 -7.9999998e-05
-0.0087802466 0.00049695652 -0.00107
0.0047193826 0.00027608697 -0.0024999999
0.0077924691 0.00027608697 -0.0077800001
-0.0053779013 0.00016565218 -0.00679
0.0031828396 0.00127 -0.00019000001
-0.008670494 5.5217391e-05 -0.00019000001
0.0088900002 0.00016565218 -0.00107
-0.0053779013 -0.00016565218 -0.0071200002
-0.00076827162 -0.0010491305 -7.9999998e-05
-0.00021950618 -0.00027608697 -0.00349
-0.0026340741 0.00027608697 -0.0054700002
0.0069144447 0.00127 -0.00151
0.0027438272 -0.00016565218 -0.00734
-0.005158395 -0.00127 -0.00095999998
-0.0088900002 -0.0006073913 -0.00052
0.0039511113 -0.00082826085 -7.9999998e-05
-0.0050486419 0.00027608697 0.0019
0.0054876544 -0.00071782607 -0.0022799999
-0.0080119753 0.0006073913 -0.0022799999
0.0062559261 0.00127 -0.0020600001
0.0016462964 0.00071782607 -0.00019000001
-0.00010975309 -0.00093869568 -0.0024999999
-0.0019755557 -0.00038652174 -7.9999998e-05
0.0062559261 -0.0011595652 -0.0022799999
-0.0029633334 0.00127 -0.00019000001
0.0023048148 -5.5217391e-05 -0.0055800001
-0.00032925926 0.00127 -0.00129
0.0035120989 -0.0006073913 -0.0024999999
0.0084509877 -0.00038652174 -0.00030000001
-0.00032925926 -5.5217391e-05 0.0023399999
-0.0012072839 0.00082826085 -0.0024999999
-0.008670494 0.0006073913 -0.0022799999
-0.00021950618 -0.00027608697 -0.0074499999
-0.0019755557 -0.00127 -7.9999998e-05
0.00032925926 5.5217391e-05 -0.0037100001
0.0020853088 -0.00127 -0.0019499999
-0.0026340741 -0.00082826085 -0.00019000001
-0.0052681481 0.00027608697 -0.0065700002
-0.0023048148 0.00016565218 -0.0035999999
-0.0023048148 -0.00049695652 -0.0024999999
0.006146173 -0.00038652174 -0.00019000001
-0.0075729629 -0.00093869568 -0.00239
-0.0048291357 -0.00027608697 0.00157
0.002524321 0.00027608697 -0.0068999999
0.008670494 -0.00093869568 -0.00173
-0.0069144447 0.00127 -0.00162
-0.0048291357 -5.5217391e-05 0.00069000002
-0.0081217289 -0.0011595652 -0.0014
-0.007682716 -0.0006073913 -0.00030000001
0.007682716 0.0010491305 -7.9999998e-05
0.0087802466 0.00071782607 -0.00173
0.00098777784 0.00127 -0.00162
0.0023048148 0.00016565218 0.00135
-0.002524321 0.00027608697 -0.00019000001
-0.0075729629 -0.00038652174 -0.0026100001
0.0068046916 -5.5217391e-05 -0.00239
0.0024145679 -0.00127 -0.0019499999
0.00021950618 0.00016565218 -0.0035999999
0.0026340741 -0.00027608697 -0.0087700002
0.0087802466 -0.00071782607 -0.0020600001
-0.0053779013 -0.00016565218 -0.00294
-0.0075729629 0.00027608697 0.0020099999
-0.0074632098 0.00049695652 -0.0022799999
-0.0083412351 0.00071782607 -0.0022799999
-0.00087802473 -0.00049695652 -0.00030000001
-0.00065851852 0.0011595652 -7.9999998e-05
-0.0057071606 0.00127 -0.00095999998
-0.0049388888 -0.00027608697 -0.0066800001
0.0075729629 0.00093869568 -0.00239
0.0077924691 -0.00016565218 -0.0048099998
0.0041706176 0.00027608697 -0.00019000001
-0.0077924691 5.5217391e-05 -0.0068999999
0.0064754323 -0.00016565218 -0.0024999999
-0.007682716 -0.00027608697 0.00157
0.0087802466 -0.00049695652 -0.00151
0.0048291357 0.00016565218 -0.0082200002
0.0065851854 0.00027608697 -0.00019000001
-0.0075729629 -0.00027608697 -0.00514
0.0034023458 0.00127 -0.00063000002
-0.0083412351 -0.0011595652 -0.00052
0.0024145679 -0.00016565218 0.00157
-0.0087802466 -5.5217391e-05 -0.00052
0.0027438272 -0.00016565218 -0.0049200002
-0.0060364199 -0.00082826085 -7.9999998e-05
0.007682716 0.00027608697 -0.00844
0.0024145679 0.00027608697 -0.0063499999
0.0080119753 -0.0011595652 -0.00063000002
-0.005158395 0.00027608697 -0.00382
-0.0048291357 -0.00027608697 -0.0077800001
-0.0040608644 -0.0010491305 -7.9999998e-05
0.00054876541 0.0010491305 -7.9999998e-05
-0.0070241978 0.00071782607 -0.00030000001
-0.0060364199 0.00027608697 -0.00019000001
0.0053779013 0.00016565218 0.0019
-0.005158395 -0.00038652174 -0.00272
0.00032925926 5.5217391e-05 -0.00844
-0.0077924691 0.00127 -0.0020600001
0.0085607404 -0.00082826085 -0.0022799999
0.0066949385 -0.00127 -0.00184
0.00043901236 -0.0011595652 -7.9999998e-05
-0.0044998764 -0.00093869568 -0.0024999999
0.0065851854 0.00082826085 -0.00239
0.005158395 0.00027608697 0.00135
0.00065851852 -0.00071782607 -0.00030000001
-0.0023048148 5.5217391e-05 0.0014600001
0.0077924691 -0.00016565218 -0.0054700002
-0.0054876544 0.0010491305 -0.00239
-0.002524321 0.00027608697 -0.0042599998
0.0069144447 -0.00127 -0.0019499999
-0.0060364199 -0.00127 -0.00217
0.007682716 0.00027608697 0.0021200001
0.0021950617 -5.5217391e-05 -0.0024999999
0.0082314815 5.5217391e-05 -0.00239
0.00021950618 0.00016565218 -0.00734
0.0053779013 0.0011595652 -7.9999998e-05
0.00043901236 0.00127 -0.00085000001
-0.0023048148 -5.5217391e-05 -0.0085500004
0.0080119753 0.0011595652 -0.0020600001
0.00021950618 0.00016565218 -0.0076700002
-0.0053779013 0.00016565218 -0.0081099998
-0.0024145679 -0.00027608697 -0.0085500004
0.0087802466 0.00093869568 -0.00095999998
-0.0052681481 -0.00027608697 2.9999999e-05
0.0059266668 -0.00127 -0.00118
-0.0044998764 0.00127 -0.00107
-0.0070241978 -0.0011595652 -7.9999998e-05
-0.0012072839 -0.00127 -0.0019499999
0.0077924691 0.00027608697 0.00113
-0.0048291357 5.5217391e-05 -0.0080000004
-0.0083412351 -0.0011595652 -0.00173
-0.0050486419 -0.00127 -0.00030000001
0.00043901236 0.00127 -0.00162
-0.0050486419 0.00027608697 -0.0066800001
0.00021950618 -0.00027608697 -0.0077800001
-0.002524321 0.00027608697 -0.00789
0.0077924691 0.0011595652 -0.00239
-0.0082314815 -0.0011595652 -0.00063000002
-0.00054876541 0.00127 -0.0022799999
0.0023048148 -0.00127 -0.00063000002
0 0.00027608697 0.00014
-0.0049388888 -0.00027608697 0.00036000001
0 0.00093869568 -0.0024999999
0.0077924691 -0.00016565218 -0.0055800001
0.008670494 -0.0010491305 -0.00151
0.0049388888 0.0006073913 -0.0024999999
0.00087802473 -0.0011595652 -7.9999998e-05
-0.00054876541 0.00016565218 -7.9999998e-05
0.0021950617 -0.00127 -0.00184
-0.0026340741 -0.00027608697 -0.0087700002
-0.0036218518 -0.00127 -0.00217
-0.0057071606 0.00071782607 -0.00030000001
0.0072437036 0.00071782607 -0.00239
0.0023048148 0.00127 -0.00239
-0.0016462964 0.00082826085 -0.0024999999
0.0039511113 -0.00027608697 -7.9999998e-05
-0.0077924691 -0.00027608697 0.0020099999
-0.0031828396 -0.0010491305 -0.0024999999
-0.0077924691 0.00016565218 -0.00569
-0.0017560495 -0.00127 -0.00019000001
-0.0071339505 -0.00127 -0.00239
0.0082314815 0.00016565218 -7.9999998e-05
0.002524321 0.00027608697 0.00124
0.007682716 -0.00016565218 0.0020099999
0.00021950618 0.00027608697 0.00135
0.0023048148 -5.5217391e-05 -0.0068999999
-0.0048291357 -0.00016565218 0.00124
-0.00032925926 5.5217391e-05 0.00025000001
-0.005158395 0.00027608697 -0.0085500004
0.0020853088 0.00027608697 -7.9999998e-05
-0.007682716 -0.00027608697 -0.0046999999
-0.00098777784 0.00038652174 -0.0024999999
-0.0066949385 -0.00127 -0.00118
-0.0028535803 -0.00016565218 0.00157
0.007682716 0.00027608697 0.00245
-0.0046096295 -0.00127 -0.00041000001
0.0034023458 -0.00071782607 -0.0024999999
0.0073534567 0.00082826085 -0.00239
-0.0080119753 0.0011595652 -0.00030000001
0.0058169137 0.00127 -0.00085000001
0.00065851852 -0.00082826085 -0.0024999999
-0.0048291357 -5.5217391e-05 -0.0060200002
-0.0032925927 0.00127 -0.0020600001
-0.0048291357 0.00127 -0.00107
0.0052681481 0.00027608697 -0.0042599998
0.0031828396 -0.00127 -0.00217
0.0049388888 -0.00127 -0.00095999998
0.0017560495 0.00127 -0.00063000002
-0.0016462964 0.00093869568 -7.9999998e-05
-0.0027438272 0.00027608697 -0.0039300001
-0.003841358 0.00127 -0.00073999999
-0.0065851854 -0.0006073913 -0.0024999999
-0.0014267901 -0.00127 -0.00129
0.0048291357 -0.00016565218 -0.00734
-0.0010975308 0.00071782607 -0.0024999999
-0.0074632098 -0.00016565218 -0.0063499999
0.0064754323 -0.00127 -0.0022799999
0.0060364199 -0.00016565218 -7.9999998e-05
-0.0071339505 -0.00127 -0.00217
-0.0035120989 -0.00093869568 -0.0024999999
0.0024145679 -0.00016565218 -0.0035999999
-0.00032925926 -5.5217391e-05 -0.0050300001
0.0024145679 -0.00127 -0.00019000001
0.0028535803 -0.00127 -0.0020600001
-0.0087802466 -0.00071782607 -0.00162
0.0074632098 -0.00082826085 -0.0022799999
0.0066949385 0.00082826085 -0.00239
-0.0069144447 0.00127 -0.00052
-0.00032925926 -5.5217391e-05 -0.00734
0.0070241978 -0.00127 -0.00073999999
-0.0053779013 -0.00016565218 -0.0028299999
-0.008670494 0.00093869568 -0.00085000001
-0.0026340741 -0.00038652174 -0.00272
-0.0052681481 -0.00027608697 0.00157
-0.0049388888 0.00082826085 -0.0022799999
0.0034023458 -0.00082826085 -7.9999998e-05
0.0026340741 0.00027608697 0.0014600001
0.003841358 -0.00127 -0.00129
0.0073534567 5.5217391e-05 -0.0052499999
0.0062559261 0.0006073913 -0.00030000001
-0.0077924691 -0.00093869568 -7.9999998e-05
0.0012072839 0.00127 -0.00239
0.0077924691 0.00027608697 0.00091
-0.0023048148 -5.5217391e-05 0.00245
-0.0027438272 0.00027608697 -0.0057999999
-0.0059266668 0.00038652174 -0.00030000001
0.00032925926 -5.5217391e-05 0.00168
0.005158395 -0.00127 -0.00162
-0.002524321 -0.00027608697 -0.0030499999
-0.0021950617 0.00027608697 -0.00019000001
0.00032925926 -5.5217391e-05 -0.0072300001
0.005158395 -0.00027608697 -0.0083299996
-0.0043901233 -0.00127 -7.9999998e-05
0.0042803702 0.00127 -0.00162
-0.00054876541 0.00127 -0.00041000001
0.0024145679 -0.00027608697 -0.0063499999
-0.0077924691 -0.00027608697 -0.0064599998
0.0029633334 -0.0006073913 -0.00030000001
0.0024145679 -0.00127 -0.00239
-0.0053779013 0.00127 -7.9999998e-05
-0.0027438272 -0.00016565218 0.0025599999
-0.0012072839 0.0010491305 -0.0024999999
0.0048291357 5.5217391e-05 -0.00459
-0.0023048148 -5.5217391e-05 -0.0033799999
-0.0023048148 -0.00027608697 -0.0043700002
-0.0085607404 0.00027608697 -0.00019000001
0.0035120989 0.00127 -0.00063000002
-0.0075729629 0.00016565218 -0.00382
-0.0024145679 0.00127 -0.00095999998
-0.0075729629 -0.00127 -0.00151
0.0047193826 -0.00071782607 -0.0024999999
-0.00010975309 0.00027608697 -0.0048099998
0.0048291357 5.5217391e-05 -0.0071200002
0.00032925926 -0.00027608697 -0.0070099998
-0.0058169137 -0.00127 -0.00095999998
-0.0073534567 -0.00127 -0.0020600001
-0.0075729629 -0.00027608697 -0.0031600001
0.0052681481 0.00127 -0.00073999999
0.0057071606 0.0006073913 -0.00030000001
-0.0062559261 0.00093869568 -7.9999998e-05
-0.0036218518 0.00071782607 -0.00019000001
0.0079022227 5.5217391e-05 -0.00404
-0.0017560495 0.0010491305 -0.0024999999
-0.00087802473 0.00093869568 -0.0024999999
0.0071339505 0.00127 -0.0020600001
0.0083412351 -0.0011595652 -0.00073999999
-0.0049388888 -0.00027608697 -0.0033799999
0.0079022227 -0.00127 -0.00217
-0.0024145679 -0.00082826085 -0.0024999999
-0.00021950618 -0.00027608697 -0.0044800001
0.0079022227 -5.5217391e-05 0.0021200001
-0.00043901236 0.0010491305 -7.9999998e-05
0.0026340741 0.00071782607 -0.0024999999
0.0062559261 5.5217391e-05 -7.9999998e-05
0.0030730865 -0.00038652174 -0.0024999999
0.0026340741 -0.00027608697 -0.00679
0.0031828396 -0.00049695652 -0.00030000001
0.0084509877 0.0010491305 -0.00239
-0.0065851854 0.00127 -0.00073999999
0.0087802466 0.00093869568 -0.0020600001
0.0043901233 -0.00127 -0.0022799999
0.0055974075 -0.00127 -0.00118
-0.0040608644 -0.00127 -0.00217
0.00032925926 0.00127 -0.00173
-0.0073534567 -0.00071782607 -0.00239
0.0023048148 5.5217391e-05 0.00223
0.0052681481 0.00027608697 0.00102
-0.0036218518 0.00127 -0.00107
-0.0073534567 -0.00016565218 0.00036000001
-0.0021950617 0.00016565218 -0.0024999999
-0.0080119753 -0.0011595652 -0.00030000001
-0.0075729629 0.00016565218 -0.0026100001
-0.0062559261 0.00038652174 -0.00030000001
-0.00010975309 -0.00016565218 0.0025599999
-0.00032925926 0.00016565218 0.00025000001
0.0075729629 -0.00027608697 -0.0087700002
0.0073534567 0.00016565218 0.00014
0.0053779013 5.5217391e-05 -0.0053599998
0.0066949385 -0.00127 -0.00030000001
-0.006146173 -0.00082826085 -7.9999998e-05
-0.0046096295 0.00016565218 -0.0024999999
0.0069144447 0.00127 -0.0014
-0.0034023458 0.00127 -0.0014
0.0047193826 0.00071782607 -0.0024999999
0.005158395 -0.00049695652 -0.0024999999
0.00032925926 -0.00027608697 -0.0046999999
-0.007682716 -0.00027608697 -0.0043700002
0.0085607404 0.0011595652 -7.9999998e-05
0.0077924691 -0.00016565218 -0.0046999999
-0.0032925927 0.00027608697 -0.00019000001
-0.0041706176 0.00093869568 -0.00019000001
-0.00043901236 -0.00127 -0.00030000001
0.0026340741 -0.00093869568 -0.0024999999
0.0074632098 0.00016565218 0.0023399999
-0.0046096295 -0.00016565218 -7.9999998e-05
0.0074632098 0.00049695652 -0.00239
-0.0041706176 0.00082826085 -0.00239
0.0048291357 0.00027608697 -0.0059099998
0.00032925926 -0.00027608697 2.9999999e-05
0.0026340741 -0.00027608697 0.00069000002
0.0070241978 0.00071782607 -0.00019000001
0.0052681481 -0.00016565218 -0.0080000004
0.0026340741 0.00027608697 -0.0052499999
0.0073534567 5.5217391e-05 0.0021200001
0.0027438272 -0.00082826085 -7.9999998e-05
-0.0023048148 0.00127 -0.00118
0.0052681481 -0.00027608697 -0.0061300001
-0.0048291357 0.00016565218 -0.0074499999
-0.005158395 0.00027608697 -0.00844
0.00054876541 0.00038652174 -0.00030000001
0.007682716 0.00027608697 0.00014
-0.0014267901 0.00127 -0.0024999999
-0.0057071606 -0.00127 -0.00184
0.00010975309 0.00127 -0.00063000002
0.007682716 0.00027608697 -0.00734
0.0029633334 0.00049695652 -0.0024999999
-0.0048291357 -5.5217391e-05 0.00135
0.0052681481 -0.00027608697 0.00079999998
0.0014267901 -0.00016565218 -0.0024999999
-0.0049388888 0.00027608697 -0.0028299999
-0.0044998764 0.00127 -0.00217
-0.00043901236 0.00127 -0.0020600001
-0.0050486419 -0.00027608697 -0.00734
0.0048291357 5.5217391e-05 -0.0035999999
0.00043901236 0.00127 -0.00151
-0.0050486419 -0.00027608697 -0.0039300001
0.00021950618 -0.00127 -0.00030000001
0.002524321 -0.00027608697 0.00014
-0.0088900002 0.00038652174 -0.00129
-0.0048291357 -0.00016565218 -0.0044800001
-0.00010975309 -0.00027608697 -0.00514
-0.00010975309 0.00027608697 -0.0064599998
0.00010975309 0.00027608697 0.0023399999
-0.0072437036 0.00127 -0.00118
-0.0026340741 0.00127 -0.00129
-0.0027438272 -5.5217391e-05 -0.0059099998
0.0055974075 -0.00016565218 -0.0024999999
-0.0055974075 -0.0006073913 -0.00030000001
-0.0079022227 0.00071782607 -0.00030000001
-0.0084509877 -0.00093869568 -0.00239
0.0075729629 0.00027608697 0.00135
0.0026340741 -0.00027608697 -0.0037100001
0.0052681481 -5.5217391e-05 -0.0076700002
0.0054876544 0.00082826085 -0.00239
-0.0021950617 -5.5217391e-05 0.00047
0.002524321 -0.00027608697 -0.0050300001
-0.002524321 0.00127 -0.00162
0.0082314815 0.0011595652 -0.00239
-0.0054876544 -0.00082826085 -0.0024999999
-0.0015365432 0.00127 -0.0020600001
-0.0031828396 -0.0006073913 -0.0024999999
0.00032925926 -0.00016565218 0.00069000002
0.00021950618 -0.00027608697 -0.00272
-0.0077924691 -0.00027608697 -0.00569
0.007682716 -0.00093869568 -0.0022799999
0.0030730865 -0.0010491305 -7.9999998e-05
0.002524321 0.00027608697 0.0020099999
-0.0088900002 0.00016565218 -0.00030000001
0.0071339505 0.00127 -0.00063000002
-0.00032925926 5.5217391e-05 -0.0065700002
0.00032925926 -0.00027608697 -0.00624
-0.0064754323 -0.00127 -0.0020600001
-0.0024145679 0.00027608697 0.0023399999
-0.0077924691 0.00016565218 0.0025599999
0.0053779013 0.00127 -0.00217
-0.0053779013 -0.00016565218 -0.0077800001
0.00021950618 -0.00016565218 -0.00899
-0.0066949385 0.00127 -0.00184
-0.0050486419 0.00027608697 0.00047
0.00021950618 0.00127 -0.00073999999
-0.00032925926 5.5217391e-05 -0.0059099998
-0.0083412351 0.00082826085 -0.0022799999
-0.00032925926 -5.5217391e-05 0.00036000001
0.0053779013 -0.00127 -0.00107
0.0080119753 0.0011595652 -0.00173
0.002524321 -0.00027608697 -0.0063499999
0.0074632098 -0.00016565218 0.00069000002
0.0073534567 0.00016565218 -0.0059099998
0.0079022227 -5.5217391e-05 -0.0035999999
0.00010975309 -0.00027608697 0.00113
-0.0026340741 0.00027608697 -0.0030499999
0.0075729629 0.00027608697 -0.0055800001
0.00032925926 0.00016565218 -7.9999998e-05
0.0037316049 -0.00093869568 -7.9999998e-05
0 0.00027608697 2.9999999e-05
0.0014267901 -0.0011595652 -0.0024999999
-0.0020853088 0.00027608697 -0.00019000001
0.00021950618 -0.0010491305 -7.9999998e-05
0.0043901233 0.00071782607 -0.0024999999
-0.0032925927 0.0011595652 -0.00019000001
0.0058169137 0.00049695652 -0.00239
0.00098777784 0.00127 -0.0019499999
0.0075729629 0.00027608697 0.00091
-0.008670494 0.00093869568 -0.00030000001
-0.0035120989 0.00049695652 -0.00030000001
0.0027438272 0.00027608697 -0.0043700002
-0.0053779013 0.00127 -0.00052
0.0047193826 0.00127 -0.00217
0.0024145679 -0.00071782607 -0.00030000001
0.0026340741 0.00027608697 -0.0064599998
-0.0068046916 0.00127 -0.00129
0.0048291357 -0.00016565218 -0.0057999999
-0.0052681481 0.00027608697 -0.0071200002
0.0017560495 -0.00127 -0.0024999999
0.0010975308 -0.00049695652 -0.00030000001
0.0050486419 -0.00027608697 -0.00734
-0.0015365432 0.00127 -0.00184
-0.00032925926 -0.0006073913 -0.0024999999
0.0052681481 -5.5217391e-05 -0.0065700002
0.005158395 0.00049695652 -0.00030000001
0.0075729629 -0.00027608697 -0.00239
0.0055974075 0.00038652174 -0.00239
-0.0030730865 -0.00082826085 -7.9999998e-05
0.0026340741 -0.00027608697 -0.0050300001
0.0059266668 0.00127 -0.00151
0.0032925927 -0.00127 -0.00063000002
0.0015365432 0.00127 -0.00095999998
0.0029633334 0.00038652174 -0.00030000001
-0.0052681481 0.00027608697 -0.0035999999
-0.0048291357 -0.00016565218 0.00047
0.0079022227 0.00016565218 -0.00569
-0.0042803702 0.00127 -0.00239
-0.0027438272 0.00027608697 0.00179
0.0021950617 -0.00127 -0.0024999999
-0.0079022227 -5.5217391e-05 -0.0068999999
-0.007682716 0.00016565218 0.0014600001
0.0048291357 0.00016565218 -0.0077800001
0.0020853088 -0.00127 -0.00041000001
0.0050486419 0.00071782607 -0.0024999999
0.0027438272 5.5217391e-05 -0.00382
0.0065851854 -0.00127 -0.00041000001
-0.0027438272 0.00016565218 -0.0087700002
-0.0035120989 -0.00038652174 -0.0024999999
0.005158395 -0.00027608697 -0.0050300001
0.0073534567 -0.00127 -0.00107
0.00076827162 -5.5217391e-05 -0.0024999999
0.0040608644 0.00127 -0.00129
0.0083412351 0.0006073913 -0.00239
-0.0041706176 0.00127 -0.00184
0.0072437036 -0.00127 -0.0014
0.0072437036 0.0011595652 -0.00239
0.0030730865 0.00038652174 -0.00030000001
-0.0082314815 0.0011595652 -0.00063000002
-0.0058169137 -0.00127 -0.00030000001
-0.0054876544 0.00127 -0.00129
0.0042803702 0.00127 -0.00019000001
0.0082314815 -0.00027608697 -0.00019000001
-0.002524321 -0.00027608697 -0.0082200002
0.0050486419 0.00027608697 -7.9999998e-05
0.0055974075 0.00127 -0.00162
-0.0068046916 -0.00082826085 -0.00019000001
-0.0048291357 0.00016565218 0.00091
0.0080119753 -0.00071782607 -0.0022799999
-0.0041706176 0.00071782607 -0.0024999999
0.0052681481 0.00127 -0.00063000002
-0.0060364199 -0.0011595652 -0.00239
0.00065851852 0.00127 -7.9999998e-05
0.0031828396 -0.00082826085 -0.00019000001
-0.0082314815 0.00127 -0.00184
-0.0052681481 -0.00027608697 0.00179
-0.001317037 5.5217391e-05 -7.9999998e-05
0.0031828396 -0.0010491305 -7.9999998e-05
-0.0027438272 -0.00127 -0.00239
-0.0082314815 -0.0011595652 -0.00085000001
-0.0048291357 0.00016565218 -0.0072300001
-0.002524321 -0.00027608697 0.0020099999
-0.0050486419 0.00027608697 -0.0061300001
0.00098777784 -0.00038652174 -0.0024999999
-0.0048291357 -0.00127 -0.00052
-0.0088900002 -5.5217391e-05 -0.00107
-0.0080119753 0.00016565218 -7.9999998e-05
0.0023048148 5.5217391e-05 -0.0066800001
-0.00032925926 0.0010491305 -7.9999998e-05
-0.0023048148 -5.5217391e-05 -0.0031600001
-0.0014267901 -0.00093869568 -0.0024999999
-0.0060364199 -5.5217391e-05 -0.00239
-0.0050486419 -0.00127 -0.0020600001
0.00021950618 -0.00127 -0.00019000001
-0.002524321 -0.00027608697 0.00069000002
-0.0032925927 0.00027608697 -7.9999998e-05
0.007682716 0.00027608697 -0.0041499999
0.0035120989 -0.00127 -0.00151
0.0027438272 -5.5217391e-05 -0.0033799999
0.0060364199 0.00127 -7.9999998e-05
-0.0049388888 -5.5217391e-05 -0.0091000004
-0.0074632098 -0.00027608697 -0.00382
0.0054876544 -0.0006073913 -0.00239
-0.00032925926 0.00016565218 -0.00349
-0.0052681481 -0.00027608697 0.0019
0.0077924691 0.00027608697 0.00047
-0.0077924691 0.00016565218 0.0021200001
-0.0024145679 -0.00127 -0.00073999999
-0.00032925926 0.00127 -0.00041000001
0.0057071606 -0.00049695652 -0.00030000001
-0.0027438272 0.00027608697 -0.0080000004
0.00043901236 -0.00049695652 -0.0024999999
-0.0058169137 0.00127 -0.00173
0.005158395 -0.00027608697 -0.0082200002
0.0010975308 -0.00016565218 -0.0024999999
-0.0050486419 -0.00127 -0.00073999999
0.0065851854 -0.00093869568 -0.0022799999
-0.0082314815 -5.5217391e-05 -7.9999998e-05
-0.0058169137 0.00127 -0.00184
-0.0073534567 5.5217391e-05 -0.0055800001
-0.0023048148 -0.00127 -0.00073999999
-0.0026340741 0.00027608697 0.0025599999
0.0035120989 -0.00127 -0.00041000001
-0.0015365432 -0.0010491305 -7.9999998e-05
0.0048291357 0.00027608697 -0.0039300001
0.0014267901 0.00127 -0.00151
0.0014267901 -0.00127 -0.0014
-0.00032925926 0.00027608697 -0.0065700002
0.0074632098 -0.00016565218 -0.00272
-0.0043901233 0.00127 -0.00095999998
0.0072437036 -0.00082826085 -0.0022799999
-0.00010975309 0.00027608697 -0.00294
-0.0074632098 -0.00016565218 0.00245
0.0016462964 0.00127 -0.00129
-0.0075729629 0.00027608697 -0.0059099998
0.0062559261 0.0011595652 -0.00239
0.00065851852 -0.00127 -0.00073999999
0.0077924691 0.00027608697 -0.0060200002
0.0021950617 0.00016565218 0.00025000001
-0.0046096295 0.00027608697 -7.9999998e-05
-0.0048291357 0.00016565218 -0.0087700002
-0.0020853088 -0.00127 -0.00019000001
-0.002524321 -0.00038652174 -7.9999998e-05
-0.0020853088 0.00049695652 -0.00030000001
0.0027438272 -0.00027608697 0.00036000001
-0.0029633334 -0.0010491305 -0.0024999999
0.0050486419 -0.00027608697 -0.00569
-0.007682716 0.00016565218 -0.0075599998
0.00076827162 -0.0010491305 -7.9999998e-05
0.0087802466 0.00071782607 -0.00217
-0.0087802466 0.00082826085 -0.00184
0.0027438272 0.00027608697 -7.9999998e-05
-0.0023048148 -0.00127 -7.9999998e-05
-0.005158395 -0.00027608697 -0.0053599998
0.0060364199 -0.0006073913 -0.0022799999
-0.0048291357 -5.5217391e-05 -0.0037100001
-0.0037316049 0.00127 -0.0019499999
0.007682716 -0.00016565218 -0.0068999999
0.0039511113 -0.00127 -0.0020600001
-0.0052681481 0.0010491305 -0.00019000001
0.0050486419 0.00027608697 -0.00844
-0.0063656792 -0.0011595652 -0.00239
0.0041706176 0.00093869568 -0.0024999999
-0.00032925926 -5.5217391e-05 0.00079999998
-0.00098777784 0.00127 -0.0014
-0.0026340741 -0.00027608697 0.00014
-0.005158395 0.0011595652 -7.9999998e-05
-0.0050486419 0.00027608697 2.9999999e-05
0.0079022227 0.00016565218 -0.0071200002
0.0026340741 0.00027608697 -0.0055800001
0 0.00027608697 -0.0086599998
0.0024145679 -0.00016565218 0.0014600001
0.0048291357 -0.00016565218 -0.0065700002
0.0027438272 0.00127 -0.00019000001
0.0050486419 5.5217391e-05 0.0026700001
0.0026340741 -0.0006073913 -0.00030000001
0.006146173 0.00049695652 -0.00030000001
-0.0066949385 0.00049695652 -0.00030000001
0.00087802473 -0.00038652174 -7.9999998e-05
-0.0016462964 0.00082826085 -7.9999998e-05
0.00065851852 -0.0010491305 -0.0024999999
-0.0075729629 -0.00071782607 -0.00239
-0.0041706176 0.00127 -0.00129
0.00054876541 0.00127 -0.00085000001
-0.00098777784 -0.00127 -0.00118
-0.0064754323 0.00127 -0.00095999998
0.0085607404 0.00027608697 -0.00019000001
-0.0027438272 -0.00027608697 -0.0081099998
-0.0021950617 -0.00016565218 -0.0030499999
0.0048291357 -0.00016565218 -0.0043700002
-0.0053779013 -0.00093869568 -0.00239
-0.00032925926 5.5217391e-05 -0.0085500004
0.0053779013 5.5217391e-05 -0.00844
0.0074632098 0.00127 -0.00217
-0.0041706176 -0.00038652174 -0.0024999999
-0.0048291357 5.5217391e-05 0.00113
-0.00098777784 -0.00127 -0.00085000001
0.0048291357 -0.0006073913 -0.0024999999
-0.0069144447 0.00127 -0.00073999999
0.0027438272 0.00027608697 -0.0052499999
-0.005158395 -0.00127 -0.0014
0.0029633334 -0.00071782607 -0.0024999999
0.00065851852 -0.00127 -0.00239
-0.0027438272 0.00027608697 -0.0031600001
-0.0027438272 -5.5217391e-05 -0.0031600001
-0.0085607404 -0.00038652174 -0.00019000001
0.0032925927 0.00127 -0.0022799999
-0.0021950617 -0.00127 -0.00019000001
-0.0027438272 0.00016565218 -0.0050300001
-0.0075729629 -0.00027608697 -0.00624
0.00065851852 -0.00071782607 -0.0024999999
0.0065851854 -0.00027608697 -0.00239
0.0031828396 -0.00127 -0.0014
-0.0037316049 -0.00127 -0.0020600001
0.0053779013 0.00016565218 -0.00382
-0.00043901236 0.00027608697 -0.00019000001
0.0027438272 -0.00016565218 0.00079999998
0.0072437036 -0.00049695652 -0.0022799999
0.0010975308 0.00127 -0.0014
-0.0048291357 -0.00016565218 -0.0087700002
-0.0040608644 0.00127 -0.00118
-0.0024145679 0.00027608697 -0.00382
-0.0010975308 -0.00038652174 -7.9999998e-05
0.00065851852 0.0011595652 -0.0024999999
-0.0050486419 -0.00127 -7.9999998e-05
0.0059266668 0.00049695652 -0.00030000001
-0.002524321 0.00027608697 -0.0049200002
0.0059266668 0.00016565218 -0.00239
-0.0031828396 -0.0010491305 -7.9999998e-05
-0.00076827162 -0.00127 -0.0024999999
-0.0012072839 0.00127 -0.0019499999
-0.0048291357 5.5217391e-05 -0.0050300001
-0.001317037 -0.00027608697 -0.0024999999
-0.002524321 -0.00027608697 0.0019
0.0058169137 0.00127 -7.9999998e-05
-0.0023048148 -0.00127 -0.0020600001
0.0027438272 0.00016565218 -0.0026100001
0.0018658024 -0.00127 -0.00173
-0.003841358 -0.00127 -0.0014
-0.0026340741 -0.00027608697 -0.0086599998
0.0074632098 -0.0006073913 -0.00030000001
0.0075729629 0.00027608697 -0.0076700002
0.0079022227 -5.5217391e-05 -0.00734
-0.0037316049 0.0011595652 -7.9999998e-05
-0.0028535803 -5.5217391e-05 -0.00789
-0.0074632098 -0.00016565218 -0.0059099998
0.0027438272 -0.00027608697 -0.0070099998
0.0070241978 -0.00082826085 -0.00030000001
-0.0066949385 -0.00082826085 -0.00019000001
-0.0027438272 0.00127 -0.0019499999
-0.0026340741 5.5217391e-05 0.0026700001
0.0048291357 -5.5217391e-05 -0.0076700002
-0.0074632098 0.00127 -0.00052
0.0057071606 -0.00016565218 -0.0024999999
0.0048291357 -0.00016565218 -0.0064599998
-0.0052681481 0.00082826085 -0.00019000001
0.0075729629 -0.00027608697 0.00036000001
-0.0085607404 -0.0011595652 -0.00118
-0.00098777784 -0.00082826085 -0.0024999999
-0.0027438272 0.00027608697 -0.0059099998
0.00010975309 -0.00027608697 -0.0065700002
0.00054876541 0.00127 -0.00162
0.0049388888 -0.00016565218 0.00245
0.0083412351 -0.0011595652 -0.00162
-0.00021950618 0.00027608697 -0.0044800001
0.00021950618 -0.00027608697 -0.0066800001
0.0050486419 0.00027608697 -0.0042599998
-0.00010975309 0.00027608697 -0.0082200002
0.0073534567 0.00016565218 -0.0030499999
-0.0082314815 -0.0011595652 -7.9999998e-05
0.0066949385 0.00127 -0.0022799999
0.0074632098 0.00127 -0.00162
-0.0080119753 -0.00082826085 -7.9999998e-05
0.0015365432 -0.00127 -0.00239
0.0073534567 -5.5217391e-05 -0.0043700002
-0.0034023458 0.00127 -0.00151
0.0048291357 0.00016565218 -0.00294
0.0058169137 -0.00127 -0.00041000001
-0.0080119753 0.00127 -0.00118
-0.0017560495 -0.00071782607 -0.00030000001
0.0052681481 0.00127 -0.0020600001
0.0026340741 -0.00027608697 0.0020099999
0.0075729629 0.00127 -0.0020600001
0.0050486419 -0.00038652174 -0.0026100001
0.0079022227 0.00127 -0.0019499999
-0.0083412351 0.00049695652 -0.0022799999
-0.00032925926 -0.00082826085 -0.0024999999
0.00076827162 0.00127 -0.00019000001
-0.0065851854 0.00038652174 -0.00239
0.0023048148 0.00016565218 -0.0080000004
0.0050486419 -5.5217391e-05 0.0025599999
-0.0079022227 -0.00127 -0.00173
0.0027438272 -5.5217391e-05 -0.00382
-0.0080119753 -0.0011595652 -0.00085000001
0.0069144447 5.5217391e-05 -7.9999998e-05
-0.0044998764 -5.5217391e-05 -0.0024999999
-0.0015365432 -0.00127 -0.00019000001
-0.0052681481 -0.0011595652 -0.00239
0.0017560495 0.00038652174 -0.00030000001
0.0052681481 -0.00016565218 0.00168
0.00098777784 0.0010491305 -0.0024999999
-0.0075729629 -0.00027608697 0.00025000001
0.00054876541 -0.0011595652 -7.9999998e-05
-0.0068046916 -0.00016565218 -0.00239
-0.0074632098 -0.00027608697 0.00047
0.0037316049 0.0010491305 -0.0024999999
0.00032925926 5.5217391e-05 -0.0080000004
-0.0024145679 0.00016565218 -0.00624
0.0047193826 0.00082826085 -7.9999998e-05
0.0077924691 -0.00016565218 -0.00569
0.0084509877 0.0011595652 -0.0019499999
0.0060364199 0.0010491305 -0.00239
-0.00054876541 0.00027608697 -0.00019000001
0.0087802466 0.00071782607 -0.00095999998
0.0029633334 0.00071782607 -0.0024999999
0.0030730865 0.00127 -0.00073999999
-0.0088900002 -5.5217391e-05 -0.00019000001
-0.0058169137 -0.00127 -0.00019000001
0.0024145679 -0.00027608697 -0.0071200002
-0.0083412351 0.0011595652 -0.00217
-0.002524321 0.0011595652 -0.00019000001
0.0010975308 -0.00127 -0.00162
-0.0044998764 -0.0011595652 -0.00239
0.0048291357 0.00016565218 -0.0030499999
0.0027438272 5.5217391e-05 -0.0071200002
0.0024145679 -0.00093869568 -7.9999998e-05
0.0023048148 5.5217391e-05 -0.0072300001
-0.0043901233 -0.00127 -0.00041000001
0.0024145679 0.00027608697 -0.0035999999
-0.0075729629 -0.00027608697 -0.00272
0.00032925926 -5.5217391e-05 -0.00844
-0.006146173 0.00127 -0.00052
-0.0074632098 0.0010491305 -0.00019000001
0.00010975309 -0.00093869568 -0.0024999999
-0.0075729629 0.0010491305 -0.00019000001
-0.00098777784 0.00082826085 -0.0024999999
0.0069144447 0.0010491305 -7.9999998e-05
0.0027438272 5.5217391e-05 -0.0085500004
-0.007682716 -0.00027608697 -0.0041499999
0.0050486419 -0.00027608697 0.0020099999
0.00010975309 0.0010491305 -0.0024999999
0.00054876541 0.00127 -0.00063000002
0.0050486419 -0.00027608697 -0.0033799999
0.0010975308 -0.00127 -7.9999998e-05
0 -0.00016565218 -0.0092099998
0.0084509877 -0.00082826085 -0.00019000001
0.0050486419 0.00027608697 0.00091
-0.0075729629 -0.00027608697 0.0021200001
0.0053779013 0.0010491305 -0.00239
-0.0014267901 0.00093869568 -7.9999998e-05
0.0026340741 -0.00127 -0.00217
-0.00043901236 -0.0006073913 -0.0024999999
0.0079022227 0.00016565218 -0.0035999999
-0.0073534567 -0.00127 -0.00085000001
0.0065851854 0.00127 -0.0014
0.0060364199 -0.00127 -0.00063000002
0.002524321 0.00016565218 0.0025599999
0.00032925926 -5.5217391e-05 -0.0071200002
0.0079022227 0.00127 -0.00095999998
0.0058169137 -0.00127 -0.0019499999
0.0077924691 0.00027608697 -0.00514
-0.0079022227 -0.00016565218 -0.0066800001
0.0016462964 0.00127 -0.0022799999
0.0023048148 5.5217391e-05 -0.0052499999
0.0028535803 -0.00093869568 -7.9999998e-05
-0.0023048148 -0.00016565218 0.0023399999
0.0027438272 -0.00027608697 0.0020099999
0.0077924691 0.00082826085 -7.9999998e-05
-0.0031828396 -0.0011595652 -7.9999998e-05
0.0066949385 -0.00127 -0.00162
0.0026340741 -0.00027608697 -0.0064599998
-0.0068046916 -0.00127 -0.0019499999
0.0037316049 0.00016565218 -0.0024999999
-0.0053779013 -5.5217391e-05 0.00047
0.0024145679 -0.00016565218 -0.00624
0.001317037 -0.00127 -0.0014
-0.0046096295 -0.00082826085 -0.0024999999
-0.0075729629 -0.00027608697 -0.0082200002
-0.0084509877 0.0011595652 -0.00085000001
-0.0027438272 5.5217391e-05 -0.00327
-0.0017560495 0.00127 -0.00118
0.0048291357 5.5217391e-05 -0.00734
-0.0032925927 -0.00127 -0.0022799999
0.00087802473 0.00093869568 -7.9999998e-05
0.0074632098 -0.00127 -0.00173
-0.00032925926 -5.5217391e-05 0.00135
-0.0080119753 0.00127 -0.00107
-0.0036218518 -0.00082826085 -0.0024999999
-0.0023048148 -0.00027608697 -0.0068999999
0.0024145679 -0.00016565218 0.00223
-0.0049388888 -0.00027608697 -0.0030499999
0.0082314815 0.0011595652 -0.00041000001
-0.0031828396 -0.00127 -0.0020600001
-0.0077924691 -0.00027608697 -0.0083299996
-0.0073534567 -5.5217391e-05 -0.0076700002
-0.0048291357 0.00127 -0.00052
-0.0088900002 -0.00016565218 -0.00173
-0.0026340741 0.0010491305 -7.9999998e-05
0.0032925927 -0.0006073913 -0.00030000001
-0.0077924691 0.00127 -0.0014
0.0066949385 0.00127 -0.00030000001
-0.00021950618 -0.00016565218 0.0020099999
0.0018658024 -0.00127 -0.00217
-0.0048291357 0.00016565218 0.00047
-0.0044998764 0.00127 -0.0020600001
0.0029633334 0.00127 -0.0020600001
-0.0049388888 -0.00027608697 -0.0068999999
-0.0042803702 -0.00027608697 -0.0024999999
-0.002524321 0.00027608697 -0.0086599998
0.002524321 -0.00027608697 -0.0064599998
-0.0027438272 0.00016565218 0.00047
-0.0079022227 0.00016565218 -7.9999998e-05
-0.0053779013 -5.5217391e-05 -0.0065700002
0.0049388888 0.00027608697 0.00069000002
-0.0018658024 -0.00127 -0.00052
-0.0074632098 0.00016565218 -0.0071200002
-0.0021950617 -0.00016565218 -0.00844
0.0041706176 0.0011595652 -0.0024999999
0.0052681481 0.00016565218 -0.0088799996
0.0039511113 0.0011595652 -0.0024999999
-0.00010975309 -0.00127 -0.00173
0.0052681481 0.00027608697 -0.0075599998
0.0074632098 0.00027608697 -0.0059099998
-0.0087802466 0.00049695652 -0.00063000002
-0.0052681481 -0.00027608697 -0.0031600001
-0.0050486419 -0.00027608697 -0.0030499999
-0.0021950617 -0.00127 -0.00173
-0.0026340741 0.00027608697 -0.0048099998
0.0019755557 -0.00127 -0.0014
-0.0023048148 0.00127 -0.0020600001
0.0080119753 -0.00027608697 -0.0022799999
0.0027438272 -0.00016565218 -0.0028299999
0.00032925926 -5.5217391e-05 -0.0085500004
0.002524321 -0.00027608697 -0.0030499999
0.0048291357 -0.00016565218 0.0020099999
0.00076827162 0.00127 -0.00173
-0.0052681481 -0.00127 -0.00052
-0.00021950618 0.00027608697 0.00014
-0.0023048148 0.00127 -0.00063000002
-0.00010975309 -0.00082826085 -7.9999998e-05
0.0019755557 -0.00082826085 -7.9999998e-05
0.0026340741 0.00027608697 0.0019
0.0052681481 -0.00016565218 -0.00349
0.0029633334 -0.00127 -0.00052
0.0079022227 0.00027608697 -7.9999998e-05
-0.0043901233 -0.0006073913 -0.0024999999
0.007682716 0.00082826085 -0.00239
-0.0077924691 0.00071782607 -0.00030000001
0.002524321 -0.00027608697 -0.00382
-0.0048291357 5.5217391e-05 -0.0077800001
0.0015365432 -0.00127 -0.00217
0.0032925927 0.00127 -0.0024999999
0.00043901236 0.00127 -0.0014
0.0014267901 -0.0011595652 -7.9999998e-05
-0.00021950618 -0.00016565218 0.00014
0.0037316049 0.00127 -0.00107
0.0024145679 -0.00038652174 -0.0024999999
0.0060364199 0.0010491305 -7.9999998e-05
-0.0027438272 0.00016565218 0.0014600001
0.00098777784 -0.00016565218 -7.9999998e-05
-0.0079022227 -0.00127 -0.00162
-0.0027438272 5.5217391e-05 -0.00349
-0.0026340741 0.00038652174 -0.00030000001
0.00010975309 0.00027608697 2.9999999e-05
-0.00043901236 -0.00038652174 -7.9999998e-05
-0.00021950618 -0.00016565218 -0.0054700002
0.0040608644 0.00127 -0.00041000001
-0.0087802466 5.5217391e-05 -0.0022799999
0.00098777784 0.00127 -0.00118
-0.0057071606 -0.00027608697 -0.0024999999
-0.0062559261 5.5217391e-05 -7.9999998e-05
0.0075729629 0.00027608697 -0.0042599998
-0.00032925926 0.00127 -0.0024999999
0.0070241978 -0.00127 -0.00095999998
0.0023048148 5.5217391e-05 -0.0080000004
0.0066949385 0.00127 -0.00217
-0.0077924691 0.00127 -0.0019499999
0.0048291357 -5.5217391e-05 0.00057999999
0.0030730865 0.00071782607 -0.0024999999
0.0077924691 -0.00016565218 -0.0049200002
0.00032925926 -5.5217391e-05 -0.00459
0.00043901236 0.00127 -0.00073999999
-0.0024145679 0.00027608697 0.00113
-0.0027438272 -5.5217391e-05 -0.0075599998
0.0079022227 -0.00016565218 -0.0076700002
-0.0060364199 -0.00127 -0.00184
-0.0042803702 0.00071782607 -0.0024999999
-0.0081217289 -0.0011595652 -0.00217
0.0049388888 0.00027608697 -0.00349
-0.0069144447 0.00127 -0.00063000002
0.0065851854 0.00127 -0.00041000001
-0.00032925926 -5.5217391e-05 -0.0039300001
-0.0023048148 5.5217391e-05 -0.0070099998
0.002524321 0.00127 -0.00095999998
0.0073534567 0.00016565218 -0.00382
-0.00021950618 -0.00038652174 -0.00019000001
-0.0026340741 -0.00127 -0.0022799999
0.0048291357 5.5217391e-05 -0.0082200002
0.007682716 0.00027608697 0.0020099999
-0.002524321 -0.00027608697 -0.0074499999
-0.003841358 0.0006073913 -0.00030000001
0.0048291357 5.5217391e-05 -0.0026100001
0.0083412351 0.00049695652 -0.00030000001
0.0071339505 -0.00127 -0.00030000001
0.0027438272 5.5217391e-05 -0.00272
0.00021950618 -0.00027608697 0.00124
0.0072437036 -0.0010491305 -0.0022799999
0.005158395 0.00016565218 -0.0088799996
0.008670494 -0.00093869568 -0.00184
-0.0039511113 0.00093869568 -0.00239
0.0027438272 -0.00016565218 -0.00844
