# .PCD v0.7 - Point Cloud Data file format
VERSION 0.7
FIELDS x y z
SIZE 4 4 4
TYPE F F F
COUNT 1 1 1
WIDTH 1443
HEIGHT 1
VIEWPOINT 0 0 0 1 0 0 0
POINTS 1443
DATA ascii
-0.03441 -0.00127 -0.001718919
-0.025420001 -0.0003175 0.0017416216
-0.01767 0.0003175 -0.0054940544
-0.027900001 -0.0003175 -0.0064378381
0.030690001 0 -0.004864865
0.02015 0 -0.0051794597
0.03596 -0.00127 -0.00014594603
0.01581 -0.000635 -0.00046054064
0.030070001 0.00127 -0.00014594603
-0.03906 -0.00095249998 -0.0020335137
-0.01209 -0.00095249998 -0.0023481082
-0.027900001 -0.0003175 -0.0026627029
-0.01891 -0.00127 -0.0010897298
0.025420001 -0.0003175 -0.0026627029
-0.02046 0 -0.0064378381
0.03565 0.0003175 0.00016864858
-0.03844 0.0003175 -0.0023481082
0.00093000004 0.0003175 -0.0023481082
0.0372 0 -0.00014594603
-0.024180001 0.0003175 -0.00014594603
-0.03224 0.00095249998 -0.0023481082
-0.01798 0.0003175 -0.0058086487
-0.00496 -0.0003175 -0.0080108112
0.0077500003 0.00127 -0.00014594603
0.02015 0.0003175 -0.0073816217
0.026660001 -0.000635 -0.00046054064
0.01116 -0.00127 -0.00014594603
0.02201 -0.00127 -0.001718919
0.02046 0 -0.0076962165
-0.00496 -0.0003175 0.00048324317
0.00496 0.00127 -0.0023481082
-0.0074400003 0.00095249998 -0.00014594603
0.0052700001 0.000635 -0.0023481082
-0.0186 -0.00127 -0.0023481082
-0.0027900001 0 0.0023708108
-0.027900001 0 0.0011124323
-0.030070001 0.00127 -0.00077513524
0.02139 0.00127 -0.0014043244
-0.03224 0.00127 -0.0020335137
-0.01767 0.0003175 -0.0029772974
0.03565 -0.0003175 -0.0073816217
-0.015500001 0 -0.0073816217
0.027590001 0.0003175 -0.00014594603
0.026350001 -0.00127 -0.00077513524
0.00248 0.0003175 -0.0070670275
0.02263 0.0003175 -0.0045502703
0.03286 0.00127 -0.00014594603
-0.00465 0.00127 -0.00077513524
-0.025730001 0 -0.0064378381
0.03379 0.000635 -0.00014594603
0.0031000001 -0.00127 -0.0014043244
0.027900001 0.0003175 -0.0064378381
0.015500001 -0.0003175 -0.0051794597
-0.02015 -0.00127 -0.0023481082
0.03565 -0.00127 -0.0020335137
0.00124 0.00127 -0.00014594603
-0.03813 0 -0.0083254054
0.022940001 0 -0.0036064866
0.01023 -0.00127 -0.0010897298
0.025420001 -0.00095249998 -0.0023481082
-0.03875 0.0003175 -0.00014594603
0.0062000002 -0.00127 -0.0023481082
0.03813 0.00127 -0.001718919
-0.00496 -0.0003175 -0.0070670275
0.00031 0.00127 -0.001718919
-0.03317 0 -0.0076962165
-0.03503 -0.00127 -0.00077513524
0.0186 0.000635 -0.0023481082
-0.01953 0.00127 -0.0014043244
0.0077500003 -0.0003175 0.0014270269
0.01736 0.00127 -0.001718919
-0.0031000001 0.00095249998 -0.00014594603
0.029450001 0.00127 -0.0023481082
-0.0096100001 -0.00095249998 -0.0023481082
0.0096100001 0.00127 -0.0020335137
0.0080599999 0.00127 -0.0014043244
0.00031 0 -0.0073816217
0.01674 -0.00095249998 -0.00014594603
-0.03937 0 -0.00046054064
0.02046 -0.000635 -0.0023481082
-0.01984 -0.00095249998 -0.0023481082
0.00124 0.00127 -0.0020335137
-0.0027900001 0.00127 -0.0014043244
-0.01767 0.0003175 -0.0045502703
-0.023250001 0.0003175 -0.00014594603
0.03565 -0.00127 -0.00077513524
0.02201 0.0003175 -0.00014594603
0 0.0003175 -0.004235676
-0.01085 0.00127 -0.00077513524
-0.00248 -0.0003175 -0.0064378381
-0.01271 0.00127 -0.001718919
-0.03875 -0.0003175 -0.0023481082
-0.02046 0.0003175 -0.0058086487
-0.024180001 0.00127 -0.00077513524
-0.03658 -0.00127 -0.00077513524
0.01798 -0.00095249998 -0.0023481082
0.03875 0.00095249998 -0.00014594603
0.025730001 0 -0.0058086487
-0.03317 -0.000635 -0.0023481082
0.03162 0 -0.0023481082
0.01984 0.000635 -0.00046054064
0.03317 0 -0.0080108112
0.02263 -0.00127 -0.00077513524
0.03813 0 0.0020562161
0.03317 0 -0.004235676
0.00155 -0.00127 -0.0023481082
-0.015190001 0.00095249998 -0.0023481082
0.015500001 -0.00127 -0.0020335137
0.028210001 0 -0.004235676
-0.031000001 0.00127 -0.0023481082
-0.00248 -0.000635 -0.00046054064
-0.0055800001 0.00127 -0.0023481082
0.03472 0 -0.00014594603
-0.03813 0 -0.0064378381
-0.01209 0.00127 -0.00046054064
0.03379 0 -0.0023481082
0.03379 0.000635 -0.0023481082
-0.02139 -0.0003175 -0.00014594603
-0.028830001 -0.00127 -0.0023481082
0.015190001 0.00127 -0.00077513524
0.01922 -0.00095249998 -0.00014594603
-0.030070001 0.0003175 -0.00014594603
0.01736 0.0003175 -0.00014594603
-0.027900001 0.0003175 0.0011124323
-0.026970001 -0.000635 -0.0023481082
-0.03317 0.0003175 -0.0061232434
-0.01798 0.000635 -0.00046054064
0.00403 -0.000635 -0.0023481082
0.00155 -0.00095249998 -0.0023481082
0.01922 0.00127 -0.00046054064
-0.00031 0.00095249998 -0.00014594603
0.03255 -0.0003175 -0.0023481082
0.015500001 0.00127 -0.0010897298
-0.01643 0.0003175 -0.0023481082
0.024180001 -0.000635 -0.0023481082
0.013950001 -0.00127 -0.00046054064
0.0052700001 0 -0.0045502703
-0.023560001 0.00127 -0.00046054064
0.00496 0.0003175 0.0023708108
-0.0071300003 0.000635 -0.0023481082
-0.03286 -0.0003175 -0.0045502703
0.01581 -0.00095249998 -0.0023481082
0.01767 0 0.0017416216
-0.02139 -0.00095249998 -0.0023481082
-0.0074400003 -0.00127 -0.0010897298
-0.015500001 0 -0.0076962165
0.01116 0.00095249998 -0.0023481082
0.03596 -0.00127 -0.001718919
0.03286 -0.00127 -0.00046054064
0.00248 -0.00127 -0.001718919
-0.03224 0.00095249998 -0.00014594603
-0.01643 -0.00127 -0.00014594603
0.00217 0.0003175 -0.0023481082
-0.01085 0.00127 -0.00014594603
-0.029140001 -0.00127 -0.00077513524
-0.02108 -0.00127 -0.0014043244
0.025420001 0.0003175 -0.0045502703
0.025730001 -0.00127 -0.00014594603
0.027900001 0 -0.0039210813
0.01798 0 -0.0073816217
-0.03224 0.00127 -0.00046054064
0.0080599999 0.00127 -0.0010897298
0.01302 -0.00127 -0.0023481082
-0.01209 -0.000635 -0.0023481082
0.03875 0.00127 -0.0020335137
0.03596 0.00127 -0.0020335137
0.03379 0.00095249998 -0.0023481082
0.0052700001 0.0003175 0.0007978378
-0.025110001 0 -0.0064378381
-0.0077500003 -0.00095249998 -0.00014594603
0.03627 0.00127 -0.00014594603
-0.01054 0.0003175 -0.00014594603
-0.03875 -0.00127 -0.0010897298
0.0055800001 -0.00127 -0.00014594603
0.0065100002 0.00127 -0.0020335137
0.0077500003 0 0.0014270269
-0.014260001 0.00095249998 -0.0023481082
-0.030690001 -0.0003175 -0.0076962165
-0.01736 0.00127 -0.0020335137
0.030690001 -0.00127 -0.00046054064
-0.00496 -0.0003175 -0.0029772974
0.024490001 -0.00095249998 -0.0023481082
-0.03689 -0.00127 -0.00014594603
-0.0096100001 -0.0003175 -0.0023481082
-0.027900001 -0.0003175 0.0007978378
-0.029760001 0.0003175 -0.0023481082
-0.03441 -0.00127 -0.0010897298
0.028520001 0.00095249998 -0.0023481082
0.03286 0 -0.0032918921
-0.00496 -0.0003175 -0.0061232434
-0.01271 -0.00127 -0.0014043244
0 0.0003175 -0.0039210813
-0.00217 -0.00127 -0.00014594603
0.00093000004 0 -0.0023481082
-0.03131 0.00127 -0.0014043244
0.00124 -0.00127 -0.0014043244
-0.0058900001 0.000635 -0.00046054064
0.01736 -0.0003175 -0.00014594603
0.01271 -0.00127 -0.0023481082
0.01798 -0.0003175 -0.0029772974
0 0.00095249998 -0.00014594603
-0.01891 -0.000635 -0.0023481082
0.01984 -0.00127 -0.0014043244
0.01984 -0.0003175 -0.00014594603
0.0018600001 0.00127 -0.0023481082
-0.0186 0.00127 -0.0020335137
-0.029450001 -0.00127 -0.0010897298
0.0077500003 0.0003175 -0.0026627029
-0.01953 0.00127 -0.0020335137
-0.0065100002 0 -0.0023481082
-0.03565 0.0003175 -0.0045502703
-0.01891 -0.00127 -0.0023481082
0.015190001 0.0003175 -0.004864865
0.01302 0 -0.0023481082
0.01767 -0.00127 -0.0010897298
0.0093 0.00095249998 -0.0023481082
-0.0052700001 -0.00095249998 -0.00014594603
0.027900001 -0.0003175 -0.004235676
0.02108 0.0003175 -0.0023481082
-0.00062000001 -0.00127 -0.0023481082
0.0027900001 0 -0.0045502703
0.022940001 -0.0003175 0.00048324317
-0.0077500003 0 0.0020562161
-0.00248 -0.0003175 -0.0026627029
-0.01147 -0.00127 -0.00077513524
0.0077500003 0 -0.0029772974
0.01023 0 -0.0064378381
-0.03317 0 -0.0067524328
-0.0083699999 0.00095249998 -0.0023481082
0.0217 0.00127 -0.0023481082
0.0077500003 0.000635 -0.0023481082
-0.0186 -0.00127 -0.0014043244
-0.03317 -0.0003175 0.0007978378
0.028210001 0 0.0007978378
-0.00031 0.0003175 -0.0026627029
0.03472 -0.0003175 -0.00014594603
0.024180001 -0.00127 -0.001718919
-0.01798 0.0003175 -0.0026627029
-0.00217 0.00127 -0.00014594603
-0.03596 0 -0.0023481082
-0.03565 -0.0003175 0.0023708108
0.02108 -0.00127 -0.0020335137
0.026970001 -0.00127 -0.00014594603
-0.029140001 -0.00095249998 -0.0023481082
0.026970001 0.00095249998 -0.0023481082
-0.031000001 -0.000635 -0.0023481082
-0.027900001 0 0.0023708108
-0.025110001 0 -0.004864865
-0.03317 -0.0003175 -0.004235676
-0.0027900001 0.00127 -0.00077513524
-0.03689 0.000635 -0.00046054064
0.02046 -0.0003175 0.0020562161
-0.00155 0.00127 -0.00077513524
-0.00093000004 -0.00127 -0.0014043244
0.0018600001 -0.00127 -0.0010897298
0.01767 0 -0.004235676
0.0074400003 0.0003175 0.0017416216
0.02015 0.00127 -0.001718919
0.01643 -0.00127 -0.00077513524
0.01798 -0.0003175 -0.0039210813
-0.01178 0.00095249998 -0.0023481082
0.01798 0.00127 -0.0023481082
0.0099200001 -0.00127 -0.0010897298
-0.0074400003 -0.0003175 0.0020562161
0.03317 0 -0.0064378381
0.0062000002 0.0003175 -0.0023481082
0.0341 -0.000635 -0.00014594603
-0.0124 0 0.00048324317
0.027900001 0.00127 -0.0023481082
-0.030380001 0 -0.0058086487
0.00868 0.00095249998 -0.0023481082
0.027900001 0 0.0017416216
-0.02263 0 -0.0058086487
-0.03906 0.00095249998 -0.001718919
-0.0052700001 -0.0003175 -0.0026627029
0.01147 0.00127 -0.0014043244
0.00403 0.00127 -0.00077513524
-0.01674 0.00095249998 -0.00014594603
-0.02263 0.00127 -0.0020335137
-0.022940001 0.0003175 0.0020562161
-0.01271 -0.0003175 -0.0039210813
-0.01612 0.00127 -0.00014594603
-0.02046 0 -0.0080108112
0.027590001 -0.00127 -0.0023481082
-0.01736 0.00095249998 -0.00014594603
0.029140001 0 -0.00014594603
0.01767 0 0.0011124323
0.01209 0.00127 -0.0014043244
-0.026040001 -0.0003175 -0.00014594603
0.00248 0 0.0017416216
-0.03937 0 -0.0014043244
0.01736 0.000635 -0.0023481082
-0.024180001 0.0003175 -0.0023481082
-0.0124 -0.00127 -0.001718919
-0.024800001 0.00095249998 -0.00014594603
0.03782 -0.00127 -0.0014043244
-0.015190001 -0.00127 -0.0010897298
-0.0052700001 -0.00127 -0.0023481082
-0.01178 0 -0.00014594603
-0.00496 0.0003175 0.00048324317
0.01271 0.0003175 -0.0026627029
0.01023 0.0003175 -0.0026627029
-0.01302 0.00127 -0.0010897298
0.027590001 -0.00127 -0.00014594603
-0.023870001 0 -0.00014594603
-0.03255 -0.00127 -0.0010897298
-0.01984 -0.00095249998 -0.00014594603
0.023560001 -0.00127 -0.00046054064
0.028210001 -0.00127 -0.00046054064
-0.00496 -0.0003175 -0.0039210813
-0.01302 0.00127 -0.0023481082
0.0074400003 -0.0003175 -0.0073816217
-0.0077500003 0 -0.0064378381
0.01767 0 0.0007978378
0.0027900001 0.0003175 -0.00014594603
0.00124 0.000635 -0.00046054064
-0.0034100001 -0.00095249998 -0.0023481082
-0.026970001 -0.00127 -0.0010897298
-0.01767 -0.0003175 0.0020562161
0.03813 0 0.00016864858
0.024180001 0.00127 -0.0020335137
-0.02015 0.0003175 -0.0032918921
0.01581 0.00127 -0.0023481082
-0.02046 0.0003175 0.0020562161
0.00403 0.000635 -0.0023481082
-0.01209 0.00127 -0.001718919
-0.02201 0.00095249998 -0.00014594603
-0.03286 -0.00127 -0.0020335137
0.02139 -0.00127 -0.0023481082
0.03937 -0.0003175 -0.00046054064
0.01736 0.00127 -0.00077513524
0.024490001 0.00127 -0.0014043244
0.0062000002 0.000635 -0.00046054064
0.03813 0 -0.0051794597
-0.03937 -0.000635 -0.0014043244
-0.02015 0.0003175 -0.0051794597
0.0077500003 0.0003175 0.0011124323
-0.025420001 0 -0.0080108112
-0.030690001 0.000635 -0.00046054064
-0.0083699999 -0.00127 -0.00077513524
0.030690001 0.00127 -0.001718919
-0.01116 -0.0003175 -0.0023481082
-0.03286 -0.0003175 0.0007978378
0.027900001 0 -0.0036064866
0.03224 -0.000635 -0.0023481082
-0.0034100001 0.00127 -0.00046054064
0.030690001 -0.000635 -0.00014594603
-0.025110001 0 0.0017416216
0.00248 -0.00095249998 -0.0023481082
0.01953 0.00095249998 -0.00014594603
0.015190001 -0.000635 -0.00046054064
-0.00496 0 -0.0026627029
0.0018600001 0.000635 -0.00046054064
-0.027280001 0.00127 -0.0014043244
-0.022940001 -0.00127 -0.001718919
0.02046 -0.0003175 -0.0076962165
-0.0037200002 -0.0003175 -0.00014594603
0.0099200001 0.00127 -0.00077513524
-0.030690001 0.0003175 -0.0032918921
0.01829 0.00095249998 -0.0023481082
-0.03875 0.000635 -0.00046054064
0.0341 -0.00095249998 -0.0023481082
0.022940001 -0.0003175 -0.004864865
-0.0071300003 0.00127 -0.001718919
-0.00248 0.000635 -0.0023481082
0.025110001 0 0.0011124323
-0.00093000004 -0.00127 -0.00046054064
-0.00124 0.00127 -0.00046054064
-0.026040001 0.0003175 -0.0023481082
0.01581 0.000635 -0.00046054064
0.023560001 -0.00127 -0.00077513524
0.028210001 0 -0.0064378381
0.02108 0.00127 -0.0023481082
0.03782 -0.00095249998 -0.00014594603
0.00403 -0.00127 -0.00077513524
0.01054 0.00127 -0.00014594603
0.03317 -0.0003175 -0.0064378381
-0.0186 0.0003175 -0.00014594603
-0.03317 0.0003175 -0.0029772974
0.015190001 0 0.0017416216
0.027280001 0.00127 -0.0010897298
0.00248 0 -0.0064378381
0.0093 0.00095249998 -0.00014594603
-0.0068200002 0.00095249998 -0.0023481082
0 0 -0.0083254054
0.03565 0 0.0007978378
-0.026040001 0.000635 -0.00046054064
0.015500001 -0.0003175 -0.0026627029
0.022940001 0 -0.004235676
-0.024180001 -0.0003175 -0.00014594603
0.01953 -0.000635 -0.0023481082
-0.01302 -0.0003175 -0.0023481082
-0.02077 0 -0.00014594603
-0.025420001 -0.000635 -0.0023481082
-0.03875 0.00095249998 -0.00014594603
0.0065100002 -0.000635 -0.00046054064
0.0077500003 0.0003175 0.0017416216
0.0077500003 -0.0003175 -0.0064378381
0.01054 -0.00127 -0.001718919
0.01891 0.00127 -0.0020335137
-0.013950001 0 -0.0023481082
-0.023560001 0.0003175 -0.0023481082
-0.01116 -0.00095249998 -0.00014594603
0.03813 0 0.0017416216
0.0077500003 0.0003175 -0.0029772974
-0.02232 0.00127 -0.00046054064
0.0055800001 0.00095249998 -0.00014594603
0.03286 0.0003175 0.00048324317
0.01271 0.000635 -0.00046054064
0.015190001 -0.00127 -0.001718919
0.03131 0.000635 -0.00014594603
0.02015 -0.00127 -0.0010897298
-0.02263 -0.00127 -0.00077513524
-0.0074400003 0 -0.004864865
0.01643 0.00127 -0.0023481082
0.026660001 0.00095249998 -0.0023481082
-0.01798 -0.00127 -0.0014043244
-0.0052700001 -0.0003175 0.0020562161
0.02201 -0.00127 -0.00046054064
-0.0065100002 -0.00127 -0.0020335137
0.023250001 -0.000635 -0.00046054064
0.030380001 0.00095249998 -0.00014594603
0.03937 0.0003175 -0.0023481082
-0.03348 -0.00095249998 -0.0023481082
0.023870001 -0.0003175 -0.0023481082
-0.03162 0.0003175 -0.00014594603
-0.02015 -0.000635 -0.0023481082
0.0018600001 0.00095249998 -0.00014594603
0.01178 -0.0003175 -0.00014594603
0.015500001 0.0003175 -0.0023481082
0.029140001 -0.00127 -0.0020335137
-0.023560001 0.00127 -0.001718919
0.027900001 -0.0003175 -0.0026627029
0.00496 -0.0003175 0.0007978378
0.0058900001 0.00127 -0.00014594603
-0.03255 0.00127 -0.0020335137
0.027280001 0.0003175 -0.00014594603
-0.026040001 0.00127 -0.0020335137
0.03782 0.00127 -0.00077513524
-0.028830001 -0.0003175 -0.00014594603
0.02077 0.0003175 -0.0023481082
-0.00248 -0.0003175 -0.0051794597
-0.01953 -0.000635 -0.00046054064
0.02263 0.0003175 -0.0067524328
-0.030690001 0.0003175 0.0007978378
0.022940001 -0.0003175 -0.0070670275
-0.00031 -0.000635 -0.00046054064
-0.03317 -0.0003175 -0.004864865
0.03379 -0.00127 -0.0010897298
0.0083699999 -0.0003175 -0.0023481082
-0.00434 0.00127 -0.00077513524
0.013950001 0.00127 -0.00077513524
0.01798 -0.0003175 -0.0067524328
0.0055800001 -0.000635 -0.00046054064
0.023250001 0.000635 -0.0023481082
0.01209 0.000635 -0.00046054064
0.024800001 0.00127 -0.0010897298
-0.0018600001 -0.00127 -0.0020335137
0.00248 -0.0003175 0.0011124323
0.01643 0.00127 -0.00014594603
-0.01023 -0.00127 -0.0020335137
-0.01736 -0.000635 -0.00046054064
-0.03317 -0.00127 -0.00077513524
0.030690001 -0.00095249998 -0.00014594603
-0.00248 0.0003175 0.00048324317
0.022940001 0.00127 -0.0020335137
0.024180001 0.0003175 -0.0023481082
0.03813 0.0003175 -0.0058086487
0.01085 -0.00127 -0.0020335137
-0.01767 -0.0003175 -0.0045502703
-0.015500001 -0.000635 -0.00046054064
0.02046 0 -0.0080108112
0.024180001 0.000635 -0.0023481082
0.0074400003 -0.0003175 -0.0026627029
0.02015 0.0003175 -0.0058086487
0.022940001 -0.0003175 -0.0032918921
0.02046 -0.0003175 -0.0032918921
-0.025420001 -0.0003175 -0.0076962165
-0.00124 -0.0003175 -0.00014594603
-0.03813 -0.0003175 -0.00014594603
0.01147 -0.00127 -0.001718919
0.03565 0 0.0014270269
-0.03379 -0.000635 -0.00046054064
0.02263 0 -0.0036064866
0.01271 -0.00127 -0.0010897298
0.03534 0.0003175 -0.0023481082
0.014570001 -0.00095249998 -0.00014594603
-0.0077500003 0.0003175 -0.0067524328
-0.03441 0.00127 -0.0020335137
0.015190001 0 -0.0039210813
0.025110001 0 -0.0023481082
0.03751 0.00127 -0.00077513524
-0.00496 0.00127 -0.00077513524
-0.01643 0.00127 -0.00046054064
-0.03286 -0.0003175 -0.0067524328
0.00496 0.0003175 0.00016864858
0.03782 -0.0003175 -0.0023481082
0.015500001 0 0.0007978378
0.0124 0.00127 -0.00014594603
0.0077500003 0.0003175 -0.0064378381
-0.00248 -0.00127 -0.00014594603
0.01333 0.00095249998 -0.00014594603
-0.02263 0 0.0014270269
-0.026970001 0.000635 -0.0023481082
-0.0083699999 0.00127 -0.00046054064
-0.0217 0.00095249998 -0.0023481082
0.02015 0 -0.0054940544
0.025420001 0 -0.0029772974
-0.00093000004 -0.00127 -0.00014594603
0.0074400003 0.0003175 -0.0070670275
-0.015190001 0 -0.0054940544
-0.00496 -0.0003175 -0.0051794597
0.00217 0.00127 -0.0023481082
-0.00217 -0.000635 -0.0023481082
0.0074400003 -0.0003175 -0.0029772974
-0.014880001 -0.00127 -0.001718919
0.02015 -0.0003175 -0.004864865
0.015190001 0.000635 -0.00046054064
0.01364 -0.00095249998 -0.00014594603
-0.0031000001 -0.00127 -0.0010897298
-0.00248 -0.00127 -0.0010897298
0.03286 -0.0003175 0.0020562161
0.03162 -0.00127 -0.0020335137
-0.0052700001 0.00127 -0.00077513524
0.0058900001 -0.00127 -0.0023481082
-0.01023 -0.0003175 0.0014270269
-0.0077500003 0.0003175 -0.004235676
0.00248 0.00127 -0.0023481082
0.02077 0.00127 -0.0010897298
0.00248 -0.00127 -0.00046054064
-0.00155 0 -0.0023481082
0.02077 0.00127 -0.00014594603
-0.0077500003 0.0003175 -0.0070670275
0.02139 -0.00127 -0.0010897298
0.030380001 0 -0.0054940544
0.0018600001 0.00095249998 -0.0023481082
0.0055800001 -0.00095249998 -0.00014594603
-0.03534 0 -0.0026627029
-0.025110001 0 0.0011124323
0.0217 0.00127 -0.0010897298
-0.015500001 0.0003175 0.0014270269
0.03224 0.00127 -0.0020335137
-0.029450001 0.0003175 -0.0023481082
-0.0052700001 0.0003175 0.0014270269
0.03131 -0.00127 -0.00014594603
0.01891 0.00095249998 -0.0023481082
-0.0099200001 -0.0003175 -0.00014594603
-0.03317 0.00127 -0.001718919
-0.029760001 0.00127 -0.00077513524
-0.0077500003 0 -0.0026627029
-0.01581 -0.00127 -0.001718919
0.028210001 0.00127 -0.0010897298
-0.015190001 0.0003175 -0.0070670275
0.01023 -0.00127 -0.00077513524
0.03565 -0.00127 -0.0014043244
0.01767 0.0003175 -0.004864865
-0.024800001 0.0003175 -0.00014594603
-0.025730001 0.00127 -0.001718919
-0.027900001 -0.00127 -0.00046054064
0.00496 -0.0003175 -0.0032918921
0.01209 -0.00127 -0.0010897298
-0.01922 -0.00095249998 -0.0023481082
0.01581 0 -0.0023481082
-0.0074400003 0 -0.004235676
0.022940001 0.0003175 -0.0036064866
0.015500001 -0.0003175 -0.0073816217
-0.01581 0.0003175 -0.00014594603
-0.01767 0.0003175 -0.004864865
-0.01271 0 -0.0029772974
-0.026350001 -0.00127 -0.001718919
0.01023 -0.00127 -0.00014594603
-0.015190001 0.0003175 0.0020562161
-0.0027900001 0 -0.0051794597
0.03937 0.000635 -0.0010897298
-0.025730001 0 -0.0073816217
0.015500001 0 0.0011124323
-0.015500001 0.0003175 -0.0051794597
-0.0074400003 -0.0003175 -0.0058086487
0.00093000004 0.00095249998 -0.0023481082
-0.01612 -0.00095249998 -0.00014594603
0.01364 0 -0.00014594603
-0.00031 0 0.0014270269
-0.03751 0.00127 -0.001718919
0.026040001 -0.00127 -0.00046054064
0.02263 0 -0.0058086487
0.00062000001 -0.00127 -0.0020335137
0.03813 0.0003175 -0.0054940544
-0.01612 0.0003175 -0.0023481082
0.025420001 0.0003175 -0.0051794597
-0.0074400003 0.00127 -0.00014594603
0.030380001 -0.000635 -0.00014594603
0.025110001 0 0.0014270269
0.00868 0.0003175 -0.00014594603
-0.01767 0.0003175 -0.0061232434
-0.0052700001 -0.0003175 0.00048324317
-0.027280001 -0.00127 -0.00014594603
0.02015 0.00127 -0.00077513524
0.025420001 0.00127 -0.0020335137
-0.02263 -0.00127 -0.00046054064
-0.03317 0.00095249998 -0.00014594603
0.0037200002 -0.00127 -0.0020335137
-0.025110001 -0.000635 -0.0023481082
-0.022940001 0.000635 -0.00046054064
-0.00434 -0.00127 -0.00077513524
-0.01085 0 -0.0023481082
-0.0080599999 -0.00127 -0.00014594603
-0.031000001 -0.00095249998 -0.00014594603
-0.027900001 0 0.00048324317
0.013950001 0.00127 -0.00014594603
-0.025420001 0.0003175 -0.004864865
-0.02015 0 -0.0051794597
-0.027280001 0.00127 -0.00014594603
-0.024800001 -0.00127 -0.001718919
0.029140001 -0.00127 -0.0023481082
-0.00031 0.0003175 -0.0067524328
-0.01116 0 -0.00014594603
0.015500001 -0.0003175 -0.0070670275
-0.026660001 -0.0003175 -0.0023481082
0.0074400003 0.0003175 -0.0073816217
-0.00496 -0.00127 -0.0023481082
0.03348 -0.00095249998 -0.00014594603
-0.01643 0 -0.0023481082
0.01829 -0.00127 -0.0020335137
-0.01922 -0.000635 -0.00046054064
0.00465 -0.00095249998 -0.00014594603
0.0093 -0.00127 -0.00077513524
-0.00217 -0.00127 -0.0014043244
0.0099200001 -0.00127 -0.00077513524
0.02201 0.00127 -0.00046054064
-0.01767 0 -0.0061232434
0.026970001 -0.00127 -0.0014043244
-0.01767 -0.0003175 -0.0058086487
0.030690001 0.00095249998 -0.0023481082
-0.03472 -0.00127 -0.00014594603
0.014880001 0.00127 -0.0023481082
0.027900001 0.0003175 -0.0061232434
-0.01922 0.00127 -0.00077513524
-0.01116 -0.00127 -0.0020335137
-0.03565 0.0003175 0.0014270269
0.0099200001 0.000635 -0.00046054064
-0.00093000004 0.0003175 -0.0023481082
-0.0077500003 -0.0003175 -0.0045502703
-0.0096100001 0.0003175 -0.0023481082
0 -0.0003175 -0.0029772974
-0.03317 0.0003175 0.00048324317
-0.03534 0 0.0017416216
-0.00031 0.0003175 -0.0039210813
-0.025420001 0.0003175 -0.0061232434
0.03286 0 0.0023708108
0.0217 0.0003175 -0.00014594603
-0.015500001 0.0003175 -0.0058086487
0 -0.00127 -0.00046054064
-0.03131 0.00127 -0.0020335137
0.00899 -0.00127 -0.00077513524
-0.01829 0.0003175 -0.00014594603
0.03844 0.0003175 -0.00014594603
0.02139 0.00095249998 -0.00014594603
-0.01581 0 -0.00014594603
-0.03565 0.00095249998 -0.00046054064
0.01271 0.0003175 0.0007978378
0.03844 0 -0.00014594603
0.03255 -0.00127 -0.0010897298
0.030380001 0.0003175 0.0020562161
0.028210001 0 -0.0039210813
0.029760001 0.0003175 -0.0023481082
-0.025110001 0 -0.0076962165
-0.03751 0.00127 -0.0020335137
0.00496 0.00127 -0.0010897298
-0.02139 -0.00127 -0.0020335137
-0.025110001 -0.00127 -0.0020335137
0.03782 -0.00127 -0.00077513524
-0.03286 -0.0003175 -0.0076962165
0.00248 -0.0003175 0.0017416216
0.01705 -0.00127 -0.0023481082
0 -0.00127 -0.0014043244
-0.028520001 0.00095249998 -0.0023481082
-0.0052700001 0 0.00048324317
-0.030690001 0 0.00048324317
0.0068200002 -0.00127 -0.0014043244
0.014260001 0.00095249998 -0.0023481082
-0.01984 0.0003175 -0.0023481082
-0.03627 -0.00095249998 -0.00014594603
0.027280001 -0.00127 -0.0020335137
0.030380001 0 0.0014270269
0.02263 -0.00127 -0.0020335137
-0.01271 0.0003175 0.0017416216
0.0217 0 -0.0023481082
-0.00217 0.00127 -0.0010897298
0.029450001 0.00127 -0.001718919
-0.030690001 0.00127 -0.00046054064
0.0052700001 0.0003175 -0.0054940544
0.025110001 0.0003175 -0.00014594603
0.031000001 0.0003175 -0.0023481082
0.03379 0.00127 -0.0020335137
-0.02015 0 -0.0026627029
-0.03813 0 -0.0067524328
0.0341 -0.0003175 -0.00014594603
0.01302 0.00095249998 -0.00014594603
0.0217 0.00095249998 -0.0023481082
-0.0077500003 0.00127 -0.001718919
-0.0186 0.00127 -0.00046054064
0.027900001 0.0003175 -0.0032918921
-0.025420001 0 0.0026854053
0.03224 0.0003175 -0.00014594603
0.03255 0.00127 -0.001718919
0.0077500003 -0.0003175 0.0023708108
0.024800001 -0.00095249998 -0.0023481082
-0.03441 -0.00127 -0.00046054064
-0.028520001 0.00127 -0.001718919
0.026970001 -0.00127 -0.0010897298
-0.00217 -0.00127 -0.001718919
-0.01643 0.00127 -0.0010897298
-0.02015 0 0.0014270269
0.01798 -0.0003175 0.0011124323
-0.030070001 -0.00095249998 -0.0023481082
0.03441 -0.000635 -0.0023481082
0.03689 -0.00127 -0.001718919
0.0037200002 -0.0003175 -0.00014594603
-0.014260001 0.00127 -0.0020335137
-0.03286 0 -0.0045502703
-0.024490001 0.00127 -0.0023481082
-0.01798 0 -0.004864865
-0.0372 0.0003175 -0.0023481082
0.03348 0.00095249998 -0.00014594603
0.01705 0.000635 -0.0023481082
0.0093 0.0003175 -0.0023481082
-0.00031 -0.00127 -0.001718919
0.0074400003 0.00127 -0.0014043244
0.02046 0.0003175 -0.0051794597
-0.029760001 0.00127 -0.0014043244
-0.0124 -0.00127 -0.00077513524
0.01891 -0.0003175 -0.0023481082
0.03813 0.00095249998 -0.0023481082
-0.0031000001 0.00127 -0.001718919
-0.03317 0 -0.0064378381
-0.03596 -0.00127 -0.00077513524
0.0052700001 0.00127 -0.00077513524
-0.027900001 0.0003175 -0.0032918921
-0.01116 -0.00127 -0.0023481082
0.022940001 -0.00127 -0.0020335137
0.01705 0 -0.0023481082
0.00217 0.00095249998 -0.00014594603
0.01984 0.00095249998 -0.0023481082
-0.030690001 0.0003175 -0.004864865
0.01612 -0.00127 -0.0020335137
0.00062000001 0.00127 -0.0023481082
-0.01054 -0.00127 -0.0010897298
-0.0186 -0.00127 -0.001718919
-0.029450001 0.000635 -0.0023481082
-0.0083699999 0 -0.0023481082
-0.015190001 -0.0003175 0.0007978378
-0.03286 -0.0003175 0.0011124323
-0.02201 -0.00127 -0.0023481082
0.0062000002 0.00127 -0.00014594603
0.03565 -0.0003175 -0.0058086487
0.0077500003 -0.0003175 -0.0073816217
-0.0186 -0.00095249998 -0.00014594603
0.00496 0 -0.0067524328
-0.028210001 -0.000635 -0.00046054064
-0.030690001 0.0003175 -0.0064378381
-0.02232 0.00127 -0.0014043244
-0.0093 -0.0003175 -0.0023481082
-0.00465 0.00095249998 -0.0023481082
0.01333 -0.00127 -0.0010897298
0.0052700001 0.0003175 -0.0029772974
-0.014880001 -0.0003175 -0.00014594603
-0.01798 -0.0003175 0.00048324317
0.027280001 0.000635 -0.0023481082
-0.0052700001 0 -0.0061232434
-0.01643 -0.00127 -0.0010897298
-0.01271 -0.0003175 0.00048324317
-0.03844 0.00095249998 -0.0010897298
0.025420001 -0.00127 -0.00077513524
0.01798 0 -0.0070670275
-0.00217 0.00127 -0.0014043244
-0.0077500003 -0.00127 -0.0023481082
0.024490001 0.00127 -0.00014594603
-0.0124 0.00095249998 -0.00014594603
0.0096100001 0.00127 -0.001718919
0.00062000001 0 -0.00014594603
-0.022940001 0.00127 -0.001718919
0.0018600001 0.00127 -0.00046054064
0.027900001 0 0.00016864858
-0.0037200002 0.00127 -0.001718919
0.00496 0 -0.0026627029
0.028210001 -0.0003175 -0.0023481082
0.030070001 0.00127 -0.0020335137
0.015500001 0.00127 -0.0014043244
-0.03565 0.0003175 -0.0029772974
0.031000001 0.00127 -0.00077513524
-0.03565 0 -0.0026627029
0.03906 -0.0003175 -0.0020335137
-0.01054 0.00095249998 -0.0023481082
-0.03472 0.00127 -0.00046054064
-0.0055800001 0.00127 -0.0014043244
0.00031 0.00127 -0.0014043244
-0.03131 -0.00127 -0.0023481082
0.00155 -0.00127 -0.00014594603
0.01271 0 0.00048324317
-0.027900001 -0.0003175 -0.0076962165
0.028520001 0.00127 -0.0014043244
-0.01581 -0.00127 -0.0010897298
0.0077500003 0 -0.0051794597
-0.02015 0.0003175 0.00048324317
0.03503 0.0003175 -0.00014594603
-0.025110001 0 0.0020562161
-0.00031 -0.00127 -0.0020335137
0.030690001 0 0.00048324317
0.03906 -0.0003175 -0.0023481082
-0.01705 0.00127 -0.001718919
-0.0071300003 0.0003175 -0.0023481082
0.02232 0.00127 -0.00077513524
0.026970001 -0.00127 -0.0023481082
-0.02108 -0.00127 -0.0023481082
-0.0341 -0.0003175 -0.0023481082
-0.0074400003 0 -0.0080108112
0.0099200001 -0.00127 -0.00014594603
-0.02263 0 -0.0067524328
-0.00465 0.000635 -0.0023481082
0.03503 0.00127 -0.001718919
0.030690001 0 0.0023708108
-0.01891 -0.00095249998 -0.0023481082
-0.02263 0.000635 -0.0023481082
-0.01178 0.00095249998 -0.00014594603
0 -0.00127 -0.00077513524
-0.030380001 0.0003175 -0.0058086487
0.01643 0.0003175 -0.00014594603
-0.00031 0 0.0017416216
-0.01922 -0.000635 -0.0023481082
0.0052700001 -0.00127 -0.0014043244
0.029760001 -0.00127 -0.00046054064
-0.023250001 -0.00127 -0.0010897298
-0.01178 -0.00127 -0.00077513524
0.03255 0.00127 -0.00046054064
-0.03937 0 -0.0020335137
0.0052700001 -0.00127 -0.00046054064
0.0031000001 0.0003175 -0.00014594603
-0.02015 0.000635 -0.0023481082
0.030070001 -0.00127 -0.00046054064
0.025110001 0 -0.0067524328
-0.01054 0.00127 -0.0020335137
0.0027900001 0 0.00048324317
-0.02077 -0.000635 -0.00046054064
-0.01178 -0.00127 -0.0010897298
0.030380001 0.000635 -0.00014594603
0.00403 -0.00127 -0.00014594603
0.025420001 -0.0003175 -0.0070670275
-0.02046 0.0003175 0.00048324317
0.01023 -0.0003175 0.0020562161
0.03317 0.0003175 -0.0064378381
-0.01085 -0.00127 -0.00046054064
-0.030380001 -0.0003175 0.0011124323
-0.01674 -0.00127 -0.001718919
0.00093000004 -0.00127 -0.001718919
0.01023 0.0003175 0.00048324317
0.027900001 -0.0003175 -0.0076962165
0.014570001 -0.000635 -0.0023481082
0.028830001 0.0003175 -0.00014594603
0.03224 -0.00095249998 -0.0023481082
0 0.00127 -0.0014043244
-0.03255 -0.000635 -0.00046054064
-0.014260001 -0.00127 -0.0023481082
0.00155 0.00127 -0.0020335137
-0.02046 0 -0.004235676
0.00248 -0.0003175 -0.0045502703
-0.023250001 -0.00127 -0.00077513524
0.0093 0.000635 -0.0023481082
-0.02015 -0.000635 -0.00046054064
0.025420001 0.0003175 -0.00014594603
-0.00496 0 0.0026854053
-0.0071300003 -0.00095249998 -0.0023481082
0.025110001 0.00095249998 -0.00014594603
-0.00868 0.000635 -0.0023481082
-0.02046 0 -0.0054940544
-0.01922 0 -0.0023481082
0.014570001 0.00127 -0.0010897298
-0.00093000004 -0.000635 -0.0023481082
-0.03906 0.0003175 -0.0014043244
0.027900001 -0.00127 -0.00077513524
0.01302 0.00127 -0.001718919
-0.0071300003 0 -0.0023481082
-0.026040001 0.0003175 -0.00014594603
0.030380001 0.0003175 -0.0064378381
-0.0186 -0.000635 -0.00046054064
-0.03472 -0.000635 -0.00046054064
-0.030070001 -0.000635 -0.00046054064
-0.03565 -0.00127 -0.00077513524
-0.030380001 0 -0.0073816217
-0.03472 -0.00127 -0.0023481082
0.01891 0 -0.0023481082
-0.03906 0 -0.00014594603
-0.02015 0 -0.0039210813
-0.03503 -0.00127 -0.0023481082
-0.03813 0 0.0011124323
0.026350001 -0.0003175 -0.0023481082
-0.0058900001 -0.00127 -0.00014594603
-0.024490001 -0.00127 -0.00014594603
-0.03441 -0.00127 -0.0023481082
-0.03813 0 0.0020562161
0.0077500003 0.0003175 -0.0080108112
0.01333 0.0003175 -0.0023481082
-0.00403 -0.00127 -0.0020335137
0.015190001 -0.00127 -0.00077513524
-0.01178 -0.00095249998 -0.00014594603
-0.02046 -0.0003175 0.00016864858
0.01023 0 -0.004235676
0.0062000002 0.00095249998 -0.0023481082
0.01271 0.0003175 0.0020562161
0.03317 0.00127 -0.00046054064
-0.0062000002 0.00127 -0.00077513524
0.01054 0.00095249998 -0.00014594603
0.02046 -0.0003175 0.0011124323
0.0062000002 0.00127 -0.001718919
-0.03813 -0.00127 -0.00077513524
0 -0.00095249998 -0.0023481082
-0.0031000001 -0.00127 -0.0020335137
-0.03472 0 -0.00014594603
-0.01581 0.00095249998 -0.0023481082
-0.01767 -0.00127 -0.00046054064
0.0074400003 0.0003175 0.0020562161
0.01364 -0.00127 -0.00046054064
-0.0077500003 0.0003175 -0.0076962165
-0.01209 -0.000635 -0.00046054064
0.03503 0.00127 -0.0023481082
-0.00899 0.0003175 -0.0023481082
-0.00248 0.00095249998 -0.0023481082
0.01612 0.00127 -0.001718919
-0.015190001 0.0003175 -0.0064378381
0.03286 0.00127 -0.00046054064
0.015500001 0.00127 -0.00077513524
-0.027900001 -0.0003175 -0.0039210813
-0.015190001 0.00127 -0.00046054064
0.03565 0.0003175 0.0014270269
0.030690001 -0.00127 -0.00014594603
-0.03813 -0.0003175 -0.0067524328
0.0080599999 0.0003175 -0.00014594603
0.00248 0 0.0023708108
0.03503 0.00127 -0.00046054064
0.029760001 -0.00127 -0.00014594603
0.028520001 -0.0003175 -0.0023481082
0.0074400003 0.0003175 -0.0026627029
-0.0077500003 0.0003175 -0.0064378381
0.03472 0.00127 -0.00077513524
0.00496 0 -0.0045502703
-0.0052700001 0.0003175 -0.0067524328
0.030380001 0 0.0017416216
0.00434 0.00127 -0.0010897298
-0.0037200002 0 -0.00014594603
-0.00434 -0.000635 -0.00046054064
-0.03317 0 -0.004235676
0.03131 -0.00095249998 -0.00014594603
-0.00434 -0.00127 -0.001718919
-0.01798 0.00095249998 -0.00014594603
-0.022940001 0.0003175 -0.0045502703
0.029760001 -0.00095249998 -0.0023481082
0.031000001 -0.00127 -0.0014043244
-0.03782 -0.00095249998 -0.0023481082
0.025110001 0.00127 -0.00046054064
-0.0077500003 0.00127 -0.00077513524
0.03472 0.00127 -0.001718919
0.01829 0.00127 -0.0020335137
-0.024490001 -0.00127 -0.0020335137
-0.015190001 -0.000635 -0.00046054064
0.00868 0.00127 -0.001718919
0.0027900001 0 -0.0032918921
-0.03317 -0.0003175 -0.0058086487
-0.0099200001 0.00095249998 -0.0023481082
-0.01798 0.0003175 -0.0067524328
-0.03813 0.0003175 0.0020562161
-0.0372 -0.00095249998 -0.00014594603
0.01085 -0.000635 -0.0023481082
0.0034100001 0.0003175 -0.00014594603
0.027900001 0.00095249998 -0.0023481082
-0.01209 0.00127 -0.0023481082
-0.03503 -0.00127 -0.0010897298
-0.01922 -0.00127 -0.0010897298
-0.030070001 0.00127 -0.00014594603
-0.01767 0.0003175 -0.0032918921
-0.0052700001 -0.00127 -0.00046054064
-0.030690001 -0.0003175 0.00016864858
0.01953 -0.00095249998 -0.0023481082
0.03162 0.00095249998 -0.00014594603
-0.0077500003 -0.0003175 -0.0061232434
0.01736 -0.00127 -0.00077513524
0.02015 -0.0003175 -0.0067524328
0.030690001 0.000635 -0.0023481082
0.01581 -0.0003175 -0.00014594603
-0.02232 -0.00095249998 -0.0023481082
0.00062000001 -0.00095249998 -0.00014594603
-0.03596 -0.00127 -0.001718919
-0.028210001 0 -0.0039210813
-0.0074400003 -0.0003175 -0.0036064866
-0.03565 -0.0003175 0.0007978378
0.01891 -0.000635 -0.00046054064
-0.027900001 -0.00127 -0.0020335137
-0.03689 0.00127 -0.001718919
0.026040001 0.00095249998 -0.00014594603
0.00496 0.0003175 -0.0076962165
-0.02015 -0.0003175 -0.0051794597
0.01147 -0.000635 -0.00046054064
0.03317 -0.0003175 -0.0045502703
-0.0058900001 0.0003175 -0.0023481082
-0.024800001 -0.00095249998 -0.00014594603
-0.0018600001 0.00127 -0.00014594603
-0.01767 -0.00095249998 -0.00014594603
-0.0341 0.000635 -0.0023481082
0.01271 0.0003175 -0.0073816217
0.015190001 0 -0.0070670275
-0.00496 -0.00127 -0.001718919
-0.01953 0 -0.0023481082
0.01271 0.0003175 0.0017416216
-0.00434 0.0003175 -0.0023481082
0.0124 0.00127 -0.0023481082
0.026970001 -0.0003175 -0.0023481082
0.025110001 0 -0.0045502703
-0.026660001 0.00095249998 -0.00014594603
0.015500001 -0.00127 -0.001718919
0.014260001 -0.00095249998 -0.0023481082
0.027900001 0 -0.0054940544
0.0034100001 -0.00095249998 -0.0023481082
0.02046 -0.0003175 -0.0080108112
-0.030380001 0.0003175 -0.0073816217
0.03224 0.00127 -0.00046054064
-0.0077500003 0.00127 -0.0023481082
0.0077500003 0 0.0023708108
-0.030380001 -0.0003175 -0.0076962165
-0.0055800001 -0.00127 -0.001718919
-0.0083699999 0.00127 -0.00014594603
-0.025730001 -0.0003175 -0.0023481082
-0.01922 0 -0.00014594603
0.01116 0.00127 -0.00046054064
0.02108 -0.00127 -0.00077513524
0.03131 0.00127 -0.001718919
-0.03162 -0.00095249998 -0.00014594603
-0.0099200001 -0.00127 -0.0010897298
-0.03782 -0.0003175 -0.00014594603
-0.022940001 -0.0003175 0.0017416216
-0.00155 -0.00127 -0.0023481082
-0.02077 -0.00095249998 -0.00014594603
0.02139 0 -0.00014594603
0.0052700001 0.0003175 -0.0058086487
0.00248 -0.0003175 -0.0070670275
0.01271 0 -0.004864865
0.03193 -0.00127 -0.0014043244
0.01984 0 -0.0023481082
0.025420001 -0.0003175 -0.0029772974
-0.02077 -0.00095249998 -0.0023481082
0.01767 0 -0.0061232434
0.030380001 0.0003175 -0.0076962165
-0.02263 -0.00127 -0.00014594603
-0.0080599999 0.00127 -0.0020335137
0.00403 -0.00127 -0.0023481082
0.00062000001 0.00127 -0.00046054064
-0.00248 -0.00127 -0.00046054064
-0.03317 0 -0.0032918921
0.0031000001 0 -0.00014594603
-0.00403 0.00127 -0.0023481082
0.02263 0.000635 -0.00046054064
-0.0083699999 -0.00127 -0.0010897298
-0.03627 -0.00127 -0.001718919
-0.0037200002 0.00127 -0.0010897298
-0.030380001 0.00127 -0.0020335137
-0.02015 -0.0003175 -0.0061232434
0.00031 -0.00127 -0.0010897298
-0.024800001 0.00127 -0.00046054064
0.01674 0.0003175 -0.0023481082
-0.03286 -0.0003175 0.0017416216
-0.01364 -0.0003175 -0.00014594603
-0.03658 0.00127 -0.001718919
0.0341 -0.0003175 -0.0023481082
-0.01364 -0.00127 -0.00046054064
0.0077500003 -0.0003175 -0.0080108112
0.0124 0 -0.0023481082
-0.01643 -0.00127 -0.00046054064
0.01922 0.00095249998 -0.00014594603
-0.01798 -0.0003175 -0.0045502703
-0.015500001 0.00127 -0.00014594603
0.03534 -0.000635 -0.00014594603
-0.03193 -0.00127 -0.001718919
-0.025420001 -0.0003175 -0.0080108112
0.014260001 0 -0.0023481082
0.01736 -0.00127 -0.00046054064
0.027900001 0 -0.0045502703
-0.03751 0.00095249998 -0.0023481082
0.03751 0.00095249998 -0.0023481082
0.029760001 -0.000635 -0.0023481082
-0.02108 -0.00095249998 -0.0023481082
-0.02201 -0.0003175 -0.00014594603
0.01333 0.00127 -0.0020335137
-0.02015 0.0003175 0.0007978378
-0.01984 -0.000635 -0.00046054064
-0.024180001 -0.00095249998 -0.00014594603
0.0074400003 0.00127 -0.0023481082
0.00248 -0.0003175 0.00016864858
-0.023560001 -0.00095249998 -0.00014594603
0.0099200001 -0.0003175 -0.0023481082
0.0034100001 0.000635 -0.0023481082
0.01178 0.00127 -0.00046054064
0.0052700001 0 0.0007978378
0.015500001 0 -0.0067524328
-0.01085 0 -0.00014594603
0.014880001 0.00127 -0.00046054064
-0.03224 0.0003175 -0.00014594603
0.0077500003 0 -0.0058086487
-0.028520001 -0.000635 -0.00046054064
0.022940001 0.0003175 0.0014270269
-0.0052700001 -0.000635 -0.0023481082
0.00465 0.00095249998 -0.0023481082
-0.028520001 -0.00095249998 -0.0023481082
0.03534 0.000635 -0.0023481082
-0.023250001 0 -0.0023481082
0.0052700001 0.0003175 -0.0070670275
0.03627 0.00127 -0.0023481082
0.0080599999 0.000635 -0.00046054064
-0.0074400003 0 -0.0061232434
-0.027900001 0.0003175 -0.0080108112
-0.0027900001 0 -0.0032918921
0.0077500003 -0.0003175 -0.0029772974
0.025110001 0 0.00048324317
0.015190001 0 -0.0045502703
0.01271 0 -0.004235676
0.00465 0 -0.0023481082
0.0074400003 0 -0.0039210813
0.03317 -0.0003175 0.0020562161
0.0077500003 0.0003175 -0.00014594603
-0.03348 -0.00127 -0.0023481082
0.03131 0 -0.0023481082
-0.027900001 0 -0.004235676
0.026970001 0.00127 -0.00077513524
0.01891 0.00127 -0.001718919
-0.01953 -0.00127 -0.001718919
-0.022940001 0 -0.0051794597
0.00403 0 -0.0023481082
-0.03596 -0.00127 -0.00014594603
-0.03503 0.00127 -0.0023481082
-0.03627 0.0003175 -0.00014594603
0.0124 -0.00127 -0.00077513524
-0.01767 0.0003175 -0.0058086487
0.030380001 0.00127 -0.0020335137
-0.022940001 -0.0003175 -0.0058086487
-0.0055800001 0 -0.0023481082
0.0052700001 0 -0.004235676
-0.0058900001 -0.000635 -0.00046054064
0.03751 -0.00127 -0.0014043244
-0.00062000001 0.00127 -0.00014594603
0.0372 0.0003175 -0.00014594603
-0.025730001 0 0.0017416216
0.0018600001 0.00127 -0.001718919
-0.0217 0.000635 -0.00046054064
-0.030380001 0 -0.0039210813
-0.030690001 0.0003175 -0.004235676
0.027900001 -0.0003175 -0.0032918921
0.02108 -0.00127 -0.00046054064
-0.00248 0.0003175 0.0023708108
-0.03503 0.00127 -0.001718919
0.03317 0 -0.0039210813
-0.00124 0.00127 -0.0020335137
0.01364 -0.0003175 -0.0023481082
0.03162 -0.00095249998 -0.0023481082
-0.01736 0.00127 -0.00046054064
0.01891 0.000635 -0.00046054064
0.01798 0 0.0007978378
0.01333 0.00127 -0.0023481082
-0.01023 0.0003175 -0.0051794597
-0.01736 -0.0003175 -0.0023481082
-0.01023 0.000635 -0.0023481082
-0.023870001 0.00127 -0.001718919
-0.01023 -0.00095249998 -0.00014594603
-0.026660001 0.00127 -0.00014594603
-0.0186 0 -0.00014594603
-0.01798 -0.0003175 -0.0076962165
0.02046 0.00127 -0.0023481082
0.029140001 -0.000635 -0.00014594603
0.01023 -0.00095249998 -0.00014594603
0.01767 0 -0.0067524328
0.025730001 -0.00127 -0.0010897298
-0.014570001 0 -0.0023481082
0.027900001 0.0003175 -0.0080108112
0.026350001 0.00127 -0.00046054064
0.03503 0.00127 -0.00014594603
0.01116 0.0003175 -0.0023481082
-0.03503 -0.0003175 -0.0023481082
-0.00031 -0.00127 -0.0014043244
0 0.00127 -0.0010897298
-0.03193 -0.00095249998 -0.00014594603
0.0083699999 0.0003175 -0.0023481082
-0.03875 -0.00095249998 -0.0014043244
0.02046 -0.0003175 -0.0036064866
0.01891 0.00127 -0.00014594603
0.0096100001 -0.0003175 -0.0023481082
0.01829 0.000635 -0.0023481082
0.01767 0.0003175 -0.0054940544
0.027900001 0 -0.0070670275
0.022940001 0.0003175 0.00016864858
0.026970001 -0.00127 -0.00077513524
0.03906 -0.0003175 -0.00077513524
-0.02108 -0.00127 -0.0020335137
0.02015 0.000635 -0.00046054064
0.01147 0.0003175 -0.0023481082
-0.03658 -0.0003175 -0.0020335137
0.02077 -0.00127 -0.0014043244
-0.00248 0 -0.0070670275
-0.01798 0 -0.0076962165
-0.0077500003 -0.0003175 -0.0036064866
0.03472 0.00127 -0.00014594603
0.013950001 -0.00127 -0.00077513524
-0.02077 0.00095249998 -0.00014594603
-0.00031 0.00127 -0.0023481082
-0.013950001 -0.00095249998 -0.0023481082
-0.01798 0.0003175 -0.0039210813
-0.015500001 -0.00127 -0.001718919
-0.00496 0.0003175 -0.0029772974
-0.0058900001 -0.00095249998 -0.00014594603
0.0052700001 0.00127 -0.0014043244
-0.02046 0.0003175 0.0017416216
-0.03534 0.00095249998 -0.00014594603
-0.03906 0.000635 -0.0010897298
0.024800001 0.00127 -0.0020335137
-0.030690001 0 -0.0073816217
-0.01674 0.00127 -0.0014043244
-0.03472 -0.00127 -0.0014043244
-0.02263 -0.0003175 0.0023708108
-0.03224 0.00127 -0.0023481082
-0.01891 -0.00127 -0.00046054064
-0.03317 0 0.0014270269
0.023870001 0.00095249998 -0.00014594603
0.00093000004 -0.0003175 -0.00014594603
0.025110001 0.00127 -0.001718919
0.027900001 0.0003175 -0.0070670275
0.00496 -0.00127 -0.0020335137
-0.01767 -0.0003175 0.00048324317
0.0027900001 -0.00127 -0.00077513524
0.01829 0.00095249998 -0.00014594603
-0.01302 -0.00127 -0.00014594603
0.01612 -0.00127 -0.0014043244
-0.02139 0 -0.0023481082
0.015500001 0.00127 -0.001718919
-0.026970001 0.000635 -0.00046054064
-0.01333 0.00095249998 -0.0023481082
0.014260001 0.00127 -0.0010897298
0.0083699999 -0.00127 -0.00014594603
0.0096100001 -0.00127 -0.00014594603
0.00124 0.00095249998 -0.0023481082
0.0074400003 0 0.00048324317
-0.0074400003 0 -0.0070670275
-0.00248 0 -0.0029772974
0.0052700001 -0.0003175 -0.0067524328
-0.03658 0 -0.0023481082
0.01178 -0.000635 -0.00046054064
0.015500001 -0.0003175 -0.0054940544
-0.0080599999 0.00127 -0.00014594603
0.01209 -0.000635 -0.00046054064
0.0058900001 0.00127 -0.0020335137
0.027900001 0 0.0026854053
-0.00434 -0.0003175 -0.00014594603
0.0080599999 0.0003175 -0.0023481082
-0.00124 0.000635 -0.0023481082
0.00093000004 0.000635 -0.0023481082
0.0071300003 0.00095249998 -0.0023481082
-0.01736 -0.0003175 -0.00014594603
0.025420001 -0.00127 -0.0010897298
0.03813 0 -0.0054940544
-0.0096100001 0 -0.00014594603
-0.00899 0.00095249998 -0.0023481082
-0.02015 0.000635 -0.00046054064
-0.0077500003 0.0003175 0.00016864858
0.03131 0.00127 -0.0010897298
0.014880001 -0.00127 -0.0010897298
-0.02015 0.0003175 -0.00014594603
0.0052700001 0.00127 -0.00014594603
0.015190001 0 -0.0058086487
0.0031000001 -0.000635 -0.00046054064
0.00093000004 -0.00127 -0.0023481082
0.00217 -0.00127 -0.0023481082
0.01798 0.0003175 0.00048324317
0 0.0003175 -0.0070670275
-0.0052700001 -0.00127 -0.001718919
0.0080599999 0.00127 -0.00014594603
-0.01023 0 0.00016864858
0.00248 0 -0.0076962165
-0.023560001 0.00095249998 -0.00014594603
-0.00403 -0.00127 -0.0014043244
0.0077500003 -0.0003175 -0.0026627029
-0.025730001 0.0003175 -0.0023481082
-0.023560001 0.0003175 -0.00014594603
-0.01798 -0.0003175 0.0020562161
0.0096100001 0.000635 -0.00046054064
0.0052700001 -0.0003175 -0.0054940544
-0.0027900001 -0.00127 -0.001718919
-0.0077500003 0 -0.004864865
0.03875 -0.00095249998 -0.001718919
0.022940001 -0.00127 -0.0023481082
-0.0099200001 -0.0003175 0.0011124323
-0.015190001 -0.00127 -0.00077513524
0.03131 0.00127 -0.00077513524
0 0.0003175 -0.00014594603
0.0341 -0.00127 -0.00077513524
0.01271 0 -0.0073816217
-0.00062000001 -0.000635 -0.0023481082
0.01364 0.0003175 -0.0023481082
0.02015 -0.0003175 0.0020562161
0.015190001 0.00095249998 -0.00014594603
-0.0037200002 0.00127 -0.00046054064
-0.030070001 0 -0.00014594603
-0.028210001 0.00127 -0.0020335137
-0.03906 0.000635 -0.001718919
-0.01116 -0.00127 -0.00077513524
-0.03193 -0.00127 -0.00014594603
0.0052700001 -0.0003175 -0.0070670275
-0.00496 0 0.0017416216
-0.00465 -0.00095249998 -0.0023481082
0.03162 0 -0.00014594603
0.0077500003 0 -0.0036064866
0.028210001 0 -0.0051794597
-0.0065100002 -0.00095249998 -0.0023481082
-0.01271 0 -0.0054940544
0.0052700001 -0.00127 -0.00014594603
-0.02015 0.0003175 0.0011124323
0.02046 -0.00127 -0.0014043244
-0.03317 -0.00127 -0.00014594603
0.015500001 -0.0003175 0.0014270269
0.01829 -0.00127 -0.00077513524
-0.01767 0.00127 -0.0014043244
-0.031000001 0.00095249998 -0.0023481082
-0.014260001 0 -0.0023481082
0.01798 0.00095249998 -0.0023481082
0.03875 0.000635 -0.00014594603
0.02201 0.00127 -0.0023481082
0.03627 -0.00095249998 -0.00014594603
-0.030690001 0 -0.004864865
0.00217 0.00127 -0.001718919
0.026660001 -0.00127 -0.0014043244
0.03844 0.00127 -0.00077513524
-0.00031 0.00095249998 -0.0023481082
-0.025420001 0.0003175 0.0014270269
-0.00031 0 -0.0051794597
-0.01364 -0.00127 -0.0020335137
0.03317 -0.0003175 0.0011124323
-0.02263 -0.00095249998 -0.00014594603
0.01271 -0.0003175 -0.0039210813
-0.0052700001 0.0003175 -0.0076962165
0.01209 0.00127 -0.0020335137
-0.0018600001 0.0003175 -0.00014594603
0.030690001 0 0.0014270269
0.03286 0 0.0011124323
0.0052700001 -0.00095249998 -0.00014594603
-0.0052700001 0.00127 -0.0020335137
0.0074400003 -0.00127 -0.0023481082
-0.0052700001 0.0003175 0.0007978378
0.029140001 0.0003175 -0.00014594603
0.00496 0.0003175 0.0017416216
0.0052700001 -0.0003175 -0.0061232434
-0.01085 -0.000635 -0.0023481082
-0.0062000002 -0.00127 -0.00077513524
0.0077500003 0.0003175 -0.0039210813
-0.0052700001 0 -0.0073816217
0.015500001 -0.00127 -0.00046054064
-0.0083699999 -0.000635 -0.00046054064
0.00248 0.00127 -0.0020335137
-0.0065100002 0.00127 -0.0014043244
0.03286 0.00127 -0.0010897298
-0.022940001 -0.00127 -0.00014594603
-0.02046 -0.00127 -0.00014594603
0.00496 0.0003175 0.0020562161
0.013950001 0.000635 -0.00046054064
0.025110001 0.000635 -0.00046054064
0.0077500003 0.00127 -0.0010897298
-0.03689 0 -0.00014594603
-0.027590001 0.00127 -0.0020335137
0.022940001 0.00127 -0.0010897298
0.00248 -0.0003175 -0.0029772974
-0.0372 0.000635 -0.0023481082
0.028210001 -0.00095249998 -0.00014594603
-0.01612 -0.00127 -0.0023481082
-0.022940001 -0.0003175 -0.0080108112
0.03472 -0.00127 -0.0020335137
0.030380001 0.0003175 -0.004864865
0.03875 0.0003175 -0.0023481082
-0.03813 -0.0003175 -0.0073816217
0.014570001 0.00127 -0.0023481082
0.030380001 -0.0003175 -0.0051794597
0.01023 0.0003175 -0.004864865
0.00496 0 0.00048324317
0.015190001 0 -0.004235676
-0.03844 0.00095249998 -0.00077513524
-0.015190001 -0.0003175 0.0011124323
0.03193 0.00095249998 -0.0023481082
0.025730001 -0.000635 -0.0023481082
0.03255 0.00127 -0.0014043244
0.03596 0.00127 -0.00077513524
0.01085 0.00127 -0.00077513524
0.027900001 -0.0003175 0.0011124323
0.03658 -0.00127 -0.001718919
0.0058900001 0.00127 -0.0023481082
-0.02015 0 -0.0067524328
-0.00496 0.00095249998 -0.0023481082
0.02046 -0.00127 -0.0010897298
0.024490001 0.00127 -0.0020335137
-0.0372 -0.0003175 -0.0023481082
-0.023870001 0.00095249998 -0.0023481082
0.02077 0 -0.00014594603
0.01736 -0.000635 -0.0023481082
0.02139 0.0003175 -0.0023481082
0.01271 0 -0.0039210813
-0.01116 -0.0003175 -0.00014594603
0.0093 0 -0.0023481082
0.00217 -0.0003175 -0.0023481082
0.03193 0 -0.00014594603
0.03348 -0.000635 -0.00014594603
-0.026660001 0 -0.00014594603
0.03813 0.00127 -0.00014594603
0.01178 0.00095249998 -0.0023481082
0.02263 0.0003175 0.0011124323
-0.00248 0 -0.0067524328
-0.00155 0.00095249998 -0.0023481082
-0.015190001 -0.0003175 -0.004235676
0.013950001 -0.000635 -0.00046054064
-0.01581 -0.0003175 -0.0023481082
0.01736 -0.000635 -0.00046054064
-0.03565 -0.0003175 -0.0051794597
0.022940001 0 0.0007978378
0.03844 -0.00127 -0.0010897298
-0.03317 0.0003175 -0.0039210813
0.0027900001 0 -0.0080108112
-0.01612 0.00127 -0.00077513524
0.00062000001 -0.00127 -0.00014594603
0.00155 0.00127 -0.001718919
0.0080599999 -0.00127 -0.00014594603
-0.03782 0 -0.00014594603
-0.03255 -0.00127 -0.0023481082
-0.031000001 -0.00127 -0.00014594603
0.0096100001 -0.00127 -0.001718919
-0.01829 0.00127 -0.0014043244
-0.028210001 0 0.0017416216
0.0037200002 -0.00095249998 -0.0023481082
-0.030380001 -0.00127 -0.0014043244
-0.0037200002 -0.00127 -0.00077513524
0.00217 -0.00127 -0.0010897298
-0.03224 -0.000635 -0.00046054064
0.0077500003 -0.0003175 -0.0039210813
-0.030690001 -0.00095249998 -0.0023481082
-0.01581 -0.00127 -0.00046054064
0.01023 0.0003175 0.0023708108
