# .PCD v0.7 - Point Cloud Data file format
VERSION 0.7
FIELDS x y z
SIZE 4 4 4
TYPE F F F
COUNT 1 1 1
WIDTH 1239
HEIGHT 1
VIEWPOINT 0 0 0 1 0 0 0
POINTS 1239
DATA ascii
-0.0011853332 0.00018142856 -0.0041172975
-0.039115999 -0.00018142856 -0.005134054
0.026585333 -0.00018142856 -0.004795135
0.036745332 0.00127 -0.0020837837
0.013715999 -0.00127 -0.0017448649
-0.0035559998 -0.00018142856 -0.0031005405
0.034713332 0.00127 -0.0020837837
-0.001524 -0.00018142856 -0.004456216
-0.018118666 -0.00127 -0.001067027
-0.023198666 0.00127 -5.0270271e-05
-0.032681331 -0.00127 -0.0020837837
0.0086359996 -0.00018142856 -0.0085232435
-0.039454665 -0.00127 -0.0017448649
0.013715999 -0.00018142856 0.00096648646
-0.036406666 -0.00127 -0.0003891892
-0.0038946664 0.00018142856 -0.005134054
-0.001524 0.00018142856 -0.0064897295
0.029294666 0.00127 -5.0270271e-05
-0.036745332 -0.00018142856 -0.0085232435
-0.001524 -0.00018142856 -0.0068286485
0.016425332 0.00018142856 -0.005472973
-0.017779998 -0.00127 -0.001405946
0.0055879997 0.00127 -0.0017448649
-0.031665333 0.00127 -0.001405946
0.012361333 -0.00127 -0.001067027
0.032681331 0.00127 -0.0020837837
0.0011853332 -0.00018142856 -0.0064897295
-0.0062653329 -0.00127 -0.001067027
-0.029633332 0.00127 -0.001067027
-0.0066039995 -0.00018142856 -0.004456216
-0.024553332 0.00018142856 -0.0024227027
0.031326666 0.00127 -0.0020837837
0.0072813332 0.00090714288 -5.0270271e-05
0.0011853332 0.00018142856 -0.0041172975
0.0035559998 0.00018142856 -0.0031005405
0.021505332 0.00018142856 -0.006150811
0.011006666 0.00127 -0.00072810811
-0.027939999 0.00127 -0.0017448649
0.037761331 0.00090714288 -0.0024227027
0.0079586664 0.00090714288 -0.0024227027
0.020489333 0.00127 -0.0020837837
0.020827999 0.00054428569 -0.0024227027
-0.015748 0.00054428569 -0.0024227027
0.037083998 -0.00018142856 0.00062756758
-0.0062653329 0.00127 -5.0270271e-05
-0.0072813332 0.00090714288 -5.0270271e-05
-0.021505332 0.00018142856 -0.004456216
0.026585333 0.00018142856 -0.008184324
0.031326666 0.00054428569 -0.0003891892
-0.011345332 -0.00127 -0.0003891892
0.026246665 0.00018142856 -0.0024227027
0.019134667 0.00127 -0.0024227027
0.020827999 0.00018142856 -0.0024227027
-0.023875998 0.00127 -0.0017448649
-0.0127 -0.00018142856 -0.0024227027
0.033697333 0.00127 -0.0020837837
-0.012361333 0.00090714288 -5.0270271e-05
0.00016933333 -0.00127 -5.0270271e-05
0.030310666 0.00054428569 -0.0024227027
0.026923999 0.00127 -0.00072810811
0.015409333 -0.00018142856 -0.0024227027
-0.019134667 -0.00127 -0.0017448649
-0.0049106665 -0.00127 -0.00072810811
0.024214666 -0.00018142856 -0.0034394595
0.035051998 0.00054428569 -0.0003891892
0.013038666 -0.00018142856 -5.0270271e-05
0.0049106665 -0.00018142856 -5.0270271e-05
-0.0127 -0.00127 -0.0017448649
0.03572933 0.00090714288 -0.0024227027
-0.036745332 -0.00018142856 -0.0064897295
0.027601331 0.00090714288 -5.0270271e-05
0.0062653329 -0.00018142856 -0.0068286485
0.0099906661 0.00090714288 -5.0270271e-05
-0.037761331 0.00127 -0.0003891892
-0.032003999 -0.00127 -0.0024227027
0.032681331 -0.00127 -5.0270271e-05
0.0018626666 -0.00127 -0.0017448649
-0.018795999 -0.00018142856 -0.0075064865
0.026585333 -0.00090714288 -5.0270271e-05
0.024214666 -0.00018142856 0.0013054054
-0.0028786666 -0.00054428569 -0.0003891892
0.028955998 -0.00018142856 -0.0075064865
0.036406666 0.00127 -0.001405946
0.024214666 0.00018142856 -0.005134054
-0.0079586664 0.00018142856 -5.0270271e-05
0.0062653329 -0.00018142856 -0.0031005405
0.030310666 -0.00127 -0.0024227027
-0.039793331 0.00054428569 -0.0024227027
-0.041825332 -0.00018142856 -5.0270271e-05
-0.032003999 -0.00127 -0.0017448649
-0.032003999 -0.00018142856 -0.0075064865
-0.025230665 -0.00127 -0.0003891892
0.033019997 -0.00127 -0.0017448649
0.031665333 -0.00018142856 -0.004795135
-0.020150665 -0.00090714288 -5.0270271e-05
0.026585333 0.00018142856 -0.005811892
-0.037083998 0.00018142856 0.00096648646
-0.012022666 -0.00054428569 -0.0003891892
-0.036068 0.00054428569 -0.0024227027
0.0052493331 -0.00127 -5.0270271e-05
0.017102666 0.00054428569 -0.0024227027
-0.001524 -0.00018142856 -0.008184324
-0.039793331 -0.00090714288 -0.0024227027
-0.0018626666 0.00054428569 -0.0003891892
-0.011684 0.00018142856 0.0016443243
-0.015409333 0.00054428569 -0.0003891892
-0.029294666 0.00018142856 -0.0078454055
-0.023198666 0.00054428569 -0.0003891892
-0.016764 0.00018142856 -0.005472973
0.013715999 0.00127 -0.0017448649
0.0038946664 0.00018142856 -0.004456216
0.042163998 -0.00090714288 -0.0003891892
-0.0049106665 0.00127 -0.00072810811
0.014731999 -0.00090714288 -5.0270271e-05
-0.036745332 0.00018142856 0.0013054054
-0.02286 -0.00054428569 -0.0024227027
0.018795999 -0.00018142856 -0.0075064865
-0.024214666 0.00090714288 -0.0024227027
0.040470663 0.00127 -0.0017448649
0.001524 0.00018142856 -0.005134054
-0.014393332 -0.00127 -0.0017448649
-0.0032173332 -0.00054428569 -0.0024227027
0.0089746667 0.00054428569 -0.0003891892
0.034374665 -0.00054428569 -0.0020837837
-0.027939999 0.00127 -0.00072810811
-0.031326666 -0.00127 -5.0270271e-05
-0.019134667 -0.00018142856 -0.005134054
0.034035999 -0.00018142856 -0.0034394595
-0.028955998 -0.00090714288 -0.0024227027
-0.014054666 -0.00018142856 -0.005811892
-0.019473333 -0.00127 -0.001067027
0.029294666 -0.00018142856 -0.005134054
-0.013038666 0.00127 -0.001067027
0.016425332 0.00018142856 -0.0027616217
-0.00050799997 0.00127 -0.001067027
-0.023198666 -0.00127 -0.0024227027
-0.0042333333 0.00090714288 -0.0024227027
0.011345332 0.00018142856 -0.0064897295
-0.016764 0.00127 -0.001405946
-0.041147999 -0.00127 -0.001405946
0.040809333 0.00018142856 -0.0003891892
0.0025399998 -0.00018142856 -0.0024227027
0.026585333 -0.00018142856 -0.008184324
0.011684 0.00127 -5.0270271e-05
-0.0086359996 0.00018142856 -0.0064897295
0.034374665 0.00018142856 -0.0064897295
-0.033697333 -0.00127 -5.0270271e-05
0.0025399998 -0.00127 -0.0003891892
0.020489333 -0.00127 -0.001067027
-0.018795999 -0.00018142856 -0.0068286485
-0.0093133328 0.00127 -0.00072810811
0.0086359996 -0.00018142856 0.00096648646
0.040470663 -0.00127 -0.001067027
-0.0025399998 -0.00018142856 -0.0024227027
-0.016764 -0.00018142856 -0.004456216
0.021844 0.00018142856 0.00028864865
-0.012361333 0.00054428569 -0.0003891892
0.012022666 -0.00054428569 -0.0003891892
-0.00084666663 -0.00127 -0.0003891892
-0.020489333 -0.00127 -0.0020837837
0.028278666 0.00018142856 -5.0270271e-05
-0.011006666 -0.00018142856 -0.0024227027
-0.0089746667 -0.00018142856 -0.005811892
0.031665333 -0.00127 -0.0024227027
0.011684 0.00127 -0.0024227027
-0.037422664 0.00090714288 -5.0270271e-05
-0.029294666 0.00127 -0.001405946
0.014731999 -0.00127 -0.00072810811
-0.0011853332 -0.00018142856 0.00062756758
0.023875998 0.00018142856 -0.0027616217
0.034713332 0.00127 -0.0024227027
-0.027939999 0.00090714288 -5.0270271e-05
0.021505332 -0.00018142856 -0.0071675675
0.001524 0.00054428569 -0.0003891892
-0.0099906661 0.00018142856 -0.0024227027
0.037761331 0.00127 -0.0024227027
-0.013038666 -0.00090714288 -5.0270271e-05
0.013715999 -0.00018142856 -5.0270271e-05
0.016425332 -0.00054428569 -0.0024227027
0.0089746667 0.00018142856 -0.0027616217
-0.001524 0.00018142856 -0.008862162
0.013715999 0.00127 -0.0020837837
-0.011345332 -0.00018142856 -0.0027616217
-0.0093133328 0.00018142856 -0.0024227027
-0.029633332 0.00127 -0.0003891892
0.036745332 0.00018142856 0.0019832433
0.014731999 -0.00127 -0.001405946
0.039454665 0.00018142856 -0.005811892
-0.023198666 -0.00054428569 -0.0003891892
-0.041486666 0.00127 -0.00072810811
-0.011684 0.00018142856 -5.0270271e-05
0.023537332 0.00018142856 -0.0024227027
-0.0066039995 -0.00018142856 0.0016443243
-0.0072813332 0.00127 -0.0017448649
0.015748 -0.00018142856 -0.0024227027
0.012022666 0.00127 -5.0270271e-05
0.040809333 0.00127 -0.0017448649
0.011345332 -0.00054428569 -0.0003891892
0.029971998 -0.00127 -0.0020837837
0.021844 -0.00018142856 -5.0270271e-05
0.0082973326 0.00127 -5.0270271e-05
0.011345332 0.00018142856 0.002661081
-0.038438667 0.00127 -0.001405946
0.027601331 0.00054428569 -0.0024227027
0.011345332 -0.00127 -0.0017448649
-0.0042333333 0.00054428569 -0.0024227027
0.026585333 0.00127 -0.0003891892
-0.025230665 -0.00127 -0.0024227027
0.0011853332 0.00018142856 0.002661081
0.018118666 0.00127 -5.0270271e-05
-0.014054666 -0.00018142856 0.0023221623
-0.021505332 0.00127 -0.00072810811
0.028278666 -0.00127 -0.0020837837
-0.0059266663 -0.00127 -0.0017448649
-0.0066039995 -0.00018142856 -0.0075064865
0.026923999 0.00018142856 -0.0071675675
-0.037761331 0.00127 -0.0024227027
-0.027601331 -0.00127 -0.0003891892
-0.0093133328 0.00018142856 -5.0270271e-05
-0.015748 0.00127 -0.0017448649
0.024214666 -0.00018142856 -0.006150811
0.032342665 0.00090714288 -5.0270271e-05
-0.041825332 -0.00127 -0.001067027
0.0011853332 -0.00127 -0.0017448649
-0.019134667 0.00018142856 -0.0064897295
0.0032173332 0.00127 -0.001405946
-0.027601331 -0.00018142856 -5.0270271e-05
0.023537332 -0.00127 -0.001405946
-0.011345332 -0.00018142856 -0.0075064865
-0.039454665 0.00018142856 0.0016443243
0.018795999 0.00127 -0.001405946
0.013715999 0.00018142856 -0.0037783785
0.04284133 0.00054428569 -0.0003891892
-0.0049106665 0.00127 -0.001067027
0.019134667 0.00018142856 -0.0071675675
-0.021505332 -0.00018142856 -0.0071675675
0.018795999 0.00018142856 -0.0041172975
0.027939999 0.00127 -0.00072810811
-0.037083998 0.00127 -0.001067027
-0.025230665 0.00127 -0.00072810811
-0.015070666 0.00090714288 -5.0270271e-05
0.023875998 -0.00127 -5.0270271e-05
0.016086666 -0.00127 -0.0017448649
-0.015748 -0.00127 -0.001067027
0.023875998 0.00127 -0.001405946
0.032003999 0.00018142856 -0.0064897295
-0.037083998 -0.00018142856 -0.0027616217
-0.028955998 -0.00090714288 -5.0270271e-05
-0.017102666 -0.00018142856 -0.0024227027
0.0076199998 0.00054428569 -0.0024227027
0.028278666 -0.00054428569 -0.0003891892
0.0038946664 0.00127 -0.0024227027
0.021505332 -0.00054428569 -0.0024227027
-0.0011853332 -0.00018142856 0.0013054054
0.016086666 0.00127 -0.0020837837
0.021505332 0.00018142856 0.0019832433
-0.030310666 0.00127 -0.0024227027
-0.015070666 -0.00054428569 -0.0024227027
-0.042163998 -0.00127 -0.0024227027
0.026585333 -0.00018142856 0.00062756758
0.039115999 0.00018142856 -0.0034394595
0.016764 0.00127 -0.0017448649
-0.0079586664 0.00090714288 -0.0024227027
-0.032342665 0.00127 -0.001405946
0.0069426666 0.00054428569 -0.0003891892
-0.0079586664 0.00054428569 -0.0024227027
-0.0011853332 -0.00127 -0.0024227027
0.033358667 -0.00054428569 -0.0003891892
-0.0055879997 0.00018142856 -0.0024227027
-0.0018626666 -0.00018142856 -5.0270271e-05
0.039454665 -0.00018142856 -0.005811892
-0.019473333 -0.00018142856 -5.0270271e-05
-0.0022013332 0.00127 -0.0017448649
-0.03572933 -0.00127 -0.001405946
-0.011006666 0.00127 -0.0017448649
-0.016764 -0.00018142856 -0.0027616217
0.0082973326 0.00127 -0.00072810811
0.017102666 0.00127 -0.00072810811
-0.033019997 0.00090714288 -5.0270271e-05
0.017102666 0.00018142856 -5.0270271e-05
-0.041825332 -0.00090714288 -0.0003891892
-0.014731999 -0.00127 -0.0003891892
0.0076199998 -0.00127 -0.001067027
-0.039454665 -0.00054428569 -0.0024227027
-0.0069426666 0.00090714288 -0.0024227027
-0.028617332 -0.00127 -0.001405946
-0.016425332 -0.00018142856 0.0023221623
0.026585333 -0.00018142856 0.0013054054
-0.0062653329 0.00018142856 -0.004795135
-0.025907999 -0.00127 -0.0020837837
0.027601331 0.00018142856 -5.0270271e-05
-0.0062653329 0.00018142856 -0.0068286485
-0.017779998 0.00127 -0.0024227027
-0.031665333 -0.00090714288 -0.0024227027
0.029294666 -0.00127 -5.0270271e-05
-0.031665333 0.00018142856 0.002661081
-0.027262665 0.00127 -5.0270271e-05
0.019134667 -0.00018142856 -0.005134054
-0.010667999 -0.00054428569 -0.0003891892
-0.0066039995 0.00018142856 -0.0064897295
-0.034035999 -0.00018142856 0.0016443243
0.026246665 0.00018142856 -5.0270271e-05
-0.010667999 -0.00090714288 -0.0024227027
0.024214666 0.00127 -0.00072810811
-0.028955998 0.00018142856 -0.0085232435
-0.012361333 0.00127 -0.001405946
-0.034374665 -0.00018142856 0.00028864865
0.018118666 0.00018142856 -5.0270271e-05
-0.028955998 -0.00018142856 0.00028864865
0.0072813332 0.00127 -0.0024227027
-0.029971998 -0.00127 -5.0270271e-05
0.027601331 0.00127 -0.0020837837
-0.036745332 0.00127 -0.00072810811
0.014054666 -0.00018142856 0.0019832433
-0.013715999 -0.00018142856 -0.004795135
0.024214666 -0.00018142856 -0.0031005405
-0.037083998 0.00018142856 -0.0031005405
-0.028955998 0.00018142856 -0.0041172975
-0.017441332 0.00127 -0.0003891892
-0.040131997 -0.00054428569 -0.0024227027
-0.029294666 -0.00018142856 0.00096648646
0.001524 0.00018142856 -0.004456216
0.0099906661 0.00054428569 -0.0003891892
-0.016086666 -0.00054428569 -0.0003891892
0.034374665 0.00018142856 -0.0071675675
0.0082973326 -0.00127 -0.00072810811
0.021844 -0.00127 -0.0003891892
0.032003999 0.00018142856 0.0023221623
0.019134667 0.00127 -0.0003891892
-0.018118666 -0.00127 -0.0017448649
-0.0127 0.00127 -0.0003891892
0.035051998 0.00127 -0.00072810811
-0.029294666 -0.00018142856 -0.008184324
0.014054666 -0.00054428569 -0.0024227027
-0.0011853332 0.00090714288 -0.0024227027
0.034035999 -0.00018142856 -0.0071675675
0.026923999 0.00018142856 -0.004795135
0.017779998 0.00054428569 -0.0003891892
-0.033697333 0.00127 -0.0024227027
-0.022521332 0.00018142856 -5.0270271e-05
0.0062653329 0.00018142856 -0.008184324
0.03572933 -0.00090714288 -5.0270271e-05
-0.020150665 -0.00018142856 -0.0024227027
-0.011006666 -0.00127 -5.0270271e-05
0.029633332 0.00127 -0.0017448649
-0.029971998 0.00054428569 -0.0003891892
0.029971998 0.00127 -0.0017448649
0.016425332 -0.00018142856 -0.006150811
0.0089746667 0.00018142856 -0.0034394595
0.0086359996 -0.00127 -0.00072810811
0.036406666 0.00127 -0.0003891892
0.0099906661 -0.00127 -0.001405946
0.0086359996 -0.00018142856 0.00028864865
0.018457333 0.00090714288 -0.0024227027
-0.015409333 0.00127 -0.0024227027
0.011684 -0.00018142856 -5.0270271e-05
-0.0096519999 -0.00054428569 -0.0024227027
0.015748 0.00090714288 -5.0270271e-05
0.035051998 0.00127 -5.0270271e-05
-0.024553332 0.00127 -0.00072810811
0.016764 0.00018142856 -0.005472973
0.011345332 0.00054428569 -0.0024227027
-0.0066039995 -0.00018142856 -0.0034394595
-0.025569333 -0.00054428569 -0.0003891892
-0.0069426666 -0.00127 -0.0024227027
0.039454665 -0.00018142856 -0.0034394595
0.039793331 -0.00127 -0.0003891892
0.039115999 -0.00090714288 -0.0020837837
-0.019134667 -0.00018142856 -0.008862162
-0.013715999 -0.00018142856 -0.005134054
0.028955998 -0.00127 -0.001067027
0.039454665 -0.00054428569 -0.0024227027
0.013715999 0.00018142856 -0.004456216
-0.019134667 0.00018142856 -0.0068286485
0.037083998 -0.00018142856 -0.0085232435
-0.023537332 0.00127 -0.001067027
-0.013715999 -0.00018142856 -0.008184324
-0.018795999 -0.00018142856 -0.005472973
0.014054666 0.00018142856 -0.004795135
-0.032003999 0.00018142856 0.0013054054
0.0093133328 0.00127 -0.00072810811
-0.010329333 -0.00127 -0.0024227027
-0.031665333 0.00018142856 -0.005811892
0.032342665 -0.00127 -0.001405946
0.042163998 -0.00127 -0.001067027
0.0049106665 0.00090714288 -0.0024227027
-0.013715999 -0.00018142856 -0.0068286485
0.037083998 0.00018142856 -0.0027616217
-0.016425332 -0.00018142856 -5.0270271e-05
-0.014393332 -0.00090714288 -5.0270271e-05
-0.028955998 0.00018142856 -0.0071675675
-0.040470663 -0.00090714288 -0.0003891892
0.013715999 -0.00127 -0.001067027
-0.021844 0.00127 -5.0270271e-05
-0.039115999 0.00127 -0.00072810811
-0.037761331 -0.00054428569 -0.0003891892
0.0042333333 0.00127 -0.0017448649
0.026585333 -0.00018142856 0.0019832433
-0.016425332 0.00018142856 -0.0027616217
0.0066039995 -0.00018142856 0.0013054054
-0.023537332 -0.00127 -0.0017448649
0.0093133328 -0.00090714288 -0.0024227027
0.040131997 0.00127 -0.0003891892
0.026585333 0.00054428569 -0.0024227027
-0.011684 -0.00018142856 -0.0027616217
-0.021844 0.00054428569 -0.0003891892
-0.039454665 -0.00018142856 -0.0078454055
0.019134667 -0.00018142856 -0.0075064865
0.0011853332 0.00018142856 -0.004795135
-0.027262665 0.00127 -0.0017448649
-0.016425332 0.00054428569 -0.0024227027
0.018118666 -0.00090714288 -5.0270271e-05
0.0062653329 0.00018142856 -0.0027616217
-0.039115999 0.00018142856 -0.004795135
-0.024891999 -0.00127 -0.0003891892
-0.0079586664 -0.00090714288 -0.0024227027
0.014054666 0.00127 -5.0270271e-05
-0.0011853332 -0.00018142856 -0.005134054
-0.019811999 -0.00127 -0.0003891892
0.022521332 -0.00127 -0.0003891892
0.030649332 0.00127 -0.00072810811
-0.0052493331 0.00127 -0.001067027
0.016764 0.00018142856 -0.008184324
-0.026246665 -0.00054428569 -0.0003891892
0.031665333 0.00018142856 -0.005134054
0.034035999 0.00018142856 -0.0075064865
-0.030987998 -0.00018142856 -5.0270271e-05
-0.028617332 -0.00054428569 -0.0024227027
0.036745332 0.00018142856 -0.0027616217
-0.037422664 0.00127 -0.001067027
0.031665333 0.00018142856 -0.004456216
-0.020489333 0.00127 -0.001405946
0.0127 0.00127 -0.0003891892
-0.038438667 -0.00054428569 -0.0003891892
-0.0089746667 -0.00018142856 -0.0078454055
-0.028955998 0.00127 -0.0024227027
0.027601331 0.00127 -0.001405946
0.010329333 0.00127 -0.00072810811
-0.014054666 0.00018142856 -0.0041172975
0.039454665 0.00018142856 -0.0085232435
0.024214666 0.00018142856 0.00028864865
-0.037761331 0.00127 -0.001405946
-0.023875998 0.00018142856 -0.008862162
-0.0086359996 0.00018142856 -0.0041172975
-0.039454665 0.00018142856 0.0023221623
0.034374665 0.00018142856 -0.0034394595
-0.0038946664 -0.00054428569 -0.0003891892
0.041825332 -0.00018142856 -0.005472973
-0.026923999 0.00018142856 -0.0078454055
0.0086359996 -0.00127 -5.0270271e-05
-0.020489333 0.00090714288 -5.0270271e-05
-0.015748 0.00018142856 -5.0270271e-05
0.0035559998 -0.00018142856 -0.005134054
-0.013715999 0.00018142856 -0.0027616217
-0.039115999 -0.00018142856 -0.004456216
-0.029294666 0.00018142856 -0.006150811
-0.0062653329 0.00018142856 0.00096648646
-0.024214666 0.00054428569 -0.0024227027
-0.038777333 -0.00018142856 -0.0024227027
-0.0096519999 0.00054428569 -0.0003891892
0.039115999 -0.00127 -0.0003891892
-0.032681331 0.00018142856 -5.0270271e-05
-0.022521332 -0.00127 -0.0024227027
-0.032003999 0.00018142856 -0.0031005405
-0.035390664 -0.00127 -0.001405946
-0.030310666 0.00127 -0.0003891892
-0.0089746667 -0.00018142856 -0.008184324
-0.0082973326 -0.00090714288 -0.0024227027
-0.016425332 -0.00018142856 -0.0064897295
0.02286 0.00018142856 -5.0270271e-05
0.016764 -0.00018142856 -0.0085232435
0.0011853332 -0.00018142856 -0.0041172975
-0.001524 -0.00127 -0.0024227027
-0.013715999 0.00018142856 -0.0071675675
0.026246665 0.00127 -0.0017448649
0.014054666 -0.00018142856 -0.0027616217
0.037422664 0.00127 -0.0024227027
0.0072813332 0.00018142856 -0.0024227027
0.0062653329 0.00018142856 -0.0034394595
-0.016086666 -0.00127 -0.0003891892
-0.0011853332 -0.00018142856 -0.008184324
0.040131997 0.00127 -0.00072810811
0.027601331 0.00127 -0.0024227027
0.017779998 0.00127 -0.0017448649
-0.0062653329 -0.00018142856 -0.004456216
-0.031665333 -0.00018142856 -0.0027616217
-0.016764 0.00018142856 0.00062756758
0.027939999 -0.00127 -0.0017448649
-0.031665333 0.00018142856 -0.008862162
0.040809333 0.00127 -0.00072810811
0.026923999 0.00090714288 -5.0270271e-05
0.033697333 0.00090714288 -5.0270271e-05
0.019134667 0.00018142856 0.0023221623
0.032003999 0.00127 -0.00072810811
0.037083998 0.00127 -0.0020837837
-0.018457333 0.00127 -0.0003891892
0.0011853332 -0.00018142856 -0.005134054
0.024891999 -0.00054428569 -0.0003891892
-0.029971998 0.00127 -0.0003891892
-0.037761331 -0.00090714288 -5.0270271e-05
-0.028955998 0.00018142856 -0.004795135
-0.022182666 0.00127 -0.0003891892
-0.036068 0.00090714288 -0.0024227027
0.0032173332 0.00127 -0.0020837837
0.031326666 -0.00054428569 -0.0024227027
0.010329333 -0.00127 -0.001405946
-0.024214666 -0.00127 -5.0270271e-05
-0.026923999 0.00018142856 -0.0041172975
0.011684 -0.00018142856 -0.0027616217
-0.038777333 0.00127 -0.0017448649
0.036068 -0.00090714288 -5.0270271e-05
-0.034035999 0.00127 -0.0017448649
-0.017779998 -0.00127 -0.0020837837
0.0011853332 0.00018142856 0.00096648646
0.040131997 -0.00090714288 -0.0020837837
0.027262665 0.00090714288 -5.0270271e-05
0.029294666 0.00018142856 -0.0068286485
0.0062653329 0.00018142856 0.0019832433
-0.0062653329 0.00018142856 -0.005811892
0.016764 0.00127 -0.0003891892
0.0086359996 -0.00018142856 0.0023221623
0.023875998 -0.00127 -0.0003891892
0.034035999 0.00018142856 -0.008862162
-0.037083998 0.00018142856 0.00028864865
-0.017779998 -0.00127 -0.0003891892
0.022521332 -0.00090714288 -5.0270271e-05
-0.027262665 0.00054428569 -0.0024227027
-0.012022666 0.00090714288 -5.0270271e-05
0.034374665 0.00018142856 -0.0068286485
0.026585333 -0.00018142856 -0.0031005405
0.023875998 -0.00018142856 -0.005472973
-0.00050799997 0.00054428569 -0.0024227027
0.0086359996 -0.00090714288 -5.0270271e-05
0.020489333 0.00127 -0.0024227027
-0.026923999 0.00018142856 -0.0031005405
-0.021844 0.00018142856 -0.0064897295
0.034374665 -0.00018142856 -0.008862162
-0.039454665 0.00127 -0.001067027
0.014393332 0.00127 -0.0017448649
-0.011684 -0.00018142856 0.0023221623
-0.0066039995 0.00018142856 -0.004795135
0.0032173332 0.00127 -0.001067027
-0.016764 -0.00018142856 -0.0034394595
-0.021166665 -0.00090714288 -0.0024227027
-0.014393332 -0.00127 -0.0020837837
0.0052493331 0.00127 -0.001067027
-0.0089746667 0.00127 -0.001067027
-0.029294666 -0.00018142856 -0.0031005405
-0.0093133328 -0.00127 -0.00072810811
-0.024214666 0.00018142856 -0.005472973
-0.036745332 0.00018142856 0.00028864865
0.030649332 -0.00127 -0.001405946
0.024214666 -0.00018142856 -0.0068286485
0.0066039995 0.00018142856 -0.0068286485
-0.026585333 -0.00090714288 -5.0270271e-05
0.014054666 -0.00018142856 -0.0037783785
-0.026923999 0.00018142856 -0.0064897295
0.013038666 0.00127 -0.0020837837
0.012361333 0.00090714288 -0.0024227027
0.0035559998 0.00018142856 -0.0034394595
0.00050799997 0.00090714288 -5.0270271e-05
-0.034374665 -0.00018142856 -0.0037783785
-0.020827999 0.00127 -0.0020837837
0.00084666663 0.00127 -0.001405946
0.014393332 -0.00127 -5.0270271e-05
-0.0045719999 -0.00018142856 -0.0024227027
-0.036745332 -0.00018142856 -5.0270271e-05
0.040809333 -0.00054428569 -0.0024227027
-0.015070666 0.00127 -0.0017448649
0.0011853332 -0.00018142856 -0.0071675675
0.015748 0.00018142856 -5.0270271e-05
-0.041825332 -0.00018142856 0.0013054054
-0.001524 -0.00018142856 -0.005134054
0.032003999 -0.00018142856 -0.005811892
0.013377333 0.00090714288 -5.0270271e-05
-0.033358667 0.00018142856 -0.0024227027
0.016425332 0.00018142856 -0.0078454055
-0.0062653329 -0.00018142856 -5.0270271e-05
-0.0072813332 0.00127 -0.0020837837
0.018795999 -0.00018142856 -0.0037783785
-0.019811999 -0.00054428569 -0.0024227027
-0.02286 -0.00127 -0.0003891892
0.012022666 0.00127 -0.0017448649
-0.017102666 -0.00127 -5.0270271e-05
-0.032681331 -0.00090714288 -5.0270271e-05
0.029971998 0.00018142856 -0.0024227027
-0.014393332 0.00090714288 -0.0024227027
-0.04284133 -0.00018142856 -0.0020837837
0.012361333 0.00127 -5.0270271e-05
-0.033697333 0.00127 -0.0017448649
0.015070666 -0.00054428569 -0.0024227027
-0.032003999 -0.00127 -0.001405946
0.030649332 -0.00090714288 -5.0270271e-05
0.0038946664 0.00018142856 -0.005472973
-0.034374665 0.00018142856 -0.0064897295
0.038777333 0.00018142856 -0.0003891892
-0.021844 -0.00018142856 -0.0041172975
-0.00050799997 -0.00127 -0.00072810811
0.0052493331 -0.00018142856 -0.0024227027
-0.015748 -0.00090714288 -0.0024227027
-0.016764 0.00018142856 0.00096648646
-0.037422664 -0.00127 -0.001405946
0.0045719999 0.00090714288 -0.0024227027
0.0038946664 0.00127 -0.00072810811
-0.031665333 -0.00018142856 -0.0034394595
0.020150665 0.00127 -0.0003891892
0.026923999 -0.00018142856 0.00028864865
0.024214666 0.00090714288 -0.0024227027
-0.015409333 -0.00127 -5.0270271e-05
0.029294666 0.00127 -0.00072810811
0.039454665 0.00018142856 -0.005472973
0.0011853332 -0.00018142856 -0.0075064865
-0.023875998 -0.00127 -0.0020837837
0.04284133 -0.00054428569 -0.00072810811
0.012022666 0.00127 -0.00072810811
0.018457333 -0.00127 -0.001067027
-0.034713332 0.00127 -0.001405946
-0.021166665 0.00054428569 -0.0024227027
0.014393332 0.00127 -0.00072810811
-0.017441332 -0.00127 -0.0024227027
-0.040470663 0.00018142856 -0.0024227027
0.0072813332 -0.00054428569 -0.0003891892
-0.036406666 0.00127 -0.00072810811
0.0069426666 -0.00090714288 -5.0270271e-05
0.020489333 0.00054428569 -0.0024227027
-0.0059266663 -0.00018142856 -5.0270271e-05
-0.010667999 -0.00127 -5.0270271e-05
0.024891999 -0.00127 -0.00072810811
0.036745332 -0.00018142856 -0.004456216
0.0062653329 0.00127 -5.0270271e-05
-0.010667999 -0.00127 -0.00072810811
-0.001524 0.00018142856 -0.005134054
0.029971998 -0.00090714288 -0.0020837837
0.034374665 -0.00018142856 -0.0075064865
-0.021844 -0.00018142856 -0.0031005405
-0.013377333 0.00018142856 -5.0270271e-05
-0.04284133 -0.00054428569 -0.0020837837
0.0096519999 0.00127 -0.00072810811
0.021505332 0.00018142856 -0.0068286485
0.0022013332 0.00054428569 -0.0003891892
0.024214666 -0.00018142856 0.00062756758
0.012361333 -0.00127 -0.0024227027
-0.02286 -0.00018142856 -0.0024227027
-0.0032173332 -0.00090714288 -5.0270271e-05
-0.019134667 0.00018142856 -0.006150811
-0.011345332 -0.00018142856 -0.0078454055
-0.0042333333 0.00018142856 -0.0024227027
-0.0066039995 0.00090714288 -0.0024227027
0.034035999 -0.00018142856 -0.0078454055
-0.031326666 -0.00090714288 -0.0024227027
0.016425332 0.00018142856 -0.0075064865
-0.0062653329 0.00127 -0.0020837837
-0.0038946664 0.00018142856 -0.0068286485
-0.026246665 -0.00127 -0.0024227027
-0.001524 0.00018142856 -0.0071675675
0.023875998 0.00018142856 -0.005811892
0.016425332 0.00018142856 -0.008862162
-0.017779998 0.00127 -0.0003891892
0.0066039995 -0.00018142856 0.00096648646
0.00084666663 -0.00127 -0.0020837837
0.0096519999 -0.00127 -0.0017448649
0.024553332 -0.00127 -5.0270271e-05
0.030649332 -0.00127 -0.0020837837
-0.02286 0.00127 -0.00072810811
0.0062653329 -0.00018142856 -0.005134054
-0.025569333 -0.00127 -0.001067027
-0.013038666 0.00127 -0.00072810811
0.010667999 -0.00127 -0.0024227027
0.010329333 0.00127 -5.0270271e-05
-0.014054666 0.00018142856 -0.004795135
0.038777333 -0.00090714288 -5.0270271e-05
-0.010329333 -0.00127 -5.0270271e-05
0.018118666 -0.00127 -5.0270271e-05
0.0011853332 0.00018142856 -5.0270271e-05
0.017441332 0.00090714288 -0.0024227027
0.026923999 -0.00018142856 -0.0041172975
0.019134667 -0.00018142856 -0.005472973
0.033019997 0.00127 -0.0017448649
-0.018457333 -0.00127 -0.0020837837
-0.025230665 0.00090714288 -5.0270271e-05
-0.032003999 -0.00018142856 -0.0064897295
-0.041825332 0.00018142856 -0.008862162
-0.026246665 -0.00090714288 -0.0024227027
0.017102666 -0.00127 -0.00072810811
0.011684 -0.00018142856 -0.0037783785
0.032003999 0.00018142856 -0.004795135
-0.035051998 -0.00127 -0.0020837837
-0.042163998 -0.00127 -0.001067027
-0.031326666 0.00127 -0.00072810811
-0.037083998 0.00018142856 -0.0078454055
-0.033358667 0.00127 -0.0024227027
0.011006666 -0.00127 -0.001405946
-0.020489333 0.00127 -0.0003891892
-0.0066039995 0.00018142856 -0.005811892
-0.0086359996 -0.00018142856 0.0023221623
-0.04284133 0.00090714288 -0.0003891892
-0.021166665 -0.00127 -0.001405946
0.0045719999 -0.00127 -0.0024227027
0.0045719999 -0.00054428569 -0.0024227027
0.037083998 0.00018142856 0.0016443243
-0.019473333 0.00127 -5.0270271e-05
-0.04284133 0.00090714288 -0.00072810811
-0.020150665 0.00054428569 -0.0003891892
-0.016425332 -0.00018142856 -0.0075064865
0.012022666 -0.00054428569 -0.0024227027
0.029294666 0.00018142856 -0.008862162
-0.012022666 -0.00090714288 -0.0024227027
-0.0099906661 -0.00127 -0.0003891892
0.033019997 -0.00054428569 -0.0024227027
-0.0089746667 -0.00018142856 0.00096648646
0.021844 0.00018142856 0.0019832433
0.0062653329 0.00018142856 0.00062756758
-0.020489333 0.00018142856 -0.0024227027
-0.017779998 0.00054428569 -0.0024227027
0.0055879997 -0.00127 -0.001405946
0.022182666 0.00090714288 -5.0270271e-05
-0.02286 0.00127 -0.001067027
-0.020150665 0.00127 -5.0270271e-05
-0.011006666 0.00127 -0.001405946
-0.016764 -0.00018142856 0.0023221623
0.041486666 0.00054428569 -0.0024227027
0.03572933 -0.00090714288 -0.0024227027
0.034035999 -0.00018142856 -0.0068286485
-0.018795999 0.00127 -0.0017448649
0.014054666 -0.00090714288 -5.0270271e-05
0.016425332 0.00127 -0.001067027
-0.013038666 -0.00127 -5.0270271e-05
0.016425332 0.00090714288 -0.0024227027
0.036406666 -0.00018142856 -0.0024227027
-0.029633332 0.00127 -0.0020837837
-0.023537332 -0.00090714288 -0.0024227027
-0.011684 0.00018142856 -0.008862162
-0.042163998 -0.00127 -0.0003891892
-0.032342665 -0.00090714288 -5.0270271e-05
-0.024214666 -0.00018142856 0.00062756758
0.0022013332 -0.00127 -5.0270271e-05
-0.018457333 -0.00127 -0.001067027
0.039115999 0.00018142856 -0.005134054
-0.011684 0.00127 -0.0003891892
0.026585333 -0.00018142856 0.0023221623
-0.016764 0.00018142856 -0.0041172975
0.0079586664 -0.00018142856 -0.0024227027
-0.022182666 0.00127 -0.00072810811
-0.037761331 -0.00127 -0.00072810811
0.029294666 0.00018142856 -0.0041172975
-0.042502664 0.00127 -0.001405946
-0.037422664 0.00090714288 -0.0024227027
0.016086666 -0.00127 -0.0024227027
0.0099906661 -0.00127 -0.001067027
0.031665333 -0.00018142856 -0.0031005405
-0.025907999 -0.00054428569 -0.0024227027
0.020150665 -0.00127 -0.00072810811
0.027601331 -0.00127 -0.001405946
-0.013038666 0.00127 -0.001405946
-0.026585333 0.00127 -0.001067027
0.010667999 0.00127 -0.0017448649
-0.033358667 -0.00127 -0.0024227027
0.0072813332 0.00127 -5.0270271e-05
0.0089746667 -0.00127 -0.0017448649
0.014054666 0.00018142856 -0.008862162
0.0045719999 0.00054428569 -0.0003891892
-0.0099906661 0.00127 -5.0270271e-05
0.020489333 0.00018142856 -0.0024227027
-0.039793331 -0.00054428569 -0.0024227027
0.034374665 -0.00018142856 -0.0024227027
-0.036745332 0.00018142856 -0.0071675675
-0.04284133 -0.00054428569 -0.0017448649
-0.011345332 0.00054428569 -0.0024227027
-0.018795999 -0.00018142856 -0.0085232435
0.034035999 0.00018142856 -0.0085232435
0.0066039995 -0.00018142856 -0.0041172975
-0.032003999 0.00127 -0.0017448649
-0.013715999 -0.00018142856 -0.005472973
-0.0032173332 0.00127 -5.0270271e-05
0.041825332 -0.00018142856 -0.0031005405
0.00084666663 -0.00054428569 -0.0003891892
0.012361333 0.00127 -0.001405946
-0.031665333 0.00018142856 0.00062756758
0.026923999 0.00018142856 -0.0064897295
0.022521332 0.00090714288 -5.0270271e-05
0.010667999 -0.00127 -0.0020837837
0.026585333 0.00018142856 -0.008862162
-0.022182666 0.00090714288 -0.0024227027
-0.0072813332 -0.00127 -0.00072810811
-0.033697333 0.00127 -5.0270271e-05
-0.0062653329 -0.00018142856 -0.005472973
0.029633332 0.00127 -0.0024227027
-0.024891999 -0.00127 -5.0270271e-05
0.021505332 -0.00018142856 0.00028864865
-0.0096519999 0.00054428569 -0.0024227027
0.039115999 -0.00018142856 -0.0031005405
0.032003999 0.00018142856 0.00028864865
0.042163998 -0.00090714288 -0.0020837837
-0.033358667 0.00090714288 -5.0270271e-05
0.039454665 -0.00090714288 -0.0024227027
0.039454665 0.00127 -0.0017448649
-0.016086666 0.00018142856 -0.0024227027
-0.001524 0.00127 -0.00072810811
-0.026585333 -0.00018142856 -0.008862162
0.034374665 -0.00127 -0.00072810811
0.016425332 0.00018142856 0.0016443243
-0.023875998 -0.00018142856 -0.0041172975
0.0028786666 0.00127 -0.0020837837
-0.033019997 0.00090714288 -0.0024227027
-0.036406666 0.00054428569 -0.0003891892
-0.0022013332 0.00127 -0.0024227027
0.017102666 0.00127 -0.0003891892
-0.024553332 0.00127 -0.0003891892
0.0042333333 0.00127 -0.001067027
-0.037083998 -0.00127 -0.001067027
0.0035559998 -0.00018142856 0.0016443243
-0.034035999 -0.00018142856 0.0023221623
-0.03572933 0.00127 -0.0003891892
-0.023537332 0.00054428569 -0.0024227027
0.0022013332 0.00127 -0.0024227027
-0.041825332 0.00018142856 -0.0064897295
0.026585333 -0.00018142856 0.002661081
-0.025230665 0.00127 -5.0270271e-05
-0.013715999 0.00018142856 -5.0270271e-05
0.0035559998 -0.00018142856 -0.0068286485
0.031665333 -0.00018142856 0.0019832433
-0.0086359996 -0.00018142856 -0.0068286485
0.015070666 -0.00127 -0.001405946
0.028617332 -0.00127 -0.0020837837
0.034035999 -0.00018142856 -0.004795135
0.032681331 -0.00127 -0.00072810811
0.016425332 -0.00018142856 0.0016443243
-0.0025399998 -0.00127 -0.001405946
0.041147999 -0.00054428569 -0.0003891892
-0.011006666 0.00018142856 -0.0024227027
-0.018795999 -0.00090714288 -5.0270271e-05
-0.015748 0.00018142856 -0.0024227027
-0.041825332 0.00018142856 0.00062756758
0.0025399998 0.00054428569 -0.0024227027
-0.034713332 -0.00127 -0.0020837837
0.011006666 0.00127 -0.0003891892
0.017102666 0.00090714288 -0.0024227027
-0.017441332 -0.00127 -0.001405946
0.024891999 -0.00127 -0.0017448649
0.022521332 0.00127 -0.001067027
0.023537332 0.00127 -0.0003891892
-0.019134667 0.00018142856 0.0016443243
-0.015409333 0.00054428569 -0.0024227027
0.042502664 -0.00090714288 -0.0017448649
-0.036745332 0.00018142856 0.0019832433
0.010667999 -0.00127 -0.001405946
-0.0086359996 -0.00018142856 -0.005811892
-0.034713332 0.00054428569 -0.0003891892
-0.038777333 0.00018142856 -0.0024227027
-0.016425332 0.00090714288 -0.0024227027
-0.0062653329 0.00018142856 -0.0034394595
-0.0045719999 -0.00127 -0.001067027
0.029633332 0.00127 -0.0020837837
-0.034713332 0.00127 -0.0020837837
0.0127 -0.00127 -0.0020837837
0.024891999 0.00127 -0.001067027
0.031326666 -0.00127 -0.0017448649
0.029294666 -0.00018142856 -0.0031005405
-0.0066039995 -0.00018142856 -0.0071675675
-0.014731999 -0.00127 -0.001405946
-0.026923999 0.00018142856 -5.0270271e-05
0.034374665 -0.00018142856 0.00096648646
-0.021505332 0.00018142856 0.0016443243
0.032342665 -0.00054428569 -0.0003891892
0.041825332 -0.00018142856 -5.0270271e-05
-0.024214666 0.00018142856 -0.0068286485
0.028955998 -0.00018142856 0.0019832433
0.0042333333 0.00018142856 -5.0270271e-05
-0.0086359996 -0.00018142856 -0.0075064865
-0.0035559998 0.00018142856 -0.0068286485
-0.042502664 -0.00054428569 -0.0003891892
-0.00016933333 -0.00127 -0.0024227027
0.026585333 0.00018142856 0.0019832433
-0.0045719999 -0.00127 -0.001405946
-0.0052493331 0.00090714288 -5.0270271e-05
0.032003999 0.00018142856 -0.004456216
-0.011684 -0.00054428569 -0.0003891892
0.0089746667 -0.00018142856 -0.0027616217
-0.028955998 0.00127 -0.001405946
0.017102666 0.00127 -0.001405946
0.041825332 -0.00127 -0.0024227027
0.036406666 -0.00090714288 -0.0020837837
0.039454665 -0.00018142856 0.00062756758
0.0059266663 -0.00127 -0.001067027
-0.0086359996 0.00018142856 -0.004795135
-0.0066039995 0.00127 -0.0020837837
-0.029971998 -0.00127 -0.0017448649
0.034035999 0.00127 -0.0024227027
0.0028786666 0.00127 -0.001067027
0.026585333 0.00018142856 -0.0027616217
0.037083998 -0.00018142856 -0.004456216
0.018795999 -0.00018142856 -0.0064897295
-0.016086666 0.00127 -0.001405946
0.00050799997 0.00127 -0.00072810811
0.011684 0.00018142856 0.0013054054
-0.019134667 0.00127 -0.001067027
0.025230665 0.00127 -0.001405946
-0.040131997 -0.00018142856 -0.0024227027
-0.011684 0.00018142856 -0.0075064865
-0.00050799997 -0.00090714288 -5.0270271e-05
0.025569333 0.00090714288 -5.0270271e-05
0.0089746667 -0.00018142856 0.00062756758
0.025230665 -0.00127 -5.0270271e-05
-0.015748 0.00127 -0.0003891892
-0.032003999 -0.00018142856 0.0023221623
-0.037083998 0.00127 -0.0020837837
0.037761331 0.00018142856 -0.0024227027
0.0099906661 0.00127 -0.0003891892
0.036406666 -0.00054428569 -0.0024227027
-0.026923999 0.00090714288 -5.0270271e-05
0.021844 -0.00127 -0.001405946
-0.014054666 -0.00127 -0.00072810811
0.028617332 -0.00127 -0.0024227027
-0.039454665 0.00018142856 -0.004456216
-0.026923999 -0.00127 -0.0024227027
-0.0089746667 -0.00054428569 -0.0003891892
-0.0062653329 -0.00018142856 -0.0085232435
-0.026923999 -0.00054428569 -0.0003891892
0.011345332 0.00018142856 -0.004795135
-0.018457333 -0.00090714288 -5.0270271e-05
0.0035559998 -0.00018142856 -0.006150811
0.027939999 0.00018142856 -5.0270271e-05
-0.038777333 -0.00090714288 -0.0024227027
0.0089746667 0.00018142856 0.0016443243
0.020150665 0.00127 -0.0017448649
0.016425332 -0.00018142856 -0.008862162
0.029633332 -0.00018142856 -5.0270271e-05
-0.023875998 -0.00018142856 0.00096648646
0.021166665 -0.00054428569 -0.0003891892
-0.0086359996 0.00018142856 -0.0078454055
0.029294666 0.00127 -0.0003891892
-0.011345332 -0.00018142856 -0.0041172975
0.023875998 0.00018142856 0.00028864865
-0.0035559998 0.00018142856 -0.005134054
0.024553332 0.00127 -0.0024227027
-0.017441332 0.00127 -0.001405946
-0.0089746667 0.00018142856 -0.0071675675
0.017779998 -0.00127 -0.0017448649
0.015748 -0.00090714288 -0.0024227027
0.028955998 -0.00018142856 -0.0027616217
-0.014054666 -0.00127 -0.0003891892
0.032003999 0.00018142856 0.0016443243
0.027262665 -0.00090714288 -0.0024227027
0.0062653329 0.00090714288 -0.0024227027
-0.0089746667 -0.00018142856 -0.0041172975
-0.029633332 0.00127 -5.0270271e-05
0.036745332 0.00018142856 -0.0031005405
0.015070666 -0.00127 -0.0020837837
0.032003999 -0.00018142856 0.00062756758
0.017441332 0.00090714288 -5.0270271e-05
-0.019134667 0.00018142856 -0.0075064865
0.013715999 -0.00054428569 -0.0003891892
0.0038946664 -0.00018142856 0.00096648646
0.0099906661 0.00127 -0.00072810811
-0.034374665 -0.00018142856 -0.005134054
-0.0076199998 0.00127 -5.0270271e-05
0.012361333 0.00054428569 -0.0024227027
0.014054666 -0.00018142856 -0.005134054
0.013377333 -0.00018142856 -0.0024227027
0.038099997 -0.00127 -0.0020837837
-0.021844 0.00018142856 -0.0075064865
0.018118666 0.00127 -0.001405946
0.022521332 0.00127 -0.00072810811
-0.025907999 -0.00018142856 -5.0270271e-05
0.03572933 0.00127 -0.00072810811
-0.0089746667 0.00127 -0.0017448649
-0.030649332 -0.00127 -0.001067027
0.0032173332 0.00127 -5.0270271e-05
-0.039454665 0.00127 -0.0003891892
-0.019134667 -0.00090714288 -5.0270271e-05
-0.001524 -0.00090714288 -5.0270271e-05
-0.0059266663 -0.00090714288 -0.0024227027
-0.042163998 -0.00127 -0.0020837837
0.011006666 -0.00018142856 -5.0270271e-05
0.041825332 -0.00127 -0.001067027
0.028955998 -0.00127 -0.001405946
0.001524 -0.00127 -0.001405946
0.039115999 0.00018142856 -5.0270271e-05
-0.032342665 0.00127 -0.0020837837
-0.021505332 0.00018142856 -0.0027616217
0.0025399998 -0.00054428569 -0.0003891892
-0.019134667 -0.00018142856 -5.0270271e-05
0.0093133328 0.00090714288 -5.0270271e-05
0.015070666 0.00090714288 -0.0024227027
-0.011345332 0.00018142856 0.0016443243
-0.0082973326 -0.00127 -0.0024227027
0.041825332 -0.00054428569 -0.0003891892
0.0035559998 0.00018142856 -0.008862162
0.018457333 0.00127 -0.001067027
0.027262665 -0.00127 -0.0020837837
-0.0066039995 0.00127 -0.0024227027
0.021844 -0.00018142856 0.00062756758
-0.024214666 -0.00127 -0.001405946
-0.033019997 0.00127 -0.0003891892
0.027601331 -0.00018142856 -5.0270271e-05
-0.0066039995 0.00018142856 -0.0075064865
0.017441332 0.00127 -0.0003891892
-0.011684 -0.00127 -0.0024227027
-0.028278666 0.00127 -0.0024227027
0.019134667 0.00018142856 -0.0078454055
-0.034374665 -0.00018142856 -0.008184324
-0.010667999 -0.00127 -0.0020837837
0.0055879997 -0.00127 -0.0003891892
-0.036068 -0.00054428569 -0.0003891892
-0.019134667 -0.00018142856 0.0023221623
0.0066039995 0.00018142856 0.0013054054
-0.0038946664 -0.00018142856 -0.0041172975
-0.0038946664 -0.00018142856 -0.008184324
0.016764 0.00018142856 -0.005134054
0.018795999 -0.00018142856 -0.0031005405
0.033697333 0.00018142856 -5.0270271e-05
0.016764 -0.00127 -0.00072810811
-0.021166665 -0.00127 -0.00072810811
-0.014054666 -0.00054428569 -0.0003891892
0.025230665 -0.00018142856 -0.0024227027
0.030987998 0.00054428569 -0.0024227027
-0.0045719999 -0.00090714288 -5.0270271e-05
-0.040470663 0.00090714288 -0.0020837837
-0.030310666 0.00018142856 -0.0024227027
-0.0049106665 0.00054428569 -0.0003891892
0.016086666 -0.00054428569 -0.0024227027
0.034374665 0.00018142856 -5.0270271e-05
0.001524 -0.00054428569 -0.0024227027
0.023198666 -0.00090714288 -0.0024227027
0.034713332 -0.00127 -0.0003891892
0.027939999 -0.00018142856 -5.0270271e-05
0.039115999 0.00018142856 -0.0078454055
0.033019997 0.00054428569 -0.0003891892
-0.041825332 -0.00018142856 0.00096648646
-0.014731999 -0.00090714288 -5.0270271e-05
0.036068 0.00127 -0.001405946
-0.034374665 0.00054428569 -0.0003891892
0.032003999 0.00054428569 -0.0024227027
-0.017441332 -0.00127 -5.0270271e-05
0.0072813332 -0.00127 -0.001405946
-0.04284133 -0.00018142856 -0.0017448649
-0.039115999 0.00018142856 -0.0031005405
0.029971998 0.00127 -0.0024227027
-0.037422664 -0.00127 -0.001067027
-0.028617332 -0.00127 -0.0024227027
-0.0049106665 -0.00090714288 -5.0270271e-05
0.029633332 -0.00127 -0.0020837837
-0.041825332 -0.00127 -0.001405946
0.013715999 0.00018142856 -0.0078454055
0.030649332 0.00127 -0.0017448649
0.028955998 0.00054428569 -0.0003891892
-0.025907999 -0.00127 -0.0024227027
0.013715999 0.00127 -0.0024227027
-0.0032173332 -0.00018142856 -0.0024227027
0.019134667 0.00090714288 -5.0270271e-05
-0.0086359996 -0.00090714288 -5.0270271e-05
0.0127 -0.00127 -0.0003891892
0.020827999 0.00127 -0.0020837837
0.0089746667 0.00018142856 -0.004456216
-0.038438667 -0.00018142856 -0.0024227027
-0.038099997 -0.00054428569 -0.0024227027
0.039115999 0.00018142856 -0.008184324
-0.031326666 -0.00127 -0.0020837837
0.024553332 0.00127 -0.0003891892
0.032003999 -0.00018142856 -0.0027616217
-0.034713332 0.00127 -0.0003891892
0.001524 0.00018142856 -0.0031005405
-0.00016933333 -0.00127 -0.0017448649
-0.031665333 0.00090714288 -5.0270271e-05
0.024891999 -0.00127 -0.001067027
0.037083998 -0.00018142856 -0.0078454055
-0.015409333 0.00127 -0.001405946
-0.037083998 -0.00054428569 -0.0003891892
-0.010667999 -0.00054428569 -0.0024227027
0.0062653329 0.00054428569 -0.0024227027
-0.025569333 0.00090714288 -0.0024227027
-0.02286 0.00090714288 -5.0270271e-05
-0.020150665 0.00054428569 -0.0024227027
0.018795999 -0.00018142856 -0.005811892
0.021844 -0.00018142856 -0.0071675675
-0.016425332 -0.00018142856 0.002661081
0.012361333 0.00018142856 -0.0024227027
-0.024214666 0.00127 -0.001405946
-0.036068 -0.00127 -0.0003891892
0.0011853332 -0.00127 -0.001067027
0.0038946664 0.00018142856 0.0013054054
0.041825332 0.00127 -0.0017448649
-0.014054666 0.00018142856 0.0019832433
0.0038946664 -0.00127 -0.00072810811
0.019134667 0.00018142856 -0.005134054
-0.0079586664 0.00127 -0.001067027
-0.039454665 -0.00018142856 0.002661081
-0.018118666 -0.00127 -0.00072810811
0.028955998 0.00018142856 0.0013054054
-0.0049106665 -0.00127 -0.0024227027
0.0018626666 -0.00127 -0.0024227027
0.010667999 -0.00054428569 -0.0003891892
0.0086359996 -0.00018142856 -0.0064897295
-0.030987998 0.00127 -0.00072810811
-0.021166665 -0.00054428569 -0.0003891892
0.018795999 0.00127 -0.001067027
0.0052493331 -0.00127 -0.0024227027
0.0032173332 -0.00018142856 -0.0024227027
-0.024214666 -0.00127 -0.0017448649
0.039454665 0.00018142856 -0.006150811
-0.013715999 -0.00018142856 -0.006150811
-0.011684 0.00018142856 0.0023221623
0.0082973326 -0.00090714288 -0.0024227027
0.0082973326 -0.00127 -0.0020837837
-0.011006666 -0.00090714288 -0.0024227027
-0.016764 -0.00018142856 -0.005811892
-0.00016933333 -0.00090714288 -0.0024227027
0.016764 -0.00054428569 -0.0024227027
-0.042502664 -0.00127 -0.001067027
0.020150665 0.00018142856 -0.0024227027
-0.018457333 -0.00054428569 -0.0024227027
0.0086359996 0.00018142856 -5.0270271e-05
0.0011853332 0.00090714288 -0.0024227027
0.00050799997 -0.00127 -0.00072810811
0.014393332 -0.00054428569 -0.0024227027
-0.028955998 -0.00018142856 0.0016443243
-0.031665333 -0.00127 -0.00072810811
-0.011345332 0.00127 -5.0270271e-05
0.019473333 0.00018142856 -0.0024227027
0.021844 0.00018142856 -0.0075064865
0.011345332 -0.00127 -0.0020837837
0.011345332 0.00018142856 0.00062756758
0.016764 -0.00018142856 -5.0270271e-05
-0.0045719999 0.00090714288 -5.0270271e-05
0.019134667 0.00018142856 -0.0031005405
0.012361333 0.00127 -0.0024227027
0.039454665 0.00127 -0.001405946
-0.011684 -0.00127 -0.00072810811
0.0099906661 -0.00127 -5.0270271e-05
0.014731999 0.00127 -0.0024227027
0.019811999 0.00054428569 -0.0024227027
0.021844 -0.00018142856 0.00028864865
-0.0089746667 0.00018142856 -0.0068286485
-0.0049106665 0.00054428569 -0.0024227027
-0.00084666663 0.00127 -0.0017448649
-0.014054666 -0.00018142856 0.00028864865
0.014393332 0.00018142856 -0.0024227027
0.010667999 0.00054428569 -0.0024227027
0.0089746667 -0.00090714288 -0.0024227027
-0.034374665 0.00127 -0.0020837837
0.016086666 -0.00018142856 -0.0024227027
0.018457333 -0.00054428569 -0.0003891892
-0.0045719999 -0.00090714288 -0.0024227027
-0.001524 -0.00127 -0.00072810811
-0.0099906661 0.00054428569 -0.0003891892
-0.0038946664 0.00018142856 -0.005472973
0.0062653329 -0.00127 -0.0003891892
-0.036745332 0.00127 -0.0017448649
0.0086359996 0.00127 -0.00072810811
0.0096519999 0.00054428569 -0.0003891892
-0.028955998 -0.00127 -0.001067027
0.011684 0.00018142856 -0.004795135
0.0093133328 0.00127 -5.0270271e-05
0.00050799997 -0.00127 -5.0270271e-05
-0.031665333 0.00018142856 0.0013054054
-0.0089746667 0.00018142856 -0.0075064865
-0.022521332 0.00054428569 -0.0024227027
-0.027939999 -0.00127 -0.001067027
0.026246665 0.00127 -0.00072810811
-0.010329333 -0.00054428569 -0.0003891892
0.0066039995 -0.00018142856 -0.005811892
-0.034374665 0.00018142856 0.0023221623
-0.026923999 0.00018142856 -0.0085232435
0.019134667 -0.00018142856 -0.008862162
0.0086359996 0.00054428569 -0.0003891892
0.0042333333 -0.00127 -0.0003891892
-0.030649332 0.00127 -0.0003891892
0.0059266663 0.00018142856 -0.0024227027
0.038099997 0.00127 -0.00072810811
-0.035390664 0.00127 -0.001067027
-0.001524 -0.00018142856 -0.005472973
0.0055879997 0.00127 -0.001067027
0.0049106665 0.00127 -0.0020837837
-0.039454665 -0.00018142856 0.0016443243
-0.016086666 -0.00127 -0.0017448649
0.030987998 -0.00127 -0.0020837837
0.039793331 -0.00127 -0.0020837837
-0.0069426666 -0.00127 -0.001405946
-0.016425332 0.00018142856 -0.0034394595
0.024553332 -0.00127 -0.0017448649
-0.031665333 0.00127 -0.001067027
0.021505332 0.00018142856 -0.008184324
-0.036745332 -0.00127 -5.0270271e-05
0.0049106665 -0.00054428569 -0.0003891892
0.039454665 -0.00018142856 -0.0068286485
-0.028955998 0.00018142856 -0.008184324
0.016086666 0.00127 -5.0270271e-05
-0.0035559998 -0.00054428569 -0.0003891892
0.024214666 0.00018142856 0.0019832433
-0.0066039995 0.00018142856 -0.0037783785
-0.034713332 0.00127 -0.0024227027
0.035051998 0.00127 -0.0017448649
0.018795999 -0.00018142856 0.0013054054
-0.025907999 -0.00018142856 -0.0024227027
0.025907999 -0.00018142856 -5.0270271e-05
0.019134667 0.00018142856 -0.008862162
0.030649332 -0.00090714288 -0.0020837837
0.0086359996 0.00127 -0.001067027
0.027601331 -0.00054428569 -0.0003891892
-0.026585333 -0.00127 -0.00072810811
0.0042333333 -0.00127 -0.001405946
-0.024553332 -0.00127 -0.0024227027
0.033358667 0.00090714288 -0.0024227027
-0.018457333 -0.00127 -0.0003891892
-0.034035999 0.00018142856 0.0019832433
0.036745332 -0.00018142856 -0.005811892
0.039454665 -0.00018142856 -0.004456216
0.0062653329 -0.00018142856 -0.004795135
-0.017102666 -0.00090714288 -0.0024227027
-0.031326666 -0.00018142856 -5.0270271e-05
-0.041825332 0.00018142856 -5.0270271e-05
-0.016764 0.00018142856 0.0023221623
0.022182666 0.00054428569 -0.0003891892
0.034374665 -0.00018142856 -0.0031005405
0.036406666 -0.00127 -0.0020837837
0.027262665 0.00018142856 -0.0024227027
-0.040131997 -0.00127 -0.0017448649
-0.0022013332 0.00127 -0.0003891892
0.00084666663 -0.00127 -0.0003891892
0.032342665 0.00127 -5.0270271e-05
-0.011684 0.00018142856 0.0019832433
0.021166665 0.00127 -0.0020837837
-0.0062653329 -0.00054428569 -0.0003891892
0.021166665 0.00018142856 -0.0024227027
-0.0049106665 0.00127 -0.0024227027
0.026585333 0.00054428569 -0.0003891892
-0.013715999 -0.00018142856 0.00028864865
-0.024214666 -0.00018142856 -0.008862162
0.039454665 -0.00127 -0.0020837837
0.0062653329 -0.00018142856 0.002661081
0.0018626666 0.00018142856 -5.0270271e-05
-0.032003999 -0.00054428569 -0.0003891892
-0.0022013332 -0.00127 -0.001067027
0.013715999 -0.00018142856 -0.006150811
-0.022521332 0.00127 -0.0003891892
0.039115999 0.00018142856 -0.006150811
0.011006666 -0.00127 -0.0017448649
0.0096519999 -0.00054428569 -0.0003891892
0.0062653329 0.00127 -0.001405946
