# .PCD v0.7 - Point Cloud Data file format
VERSION 0.7
FIELDS x y z
SIZE 4 4 4
TYPE F F F
COUNT 1 1 1
WIDTH 1405
HEIGHT 1
VIEWPOINT 0 0 0 1 0 0 0
POINTS 1405
DATA ascii
0.024857137 -0.00127 -0.002355
0.032885529 0 -0.0026700001
-0.021769295 -0.00095249998 -0.002355
-0.035355803 0 0.00079499994
-0.014049686 0.00127 -0.00078000006
0.031959176 0.00127 -0.00078000006
-0.0050949412 -0.00095249998 -0.002355
0.02856255 0.0003175 -0.002355
0.038134862 0.00127 -0.0020400002
0.03782608 0.00127 -0.00078000006
0.0050949412 -0.00127 -0.002355
0.022695648 0.0003175 -0.0048750001
-0.014049686 0.00095249998 -0.002355
-0.025474707 0.00127 -0.00141
-0.0069476473 -0.0003175 -0.00015000005
0.023930784 -0.0003175 -0.00015000005
0.017755099 0 0.00079499994
0.0050949412 -0.0003175 -0.0055050002
-0.017137529 0.00127 -0.0020400002
0.028253766 0.00127 -0.00141
-0.035355803 -0.000635 -0.00015000005
-0.0091091376 -0.00127 -0.0020400002
0.038134862 0.0003175 -0.0033000002
0.028871333 -0.0003175 -0.002355
0.0084915692 0.00127 -0.0020400002
-0.032885529 0 -0.0048750001
0.01219698 -0.00127 -0.00046500005
0.035664588 0 -0.004245
0.00077196077 0.000635 -0.00046500005
-0.017446315 0 -0.0073950002
0.037517294 0.00127 -0.0017250001
-0.0010807451 -0.00127 -0.00141
-0.0013895294 -0.00095249998 -0.002355
-0.015284824 0.00127 -0.0010950001
0.0078739999 0 -0.0029850001
0.036899727 0.00127 -0.0020400002
-0.010961844 0.00127 -0.00046500005
0.028253766 -0.00127 -0.0010950001
-0.031032825 0.00127 -0.00046500005
0.017755099 0 -0.0058200001
0.031650394 0.0003175 -0.002355
-0.0063300785 -0.00095249998 -0.002355
0.029797686 0 -0.002355
-0.0026246668 0.00127 -0.00078000006
-0.0044773724 0 -0.00015000005
-0.022695648 -0.00095249998 -0.002355
0.0026246668 -0.0003175 -0.0067650001
-0.0078739999 0.00127 -0.00015000005
0.0091091376 -0.00127 -0.00046500005
0.010961844 0.00095249998 -0.002355
0.0044773724 -0.00095249998 -0.00015000005
-0.02794498 -0.0003175 0.00047999996
0.010961844 0 -0.002355
0.030415256 -0.0003175 -0.0064500002
0.033194315 0 -0.0070800004
0.012505765 0 -0.0073950002
0.010035491 0 0.001425
-0.038134862 -0.0003175 -0.0036150001
0.0020070982 0.00127 -0.00141
0.022078078 -0.00127 -0.00046500005
0.024857137 0 -0.002355
-0.012505765 0 0.002055
-0.013432118 -0.00127 -0.00046500005
0.021151725 -0.00127 -0.002355
0.021460511 -0.00127 -0.002355
-0.035355803 0.00095249998 -0.002355
-0.00077196077 -0.00127 -0.0010950001
-0.035664588 -0.00127 -0.0017250001
0.02794498 0 -0.0073950002
0.010961844 -0.00127 -0.0020400002
0.034429453 -0.00095249998 -0.00015000005
-0.021151725 0.0003175 -0.00015000005
-0.02423957 0.00127 -0.0010950001
0.039061215 0.000635 -0.00015000005
-0.020225372 0 0.00047999996
0.010344274 0 -0.0026700001
-0.015284824 0 -0.0029850001
-0.0026246668 -0.0003175 -0.0064500002
-0.0066388627 0 -0.002355
-0.031959176 -0.0003175 -0.002355
0.0023158824 0 -0.0039300001
0.0050949412 0.0003175 0.00111
0.0072564315 0.000635 -0.002355
0.011579412 0.00127 -0.002355
-0.010344274 0 -0.00771
0.017755099 -0.00127 -0.00141
0.0066388627 -0.0003175 -0.00015000005
0.0023158824 -0.000635 -0.002355
-0.015284824 0 -0.0070800004
0.03782608 0 -0.0026700001
-0.019607805 0.00127 -0.0017250001
-0.030106472 0.000635 -0.002355
-0.034120668 0.00127 -0.0010950001
0.0094179213 0.000635 -0.00046500005
-0.022695648 -0.0003175 -0.0039300001
0.0010807451 0.00127 -0.00141
0.023004431 -0.0003175 0.00016499995
-0.02423957 -0.00127 -0.00141
-0.018990235 -0.00127 -0.00046500005
-0.02794498 0.0003175 0.00079499994
0.015593608 0.00127 -0.002355
-0.021151725 0.00127 -0.00078000006
0.0016983137 0.00127 -0.00078000006
-0.015284824 -0.0003175 0.001425
-0.024548354 -0.00127 -0.00141
0.0050949412 0 -0.0058200001
-0.012814549 0.0003175 0.00174
-0.018681452 -0.00127 -0.00015000005
0.002933451 0.0003175 -0.002355
0.0081827845 -0.00127 -0.00015000005
-0.019916588 -0.00127 -0.00046500005
-0.023004431 0 -0.0058200001
-0.03782608 -0.0003175 -0.002355
-0.015902393 0.0003175 -0.00015000005
-0.038134862 0.00127 -0.0010950001
0.015284824 0 0.001425
-0.027018627 -0.00127 -0.002355
0.030106472 0 -0.002355
-0.010344274 -0.00127 -0.002355
0.00015439215 -0.0003175 -0.0058200001
-0.030724039 0.000635 -0.002355
-0.010035491 -0.00127 -0.00141
-0.011888197 0.00127 -0.00015000005
0.0013895294 -0.000635 -0.00046500005
-0.0072564315 0.000635 -0.002355
-0.030415256 0 -0.00771
0.028871333 0.00127 -0.00078000006
0.030415256 0.000635 -0.00015000005
-0.021769295 0 -0.00015000005
0.0041685882 0 -0.002355
0.011888197 -0.000635 -0.00046500005
0.032885529 0 0.00174
0.027327413 0.000635 -0.00046500005
-0.0023158824 -0.0003175 0.0023699999
-0.010344274 -0.0003175 0.0023699999
0.0075652157 0.0003175 -0.0029850001
-0.025474707 0 -0.0064500002
0.011270627 0.00095249998 -0.00015000005
-0.028253766 0.00127 -0.00015000005
0.030415256 0.0003175 0.00016499995
0.004786157 0.00127 -0.0017250001
-0.0088003529 0.00127 -0.002355
0.034120668 0.00127 -0.0010950001
-0.010035491 0.0003175 -0.0033000002
-0.037517294 -0.00127 -0.002355
-0.010344274 -0.00127 -0.00046500005
0.020534158 -0.0003175 -0.0061350004
0.022078078 0 -0.002355
0.022695648 0.0003175 -0.00771
-0.0057125101 0.000635 -0.00046500005
0.038134862 0 -0.0058200001
-0.017755099 0.000635 -0.00046500005
-0.031341609 0.00127 -0.002355
-0.0023158824 0 0.002055
-0.010344274 0 0.002055
0.0063300785 0.000635 -0.00046500005
0.014667255 0.00095249998 -0.00015000005
0.0075652157 -0.00127 -0.00015000005
-0.012814549 0.0003175 -0.00771
-0.01497604 0 0.00079499994
-0.023930784 -0.00127 -0.0020400002
0.02423957 -0.00127 -0.00078000006
0.022078078 0 -0.00015000005
0.028871333 0.00095249998 -0.00015000005
0.015284824 0.0003175 -0.0061350004
0.020534158 -0.0003175 -0.0033000002
0.012505765 0.0003175 -0.0055050002
0.0060212943 -0.000635 -0.002355
0.0026246668 -0.0003175 -0.0058200001
0.010653059 0 -0.002355
-0.019607805 0 -0.002355
-0.027636196 0 -0.002355
0.035047021 -0.00095249998 -0.002355
-0.0050949412 -0.0003175 -0.0058200001
-0.031032825 -0.00127 -0.0010950001
-0.016828746 -0.00127 -0.0010950001
-0.010344274 0.00127 -0.002355
0.009726706 0.000635 -0.002355
0.039061215 -0.00095249998 -0.00015000005
0.004786157 -0.00127 -0.002355
-0.0026246668 0.0003175 -0.0058200001
-0.010653059 0.00127 -0.00078000006
-0.0032422354 0.00127 -0.0010950001
-0.030415256 -0.0003175 0.00174
0.032885529 0.00127 -0.0017250001
-0.026709843 -0.000635 -0.002355
-0.017755099 0 -0.0058200001
0.0075652157 0 -0.0048750001
0.017137529 0.00127 -0.00015000005
0.033194315 0.0003175 0.00079499994
0.013740902 0.000635 -0.00046500005
0.022078078 -0.000635 -0.002355
-0.0054037254 -0.00095249998 -0.002355
0.017755099 0 -0.0067650001
0.0075652157 0 0.00111
0.035664588 -0.0003175 0.00079499994
-0.037208509 0.00095249998 -0.002355
-0.029797686 -0.00127 -0.0020400002
-0.010035491 -0.0003175 -0.00015000005
0.0075652157 0.00127 -0.00078000006
-0.022078078 -0.00127 -0.002355
0.020842941 -0.00127 -0.00141
0.030415256 -0.000635 -0.002355
0.0023158824 0.0003175 0.002055
0.0075652157 0 -0.0036150001
-0.02856255 -0.00127 -0.00141
-0.022695648 0 -0.0073950002
0.031650394 0.00127 -0.00141
-0.022386864 0.000635 -0.00046500005
0.01497604 -0.00127 -0.002355
0.033811882 0 -0.00015000005
-0.028871333 0.0003175 -0.002355
0.010344274 0.0003175 -0.0033000002
-0.025474707 0 -0.00771
-0.019607805 0.000635 -0.00046500005
-0.022695648 0.00127 -0.00141
0.0084915692 -0.00127 -0.00078000006
0.039061215 -0.000635 -0.0020400002
-0.0020070982 0.0003175 -0.00015000005
-0.010344274 -0.0003175 -0.0029850001
0.00015439215 0 -0.0073950002
0.00077196077 0.0003175 -0.002355
0.003859804 0.00127 -0.00078000006
-0.025165921 0 -0.0073950002
0.029488903 0.00127 -0.0010950001
0.011888197 0.000635 -0.002355
0.017755099 -0.00095249998 -0.00015000005
0.0035510196 -0.0003175 -0.00015000005
-0.020534158 0.0003175 0.001425
0.025474707 0.000635 -0.00046500005
-0.0026246668 0.0003175 -0.004245
0.004786157 0.00127 -0.0020400002
0.02856255 -0.00127 -0.00078000006
0.035973374 0.0003175 -0.002355
0.019299019 0.000635 -0.00046500005
-0.032885529 -0.0003175 -0.00015000005
0.01497604 0.000635 -0.00046500005
0.009726706 -0.000635 -0.002355
-0.036282156 -0.00127 -0.00078000006
-0.032576747 0.000635 -0.002355
0.017446315 -0.000635 -0.00046500005
-0.021151725 0.000635 -0.00046500005
0.011888197 0.00127 -0.0017250001
-0.00046317649 0.000635 -0.002355
0.025165921 0 0.00111
0.012505765 -0.0003175 -0.002355
0.032576747 0.00095249998 -0.00015000005
0.0026246668 -0.00095249998 -0.002355
0.035355803 -0.0003175 -0.0055050002
0.031032825 -0.00127 -0.00078000006
0.0054037254 0.00095249998 -0.00015000005
0.030415256 -0.0003175 -0.0051899999
0.0023158824 0.0003175 0.00016499995
0.01497604 0 -0.0070800004
0.010035491 -0.0003175 0.00047999996
0.01497604 0 -0.0051899999
0.03782608 0 -0.0055050002
0.016211176 0.00127 -0.00078000006
-0.026709843 -0.00127 -0.00015000005
0.0050949412 0 0.001425
-0.017446315 -0.00095249998 -0.002355
0.02423957 -0.00127 -0.00046500005
-0.023004431 0.00127 -0.002355
-0.022695648 0.0003175 -0.002355
0.013432118 0.000635 -0.002355
0.012505765 0 -0.0036150001
-0.0084915692 0.00127 -0.00015000005
0.023004431 -0.0003175 -0.0058200001
-0.023004431 0.00127 -0.00015000005
0.032885529 -0.0003175 -0.0026700001
0.0069476473 0.000635 -0.00046500005
0.038443647 0 -0.002355
0.012814549 -0.0003175 -0.0073950002
0.020534158 -0.00127 -0.0010950001
0.034738235 -0.00127 -0.002355
-0.0050949412 0 -0.0058200001
-0.027018627 -0.00127 -0.00141
0.01497604 0 -0.0064500002
-0.030724039 0 -0.0048750001
0.00077196077 0 -0.00015000005
-0.010035491 -0.00127 -0.0017250001
-0.0050949412 -0.000635 -0.002355
-0.023004431 -0.0003175 -0.0026700001
-0.0026246668 0.0003175 0.0023699999
0.010344274 0.0003175 0.00111
0.0032422354 0 -0.00015000005
-0.022695648 -0.0003175 -0.0073950002
-0.023004431 -0.0003175 0.00111
0.0081827845 0.00127 -0.0017250001
-0.023004431 -0.000635 -0.002355
-0.012814549 -0.0003175 -0.0029850001
-0.0023158824 -0.0003175 0.00016499995
-0.0041685882 -0.000635 -0.00046500005
0.010653059 -0.00095249998 -0.002355
0.028253766 0 -0.0048750001
-0.015593608 -0.00127 -0.002355
-0.0041685882 -0.00127 -0.00078000006
-0.011888197 0.00127 -0.00078000006
-0.017755099 0.0003175 0.00174
-0.014049686 -0.00127 -0.0010950001
0.035664588 -0.00127 -0.0010950001
-0.002933451 -0.000635 -0.002355
0.012814549 -0.00127 -0.00015000005
-0.032576747 0.0003175 -0.00015000005
-0.023004431 -0.00127 -0.00141
-0.0084915692 -0.00127 -0.0020400002
0.018372666 0 -0.00015000005
-0.021769295 0.00127 -0.0017250001
0.017755099 0 0.002055
-0.012505765 0 0.0023699999
0.038134862 0.0003175 -0.0070800004
-0.023622001 -0.00127 -0.00015000005
0.035355803 -0.0003175 -0.002355
0.010344274 0.00127 -0.002355
-0.037208509 0.000635 -0.00015000005
0.010035491 0 -0.0036150001
0.023004431 -0.0003175 0.002055
0.00015439215 -0.0003175 -0.004245
0.0078739999 0.00095249998 -0.002355
0.01497604 0.0003175 0.00079499994
0.0069476473 0.00127 -0.00046500005
0.0050949412 -0.0003175 0.00016499995
0.0075652157 0.00127 -0.002355
0.02794498 -0.00127 -0.0020400002
0.01219698 -0.00127 -0.0020400002
0.032576747 0.00127 -0.00015000005
-0.022695648 0.0003175 -0.00015000005
-0.022695648 -0.0003175 0.00016499995
-0.035664588 0.000635 -0.002355
-0.0088003529 -0.00127 -0.0017250001
0.017137529 0.00127 -0.0020400002
-0.030415256 -0.00127 -0.00078000006
-0.02794498 0 0.0023699999
-0.0013895294 -0.00095249998 -0.00015000005
-0.022078078 0.0003175 -0.00015000005
0.014049686 -0.00127 -0.00046500005
0.02794498 0.0003175 0.00174
-0.017446315 -0.00127 -0.00015000005
0.0075652157 -0.000635 -0.00046500005
0.019299019 -0.0003175 -0.002355
0.029488903 0.00095249998 -0.00015000005
0.030415256 0.00127 -0.00141
0.012814549 0.00127 -0.002355
-0.0078739999 0.0003175 -0.0058200001
0.010035491 0 0.00111
-0.00015439215 0.0003175 -0.0036150001
-0.027327413 -0.00127 -0.00015000005
0.0078739999 -0.00127 -0.00046500005
0.013740902 0.00127 -0.00078000006
-0.0088003529 -0.00127 -0.002355
0.021460511 0.00127 -0.00015000005
-0.012505765 0.00127 -0.00046500005
-0.015284824 0.0003175 -0.0039300001
0.035973374 0.000635 -0.002355
0.034429453 0 -0.002355
0.037208509 0.0003175 -0.00015000005
-0.038134862 -0.00127 -0.0020400002
-0.036590941 -0.00127 -0.00015000005
0.035664588 0.00127 -0.0017250001
0.00077196077 0.00095249998 -0.002355
0.0050949412 0.0003175 -0.0058200001
-0.023313217 0.00127 -0.00015000005
0.026709843 0.0003175 -0.002355
0.010344274 -0.0003175 -0.0039300001
0.014049686 -0.00127 -0.0017250001
-0.033194315 0.000635 -0.00015000005
-0.02794498 0 -0.0055050002
0.012814549 0.0003175 -0.004245
0.026092274 -0.00127 -0.00141
-0.027636196 -0.000635 -0.002355
-0.012814549 0 -0.004245
-0.012505765 0 0.00047999996
-0.014358471 -0.000635 -0.002355
-0.0069476473 -0.00095249998 -0.00015000005
0.023004431 0.0003175 0.002055
-0.011888197 -0.00127 -0.00078000006
-0.010344274 0.0003175 -0.0033000002
-0.033194315 -0.0003175 -0.0036150001
-0.035973374 0.000635 -0.002355
0.039061215 -0.00095249998 -0.0017250001
0.031959176 -0.00127 -0.0020400002
0.021151725 0.00127 -0.002355
0.030415256 -0.0003175 -0.004245
0.0020070982 -0.00127 -0.00046500005
-0.0035510196 -0.000635 -0.002355
0.019607805 0.00095249998 -0.002355
0.023004431 0.0003175 0.00111
0.022695648 0.00127 -0.00078000006
0.027636196 0.00095249998 -0.002355
0.02578349 -0.00127 -0.0010950001
-0.00015439215 -0.000635 -0.00046500005
-0.030415256 0 -0.0067650001
0.018681452 0.00127 -0.00141
-0.00046317649 -0.0003175 -0.00015000005
0.030415256 -0.00095249998 -0.002355
-0.029180119 0.00095249998 -0.00015000005
0.025474707 0 -0.0064500002
-0.0032422354 0 -0.002355
0.024548354 0.00095249998 -0.002355
0.02423957 -0.00127 -0.0020400002
0.020225372 0 -0.004245
-0.027327413 -0.00127 -0.00078000006
-0.033194315 -0.00127 -0.0020400002
-0.012505765 0 -0.0070800004
0.0072564315 -0.0003175 -0.00015000005
-0.011579412 0.00127 -0.0017250001
-0.00015439215 0.0003175 -0.0061350004
-0.023004431 0 -0.0070800004
-0.028871333 0 -0.002355
0.002933451 0.00095249998 -0.00015000005
-0.027018627 0.00127 -0.0017250001
-0.02794498 0.0003175 -0.0061350004
0.033194315 0 -0.0045600003
-0.02856255 -0.000635 -0.002355
-0.020225372 0 0.00079499994
0.0057125101 0 -0.00015000005
-0.012505765 0 0.00174
0.033194315 -0.00095249998 -0.0020400002
-0.02794498 0.00127 -0.00078000006
0.022695648 0.00127 -0.00046500005
0.0063300785 0.00127 -0.00141
-0.027327413 -0.00127 -0.0017250001
0.036282156 -0.000635 -0.00046500005
-0.022695648 -0.0003175 -0.0061350004
-0.0023158824 0 -0.004245
0.024548354 0.00127 -0.0020400002
0.030415256 -0.00127 -0.0010950001
-0.015593608 0.00127 -0.0020400002
0.02856255 0.000635 -0.00046500005
0.031650394 0.00127 -0.0010950001
0.021460511 0.00127 -0.00078000006
-0.0078739999 -0.00127 -0.00015000005
0.028871333 0.00127 -0.0017250001
-0.0010807451 0.0003175 -0.002355
0.023313217 -0.00127 -0.00015000005
0.025474707 -0.00127 -0.0010950001
0.035664588 -0.00127 -0.0020400002
-0.023622001 -0.000635 -0.002355
-0.021460511 -0.00127 -0.0010950001
-0.022695648 0.00127 -0.00046500005
-0.030415256 -0.00127 -0.0017250001
0.00015439215 0 0.002685
-0.035355803 0.00127 -0.00046500005
0.0023158824 0.00127 -0.00078000006
-0.024857137 -0.0003175 -0.00015000005
-0.025474707 0 0.0023699999
-0.0084915692 0.0003175 -0.00015000005
-0.013123333 -0.00095249998 -0.002355
-0.030724039 0.00127 -0.00046500005
-0.037517294 0.00127 -0.00078000006
-0.0044773724 -0.000635 -0.00046500005
-0.004786157 0.00127 -0.0010950001
-0.016519962 0.000635 -0.00046500005
-0.016828746 0 -0.00015000005
-0.02794498 0.0003175 -0.0055050002
0.035664588 0 -0.0064500002
-0.017755099 -0.0003175 -0.0067650001
0.017755099 -0.0003175 -0.0029850001
-0.00015439215 -0.0003175 -0.0048750001
0.035973374 -0.00127 -0.0010950001
0.025165921 0.0003175 0.001425
0.033811882 0.0003175 -0.002355
-0.010035491 0 0.00016499995
0.015902393 -0.00127 -0.00046500005
-0.030415256 0 0.00174
-0.023930784 -0.0003175 -0.002355
-0.0091091376 -0.00127 -0.00015000005
0.034120668 -0.000635 -0.002355
-0.0091091376 0.00127 -0.0017250001
-0.014358471 -0.00127 -0.0020400002
-0.014358471 0 -0.00015000005
-0.0084915692 -0.00127 -0.00015000005
-0.019916588 0.000635 -0.002355
-0.036282156 -0.00127 -0.0017250001
-0.019607805 0.00127 -0.0010950001
-0.013432118 -0.00127 -0.00078000006
-0.002933451 0.00127 -0.0010950001
-0.00015439215 0.00127 -0.0017250001
-0.021460511 0.00127 -0.00046500005
-0.00046317649 -0.000635 -0.002355
0.033194315 0.000635 -0.00015000005
0.022695648 0.00127 -0.00141
-0.010961844 -0.00127 -0.00078000006
0.019916588 -0.00127 -0.002355
0.010344274 0.0003175 -0.0039300001
-0.0075652157 0 -0.0064500002
-0.038752433 -0.00095249998 -0.00078000006
-0.025474707 -0.00127 -0.0017250001
-0.02640106 -0.000635 -0.002355
0.02578349 0.00127 -0.002355
0.038443647 -0.00095249998 -0.00015000005
0.010961844 -0.00127 -0.00015000005
0.028253766 0 -0.0064500002
0.010035491 0.0003175 -0.0048750001
0.0023158824 0.0003175 -0.0058200001
0.0335031 -0.00127 -0.00078000006
-0.0060212943 0 -0.002355
-0.0026246668 0 -0.0055050002
0.022695648 0 -0.0033000002
0.010344274 0 -0.0055050002
0.012814549 0 0.001425
-0.0023158824 0.00127 -0.00078000006
0.025165921 0.0003175 0.00047999996
0.022695648 0 0.002055
-0.020225372 0.0003175 0.00047999996
-0.028871333 0.00127 -0.00078000006
-0.010035491 0.0003175 -0.0061350004
-0.036899727 -0.000635 -0.00015000005
0.018063882 -0.00095249998 -0.00015000005
0.030106472 0.0003175 -0.00015000005
0.018681452 0.000635 -0.002355
-0.020534158 -0.0003175 -0.00015000005
-0.029180119 -0.00127 -0.002355
0.023004431 -0.0003175 -0.0036150001
-0.022078078 -0.00095249998 -0.00015000005
0.00015439215 0.00127 -0.0017250001
-0.0060212943 0.000635 -0.00046500005
0.021769295 0.0003175 -0.002355
-0.00046317649 0.00095249998 -0.002355
-0.014358471 -0.00095249998 -0.002355
0.0091091376 0.000635 -0.00046500005
-0.013432118 -0.00127 -0.0020400002
-0.020534158 0.0003175 -0.0036150001
0.035664588 0 -0.0036150001
-0.025474707 0.000635 -0.00046500005
-0.013432118 -0.0003175 -0.00015000005
-0.036899727 -0.0003175 -0.002355
0.010961844 0.00127 -0.0010950001
-0.035047021 -0.000635 -0.002355
-0.035047021 0.00127 -0.00141
-0.0050949412 -0.0003175 0.00174
0.013123333 0.000635 -0.00046500005
-0.017755099 0 -0.0080249999
0.00046317649 -0.00127 -0.00078000006
-0.02794498 0.00095249998 -0.002355
0.015284824 0.000635 -0.002355
0.030724039 -0.00127 -0.00015000005
-0.010035491 0.0003175 0.00079499994
0.035664588 0 0.001425
0.027018627 -0.0003175 -0.00015000005
0.022695648 0.0003175 0.00047999996
-0.022078078 -0.000635 -0.00046500005
-0.002933451 0.00127 -0.00078000006
0.014667255 0.00127 -0.0017250001
0.032267962 -0.0003175 -0.002355
0.014358471 0.00127 -0.00046500005
-0.017755099 0 0.00079499994
0.004786157 0.00127 -0.0010950001
0.037517294 0.00127 -0.0020400002
-0.0050949412 -0.0003175 -0.0055050002
-0.0335031 -0.00127 -0.0017250001
0.016828746 0.00127 -0.00141
-0.039061215 -0.00095249998 -0.002355
-0.022695648 -0.000635 -0.00046500005
0.032885529 -0.0003175 -0.00015000005
0.017755099 0.0003175 0.00079499994
-0.034738235 -0.00127 -0.0020400002
-0.010344274 -0.0003175 0.00016499995
0.018063882 0.0003175 -0.002355
-0.010035491 -0.0003175 -0.0048750001
-0.0032422354 -0.0003175 -0.002355
-0.01497604 0 -0.0036150001
-0.017755099 0.0003175 0.0023699999
-0.035664588 0.0003175 0.001425
0.023004431 0 0.001425
0.029488903 0.00127 -0.0020400002
0.024548354 -0.00127 -0.00015000005
-0.0072564315 0.00127 -0.0017250001
0.021460511 0.00127 -0.0020400002
0.0041685882 0.00127 -0.002355
0.0069476473 -0.00127 -0.0010950001
-0.036899727 -0.00127 -0.00141
-0.00015439215 -0.0003175 -0.0064500002
0.021460511 -0.00127 -0.00046500005
0.028871333 -0.00127 -0.0010950001
-0.015593608 -0.00095249998 -0.00015000005
0.0013895294 0 -0.00015000005
-0.024857137 -0.00127 -0.00141
0.00015439215 0 -0.0061350004
-0.025165921 0.00127 -0.00046500005
0.0094179213 0.000635 -0.002355
0.009726706 -0.00127 -0.00141
-0.010344274 0 -0.0039300001
0.021769295 -0.0003175 -0.00015000005
0.0050949412 -0.0003175 -0.0051899999
-0.0023158824 -0.0003175 -0.0055050002
0.028253766 0.000635 -0.002355
-0.024857137 0 -0.00015000005
0.0060212943 0.000635 -0.002355
0.01497604 0 -0.0045600003
-0.03782608 0.00127 -0.0020400002
-0.0078739999 0 0.00174
0.017755099 -0.00127 -0.0020400002
0.0041685882 0.0003175 -0.00015000005
-0.0054037254 -0.000635 -0.00046500005
-0.017755099 0.0003175 -0.0061350004
0.0050949412 0.0003175 -0.0039300001
-0.017755099 -0.0003175 -0.0055050002
0.020842941 0.000635 -0.002355
-0.031650394 0.00095249998 -0.00015000005
0.0060212943 0.00127 -0.002355
0.023930784 -0.00095249998 -0.00015000005
0.024548354 0.00127 -0.0010950001
0.020534158 0 -0.0051899999
-0.033194315 0 -0.0051899999
-0.0050949412 0.0003175 -0.0064500002
-0.030724039 0 -0.0073950002
0.0066388627 -0.00127 -0.00015000005
0.032576747 0 -0.002355
-0.038134862 0 -0.0064500002
0.015902393 0.00127 -0.00046500005
-0.0057125101 0.00127 -0.002355
0.038752433 -0.0003175 -0.002355
0.023004431 0.0003175 0.0023699999
0.0075652157 0 0.0023699999
0.013432118 0.00127 -0.002355
-0.010344274 0 -0.0073950002
0.029797686 0.00127 -0.0010950001
-0.023004431 -0.00127 -0.0017250001
-0.018681452 0.00127 -0.0020400002
-0.0084915692 -0.00127 -0.00046500005
0.010344274 -0.0003175 -0.0026700001
0.015902393 0.0003175 -0.00015000005
-0.038752433 -0.00095249998 -0.00015000005
-0.029797686 -0.00127 -0.0017250001
-0.023004431 0 -0.0061350004
0.0041685882 -0.00127 -0.002355
0.030415256 0 0.00079499994
-0.015284824 -0.00127 -0.0010950001
-0.010035491 -0.0003175 -0.0029850001
-0.0094179213 -0.00127 -0.00078000006
-0.032576747 -0.00127 -0.00046500005
0.022695648 0 -0.0067650001
0.00015439215 -0.0003175 0.00079499994
0.0075652157 0 -0.00771
0.031341609 0.00127 -0.00078000006
0.02794498 -0.0003175 -0.0058200001
-0.037208509 0.00127 -0.0010950001
-0.0075652157 0 -0.0026700001
-0.039061215 0.0003175 -0.002355
-0.020225372 0.0003175 0.00016499995
-0.02578349 -0.00127 -0.00141
-0.012814549 0.000635 -0.00046500005
-0.0084915692 0.00127 -0.0010950001
0.0057125101 0.000635 -0.002355
0.023004431 0.000635 -0.00046500005
-0.026709843 -0.00127 -0.00046500005
0.022695648 0 -0.0055050002
-0.02578349 0.00127 -0.0017250001
0.016211176 -0.0003175 -0.002355
-0.0044773724 0.00127 -0.0017250001
-0.029797686 -0.00127 -0.00078000006
0.020225372 0 -0.0045600003
-0.015902393 0 -0.00015000005
-0.010035491 -0.0003175 -0.00771
-0.012505765 -0.0003175 -0.0048750001
0.015284824 0.0003175 0.00174
0.030724039 -0.000635 -0.002355
0.020842941 0 -0.00015000005
-0.035355803 0 0.00174
0.023004431 0 0.002055
0.028253766 -0.00127 -0.0020400002
-0.038134862 0 -0.0029850001
0.010653059 0.00127 -0.0017250001
0.0010807451 -0.00127 -0.0010950001
-0.012505765 -0.0003175 0.001425
-0.02794498 0 -0.0058200001
0.028253766 -0.000635 -0.002355
0.009726706 -0.0003175 -0.00015000005
0.012814549 -0.0003175 0.00079499994
0.035664588 -0.0003175 0.00174
-0.014667255 -0.0003175 -0.00015000005
0.019299019 -0.00095249998 -0.00015000005
0.036590941 0.00095249998 -0.002355
-0.039061215 -0.00095249998 -0.00046500005
0.0010807451 0.00127 -0.00078000006
-0.016828746 -0.00127 -0.002355
-0.021151725 -0.00127 -0.0017250001
0.0041685882 -0.00095249998 -0.002355
0.0075652157 -0.0003175 0.00079499994
0.031341609 0 -0.00015000005
-0.017137529 -0.00127 -0.00078000006
-0.01219698 0.00127 -0.0017250001
0.010344274 0 -0.00771
-0.030415256 0 -0.0064500002
0.027018627 -0.00127 -0.00141
0.028253766 0.00127 -0.0017250001
0.032885529 0 -0.0055050002
-0.016211176 0.000635 -0.002355
-0.035664588 -0.00095249998 -0.002355
0.00046317649 -0.0003175 -0.002355
-0.016519962 0.00127 -0.0010950001
-0.026092274 -0.00127 -0.00046500005
0.0026246668 -0.0003175 -0.0070800004
-0.022695648 0.00127 -0.002355
-0.032576747 0.00127 -0.00046500005
-0.0016983137 0.000635 -0.002355
0.015902393 -0.00095249998 -0.00015000005
0.00015439215 0.00095249998 -0.00015000005
0.010035491 -0.000635 -0.00046500005
-0.034429453 -0.000635 -0.00015000005
-0.014049686 -0.00095249998 -0.00015000005
0.01219698 0.000635 -0.00046500005
0.020842941 -0.000635 -0.00046500005
0.0091091376 -0.00127 -0.0010950001
-0.012814549 -0.0003175 -0.0048750001
0.017755099 -0.00127 -0.0010950001
-0.014667255 0.0003175 -0.002355
-0.027018627 0.00127 -0.00015000005
0.0088003529 0.0003175 -0.00015000005
0.01497604 0.00127 -0.0020400002
0.0063300785 0.00127 -0.00015000005
-0.0041685882 0.0003175 -0.002355
0.022695648 0.0003175 -0.0067650001
-0.0044773724 -0.00095249998 -0.00015000005
0.0057125101 0.00127 -0.00141
-0.038134862 0 -0.0080249999
-0.031650394 -0.00127 -0.00141
0.0026246668 -0.00127 -0.00015000005
-0.022695648 0.000635 -0.00046500005
-0.003859804 0.00127 -0.00015000005
-0.0041685882 0.00127 -0.00015000005
0.0069476473 0.00127 -0.0017250001
0.025474707 0.0003175 -0.0064500002
-0.035355803 0.0003175 -0.00015000005
-0.025474707 0.0003175 0.0023699999
-0.028871333 -0.00127 -0.002355
-0.025474707 -0.0003175 0.002055
-0.018063882 -0.000635 -0.00046500005
0.039061215 0.00095249998 -0.0020400002
-0.00077196077 -0.00127 -0.0020400002
0.022386864 -0.00095249998 -0.00015000005
-0.010344274 0.00127 -0.0010950001
-0.038134862 -0.00095249998 -0.002355
-0.023004431 -0.0003175 -0.0029850001
-0.020534158 0.0003175 0.00111
0.032885529 0.0003175 -0.002355
0.035664588 0 -0.0051899999
-0.035047021 0.00127 -0.00078000006
-0.023004431 0 0.00079499994
0.025474707 0 0.00079499994
-0.025474707 -0.000635 -0.002355
-0.013740902 0 -0.00015000005
-0.035664588 0.00095249998 -0.002355
-0.034120668 -0.00095249998 -0.002355
-0.025474707 0.00127 -0.0017250001
-0.010035491 0.0003175 -0.0058200001
0.038134862 0 -0.0051899999
-0.015284824 0.0003175 -0.0045600003
-0.0078739999 -0.00127 -0.0017250001
0.032267962 -0.0003175 -0.00015000005
-0.022695648 0.00127 -0.00015000005
-0.020225372 0.0003175 0.00079499994
-0.0050949412 0 -0.0061350004
-0.029797686 0.00127 -0.0010950001
0.01219698 0.00127 -0.00078000006
0.0050949412 0.00127 -0.002355
-0.01497604 -0.0003175 -0.0067650001
0.032885529 0 -0.0061350004
0.014358471 0.00127 -0.0010950001
0.025165921 0.0003175 -0.0073950002
-0.030724039 -0.00127 -0.00141
-0.015593608 -0.00127 -0.0010950001
-0.019299019 -0.00127 -0.002355
0.010035491 0.00127 -0.002355
0.030106472 -0.00127 -0.00046500005
0.038134862 0.00127 -0.002355
0.020534158 0 0.00047999996
-0.019299019 0.00127 -0.0020400002
-0.038134862 0 -0.0055050002
-0.0023158824 0 -0.0048750001
-0.033811882 0 -0.002355
0.010344274 0.00127 -0.00046500005
-0.019916588 -0.00127 -0.002355
0.0026246668 0 0.00079499994
-0.033194315 0.0003175 0.00047999996
-0.010035491 0.0003175 -0.0029850001
-0.018990235 -0.00127 -0.00078000006
0.0078739999 0 -0.0055050002
0.025165921 0.0003175 -0.0064500002
0.02578349 0 -0.002355
-0.020225372 0 -0.0080249999
0.018372666 0.00127 -0.002355
-0.027636196 0.0003175 -0.002355
-0.028871333 0.00127 -0.00015000005
0.015284824 0.00127 -0.00015000005
-0.0075652157 -0.0003175 0.00079499994
-0.017446315 0.00127 -0.002355
-0.034738235 0 -0.002355
0.022386864 -0.00127 -0.0010950001
-0.03782608 -0.00127 -0.002355
-0.030724039 0 -0.0051899999
-0.037517294 0.0003175 -0.002355
-0.0075652157 -0.0003175 -0.0061350004
0.036899727 0.00127 -0.00015000005
0.029488903 -0.000635 -0.002355
-0.02640106 0 -0.00015000005
-0.018372666 -0.000635 -0.00046500005
0.012814549 0.0003175 0.00016499995
-0.00046317649 -0.00127 -0.00078000006
0.025165921 0.0003175 0.00174
-0.015284824 0 0.00111
0.036899727 0 -0.002355
0.02640106 -0.000635 -0.002355
-0.010653059 -0.0003175 -0.00015000005
-0.017137529 0.00127 -0.00046500005
0.0026246668 -0.0003175 0.001425
-0.026709843 0.00127 -0.00078000006
0.025474707 0 0.00016499995
-0.013740902 0.00095249998 -0.002355
0.028253766 -0.00095249998 -0.00015000005
0.022695648 -0.000635 -0.002355
-0.0026246668 -0.00127 -0.002355
-0.021769295 -0.00127 -0.0020400002
-0.02856255 -0.0003175 -0.002355
0.023004431 0 0.0023699999
-0.010344274 0 -0.0036150001
-0.039061215 -0.000635 -0.002355
0.015902393 -0.000635 -0.00046500005
0.030415256 0.0003175 -0.0048750001
0.0078739999 0 0.00016499995
-0.0026246668 -0.0003175 -0.0073950002
0.0050949412 -0.0003175 -0.00015000005
0.011888197 -0.00127 -0.00015000005
-0.025474707 -0.000635 -0.00046500005
-0.02423957 0.000635 -0.002355
0.038752433 -0.00095249998 -0.00015000005
-0.0069476473 -0.00127 -0.00046500005
-0.035664588 0.00095249998 -0.00015000005
-0.0072564315 0.00127 -0.0010950001
0.0023158824 -0.00095249998 -0.00015000005
-0.0026246668 0.0003175 -0.00015000005
-0.036282156 0.00127 -0.0020400002
-0.030415256 0.00127 -0.00015000005
0.033194315 0 0.00079499994
-0.0072564315 -0.00095249998 -0.002355
-0.0026246668 -0.0003175 -0.0061350004
-0.032885529 0 0.00111
-0.020225372 0 0.002055
-0.016828746 0.00127 -0.002355
0.038752433 0.00095249998 -0.0017250001
0.022695648 -0.00127 -0.0010950001
0.0066388627 0.00095249998 -0.00015000005
-0.035355803 0 -0.0036150001
0.013123333 -0.00127 -0.00015000005
-0.004786157 0 -0.0045600003
-0.038134862 -0.0003175 0.00016499995
-0.010344274 -0.0003175 -0.0067650001
-0.0026246668 0.00127 -0.00141
0.011888197 -0.00127 -0.00141
-0.010653059 0.000635 -0.002355
-0.030724039 0 -0.004245
0.012814549 -0.000635 -0.002355
-0.0035510196 0 -0.002355
-0.0063300785 0.00127 -0.00141
0.034738235 -0.000635 -0.002355
-0.037517294 -0.0003175 -0.002355
0.010344274 -0.00127 -0.00141
-0.0023158824 -0.0003175 -0.0036150001
0.03782608 0 -0.0029850001
-0.033194315 0.00127 -0.00078000006
0.017755099 0.0003175 -0.0064500002
-0.035047021 -0.00127 -0.00078000006
-0.021769295 -0.00127 -0.0010950001
0.0335031 -0.00095249998 -0.0020400002
-0.014049686 -0.00127 -0.0017250001
-0.003859804 0.00095249998 -0.002355
0.027636196 0 -0.0061350004
0.030415256 0 -0.0048750001
-0.0035510196 0.000635 -0.002355
0.016519962 -0.00095249998 -0.002355
-0.028253766 0.0003175 -0.00015000005
-0.015284824 0.0003175 -0.0055050002
0.014358471 -0.00095249998 -0.00015000005
0.036899727 0.0003175 -0.00046500005
-0.023004431 0 0.002055
-0.025474707 0 -0.0045600003
0.017755099 -0.00127 -0.002355
-0.0010807451 0.000635 -0.002355
-0.03782608 0.00095249998 -0.002355
-0.022695648 -0.0003175 -0.0070800004
-0.025165921 0.00127 -0.0017250001
0.01497604 0.00127 -0.00015000005
-0.032885529 0 0.00016499995
-0.01497604 -0.00127 -0.0010950001
0.010344274 -0.00095249998 -0.002355
0.025165921 0.0003175 0.00111
0.0078739999 0.000635 -0.002355
0.010653059 0 -0.00015000005
-0.0084915692 0.00127 -0.00078000006
0.0016983137 0.00095249998 -0.00015000005
-0.010035491 -0.0003175 0.001425
-0.0013895294 -0.0003175 -0.002355
0.00046317649 0.00127 -0.0010950001
-0.0075652157 0.0003175 0.00111
0.018372666 -0.0003175 -0.002355
0.027327413 -0.00127 -0.0010950001
-0.020225372 0 -0.0036150001
-0.0335031 -0.0003175 -0.002355
-0.026709843 0.0003175 -0.00015000005
-0.014358471 0 -0.002355
-0.0091091376 -0.00127 -0.00078000006
0.0094179213 0.00095249998 -0.00015000005
0.0335031 0.00127 -0.00015000005
0.016519962 -0.00127 -0.00046500005
0.027327413 0.00095249998 -0.002355
0.010035491 0.000635 -0.00046500005
-0.024548354 0.00127 -0.00141
0.0050949412 0.0003175 -0.0033000002
-0.025165921 0 -0.0026700001
-0.038134862 -0.0003175 -0.0033000002
-0.012505765 -0.0003175 0.00079499994
0.035355803 0 0.001425
0.012814549 -0.0003175 0.00016499995
0.030415256 0 -0.0064500002
-0.016828746 -0.00095249998 -0.002355
0.01497604 -0.00095249998 -0.00015000005
0.018372666 0.00127 -0.0020400002
0.0023158824 0 -0.0064500002
0.036282156 0.00127 -0.0017250001
-0.020225372 -0.000635 -0.00046500005
0.017446315 0.00127 -0.0010950001
0.035664588 -0.0003175 -0.0045600003
0.0066388627 0.00127 -0.0010950001
0.0050949412 0 0.00111
-0.010344274 -0.00095249998 -0.00015000005
0.034120668 0.00095249998 -0.002355
-0.012814549 0 0.00047999996
-0.0075652157 0.00127 -0.002355
-0.0075652157 0.0003175 -0.0039300001
0.035664588 -0.0003175 0.00111
0.010035491 -0.0003175 -0.00015000005
-0.011888197 -0.00127 -0.00046500005
0.037517294 0.0003175 -0.002355
-0.019916588 0.00127 -0.002355
-0.017137529 0 -0.00015000005
-0.012505765 -0.0003175 0.00016499995
-0.019607805 -0.00127 -0.0017250001
-0.010035491 0.0003175 -0.0073950002
0.012814549 -0.0003175 -0.0051899999
0.018681452 -0.0003175 -0.00015000005
0.038134862 0 0.001425
-0.02794498 -0.0003175 -0.0058200001
-0.036282156 -0.0003175 -0.002355
0.0054037254 0.000635 -0.002355
0.0069476473 0.00127 -0.00078000006
-0.023622001 -0.000635 -0.00046500005
-0.012505765 0.000635 -0.002355
0.033811882 -0.00095249998 -0.0010950001
-0.010344274 -0.000635 -0.002355
-0.02794498 -0.000635 -0.002355
-0.011888197 0.0003175 -0.00015000005
-0.015284824 -0.0003175 -0.00015000005
-0.023313217 0.00127 -0.00141
0.028871333 0.00127 -0.00046500005
-0.025165921 -0.0003175 -0.00015000005
0.035664588 -0.0003175 0.00016499995
-0.0054037254 0.00127 -0.0020400002
0.022078078 -0.00127 -0.00141
-0.014049686 -0.00127 -0.00046500005
0.022695648 0 -0.0073950002
0.02794498 -0.0003175 -0.0029850001
0.0026246668 0 -0.0073950002
0.012814549 -0.0003175 -0.00015000005
-0.016519962 -0.00127 -0.00046500005
-0.027636196 -0.000635 -0.00046500005
0.03937 0.0003175 -0.0017250001
0.014667255 0.0003175 -0.002355
0.022695648 -0.00127 -0.00078000006
0.021460511 -0.00127 -0.0017250001
-0.025165921 0.00095249998 -0.002355
-0.010961844 -0.000635 -0.002355
-0.033194315 -0.0003175 -0.0045600003
-0.017137529 0.000635 -0.00046500005
-0.0020070982 -0.0003175 -0.002355
-0.00015439215 0.0003175 -0.0045600003
0.00046317649 0 -0.002355
-0.012505765 -0.00095249998 -0.00015000005
0.025474707 0.00127 -0.00046500005
0.015284824 -0.0003175 0.001425
-0.017755099 0.0003175 -0.004245
0.035664588 0 0.002055
0.026709843 -0.00127 -0.0020400002
-0.019607805 -0.0003175 -0.002355
-0.032267962 -0.0003175 -0.002355
0.015284824 -0.0003175 -0.0067650001
-0.015284824 0 -0.0045600003
0.021460511 -0.00095249998 -0.002355
0.020225372 0.0003175 -0.0036150001
-0.012505765 0 -0.0061350004
0.02423957 0 -0.002355
-0.0050949412 0.0003175 -0.0051899999
-0.02794498 0 -0.0073950002
0.024548354 -0.0003175 -0.002355
-0.0050949412 0 0.001425
-0.0091091376 0.00127 -0.00046500005
-0.023004431 -0.0003175 0.00016499995
-0.010035491 0.0003175 0.00111
-0.029180119 0.0003175 -0.00015000005
-0.0050949412 0.0003175 -0.0039300001
0.012814549 0.0003175 -0.0055050002
0.038443647 0.00095249998 -0.002355
0.035355803 0.00127 -0.00141
0.022386864 -0.000635 -0.00046500005
-0.025474707 -0.0003175 -0.0064500002
-0.034120668 0.00127 -0.00046500005
-0.015284824 0.0003175 0.00047999996
-0.010035491 -0.00095249998 -0.002355
0.0032422354 0.00095249998 -0.002355
-0.035355803 0 -0.0048750001
0.034120668 -0.00095249998 -0.00141
-0.0078739999 0.00127 -0.0017250001
-0.0013895294 -0.00127 -0.00141
0.028871333 -0.00127 -0.00141
-0.013740902 -0.00127 -0.00078000006
0.0026246668 0.0003175 -0.0055050002
0.0050949412 0 -0.0029850001
0.018063882 0.00127 -0.0020400002
-0.0075652157 -0.00127 -0.002355
0.010344274 -0.0003175 0.00174
-0.013740902 0.00127 -0.00078000006
-0.012505765 0.000635 -0.00046500005
-0.010035491 -0.0003175 -0.0058200001
-0.032885529 0 -0.0029850001
-0.023622001 -0.00127 -0.00078000006
-0.015902393 0.00127 -0.00046500005
0.025165921 -0.00127 -0.0020400002
-0.031032825 0.00127 -0.0010950001
-0.021151725 -0.0003175 -0.00015000005
0.00046317649 0.000635 -0.00046500005
-0.0013895294 0.00095249998 -0.00015000005
-0.017137529 0.00127 -0.00078000006
0.033194315 0.0003175 -0.0036150001
-0.010961844 0.00127 -0.002355
-0.035664588 0 0.00047999996
-0.010344274 0 0.0023699999
-0.018063882 -0.00127 -0.002355
-0.017755099 0.0003175 -0.0055050002
0.021769295 0.00127 -0.00046500005
0.014667255 0.00127 -0.00046500005
-0.00046317649 -0.0003175 -0.002355
0.020225372 -0.00095249998 -0.00015000005
-0.0072564315 0.00127 -0.00078000006
0.027636196 -0.00127 -0.00015000005
0.020225372 0 -0.0061350004
0.031650394 -0.0003175 -0.00015000005
0.035664588 -0.0003175 -0.0048750001
0.021151725 0.000635 -0.002355
0.015593608 0.000635 -0.00046500005
0.014049686 0.00127 -0.002355
0.011888197 -0.00127 -0.00078000006
-0.015284824 0 -0.004245
0.03937 0.000635 -0.00078000006
-0.017446315 0.000635 -0.002355
0.020225372 -0.00127 -0.0017250001
0.031032825 -0.00127 -0.00015000005
0.010035491 0 -0.004245
0.0041685882 -0.000635 -0.00046500005
0.02794498 0 -0.0036150001
0.021769295 0 -0.002355
-0.0023158824 -0.0003175 -0.0033000002
-0.015284824 -0.0003175 0.002055
0.015284824 0 0.002685
0.030415256 -0.0003175 -0.0070800004
0.012814549 0.0003175 -0.0026700001
0.033194315 -0.000635 -0.00015000005
-0.023930784 0.0003175 -0.00015000005
0.020842941 -0.00127 -0.0020400002
0.017755099 0.0003175 0.001425
-0.00015439215 -0.0003175 -0.0073950002
-0.026709843 -0.000635 -0.00046500005
-0.017446315 0 -0.0055050002
0.0013895294 0.000635 -0.00046500005
-0.0050949412 0.0003175 0.00016499995
-0.032885529 0.00127 -0.00141
0.036899727 0.00095249998 -0.00015000005
-0.033811882 0.000635 -0.00015000005
0.031341609 -0.0003175 -0.00015000005
-0.010035491 0 -0.00771
-0.01497604 0 0.00016499995
0.02578349 -0.000635 -0.00046500005
-0.02423957 0.0003175 -0.00015000005
0.032267962 0 -0.00015000005
0.031650394 0.00095249998 -0.002355
0.015284824 -0.0003175 0.00016499995
-0.0081827845 0.00127 -0.0010950001
-0.020842941 0.00127 -0.0010950001
0.02856255 0.00127 -0.002355
0.0026246668 0.0003175 -0.0064500002
0.0016983137 -0.000635 -0.002355
-0.004786157 -0.00095249998 -0.00015000005
-0.026709843 -0.00127 -0.0020400002
0.025474707 -0.0003175 -0.004245
0.021460511 -0.0003175 -0.002355
0.0044773724 -0.000635 -0.002355
0.0088003529 0.00095249998 -0.002355
-0.029488903 0.00127 -0.0010950001
0.0050949412 -0.0003175 -0.0067650001
0.015593608 -0.00127 -0.0017250001
-0.031650394 0 -0.002355
0.020225372 0.0003175 -0.0029850001
0.038134862 0.00127 -0.00141
-0.0013895294 0 -0.002355
-0.0050949412 0.0003175 -0.0048750001
0.039061215 0.0003175 -0.00015000005
0.025474707 -0.0003175 0.00016499995
0.00015439215 0.0003175 -0.00015000005
0.030415256 0.0003175 -0.0061350004
-0.0066388627 -0.000635 -0.00046500005
0.032576747 0.00127 -0.00046500005
0.023313217 -0.00127 -0.0010950001
-0.031959176 -0.000635 -0.002355
-0.019916588 0.000635 -0.00046500005
-0.017446315 -0.00127 -0.002355
-0.010961844 -0.0003175 -0.002355
-0.034429453 -0.0003175 -0.002355
0.0091091376 0.00127 -0.0010950001
-0.027018627 0.00127 -0.00046500005
0.0020070982 0.00127 -0.002355
-0.0084915692 -0.00095249998 -0.00015000005
-0.021769295 0.00127 -0.00141
-0.020842941 0.000635 -0.00046500005
-0.0054037254 0 -0.00015000005
-0.0091091376 0.00095249998 -0.00015000005
0.0072564315 -0.0003175 -0.002355
0.009726706 -0.0003175 -0.002355
-0.0026246668 0 -0.0029850001
0.020842941 0.00095249998 -0.002355
-0.031341609 0 -0.002355
-0.010961844 -0.00095249998 -0.002355
0.0013895294 0.00127 -0.00046500005
-0.017755099 0 -0.0039300001
0.031341609 0.00127 -0.0010950001
-0.017755099 -0.0003175 0.00016499995
0.033811882 -0.00095249998 -0.0020400002
-0.011579412 0.00127 -0.002355
0.012505765 0.00127 -0.0020400002
0.032267962 0 -0.002355
-0.017446315 0 -0.0064500002
-0.029488903 0.00127 -0.00141
0.0081827845 -0.00127 -0.0017250001
0.036282156 0.00095249998 -0.002355
0.0054037254 0.0003175 -0.00015000005
0.023313217 -0.000635 -0.002355
-0.035047021 -0.0003175 -0.002355
0.020225372 -0.0003175 0.001425
0.035973374 -0.000635 -0.00046500005
0.031650394 -0.00127 -0.002355
0.034429453 -0.00095249998 -0.0020400002
0.010344274 0.00127 -0.0010950001
0.023004431 -0.0003175 -0.0039300001
0.012505765 -0.000635 -0.002355
0.033194315 0.00127 -0.00015000005
0.014667255 0.00127 -0.00078000006
0.010344274 0.0003175 -0.0036150001
-0.020225372 -0.0003175 -0.0061350004
-0.0075652157 0.0003175 0.0023699999
-0.038443647 -0.00127 -0.0017250001
0.025474707 0 -0.0055050002
0.032576747 0.0003175 -0.002355
-0.017137529 -0.00127 -0.00141
-0.018990235 -0.00127 -0.00141
0.017755099 0.0003175 -0.0070800004
0.039061215 -0.000635 -0.00141
-0.015284824 0 -0.0055050002
-0.010653059 0.00127 -0.00015000005
-0.031032825 -0.00127 -0.00141
0.035664588 0.000635 -0.002355
0.02578349 -0.00127 -0.00078000006
0.004786157 0 0.00047999996
-0.020225372 -0.0003175 0.00016499995
-0.016519962 -0.00127 -0.0020400002
-0.021460511 0.00095249998 -0.002355
0.011888197 0.0003175 -0.00015000005
0.032885529 0 -0.0064500002
0.025165921 0.0003175 0.00016499995
-0.0057125101 -0.00127 -0.0010950001
0.00077196077 -0.00127 -0.00015000005
0.010653059 -0.00127 -0.002355
-0.025474707 -0.0003175 0.00047999996
0.020534158 -0.0003175 0.001425
0.034429453 0.00127 -0.0020400002
0.018990235 -0.00127 -0.00078000006
0.033194315 0.0003175 -0.0055050002
0.039061215 0.00095249998 -0.00078000006
0.022695648 0.0003175 -0.0039300001
-0.0081827845 -0.00127 -0.0017250001
0.01497604 0.0003175 -0.0029850001
-0.018063882 0.000635 -0.00046500005
-0.031650394 -0.00095249998 -0.002355
0.0075652157 0 -0.0070800004
0.0032422354 -0.00127 -0.0010950001
-0.02856255 0 -0.00015000005
0.031341609 0.00095249998 -0.00015000005
0.010344274 -0.0003175 -0.0058200001
-0.023313217 -0.000635 -0.002355
-0.020534158 0 -0.004245
-0.039061215 -0.00095249998 -0.0010950001
0.035664588 -0.00127 -0.0017250001
0.0091091376 0 -0.00015000005
0.033194315 -0.00095249998 -0.00141
0.0060212943 0.00127 -0.00141
0.014049686 -0.00127 -0.0020400002
0.0072564315 0.00127 -0.00046500005
-0.017755099 -0.0003175 -0.0045600003
0.0088003529 -0.00127 -0.00078000006
0.003859804 -0.00095249998 -0.00015000005
-0.022695648 0 -0.0058200001
0.016211176 -0.00095249998 -0.00015000005
-0.013740902 -0.0003175 -0.00015000005
0.0072564315 0.00095249998 -0.00015000005
-0.00015439215 0.0003175 -0.0033000002
-0.0020070982 -0.00127 -0.0017250001
-0.030724039 0 -0.0033000002
0.021151725 -0.00127 -0.00078000006
0.0072564315 -0.00127 -0.00046500005
0.025165921 0 -0.0058200001
0.030415256 -0.0003175 0.00016499995
-0.0054037254 0.00127 -0.00046500005
-0.020225372 0.00127 -0.0017250001
-0.038134862 0 0.0023699999
-0.015284824 -0.00095249998 -0.00015000005
-0.013123333 0.00127 -0.0010950001
0.021460511 0.0003175 -0.002355
0.010344274 0.00127 -0.00015000005
-0.037208509 0.00127 -0.0020400002
-0.017446315 0 -0.0067650001
0.017755099 -0.0003175 -0.0051899999
-0.020534158 0 -0.0073950002
-0.018372666 -0.00127 -0.00015000005
-0.01219698 0.00127 -0.00078000006
0.015284824 0.0003175 -0.0070800004
-0.023930784 0.00095249998 -0.00015000005
-0.028253766 0 0.00047999996
0.023004431 0.0003175 -0.004245
0.038134862 0.0003175 0.001425
-0.031959176 0.00095249998 -0.002355
0.010961844 0.00127 -0.002355
0.0032422354 -0.00127 -0.00046500005
0.017755099 0 -0.0039300001
0.027636196 0 0.00016499995
-0.012505765 0 -0.0033000002
0.013432118 -0.00127 -0.002355
-0.0026246668 0 0.00111
0.020842941 0.00127 -0.0010950001
0.025165921 -0.0003175 -0.00015000005
0.033194315 -0.000635 -0.002355
0.032267962 0.00127 -0.0017250001
-0.027018627 -0.00095249998 -0.002355
-0.025165921 -0.00127 -0.0020400002
0.003859804 -0.00127 -0.00078000006
0.032576747 0.00127 -0.0017250001
0.015902393 -0.000635 -0.002355
0.021151725 -0.0003175 -0.002355
0.0035510196 -0.0003175 -0.002355
0.020534158 -0.0003175 0.002055
-0.0078739999 0 -0.0064500002
-0.01219698 0.00127 -0.002355
0.035664588 0.00095249998 -0.002355
0.01497604 0 -0.0026700001
0.022695648 0.00127 -0.00015000005
0.030415256 0.000635 -0.002355
-0.0050949412 -0.00127 -0.00078000006
-0.035664588 0.0003175 0.00047999996
-0.02794498 0 -0.0067650001
-0.024548354 0.00127 -0.00078000006
-0.0023158824 -0.0003175 -0.0026700001
0.030724039 -0.00127 -0.002355
0.012814549 0.0003175 -0.0036150001
0.02423957 0.00127 -0.0010950001
0.019299019 0.000635 -0.002355
-0.012505765 -0.00127 -0.002355
-0.011270627 -0.00127 -0.002355
0.016828746 -0.00095249998 -0.002355
-0.038443647 -0.00127 -0.0010950001
0.026092274 0.000635 -0.002355
-0.035664588 0.0003175 0.00079499994
-0.018372666 -0.0003175 -0.00015000005
-0.0026246668 -0.0003175 -0.00771
-0.020225372 0.0003175 -0.0039300001
-0.02856255 -0.00127 -0.0020400002
0.034120668 0.000635 -0.00015000005
-0.017137529 0.00127 -0.0017250001
-0.0016983137 0.000635 -0.00046500005
0.014358471 -0.0003175 -0.00015000005
-0.030415256 0.0003175 -0.0070800004
-0.018372666 0.00127 -0.0020400002
-0.038752433 0.00095249998 -0.00046500005
0.020225372 0.0003175 -0.0048750001
-0.00046317649 0.00127 -0.0010950001
0.038134862 0.0003175 -0.0061350004
0.017446315 0.00127 -0.00015000005
-0.00015439215 0.0003175 -0.00015000005
0.026709843 0.0003175 -0.00015000005
0.0016983137 0.00127 -0.00046500005
0.003859804 0.00127 -0.0017250001
0.037517294 -0.00095249998 -0.0017250001
-0.020842941 -0.00127 -0.0017250001
0.0044773724 0.00127 -0.0010950001
-0.038443647 0.0003175 -0.002355
0.004786157 -0.00127 -0.00141
-0.0078739999 0.0003175 -0.004245
0.0026246668 0.0003175 -0.0058200001
-0.020225372 -0.0003175 0.00079499994
0.024548354 0.00127 -0.002355
-0.029488903 0.000635 -0.00015000005
0.025165921 0 0.00016499995
0.034429453 -0.0003175 -0.00015000005
0.014667255 -0.0003175 -0.00015000005
-0.0057125101 -0.000635 -0.00046500005
-0.0050949412 0 -0.0039300001
0.027018627 0.000635 -0.00046500005
0.0035510196 -0.00127 -0.00046500005
0.028253766 -0.00127 -0.00078000006
-0.00015439215 0 -0.0067650001
0.014049686 0.00127 -0.0020400002
-0.00015439215 0.0003175 -0.0048750001
0.02794498 0 -0.0045600003
-0.031959176 0 -0.002355
0.023313217 -0.00095249998 -0.00015000005
-0.020534158 0 0.0023699999
0.02856255 -0.00127 -0.0017250001
0.0026246668 0.00127 -0.0010950001
0.0078739999 -0.00127 -0.0010950001
-0.034429453 0.0003175 -0.00015000005
0.036590941 -0.00095249998 -0.00141
0.015284824 -0.00127 -0.0017250001
-0.023622001 -0.0003175 -0.002355
-0.02794498 0 -0.0039300001
-0.00046317649 0.0003175 -0.00015000005
-0.02578349 -0.0003175 -0.002355
-0.02640106 0.00127 -0.0010950001
-0.002933451 0.000635 -0.00046500005
-0.009726706 0.00127 -0.00141
-0.015284824 0.0003175 -0.0064500002
-0.00015439215 -0.000635 -0.002355
0.017755099 0.0003175 0.00047999996
0.033194315 0 -0.0039300001
0.0044773724 0.0003175 -0.002355
0.030415256 -0.0003175 0.00047999996
0.0057125101 0.00127 -0.00078000006
-0.019607805 0.00127 -0.002355
0.020225372 0 -0.0070800004
0.034120668 -0.00095249998 -0.002355
0.00015439215 -0.0003175 -0.0051899999
0.030415256 -0.00127 -0.00015000005
-0.0094179213 0 -0.00015000005
0.030415256 -0.0003175 -0.0045600003
-0.036282156 0.00095249998 -0.002355
0.0013895294 -0.000635 -0.002355
0.004786157 0.00127 -0.00046500005
-0.038443647 0 -0.00015000005
0.020225372 0 -0.0055050002
0.011888197 -0.00127 -0.0010950001
-0.0075652157 0.00095249998 -0.00015000005
0.026709843 0.000635 -0.00046500005
-0.034429453 0 -0.002355
-0.02578349 0.00127 -0.002355
0.020225372 0.0003175 0.00079499994
-0.028253766 0.00127 -0.0010950001
0.013123333 -0.00127 -0.002355
0.029180119 0.00127 -0.0017250001
-0.014667255 0.00127 -0.00078000006
0.030415256 0.00127 -0.00046500005
-0.012814549 0.0003175 -0.004245
0.030415256 0 -0.0061350004
0.022386864 0.00127 -0.0020400002
-0.029180119 0.00095249998 -0.002355
-0.033194315 0 -0.0026700001
0.0054037254 0.00127 -0.002355
-0.015902393 0.00127 -0.0010950001
-0.015284824 -0.00127 -0.00078000006
-0.0050949412 0 0.0023699999
0.036899727 -0.00095249998 -0.00141
-0.026092274 0.00127 -0.0020400002
-0.023004431 -0.0003175 -0.0064500002
0.013740902 -0.000635 -0.002355
0.023004431 0.0003175 -0.0070800004
-0.030724039 0 0.00111
0.030106472 0.00127 -0.0020400002
-0.035664588 0.00127 -0.0010950001
0.01497604 -0.00127 -0.00046500005
-0.020225372 -0.000635 -0.002355
-0.0078739999 0.00127 -0.0010950001
0.025165921 0.00095249998 -0.002355
-0.0075652157 -0.0003175 0.001425
0.037208509 0.00127 -0.0010950001
0.012814549 0 -0.0070800004
-0.019299019 -0.000635 -0.00046500005
-0.0063300785 0.000635 -0.00046500005
-0.032576747 -0.0003175 -0.002355
0.010035491 -0.00127 -0.00078000006
0.028871333 0.00095249998 -0.002355
0.0050949412 0 0.002685
-0.0020070982 -0.00095249998 -0.002355
-0.0091091376 0.000635 -0.002355
-0.0032422354 0.00127 -0.0020400002
-0.037517294 0.00095249998 -0.002355
0.0075652157 -0.000635 -0.002355
0.00077196077 0.00127 -0.00046500005
0.025474707 0.00127 -0.0020400002
0.0050949412 0 -0.0045600003
-0.010035491 -0.000635 -0.002355
0.025474707 0.0003175 -0.0029850001
-0.036282156 -0.00127 -0.002355
