# .PCD v0.7 - Point Cloud Data file format
VERSION 0.7
FIELDS x y z
SIZE 4 4 4
TYPE F F F
COUNT 1 1 1
WIDTH 1211
HEIGHT 1
VIEWPOINT 0 0 0 1 0 0 0
POINTS 1211
DATA ascii
0.015627459 -0.00127 -0.0010222641
0.016574576 -0.00025400001 -0.0057543395
-0.021783728 0.00025400001 -0.0052811322
0.025335424 0.00127 -0.0019686793
0.00094711868 0.00025400001 0.0013437736
-0.012312543 -0.0010160001 -0.0024418868
-0.026992882 -2.1684043e-19 -7.5849057e-05
0.01397 -0.00025400001 0.00087056606
0.011602203 -0.00025400001 -0.0055177361
0.011128644 -0.00127 -0.00054905663
-0.014917118 0.00050800003 -0.0024418868
-0.0089976275 -0.00025400001 -0.0059909434
-0.001420678 -0.00025400001 0.0003973585
0.021310169 -2.1684043e-19 -0.0057543395
-0.018705593 -0.00127 -0.00031245282
0.0089976275 -2.1684043e-19 -0.0081203775
0.01397 -0.00025400001 -0.0074105659
-0.0073401695 -0.0010160001 -7.5849057e-05
-0.0087608472 0.00025400001 -0.0055177361
0.0087608472 0.00025400001 -0.0067007546
0.0033149153 -0.00127 -0.0024418868
-0.019415932 0.00127 -0.0010222641
0.0040252544 -0.00050800003 -0.00031245282
0.011602203 0.00025400001 0.0013437736
0.021546949 0.00127 -0.0010222641
0.00023677967 -0.00025400001 -0.0024418868
0.021546949 -0.00025400001 -0.0067007546
-0.0044988138 -0.00127 -0.00031245282
0.022020509 -2.1684043e-19 -0.0024418868
-0.015864238 0.00076199998 -0.00031245282
-0.016337797 0.00127 -7.5849057e-05
-0.001420678 -2.1684043e-19 -0.0050445283
0.0082872882 -0.00127 -0.0012588679
0.014917118 0.0010160001 -7.5849057e-05
0.0047355932 -0.00127 -0.0012588679
0.022257289 -0.00076199998 -7.5849057e-05
0.026282543 -0.00050800003 -0.00031245282
0.011365424 -0.00025400001 0.00016075472
-0.0011838983 0.00025400001 -0.0067007546
-0.0087608472 0.00025400001 0.0003973585
0.026756102 0.00127 -0.0012588679
-0.00094711868 -0.00025400001 -0.0057543395
0.0099447463 0.00127 -0.0019686793
0.01373322 -2.1684043e-19 -0.0043347171
-0.0052091526 0.00127 -0.0014954717
-0.0061562713 0.00127 -0.00031245282
-0.018705593 0.00127 -0.00054905663
-0.016574576 -0.00025400001 -0.0040981132
-0.024388306 0.00127 -0.0019686793
0.00047355934 -0.00127 -7.5849057e-05
-0.0016574577 -2.1684043e-19 -7.5849057e-05
0.022967627 -0.00127 -0.0014954717
-0.027939999 0.00025400001 -0.0010222641
-0.005682712 -0.00076199998 -0.0024418868
-0.026519323 -2.1684043e-19 -0.004571321
0.011838983 0.0010160001 -7.5849057e-05
-0.026756102 0.00127 -0.0022052829
0.0037884747 -0.00025400001 0.0015803773
-0.011128644 -2.1684043e-19 -0.008356981
0.0068666101 -2.1684043e-19 -7.5849057e-05
-0.0063930508 -0.00025400001 0.00063396228
0.010891864 0.0010160001 -7.5849057e-05
0.0082872882 0.00025400001 -0.0024418868
-0.0061562713 -0.00025400001 -7.5849057e-05
0.016574576 -0.00076199998 -7.5849057e-05
-0.011602203 -0.00025400001 0.0020535849
0.026282543 -0.00076199998 -0.0024418868
0.026045764 -0.00025400001 -7.5849057e-05
0.005445932 -0.00127 -0.00078566041
0.009234407 0.00127 -0.00031245282
-0.020363051 -0.00127 -0.00054905663
-0.017521694 -0.00076199998 -7.5849057e-05
0.026992882 -0.00127 -0.00054905663
-0.024151526 0.00025400001 -0.0059909434
-0.017048135 -0.00127 -0.0024418868
-0.024388306 -2.1684043e-19 -0.0036249056
-0.0099447463 0.00050800003 -0.00031245282
-0.016101018 0.0010160001 -7.5849057e-05
-0.01420678 -2.1684043e-19 0.0022901886
-0.020126272 0.00127 -0.00078566041
0.002841356 -2.1684043e-19 -0.0024418868
-0.0089976275 -0.0010160001 -0.0024418868
-0.023204407 0.00076199998 -0.0024418868
-0.01373322 0.00025400001 0.00087056606
0.013259661 0.00025400001 -7.5849057e-05
-0.00071033899 0.0010160001 -0.0024418868
0.016574576 0.00025400001 -0.0038615095
-0.0044988138 -0.00127 -0.0024418868
0.01373322 0.00025400001 0.0015803773
-0.011602203 -0.00025400001 -0.0048079244
-0.021783728 -2.1684043e-19 -0.0059909434
0.018705593 -0.00127 -0.0012588679
-0.01373322 -0.00025400001 0.0022901886
0.00023677967 -0.00127 -7.5849057e-05
0.001420678 -2.1684043e-19 -0.0048079244
0.00094711868 0.00025400001 0.00087056606
0.0044988138 0.00025400001 -7.5849057e-05
0.0033149153 -0.00127 -0.0019686793
0.0011838983 0.00025400001 0.0022901886
0.024151526 -0.00050800003 -0.0024418868
0.025808983 -0.00127 -0.0010222641
-0.017284915 0.00127 -7.5849057e-05
-0.021783728 -2.1684043e-19 -0.0067007546
-0.0040252544 0.00025400001 -0.0033883019
0.0037884747 0.00127 -0.00054905663
-0.022730848 -0.00127 -0.00054905663
-0.010418305 -0.00127 -0.00031245282
0.005682712 0.00127 -0.00054905663
-0.01420678 0.0010160001 -7.5849057e-05
0.023204407 -2.1684043e-19 -0.0022052829
0.020599831 -0.00127 -0.0024418868
0.020363051 0.00127 -0.0022052829
-0.001420678 -2.1684043e-19 0.00087056606
0.019179152 0.00025400001 -7.5849057e-05
-0.0071033901 0.00127 -0.0014954717
0.0040252544 -0.0010160001 -0.0024418868
0.016337797 -0.00025400001 0.0015803773
-0.021310169 -0.00127 -0.0010222641
0.019179152 -0.00025400001 0.0011071698
-0.0063930508 0.00127 -0.0010222641
0.024151526 -0.00025400001 0.0013437736
-0.019415932 -0.00025400001 -0.0024418868
0.021783728 0.00076199998 -0.0024418868
0.01397 0.00025400001 -0.0085935853
-0.0082872882 -0.00025400001 -0.0024418868
0.0037884747 0.00025400001 -0.0043347171
-0.016811356 0.00127 -0.00054905663
-0.001420678 0.00025400001 -0.0074105659
0.011602203 0.00025400001 0.0003973585
0.026519323 -0.00025400001 -0.0081203775
0.003551695 -2.1684043e-19 0.0020535849
0.016574576 -2.1684043e-19 0.0015803773
-0.021310169 -2.1684043e-19 0.0013437736
-0.0040252544 -0.00025400001 -0.0081203775
-0.02107339 0.00127 -0.0010222641
0.027939999 0.00025400001 -0.0022052829
0.015153899 0.00025400001 -7.5849057e-05
-0.010891864 0.00127 -0.0012588679
-0.026756102 -0.00025400001 0.0022901886
-0.018942373 0.00127 -7.5849057e-05
-0.0073401695 0.00127 -0.00054905663
0.0068666101 -0.00127 -0.0022052829
-0.023204407 0.00127 -0.0022052829
-0.018942373 -2.1684043e-19 0.0003973585
-0.016811356 -0.00050800003 -0.0024418868
0.015153899 -0.00127 -0.00054905663
0.017048135 -0.00127 -0.0012588679
-0.0042620338 -0.00076199998 -7.5849057e-05
-0.011128644 -2.1684043e-19 -0.0081203775
0.01373322 -0.00127 -0.0017320755
-0.0089976275 0.00025400001 -0.0043347171
0.0059194914 0.00127 -0.00031245282
0.016337797 -2.1684043e-19 0.0003973585
0.022257289 0.00127 -0.00031245282
-0.017048135 -0.00127 -0.0014954717
-0.0037884747 -0.00050800003 -0.0026784905
-0.011365424 0.00025400001 0.00087056606
0.014917118 -0.00076199998 -0.0024418868
-0.016574576 -0.00025400001 -0.0088301888
-0.018942373 0.00025400001 -0.0081203775
0.024388306 -2.1684043e-19 -0.0076471698
-0.011128644 -2.1684043e-19 -0.0067007546
0.017995255 -0.00076199998 -0.0024418868
0.019179152 -2.1684043e-19 0.0018169811
-0.0089976275 -0.00025400001 -0.0052811322
-0.013259661 0.00127 -0.0014954717
0.005445932 -0.00025400001 -0.0024418868
0.016574576 0.00025400001 0.0003973585
-0.017048135 -0.0010160001 -7.5849057e-05
-0.018942373 -0.00025400001 0.0020535849
0.024151526 0.00025400001 0.0018169811
-0.01373322 -0.00127 -0.0010222641
-0.0078137293 -0.00127 -0.0010222641
-0.023914747 0.00127 -0.0017320755
0.010655085 -0.00025400001 -0.0024418868
0.01444356 -0.00127 -0.0012588679
0.010418305 -0.00127 -0.0017320755
-0.011602203 -0.00025400001 -0.0064641507
0.0030781357 -0.00127 -0.0024418868
0.022020509 0.00127 -0.0019686793
0.011365424 -0.00025400001 0.0020535849
0.01373322 -2.1684043e-19 0.0015803773
0.021546949 0.00050800003 -0.0024418868
0.017521694 0.00076199998 -0.00031245282
-0.019652711 -0.00127 -0.00031245282
-0.018232035 0.0010160001 -7.5849057e-05
0.0021310169 -0.0010160001 -0.0024418868
0.0089976275 -2.1684043e-19 0.0013437736
0.01420678 -2.1684043e-19 0.0018169811
-0.025335424 -0.00127 -0.0022052829
-0.021783728 -2.1684043e-19 -0.0036249056
-0.0089976275 -2.1684043e-19 -0.0033883019
-0.0066298307 0.0010160001 -7.5849057e-05
0.01397 -0.00025400001 -0.003151698
-0.026282543 -0.00127 -0.0017320755
0.025808983 -0.00076199998 -0.00031245282
-0.0030781357 0.00076199998 -0.00031245282
0.017048135 0.00127 -0.00031245282
-0.025808983 -0.00127 -0.0012588679
0.023914747 -2.1684043e-19 -0.0069373585
0.003551695 0.00025400001 -0.008356981
-0.022494068 -2.1684043e-19 -7.5849057e-05
-0.021783728 0.00025400001 -0.0062275473
-0.0078137293 0.00127 -0.0010222641
-0.02107339 -0.00050800003 -0.0022052829
0.0040252544 0.00025400001 -0.0052811322
0.012549322 -0.00076199998 -0.0024418868
0.0061562713 -2.1684043e-19 0.0018169811
0.021783728 -2.1684043e-19 -0.0029150944
-0.019889493 0.00025400001 -0.0022052829
-0.010655085 -0.00127 -0.0019686793
-0.014680339 -2.1684043e-19 -0.0024418868
0.0026045763 -0.00127 -0.0019686793
-0.0037884747 -0.0010160001 -0.0024418868
-0.011365424 0.00025400001 -0.0071739624
-0.019889493 -2.1684043e-19 -0.0024418868
-0.015627459 0.00127 -0.0017320755
0.003551695 -2.1684043e-19 -0.0074105659
-0.012786102 0.0010160001 -7.5849057e-05
-0.011602203 0.00025400001 -0.0085935853
-0.01397 0.00025400001 -0.0033883019
-0.0068666101 -0.00025400001 -0.0024418868
0.019889493 0.00076199998 -0.0024418868
0.011128644 0.00127 -0.0012588679
0.0011838983 -0.00127 -0.0019686793
0.011365424 0.00127 -0.0024418868
-0.021310169 -0.00127 -0.00031245282
-0.022020509 -0.00127 -0.0010222641
-0.0049723731 -0.00127 -0.0019686793
-0.002841356 -0.00127 -7.5849057e-05
0.0037884747 -0.00025400001 -0.0069373585
-0.011128644 -2.1684043e-19 -0.0036249056
-0.0061562713 -0.00127 -0.00078566041
0.0040252544 -2.1684043e-19 -0.0074105659
0.024861865 -0.0010160001 -0.0022052829
0.015390678 0.0010160001 -0.0024418868
-0.0052091526 -0.00127 -0.0010222641
-0.003551695 -0.00127 -0.0022052829
0.0089976275 -0.00127 -0.0019686793
0.015153899 -0.00127 -0.00031245282
0.016101018 -0.00127 -0.0010222641
0.0037884747 -0.00025400001 0.00087056606
-0.0073401695 0.00050800003 -0.00031245282
0.013259661 -2.1684043e-19 -7.5849057e-05
0.021310169 0.00127 -0.00054905663
-0.026756102 -2.1684043e-19 -0.0088301888
-0.023677966 -0.00050800003 -0.00031245282
0.025098644 -0.00127 -0.00078566041
0.0078137293 0.00025400001 -0.0024418868
0.0033149153 0.00050800003 -0.0024418868
-0.002841356 -0.00127 -0.0017320755
0.017995255 0.00127 -0.0022052829
0.0068666101 0.00076199998 -0.00031245282
0.0037884747 -0.00025400001 -0.0071739624
-0.0089976275 -0.00025400001 -0.0085935853
0.016811356 0.00127 -7.5849057e-05
-0.0026045763 0.00127 -0.00054905663
-0.012075763 0.00025400001 -7.5849057e-05
-0.0089976275 0.00025400001 0.00016075472
0.015864238 0.00025400001 -0.0024418868
0.010655085 0.00127 -0.00078566041
-0.023914747 -0.00025400001 0.0013437736
-0.026519323 -2.1684043e-19 -0.0043347171
-0.019179152 -0.00025400001 -7.5849057e-05
-0.017048135 -0.00127 -0.0022052829
-0.027939999 -0.00025400001 -0.00078566041
0.00047355934 -2.1684043e-19 -7.5849057e-05
0.016337797 -0.00025400001 -0.0048079244
0.025335424 0.0010160001 -0.0024418868
0.003551695 0.00127 -0.0019686793
0.022020509 0.00127 -0.0024418868
-0.02770322 -0.00050800003 -0.00031245282
-0.0040252544 -0.00025400001 -0.0050445283
0.018705593 0.00127 -0.00054905663
0.017284915 -0.00127 -7.5849057e-05
0.0066298307 -2.1684043e-19 -0.0029150944
-0.0037884747 0.00025400001 0.00016075472
-0.01373322 -0.00127 -0.0012588679
0.018468814 0.00127 -0.00031245282
0.010891864 0.00025400001 -0.0024418868
0.014680339 -0.00076199998 -7.5849057e-05
0.019179152 -2.1684043e-19 -0.0088301888
0.02107339 -0.0010160001 -0.0024418868
-0.011602203 0.00025400001 0.0013437736
-0.003551695 -2.1684043e-19 -0.0040981132
-0.021310169 -0.00050800003 -0.0022052829
0.0047355932 -0.00127 -0.00031245282
-0.021310169 -2.1684043e-19 0.00063396228
0.021783728 -0.00127 -0.00078566041
0.024388306 0.00050800003 -0.0024418868
0.0040252544 0.00025400001 -0.0033883019
-0.00071033899 0.00127 -0.0012588679
0.019179152 0.00127 -0.0012588679
0.023914747 -2.1684043e-19 0.0022901886
-0.0099447463 -0.00127 -0.0022052829
0.023914747 -0.00025400001 0.0020535849
-0.011128644 0.00127 -7.5849057e-05
0.005445932 -0.00127 -7.5849057e-05
-0.009234407 -0.00127 -0.0019686793
-0.026756102 -0.00025400001 -0.0088301888
-0.0049723731 -0.00050800003 -0.0024418868
0.0018942374 0.00127 -0.0024418868
-0.02083661 -0.00025400001 -7.5849057e-05
0.016337797 -0.00025400001 -0.008356981
0.0023677966 -0.00127 -0.0019686793
0.001420678 0.00127 -0.0010222641
0.016337797 -2.1684043e-19 -0.0050445283
-0.0040252544 -0.00025400001 0.00063396228
0.025572203 0.00127 -0.0012588679
0.0089976275 -2.1684043e-19 -0.0064641507
-0.011602203 -0.00025400001 0.0022901886
0.001420678 0.00025400001 0.0020535849
-0.010655085 0.00050800003 -0.00031245282
0.016337797 -2.1684043e-19 -0.0067007546
-0.020126272 0.00127 -0.00054905663
-0.0047355932 0.00127 -0.00078566041
-0.023441186 -0.00127 -0.0010222641
0.0066298307 -0.00127 -0.00078566041
0.026756102 -0.00025400001 -0.0062275473
-0.016574576 -0.00025400001 -0.0038615095
0.024388306 0.00127 -7.5849057e-05
-0.025335424 0.00076199998 -0.0022052829
0.022494068 0.00025400001 -0.0022052829
-0.016337797 0.0010160001 -0.0024418868
0.0061562713 0.00025400001 -0.0071739624
0.0037884747 0.00025400001 -0.003151698
0.0040252544 -2.1684043e-19 -0.0055177361
0.00071033899 0.00127 -7.5849057e-05
-0.001420678 0.00025400001 -0.0059909434
-0.00094711868 0.00050800003 -0.00031245282
-0.013022882 -0.00127 -0.0010222641
0.001420678 0.00025400001 -0.0076471698
-0.026992882 0.00127 -0.0022052829
-0.013496441 0.0010160001 -0.0024418868
0.00071033899 -0.00127 -0.00078566041
-0.0037884747 0.00025400001 -0.0074105659
0.01397 -0.0010160001 -7.5849057e-05
-0.00023677967 -0.0010160001 -0.0024418868
-0.0011838983 0.00025400001 -0.0059909434
0.001420678 -2.1684043e-19 0.0015803773
0.016337797 -2.1684043e-19 -0.0059909434
0.016337797 0.00025400001 -0.0029150944
0.024151526 -2.1684043e-19 0.0025267925
0.024151526 0.00025400001 0.0011071698
0.026519323 -0.00025400001 -0.0078837732
0.021783728 -2.1684043e-19 0.00016075472
0.001420678 -0.00025400001 -0.0081203775
0.0080505088 -0.00127 -0.0019686793
0.0042620338 -0.0010160001 -0.0024418868
-0.005682712 -0.0010160001 -0.0024418868
-0.027229661 -0.0010160001 -0.0024418868
0.025098644 -0.00127 -0.0022052829
-0.021783728 0.00025400001 -0.0071739624
0.01420678 -2.1684043e-19 -0.0026784905
0.023441186 0.00127 -0.0014954717
-0.001420678 -2.1684043e-19 -0.0081203775
0.011365424 -0.00025400001 0.0025267925
-0.010418305 0.00050800003 -0.0024418868
0.0087608472 0.00025400001 -0.0036249056
-0.021783728 -0.00127 -0.00031245282
0.024625085 0.00127 -0.00054905663
0.014917118 0.00050800003 -0.00031245282
0.011128644 -0.0010160001 -7.5849057e-05
0.0044988138 -0.00025400001 -7.5849057e-05
0.00094711868 -2.1684043e-19 -0.0064641507
-0.002841356 -0.0010160001 -0.0024418868
0.026519323 -0.00025400001 0.0003973585
-0.0052091526 -0.00025400001 -0.0024418868
0.025572203 -2.1684043e-19 -0.00031245282
-0.014680339 0.00127 -7.5849057e-05
-0.01420678 -0.00127 -0.0012588679
0.019652711 -0.00050800003 -0.00031245282
0.021310169 -2.1684043e-19 -0.0055177361
0.021310169 -2.1684043e-19 -0.0074105659
0.023441186 -0.00127 -0.00031245282
0.026756102 -0.00025400001 0.0018169811
-0.022257289 0.0010160001 -7.5849057e-05
-0.01397 0.00025400001 -0.0085935853
0.0089976275 -2.1684043e-19 -0.0052811322
0.022020509 0.00127 -7.5849057e-05
0.010181526 -0.00127 -0.0010222641
0.02083661 0.00127 -0.0019686793
0.024861865 -0.00127 -0.00078566041
0.0037884747 -0.00025400001 -0.0076471698
0.003551695 -0.00025400001 0.0022901886
0.01397 0.00025400001 -0.0033883019
0.025808983 -0.0010160001 -0.0022052829
-0.0087608472 -0.00025400001 -0.0038615095
0.026756102 0.00025400001 -0.0064641507
0.01420678 -2.1684043e-19 -0.0038615095
0.0075769494 0.00127 -0.0022052829
0.022494068 -0.0010160001 -7.5849057e-05
0.0040252544 -0.00025400001 0.0020535849
0.00094711868 0.00127 -0.0022052829
-0.0052091526 0.00127 -0.0024418868
-0.0011838983 0.00127 -0.0022052829
-0.018232035 -0.00127 -0.0014954717
0.00094711868 -0.00127 -0.0024418868
-0.00023677967 -0.00127 -0.0012588679
-0.003551695 -0.00025400001 -0.0067007546
0.024151526 -0.00025400001 -0.0081203775
-0.021310169 -2.1684043e-19 -0.0033883019
-0.0026045763 -2.1684043e-19 -7.5849057e-05
-0.011128644 -0.00127 -0.0010222641
-0.0066298307 -2.1684043e-19 -0.0050445283
-0.021783728 -0.00050800003 -0.0024418868
-0.016574576 -0.00025400001 -0.0048079244
-0.025098644 0.00127 -0.0012588679
-0.0071033901 -0.00127 -0.0024418868
-0.0099447463 -0.00025400001 -0.0024418868
-0.016811356 0.00025400001 -0.0024418868
0.020126272 -0.00127 -0.00078566041
-0.018705593 0.00127 -0.00078566041
-0.019179152 0.00025400001 -0.0074105659
0.026756102 -0.00025400001 -0.0085935853
-0.026519323 0.00025400001 -0.0026784905
0.018942373 0.00025400001 -0.0052811322
0.014680339 -2.1684043e-19 -7.5849057e-05
-0.024388306 -2.1684043e-19 0.00016075472
0.027466441 -0.00076199998 -0.0022052829
-0.0040252544 -2.1684043e-19 -0.0074105659
0.0040252544 -0.00025400001 0.0011071698
-0.026519323 0.00025400001 -0.0033883019
-0.024625085 0.00127 -0.00054905663
-0.022257289 -0.00127 -0.0012588679
0.0089976275 0.00025400001 0.00087056606
0.013259661 -0.00127 -0.0012588679
-0.013259661 -0.00127 -0.00054905663
0.0094711864 0.00127 -0.00078566041
0.018468814 -0.00127 -0.00031245282
-0.02107339 0.00076199998 -0.0024418868
-0.0082872882 -0.00050800003 -0.00031245282
-0.0066298307 0.00076199998 -0.0024418868
-0.0094711864 0.0010160001 -0.0024418868
-0.010891864 -0.00127 -0.00054905663
0.015390678 0.00127 -0.00031245282
0.017048135 0.00025400001 -0.0024418868
0.0075769494 -0.00025400001 -7.5849057e-05
0.0059194914 0.00127 -0.0022052829
-0.0073401695 0.00127 -0.0019686793
0.016337797 -0.00025400001 -0.0067007546
-0.013259661 -0.00025400001 -7.5849057e-05
-0.0089976275 -0.00025400001 -0.0081203775
0.024388306 0.00025400001 0.0020535849
-0.017521694 -0.00127 -0.0024418868
0.017995255 0.00127 -0.00031245282
0.021546949 0.00025400001 -0.0059909434
-0.014917118 -0.00127 -0.0022052829
0.0071033901 -0.00127 -0.00054905663
0.0080505088 0.00025400001 -0.0024418868
-0.0061562713 -0.00025400001 0.00087056606
0.0094711864 -0.00127 -0.00054905663
0.021783728 0.00025400001 0.0020535849
-0.0042620338 -0.00050800003 -0.0024418868
0.0047355932 -0.00127 -0.00054905663
-0.0087608472 0.00025400001 -0.0069373585
0.023914747 -0.00025400001 -0.0036249056
0.012549322 0.00127 -0.00078566041
-0.019179152 -2.1684043e-19 -0.0078837732
-0.019179152 -2.1684043e-19 -0.0040981132
0.0018942374 0.00127 -0.0014954717
-0.011365424 0.00127 -0.00031245282
-0.0063930508 -0.00025400001 -0.0036249056
-0.0066298307 -0.00025400001 -0.0071739624
0.019652711 0.00127 -0.0017320755
0.0049723731 -0.00127 -0.0012588679
0.0082872882 -2.1684043e-19 -0.0024418868
-0.0066298307 -0.00025400001 0.00016075472
0.019179152 -2.1684043e-19 -0.0076471698
0.023914747 -0.00025400001 -7.5849057e-05
0.0075769494 0.00076199998 -0.0024418868
0.026756102 -0.00025400001 0.00063396228
-0.0037884747 0.00025400001 -0.0036249056
0.024151526 0.00025400001 -0.0081203775
-0.010181526 -0.00050800003 -0.00031245282
0.0089976275 0.00127 -0.0017320755
-0.026756102 -2.1684043e-19 0.0011071698
0.012075763 0.00050800003 -0.00031245282
0.021783728 -0.00025400001 0.0013437736
0.016337797 0.00127 -0.00054905663
-0.019179152 -2.1684043e-19 -0.0074105659
0.02107339 -0.00127 -7.5849057e-05
0.016101018 -0.00025400001 -7.5849057e-05
0.010418305 -0.00127 -0.00031245282
-0.005445932 0.00127 -0.0010222641
-0.026519323 -2.1684043e-19 -0.0088301888
0.015390678 0.00127 -0.0012588679
0.0066298307 0.00025400001 -0.0074105659
0.0078137293 -0.00050800003 -0.0024418868
0.016337797 -0.00025400001 -0.0052811322
0.024861865 -0.00076199998 -0.00031245282
0.019179152 0.00025400001 -0.0069373585
-0.016574576 -0.00127 -7.5849057e-05
0.024388306 0.00076199998 -0.0024418868
-0.019415932 0.00025400001 -7.5849057e-05
0.014917118 0.00127 -0.0010222641
0.016337797 -0.00025400001 0.0011071698
0.0089976275 0.00076199998 -0.00031245282
0.0066298307 -2.1684043e-19 -0.0036249056
-0.019415932 -0.00076199998 -7.5849057e-05
-0.024151526 -0.00127 -0.00031245282
-0.021310169 -2.1684043e-19 -0.003151698
0.024388306 -2.1684043e-19 -0.0038615095
0.024625085 -0.00076199998 -0.00031245282
0.001420678 0.00025400001 -0.0048079244
0.01397 0.00025400001 -0.0050445283
0.022967627 -2.1684043e-19 -7.5849057e-05
-0.0026045763 -0.0010160001 -0.0024418868
0.020363051 0.00050800003 -0.0024418868
0.01420678 -2.1684043e-19 0.0020535849
-0.01397 -0.00127 -0.0017320755
0.01397 -0.00025400001 -0.0048079244
-0.022730848 -0.00127 -0.00031245282
-0.016574576 0.00127 -0.0012588679
-0.0037884747 0.00127 -0.00078566041
-0.0030781357 -0.00050800003 -0.00031245282
-0.02107339 0.00127 -0.0024418868
-0.018942373 -2.1684043e-19 -0.0048079244
0.003551695 0.00025400001 -0.0057543395
0.003551695 0.00025400001 -0.0085935853
-0.0061562713 -0.00127 -0.0024418868
-0.014680339 0.00127 -0.0019686793
0.021546949 0.00025400001 -0.0085935853
-0.026756102 -2.1684043e-19 -0.0081203775
0.0099447463 0.00127 -7.5849057e-05
-0.018942373 -0.00025400001 -0.0026784905
-0.026519323 -0.00025400001 -0.0052811322
0.017758476 0.0010160001 -7.5849057e-05
-0.01420678 -2.1684043e-19 -0.0050445283
-0.0075769494 -0.00076199998 -0.0024418868
-0.010655085 0.00127 -0.0012588679
0.0061562713 -0.00076199998 -0.0024418868
-0.0042620338 0.00127 -0.00031245282
0.024151526 -0.00025400001 -0.0029150944
0.025808983 -0.00127 -0.00078566041
0.015390678 -0.00127 -0.0019686793
-0.021546949 0.00025400001 -0.0074105659
-0.0087608472 0.00127 -0.0024418868
-0.027229661 -0.00127 -0.00031245282
-0.011602203 0.00025400001 -0.0048079244
0.026992882 -2.1684043e-19 -0.0026784905
0.003551695 -0.0010160001 -0.0024418868
0.0089976275 -0.00127 -0.00078566041
-0.0040252544 -0.00127 -0.0017320755
0.025335424 -0.0010160001 -7.5849057e-05
0.015153899 -0.00076199998 -7.5849057e-05
-0.015864238 0.00076199998 -0.0024418868
-0.0087608472 0.00025400001 0.00016075472
-0.003551695 -0.00025400001 -0.008356981
0.0089976275 -0.00127 -0.0012588679
-0.005445932 -0.00127 -0.0014954717
-0.0085240677 -0.00050800003 -0.0024418868
-0.0011838983 0.00025400001 0.00063396228
0 -0.0010160001 -7.5849057e-05
0.001420678 -0.00127 -0.0017320755
0.0049723731 -0.00127 -0.0022052829
0.026992882 -2.1684043e-19 -7.5849057e-05
0.0011838983 0.00127 -0.0017320755
-0.026519323 -0.00025400001 -0.004571321
0.025098644 -0.00127 -0.0012588679
0.010891864 0.00127 -0.0019686793
0.021310169 -0.00127 -0.0019686793
0.021546949 0.00025400001 -0.0055177361
-0.0078137293 -0.00127 -0.00078566041
-0.021783728 -0.00127 -0.0024418868
0.0049723731 0.00127 -0.00078566041
0.010418305 -0.0010160001 -7.5849057e-05
0.003551695 0.00076199998 -0.0024418868
0.017521694 -0.00076199998 -7.5849057e-05
0.0044988138 0.00050800003 -0.0024418868
-0.024388306 -2.1684043e-19 -0.0055177361
-0.010655085 -0.00127 -0.00054905663
-0.0075769494 -0.00127 -0.00031245282
-0.021783728 -2.1684043e-19 -0.0071739624
0.0040252544 -0.00127 -0.00054905663
0.018942373 0.00127 -0.0022052829
0.003551695 -2.1684043e-19 -0.0078837732
0.023677966 -0.00127 -0.0012588679
-0.01373322 -2.1684043e-19 -0.0052811322
0.022494068 -0.00025400001 -7.5849057e-05
-0.027229661 0.00127 -0.0022052829
0.01373322 0.00025400001 0.00063396228
0.0063930508 0.00127 -0.0017320755
-0.024388306 0.00076199998 -0.00031245282
-0.025572203 0.00025400001 -0.0022052829
-0.0011838983 0.00050800003 -0.00031245282
0.01397 -0.00025400001 0.0003973585
0.01373322 -2.1684043e-19 -0.0050445283
-0.018232035 -0.00127 -7.5849057e-05
0.025808983 0.00127 -0.0017320755
-0.026519323 -0.00025400001 -0.0043347171
0.00047355934 0.00050800003 -0.00031245282
-0.016337797 -0.00025400001 -0.0050445283
0.0061562713 -0.00025400001 -0.0029150944
0.02107339 -2.1684043e-19 -0.0024418868
0.0044988138 0.00050800003 -0.00031245282
-0.0040252544 -2.1684043e-19 -0.0081203775
0.0087608472 -2.1684043e-19 0.00063396228
0.0068666101 -0.00127 -0.0010222641
0.01420678 -0.00025400001 0.0011071698
-0.00023677967 -0.00127 -0.0019686793
-0.016337797 -2.1684043e-19 -0.0036249056
0.0030781357 -0.00127 -0.00054905663
-0.026756102 0.00025400001 -0.0078837732
0.019179152 -2.1684043e-19 -0.0033883019
0.019415932 0.00076199998 -0.0024418868
0.025335424 -0.00127 -0.0014954717
-0.025808983 0.00127 -0.0019686793
-0.011365424 -0.00025400001 -0.0026784905
-0.0061562713 0.00127 -0.0014954717
-0.0071033901 0.00025400001 -0.0024418868
0.015390678 0.00076199998 -0.00031245282
0.0071033901 -2.1684043e-19 -0.0024418868
-0.022020509 -0.00127 -0.0022052829
-0.025808983 -0.00025400001 -0.0022052829
-0.003551695 -0.00025400001 -0.0043347171
-0.027229661 -0.00127 -0.0017320755
-0.021546949 -0.00025400001 0.0011071698
-0.022967627 -0.00127 -0.00078566041
0.0080505088 0.00127 -7.5849057e-05
-0.00094711868 -0.00050800003 -0.0024418868
-0.016337797 -0.00025400001 -0.0043347171
0.021546949 0.00025400001 -0.0064641507
-0.011838983 0.00076199998 -0.00031245282
-0.016811356 -2.1684043e-19 -0.0081203775
0.011365424 -2.1684043e-19 0.0027633961
0.021310169 -0.00025400001 -0.0076471698
0.0089976275 -0.00025400001 -0.0078837732
-0.017995255 -2.1684043e-19 -7.5849057e-05
-0.025572203 -0.00050800003 -0.0022052829
0.0087608472 -2.1684043e-19 -0.0074105659
-0.026992882 0.00127 -0.0019686793
0.026519323 -2.1684043e-19 -0.0050445283
0.016574576 -0.00025400001 -0.0038615095
-0.014680339 -0.0010160001 -7.5849057e-05
-0.016337797 -0.00025400001 0.0020535849
-0.026519323 -2.1684043e-19 -0.0036249056
0.027466441 -0.0010160001 -0.0017320755
-0.02107339 0.00050800003 -0.0024418868
0.003551695 -2.1684043e-19 -0.008356981
-0.024151526 0.00025400001 -0.0067007546
-0.026756102 -2.1684043e-19 -0.0026784905
-0.015153899 -0.00050800003 -0.00031245282
-0.01444356 -0.00127 -0.0019686793
0.0068666101 0.00076199998 -0.0024418868
-0.011128644 -0.00127 -0.00031245282
-0.015153899 -0.0010160001 -0.0024418868
0.025572203 0.00127 -0.00054905663
-0.021546949 -2.1684043e-19 0.0025267925
0.01397 -0.00127 -0.0022052829
-0.0052091526 -0.00127 -0.0014954717
0.019415932 0.00127 -0.0014954717
0.019415932 0.00127 -0.0017320755
0.019889493 0.00050800003 -0.0024418868
0.0018942374 -0.00127 -0.0014954717
0.001420678 -0.00025400001 0.0013437736
-0.011602203 -0.00025400001 -7.5849057e-05
0.012075763 0.00127 -0.0024418868
0.01397 -0.00025400001 -0.0057543395
0.01373322 0.00127 -0.0024418868
-0.026756102 0.00025400001 -0.0050445283
0.00023677967 -2.1684043e-19 -0.0024418868
0.011365424 -0.00127 -0.00031245282
0.01397 0.00127 -0.0022052829
0.00094711868 -0.0010160001 -7.5849057e-05
0.017995255 0.00025400001 -0.0024418868
-0.001420678 0.00025400001 -0.0062275473
-0.018468814 -0.00127 -0.00054905663
0.00047355934 -0.00050800003 -0.00031245282
-0.023441186 0.00127 -0.0019686793
0.022257289 -0.00127 -0.0019686793
0.023204407 -0.00127 -7.5849057e-05
0.002841356 0.00025400001 -0.0024418868
0.0059194914 -0.0010160001 -7.5849057e-05
0.0061562713 0.00025400001 -0.008356981
0.0066298307 0.00025400001 -0.0059909434
0.012549322 0.00127 -0.0024418868
-0.003551695 -0.00025400001 -0.0040981132
-0.013022882 -2.1684043e-19 -0.0024418868
0.026756102 0.00127 -0.00054905663
-0.022020509 0.00076199998 -0.0022052829
0.021310169 -0.00127 -0.00054905663
-0.001420678 -2.1684043e-19 -0.0040981132
-0.01373322 -2.1684043e-19 -0.0069373585
-0.0030781357 0.0010160001 -0.0024418868
0.012786102 0.00050800003 -0.0024418868
0.017521694 0.00025400001 -0.0024418868
-0.01373322 0.00127 -0.00054905663
-0.013259661 0.00127 -0.0022052829
-0.024151526 -0.00127 -0.0010222641
-0.02083661 -0.00127 -0.0012588679
-0.001420678 -2.1684043e-19 -0.0057543395
-0.019179152 -2.1684043e-19 -0.0038615095
-0.010181526 -0.0010160001 -7.5849057e-05
-0.023914747 -2.1684043e-19 -0.0048079244
-0.01444356 0.00025400001 -0.0024418868
0.023914747 -0.00025400001 -0.0026784905
0.01444356 -0.00127 -0.00078566041
0.024388306 -2.1684043e-19 -0.0088301888
0.0099447463 -0.00127 -0.00031245282
0.0021310169 -2.1684043e-19 -7.5849057e-05
0.01397 -2.1684043e-19 0.0025267925
0.00094711868 0.00025400001 -0.0033883019
0.0040252544 -0.00025400001 0.0003973585
0.020126272 -0.00076199998 -0.0024418868
0.019415932 -0.00127 -0.00054905663
-0.0085240677 0.00025400001 -7.5849057e-05
0.026519323 -0.00127 -0.0012588679
0.022257289 0.00127 -0.0022052829
-0.011602203 -0.0010160001 -7.5849057e-05
0.0040252544 0.00025400001 0.0020535849
-0.0063930508 0.00050800003 -0.00031245282
0.01373322 -2.1684043e-19 0.0011071698
-0.011602203 0.00025400001 -0.0033883019
-0.003551695 0.0010160001 -7.5849057e-05
0.022967627 0.00127 -0.0019686793
-0.024388306 -2.1684043e-19 -0.0059909434
-0.0087608472 0.00025400001 -0.0029150944
0.0089976275 0.00025400001 0.0025267925
0.017758476 -0.00127 -0.0022052829
0.019179152 -2.1684043e-19 -0.0043347171
0.024151526 -0.00025400001 -0.0055177361
-0.0052091526 0.00025400001 -0.0024418868
-0.0089976275 -2.1684043e-19 -0.0048079244
0.0011838983 -0.00076199998 -7.5849057e-05
-0.022494068 0.00025400001 -7.5849057e-05
-0.003551695 -0.00127 -0.0010222641
0.0037884747 0.00127 -0.0024418868
0.019179152 0.00025400001 -0.0088301888
0.012312543 -0.00076199998 -0.0024418868
-0.0011838983 -0.00025400001 -0.008356981
0.0040252544 0.00025400001 0.0015803773
-0.018705593 -0.00076199998 -0.0022052829
-0.014917118 -2.1684043e-19 -7.5849057e-05
0.011838983 -2.1684043e-19 -7.5849057e-05
0.022967627 0.0010160001 -0.0024418868
-0.0063930508 -0.00025400001 -0.0029150944
-0.011365424 -0.00025400001 0.00087056606
-0.017048135 0.00127 -7.5849057e-05
0.012549322 0.00127 -0.0017320755
0.02770322 0.0010160001 -0.00054905663
-0.024388306 -0.00025400001 0.00087056606
0.021546949 0.00025400001 0.0015803773
0.018232035 0.00127 -0.0012588679
-0.01420678 -0.00025400001 0.0011071698
0.021783728 0.00025400001 -0.0055177361
0.016811356 0.00076199998 -0.0024418868
-0.0021310169 0.00025400001 -7.5849057e-05
0.023914747 -2.1684043e-19 -0.0078837732
-0.0078137293 0.00025400001 -0.0024418868
-0.021546949 -0.00025400001 -0.0076471698
0.003551695 -2.1684043e-19 -0.0059909434
0.0040252544 -0.00127 -0.0017320755
-0.02083661 -0.00127 -0.00031245282
0.01373322 -2.1684043e-19 -0.0029150944
-0.026519323 -0.00025400001 -0.0050445283
-0.016101018 -0.00127 -7.5849057e-05
-0.0061562713 -0.00025400001 -0.0062275473
-0.021310169 0.00025400001 0.0013437736
-0.0026045763 0.00127 -0.0017320755
-0.0023677966 0.00076199998 -0.0024418868
-0.00094711868 -0.00025400001 -0.0026784905
0.016337797 0.00025400001 -0.0059909434
0.0068666101 -0.0010160001 -7.5849057e-05
0.001420678 0.00127 -0.0014954717
0.0018942374 -0.00127 -0.00031245282
-0.024151526 -0.00025400001 -0.0026784905
0.0087608472 0.00025400001 -0.0059909434
-0.014917118 0.00127 -0.0012588679
0.0044988138 -0.00127 -0.0017320755
0.0021310169 0.00127 -0.0010222641
0.026282543 0.00127 -0.00078566041
-0.0063930508 0.00127 -0.0019686793
-0.011365424 0.00025400001 0.0011071698
-0.015390678 -0.00127 -0.0014954717
-0.027939999 -0.00050800003 -0.0012588679
-0.0063930508 -2.1684043e-19 0.0025267925
0.022730848 0.0010160001 -0.0024418868
0.019179152 -2.1684043e-19 -0.0057543395
-0.018942373 0.00025400001 0.0020535849
0.0061562713 0.00025400001 -0.0029150944
0.0075769494 0.00025400001 -0.0024418868
-0.0059194914 -0.00025400001 -0.0024418868
0.026519323 -2.1684043e-19 -0.003151698
-0.015390678 -0.00050800003 -0.0024418868
-0.0089976275 0.00050800003 -0.0024418868
-0.027939999 0.00050800003 -0.00078566041
0.021783728 -2.1684043e-19 -0.0057543395
0.0099447463 -2.1684043e-19 -0.0024418868
-0.00094711868 -0.00025400001 0.0013437736
0.0087608472 0.00025400001 0.0011071698
-0.0066298307 -2.1684043e-19 -0.0057543395
0.021310169 -0.00025400001 0.0013437736
-0.0061562713 -0.00127 -0.00031245282
0.0085240677 0.0010160001 -0.0024418868
-0.001420678 0.00025400001 -0.0050445283
0.0061562713 0.00025400001 -0.0059909434
-0.0040252544 -2.1684043e-19 -0.0038615095
0.021310169 -0.00076199998 -7.5849057e-05
0.011128644 -2.1684043e-19 0.0020535849
-0.0026045763 0.00127 -0.0019686793
-0.024151526 -0.00127 -0.00078566041
0.0061562713 -0.00025400001 0.0011071698
-0.011365424 0.00050800003 -0.0024418868
-0.0061562713 -0.00025400001 -0.0067007546
0.018942373 -0.00127 -0.00031245282
-0.019179152 -0.00025400001 -0.0052811322
0.021783728 -0.00025400001 -0.0064641507
-0.026519323 -0.00025400001 -0.0040981132
0.020599831 0.00076199998 -0.00031245282
0.0037884747 0.00025400001 -0.0052811322
-0.013022882 0.00025400001 -0.0024418868
-0.019179152 -2.1684043e-19 -0.0055177361
0.010655085 -0.00127 -0.0014954717
-0.02083661 -0.00076199998 -0.0024418868
0.024151526 -0.00025400001 -0.003151698
0.0061562713 -0.00025400001 0.0013437736
-0.015864238 0.00127 -0.0014954717
-0.00094711868 -0.00025400001 -0.0029150944
-0.013259661 -0.00127 -7.5849057e-05
-0.016574576 0.00025400001 0.0015803773
0.0047355932 0.00127 -0.0017320755
0.0078137293 -0.00076199998 -7.5849057e-05
-0.026519323 -2.1684043e-19 0.0020535849
0.021783728 -0.00025400001 -0.0076471698
-0.016811356 -2.1684043e-19 0.00016075472
0.0021310169 0.00127 -7.5849057e-05
-0.011365424 0.00025400001 0.0020535849
0.026519323 -0.00025400001 -0.0069373585
0.01444356 0.00127 -0.00031245282
-0.0040252544 -2.1684043e-19 -0.0062275473
0.0075769494 0.0010160001 -7.5849057e-05
-0.021546949 0.00025400001 -0.008356981
0.025808983 0.00050800003 -0.00031245282
-0.0087608472 0.00025400001 0.0011071698
0.0061562713 -2.1684043e-19 -0.0038615095
-0.0026045763 -0.00025400001 -0.0024418868
0.026282543 0.00127 -0.0010222641
0.005445932 -0.00076199998 -7.5849057e-05
-0.018468814 -0.00025400001 -0.0024418868
-0.015390678 -0.00076199998 -7.5849057e-05
-0.0063930508 0.00025400001 0.0015803773
-0.016574576 -0.00025400001 -0.0064641507
-0.023914747 -2.1684043e-19 -0.0043347171
-0.0011838983 0.00127 -0.0012588679
0.0052091526 -0.00050800003 -0.00031245282
-0.00094711868 -0.00025400001 -0.0043347171
-0.023914747 -2.1684043e-19 -0.0064641507
0.027229661 -0.00127 -0.0017320755
0.021310169 0.00050800003 -0.00031245282
-0.0061562713 -0.00076199998 -0.0024418868
-0.0023677966 -0.00050800003 -0.00031245282
0.01397 -0.00025400001 -0.0067007546
-0.0066298307 -2.1684043e-19 -0.0071739624
0.017521694 0.00127 -0.0024418868
0.0066298307 0.00025400001 -0.0069373585
-0.016574576 0.00076199998 -0.00031245282
-0.024388306 0.00127 -0.0010222641
0.001420678 -0.00025400001 -0.0033883019
0.019179152 -2.1684043e-19 -0.0064641507
-0.0078137293 -0.00127 -0.0022052829
0.010655085 -0.00127 -0.0012588679
0.0068666101 -0.00076199998 -7.5849057e-05
0.01420678 -0.00025400001 -7.5849057e-05
0.0023677966 0.00127 -0.0010222641
-0.026756102 -0.00025400001 -0.0081203775
-0.018232035 -0.00025400001 -7.5849057e-05
0.025335424 0.00127 -0.0022052829
-0.011365424 -0.00025400001 -0.0085935853
0.0042620338 0.00127 -0.00031245282
-0.011602203 -0.00025400001 -0.0050445283
0.011838983 0.00050800003 -0.00031245282
0.024151526 0.00127 -0.0022052829
0.024388306 -0.00025400001 -0.0024418868
0.0087608472 -0.00025400001 -0.0057543395
-0.0087608472 -0.00025400001 -0.0088301888
0.012075763 0.00127 -0.00031245282
0.024861865 -2.1684043e-19 -0.00031245282
-0.0030781357 0.00127 -0.00054905663
0.0037884747 0.00127 -0.0019686793
-0.021783728 0.00127 -0.00031245282
-0.01373322 -0.00025400001 -0.0036249056
-0.0011838983 0.00025400001 -0.0043347171
-0.017048135 0.00076199998 -0.0022052829
-0.011128644 -0.00025400001 -0.0040981132
-0.00094711868 -0.00127 -0.0010222641
-0.018942373 -2.1684043e-19 0.00016075472
0.026756102 -0.00076199998 -0.0022052829
-0.0023677966 -0.00025400001 -7.5849057e-05
-0.021783728 0.00025400001 -0.0026784905
0.023677966 -0.0010160001 -0.0024418868
-0.013259661 0.00127 -0.0017320755
0.022967627 0.00050800003 -0.00031245282
-0.025808983 0.00127 -0.0022052829
0.010418305 -0.00025400001 -0.0024418868
0.0037884747 -0.00025400001 -0.0038615095
-0.026519323 0.00025400001 -0.0069373585
0.0026045763 -0.00050800003 -0.00031245282
0.020363051 -0.00127 -0.00031245282
-0.011365424 0.00025400001 -0.0057543395
-0.0018942374 0.00076199998 -0.00031245282
0.024388306 -0.0010160001 -0.0022052829
-0.016574576 0.00127 -7.5849057e-05
0.002841356 -0.0010160001 -7.5849057e-05
0.026756102 0.0010160001 -0.0022052829
0.025098644 0.00127 -0.0010222641
0.02083661 0.00076199998 -0.0024418868
0.0040252544 -0.00025400001 0.0015803773
-0.0075769494 -0.0010160001 -7.5849057e-05
-0.0099447463 0.00025400001 -7.5849057e-05
-0.019415932 0.00127 -0.0022052829
-0.025808983 -0.00050800003 -0.00031245282
-0.0075769494 0.00025400001 -7.5849057e-05
-0.012312543 0.00127 -0.0022052829
-0.011838983 -0.00127 -0.0019686793
0.021546949 -0.00025400001 -0.0078837732
0.0085240677 -2.1684043e-19 -7.5849057e-05
-0.018232035 -2.1684043e-19 -7.5849057e-05
-0.0061562713 -2.1684043e-19 0.00016075472
-0.019415932 -0.0010160001 -7.5849057e-05
0.01444356 -0.00050800003 -0.00031245282
0.023914747 -2.1684043e-19 -0.0074105659
0.0063930508 -0.00025400001 -0.0071739624
-0.025098644 0.00127 -0.0022052829
0.01373322 0.00025400001 -0.008356981
-0.012312543 0.00127 -0.0019686793
-0.026282543 -0.00076199998 -0.0022052829
0.011365424 0.00127 -0.0019686793
-0.01397 -0.00025400001 -0.0064641507
-0.012312543 -0.00127 -0.0010222641
-0.0030781357 -0.00127 -0.0010222641
0.012549322 -0.00127 -7.5849057e-05
-0.017284915 -0.00050800003 -0.00031245282
-0.026756102 -0.00025400001 -0.0052811322
0.0052091526 -0.00127 -0.0014954717
-0.016101018 -0.00050800003 -0.00031245282
-0.016101018 -0.00127 -0.0019686793
-0.0089976275 -0.00127 -0.0010222641
-0.0011838983 -0.00025400001 -0.0033883019
-0.0040252544 0.00025400001 -0.0036249056
0.027466441 -0.00050800003 -0.00031245282
0.0080505088 -2.1684043e-19 -7.5849057e-05
-0.0063930508 0.00025400001 -7.5849057e-05
-0.0082872882 0.0010160001 -7.5849057e-05
-0.011602203 -2.1684043e-19 0.0003973585
-0.01420678 -0.00025400001 -0.0074105659
0.016337797 -0.00127 -0.0017320755
0.0099447463 -0.00076199998 -7.5849057e-05
-0.020126272 -0.00127 -0.0019686793
0.01373322 -2.1684043e-19 0.00087056606
-0.018942373 -2.1684043e-19 -0.0069373585
0.021546949 0.00076199998 -7.5849057e-05
0.0011838983 -0.00025400001 -0.0033883019
0.026756102 -2.1684043e-19 -0.0076471698
0.025572203 -0.00076199998 -0.0022052829
0.0011838983 -0.00127 -0.00054905663
0.005682712 0.0010160001 -7.5849057e-05
-0.0040252544 0.00025400001 -0.0085935853
0.0087608472 -0.00025400001 -0.0048079244
0.024388306 0.00127 -0.0010222641
0.02107339 0.00025400001 -0.0024418868
-0.011365424 -0.00025400001 -0.0074105659
-0.027466441 -0.00050800003 -0.0022052829
0.015864238 -0.00127 -0.0024418868
0.0063930508 0.0010160001 -7.5849057e-05
0.0011838983 0.00025400001 -0.0081203775
-0.018705593 -0.00127 -0.0022052829
0.010891864 -2.1684043e-19 -7.5849057e-05
-0.0040252544 0.00025400001 -0.0071739624
0.01397 -0.00127 -7.5849057e-05
0.016101018 0.00025400001 -0.0024418868
-0.016574576 0.00025400001 -0.0036249056
-0.0037884747 -0.00127 -0.00078566041
-0.01444356 0.00127 -0.0019686793
0.019179152 -0.00127 -7.5849057e-05
0.011365424 0.00025400001 -0.003151698
0.00094711868 -0.00127 -0.0010222641
-0.0080505088 -0.00127 -0.00031245282
0.019179152 0.00025400001 -0.0055177361
-0.01444356 -0.00127 -0.0017320755
0.01373322 -2.1684043e-19 -0.0026784905
-0.0087608472 -0.00050800003 -0.00031245282
0.017758476 0.00025400001 -0.0024418868
0.0087608472 -0.00025400001 -0.0071739624
-0.00023677967 -0.0010160001 -7.5849057e-05
-0.01420678 0.00025400001 0.00063396228
-0.010891864 0.00127 -0.00031245282
-0.016337797 -2.1684043e-19 -0.008356981
-0.022494068 0.00127 -0.0024418868
0.020599831 -0.0010160001 -0.0024418868
-0.003551695 -0.00025400001 -0.0062275473
0.0047355932 0.00127 -0.00054905663
-0.017995255 0.00127 -0.00031245282
-0.021783728 -0.00025400001 -0.0036249056
0.026045764 0.00127 -0.0010222641
-0.019889493 -0.00127 -0.0019686793
-0.005445932 -0.00076199998 -7.5849057e-05
0.016574576 0.00050800003 -0.00031245282
-0.019179152 -0.00127 -7.5849057e-05
-0.024388306 -0.00025400001 -0.003151698
-0.0037884747 -2.1684043e-19 -0.0090667922
-0.025572203 -0.00127 -0.00078566041
-0.010891864 0.00127 -0.00054905663
0.012075763 0.0010160001 -0.0024418868
-0.003551695 -2.1684043e-19 0.0020535849
-0.017048135 0.00127 -0.00054905663
-0.001420678 -0.00127 -0.0017320755
0.0066298307 0.00025400001 -0.0048079244
-0.011602203 -2.1684043e-19 -0.0048079244
-0.0037884747 -0.00025400001 -0.0071739624
0.023677966 -0.00127 -0.0019686793
-0.021783728 -2.1684043e-19 -0.0085935853
-0.0085240677 -2.1684043e-19 -0.0074105659
-0.0059194914 -0.00025400001 -7.5849057e-05
0.0016574577 0.00127 -7.5849057e-05
-0.027229661 0.0010160001 -0.00031245282
0.016574576 -2.1684043e-19 -0.0067007546
-0.0068666101 0.00050800003 -0.00031245282
0.023914747 -0.00127 -0.0010222641
-0.016574576 0.00025400001 -0.0062275473
0.0066298307 0.00025400001 -0.004571321
0.018942373 -2.1684043e-19 -0.0052811322
-0.024388306 -0.00025400001 -0.0040981132
-0.00094711868 -0.00025400001 0.0022901886
0.0071033901 -0.00127 -0.00031245282
0.016574576 -2.1684043e-19 -0.003151698
-0.019179152 -0.00127 -0.0010222641
0.003551695 0.00025400001 0.0013437736
0.019415932 -2.1684043e-19 -0.0024418868
-0.026756102 -0.00025400001 -0.0076471698
0.0040252544 -2.1684043e-19 0.00016075472
-0.005445932 -0.00025400001 -7.5849057e-05
0.0040252544 -2.1684043e-19 -0.0059909434
-0.016337797 0.00025400001 -7.5849057e-05
-0.020599831 -0.00127 -0.0022052829
0.0066298307 -2.1684043e-19 -0.0050445283
0.0063930508 0.00025400001 0.0022901886
0.013496441 0.00050800003 -0.0024418868
-0.026756102 -2.1684043e-19 -0.0050445283
0.01397 0.00127 -0.0014954717
-0.016574576 0.0010160001 -0.0022052829
0.018705593 -2.1684043e-19 -0.0024418868
-0.024861865 -0.0010160001 -0.0022052829
-0.023914747 0.00050800003 -0.00031245282
-0.018232035 0.00127 -0.0019686793
-0.0087608472 -0.00025400001 -0.0062275473
0.013496441 0.0010160001 -7.5849057e-05
-0.0063930508 -0.0010160001 -0.0024418868
-0.011365424 -0.00127 -0.00078566041
0.0037884747 0.00127 -0.0017320755
-0.0071033901 -0.0010160001 -0.0024418868
0.024151526 0.00025400001 -0.0069373585
-0.017284915 -0.00127 -0.0014954717
-0.011128644 -2.1684043e-19 -0.0069373585
-0.023914747 0.0010160001 -0.00031245282
-0.024151526 -0.00025400001 0.0018169811
0.021546949 0.00025400001 -0.0038615095
0.018942373 -0.00025400001 -0.0069373585
-0.00094711868 -0.00025400001 -7.5849057e-05
-0.010655085 -2.1684043e-19 -0.0024418868
0.0044988138 -0.00127 -7.5849057e-05
-0.010181526 -0.00127 -0.0019686793
0.019179152 -0.00025400001 0.0013437736
0.012312543 -0.00025400001 -0.0024418868
-0.0080505088 0.00127 -0.00054905663
-0.01373322 -0.00025400001 0.0011071698
0.011128644 -2.1684043e-19 -0.0071739624
-0.0089976275 0.00025400001 0.0025267925
0.020363051 -2.1684043e-19 -7.5849057e-05
0.002841356 0.00127 -0.0012588679
0.027939999 -0.00050800003 -0.0017320755
0.003551695 0.00127 -0.0024418868
-0.00094711868 -2.1684043e-19 -0.0055177361
0.022494068 -2.1684043e-19 -7.5849057e-05
-0.017284915 -0.00025400001 -0.0024418868
0.01373322 -0.00025400001 -0.004571321
0.026519323 -2.1684043e-19 0.0025267925
-0.003551695 -0.00025400001 -0.0057543395
0.026519323 -2.1684043e-19 -0.0076471698
-0.01373322 -0.00127 -0.0019686793
-0.0061562713 0.00025400001 -0.0038615095
-0.0042620338 0.00050800003 -0.00031245282
0.003551695 0.00025400001 -0.0071739624
0.015153899 0.00127 -7.5849057e-05
0.019179152 -2.1684043e-19 -0.0085935853
0.0087608472 -2.1684043e-19 0.0015803773
0.0049723731 0.00127 -7.5849057e-05
0.0089976275 0.00025400001 -0.0038615095
0.0063930508 -0.00025400001 0.0025267925
-0.0037884747 0.00127 -0.0019686793
-0.026992882 0.00076199998 -0.0022052829
0.013496441 -2.1684043e-19 -0.0024418868
0.026992882 0.00127 -0.00031245282
0.0061562713 -0.00025400001 0.00016075472
0.024388306 -2.1684043e-19 -0.0059909434
0.022494068 -0.00127 -0.0024418868
-0.0011838983 0.00025400001 -0.0033883019
-0.012786102 -2.1684043e-19 -7.5849057e-05
-0.0042620338 0.00127 -0.0024418868
-0.0087608472 0.00025400001 -0.008356981
-0.01373322 0.00050800003 -0.0024418868
0.024625085 0.00127 -0.0010222641
-0.026756102 -0.00050800003 -0.0024418868
-0.018942373 -2.1684043e-19 -0.0081203775
-0.019652711 0.0010160001 -0.0024418868
-0.010891864 -0.00025400001 -0.0024418868
-0.003551695 -2.1684043e-19 -0.0069373585
-0.02083661 0.00127 -0.0024418868
0.024388306 0.00127 -0.0019686793
0.024388306 -0.0010160001 -0.00031245282
-0.003551695 -0.00050800003 -0.00031245282
-0.001420678 -2.1684043e-19 -0.0048079244
-0.014680339 -0.00127 -7.5849057e-05
-0.022730848 -0.0010160001 -0.0024418868
0.0089976275 -0.00025400001 -0.0074105659
-0.001420678 -0.00025400001 -7.5849057e-05
0.0037884747 0.00025400001 0.00063396228
0.0085240677 0.00025400001 -0.0024418868
0.024388306 0.00025400001 0.00016075472
0.026756102 -2.1684043e-19 0.0003973585
0.0063930508 0.00025400001 -0.0069373585
-0.01420678 0.00025400001 -0.0026784905
0.00094711868 -2.1684043e-19 -0.0048079244
0.024388306 -2.1684043e-19 0.00016075472
-0.027466441 0.0010160001 -0.0012588679
0.0021310169 -0.00050800003 -0.0024418868
0.003551695 -0.00050800003 -0.00031245282
0.0011838983 0.00025400001 -0.0040981132
-0.015864238 -2.1684043e-19 -7.5849057e-05
-0.001420678 -0.00025400001 0.0013437736
0.024151526 -0.00127 -0.0012588679
-0.0066298307 -0.00076199998 -7.5849057e-05
0.0078137293 -0.00127 -0.00031245282
0.020126272 0.0010160001 -0.0024418868
-0.013259661 -0.00025400001 -0.0024418868
-0.022257289 -0.00127 -0.00078566041
-0.023677966 0.0010160001 -0.00031245282
0.025572203 0.00025400001 -0.00031245282
-0.01397 0.00127 -0.0017320755
0.010181526 -0.00127 -0.0017320755
-0.0063930508 0.00025400001 -0.0048079244
0.001420678 -2.1684043e-19 0.0003973585
0.021783728 0.00025400001 0.00016075472
-0.0085240677 -2.1684043e-19 -0.0050445283
-0.002841356 -2.1684043e-19 -7.5849057e-05
0.0023677966 0.00127 -0.00031245282
-0.0071033901 0.00127 -0.0024418868
0.011602203 -0.00025400001 -0.0048079244
-0.00094711868 -0.00127 -0.0017320755
0.016574576 -2.1684043e-19 0.0020535849
-0.010181526 -0.00127 -0.0014954717
0.0011838983 -0.0010160001 -0.0024418868
-0.0087608472 -0.00025400001 -0.0026784905
0.02083661 0.00025400001 -0.0024418868
0.026519323 -0.00025400001 -0.0088301888
0.0037884747 -0.00025400001 -0.0064641507
0.011365424 -0.00127 -0.0024418868
0.02107339 0.00127 -7.5849057e-05
-0.003551695 -0.00025400001 0.0011071698
0.026045764 0.00025400001 -0.00031245282
-0.019415932 -0.00050800003 -0.0024418868
-0.01397 0.00025400001 -0.0059909434
-0.0026045763 0.0010160001 -7.5849057e-05
0.00094711868 -0.00076199998 -7.5849057e-05
-0.02770322 0.0010160001 -0.0014954717
0.022967627 -2.1684043e-19 -0.0022052829
0.021783728 -2.1684043e-19 -0.008356981
0.016574576 0.00025400001 -0.0059909434
0.0026045763 -0.00127 -0.00078566041
0.021546949 -0.00025400001 -0.0055177361
0.026519323 -0.00025400001 -0.008356981
-0.022730848 -0.00127 -0.0019686793
0.023914747 -0.00050800003 -0.0024418868
0.017758476 -0.00127 -7.5849057e-05
0.020599831 -0.00127 -0.00054905663
-0.026045764 -0.00076199998 -0.00031245282
0.021546949 0.00025400001 0.0022901886
-0.01420678 -0.00025400001 0.0013437736
0 -0.00127 -0.0022052829
0.00094711868 -0.00127 -0.0012588679
-0.0037884747 0.0010160001 -0.0024418868
0.021546949 0.00025400001 -0.0050445283
0.027466441 0.00127 -0.00054905663
0.011365424 -0.00025400001 -0.0055177361
0.0061562713 0.00025400001 -0.0067007546
-0.0089976275 0.00025400001 -0.0026784905
-0.00023677967 0.00127 -0.0019686793
0.0052091526 0.00050800003 -0.00031245282
0.022494068 -0.00127 -0.0022052829
0.0016574577 0.00076199998 -0.00031245282
0.026992882 -0.00127 -0.0019686793
0.023914747 -2.1684043e-19 -0.0055177361
0.001420678 -0.00025400001 0.00016075472
-0.0011838983 -0.00025400001 -0.0062275473
0.0052091526 0.00127 -0.0019686793
-0.02107339 -0.00127 -0.00054905663
-0.013259661 0.00025400001 -0.0024418868
-0.023914747 -2.1684043e-19 -0.0055177361
-0.0037884747 -0.00050800003 -0.00031245282
-0.023914747 -0.00025400001 -7.5849057e-05
0.020126272 -0.00127 -0.0019686793
0.010891864 0.00127 -0.0014954717
0.0087608472 -2.1684043e-19 0.00087056606
0.01373322 0.00025400001 0.0020535849
-0.0066298307 -0.00076199998 -0.0024418868
-0.0066298307 -0.00050800003 -0.0024418868
0.0061562713 -0.00025400001 -0.0055177361
0.018942373 0.00025400001 -0.008356981
0.017758476 -0.00025400001 -7.5849057e-05
-0.0011838983 0.00025400001 -0.0050445283
0.0089976275 0.00025400001 -0.0029150944
