# .PCD v0.7 - Point Cloud Data file format
VERSION 0.7
FIELDS x y z
SIZE 4 4 4
TYPE F F F
COUNT 1 1 1
WIDTH 1292
HEIGHT 1
VIEWPOINT 0 0 0 1 0 0 0
POINTS 1292
DATA ascii
0.0103378 0.00014111112 -0.0027400001
0.0026543001 0.00127 -0.0019
-0.0062865 0.00084666669 -0.0024600001
0.0090805003 -0.00127 -0.0017600001
-0.0078232 -0.00070555555 -0.00022000006
0.0002794 0 -0.0040000002
-0.0002794 0.00028222223 -0.00288
0.0115951 -0.0011288889 -0.00022000006
-0.0110363 0.00028222223 -0.00022000006
0.01397 -0.00042333335 -0.00064000004
0.0104775 -0.00127 -0.00036000006
-0.0048894999 -0.00028222223 -0.00764
0.0078232 0.00014111112 -0.0075000003
-0.0058674002 0.00127 -0.00050000008
0.0075437999 0.00127 -0.0017600001
0.0051688999 -0.00014111112 0.0025800001
0.004191 0.00127 -0.0016200001
-0.012573 0.00014111112 -0.0048400001
-0.0122936 0.00070555555 -0.0023200002
-0.0120142 -0.00127 -0.00064000004
0.0138303 -0.00070555555 -0.0014800001
0.0002794 0.00014111112 -0.00666
-0.0002794 0.00014111112 0.00188
-0.0099187 0.00127 -0.00022000006
-0.0054482999 0.00028222223 -8.0000056e-05
-0.0043306998 -0.00084666669 -8.0000056e-05
0.0094996002 -0.00028222223 -0.0024600001
-0.0114554 0.00127 -0.0020400002
-0.0078232 0.00028222223 -0.0027400001
0.0101981 -0.00028222223 -0.0054000001
0.0040513002 0.00042333335 -0.00036000006
-0.00083819998 -0.00127 -0.00022000006
-0.0002794 0 -0.0061000003
-0.0114554 -0.00127 -0.00092000008
-0.0081026005 -0.00098777784 -8.0000056e-05
-0.0129921 0.00084666669 -0.0023200002
0.0075437999 0.00028222223 -0.0030200002
0.0074041001 -0.00028222223 -0.0037200002
0.0100584 0 -0.0034400001
0.0047498001 0.00014111112 -0.0026
-0.0100584 0 -0.0079199998
-0.0099187 -0.00014111112 0.00075999997
-0.0094996002 0.00127 -0.0023200002
-0.0093598999 -0.00084666669 -8.0000056e-05
-0.0128524 0.00042333335 -0.0023200002
-0.0046100998 -0.00127 -0.00022000006
0.0094996002 0.00014111112 -8.0000056e-05
-0.0055880002 0.00127 -0.0014800001
0.0076835002 -0.00028222223 -0.00526
0.0099187 0 5.9999948e-05
0.0018161 -0.00127 -0.0013400001
-0.0040513002 0.00028222223 -8.0000056e-05
-0.0048894999 -0.00028222223 -0.0054000001
-0.0057277 0.00127 -8.0000056e-05
-0.0068453001 0.00127 -0.0014800001
0.0050292001 0.00084666669 -8.0000056e-05
0.0048894999 -0.00028222223 -0.0075000003
0.0076835002 0.00084666669 -8.0000056e-05
-0.0067055998 -0.00127 -0.00064000004
-0.0023749 -0.00028222223 0.00244
0.0074041001 -0.00028222223 -0.0051200003
-0.0101981 0.00028222223 -8.0000056e-05
0.0074041001 0.00028222223 -0.00624
0.0094996002 -0.00028222223 -8.0000056e-05
-0.0062865 -0.00127 -0.0017600001
-0.0027940001 0.00014111112 -0.0069400002
-0.0129921 -0.00014111112 -0.0034400001
-0.0023749 -0.00028222223 -0.0070800004
0.0138303 0.00042333335 -0.0023200002
0.0055880002 -0.00127 -0.0019
-0.0026543001 -0.00028222223 -0.00526
0.0025146001 0.00127 -0.0014800001
0.0085217003 -0.00056444446 -0.00036000006
0.01397 0.00014111112 -0.0019
0.0114554 0.00127 -0.0013400001
-0.0001397 0.00028222223 -0.0051200003
-0.0086613996 -0.00127 -0.0017600001
-0.0127127 0.00098777784 -0.00036000006
-0.0053086001 -0.00014111112 -0.00722
0.0103378 -0.00014111112 -0.0030200002
-0.0117348 0.00127 -0.00050000008
-0.0022352 -0.00014111112 -0.00666
-0.0033527999 -0.00127 -0.0020400002
-0.0099187 -0.00098777784 -0.0024600001
0.0026543001 0.00127 -0.0014800001
-0.0011176 0.0011288889 -0.0024600001
0.0061467998 0.00127 -0.00092000008
0.012573 0.00127 -0.0013400001
0.01397 0.00014111112 -0.0021800001
-0.0026543001 -0.00127 -0.0019
0.0020955 -0.00098777784 -0.0024600001
0.0022352 0.00127 -0.0016200001
0.0101981 0.00028222223 -0.0027400001
-0.0050292001 -0.00042333335 -0.00022000006
-0.0076835002 0.00028222223 -0.0046999999
-0.0097789997 -0.00028222223 -0.0024600001
0.0074041001 0 -0.0031600001
-0.011176 0 -8.0000056e-05
0.0016764 -0.00127 -0.00078000006
0.001397 -0.00042333335 -0.0024600001
0.0114554 0.00028222223 -8.0000056e-05
0.0002794 0.00014111112 -0.00288
-0.0097789997 -0.00014111112 -8.0000056e-05
0.0100584 0.00028222223 -0.00526
0.012573 -0.00042333335 -0.00036000006
0.0101981 -0.00028222223 5.9999948e-05
-0.0062865 -0.00127 -0.00106
0.0103378 -0.00028222223 -0.00764
0.0065659001 -0.00084666669 -0.00022000006
0.0078232 0.00014111112 0.00075999997
0.0054482999 -0.00127 -0.0020400002
-0.0100584 0.00028222223 -0.00288
0.0023749 -0.00127 -0.0024600001
0.00069850002 0.00127 -0.0013400001
0.0075437999 0.00028222223 -0.0033000002
0.0074041001 0 -0.00722
-0.0110363 -0.00127 -0.00064000004
-0.0101981 -0.00127 -0.00022000006
-0.0053086001 -0.00028222223 -0.0058200001
0.001397 -0.00127 -0.00092000008
0.0048894999 -0.00127 -0.00036000006
-0.0099187 -0.00042333335 -0.00022000006
0.00069850002 0.00084666669 -0.0024600001
0.0094996002 -0.00127 -0.0020400002
0.0012573 -0.0011288889 -8.0000056e-05
-0.0074041001 0 -0.0058200001
-0.0054482999 -0.00127 -0.0014800001
0.0078232 0.00014111112 0.00019999995
-0.0103378 0.00014111112 -0.0048400001
0.0051688999 -0.00028222223 0.00118
-0.0108966 0.00127 -0.0023200002
0.0053086001 0.00014111112 -0.0041400003
0.0097789997 -0.00098777784 -0.0024600001
-0.0019558 0.00127 -0.0023200002
-0.0135509 -0.00028222223 -8.0000056e-05
0.0047498001 0.0011288889 -0.0024600001
0.0074041001 0.00127 -0.00022000006
-0.0078232 -0.00028222223 -0.0033000002
0.0057277 -0.00028222223 -0.0024600001
-0.0061467998 0.00014111112 -8.0000056e-05
0.0081026005 0.00042333335 -0.0024600001
0.0037719 0.00028222223 -0.00022000006
-0.0114554 0.00127 -0.00078000006
-0.0127127 0.00014111112 0.00019999995
-0.0001397 -0.00028222223 -0.0034400001
-0.001397 -0.00127 -0.00078000006
-0.0128524 -0.00070555555 -0.0024600001
0.0093598999 0 -8.0000056e-05
0.0132715 0.0011288889 -0.0014800001
-0.0027940001 0.00014111112 -0.0049800002
0.0076835002 0.00028222223 -0.0040000002
-0.0076835002 0.00028222223 -0.00722
-0.00083819998 -0.00070555555 -0.00022000006
0.0026543001 0.00028222223 -0.00666
-0.0002794 0.00127 -0.0014800001
-0.0101981 -0.00127 -0.0023200002
-0.0138303 0.00084666669 -0.0016200001
-0.0074041001 0.00028222223 -0.0027400001
0.0072643999 -0.00028222223 -8.0000056e-05
0.0012573 0.00127 -0.00050000008
-0.0138303 -0.00070555555 -0.0012000001
0.0075437999 0.00028222223 0.0013199999
-0.0128524 -0.00028222223 -0.0038600001
0.0001397 0.00014111112 -0.0080599999
-0.0053086001 -0.00028222223 -0.0031600001
0.0022352 0.00127 -0.0024600001
0.0124333 0.00014111112 0.00019999995
-0.0074041001 0.00014111112 0.00118
0.0002794 0.00014111112 -0.0051200003
-0.0033527999 -0.00098777784 -0.0024600001
0.0138303 0.00084666669 -0.00036000006
-0.0085217003 -0.00127 -0.0013400001
-0.0107569 0.00127 -0.00106
0.0058674002 0.0011288889 -8.0000056e-05
-0.0085217003 0.00084666669 -8.0000056e-05
0.0107569 0.00084666669 -8.0000056e-05
-0.0018161 -0.00098777784 -0.0024600001
-0.0026543001 0.00028222223 0.00104
0.0050292001 -0.00028222223 -0.0073600002
-0.0103378 0 0.00244
-0.0050292001 0.00028222223 -0.00288
-0.0061467998 -0.00127 -0.00050000008
0.0060071 0.00127 -0.00078000006
-0.0078232 -0.00028222223 -0.0045600003
0.0068453001 -0.00127 -0.00106
-0.0074041001 -0.00028222223 -0.0045600003
0.0078232 0 0.0023000001
-0.0054482999 -0.00127 -0.0013400001
-0.0138303 -0.00014111112 -0.00050000008
-0.0026543001 0.00084666669 -0.0023200002
0.0128524 -0.00014111112 -0.0049800002
0.0078232 -0.00127 -0.0014800001
0.0048894999 0 -0.0030200002
0.0114554 -0.00028222223 -0.0024600001
-0.0104775 0.00028222223 -0.0024600001
0.0103378 -0.00028222223 -0.0059600002
0.0033527999 -0.00070555555 -0.00036000006
-0.0104775 -0.00042333335 -0.00022000006
0.0135509 0.00028222223 -8.0000056e-05
-0.0027940001 0 -0.00722
-0.0067055998 -0.00127 -0.0014800001
-0.0099187 0.00014111112 -0.00358
-0.0026543001 -0.00127 -0.0023200002
0.0016764 0.00127 -0.00092000008
-0.0057277 -0.00028222223 -8.0000056e-05
-0.0088010998 -0.00127 -0.00106
-0.012573 -0.00028222223 -0.00428
-0.012573 -0.00014111112 -0.0030200002
-0.0001397 0.00014111112 0.00272
-0.0099187 -0.00014111112 -0.0044200001
-0.0074041001 0 -0.0055400003
-0.0053086001 -0.00014111112 0.0014599999
0.0068453001 0.00127 -0.00022000006
-0.0025146001 -0.00028222223 0.00019999995
-0.0019558 -0.00127 -0.00036000006
-0.0018161 -0.00070555555 -0.0024600001
-0.0129921 -0.00014111112 -0.00722
-0.0103378 -0.00028222223 0.00174
-0.0032130999 -0.00056444446 -0.00036000006
0.0108966 -0.00070555555 -0.00036000006
-0.0009779 -0.0011288889 -0.0024600001
-0.0051688999 -0.00028222223 -0.0063800002
0.0100584 0.00028222223 -0.0058200001
0.008382 0.00127 -0.0013400001
-0.0034924999 0.00070555555 -0.00022000006
0.0022352 0.00028222223 0.00174
-0.00041909999 0.00056444446 -0.0024600001
0.0002794 0.00127 -0.00022000006
0.0103378 -0.00014111112 -0.0073600002
0.0054482999 0.00028222223 -0.00022000006
-0.0027940001 -0.00028222223 -0.0075000003
-0.0074041001 0 -0.0027400001
-0.0099187 0 -0.0070800004
-0.0048894999 0.00028222223 0.00188
0.0081026005 0.00127 -0.0016200001
-0.0074041001 -0.00127 -8.0000056e-05
-0.0138303 0 -0.00022000006
-0.00055880001 0.00127 -0.0020400002
-0.0061467998 -0.00127 -0.0019
-0.0053086001 0.00014111112 0.00089999998
-0.0121539 -0.00127 -0.00050000008
-0.0044704 0.00028222223 -0.00022000006
0.01397 -0.00028222223 -0.0019
0.0076835002 -0.00127 -0.00050000008
-0.0134112 0.00056444446 -0.00036000006
0.0120142 -0.00127 -0.00064000004
-0.0002794 0.00127 -0.00036000006
-0.0128524 0 0.0016
0.0055880002 -0.00056444446 -0.0024600001
-0.0072643999 -0.00127 -0.00050000008
0.0051688999 -0.00028222223 -0.0037200002
0.001397 0.00084666669 -8.0000056e-05
0.0127127 -0.00028222223 -0.0063800002
-0.0078232 0.00127 -0.0014800001
-0.0129921 -0.00014111112 -0.00358
0.0088010998 -0.00127 -0.0019
-0.0078232 0.00127 -0.00092000008
0.0127127 0.00028222223 -0.0027400001
-0.0110363 0.00098777784 -8.0000056e-05
-0.0051688999 0.00127 -0.0020400002
-0.0117348 0.00127 -0.00036000006
-0.0129921 -0.00127 -0.0023200002
-0.0078232 0 -0.00428
-0.0120142 0.00127 -0.0019
0.0016764 -0.00127 -0.00064000004
0.0075437999 -0.00028222223 -0.0063800002
0.0009779 0.00127 -0.00078000006
0.0043306998 -0.00127 -0.00036000006
0.0043306998 -0.00127 -8.0000056e-05
0.0128524 -0.00014111112 -0.00526
0.0082422998 -0.00042333335 -0.00022000006
0.0051688999 0.00098777784 -8.0000056e-05
0.0002794 0.00014111112 0.00104
-0.0012573 -0.00127 -0.0012000001
-0.0103378 0 -0.0038600001
-0.0090805003 -0.00127 -0.0023200002
-0.0001397 0.00127 -0.0016200001
-0.0058674002 0.00028222223 -8.0000056e-05
-0.0075437999 -0.00127 -0.0019
0.0127127 0.00127 -0.0023200002
0.0025146001 -0.00028222223 0.00104
0.0023749 -0.00014111112 0.0023000001
-0.0099187 0 -0.0051200003
-0.0121539 0.00127 -0.0020400002
-0.0012573 0.00042333335 -0.00036000006
0.0057277 -0.00127 -0.0024600001
0.0046100998 0.00014111112 -0.0024600001
0.0078232 0 0.00104
-0.0009779 0.00127 -0.0020400002
0.0131318 -0.00042333335 -0.0023200002
-0.0099187 -0.00014111112 -0.0046999999
-0.0027940001 -0.00014111112 -0.0061000003
0.0097789997 -0.00042333335 -0.00022000006
-0.0026543001 0.00028222223 -0.0054000001
-0.012573 0.00028222223 -0.0073600002
0.0022352 0.00028222223 -0.0049800002
-0.0022352 -0.00014111112 -0.0038600001
0.0069849999 -0.00028222223 -8.0000056e-05
0.0121539 0.00056444446 -0.00036000006
-0.0107569 0.00127 -0.00092000008
0.0106172 0.00127 -0.00106
0.0093598999 -0.00098777784 -8.0000056e-05
-0.0092201997 -0.00070555555 -0.00022000006
-0.0074041001 -0.00014111112 0.0023000001
0.0074041001 0 -0.0045600003
-0.0128524 -0.00028222223 0.0016
-0.0051688999 -0.00127 -0.0017600001
-0.0026543001 0.00028222223 0.00244
-0.0100584 -0.00028222223 0.0016
0.0026543001 -0.00028222223 -0.0051200003
0.0103378 -0.00014111112 0.00075999997
-0.0054482999 -0.00014111112 -0.0024600001
-0.0071247001 -0.00084666669 -8.0000056e-05
-0.0124333 -0.00014111112 -0.0073600002
0.0053086001 0.00028222223 -0.0054000001
0.0048894999 -0.00028222223 -0.0048400001
0.0032130999 -0.0011288889 -8.0000056e-05
-0.0097789997 -0.00084666669 -0.0024600001
0.0121539 -0.00056444446 -0.00036000006
-0.0050292001 -0.00098777784 -0.0023200002
0.0078232 0.00028222223 0.00244
-0.0039116 -0.00127 -0.0019
-0.0065659001 0.00127 -0.00078000006
-0.0002794 0 -0.0037200002
0.0081026005 -0.0011288889 -0.00022000006
0.0135509 0.00084666669 -0.0024600001
-0.0054482999 0.00014111112 -0.0024600001
-0.0018161 0.00127 -0.00022000006
0.0027940001 0.00028222223 0.0021599999
-0.012573 -0.00014111112 0.00033999994
-0.0047498001 0.00127 -0.0013400001
0.0138303 0.00084666669 -0.0023200002
1.7347235e-18 -0.00127 -0.00078000006
0.0079629002 0.00127 -0.0016200001
-0.0037719 -0.00127 -8.0000056e-05
-0.0081026005 0 -8.0000056e-05
-0.0099187 -0.00014111112 -0.0058200001
0.0100584 -0.00014111112 -0.0063800002
0.0103378 -0.00028222223 -0.00722
-0.0081026005 -0.00127 -0.0019
-0.0078232 0.00014111112 -0.00428
-0.0072643999 -0.00127 -0.00064000004
0.0029337001 -0.00127 -0.0014800001
0.01397 0 -0.0016200001
-0.012573 -0.00028222223 -0.00526
0.0100584 -0.00028222223 0.00188
-0.0078232 -0.00028222223 -0.0069400002
-0.0002794 0 -0.00428
-0.0034924999 0.00056444446 -0.0024600001
0.0074041001 -0.00070555555 -0.0024600001
-0.0131318 -0.00127 -0.00078000006
-0.0015366999 0.00127 -0.00064000004
0.0048894999 0 0.0016
-0.0121539 0.00070555555 -0.0023200002
0.0027940001 0 -0.0041400003
-0.0074041001 0.00028222223 0.0013199999
0.0023749 0 -0.0061000003
0.0078232 -0.00014111112 0.00118
-0.0051688999 -0.00070555555 -0.0024600001
0.0124333 -0.00014111112 -0.0073600002
0.0023749 0 -0.0045600003
-0.0108966 -0.00127 -0.00106
-0.0107569 -0.00084666669 -0.0024600001
-0.0030733999 -0.00127 -0.0016200001
0.004191 0.00127 -0.00078000006
-0.0075437999 -0.00127 -0.0016200001
-0.0022352 -0.00014111112 5.9999948e-05
-0.0101981 0.00098777784 -8.0000056e-05
-0.0051688999 -0.00028222223 -0.00722
0.00083819998 -0.00127 -0.00064000004
0.0032130999 0.00127 -0.00106
-0.0078232 -0.00014111112 -0.0046999999
-0.0074041001 0.00127 -0.0017600001
-0.0099187 0 -0.0033000002
0.0032130999 0.00042333335 -0.00036000006
-0.0128524 0.00028222223 -0.00022000006
-0.0026543001 0.00127 -0.0021800001
-0.0020955 0.00127 -0.0012000001
-0.008382 -0.00014111112 -0.0024600001
-0.0078232 -0.00028222223 0.0013199999
-0.0026543001 -0.00014111112 0.00272
-0.0009779 -0.00127 -0.00050000008
0.0062865 0.00127 -0.0021800001
-0.0074041001 0.00028222223 0.00174
-0.0078232 -0.00014111112 -0.0033000002
0.0032130999 0.00127 -8.0000056e-05
0.0025146001 -0.00127 -0.0013400001
0.0127127 0.00028222223 0.00075999997
-0.00069850002 0.00127 -0.0014800001
0.0115951 0.00127 -0.00036000006
0.0051688999 -0.00028222223 -0.0049800002
0.0039116 -0.00127 -0.0013400001
-0.00055880001 -0.00028222223 -0.0024600001
-0.012573 0.00127 -0.00064000004
0.0025146001 -0.0011288889 -0.0024600001
0.0023749 -0.00014111112 -0.0070800004
-0.0075437999 -0.00127 -0.0023200002
0.011176 0.00070555555 -0.0024600001
-0.00069850002 -0.00028222223 -8.0000056e-05
0.0064261998 0.0011288889 -0.0024600001
0.0048894999 0.00028222223 -0.0054000001
0.0022352 -0.00127 -0.00106
0.0132715 -0.0011288889 -0.0019
0.0067055998 -0.0011288889 -0.00022000006
0.0071247001 -0.00014111112 -8.0000056e-05
-0.0043306998 -0.00127 -8.0000056e-05
-0.0124333 -0.00127 -0.0019
-0.0023749 0.00028222223 -0.00666
0.0060071 0.00127 -0.0023200002
-0.0089408001 0.00127 -0.00106
0.0081026005 -0.00127 -0.0013400001
-0.0054482999 0.00084666669 -0.0024600001
-0.0131318 0.00042333335 -0.0023200002
0.0053086001 0.00028222223 0.0016
0.0076835002 0.00014111112 0.00272
-0.0036322 0.00127 -0.0019
-0.0022352 -0.00028222223 -0.00428
0.0129921 -0.00014111112 -8.0000056e-05
0.0016764 0.00127 -0.0021800001
-0.0081026005 0.00127 -0.00106
-0.0048894999 0.00028222223 -0.0068000001
-0.0128524 0.00014111112 -0.00428
-0.0103378 0.00127 -0.00064000004
-0.0051688999 -0.00028222223 0.00019999995
-0.0039116 0.00070555555 -0.0024600001
-0.0032130999 0.00127 -0.0012000001
0.0131318 -0.0011288889 -0.00106
1.7347235e-18 0.0011288889 -8.0000056e-05
0.0118745 0.00084666669 -0.0024600001
-0.0026543001 0.00028222223 -0.0065200003
0.0009779 -0.00127 -0.0017600001
0.0075437999 -0.00028222223 0.00104
0.0022352 -0.00084666669 -0.00022000006
0.0103378 0.00028222223 -0.0058200001
0.0129921 0 -0.0030200002
0.011176 0.00084666669 -8.0000056e-05
0.001397 0.0011288889 -0.0024600001
0.0023749 -0.00028222223 -0.0034400001
-0.0090805003 0.00127 -0.0021800001
-0.0121539 0.00127 -0.0013400001
-0.011176 -0.00014111112 -0.0024600001
0.0026543001 0.00127 -0.0021800001
-0.0096393004 0.0011288889 -8.0000056e-05
-0.0027940001 -0.00028222223 -0.0054000001
0.0074041001 0 0.00019999995
0.0131318 -0.0011288889 -0.00078000006
-0.0114554 0.00042333335 -0.0024600001
-0.0025146001 0.00098777784 -8.0000056e-05
0.0025146001 0.00042333335 -0.0027400001
0.0113157 0.00070555555 -0.00022000006
-0.0092201997 -0.00084666669 -8.0000056e-05
1.7347235e-18 -0.00028222223 0.00244
-0.0053086001 -0.00127 -0.0014800001
0.012573 0.00127 -0.0023200002
0.00083819998 -0.00127 -0.0012000001
-0.0046100998 -0.00028222223 -8.0000056e-05
0.0050292001 0.00028222223 -0.0040000002
-0.011176 0.00127 -0.0013400001
0.0046100998 0.00127 -0.0014800001
0.0027940001 -0.00127 -0.0016200001
0.0022352 0.00014111112 -0.0044200001
-0.0016764 -0.00056444446 -0.0024600001
-0.0061467998 0.00014111112 -0.0024600001
0.0127127 0.00028222223 -0.0065200003
0.0100584 0 0.0014599999
-0.0055880002 0.00127 -0.0023200002
0.00055880001 -0.0011288889 -0.0024600001
0.0115951 0.0011288889 -0.0024600001
0.0053086001 -0.00028222223 -0.0063800002
-0.0127127 0.00028222223 5.9999948e-05
0.0100584 0 -0.0051200003
0.0047498001 0.00028222223 -8.0000056e-05
-0.0078232 -0.00056444446 -0.00036000006
-0.0023749 -0.00028222223 0.0025800001
-0.0103378 -0.00028222223 -0.00666
-0.0022352 -0.00014111112 -0.0034400001
0.01397 -0.00014111112 -0.00092000008
0.0057277 -0.00056444446 -0.0024600001
-0.0075437999 0.00028222223 -0.00358
-0.0015366999 0.00127 -0.00050000008
-0.0022352 0.00028222223 -0.00022000006
-0.0075437999 -0.00127 -0.00092000008
-0.0012573 0.00056444446 -0.00036000006
-0.0071247001 -0.00127 -0.00022000006
-0.001397 0.00127 -8.0000056e-05
-0.0129921 0.00014111112 -0.0024600001
-0.0064261998 0.00127 -0.0021800001
-0.0009779 -0.00014111112 -8.0000056e-05
-0.0029337001 -0.00127 -0.0016200001
0.0132715 -0.00014111112 -0.0023200002
0.0058674002 0.00084666669 -0.0024600001
-0.0067055998 -0.00127 -0.00050000008
-0.0009779 0.00127 -0.0017600001
0.0015366999 -0.00127 -0.0012000001
0.0037719 0.00084666669 -8.0000056e-05
-0.0065659001 0.00127 -0.0016200001
-0.0076835002 -0.00028222223 -0.0031600001
-0.0053086001 0.00014111112 -0.0026
-0.0020955 -0.00084666669 -8.0000056e-05
-0.0127127 0.00014111112 -0.0075000003
0.0047498001 -0.00070555555 -0.0024600001
0.0051688999 0.00084666669 -0.0024600001
0.0129921 0.00014111112 -0.0044200001
0.0062865 0.0011288889 -0.0024600001
0.0090805003 -0.00014111112 -8.0000056e-05
0.0048894999 0 0.00047999996
-0.0037719 -0.00056444446 -0.00036000006
-0.0075437999 0.00127 -0.00064000004
-0.0089408001 -0.00127 -0.0019
-0.0029337001 0.00127 -0.00064000004
0.0027940001 -0.00014111112 -0.0045600003
0.0090805003 -0.00056444446 -0.00036000006
-0.0113157 0.00070555555 -0.00022000006
0.0062865 -0.00127 -0.00036000006
0.00069850002 -0.00127 -8.0000056e-05
0.0131318 -0.00084666669 -0.00022000006
-0.0128524 0.00014111112 -0.00288
-0.0026543001 0.00028222223 -0.0055400003
0.0030733999 0.00127 -0.0017600001
-0.0101981 0.00028222223 -0.0033000002
-0.0076835002 0.00084666669 -8.0000056e-05
0.0122936 0.00028222223 -0.0023200002
0.0117348 -0.00084666669 -0.0023200002
-0.0074041001 0.00127 -0.0016200001
0.0053086001 -0.00014111112 -0.0034400001
-0.0093598999 0.00084666669 -8.0000056e-05
-0.0040513002 -0.00084666669 -0.0024600001
0.0019558 -0.00042333335 -0.00022000006
-0.0009779 -0.00127 -0.0020400002
0.0082422998 0.00127 -0.00106
-0.0074041001 0.00084666669 -0.0024600001
-0.00083819998 0.0011288889 -8.0000056e-05
0.0092201997 0.00127 -8.0000056e-05
-0.0094996002 -0.00127 -0.00106
0.0015366999 -0.00127 -0.00092000008
-0.0075437999 -0.00127 -0.00022000006
0.0129921 0 -0.0073600002
-0.0078232 0 0.00033999994
0.0132715 0.00056444446 -0.00036000006
0.0093598999 0.00127 -0.0023200002
-0.0025146001 0.00028222223 -0.00428
-0.0099187 0.00127 -0.0014800001
0.0076835002 -0.00028222223 0.00089999998
0.0058674002 0.00127 -0.0013400001
-0.0089408001 0.00127 -0.0012000001
0.0115951 0.00028222223 -8.0000056e-05
0.0025146001 0.00028222223 -0.0038600001
0.0092201997 0.00042333335 -0.0024600001
-0.0117348 -0.00127 -0.00106
0.0023749 -0.00014111112 -0.0061000003
0.0022352 0.00028222223 -0.0054000001
-0.0025146001 -0.00028222223 -0.0069400002
-0.0138303 0.00014111112 -0.00106
0.0100584 -0.00014111112 0.00089999998
-0.012573 0.00127 -0.0023200002
-0.0002794 -0.00014111112 -0.00288
-0.0104775 -0.00098777784 -0.0024600001
-0.0057277 -0.00127 -0.0019
-0.0118745 -0.00127 -0.00022000006
0.0020955 0 -8.0000056e-05
0.0040513002 0.00056444446 -0.0024600001
0.0093598999 0.00127 -0.0012000001
0.0051688999 0.00028222223 -0.0056799999
0.0082422998 0.00098777784 -0.0024600001
-0.0106172 0.00056444446 -0.00036000006
-0.0124333 -0.00084666669 -0.0024600001
-0.0092201997 -0.00070555555 -0.0024600001
-0.0048894999 0.00014111112 -0.0075000003
0.0046100998 0.00127 -0.0016200001
0.0022352 -0.00084666669 -8.0000056e-05
0.0127127 0.00028222223 -0.00624
0.0064261998 0.00127 -0.00036000006
0.0023749 0.00028222223 0.0016
-0.0019558 -0.00028222223 -0.0024600001
0.0002794 0 0.00047999996
-0.0022352 -0.00014111112 0.00075999997
0.0081026005 0.00127 -0.00092000008
-0.0016764 -0.00127 -0.0012000001
-0.0023749 0.00028222223 -0.0030200002
0.0089408001 0 -8.0000056e-05
0.0032130999 -0.00127 -0.0020400002
-0.0048894999 0 0.00075999997
-0.0039116 -0.00127 -0.0017600001
1.7347235e-18 0.00028222223 0.00174
0.0118745 -0.00042333335 -0.0024600001
0.0088010998 0 -8.0000056e-05
-0.0072643999 0.00056444446 -0.0024600001
-0.0129921 -0.00014111112 -0.0073600002
-0.0002794 -0.00014111112 -0.00722
0.0026543001 0.0011288889 -8.0000056e-05
-0.0117348 -0.00070555555 -0.00022000006
-0.0002794 0 0.00019999995
0.0025146001 0.00028222223 5.9999948e-05
0.0053086001 0.00014111112 -0.0058200001
-0.0085217003 -0.00084666669 -0.0024600001
0.0051688999 -0.00127 -0.0023200002
-0.0050292001 0.00028222223 -0.0041400003
0.0106172 -0.00056444446 -0.0023200002
-0.0053086001 0 0.00118
-0.0138303 -0.00056444446 -0.00078000006
0.0074041001 -0.00014111112 -0.0030200002
0.0124333 0.00014111112 0.0013199999
0.0124333 -0.00042333335 -0.00036000006
-0.0132715 -0.00028222223 -0.0024600001
0.0121539 0.0011288889 -8.0000056e-05
0.0097789997 0.00127 -0.0024600001
-0.0079629002 -0.00127 -0.00078000006
-0.0001397 0.00070555555 -0.00022000006
0.0053086001 -0.00127 -0.00050000008
0.0100584 0.00042333335 -0.00036000006
-0.0127127 0.00014111112 -0.0041400003
0.0018161 0.00127 -0.00022000006
-0.0019558 0.00098777784 -0.0024600001
0.0075437999 -0.00028222223 -0.0048400001
0.0064261998 -0.00127 -0.0013400001
-0.0092201997 -0.00028222223 -8.0000056e-05
-0.0002794 0 5.9999948e-05
-0.0016764 0.00098777784 -0.0024600001
-0.0110363 -0.00127 -0.0014800001
-0.00041909999 -0.00028222223 -0.0024600001
0.0088010998 -0.00127 -0.00078000006
0.0081026005 -0.00084666669 -8.0000056e-05
-0.0122936 0.00127 -0.00064000004
0.012573 -0.00028222223 0.00202
0.0023749 -0.00028222223 -0.0075000003
0.0088010998 0 -0.0024600001
0.0030733999 0.00127 -0.00022000006
-0.0027940001 -0.00028222223 0.00104
0.0121539 -0.00070555555 -0.00036000006
0.0120142 0.00127 -0.0014800001
0.0094996002 -0.00042333335 -0.00022000006
0.0030733999 -0.00084666669 -8.0000056e-05
-0.0029337001 -0.00127 -0.00036000006
0.0050292001 -0.00127 -8.0000056e-05
0.0108966 0.00098777784 -8.0000056e-05
0.0051688999 0.00070555555 -0.0024600001
-0.0043306998 0.00014111112 -8.0000056e-05
-0.0027940001 -0.00014111112 5.9999948e-05
-0.0048894999 -0.00127 -0.0012000001
-0.0078232 0.00028222223 -0.0051200003
-0.0043306998 -0.00014111112 -0.0024600001
-0.0023749 0.00014111112 -0.0059600002
0.0103378 0.00028222223 0.00033999994
-0.0129921 0.00098777784 -0.0023200002
-0.0093598999 -0.00127 -0.0021800001
-0.00055880001 -0.00127 -0.0019
0.0128524 -0.00014111112 -0.0045600003
-0.0076835002 -0.00028222223 0.00244
-0.0001397 -0.00127 -0.00022000006
0.0101981 -0.00014111112 -0.0079199998
0.0048894999 -0.00070555555 -0.00036000006
0.0022352 0.00014111112 -0.00428
-0.0022352 0 0.0014599999
-0.0048894999 -0.00014111112 0.0025800001
0.0026543001 -0.00028222223 -0.0055400003
-0.0019558 0.00127 -0.0013400001
-0.0127127 -0.00098777784 -8.0000056e-05
0.0079629002 0.00127 -0.0020400002
-0.0097789997 -0.00056444446 -0.00036000006
1.7347235e-18 0.00028222223 -0.0054000001
-0.0117348 -0.00056444446 -0.00036000006
-0.0062865 0.00098777784 -8.0000056e-05
-0.0053086001 0.00084666669 -0.0024600001
-0.0100584 -0.00028222223 -0.0055400003
-0.0075437999 -0.00028222223 -0.0068000001
0.0040513002 -0.00056444446 -0.00036000006
-0.0044704 -0.00127 -0.00022000006
0.0051688999 0.00127 -0.0017600001
-0.0103378 -0.00028222223 -0.0063800002
-0.0127127 0.00014111112 -0.0049800002
-0.0115951 0.00028222223 -8.0000056e-05
-0.0131318 -0.00014111112 -0.0024600001
-0.0100584 -0.00028222223 -0.0073600002
-0.0103378 0.00014111112 -0.0031600001
-0.012573 -0.00028222223 -0.0065200003
-0.0072643999 0 5.9999948e-05
-0.0046100998 0.00127 -0.0023200002
0.0048894999 0.00056444446 -0.00036000006
-0.0099187 -0.00028222223 -0.0056799999
-0.0128524 0.00014111112 0.00104
-0.004191 -0.00084666669 -8.0000056e-05
-0.0051688999 0.00028222223 -0.00624
-0.0051688999 0.00127 -0.00064000004
0.0053086001 0 0.00104
0.0117348 -0.00056444446 -0.00036000006
-0.004191 -0.00070555555 -0.00022000006
-0.0001397 0.00028222223 -0.0037200002
0.008382 -0.0011288889 -8.0000056e-05
-0.0138303 -0.00084666669 -0.00092000008
-0.0025146001 0.00028222223 0.00244
0.0078232 0.00028222223 -0.0048400001
0.0032130999 -0.00084666669 -0.00022000006
-0.0046100998 -0.00042333335 -0.0024600001
-0.0101981 0 -0.0080599999
-0.0036322 0.00084666669 -8.0000056e-05
-0.0076835002 0.0011288889 -0.0024600001
0.0100584 0 0.00061999995
-0.0127127 -0.00028222223 0.00033999994
-0.011176 0.00084666669 -0.0024600001
0.0128524 -0.00014111112 -0.0058200001
0.0120142 -0.00028222223 -0.00022000006
-0.0048894999 -0.00014111112 -0.0065200003
-0.0039116 0.00028222223 -0.0023200002
-0.0027940001 -0.00014111112 0.0023000001
0.00083819998 0.00127 -0.0020400002
-0.0101981 0.00028222223 -0.0041400003
-0.0023749 0 0.00244
-0.0061467998 -0.00127 -0.0013400001
0.0060071 0.00014111112 -8.0000056e-05
-0.0009779 0 -8.0000056e-05
-0.0085217003 -0.00127 -0.0012000001
-0.0128524 -0.00127 -0.00106
0.001397 -0.00127 -0.00064000004
-0.0051688999 0.00028222223 0.00174
0.0036322 0.00127 -0.0020400002
-0.0092201997 0.00127 -0.0021800001
-0.0094996002 -0.00070555555 -0.0024600001
0.0065659001 0.00127 -0.0024600001
0.0050292001 -0.00098777784 -8.0000056e-05
0.0051688999 0.00028222223 -0.0073600002
0.0018161 0.00042333335 -0.0024600001
0.011176 -0.00127 -0.00064000004
-0.001397 -0.00127 -0.00106
0.0002794 0 -0.0033000002
-0.0100584 -0.00028222223 -0.0046999999
-0.0128524 0 -0.0070800004
0.0037719 0.00127 -0.00050000008
0.0061467998 -0.00084666669 -8.0000056e-05
0.0034924999 0.00042333335 -0.00036000006
0.0061467998 -0.00084666669 -0.0024600001
0.0036322 0.00127 -0.00064000004
0.0026543001 0.00042333335 -0.0026
0.0103378 0.00127 -0.0017600001
-0.0078232 0.00014111112 -0.0038600001
-0.0053086001 -0.00028222223 -0.00666
0.0078232 -0.00014111112 -0.0038600001
0.0032130999 -0.00127 -0.0016200001
-0.0046100998 0.00127 -0.00106
0.0121539 0.00127 -0.00036000006
0.0044704 0.00028222223 -8.0000056e-05
0.0068453001 -0.00127 -0.0020400002
0.0110363 0.00028222223 -8.0000056e-05
-0.0051688999 0.00127 -0.00050000008
-0.0053086001 -0.00014111112 -0.00288
0.00069850002 -0.00070555555 -0.00022000006
0.00041909999 -0.00127 -8.0000056e-05
-0.0113157 0.00014111112 -0.0024600001
0.0009779 0.00070555555 -0.0024600001
0.0069849999 0 -8.0000056e-05
-0.0127127 -0.00028222223 -0.0030200002
-0.0088010998 0.00070555555 -0.00022000006
0.0027940001 0 -0.00764
0.0001397 -0.00028222223 -0.0045600003
-0.0062865 -0.00070555555 -0.00022000006
-0.0115951 0.00127 -0.0013400001
-0.00041909999 0.00127 -0.00106
0.0075437999 0.00028222223 -0.00722
-0.0053086001 0 -0.0073600002
0.0124333 0 0.00188
0.0072643999 -0.00042333335 -0.0024600001
-0.0096393004 0.00056444446 -0.00036000006
0.0054482999 0.00070555555 -0.0024600001
-0.0001397 -0.00028222223 -0.0030200002
0.0115951 0.00127 -0.00092000008
0.008382 0.00028222223 -0.00022000006
-0.0048894999 -0.00028222223 0.00019999995
-0.0061467998 -0.00127 -0.00022000006
0.0053086001 0.00028222223 -0.0026
0.0074041001 0.00014111112 -0.0070800004
0.0023749 0.00127 -0.00078000006
-0.0128524 0 -0.0079199998
0.0074041001 0.00014111112 -0.0034400001
0.00041909999 0.00127 -0.0014800001
-0.0022352 -0.00014111112 0.00188
-0.0120142 -0.00127 -0.0017600001
-0.0023749 0.00028222223 0.00104
-0.0138303 0.00056444446 -0.00036000006
0.0120142 0.00042333335 -0.00036000006
-0.0072643999 0.0011288889 -8.0000056e-05
-0.0078232 0 0.00089999998
-0.0027940001 -0.00070555555 -0.00022000006
0.0002794 -0.00028222223 0.00104
-0.0128524 -0.00127 -0.00036000006
-0.0132715 0.00127 -0.0023200002
0.0100584 0 -0.0031600001
-0.0074041001 -0.00014111112 -0.0063800002
0.0002794 0.00014111112 -0.0054000001
0.0129921 0.00014111112 -0.00722
-0.0062865 -0.00056444446 -0.00036000006
-0.0108966 0.00127 -0.00036000006
-0.0074041001 0.00028222223 0.00188
0.0048894999 0 -0.0040000002
-0.0128524 0.00014111112 -0.0027400001
-0.0101981 0.00028222223 0.0016
0.0081026005 -0.00098777784 -0.0024600001
0.0128524 0.00056444446 -0.00036000006
-0.0124333 0.00056444446 -0.00036000006
-0.0023749 -0.00028222223 -0.0027400001
-0.0090805003 0.00127 -0.00036000006
-0.00083819998 0.00042333335 -0.0024600001
-0.0078232 0.00028222223 -0.0055400003
-0.0064261998 -0.00042333335 -0.00022000006
0.0026543001 -0.00028222223 0.00019999995
-0.0097789997 0 -8.0000056e-05
0.0025146001 0.00028222223 -0.0061000003
-0.0078232 0.00028222223 -0.0026
0.0075437999 0.00028222223 -0.0038600001
0.001397 0.00042333335 -0.00036000006
0.0086613996 0.00127 -0.0012000001
0.0074041001 -0.00127 -0.0017600001
-0.0075437999 -0.00028222223 -0.0073600002
0.0039116 0.0011288889 -8.0000056e-05
-0.0076835002 -0.00028222223 0.00104
-0.0120142 0.00084666669 -0.0023200002
-0.0088010998 0.0011288889 -0.0024600001
-0.0100584 0.00028222223 -0.0031600001
-0.0099187 0.00127 -0.00064000004
0.0090805003 0.00028222223 -0.00022000006
-0.0094996002 0.0011288889 -0.0024600001
0.0085217003 0.00127 -0.0023200002
0.0060071 0.00042333335 -0.00036000006
0.0051688999 0.00127 -0.0024600001
-0.0101981 0.00028222223 -0.0049800002
0.0128524 -0.0011288889 -0.00050000008
-0.0103378 0.00014111112 -0.0046999999
0.0124333 -0.00014111112 5.9999948e-05
-0.0022352 -0.00028222223 0.00244
-0.012573 -0.00056444446 -0.00036000006
0.0103378 -0.00028222223 -0.0030200002
-0.0020955 -0.00098777784 -0.0024600001
-0.0078232 -0.00028222223 -0.0041400003
0.0048894999 -0.00028222223 0.0016
-0.0101981 0.00028222223 -0.00288
0.0124333 0 -0.00722
0.0053086001 -0.00127 -0.00022000006
0.0124333 -0.00070555555 -0.0023200002
0.0037719 -0.00127 -0.0017600001
-0.0062865 -0.00084666669 -0.0024600001
-0.0107569 -0.00127 -0.0019
0.00041909999 -0.00127 -0.0016200001
0.0113157 0.00127 -0.0014800001
0.0101981 -0.00028222223 -0.0068000001
-0.0090805003 0.00070555555 -0.00022000006
-0.0048894999 0.00014111112 -0.0031600001
0.012573 0.00028222223 -0.0027400001
-0.0132715 0.00042333335 -0.00036000006
-0.0001397 -0.00028222223 -0.0058200001
0.0030733999 0.00084666669 -8.0000056e-05
0.0128524 -0.00127 -0.0021800001
-0.0034924999 0.00084666669 -8.0000056e-05
-0.0020955 0.00127 -0.0019
-0.0078232 0.00014111112 -0.0069400002
0.0121539 -0.00098777784 -8.0000056e-05
0.0023749 -0.00014111112 -0.0033000002
-0.0106172 0.00127 -0.00022000006
0.0048894999 -0.00014111112 0.00202
0.0075437999 -0.00028222223 0.00202
0.00083819998 0 -0.0024600001
-0.0092201997 0.0011288889 -0.0024600001
-0.0002794 0.00014111112 -0.0048400001
0.0086613996 0.00127 -0.0019
0.0085217003 -0.0011288889 -0.00022000006
-0.001397 0.00028222223 -0.0024600001
0.0051688999 -0.00127 -0.00106
0.0078232 0.00028222223 0.0023000001
-0.0101981 0.00028222223 -0.0061000003
-0.0029337001 0.00084666669 -0.0024600001
0.0057277 -0.00127 -8.0000056e-05
-0.0002794 0.00014111112 -0.0044200001
0.0129921 0.00028222223 -0.0026
-0.0051688999 0.00127 -0.0013400001
-0.0099187 0.00014111112 -0.0027400001
-0.0072643999 0.00014111112 -0.0024600001
-0.0023749 0.00014111112 -0.0075000003
-0.0012573 -0.00127 -0.00050000008
-0.0078232 -0.00070555555 -0.0024600001
-0.0057277 -0.00070555555 -0.00022000006
0.0074041001 0 -0.0038600001
-0.0099187 -0.00028222223 -0.0041400003
-0.0043306998 0.00084666669 -8.0000056e-05
0.0127127 0.00028222223 0.0016
0.012573 0.00028222223 -0.00764
0.012573 -0.0011288889 -0.00078000006
0.0075437999 0.00028222223 -0.00022000006
0.0023749 -0.00127 -0.00022000006
0.0074041001 0 -0.00624
1.7347235e-18 -0.00127 -0.00092000008
-0.0022352 -0.00028222223 -0.0031600001
0.00069850002 0.00098777784 -8.0000056e-05
0.0101981 -0.0011288889 -8.0000056e-05
-0.0078232 0.00028222223 -0.0046999999
-0.0138303 0.00042333335 -0.0019
0.0074041001 0 -0.0056799999
-0.0019558 0.00028222223 -8.0000056e-05
-0.0026543001 0.00127 -8.0000056e-05
0.0050292001 0.00098777784 -8.0000056e-05
0.0037719 0.00056444446 -0.00036000006
-0.011176 0.00056444446 -0.00036000006
0.0023749 0 -0.0059600002
0.01397 0.00042333335 -0.00050000008
-0.0114554 -0.00098777784 -8.0000056e-05
0.0053086001 -0.00014111112 -0.00526
0.0097789997 0.00127 -0.0019
0.0078232 0 -0.0048400001
-0.012573 -0.00014111112 -0.0068000001
0.0053086001 0 -0.0073600002
0.0064261998 -0.00127 -0.00022000006
0.0107569 0.00084666669 -0.0024600001
0.0009779 -0.00127 -0.0024600001
0.0076835002 -0.00028222223 -0.0033000002
-0.0016764 -0.00056444446 -0.00036000006
0.0023749 -0.00028222223 -0.0073600002
0.0100584 -0.00098777784 -8.0000056e-05
-0.0050292001 -0.00127 -0.00092000008
0.0082422998 0.00084666669 -0.0024600001
-0.0097789997 -0.00127 -0.0012000001
0.0032130999 0.00084666669 -8.0000056e-05
0.0022352 -0.00127 -0.00036000006
0.0051688999 0.00028222223 0.00244
0.0103378 0 -0.0070800004
-0.0093598999 -0.0011288889 -0.0024600001
-0.0047498001 -0.00127 -0.0023200002
0.0012573 -0.00042333335 -0.0024600001
-0.0054482999 0.00056444446 -0.0024600001
0.0086613996 0.00127 -0.0016200001
-0.0075437999 -0.00028222223 -0.0069400002
0.0103378 0.00056444446 -0.00036000006
0.0009779 0.00042333335 -0.00036000006
-0.0050292001 0.00028222223 0.00089999998
0.0023749 0 -0.00722
0.0051688999 -0.00028222223 -0.0034400001
0.0062865 0.00028222223 -0.00022000006
-0.0118745 -0.00042333335 -0.00022000006
0.0022352 -0.00098777784 -8.0000056e-05
0.0101981 0.00028222223 -0.0041400003
0.0071247001 0.00127 -0.00106
-0.0002794 -0.00014111112 0.00075999997
-0.001397 0.00127 -0.0014800001
0.0076835002 -0.00028222223 0.00188
0.012573 -0.00028222223 -0.00624
-0.0002794 0.00014111112 -0.0073600002
-0.0110363 -0.0011288889 -8.0000056e-05
-0.0023749 0.00028222223 -0.00428
-0.004191 0.00127 -0.00036000006
-0.0034924999 0.00028222223 -0.0024600001
-0.0099187 0.00028222223 0.00061999995
-0.00055880001 -0.00127 -0.00064000004
-0.0051688999 0.00028222223 -0.0048400001
-0.0001397 0.00042333335 -0.0026
0.012573 -0.00014111112 -0.0044200001
0.0055880002 -0.00127 -0.0014800001
-0.0072643999 0.00056444446 -0.00036000006
-0.0094996002 -0.00084666669 -0.0024600001
0.0075437999 -0.00028222223 0.0021599999
0.0124333 0.00056444446 -0.00036000006
0.0127127 0.00014111112 0.0025800001
0.001397 -0.00127 -0.0012000001
0.0044704 -0.00127 -0.0013400001
-0.0127127 0.00014111112 -0.0045600003
-0.0117348 -0.00014111112 -8.0000056e-05
0.0101981 -0.00127 -0.0019
0.0025146001 -0.00028222223 -0.00764
-0.012573 -0.00014111112 -0.00288
0.0076835002 -0.00028222223 -0.00358
0.0065659001 0.00070555555 -0.0024600001
0.0134112 0.0011288889 -0.0023200002
-0.0061467998 -0.00070555555 -0.00022000006
-0.0115951 0.00028222223 -0.0024600001
0.0051688999 0.00028222223 -0.00358
-0.0030733999 -0.00028222223 -0.0024600001
0.00083819998 -0.00127 -8.0000056e-05
-0.0120142 0.00028222223 -0.0024600001
0.0051688999 0.00127 -0.0012000001
0.0039116 0 -0.0024600001
0.0079629002 0 -0.0024600001
-0.0053086001 0 -0.0034400001
0.0061467998 0.00127 -0.0023200002
-0.0020955 0.00127 -0.00078000006
-0.0023749 0 0.00118
0.0039116 -0.00127 -0.00050000008
-0.0048894999 0.00028222223 -0.00022000006
-0.0127127 -0.00028222223 -0.00358
0.0015366999 -0.00014111112 -0.0024600001
-0.0074041001 -0.00127 -0.00064000004
0.0138303 -0.00084666669 -0.0016200001
0.0094996002 0.00028222223 -0.00022000006
0.0124333 0 -0.0056799999
-0.0075437999 -0.0011288889 -8.0000056e-05
-0.0136906 -0.00098777784 -0.0020400002
0.0122936 0.0011288889 -0.0024600001
-0.0053086001 0 -0.0044200001
0.0113157 0.00084666669 -0.0024600001
-0.0039116 0.00028222223 -8.0000056e-05
-0.0129921 -0.00014111112 0.00019999995
0.0048894999 -0.00014111112 -0.0026
-0.0075437999 0.0011288889 -0.0023200002
-0.0023749 -0.00127 -0.0021800001
-0.00055880001 0.0011288889 -0.0024600001
0.0107569 -0.00127 -0.0016200001
-0.0138303 0.00042333335 -0.0020400002
-0.0027940001 -0.00127 -0.0013400001
1.7347235e-18 0 0.0028599999
0.0001397 0.00084666669 -8.0000056e-05
0.0062865 -0.00127 -0.0023200002
0.011176 0.0011288889 -8.0000056e-05
-0.0127127 -0.00028222223 -0.0068000001
0.0043306998 0.00127 -8.0000056e-05
-0.0118745 -0.00084666669 -8.0000056e-05
0.0029337001 0.00028222223 -0.0024600001
0.0117348 0.00127 -8.0000056e-05
0.0047498001 -0.00127 -0.0017600001
0.012573 -0.00014111112 0.00174
0.0136906 -0.00098777784 -0.0017600001
-0.0001397 0.00028222223 -0.0061000003
0.0060071 -0.00127 -0.0016200001
-0.0069849999 -0.00070555555 -0.00022000006
-0.0023749 0.00014111112 -0.0056799999
0.0074041001 0 -0.0059600002
-0.0023749 -0.00028222223 -0.0058200001
-0.0027940001 -0.00014111112 0.00075999997
0.0132715 0.00014111112 -8.0000056e-05
-0.0124333 0 -0.0077800001
-0.0075437999 0.00028222223 0.00244
-0.0051688999 0.00028222223 -0.0070800004
0.0053086001 0.00028222223 -0.0030200002
0.0027940001 -0.00084666669 -0.0024600001
0.0053086001 -0.00127 -0.0023200002
0.0129921 0.00014111112 5.9999948e-05
-0.0138303 0.00014111112 -0.0012000001
-0.0026543001 -0.00028222223 0.00061999995
0.0113157 0.00127 -8.0000056e-05
-0.0097789997 -0.00127 -0.00022000006
0.012573 0.00014111112 -0.0054000001
0.0025146001 0.00028222223 0.00061999995
0.0048894999 -0.00014111112 -0.0046999999
-0.0044704 -0.00042333335 -0.0024600001
-0.0061467998 -0.00070555555 -0.0024600001
0.0092201997 -0.00028222223 -0.0024600001
1.7347235e-18 0.00028222223 -0.0040000002
-0.0118745 -0.00127 -0.00092000008
0.0089408001 0.00127 -0.00106
-0.0081026005 -0.00127 -0.00050000008
0.0002794 -0.00098777784 -8.0000056e-05
-0.00055880001 0.00084666669 -8.0000056e-05
-0.0124333 0.00127 -0.0020400002
0.0100584 -0.00028222223 -0.00526
-0.0053086001 0.00014111112 -0.0041400003
0.0075437999 0.00028222223 -0.00358
0.0110363 0.00028222223 -0.0024600001
-0.0101981 0.00028222223 -0.0068000001
-0.0029337001 0.00127 -0.0012000001
0.00069850002 0.00127 -0.00036000006
0.0023749 0.00028222223 -0.0069400002
-0.0092201997 0.00056444446 -0.0024600001
-0.0118745 0.00098777784 -0.0023200002
0.0074041001 0.00014111112 -0.0054000001
-0.0138303 0.00084666669 -0.0013400001
-0.0128524 0 -0.0063800002
0.0100584 0.00127 -0.00022000006
0.0027940001 -0.00014111112 -0.0030200002
0.0019558 0.00127 -0.00050000008
-0.0096393004 -0.00070555555 -0.0024600001
0.0033527999 -0.00028222223 -0.0024600001
0.0011176 0.0011288889 -8.0000056e-05
0.0023749 -0.00014111112 0.0025800001
0.0020955 -0.00070555555 -0.0024600001
0.0002794 -0.00127 -8.0000056e-05
0.0050292001 0.00028222223 -0.00428
0.0022352 0 -0.0031600001
-0.0075437999 -0.00014111112 -0.0077800001
-0.0074041001 0 0.00075999997
0.0074041001 -0.00127 -0.00078000006
0.0012573 -0.00014111112 -0.0024600001
0.012573 0.00028222223 -0.00722
0.0138303 0 -0.00022000006
-0.0075437999 -0.00127 -0.0020400002
-0.0074041001 -0.00028222223 -0.0041400003
0.0099187 0.00028222223 -0.0030200002
0.0085217003 0.00127 -0.00050000008
0.0122936 -0.00028222223 -0.00022000006
0.0099187 0.00028222223 -0.0054000001
-0.0078232 -0.00014111112 0.00019999995
0.0026543001 0.00127 -0.00064000004
-0.0026543001 0.00127 -0.0019
0.0053086001 0.00014111112 -0.0031600001
-0.0113157 0.00127 -0.0019
1.7347235e-18 0.00014111112 0.0028599999
-0.0103378 -0.00084666669 -0.0024600001
-0.0060071 0.00127 -0.00092000008
0.012573 0.00028222223 -0.00022000006
-0.0060071 -0.00042333335 -0.00022000006
-0.0062865 0.00070555555 -0.00022000006
0.0002794 0.00014111112 0.00089999998
0.0107569 -0.00127 -0.00064000004
0.0023749 0.00014111112 0.00272
0.0062865 -0.00127 -0.0021800001
-0.0078232 0.00014111112 -0.00624
0.0030733999 -0.00127 -0.0024600001
-0.0078232 -0.00028222223 0.00047999996
-0.0101981 -0.00070555555 -0.0024600001
-0.0018161 -0.00127 -0.00078000006
-0.0023749 0 -0.0077800001
0.0050292001 -0.00028222223 0.00174
-0.0053086001 0.00014111112 5.9999948e-05
-0.0124333 0 -0.0075000003
-0.0074041001 -0.00028222223 -0.0063800002
0.0075437999 0.00028222223 0.00075999997
0.0110363 0.00127 -0.0017600001
0.0081026005 0.00127 -0.00106
-0.0025146001 -0.00028222223 -0.0054000001
0.0064261998 -0.00127 -0.0016200001
-0.0078232 -0.00014111112 0.0013199999
0.0082422998 -0.00127 -0.00092000008
-0.0071247001 -0.00127 -0.00092000008
-0.0101981 0.00028222223 0.00019999995
0.0036322 -0.00014111112 -0.0024600001
0.0131318 0.00084666669 -0.00022000006
0.0050292001 -0.00028222223 0.0014599999
-0.0078232 0.00127 -0.0013400001
0.0099187 0.00014111112 -0.00666
0.0117348 -0.0011288889 -0.0023200002
0.01397 0.00042333335 -0.0021800001
-0.0081026005 0.00127 -0.0013400001
0.0025146001 -0.00127 -0.00064000004
-0.0129921 -0.00084666669 -0.0024600001
0.00083819998 -0.00127 -0.0019
0.0058674002 0.00014111112 -0.0024600001
0.0101981 -0.00127 -0.0021800001
0.0027940001 -0.00014111112 -0.0056799999
-0.0044704 0.00127 -8.0000056e-05
0.0099187 0.00028222223 -0.00022000006
0.0076835002 0.00070555555 -0.0024600001
0.0096393004 0.00127 -0.0024600001
-0.0128524 -0.00098777784 -8.0000056e-05
0.0001397 0 0.00244
0.0072643999 0.00127 -0.00022000006
0.0101981 0.00028222223 0.00047999996
-0.0114554 0.00042333335 -0.00036000006
-0.0106172 0.00028222223 -8.0000056e-05
-0.0053086001 0.00127 -0.0021800001
-0.0090805003 -0.00014111112 -0.0024600001
-0.0099187 0.00028222223 -0.0063800002
0.0034924999 -0.00014111112 -8.0000056e-05
0.0072643999 -0.00127 -0.0019
0.0032130999 -0.00127 -0.0019
0.0103378 0 -0.00428
0.0129921 0.00127 -0.00092000008
-0.0090805003 -0.00084666669 -0.0024600001
0.0051688999 -0.00098777784 -0.0024600001
-0.0074041001 0.00028222223 0.00089999998
0.0060071 0.00127 -0.00036000006
-0.0079629002 -0.00127 -0.00050000008
0.0103378 0.00070555555 -0.00022000006
0.0047498001 -0.00056444446 -0.00036000006
-0.0075437999 -0.00028222223 -0.0054000001
-0.0078232 -0.00014111112 -0.0065200003
-0.0096393004 0.00028222223 -0.0024600001
0.0002794 0.00127 -0.0013400001
-0.0079629002 -0.00127 -0.0014800001
-0.0062865 0.00028222223 -0.0024600001
0.0078232 0.00028222223 -0.00722
0.0072643999 -0.00084666669 -8.0000056e-05
-0.0053086001 0.00014111112 -0.00764
-0.0086613996 -0.00042333335 -0.00022000006
-0.0082422998 0.00127 -0.00050000008
-0.0078232 0.00014111112 -0.0048400001
0.0078232 0.00014111112 0.00033999994
0.0026543001 -0.00127 -8.0000056e-05
-0.0009779 0.0011288889 -8.0000056e-05
0.0099187 0.00028222223 -0.0045600003
0.0022352 0.00014111112 -0.0068000001
0.0025146001 -0.00028222223 -0.0051200003
0.0078232 -0.00028222223 0.00075999997
0.0101981 0.00028222223 0.00188
0.0076835002 0.00028222223 0.00061999995
-0.0002794 -0.00014111112 -0.0070800004
0.0103378 -0.00028222223 -0.0056799999
0.0019558 0.00127 -0.00022000006
0.0068453001 -0.00084666669 -8.0000056e-05
0.0100584 0 -0.0030200002
-0.0044704 0.00127 -0.00022000006
0.0002794 -0.00014111112 0.00202
-0.0067055998 -0.00127 -0.0021800001
0.0023749 -0.00014111112 -0.0046999999
0.012573 -0.00014111112 0.00033999994
-0.0075437999 0.00028222223 -0.0063800002
-0.0071247001 0.00014111112 -8.0000056e-05
0.0076835002 0.00028222223 0.0016
0.0048894999 0.00014111112 -0.00358
0.0127127 0.00127 -0.0012000001
-0.0047498001 0.00056444446 -0.00036000006
-0.0025146001 0.00028222223 -0.0046999999
0.00083819998 -0.00056444446 -0.0024600001
-0.0019558 0.00127 -0.0021800001
-0.0051688999 0.00127 -0.00106
-0.0002794 0 -0.0065200003
0.0099187 -0.00042333335 -0.0024600001
-0.0127127 0.00014111112 -0.0046999999
0.0039116 0.00042333335 -0.0024600001
0.0027940001 0.00127 -0.0012000001
0.0048894999 -0.00014111112 -0.00288
-0.0033527999 -0.00127 -0.0014800001
0.0002794 0 0.00019999995
0.0071247001 -0.00056444446 -0.0024600001
-0.0074041001 0 0.00061999995
0.0131318 0.00127 -0.0021800001
0.0138303 0.00098777784 -0.0012000001
-0.0074041001 0 -0.0040000002
-0.0048894999 0 -0.00764
-0.0096393004 0.00127 -0.0016200001
0.0097789997 -0.00056444446 -0.00036000006
-0.0057277 0.00098777784 -8.0000056e-05
-0.0074041001 0.00014111112 -0.0033000002
0.0020955 -0.00127 -0.0021800001
0.0064261998 -0.00084666669 -0.00022000006
-0.0048894999 0.00028222223 0.00174
-0.0081026005 -0.00084666669 -8.0000056e-05
0.0033527999 0.00028222223 -0.00022000006
0.0100584 -0.00014111112 -0.0070800004
-0.0023749 -0.00028222223 0.00104
0.0103378 0 0.00061999995
-0.0012573 0 -8.0000056e-05
-0.0089408001 0.00127 -0.0017600001
0.0034924999 0.00127 -0.00078000006
-0.0100584 0.00028222223 -0.0054000001
0.0002794 0 0.00033999994
0.0027940001 -0.00014111112 0.0016
-0.0136906 0.00056444446 -0.00036000006
0.004191 -0.00098777784 -8.0000056e-05
0.0023749 0 -0.00358
-0.0081026005 -0.00127 -0.0021800001
0.0002794 -0.00127 -0.00022000006
-0.0132715 0.00056444446 -0.00036000006
-0.012573 0.00014111112 -0.0069400002
0.0053086001 -0.00014111112 -0.0069400002
-0.0103378 -0.00127 -8.0000056e-05
0.0074041001 0.00028222223 -0.0031600001
0.0001397 0.00028222223 -0.00022000006
-0.0015366999 -0.00028222223 -8.0000056e-05
0.0062865 0.00127 -0.00106
-0.0011176 0.00070555555 -0.0024600001
-0.0135509 0.00014111112 -0.0023200002
-0.0027940001 0.00070555555 -0.0024600001
-0.0128524 -0.00028222223 0.0013199999
-0.0027940001 -0.00070555555 -0.0024600001
0.0079629002 -0.00014111112 -0.00722
0.0124333 0 -0.0037200002
0.0097789997 0.00014111112 -8.0000056e-05
-0.0034924999 0.00042333335 -0.00036000006
-0.0134112 -0.0011288889 -0.00036000006
0.0122936 -0.0011288889 -0.00036000006
0.0110363 0.00127 -8.0000056e-05
0.0026543001 0 -0.0079199998
0.0127127 0.00028222223 -0.0051200003
-0.0019558 0.00098777784 -8.0000056e-05
0.0131318 0.0011288889 -8.0000056e-05
0.0048894999 0.00028222223 0.0016
0.0016764 0.00070555555 -0.00022000006
-0.0044704 -0.00098777784 -0.0024600001
-0.0048894999 0.00056444446 -0.00036000006
-0.0078232 0.00042333335 -0.0026
0.0128524 0.00028222223 -0.0034400001
0.0036322 -0.00084666669 -0.00022000006
0.0002794 0.00014111112 -0.0055400003
0.0124333 0.00014111112 -0.0045600003
-0.0103378 -0.00028222223 -0.0030200002
-0.0051688999 -0.00042333335 -0.0026
-0.0099187 0 -0.0045600003
-0.0124333 -0.00127 -0.0024600001
0.0048894999 0.00127 -0.00078000006
0.0103378 -0.00014111112 -0.0027400001
-0.0103378 0.00028222223 0.0014599999
-0.0054482999 -0.00070555555 -0.00022000006
0.0065659001 -0.00127 -0.0014800001
-0.0138303 0.00028222223 -0.0020400002
-0.0078232 0.00098777784 -0.0024600001
-0.0050292001 0.00028222223 5.9999948e-05
-0.0138303 -0.00028222223 -0.0023200002
-0.0068453001 0.00127 -0.0019
-0.0090805003 -0.00127 -0.00064000004
-0.0127127 0.00127 -0.00078000006
-0.0027940001 0 -0.0058200001
-0.0016764 -0.00028222223 -8.0000056e-05
0.0043306998 0.0011288889 -8.0000056e-05
0.0048894999 0 -0.0054000001
0.0060071 -0.00127 -0.00036000006
0.0036322 0.00028222223 -0.0024600001
-0.0057277 -0.00014111112 -8.0000056e-05
-0.0048894999 -0.00028222223 -0.0034400001
0.0026543001 0.00028222223 0.00188
-0.0100584 -0.00028222223 -0.0045600003
0.01397 0.00014111112 -0.00022000006
