# .PCD v0.7 - Point Cloud Data file format
VERSION 0.7
FIELDS x y z
SIZE 4 4 4
TYPE F F F
COUNT 1 1 1
WIDTH 1198
HEIGHT 1
VIEWPOINT 0 0 0 1 0 0 0
POINTS 1198
DATA ascii
0.0012404651 0.00025400001 -0.0033370589
-0.0080216751 -0.00042333335 -0.00033529417
-0.0022328373 0.0011006667 -0.0025032354
-0.00074427907 -8.4666666e-05 -1.7647588e-06
0.0010750698 0.00025400001 0.0013323529
-0.0040521859 -0.00127 -0.0015026472
0.016126046 0.00025400001 -1.7647588e-06
-0.0086832559 8.4666666e-05 -0.0045044119
0.0015712559 -8.4666666e-05 -0.0073394119
0.0070293024 0.0011006667 -0.0025032354
-0.011494977 -0.00025400001 0.00099882344
0.0088486513 -0.00025400001 -0.0063388236
-0.0012404651 0.00025400001 -0.0071726474
-0.011494977 -0.00025400001 -0.0041708825
0.0035560001 0.00127 -0.001002353
-0.011825767 0.00042333335 -1.7647588e-06
-0.01529907 0.00025400001 -0.0023364706
-0.0088486513 -0.00076199998 -0.00016852947
-0.011494977 -8.4666666e-05 -0.0080064712
0.0050445581 -0.00059266668 -0.0025032354
0.0037213955 -8.4666666e-05 0.0026664706
-0.011825767 -0.00127 -0.0006688236
-0.0090140468 8.4666666e-05 0.0016658823
-0.011494977 0.00025400001 0.00033176466
0.014141303 0.00025400001 -0.004337647
-0.013810512 -0.00025400001 -0.0036705884
0.0012404651 -0.00076199998 -0.00016852947
0.0086832559 -0.00025400001 -0.0035038237
0.014306698 -0.00025400001 -0.0025032354
-0.0086832559 -0.00059266668 -0.00033529417
0.0015712559 -8.4666666e-05 -0.0031702942
0.0090140468 8.4666666e-05 0.00066529406
0.00074427907 -0.00127 -0.0006688236
0.014472093 0.00025400001 -1.7647588e-06
0.00024809304 -0.00127 -0.0025032354
0.006863907 0.00127 -0.00033529417
-0.012983535 -0.00127 -0.00033529417
-0.003059814 -0.00059266668 -0.00033529417
0.010171814 -0.00127 -0.0016694119
0.0091794422 -0.00076199998 -0.00016852947
0.0096756285 -8.4666666e-05 -0.0023364706
-0.0014058605 0.00127 -0.0013358825
-0.0035560001 8.4666666e-05 0.0011655882
0.014141303 -8.4666666e-05 0.00033176466
0.0078562796 -0.0011006667 -1.7647588e-06
-0.0075254887 8.4666666e-05 -1.7647588e-06
0.0063677211 -0.0011006667 -1.7647588e-06
-0.00090967445 -0.0011006667 -0.0025032354
0.011329582 -0.00025400001 -0.00016852947
0.0040521859 0.00025400001 0.0014991176
-0.0086832559 8.4666666e-05 -0.0035038237
0.00074427907 -0.00042333335 -0.00033529417
0.0014058605 0.00025400001 -0.0051714708
0.011164187 8.4666666e-05 0.0013323529
0.016456837 0.00025400001 -0.0053382353
0.0015712559 0.00025400001 -0.0040041176
0.0050445581 0.00025400001 -0.0025032354
-0.011164187 8.4666666e-05 -0.0048379414
0.0086832559 -0.00025400001 -0.0065055885
-0.0023982327 0.00042333335 -0.0025032354
0.0012404651 0.00025400001 0.00099882344
0.0015712559 8.4666666e-05 -0.0056717647
-0.0014058605 -0.00025400001 -0.0070058824
-0.013975907 0.00127 -0.00050205889
0.016787628 -0.00127 -0.0013358825
-0.011329582 0.00025400001 -0.0056717647
0.0065331166 -0.00025400001 0.0014991176
0.014802884 -0.00127 -0.00016852947
0.010171814 0.0011006667 -0.0025032354
-0.016456837 -0.00025400001 0.001832647
0.0010750698 -0.00025400001 0.0019994117
0.0023982327 0.00042333335 -0.00016852947
-0.0096756285 -0.00025400001 -1.7647588e-06
0.0014058605 -8.4666666e-05 0.0024997059
-0.0047137677 0.00127 -0.0020029412
0.006863907 0.00127 -0.00050205889
-0.0090140468 0.00025400001 -0.004337647
0.017614605 -0.00059266668 -0.00033529417
-0.0025636279 -0.00093133334 -0.0025032354
8.2697676e-05 -0.00127 -0.0018361766
0.014141303 8.4666666e-05 0.0019994117
-0.0010750698 -0.00076199998 -0.0025032354
0.003059814 0.00042333335 -0.00016852947
-0.016126046 0.00127 -0.0013358825
-0.016291441 -0.00025400001 -0.006672353
-0.0073600933 -0.00042333335 -0.00033529417
-0.0014058605 -0.00025400001 -1.7647588e-06
-0.0090140468 8.4666666e-05 -0.0076729413
0.0025636279 0.00042333335 -0.0025032354
0.014802884 0.00025400001 -1.7647588e-06
-0.0058715348 0.00042333335 -0.0023364706
-0.008352465 0.00093133334 -0.00016852947
-0.003059814 0.00127 -0.0023364706
0.0057061398 0.00127 -0.00016852947
-0.0025636279 0.00127 -0.0018361766
0.009841023 0.00127 -0.00050205889
0.0058715348 8.4666666e-05 -0.0025032354
0.0035560001 8.4666666e-05 0.0024997059
-0.005375349 -8.4666666e-05 -1.7647588e-06
0.0080216751 -0.00127 -0.00083558832
0.0063677211 0.00025400001 0.0011655882
0.012983535 -0.00042333335 -0.0023364706
-0.0058715348 0.00093133334 -1.7647588e-06
0.017614605 -0.00025400001 -0.0011691177
0.0090140468 -0.00025400001 -0.0061720591
-0.0038867907 0.00025400001 0.0016658823
0.0060369303 8.4666666e-05 -0.006672353
0.009841023 0.00127 -0.00016852947
-0.014637489 -0.00127 -1.7647588e-06
-0.0090140468 8.4666666e-05 -0.0028367648
0.0012404651 0.00025400001 -0.0065055885
0.0070293024 -0.00059266668 -0.00033529417
0.00090967445 -0.00025400001 -0.00016852947
-0.011494977 -0.00127 -0.001002353
0.015960652 -0.00127 -0.0020029412
0.0047137677 -0.00076199998 -0.00016852947
0.0055407444 -0.00093133334 -0.0025032354
-0.012487349 -0.00025400001 -0.00016852947
-0.010998791 -0.00127 -0.00033529417
-0.016953023 -0.00127 -0.00033529417
0.0012404651 -0.00025400001 0.00049852935
0.0080216751 -0.00059266668 -0.00033529417
0.010006418 0.00127 -0.0016694119
-0.005375349 8.4666666e-05 -0.0025032354
0.016456837 -0.00025400001 -0.0025032354
-0.0035560001 -0.00025400001 0.0019994117
-0.0035560001 8.4666666e-05 0.00016499995
0.014141303 0.00025400001 -0.0040041176
0.0035560001 -0.00025400001 0.00049852935
0.016456837 0.00025400001 -0.0058385297
0.0035560001 8.4666666e-05 -0.0033370589
-0.00074427907 -0.00127 -0.001002353
-0.0090140468 8.4666666e-05 0.00066529406
0.014141303 0.00025400001 0.00049852935
0.010833396 0.00127 -0.0023364706
-0.0065331166 0.00025400001 -0.0046711764
0.016787628 -0.00127 -0.00050205889
-0.0032252094 -0.00025400001 -0.0025032354
-0.0052099535 0.00025400001 -0.0025032354
-0.014141303 -0.00025400001 -0.0058385297
0.0035560001 -0.00025400001 -0.0053382353
0.0035560001 -8.4666666e-05 -0.0061720591
-0.010998791 -0.00127 -0.0021697059
-0.017449209 0.00025400001 -0.00016852947
-0.0095102331 0.00076199998 -0.00033529417
-0.016787628 -0.00025400001 -0.0025032354
0.0015712559 -8.4666666e-05 0.0013323529
-0.0017366512 -0.00059266668 -0.0025032354
-0.011494977 -0.00127 -0.0011691177
-0.0090140468 -0.00025400001 -0.0063388236
-0.014141303 8.4666666e-05 -0.0036705884
-0.015960652 0.00093133334 -0.00016852947
0.0076908837 -0.00127 -0.0015026472
0.0015712559 8.4666666e-05 -0.0035038237
0.01496828 0.00127 -0.0023364706
-0.0048791631 0.00059266668 -0.0025032354
-0.0095102331 0.00093133334 -0.00016852947
0.0038867907 -0.00025400001 -0.0031702942
0.00090967445 -0.00059266668 -0.00033529417
-0.016291441 0.00025400001 -0.0050047059
0.010337209 -0.00076199998 -0.00016852947
0.013810512 -8.4666666e-05 -0.0071726474
0.0062023257 0.00025400001 0.00049852935
0.0040521859 -0.0011006667 -0.0025032354
-0.011494977 0.00025400001 -0.0058385297
-0.016291441 -0.00025400001 -0.00016852947
0.0038867907 0.00025400001 0.0011655882
0.013314326 -0.00127 -0.0018361766
-0.0035560001 8.4666666e-05 -0.006672353
-0.0076908837 -0.00127 -0.0023364706
0.015629862 -0.00127 -0.0021697059
-0.0012404651 -0.00025400001 0.00066529406
0.0065331166 -0.00025400001 -0.00016852947
0.0048791631 -0.00127 -0.00033529417
0.011164187 0.00025400001 0.001832647
0.016291441 -0.00025400001 -0.0060052942
-0.00041348839 0.00127 -0.0016694119
-0.012983535 -0.00059266668 -0.0023364706
-0.016953023 0.00127 -0.0006688236
0.011494977 0.00127 -0.0015026472
-0.0048791631 -8.4666666e-05 -1.7647588e-06
0.016456837 0.00025400001 -0.0041708825
-0.010668 -0.00127 -0.001002353
-0.0040521859 -0.00025400001 -0.006839118
-0.0014058605 8.4666666e-05 -0.0078397058
0.0090140468 -0.00025400001 -0.0040041176
0.00090967445 -0.00127 -0.0018361766
-0.011494977 0.00127 -0.00083558832
0.010998791 0.00127 -0.0018361766
0.0050445581 -0.00127 -1.7647588e-06
0.011329582 0.00025400001 -0.0031702942
0.017614605 0.00059266668 -0.0020029412
-0.013148931 -0.00127 -0.00033529417
0.0017366512 -0.00127 -0.00083558832
-0.0025636279 -0.00127 -0.0011691177
0.014472093 -0.00127 -0.001002353
0.011164187 0.00025400001 0.0021661764
-0.011164187 -8.4666666e-05 -0.0063388236
-0.016622232 -0.00127 -0.00033529417
0.011991163 0.00127 -0.001002353
0.0060369303 -0.00076199998 -0.00016852947
-0.0037213955 8.4666666e-05 -0.0080064712
-0.0012404651 -0.00025400001 -0.006839118
-0.011329582 0.00025400001 -0.0031702942
-0.0060369303 -8.4666666e-05 0.00033176466
-0.017449209 0.0011006667 -0.0021697059
0.0035560001 0.00025400001 -0.0053382353
-0.0042175814 -0.00127 -0.0011691177
-0.00024809304 -0.00127 -0.00033529417
0.013810512 0.00025400001 0.00016499995
-0.0010750698 -0.00127 -0.0011691177
-0.010502605 -0.00127 -0.001002353
-0.0065331166 0.00025400001 -0.0055050002
0.014637489 0.00093133334 -1.7647588e-06
0.01281814 0.00093133334 -0.00016852947
-0.015464465 0.00127 -0.0018361766
0.0033906046 -0.00127 -0.0021697059
0.011164187 0.00025400001 -0.0048379414
-0.011329582 0.00127 -0.0011691177
-0.011825767 -0.00093133334 -0.0023364706
-0.01496828 0.00059266668 -0.0023364706
0.0047137677 0.00059266668 -0.00033529417
0.01496828 -0.00076199998 -0.0023364706
-0.0086832559 -8.4666666e-05 0.0023329412
-0.014141303 -0.00025400001 0.001832647
-0.0010750698 0.00025400001 -0.0076729413
-0.010502605 -0.00127 -0.0016694119
0.0020674418 0.00127 -0.0006688236
-0.016456837 0.00025400001 -0.0031702942
0.015960652 -0.0011006667 -0.00016852947
0.0088486513 0.0011006667 -0.0023364706
-0.0088486513 -0.00025400001 0.00099882344
-0.010668 0.00127 -0.00016852947
-0.014802884 0.00093133334 -0.00016852947
0.0023982327 -0.00042333335 -0.0025032354
0.010171814 -0.00127 -0.0020029412
0.0078562796 8.4666666e-05 -1.7647588e-06
0.016953023 -0.00059266668 -0.0023364706
0.0058715348 0.00127 -0.0020029412
-0.0014058605 -0.00127 -0.0023364706
0.013810512 8.4666666e-05 -0.0051714708
0.0037213955 0.00025400001 -0.0040041176
0.013810512 8.4666666e-05 -0.0036705884
0.0035560001 8.4666666e-05 -0.0038373531
0.011660372 -0.00025400001 -0.0071726474
-0.013975907 -0.00025400001 -0.006672353
0.0019020465 -0.00093133334 -0.0025032354
0.0065331166 8.4666666e-05 0.00083205878
-0.0010750698 0.00025400001 -0.0035038237
-0.011329582 -0.00025400001 0.0021661764
0.014141303 -0.00025400001 -0.0040041176
0.0010750698 -0.00025400001 -0.0053382353
0.0096756285 -0.00059266668 -0.00033529417
0.0028944188 0.00059266668 -0.0025032354
0.0057061398 0.00076199998 -0.00033529417
0.014141303 0.00025400001 0.00066529406
0.0086832559 0.00025400001 -0.006672353
0.0065331166 0.00093133334 -1.7647588e-06
-0.0040521859 -0.00127 -1.7647588e-06
0.0071946979 0.00127 -0.0015026472
-0.0037213955 -0.00025400001 0.00099882344
-0.017614605 -0.00059266668 -0.0016694119
0.0076908837 0.00127 -1.7647588e-06
0.016622232 8.4666666e-05 0.00099882344
0.0073600933 0.00127 -0.001002353
0.0062023257 -0.00025400001 -1.7647588e-06
0.011494977 0.00127 -0.00016852947
-0.0063677211 -0.00025400001 -0.004337647
-0.0010750698 0.00093133334 -0.0025032354
0.0060369303 0.00042333335 -0.0025032354
0.0037213955 0.00025400001 -0.0038373531
0.0015712559 -8.4666666e-05 -0.0051714708
-0.015464465 -0.00127 -0.0020029412
-0.0019020465 -0.00127 -0.0006688236
0.011825767 -8.4666666e-05 -1.7647588e-06
0.013810512 -8.4666666e-05 0.0021661764
0.0071946979 -0.00025400001 -1.7647588e-06
0.0085178604 0.00127 -0.0011691177
0.012652745 0.00025400001 -0.0023364706
0.011494977 0.00025400001 -0.0033370589
0.013314326 -0.00076199998 -0.00033529417
0.0062023257 0.00025400001 -0.0046711764
-0.011660372 -8.4666666e-05 -0.0055050002
0.015464465 -0.00042333335 -0.00033529417
-0.013975907 0.00042333335 -0.0025032354
-0.011164187 0.00127 -1.7647588e-06
0.0047137677 -0.00059266668 -0.0025032354
0.017449209 -0.0011006667 -0.001002353
-0.016291441 0.00042333335 -1.7647588e-06
-0.0010750698 0.00025400001 -0.0070058824
-0.0065331166 -8.4666666e-05 -0.0038373531
-0.0037213955 0.00127 -1.7647588e-06
-0.014802884 0.00127 -0.00083558832
-0.0086832559 0.00042333335 -0.0025032354
-0.0048791631 -0.00093133334 -0.0025032354
0.0063677211 -0.00025400001 -0.0035038237
-0.0091794422 0.00059266668 -0.00033529417
0.0076908837 0.00042333335 -0.0023364706
0.01529907 -0.0011006667 -0.00016852947
-0.0081870696 0.0011006667 -0.0023364706
0.014141303 -0.00025400001 -0.0056717647
0.013810512 -0.00059266668 -0.00033529417
0.0037213955 -0.00025400001 -0.0038373531
0.011660372 0.00025400001 0.00083205878
-0.0063677211 -0.00025400001 0.00016499995
-0.012652745 -0.00093133334 -1.7647588e-06
-0.017449209 -0.0011006667 -0.0023364706
-0.011494977 0.00059266668 -0.0025032354
0.0015712559 0.00025400001 -0.004337647
0.0037213955 -0.00025400001 -0.00016852947
-0.0010750698 -0.00025400001 -0.0031702942
0.013975907 -0.00025400001 -0.0030035295
-0.016953023 -0.00127 -0.0015026472
-0.0058715348 -0.00076199998 -0.0025032354
0.016622232 -8.4666666e-05 -0.0055050002
0.0038867907 -0.00025400001 -1.7647588e-06
-8.2697676e-05 -0.00042333335 -0.0025032354
0.01778 0.00025400001 -0.0020029412
-0.0060369303 -8.4666666e-05 -0.0071726474
0.0040521859 8.4666666e-05 -0.0060052942
0.0015712559 -8.4666666e-05 -0.0056717647
0.010171814 0.00059266668 -0.0023364706
0.0037213955 -0.00127 -1.7647588e-06
0.011329582 -0.00025400001 -0.006839118
0.0062023257 -8.4666666e-05 0.00033176466
-0.0058715348 0.00127 -0.0020029412
-0.0014058605 0.00025400001 0.0016658823
-0.0063677211 0.00025400001 0.0013323529
0.0037213955 0.00025400001 -0.0078397058
-0.0025636279 0.00127 -0.0021697059
0.008352465 -0.0011006667 -1.7647588e-06
-0.0015712559 0.00025400001 -0.004337647
0.0091794422 0.00127 -0.0021697059
-0.016787628 8.4666666e-05 -0.0070058824
-0.0014058605 0.00127 -0.00050205889
0.0073600933 -0.00042333335 -0.0025032354
-0.014472093 0.00127 -0.0018361766
-0.0085178604 8.4666666e-05 -0.0025032354
0.008352465 0.00127 -0.0015026472
-0.013645116 0.00127 -1.7647588e-06
0.011329582 0.00025400001 -0.0030035295
-0.017614605 0.00076199998 -0.00083558832
0.0025636279 -0.00127 -0.0025032354
-0.0088486513 -0.00127 -0.0021697059
0.014637489 -8.4666666e-05 -1.7647588e-06
-0.0014058605 0.00025400001 0.001832647
-0.011164187 -8.4666666e-05 -0.0070058824
0.011329582 0.00025400001 -0.0041708825
-0.013810512 8.4666666e-05 0.00066529406
0.013148931 0.00059266668 -0.00033529417
-0.0055407444 0.00127 -0.00016852947
0.0015712559 0.00025400001 -0.0065055885
-0.011660372 8.4666666e-05 -0.0055050002
-0.013479721 0.0011006667 -1.7647588e-06
-0.0070293024 0.00127 -0.0015026472
0.0035560001 -0.00127 -0.00016852947
0.0060369303 8.4666666e-05 0.0023329412
0.011494977 0.00025400001 0.00083205878
0.0088486513 0.00093133334 -1.7647588e-06
0.0081870696 -0.00127 -0.0021697059
-0.0022328373 -0.0011006667 -1.7647588e-06
-0.011660372 0.00025400001 -0.0050047059
0.0075254887 -0.00059266668 -0.0025032354
-0.014141303 0.00025400001 -0.0041708825
-0.013975907 -0.00025400001 -0.0063388236
0.0060369303 8.4666666e-05 -0.0070058824
0.014472093 -0.00127 -0.0011691177
-0.011660372 -8.4666666e-05 -0.0073394119
0.017449209 -0.0011006667 -0.0006688236
0.011825767 0.00127 -1.7647588e-06
-0.003059814 -0.00127 -0.00050205889
-0.011660372 8.4666666e-05 -0.0075061768
-0.015795257 0.00059266668 -0.00033529417
0.0090140468 -8.4666666e-05 0.00016499995
0.0048791631 -0.00025400001 -1.7647588e-06
-0.016622232 0.00025400001 0.0019994117
-0.014637489 0.00127 -0.0020029412
0.0012404651 -0.00127 -0.0020029412
-0.0065331166 0.00025400001 0.00083205878
0.0085178604 -0.00127 -0.0023364706
0.015960652 -8.4666666e-05 -1.7647588e-06
0.016291441 0.00025400001 -0.0051714708
-0.013314326 -0.0011006667 -0.0023364706
-0.013810512 0.00127 -0.0006688236
-0.0010750698 -0.00025400001 -0.006839118
0.0090140468 -0.00025400001 0.00066529406
-0.016291441 -0.00127 -0.0018361766
-0.017283814 8.4666666e-05 -0.0023364706
0.0063677211 -0.00025400001 0.00083205878
0.01778 0.00042333335 -0.0011691177
0.0010750698 0.00025400001 0.0024997059
0.016622232 -0.00127 -0.0018361766
0.011494977 0.00025400001 -0.0061720591
0.013810512 8.4666666e-05 -0.0033370589
0.013810512 8.4666666e-05 -0.0040041176
-0.013810512 -8.4666666e-05 -0.0050047059
0.013975907 -0.00025400001 0.0024997059
-0.011660372 8.4666666e-05 -0.0061720591
0.0062023257 -8.4666666e-05 0.0021661764
0.0040521859 -0.00127 -0.0011691177
-0.0090140468 -8.4666666e-05 0.00083205878
-0.013810512 -0.00025400001 -0.0053382353
0.0057061398 -0.00127 -0.0021697059
-0.0088486513 0.00025400001 -0.0046711764
0.0038867907 0.00127 -0.001002353
-0.01529907 0.00059266668 -0.00033529417
-0.015960652 -0.00059266668 -0.00033529417
-0.015795257 8.4666666e-05 -1.7647588e-06
0.017614605 -0.00076199998 -0.001002353
0.0042175814 0.00127 -0.0011691177
-0.0037213955 -0.00093133334 -1.7647588e-06
-0.00041348839 -0.00093133334 -0.0025032354
-0.017614605 -0.0011006667 -0.0021697059
0.006698512 -0.00127 -0.0021697059
0.0015712559 -0.00025400001 -0.0025032354
-0.010171814 -0.00059266668 -0.00033529417
0.0010750698 -8.4666666e-05 -0.0026700001
-0.0063677211 -0.00025400001 -0.0071726474
0.0088486513 -0.00025400001 -0.0030035295
0.011164187 8.4666666e-05 0.0021661764
-0.016291441 -8.4666666e-05 -0.0050047059
0.010006418 -0.00127 -0.0021697059
0.016456837 0.00025400001 -0.0061720591
-0.013314326 0.00127 -0.0020029412
0.0088486513 -0.00076199998 -0.0023364706
0.017118419 -0.0011006667 -0.0023364706
-0.0027290233 8.4666666e-05 -1.7647588e-06
-0.01281814 8.4666666e-05 -1.7647588e-06
-0.0040521859 0.00059266668 -0.0025032354
-0.0025636279 0.00127 -0.0013358825
0.0010750698 -0.00025400001 -0.0031702942
-0.015960652 -0.00127 -0.00050205889
0.0040521859 8.4666666e-05 -0.0055050002
-0.016126046 0.00127 -0.0016694119
-0.0076908837 0.00025400001 -1.7647588e-06
-0.0065331166 0.00025400001 -0.0045044119
-0.0040521859 0.00025400001 -0.0033370589
-0.0033906046 0.00093133334 -1.7647588e-06
-0.0043829768 0.00127 -0.00016852947
0.011164187 0.00025400001 -0.006839118
0.0063677211 -0.00025400001 0.0016658823
-0.015464465 -0.00127 -0.0023364706
-0.0015712559 -0.00025400001 -0.0028367648
-0.0076908837 -0.00127 -0.0020029412
-0.003059814 0.00127 -0.00033529417
-0.011494977 -0.00059266668 -0.0023364706
0.01496828 -0.00093133334 -0.0023364706
-0.017283814 -0.0011006667 -0.0011691177
-0.014141303 -0.00059266668 -0.0023364706
0.0045483722 0.00127 -0.0023364706
-0.0062023257 0.00025400001 0.00016499995
0.0035560001 -8.4666666e-05 0.0016658823
-0.0063677211 -0.00127 -0.00016852947
-0.013314326 -0.00127 -0.0016694119
-0.011329582 -0.00127 -0.00083558832
-0.00057888374 0.00127 -0.0015026472
0.0035560001 -0.00042333335 -0.00033529417
0.011164187 8.4666666e-05 0.0019994117
0.0088486513 0.00025400001 -0.0058385297
-0.0035560001 8.4666666e-05 -0.0071726474
0.016622232 8.4666666e-05 0.0021661764
-0.014472093 -8.4666666e-05 -0.0023364706
0.012487349 0.00127 -0.0006688236
0.011329582 -0.00025400001 -0.0063388236
0.013975907 -0.00025400001 -0.0060052942
0.0065331166 0.00127 -0.0011691177
-0.01529907 -0.00025400001 -1.7647588e-06
-0.0095102331 -0.00127 -0.001002353
0.0086832559 0.00025400001 -0.0061720591
-0.013314326 -0.00127 -0.0018361766
0.0015712559 0.00093133334 -1.7647588e-06
-0.0096756285 0.0011006667 -1.7647588e-06
0.011164187 -8.4666666e-05 0.001832647
-0.016622232 0.00127 -0.001002353
-0.017449209 0.00059266668 -0.00033529417
0.01529907 0.0011006667 -1.7647588e-06
0.011494977 0.00025400001 0.00066529406
0.0023982327 8.4666666e-05 -1.7647588e-06
0.017118419 0.00127 -0.0006688236
0.017614605 -0.00042333335 -0.0021697059
-0.0012404651 0.00127 -0.00083558832
0.017614605 -0.00076199998 -0.0016694119
-0.010502605 0.00025400001 -1.7647588e-06
-0.0060369303 -8.4666666e-05 -0.0033370589
-0.0065331166 8.4666666e-05 0.00083205878
0.012983535 -0.00127 -0.0023364706
0.013479721 -0.00059266668 -0.0023364706
0.0027290233 0.0011006667 -1.7647588e-06
0.013810512 -0.00025400001 0.00033176466
0.014141303 -8.4666666e-05 0.0014991176
-0.0065331166 -8.4666666e-05 -0.0040041176
0.0040521859 0.00127 -0.0013358825
-0.01281814 0.00093133334 -0.00016852947
0.016456837 0.00025400001 -0.0076729413
0.017449209 -0.0011006667 -0.0018361766
-0.012156558 8.4666666e-05 -1.7647588e-06
0.011329582 0.0011006667 -0.0023364706
-0.0047137677 -0.00059266668 -0.0025032354
-0.0086832559 -0.00025400001 -0.0041708825
-0.0015712559 0.00025400001 -0.0045044119
0.0038867907 0.00127 -0.0020029412
-0.0086832559 0.00127 -0.001002353
-0.013810512 -8.4666666e-05 0.0019994117
-0.0023982327 8.4666666e-05 -0.0025032354
-0.00090967445 -0.00127 -0.0011691177
0.0075254887 0.00025400001 -1.7647588e-06
-0.0040521859 -0.00127 -0.00050205889
0.016456837 -0.00025400001 -0.004337647
-0.0080216751 -0.00127 -0.0015026472
0.010337209 -0.00127 -0.00083558832
0.0037213955 0.00025400001 -0.0045044119
-0.0075254887 0.00025400001 -0.0023364706
0.0042175814 0.00127 -0.0015026472
0.011660372 0.00025400001 -0.0070058824
-0.00024809304 -0.00059266668 -0.0025032354
0.011825767 -0.00127 -0.0015026472
0.0070293024 0.00127 -0.0023364706
-0.014802884 -0.00127 -0.00083558832
-0.010006418 -0.00093133334 -0.0023364706
-0.0063677211 -0.00025400001 0.00066529406
-0.0015712559 -0.00127 -0.00033529417
0.009841023 0.00059266668 -0.00033529417
0.005375349 -0.00127 -0.00033529417
-0.0065331166 8.4666666e-05 -0.0046711764
-0.015464465 0.00025400001 -0.0023364706
-0.0048791631 0.00127 -0.00083558832
0.017449209 0.0011006667 -0.0006688236
-0.010998791 0.00042333335 -0.0023364706
-0.0038867907 0.00025400001 -0.0071726474
-0.011660372 -8.4666666e-05 -0.0033370589
-0.0096756285 -0.00127 -0.00016852947
-0.015629862 0.00025400001 -0.0023364706
-0.0015712559 8.4666666e-05 -0.0071726474
-0.0017366512 -0.00127 -0.0013358825
0.012321954 -0.00127 -0.0018361766
-0.013810512 8.4666666e-05 -0.0075061768
0.011329582 0.00127 -1.7647588e-06
0.0060369303 -0.00127 -0.0006688236
0.0090140468 -0.00042333335 -0.0028367648
0.016622232 0.00025400001 -0.0060052942
-0.0014058605 0.00025400001 0.00066529406
-0.0062023257 8.4666666e-05 0.00083205878
0.017449209 -0.00025400001 -0.0023364706
0.0065331166 0.00025400001 -0.0060052942
-0.0065331166 8.4666666e-05 -0.0030035295
0.0091794422 -0.00127 -0.00083558832
0.015629862 0.00127 -0.00016852947
0.011329582 -0.00127 -0.0011691177
-0.013645116 0.00025400001 -0.0023364706
0.0028944188 -0.00127 -0.0020029412
-0.0038867907 -0.00025400001 0.0016658823
0.0019020465 0.00076199998 -0.0025032354
-0.0012404651 -0.00025400001 -0.0038373531
0.0023982327 -0.00025400001 -0.00016852947
-0.016787628 8.4666666e-05 -0.0036705884
-0.00074427907 -0.00042333335 -0.0025032354
-0.014141303 8.4666666e-05 -0.0035038237
-0.01778 -0.00025400001 -0.00016852947
0.003059814 0.00127 -0.0011691177
0.014141303 0.00042333335 -1.7647588e-06
-0.010006418 -0.00093133334 -1.7647588e-06
0.00024809304 -0.00076199998 -0.0025032354
-0.0015712559 -8.4666666e-05 -0.0060052942
0.0035560001 -8.4666666e-05 0.00083205878
0.013810512 8.4666666e-05 -0.0076729413
-0.011494977 0.00025400001 -0.0065055885
-0.0010750698 -0.00025400001 -0.0063388236
-0.0062023257 8.4666666e-05 -0.0038373531
-0.011494977 -0.00025400001 -0.0046711764
-0.0012404651 -0.00127 -0.0025032354
0.013479721 8.4666666e-05 -1.7647588e-06
8.2697676e-05 -0.00093133334 -1.7647588e-06
0.011494977 -0.00025400001 -0.0036705884
0.0088486513 -0.00025400001 -0.0038373531
-0.0086832559 8.4666666e-05 -0.0078397058
-0.006698512 0.00127 -1.7647588e-06
0.012321954 8.4666666e-05 -1.7647588e-06
0.0040521859 -0.00059266668 -0.00033529417
0.013810512 -0.00025400001 -0.0045044119
-0.011329582 0.00127 -0.0015026472
-0.016622232 -0.00025400001 -0.0033370589
0.011660372 -8.4666666e-05 -0.0040041176
0.006863907 0.00127 -0.0015026472
-0.00090967445 0.0011006667 -0.0025032354
0.0035560001 0.00025400001 -0.006839118
-0.011991163 -0.00127 -0.00050205889
0.00090967445 -0.00127 -0.001002353
0.0058715348 0.00076199998 -0.0025032354
0.0085178604 0.00076199998 -0.00033529417
-0.0096756285 -8.4666666e-05 -0.0023364706
-0.013810512 -0.00059266668 -0.0025032354
-0.00057888374 0.00127 -0.0025032354
-0.0065331166 8.4666666e-05 -0.0065055885
-0.006863907 0.00076199998 -0.00033529417
0.01529907 -0.00025400001 -0.00016852947
-0.01281814 -0.00059266668 -0.0023364706
0.0017366512 -0.00059266668 -0.0025032354
0.0037213955 -0.00025400001 -0.0048379414
-0.014141303 -0.00127 -0.00083558832
-0.0025636279 0.00127 -0.00016852947
0.011991163 0.00042333335 -1.7647588e-06
-0.0032252094 0.00127 -0.0018361766
0.017614605 -0.00093133334 -0.0018361766
0.0040521859 -0.00025400001 -0.0051714708
-0.0086832559 -0.00127 -0.0011691177
-0.014141303 0.00076199998 -0.00033529417
-0.01496828 0.00025400001 -1.7647588e-06
-0.0075254887 0.00076199998 -0.0023364706
-0.0070293024 0.00127 -0.0023364706
-0.014802884 -0.00076199998 -0.00016852947
0.013810512 0.00025400001 -0.0055050002
0.0045483722 -0.00127 -0.0023364706
-0.0062023257 8.4666666e-05 0.0023329412
-0.013810512 -8.4666666e-05 -0.004337647
-0.0014058605 0.00025400001 -0.0038373531
0.0095102331 -0.00059266668 -0.0023364706
0.017118419 0.00025400001 -0.0023364706
-0.013975907 0.00127 -0.0016694119
0.0081870696 -0.00042333335 -0.00033529417
-0.0012404651 -0.00025400001 -0.0031702942
0.013810512 0.00025400001 -0.0070058824
-0.0063677211 -0.00025400001 -0.0038373531
0.0065331166 -0.00025400001 -0.0026700001
-0.00041348839 0.00042333335 -0.0025032354
0.014306698 0.00059266668 -0.00033529417
0.013479721 0.00127 -0.0023364706
-0.0065331166 0.00025400001 -0.0026700001
0.00090967445 -0.00093133334 -0.0025032354
0.016291441 0.00025400001 0.00066529406
0.011494977 0.00127 -0.0011691177
0.010171814 -0.00025400001 -0.00016852947
-0.0025636279 -0.00127 -0.0015026472
0.0014058605 0.00025400001 -0.006672353
0.010998791 8.4666666e-05 -1.7647588e-06
0.0015712559 8.4666666e-05 0.00033176466
0.0062023257 -0.00025400001 0.0016658823
0.010998791 0.00127 -0.0006688236
0.010502605 8.4666666e-05 -1.7647588e-06
0.010833396 -0.00127 -0.0015026472
0.0047137677 0.00127 -0.0015026472
-0.0035560001 -0.00042333335 -0.00033529417
0.00090967445 0.00127 -0.00016852947
-0.01496828 -0.00076199998 -0.0023364706
-0.010171814 -0.00127 -0.0016694119
-0.01778 -0.00025400001 -0.0013358825
-0.014141303 -0.0011006667 -0.0023364706
-0.0065331166 -8.4666666e-05 -0.0061720591
-0.016622232 -0.00025400001 0.00016499995
-0.0014058605 -0.00127 -0.00016852947
0.0015712559 -8.4666666e-05 -0.0060052942
-0.0010750698 -0.00127 -0.00033529417
-0.017283814 0.0011006667 -0.00050205889
0.01281814 0.00127 -0.00083558832
0.017449209 -0.00042333335 -0.0023364706
-0.0095102331 0.00042333335 -0.00016852947
-0.015960652 0.0011006667 -0.00016852947
-0.0048791631 -0.00127 -0.0013358825
-0.016291441 0.00025400001 -0.0046711764
-0.0062023257 -8.4666666e-05 -0.0076729413
0.011164187 8.4666666e-05 -0.0076729413
0.0062023257 -8.4666666e-05 -0.004337647
0.0010750698 -8.4666666e-05 -0.0045044119
0.014802884 -0.00127 -0.0015026472
0.0028944188 -0.00127 -0.0023364706
0.016456837 0.00025400001 0.001832647
0.0014058605 -0.00025400001 -0.0033370589
-0.017449209 -0.00076199998 -0.0023364706
-0.010833396 0.00127 -0.0015026472
-0.011164187 -8.4666666e-05 -0.0065055885
0.012156558 0.00042333335 -0.00016852947
-0.0043829768 8.4666666e-05 -0.0025032354
-0.011660372 -8.4666666e-05 -0.0038373531
0.016622232 0.00025400001 -0.0030035295
0.0040521859 8.4666666e-05 -0.0078397058
-0.011660372 -0.00025400001 -0.006839118
-0.0040521859 -8.4666666e-05 -0.0041708825
0.0032252094 0.00093133334 -1.7647588e-06
0.006698512 0.0011006667 -0.0023364706
0.0015712559 0.00025400001 0.001832647
-0.011329582 -0.00025400001 0.00033176466
0.0019020465 -0.00127 -0.001002353
-0.0086832559 8.4666666e-05 0.0024997059
-0.013479721 -0.00127 -1.7647588e-06
0.014472093 -0.00127 -0.0015026472
-0.0035560001 -8.4666666e-05 -0.0040041176
0.0076908837 -8.4666666e-05 -0.0023364706
0.013975907 0.00093133334 -0.00016852947
0.0022328373 0.00127 -0.0013358825
-0.013314326 0.00127 -0.00033529417
-0.011991163 0.00127 -0.00033529417
0.0014058605 -0.00025400001 -0.0038373531
0.012321954 0.00127 -0.0020029412
0.0025636279 0.0011006667 -0.0025032354
-0.00041348839 0.00025400001 -1.7647588e-06
0.015960652 -0.00127 -0.00050205889
0.012156558 0.00059266668 -0.00033529417
-0.014306698 0.00042333335 -1.7647588e-06
-0.0038867907 -0.00025400001 0.00066529406
-0.010668 0.00127 -0.0018361766
0.0040521859 0.00025400001 0.0016658823
-0.0025636279 -8.4666666e-05 -0.0025032354
0.017283814 0.0011006667 -0.0013358825
0.00041348839 0.00127 -0.0015026472
0.012321954 0.00093133334 -1.7647588e-06
-0.013975907 -0.00127 -0.0023364706
0.00090967445 0.00127 -0.0013358825
0.010998791 -0.00127 -0.0016694119
-0.013975907 0.00025400001 0.00049852935
-0.017449209 -0.0011006667 -0.00083558832
0.011660372 -8.4666666e-05 -0.004337647
0.010171814 0.00127 -0.0016694119
-0.016456837 -0.0011006667 -0.0023364706
-0.009841023 0.00042333335 -0.00016852947
-0.0043829768 -0.00059266668 -0.00033529417
0.011494977 -0.00025400001 -0.0076729413
0.010833396 0.00093133334 -0.0023364706
-0.014637489 -0.00093133334 -0.0023364706
-8.2697676e-05 -0.00127 -1.7647588e-06
0.0055407444 0.00127 -0.0015026472
-0.017118419 0.00076199998 -0.00033529417
-0.01496828 -0.00042333335 -0.00033529417
0.013479721 -0.00076199998 -0.00033529417
0.0028944188 0.00127 -0.00016852947
0.0043829768 0.00127 -0.0013358825
0.017614605 -0.00025400001 -0.0023364706
-8.2697676e-05 0.00127 -0.0011691177
-0.0012404651 0.00025400001 0.00016499995
-0.005375349 0.00127 -0.001002353
0.0088486513 0.00025400001 -0.0053382353
0.0093448376 -0.00127 -0.00050205889
-0.0040521859 -8.4666666e-05 0.0014991176
-0.012156558 0.0011006667 -0.0023364706
-0.010668 -0.00127 -0.00050205889
0.00041348839 0.00093133334 -0.0025032354
-0.0037213955 -0.0011006667 -1.7647588e-06
-0.013810512 0.00025400001 -0.0040041176
-0.0047137677 -0.00127 -0.0020029412
0.00090967445 -0.00127 -0.00033529417
0.01281814 -0.00127 -0.0016694119
0.0012404651 -0.00042333335 -0.00033529417
-0.0085178604 0.00127 -0.0016694119
-0.0052099535 -0.00076199998 -0.00016852947
-0.016622232 -0.00025400001 -0.0041708825
0.013810512 -8.4666666e-05 0.0023329412
-0.012321954 -0.0011006667 -0.0023364706
-0.0086832559 0.00025400001 -0.0026700001
0.00041348839 -8.4666666e-05 -1.7647588e-06
0.0019020465 -0.00025400001 -1.7647588e-06
0.00074427907 -0.00127 -0.0016694119
-0.0096756285 -0.00042333335 -0.0023364706
0.0060369303 8.4666666e-05 -0.0060052942
0.011660372 -8.4666666e-05 0.0016658823
-0.013479721 -0.00127 -0.00033529417
-0.00024809304 0.00042333335 -0.00016852947
-0.016456837 0.00093133334 -0.00016852947
0.010833396 -0.00059266668 -0.0023364706
-0.0012404651 -0.00025400001 0.0026664706
0.0086832559 -0.00025400001 -0.0053382353
-0.011164187 0.00042333335 -1.7647588e-06
-0.010171814 8.4666666e-05 -1.7647588e-06
-0.0060369303 -8.4666666e-05 0.00099882344
0.016622232 -0.0011006667 -0.00016852947
-0.0080216751 -0.00059266668 -0.00033529417
0.0091794422 -0.00093133334 -0.0023364706
-0.0023982327 0.00127 -0.00033529417
0.01281814 0.00127 -0.0023364706
-0.016291441 -8.4666666e-05 0.0021661764
0.012652745 0.00127 -0.00016852947
0.0027290233 0.0011006667 -0.0025032354
0.0037213955 -8.4666666e-05 -0.0078397058
0.013314326 -0.00127 -0.0011691177
0.013810512 -0.00025400001 -0.006839118
-0.0017366512 -8.4666666e-05 -0.0025032354
-0.0022328373 0.00093133334 -0.00016852947
-0.015960652 0.00127 -0.0016694119
-0.0088486513 -0.00025400001 -0.0063388236
-0.0093448376 0.00042333335 -0.00016852947
-0.013148931 -0.00127 -0.0016694119
-0.011494977 -0.00025400001 -0.0033370589
0.0086832559 8.4666666e-05 0.0011655882
-0.00057888374 -0.00127 -0.00016852947
-0.0090140468 -0.00127 -0.0011691177
0.0033906046 -8.4666666e-05 -0.0025032354
-0.015133675 0.00042333335 -0.0023364706
-0.0073600933 -0.00127 -0.0013358825
-0.0095102331 -0.00127 -0.0023364706
-0.0088486513 0.00093133334 -0.00016852947
-8.2697676e-05 0.00059266668 -0.00033529417
-0.0047137677 0.00127 -0.00016852947
-0.013479721 -0.00127 -0.00050205889
-0.0022328373 -0.00059266668 -0.0025032354
0.0086832559 -8.4666666e-05 -0.0036705884
-0.0037213955 0.00025400001 0.0019994117
0.016456837 -0.00025400001 0.00099882344
0.0040521859 0.00025400001 -0.0056717647
-0.016787628 8.4666666e-05 0.0021661764
-8.2697676e-05 -0.00127 -0.0020029412
0.014141303 -0.00025400001 -0.0033370589
-0.0048791631 0.00042333335 -0.00016852947
0.0010750698 -8.4666666e-05 -0.0078397058
-0.0043829768 -0.00127 -0.0006688236
-0.012487349 0.00127 -0.001002353
0.0010750698 -0.00127 -0.0023364706
-0.0096756285 -0.0011006667 -0.0023364706
-0.0015712559 0.00127 -0.0016694119
0.013810512 0.00127 -0.001002353
0.0045483722 0.00076199998 -0.00033529417
0.013810512 8.4666666e-05 0.0019994117
0.0086832559 0.00093133334 -0.0023364706
-0.014472093 0.0011006667 -1.7647588e-06
-0.012487349 0.00127 -0.00016852947
0.009841023 -0.00093133334 -1.7647588e-06
-0.0090140468 -0.00025400001 -0.0053382353
0.0035560001 -8.4666666e-05 0.0013323529
-0.013810512 0.00025400001 0.0021661764
-0.016622232 -0.00127 -0.0021697059
-0.0060369303 -0.00042333335 -0.0023364706
-0.016456837 -8.4666666e-05 -0.0080064712
-0.0081870696 0.00093133334 -0.00016852947
-0.0052099535 -0.00076199998 -0.0025032354
0.016291441 0.00025400001 -0.006672353
0.010668 0.00127 -0.0013358825
0.0015712559 8.4666666e-05 -0.0030035295
-0.011825767 0.00025400001 -0.0023364706
0.01778 0.00025400001 -0.0016694119
-0.011494977 -0.00025400001 -0.0048379414
0.0033906046 -0.00059266668 -0.0025032354
-0.0014058605 0.00093133334 -0.0025032354
0.011660372 0.00025400001 -0.0025032354
-0.0086832559 0.0011006667 -1.7647588e-06
-0.011164187 0.00042333335 -0.0023364706
-0.011991163 8.4666666e-05 -0.0023364706
0.016456837 -0.00059266668 -0.0023364706
0.0014058605 -0.00059266668 -0.0025032354
-0.0095102331 -0.00093133334 -1.7647588e-06
0.005375349 -8.4666666e-05 -0.0025032354
-0.016456837 0.00025400001 0.00016499995
0.015133675 0.00127 -0.0015026472
-0.0012404651 -0.00025400001 -0.0070058824
-0.010833396 8.4666666e-05 -0.0023364706
-0.0019020465 0.00127 -0.00050205889
0.0035560001 -0.00025400001 -0.0063388236
-0.016126046 -0.00127 -0.00050205889
-0.010006418 -0.0011006667 -1.7647588e-06
-0.014141303 0.00025400001 -0.0058385297
0.0055407444 0.00042333335 -0.0025032354
-0.016456837 -0.00025400001 -0.0040041176
-0.0086832559 -0.00093133334 -0.0023364706
-0.0027290233 0.00059266668 -0.00033529417
-0.010006418 -0.00127 -0.00050205889
0.0075254887 -0.00093133334 -1.7647588e-06
-0.0038867907 0.00025400001 -0.0070058824
0.016622232 -8.4666666e-05 0.001832647
0.015133675 0.00076199998 -0.00033529417
0.013810512 -0.00025400001 0.0021661764
0.0022328373 -0.00042333335 -0.00033529417
-0.0090140468 8.4666666e-05 -0.0073394119
-0.006698512 -0.00059266668 -0.0023364706
-0.01496828 8.4666666e-05 -1.7647588e-06
0.01281814 0.00059266668 -0.00033529417
-0.0028944188 0.00076199998 -0.0025032354
-0.010998791 -0.00127 -0.00016852947
0.0015712559 0.00025400001 -0.0033370589
-0.0062023257 -0.00025400001 -0.0051714708
-0.0022328373 -0.00127 -0.0013358825
0.0090140468 0.00025400001 0.0014991176
0.014802884 -0.00059266668 -0.0023364706
-0.0088486513 -0.00025400001 -0.0075061768
-0.014141303 8.4666666e-05 -0.0045044119
0.016291441 -0.00127 -0.0016694119
0.0050445581 0.00076199998 -0.00033529417
-0.00041348839 -0.00093133334 -1.7647588e-06
0.0040521859 0.00025400001 -0.0063388236
0.017283814 0.0011006667 -1.7647588e-06
0.011494977 -0.00025400001 -0.0063388236
0.010006418 0.00093133334 -1.7647588e-06
0.0057061398 0.0011006667 -0.0025032354
0.0090140468 0.00025400001 -0.0026700001
0.0065331166 -0.00042333335 -0.00033529417
0.016456837 -0.00042333335 -0.00033529417
-0.0023982327 -8.4666666e-05 -1.7647588e-06
-0.010171814 0.00127 -1.7647588e-06
0.0090140468 0.00093133334 -1.7647588e-06
-0.0010750698 -0.00127 -0.0023364706
-0.013479721 0.00059266668 -0.00033529417
0.0037213955 -0.00076199998 -0.0025032354
-0.0042175814 -0.00042333335 -0.0025032354
-0.012156558 -8.4666666e-05 -1.7647588e-06
0.0055407444 0.00127 -0.0025032354
-0.0028944188 0.00042333335 -1.7647588e-06
0.011494977 0.00127 -0.00083558832
0.0010750698 8.4666666e-05 0.0016658823
-0.0037213955 0.00025400001 0.0023329412
0.017614605 -0.00093133334 -0.0021697059
0.017614605 -0.00059266668 -0.0018361766
0.0012404651 -0.00025400001 -0.0060052942
-0.0086832559 8.4666666e-05 0.00099882344
-0.005375349 0.00076199998 -0.00033529417
0.0010750698 -8.4666666e-05 -0.0041708825
-0.0065331166 8.4666666e-05 0.00033176466
-0.0091794422 0.00127 -0.0013358825
0.003059814 8.4666666e-05 -1.7647588e-06
-0.010998791 0.00127 -0.001002353
0.0090140468 -0.00025400001 -0.006672353
0.0058715348 0.00127 -0.001002353
-0.0043829768 -8.4666666e-05 -1.7647588e-06
0.00090967445 0.00025400001 0.00066529406
0.0010750698 0.00042333335 -0.00016852947
0.01281814 -0.00127 -0.0013358825
0.0088486513 -0.00025400001 -0.0036705884
-0.014637489 -0.00127 -0.001002353
0.0014058605 0.00127 -0.0020029412
0.0063677211 0.00025400001 0.0014991176
-0.010006418 8.4666666e-05 -1.7647588e-06
-0.0062023257 -8.4666666e-05 0.0024997059
-0.014141303 -0.00025400001 0.0023329412
-0.017614605 -0.00059266668 -0.00050205889
-0.012983535 8.4666666e-05 -0.0023364706
-0.014141303 -0.00025400001 -0.0031702942
-0.013975907 0.00025400001 -0.0071726474
0.013479721 0.00127 -0.001002353
0.0023982327 0.0011006667 -1.7647588e-06
-0.0038867907 0.00093133334 -1.7647588e-06
0.011991163 0.00059266668 -0.00033529417
-0.011164187 0.00042333335 -0.00016852947
0.016622232 -8.4666666e-05 0.0026664706
0.015629862 -0.00127 -0.0013358825
-0.0017366512 -0.0011006667 -0.0025032354
-0.013148931 -0.00025400001 -1.7647588e-06
0.0022328373 0.00059266668 -0.0025032354
0.011660372 -0.00127 -0.0021697059
0.0012404651 -0.00025400001 -0.0071726474
0.0065331166 0.00025400001 -0.0041708825
-0.014637489 -0.00025400001 -1.7647588e-06
-0.0086832559 -0.00127 -0.0023364706
0.0019020465 0.00127 -0.0025032354
0.010833396 -0.00127 -0.00033529417
-0.017614605 -0.0011006667 -0.00050205889
0.0058715348 -0.00025400001 -1.7647588e-06
-0.010833396 0.00042333335 -0.0023364706
-0.014141303 0.00025400001 -0.0033370589
-0.0063677211 -0.00025400001 -0.0045044119
0.0063677211 8.4666666e-05 -0.0080064712
0.0020674418 0.00059266668 -0.0025032354
-0.0038867907 -0.00127 -1.7647588e-06
-0.0040521859 8.4666666e-05 0.0013323529
0.015960652 0.00093133334 -1.7647588e-06
0.0020674418 0.00042333335 -1.7647588e-06
-0.0080216751 0.00127 -0.0013358825
0.016622232 0.00025400001 -0.0038373531
0.016622232 -8.4666666e-05 -0.0045044119
0.011991163 -0.00127 -0.0015026472
0.013479721 0.00127 -0.0013358825
0.010171814 0.00042333335 -0.00016852947
8.2697676e-05 0.00076199998 -0.0025032354
0.013810512 -0.00127 -0.0015026472
0.0022328373 -0.00127 -0.0011691177
-0.013810512 -0.00025400001 0.0013323529
-0.00057888374 -8.4666666e-05 -1.7647588e-06
-0.0065331166 -0.00025400001 0.00033176466
0.005375349 0.00059266668 -0.0025032354
-0.0038867907 0.00025400001 -0.0050047059
0.0010750698 -8.4666666e-05 -0.0040041176
0.011164187 0.00127 -0.0015026472
-0.016291441 0.00127 -0.0015026472
-0.0090140468 0.00025400001 -0.0033370589
0.011494977 -0.00025400001 -0.0058385297
0.0062023257 -8.4666666e-05 -0.0026700001
-0.0035560001 -0.00025400001 -0.0028367648
-0.0060369303 -0.0011006667 -1.7647588e-06
0.0062023257 -0.00025400001 -0.0071726474
-0.0088486513 -0.00025400001 -0.0060052942
0.0065331166 0.0011006667 -1.7647588e-06
-0.014637489 -0.00127 -0.0021697059
-0.013975907 -0.00025400001 0.0023329412
0.013479721 -0.00093133334 -0.00016852947
-0.0014058605 0.00127 -0.001002353
0.0070293024 -0.00127 -0.00083558832
0.0090140468 0.00025400001 -0.0030035295
-0.00074427907 0.00127 -0.00083558832
0.016291441 0.00025400001 0.0023329412
-0.0040521859 -0.00025400001 -0.0038373531
-0.015629862 -0.00127 -0.0013358825
-0.0065331166 -8.4666666e-05 0.0023329412
0.016787628 -0.00127 -0.0020029412
-0.016126046 0.00127 -0.001002353
0.016291441 8.4666666e-05 0.00066529406
-0.016622232 8.4666666e-05 -0.0063388236
-0.016291441 -8.4666666e-05 0.00066529406
0.011660372 0.00127 -0.00050205889
0.015960652 0.00042333335 -0.0023364706
0.015629862 0.00025400001 -0.0023364706
-0.010502605 -0.00127 -0.00083558832
0.013975907 0.00025400001 0.00066529406
0.0088486513 0.00025400001 -0.0041708825
-0.0038867907 -0.00025400001 -0.0035038237
0.0020674418 -0.00025400001 -0.00016852947
0.0037213955 -8.4666666e-05 -0.0080064712
-8.2697676e-05 -0.00127 -0.00083558832
0.0035560001 0.00025400001 -0.0035038237
-0.0035560001 0.00127 -0.0015026472
0.017449209 0.00076199998 -0.0023364706
0.0040521859 0.00025400001 -0.0045044119
-0.0027290233 0.00042333335 -0.0025032354
-0.0063677211 0.00025400001 -0.0046711764
-0.015464465 0.00127 -0.0023364706
-0.016456837 0.00127 -0.00050205889
0.014141303 0.00059266668 -0.00033529417
-0.0096756285 -0.00127 -0.0015026472
-0.0032252094 -8.4666666e-05 -0.0025032354
0.0015712559 -0.00127 -0.0020029412
0.014141303 0.00025400001 0.00083205878
0.0048791631 -0.00127 -0.0023364706
0.012156558 -0.00127 -0.0013358825
0.0037213955 -0.00025400001 -0.0058385297
-0.0088486513 0.00025400001 -0.0071726474
0.0070293024 -0.00076199998 -0.0025032354
0.006698512 -0.00127 -0.0013358825
-0.013975907 0.00025400001 0.0011655882
-0.0080216751 -0.0011006667 -1.7647588e-06
0.016622232 -8.4666666e-05 -0.0046711764
0.0088486513 0.00127 -0.0015026472
-0.0033906046 0.00127 -0.0025032354
0.0095102331 0.00042333335 -1.7647588e-06
-0.0060369303 -0.00127 -1.7647588e-06
0.015464465 0.00127 -0.00050205889
0.0063677211 0.00127 -0.0013358825
0.009841023 -0.00076199998 -0.0025032354
0.0015712559 0.00025400001 -0.0048379414
0.0010750698 -0.00025400001 -0.0036705884
-0.011329582 -8.4666666e-05 0.0023329412
-0.012156558 -0.00059266668 -0.00033529417
-0.017283814 0.0011006667 -0.0011691177
-0.016622232 -0.00127 -0.0006688236
-0.0022328373 0.00025400001 -1.7647588e-06
0.0065331166 8.4666666e-05 -0.0026700001
-0.0015712559 8.4666666e-05 -0.0036705884
-0.015629862 -0.00076199998 -0.00016852947
-0.0073600933 0.00025400001 -0.0023364706
-0.0081870696 -0.00127 -1.7647588e-06
0.010833396 0.00025400001 -1.7647588e-06
-0.011164187 -0.00025400001 -0.0055050002
0.01529907 -0.00025400001 -0.0023364706
-0.00090967445 -0.00076199998 -0.0025032354
0.0090140468 -8.4666666e-05 0.0013323529
0.015960652 -0.00127 -0.0013358825
0.0062023257 0.00025400001 -0.0041708825
-0.013810512 -8.4666666e-05 -0.0061720591
0.015960652 0.00025400001 -1.7647588e-06
-0.00090967445 0.00093133334 -1.7647588e-06
-0.011494977 0.00025400001 0.00099882344
-0.0093448376 -0.00127 -0.0015026472
-0.0075254887 0.00059266668 -0.00033529417
0.011660372 0.00025400001 -0.004337647
0.0014058605 -0.00025400001 -0.0065055885
-0.0071946979 0.00042333335 -0.0023364706
-0.0080216751 0.00093133334 -1.7647588e-06
-0.016787628 0.00127 -0.0011691177
0.011494977 -0.00025400001 -0.0060052942
-0.0015712559 0.00025400001 -0.006839118
-0.013810512 -8.4666666e-05 -0.0055050002
0.0055407444 0.00127 -0.0011691177
0.017614605 0.00076199998 -0.0023364706
0.0035560001 -8.4666666e-05 0.0023329412
0.011660372 -8.4666666e-05 0.00066529406
-0.0063677211 -0.00025400001 -0.0040041176
0.010337209 -8.4666666e-05 -1.7647588e-06
0.0012404651 0.00042333335 -0.00016852947
8.2697676e-05 0.00127 -0.0018361766
0.01496828 0.00127 -0.0011691177
0.0088486513 0.00025400001 0.00033176466
-0.008352465 0.00127 -0.0018361766
0.010337209 8.4666666e-05 -0.0023364706
0.0096756285 -0.00127 -0.0023364706
0.0040521859 0.00127 -0.0011691177
0.0076908837 -0.00127 -0.00033529417
-0.00090967445 0.00127 -0.00016852947
0.0047137677 0.00127 -0.00033529417
-0.0075254887 -0.0011006667 -1.7647588e-06
-0.011660372 -0.00025400001 0.00033176466
-0.017614605 0.00076199998 -0.0015026472
-0.0058715348 -0.00127 -0.0023364706
0.0090140468 0.0011006667 -0.0023364706
0.0071946979 -0.00127 -0.0025032354
-0.0063677211 -0.00127 -0.0021697059
-0.0017366512 -0.00127 -0.00016852947
-0.0045483722 0.00025400001 -0.0025032354
0.0042175814 -0.00127 -0.0020029412
-0.0010750698 -0.00127 -0.0016694119
0.0042175814 -0.0011006667 -0.0025032354
0.011164187 0.00025400001 -0.0046711764
-0.013810512 -0.00025400001 -0.00016852947
-0.0022328373 -0.00127 -1.7647588e-06
0.013645116 -8.4666666e-05 -0.0025032354
-0.011164187 8.4666666e-05 -0.0035038237
-0.016787628 -8.4666666e-05 -0.0030035295
0.0010750698 0.00025400001 -0.0055050002
0.0027290233 0.00127 -0.0025032354
0.0035560001 -8.4666666e-05 -0.0040041176
-0.00057888374 0.00127 -0.00083558832
0.0075254887 0.0011006667 -1.7647588e-06
0.015133675 0.00127 -0.0011691177
-0.01529907 -0.00042333335 -0.00033529417
0.0086832559 0.00127 -0.00083558832
-0.016622232 -0.00025400001 -0.0040041176
-0.01778 0.00025400001 -0.0013358825
0.0040521859 -8.4666666e-05 -0.0060052942
0.012983535 -0.00093133334 -0.0023364706
0.00057888374 -0.00127 -0.0013358825
-0.016456837 -0.00025400001 0.0024997059
-0.016456837 0.00127 -0.0013358825
0.0096756285 0.00042333335 -0.0023364706
-0.0037213955 0.00025400001 0.00049852935
0.009841023 -0.00127 -0.0015026472
-0.010006418 0.00059266668 -0.00033529417
-0.011494977 0.00025400001 -0.0076729413
-0.0032252094 0.00093133334 -1.7647588e-06
-0.0062023257 8.4666666e-05 0.0021661764
-0.0088486513 -0.00127 -0.00016852947
-0.010006418 -0.00127 -0.0018361766
-0.0070293024 0.00093133334 -1.7647588e-06
0.014141303 -8.4666666e-05 0.0013323529
0.011660372 0.00025400001 -0.0053382353
0.010337209 0.00127 -0.0015026472
-0.014637489 0.00025400001 -0.0023364706
0.0010750698 -0.00127 -0.0015026472
-0.013975907 -8.4666666e-05 -0.0078397058
-0.0028944188 -0.00127 -0.001002353
-0.0090140468 0.00127 -0.0006688236
-0.006863907 0.00127 -0.0006688236
-0.0062023257 -0.00025400001 -0.006839118
0.0063677211 0.00093133334 -0.00016852947
0.0025636279 0.00127 -1.7647588e-06
0.0047137677 -0.0011006667 -1.7647588e-06
0.014141303 0.00025400001 0.0013323529
0.0042175814 0.00127 -0.0023364706
0.014802884 -0.00127 -0.0006688236
0.0012404651 0.00127 -0.0020029412
0.012156558 -0.00076199998 -0.0023364706
-0.013810512 8.4666666e-05 0.00083205878
-0.010337209 0.00127 -0.0023364706
0.0088486513 -0.00025400001 -0.0071726474
0.011164187 0.00127 -0.0013358825
0.011329582 8.4666666e-05 0.0024997059
-0.016787628 0.00127 -0.0013358825
0.0062023257 -8.4666666e-05 -0.0048379414
0.016126046 -0.00025400001 -0.0023364706
-0.0071946979 -0.00042333335 -0.00033529417
-0.011329582 0.00025400001 -0.0038373531
0.016291441 8.4666666e-05 -0.0058385297
-0.011494977 -0.00025400001 -0.0051714708
0.011164187 8.4666666e-05 -0.0071726474
0.015464465 0.00127 -0.0023364706
0.014637489 0.00042333335 -0.0023364706
-0.0063677211 0.00025400001 -0.0076729413
-0.0076908837 0.00127 -0.0020029412
0.010006418 -0.00127 -0.0013358825
0.0065331166 -8.4666666e-05 0.0016658823
-0.0090140468 -8.4666666e-05 0.0024997059
8.2697676e-05 0.00127 -0.0015026472
0.013645116 -0.00059266668 -0.0023364706
-0.0088486513 -0.00042333335 -0.0026700001
0.0014058605 -0.00025400001 -0.0053382353
-0.012156558 0.00059266668 -0.00033529417
-0.0057061398 -0.00127 -0.00033529417
-0.016622232 -0.00025400001 -0.0060052942
0.0062023257 -8.4666666e-05 -0.0076729413
0.0063677211 -0.00025400001 -1.7647588e-06
0.0086832559 8.4666666e-05 -0.0065055885
0.0086832559 -0.00127 -0.0006688236
-0.0062023257 -0.00025400001 -0.0065055885
0.017449209 0.0011006667 -0.00016852947
-0.0090140468 0.00025400001 -0.0030035295
-0.011164187 -0.00076199998 -0.00016852947
0.011660372 -0.0011006667 -1.7647588e-06
0.0037213955 -0.0011006667 -0.0025032354
-0.013810512 -8.4666666e-05 -0.006672353
-0.01281814 0.00076199998 -0.0023364706
-0.0052099535 0.00127 -0.0016694119
0.005375349 0.00025400001 -0.0025032354
0.011164187 0.00127 -0.0021697059
-0.01778 -0.00025400001 -0.0020029412
0.0071946979 -8.4666666e-05 -1.7647588e-06
-0.016622232 0.00025400001 0.0011655882
0.0070293024 -0.00093133334 -1.7647588e-06
0.0040521859 0.00025400001 -0.0076729413
-0.0038867907 0.00025400001 -0.0028367648
0.0062023257 0.00025400001 -0.0030035295
0.0022328373 -0.00127 -0.0020029412
0.00074427907 0.00127 -0.0020029412
0.0086832559 0.00025400001 -0.0030035295
-0.0033906046 -0.0011006667 -1.7647588e-06
-0.0015712559 8.4666666e-05 -0.0033370589
-0.0015712559 -0.00025400001 -0.0045044119
0.011494977 0.00025400001 0.0023329412
0.00057888374 -0.00127 -0.00083558832
0.011991163 -8.4666666e-05 -0.0025032354
0.0075254887 -0.00127 -0.00033529417
