# .PCD v0.7 - Point Cloud Data file format
VERSION 0.7
FIELDS x y z
SIZE 4 4 4
TYPE F F F
COUNT 1 1 1
WIDTH 1216
HEIGHT 1
VIEWPOINT 0 0 0 1 0 0 0
POINTS 1216
DATA ascii
0.0074835541 -0.00025400001 0.0010697872
0.018588182 -0.00127 -0.0013429788
-0.028727191 -0.00127 -0.0011017022
-0.018105373 -0.00127 -0.00037787241
-0.017622562 -2.1684043e-19 -0.0025493619
-0.0082077691 0.00127 -0.0020668085
-0.022933472 -0.00025400001 -0.0049621277
0.0084491735 -2.1684043e-19 -0.0001365958
0.019795207 -0.00050800003 -0.00037787241
0.0077249589 -0.00025400001 -0.0059272344
0.0048280992 -0.0010160001 -0.0023080851
0.015208513 -0.00025400001 -0.0073748939
-0.00024140497 -0.00025400001 -0.0037557448
-0.028485786 0.0010160001 -0.0023080851
0.023657687 0.00025400001 -0.0001365958
-0.0028968595 0.00127 -0.0015842554
-0.0024140496 0.00127 -0.00037787241
-0.0074835541 0.00025400001 -0.0052034045
-0.0055523142 0.00076199998 -0.0023080851
0.006759339 0.0010160001 -0.0023080851
-0.020036612 0.0010160001 -0.0001365958
-0.011346034 0.00127 -0.0011017022
0.019070992 -0.0010160001 -0.0023080851
0.013035868 -0.00050800003 -0.00037787241
-0.027761571 0.00127 -0.0001365958
0.00072421489 -0.00025400001 -0.0001365958
-0.0041038846 0.00127 -0.00061914901
-0.019312397 -0.00025400001 -0.0001365958
-0.0057937191 0.00127 -0.0011017022
-0.0036210744 -0.00025400001 -0.0001365958
0.028727191 0.00050800003 -0.0023080851
-0.016898347 -0.0010160001 -0.0023080851
0.0055523142 0.00050800003 -0.0023080851
0.0074835541 0.00025400001 -0.0071336171
0.017139753 0.00127 -0.0011017022
-0.024864711 0.00127 -0.0013429788
0.010863223 -0.00127 -0.0023080851
-0.0077249589 0.00127 -0.0001365958
0.020519422 0.00025400001 -0.0027906385
0.018105373 -0.00127 -0.00037787241
-0.0077249589 0.00127 -0.0023080851
0.015449918 -2.1684043e-19 -0.0030319151
-0.020278018 0.00076199998 -0.0023080851
0.0024140496 -0.00025400001 -0.0056859576
-0.00048280993 0.00127 -0.0023080851
-0.025347522 -0.00127 -0.00037787241
0.0038624795 -0.00076199998 -0.0023080851
0.0036210744 0.00050800003 -0.0023080851
0.025347522 -2.1684043e-19 -0.0042382982
0.0031382646 -0.00127 -0.0011017022
-0.0019312397 0.00127 -0.0001365958
0.0048280992 -0.00025400001 0.0020348935
-0.028485786 -0.00050800003 -0.0023080851
-0.023899091 0.0010160001 -0.0023080851
0.010139009 0.00025400001 -0.0027906385
-0.0072421487 -0.00050800003 -0.0023080851
-0.017622562 -2.1684043e-19 0.00034595741
0.017863967 0.00025400001 0.0022761703
-0.022933472 -0.00076199998 -0.0023080851
-0.025588926 -2.1684043e-19 -0.0032731916
-0.018346777 -0.00127 -0.0020668085
-0.020036612 -2.1684043e-19 -0.0047208513
-0.0084491735 -0.00127 -0.0001365958
-0.0012070248 0.00127 -0.00061914901
-0.022209257 0.00127 -0.00037787241
-0.0065179341 -0.00127 -0.0011017022
0 -0.00076199998 -0.0023080851
0.0024140496 -0.00025400001 0.0010697872
-0.00024140497 -0.00025400001 -0.0030319151
-0.0024140496 -2.1684043e-19 -0.0054446808
-0.010380413 -0.00025400001 -0.0039970214
0.010380413 -0.00025400001 -0.0068923407
0.0048280992 0.00025400001 -0.0044795745
-0.028002976 -2.1684043e-19 -0.0076161702
-0.0055523142 -2.1684043e-19 -0.0001365958
-0.0079663638 -0.00076199998 -0.0023080851
-0.020519422 -0.00127 -0.0013429788
-0.023174876 -0.00127 -0.0013429788
-0.018829588 -0.00050800003 -0.0023080851
-0.0016898348 0.00127 -0.0023080851
0.0053109094 0.0010160001 -0.0023080851
-0.021726446 -0.00050800003 -0.0023080851
-0.027761571 -0.00025400001 0.00058723398
-0.028002976 -0.00127 -0.0011017022
-0.00096561987 0.00127 -0.00037787241
-0.006759339 -0.00127 -0.0023080851
0.010863223 -0.00025400001 -0.0001365958
-0.020036612 0.00127 -0.0001365958
-0.0082077691 -0.00127 -0.00061914901
0.013518678 0.00127 -0.00061914901
-0.0089319833 -0.00025400001 -0.0023080851
-0.012311653 -0.00127 -0.0015842554
-0.020519422 0.00127 -0.0023080851
0.020519422 0.00025400001 -0.0076161702
0.012553059 -2.1684043e-19 -0.0035144682
0.028727191 0.0010160001 -0.0011017022
-0.020278018 -0.00050800003 -0.0025493619
0.0036210744 0.00076199998 -0.0001365958
-0.017622562 -2.1684043e-19 -0.0039970214
-0.014725703 -0.0010160001 -0.0001365958
-0.027037356 0.00050800003 -0.00037787241
0 0.00127 -0.00061914901
-0.024623306 0.00127 -0.0013429788
-0.016898347 0.00025400001 -0.0023080851
0.0084491735 -0.00127 -0.00086042559
0.027761571 -2.1684043e-19 0.0013110638
-0.0098976037 0.0010160001 -0.0023080851
0.0048280992 0.00025400001 -0.0068923407
0.011346034 0.00127 -0.0020668085
0.011587438 0.00025400001 -0.0001365958
0.017863967 0.00025400001 0.00034595741
-0.024140496 0.00025400001 -0.0001365958
0.0053109094 -2.1684043e-19 0.0001046808
-0.026554545 0.00127 -0.00086042559
-0.022933472 -0.00025400001 0.00058723398
0.018829588 -0.00127 -0.00061914901
0.021726446 -0.00127 -0.00086042559
0.024623306 -0.00025400001 -0.0001365958
0.014967108 0.00076199998 -0.0023080851
-0.015208513 -0.00025400001 -0.0044795745
0.015208513 0.00025400001 0.00034595741
0.006035124 0.00127 -0.0011017022
-0.019070992 -0.00050800003 -0.0023080851
0.028002976 -0.00127 -0.0020668085
-0.0096561983 -0.00127 -0.0015842554
-0.017622562 -2.1684043e-19 -0.0047208513
0.021726446 0.00025400001 -0.0023080851
0.017622562 0.00025400001 0.00058723398
-0.0053109094 -2.1684043e-19 0.0020348935
-0.013035868 0.00127 -0.0015842554
-0.0024140496 -2.1684043e-19 -0.0064097876
-0.0098976037 -0.00025400001 0.001793617
0.010380413 -0.00127 -0.0001365958
0.016898347 -0.00127 -0.00086042559
-0.021485042 -0.00127 -0.00037787241
0.0045866943 -0.00127 -0.0011017022
-0.0098976037 -2.1684043e-19 -0.0039970214
0.020760827 0.00127 -0.0011017022
-0.015208513 0.00025400001 0.00082851062
-0.025588926 -0.00025400001 -0.0025493619
0.010139009 -0.00025400001 -0.0035144682
-0.010139009 -0.00127 -0.00086042559
0.011587438 0.00127 -0.0001365958
0.00024140497 0.0010160001 -0.0023080851
-0.025588926 -0.00127 -0.0011017022
0.017863967 -0.00025400001 -0.0071336171
0.012794463 0.00025400001 -0.0068923407
-0.022692068 -0.00025400001 -0.0039970214
0.027761571 -0.00127 -0.00086042559
0.021485042 0.00127 -0.00086042559
0.028002976 -2.1684043e-19 -0.0044795745
-0.026795952 -0.00127 -0.0001365958
-0.018588182 -0.00127 -0.00061914901
-0.020519422 -0.00025400001 -0.0039970214
0.028002976 -0.0010160001 -0.0023080851
0.012553059 -2.1684043e-19 0.0013110638
-0.021967852 0.00050800003 -0.00037787241
0.0096561983 0.00127 -0.00061914901
-0.017622562 -0.00127 -0.00086042559
-0.020519422 -2.1684043e-19 -0.0073748939
-0.0026554547 0.00127 -0.0015842554
-0.023657687 0.00025400001 -0.0001365958
-0.019553803 -0.00127 -0.0018255319
0.019070992 -0.00127 -0.0001365958
-0.016174132 0.00050800003 -0.00037787241
0.0098976037 0.00050800003 -0.0023080851
-0.028002976 0.00025400001 -0.0044795745
-0.0038624795 0.0010160001 -0.0023080851
0.024140496 -2.1684043e-19 -0.0023080851
-0.0094147939 0.0010160001 -0.0023080851
-0.023174876 -0.00127 -0.0018255319
-0.015449918 -2.1684043e-19 0.0010697872
-0.025588926 -2.1684043e-19 0.00034595741
-0.0043452894 0.00127 -0.0015842554
-0.012794463 -2.1684043e-19 -0.0076161702
0.010139009 0.00127 -0.0023080851
0.0036210744 0.00025400001 -0.0023080851
0.022692068 -0.00025400001 0.00058723398
0.016656943 0.00025400001 -0.0001365958
-0.024140496 -2.1684043e-19 -0.0023080851
0.018588182 -0.00127 -0.00086042559
0.014242893 0.00127 -0.00061914901
-0.027520167 0.00127 -0.00086042559
-0.025106117 -2.1684043e-19 -0.0042382982
0.027037356 0.00050800003 -0.00037787241
0.028727191 -0.00050800003 -0.0023080851
0.018105373 -0.00127 -0.0013429788
0.010621819 -0.00076199998 -0.0023080851
0.0050695045 -0.00025400001 0.0010697872
0.012070248 -0.00127 -0.0018255319
-0.023174876 0.00127 -0.00061914901
0.027520167 0.00025400001 -0.0023080851
0.012794463 0.00127 -0.0023080851
0.024381902 -0.00127 -0.0023080851
-0.0074835541 0.00025400001 -0.0037557448
-0.0019312397 0.00127 -0.0011017022
-0.0019312397 -2.1684043e-19 -0.0023080851
-0.012553059 0.00025400001 -0.0039970214
0.018588182 -0.00127 -0.0018255319
-0.015449918 -0.00025400001 -0.0064097876
-0.029210001 0.00025400001 -0.0011017022
0.006035124 -0.00127 -0.0023080851
0.0074835541 -2.1684043e-19 -0.0061685108
0.0026554547 0.00076199998 -0.0001365958
-0.022692068 0.00025400001 -0.0056859576
0.024140496 -0.00127 -0.0015842554
-0.022933472 -0.00127 -0.0018255319
-0.014242893 0.00127 -0.0020668085
0.024864711 -0.00050800003 -0.00037787241
0.022692068 -0.00025400001 -0.0064097876
-0.022692068 -0.00025400001 0.0001046808
0.014001488 -0.00127 -0.0015842554
0.012311653 0.00127 -0.0020668085
0.0053109094 -2.1684043e-19 -0.0025493619
-0.015449918 0.00025400001 -0.0037557448
0.017139753 0.00025400001 -0.0023080851
0.010139009 0.00127 -0.00061914901
0.024623306 0.00127 -0.0018255319
-0.017863967 -0.00025400001 -0.0030319151
0.027761571 0.00127 -0.00086042559
-0.0084491735 0.0010160001 -0.0023080851
-0.017863967 0.00127 -0.0001365958
-0.0043452894 0.00127 -0.0018255319
-0.013518678 0.00076199998 -0.0001365958
-0.0050695045 -0.00025400001 0.0010697872
-0.015208513 -0.00025400001 0.00058723398
-0.025106117 0.00025400001 -0.0001365958
-0.011828844 0.00025400001 -0.0001365958
-0.0053109094 -0.00025400001 -0.0025493619
-0.029210001 -2.1684043e-19 -0.00086042559
0.013277273 0.00127 -0.0020668085
-0.021002231 0.00050800003 -0.00037787241
-0.025106117 -0.00127 -0.00061914901
0.0024140496 -2.1684043e-19 0.001793617
0.0089319833 -0.00127 -0.0001365958
0.0043452894 0.00127 -0.0011017022
0.0057937191 -0.00127 -0.0020668085
-0.011104628 -0.00127 -0.0013429788
0.021243637 0.00127 -0.0001365958
0.020519422 -0.00025400001 -0.0054446808
0.0072421487 -0.0010160001 -0.0023080851
-0.012553059 -2.1684043e-19 -0.0047208513
0.0024140496 -0.00025400001 -0.0035144682
-0.012794463 0.00025400001 0.0022761703
-0.010380413 0.00025400001 -0.0064097876
-0.024623306 -0.00076199998 -0.0001365958
0.0074835541 0.00025400001 -0.0042382982
0.017622562 0.00025400001 -0.0047208513
0.025347522 -0.00025400001 -0.0066510639
0.014967108 0.00127 -0.0018255319
-0.0019312397 0.00127 -0.0020668085
0.006035124 0.00127 -0.00037787241
-0.020036612 0.00127 -0.0015842554
-0.028244382 0.00050800003 -0.0023080851
0.0053109094 -0.00076199998 -0.0001365958
-0.022209257 -0.00025400001 -0.0001365958
0.0065179341 -0.00127 -0.0020668085
0.024864711 0.00050800003 -0.00037787241
-0.014725703 0.00050800003 -0.0023080851
-0.026313141 -0.00127 -0.0011017022
0.0014484298 -0.0010160001 -0.0001365958
0.015449918 -2.1684043e-19 -0.0037557448
-0.022692068 -2.1684043e-19 -0.0052034045
-0.025347522 0.00025400001 -0.0044795745
-0.021243637 -0.00127 -0.00061914901
-0.012794463 0.00025400001 -0.0025493619
-0.010380413 -0.00127 -0.0011017022
0.018588182 -2.1684043e-19 -0.0023080851
-0.0091733886 0.0010160001 -0.0023080851
-0.028002976 0.00025400001 -0.0061685108
0.022933472 0.00025400001 -0.0025493619
-0.013277273 0.00127 -0.0013429788
-0.016415538 -0.00127 -0.0023080851
0.02727876 0.00127 -0.0015842554
0.0079663638 0.00127 -0.00037787241
0.022450661 0.0010160001 -0.0001365958
0.012794463 0.00025400001 0.0010697872
0.011587438 -0.0010160001 -0.0023080851
0.019795207 -0.00127 -0.0015842554
-0.011104628 0.00127 -0.00086042559
-0.020519422 -2.1684043e-19 -0.0054446808
-0.012070248 -0.00076199998 -0.0001365958
-0.024623306 -0.0010160001 -0.0001365958
0.028485786 0.00076199998 -0.0001365958
-0.020278018 -0.00025400001 -0.0039970214
-0.017863967 -2.1684043e-19 -0.0059272344
-0.0014484298 -0.00127 -0.00061914901
-0.026554545 0.00025400001 -0.0023080851
-0.013518678 0.0010160001 -0.0023080851
0.0082077691 -2.1684043e-19 -0.0023080851
-0.025588926 -0.00025400001 0.0020348935
-0.0079663638 0.00127 -0.0013429788
0.00048280993 -0.00127 -0.0001365958
0.026795952 -0.00127 -0.0013429788
-0.0036210744 0.00127 -0.0011017022
-0.019553803 0.00127 -0.0001365958
0.010380413 0.00025400001 0.001793617
-0.015691323 -0.00127 -0.00037787241
0.025106117 0.00127 -0.00037787241
-0.00024140497 0.00025400001 0.0013110638
-0.028002976 -0.00025400001 -0.0064097876
0.0053109094 0.00025400001 0.00034595741
-0.015208513 -0.00050800003 -0.00037787241
0.024623306 -0.00050800003 -0.00037787241
-0.012794463 -0.00127 -0.0023080851
0.0074835541 0.00025400001 -0.0039970214
-0.018346777 -2.1684043e-19 -0.0023080851
0.015208513 0.00050800003 -0.0025493619
-0.0026554547 -0.00025400001 -0.0025493619
0.0016898348 -2.1684043e-19 -0.0023080851
-0.013760083 -0.00127 -0.00086042559
-0.0070007439 0.0010160001 -0.0023080851
-0.016415538 0.00127 -0.00086042559
0.020519422 -0.00127 -0.00086042559
0.0038624795 -0.0010160001 -0.0001365958
-0.025347522 -0.00025400001 -0.0054446808
-0.025106117 -2.1684043e-19 -0.0025493619
0.0074835541 0.00025400001 -0.0030319151
0.016656943 -0.00127 -0.0018255319
-0.011587438 -0.00076199998 -0.0023080851
-0.0079663638 -0.00127 -0.0001365958
-0.0031382646 -0.00076199998 -0.0001365958
0.0019312397 -0.00050800003 -0.0023080851
0.0098976037 0.00025400001 -0.0044795745
-0.0050695045 -0.00025400001 0.0001046808
0.00024140497 0.00025400001 -0.0066510639
-0.022692068 -2.1684043e-19 -0.0076161702
-0.0012070248 0.0010160001 -0.0023080851
0.015208513 -0.00025400001 -0.0066510639
-0.0033796695 0.00127 -0.00061914901
0.0096561983 -0.0010160001 -0.0001365958
-0.015932728 -0.00050800003 -0.00037787241
0.026795952 -0.0010160001 -0.0023080851
0.016898347 -0.00025400001 -0.0023080851
0.012794463 0.0010160001 -0.0001365958
-0.028727191 0.00076199998 -0.0023080851
0.027761571 -2.1684043e-19 0.0010697872
0.011346034 -0.00127 -0.0023080851
-0.011346034 0.00076199998 -0.0023080851
0.006759339 0.00076199998 -0.0001365958
-0.013277273 0.00127 -0.0011017022
-0.012553059 0.00127 -0.0018255319
0.0043452894 -2.1684043e-19 -0.0023080851
0.0079663638 0.00127 -0.00061914901
0.0079663638 -2.1684043e-19 -0.0027906385
-0.028002976 0.00025400001 -0.0068923407
-0.011587438 -0.00050800003 -0.0023080851
0.015208513 -0.00025400001 -0.0071336171
0.0070007439 -0.00127 -0.0023080851
0.016174132 -0.0010160001 -0.0023080851
-0.012553059 0.00025400001 0.0001046808
0.023416281 0.00076199998 -0.0023080851
-0.00024140497 -2.1684043e-19 -0.0059272344
0.00096561987 -0.00025400001 -0.0023080851
0.0036210744 -0.0010160001 -0.0001365958
-0.012553059 -0.0010160001 -0.0001365958
-0.0074835541 -0.00025400001 -0.0059272344
-0.0077249589 0.00127 -0.0013429788
-0.028485786 -0.0010160001 -0.0001365958
-0.0089319833 -0.00076199998 -0.0023080851
0.012553059 -2.1684043e-19 0.00058723398
0.0041038846 -0.00127 -0.0023080851
0.025588926 -0.00025400001 0.0001046808
0.012311653 0.00127 -0.0015842554
-0.017622562 -0.00025400001 -0.0030319151
0.011346034 0.00127 -0.0023080851
0.021243637 -0.00076199998 -0.0023080851
0.020519422 -0.00127 -0.0018255319
0.0096561983 -0.00127 -0.0011017022
-0.015932728 -0.00127 -0.0015842554
0.0043452894 0.00127 -0.0023080851
-0.026313141 -2.1684043e-19 -0.0023080851
-0.029210001 0.00050800003 -0.00061914901
0.012794463 -0.00025400001 -0.0037557448
0.020519422 -2.1684043e-19 -0.0056859576
0.013035868 0.00050800003 -0.0023080851
0.0026554547 -2.1684043e-19 -0.0071336171
-0.028968595 0.00076199998 -0.0001365958
-0.028968595 -0.0010160001 -0.00037787241
-0.017622562 0.00025400001 -0.0061685108
-0.0089319833 0.0010160001 -0.0023080851
0.010863223 0.00127 -0.00086042559
0.028244382 -2.1684043e-19 -0.0071336171
-0.015449918 0.00050800003 -0.00037787241
-0.0026554547 -2.1684043e-19 -0.0037557448
-0.019070992 0.00076199998 -0.0023080851
0.0074835541 -0.00025400001 -0.0039970214
0.0038624795 0.0010160001 -0.0001365958
0.0070007439 0.00127 -0.00037787241
-0.0053109094 -0.00025400001 0.0010697872
0.014967108 0.00050800003 -0.00037787241
0 -0.00025400001 0.0022761703
-0.0026554547 -2.1684043e-19 -0.0078574466
-0.025347522 -0.00025400001 -0.0030319151
0.018588182 -0.00127 -0.0023080851
0.022450661 -0.00127 -0.00037787241
0.0079663638 -0.00025400001 -0.0023080851
0.013035868 -0.00127 -0.0001365958
-0.0077249589 -2.1684043e-19 0.00058723398
-0.0024140496 -2.1684043e-19 -0.0025493619
-0.020519422 -0.00025400001 0.0020348935
0.015208513 -0.00025400001 0.0025174469
0.013277273 -0.00127 -0.0013429788
0.0031382646 -2.1684043e-19 -0.0023080851
0.018346777 -0.00127 -0.0023080851
-0.027520167 -0.00076199998 -0.0023080851
0.0082077691 -0.00050800003 -0.0023080851
-0.017863967 -0.00025400001 -0.0073748939
0.017863967 -0.00076199998 -0.0023080851
-0.011104628 -0.00127 -0.00037787241
-0.025830332 0.00127 -0.0018255319
-0.025830332 -0.0010160001 -0.0023080851
-0.006759339 0.00025400001 -0.0001365958
0.028968595 0.0010160001 -0.0013429788
-0.019553803 0.00076199998 -0.0023080851
-0.0053109094 -0.00076199998 -0.0001365958
-0.018346777 0.0010160001 -0.0001365958
0.014967108 -0.00127 -0.0001365958
-0.010863223 0.00127 -0.00037787241
-0.0036210744 0.00025400001 -0.0001365958
0.00072421489 -0.00050800003 -0.00037787241
0.0050695045 -0.00025400001 0.00058723398
0.019795207 0.00127 -0.00037787241
0.027037356 -0.00050800003 -0.0023080851
0.015932728 -0.00050800003 -0.0023080851
-0.018829588 0.0010160001 -0.0001365958
0.027520167 0.00127 -0.0015842554
-0.0077249589 -2.1684043e-19 0.0022761703
0.0048280992 -0.00025400001 -0.0071336171
-0.020036612 -2.1684043e-19 -0.0042382982
-0.013035868 -0.00025400001 -0.0023080851
0.00048280993 0.00127 -0.0013429788
0.0089319833 0.00127 -0.00086042559
-0.013518678 0.00127 -0.0018255319
-0.024381902 0.00127 -0.0001365958
-0.0048280992 0.00127 -0.00086042559
0.0098976037 -2.1684043e-19 -0.0059272344
-0.0036210744 -0.00127 -0.0013429788
0.021485042 -0.00127 -0.0001365958
-0.017863967 0.00025400001 -0.0042382982
0.011346034 0.0010160001 -0.0023080851
-0.023416281 -0.00025400001 -0.0023080851
0.0024140496 -0.00050800003 -0.0023080851
0.019553803 0.00127 -0.0015842554
-0.00096561987 0.00127 -0.0011017022
-0.0053109094 -2.1684043e-19 -0.0027906385
0.0074835541 -0.00025400001 -0.0037557448
0.006035124 0.0010160001 -0.0001365958
0.018105373 -0.00127 -0.0001365958
0.0024140496 -2.1684043e-19 -0.0064097876
-0.021002231 0.00127 -0.00086042559
-0.028968595 -0.00025400001 -0.0023080851
-0.025106117 0.00127 -0.0001365958
0.020519422 -2.1684043e-19 0.0010697872
0.0086905789 -0.00025400001 -0.0023080851
-0.022209257 -0.00127 -0.0020668085
-0.020036612 -2.1684043e-19 -0.0059272344
-0.022450661 -0.00127 -0.0001365958
-0.023416281 -0.00076199998 -0.0001365958
-0.011587438 0.00127 -0.00037787241
0.010380413 -2.1684043e-19 0.001793617
0.0028968595 -0.00127 -0.0023080851
-0.027761571 -2.1684043e-19 -0.0054446808
0.027761571 -0.00025400001 -0.0035144682
-0.012553059 0.00025400001 -0.0073748939
0.028002976 -2.1684043e-19 0.0010697872
0.021485042 -2.1684043e-19 -0.0023080851
0.014725703 -0.00076199998 -0.0023080851
-0.0077249589 0.00127 -0.00061914901
-0.0074835541 -0.00025400001 0.001793617
0.00072421489 0.00050800003 -0.0023080851
0.0070007439 0.00127 -0.0013429788
-0.018346777 0.00127 -0.00086042559
-0.006759339 0.00127 -0.0013429788
-0.0021726447 0.00127 -0.0015842554
-0.016656943 -0.00127 -0.0020668085
-0.015932728 0.00127 -0.0013429788
-0.0098976037 -2.1684043e-19 -0.0064097876
-0.0026554547 0.00025400001 -0.0027906385
0.017863967 -0.00025400001 -0.0078574466
0.015932728 0.00127 -0.00086042559
-0.020278018 -2.1684043e-19 0.0025174469
0.029210001 -0.00025400001 -0.00061914901
-0.015208513 0.00127 -0.00037787241
0.0038624795 -0.00127 -0.0001365958
0.0053109094 0.00050800003 -0.0023080851
-0.021967852 -0.00127 -0.00037787241
0.00024140497 -0.00025400001 -0.0061685108
-0.012553059 -0.00025400001 -0.0049621277
0.025347522 -0.00025400001 -0.0049621277
-0.025106117 -0.00127 -0.0001365958
0.015208513 -0.00025400001 -0.0037557448
-0.0077249589 0.00127 -0.0015842554
0.0041038846 -0.0010160001 -0.0023080851
0.0074835541 0.00025400001 -0.0035144682
-0.0077249589 0.00025400001 -0.0066510639
0.024864711 0.00127 -0.0011017022
0.022933472 0.00025400001 -0.0054446808
0.013518678 0.00127 -0.0018255319
0.0079663638 -2.1684043e-19 -0.0054446808
-0.0043452894 -0.00127 -0.0013429788
0.022209257 -0.00127 -0.00037787241
0.012794463 -0.00025400001 0.0010697872
0.026795952 -0.00127 -0.00061914901
-0.028002976 -2.1684043e-19 0.0025174469
0.025588926 -0.00076199998 -0.00037787241
-0.021243637 -0.00127 -0.0015842554
0.025347522 -2.1684043e-19 -0.0059272344
-0.018346777 -0.00025400001 -0.0023080851
-0.024864711 0.00127 -0.0020668085
-0.0024140496 -2.1684043e-19 0.0010697872
0.028244382 -0.00076199998 -0.0023080851
-0.0019312397 -0.00127 -0.0023080851
-0.022933472 -0.00127 -0.0020668085
0.010139009 -0.00025400001 0.001793617
0.028002976 0.00025400001 -0.0030319151
-0.027520167 -0.00127 -0.0013429788
0.022933472 -0.00025400001 -0.0044795745
0.024381902 -2.1684043e-19 -0.0023080851
-0.017622562 -0.00025400001 0.0001046808
0.028244382 -0.00127 -0.00086042559
0.014001488 -0.0010160001 -0.0023080851
0.0098976037 -2.1684043e-19 -0.0068923407
-0.0012070248 0.00127 -0.0013429788
0.012070248 0.0010160001 -0.0001365958
-0.017381158 0.00025400001 -0.0023080851
0.020278018 0.00025400001 -0.0044795745
-0.0041038846 -0.00127 -0.00061914901
-0.011587438 0.00025400001 -0.0001365958
0.02727876 0.00076199998 -0.0023080851
-0.013518678 -2.1684043e-19 -0.0001365958
0.017139753 0.0010160001 -0.0023080851
-0.00024140497 -0.00025400001 -0.0066510639
0.0021726447 -0.00127 -0.0020668085
0.0094147939 -0.00076199998 -0.0001365958
0.022933472 -0.00025400001 -0.0052034045
-0.016174132 -2.1684043e-19 -0.0001365958
0.012794463 0.00025400001 0.0020348935
-0.026071737 0.00050800003 -0.00037787241
-0.0016898348 -0.00127 -0.00061914901
0.018829588 0.00127 -0.00037787241
-0.00024140497 -0.00025400001 -0.0001365958
0.015208513 -2.1684043e-19 0.0027587235
0.0072421487 0.0010160001 -0.0001365958
0.0062765293 -0.00050800003 -0.00037787241
0.026071737 0.00127 -0.0020668085
-0.017622562 -2.1684043e-19 0.001793617
0.020519422 -2.1684043e-19 -0.0073748939
0.0048280992 -0.00025400001 -0.0066510639
-0.015449918 0.00127 -0.00086042559
-0.010139009 0.00025400001 -0.0037557448
0.010139009 0.00025400001 -0.0064097876
0.028002976 0.00127 -0.0001365958
-0.010139009 -0.00127 -0.0001365958
-0.013760083 -0.00127 -0.0020668085
-0.0048280992 -0.00127 -0.0001365958
-0.010621819 -0.00127 -0.0001365958
0.016174132 0.00127 -0.00037787241
0.0033796695 0.00127 -0.0018255319
-0.0057937191 -0.0010160001 -0.0001365958
0.019070992 -0.00076199998 -0.0001365958
0.016174132 -0.00025400001 -0.0001365958
-0.025106117 0.00127 -0.0011017022
-0.010139009 -2.1684043e-19 0.0013110638
-0.029210001 -2.1684043e-19 -0.0011017022
0.0098976037 0.00025400001 0.001793617
0.0033796695 0.00127 -0.0011017022
-0.011828844 -0.00076199998 -0.0023080851
0.0043452894 -0.00127 -0.0015842554
-0.011346034 -2.1684043e-19 -0.0023080851
0.0057937191 -0.00127 -0.0011017022
-0.028002976 -0.00025400001 -0.0042382982
-0.024864711 0.00127 -0.00037787241
0.015208513 -0.00025400001 -0.0044795745
-0.015449918 -2.1684043e-19 -0.0035144682
-0.029210001 -0.00025400001 -0.0023080851
-0.015932728 0.00127 -0.0015842554
0.006759339 -0.00127 -0.00086042559
0.024381902 -2.1684043e-19 -0.0001365958
0.017863967 0.00025400001 0.0025174469
-0.026071737 -0.00127 -0.00086042559
0.021002231 0.00076199998 -0.0023080851
-0.0012070248 -0.00127 -0.00037787241
-0.00024140497 -2.1684043e-19 -0.0047208513
0.006035124 0.00127 -0.0023080851
0.017381158 0.00025400001 -0.0023080851
0.025588926 -2.1684043e-19 0.00058723398
0.0053109094 -0.00025400001 0.0020348935
0.011828844 0.00127 -0.0011017022
-0.011104628 -0.00127 -0.0020668085
-0.025106117 -2.1684043e-19 0.0013110638
-0.0021726447 0.00127 -0.0023080851
0.020278018 0.00076199998 -0.0023080851
-0.0016898348 -0.00025400001 -0.0023080851
-0.028002976 0.0010160001 -0.0023080851
-0.0048280992 -0.00025400001 -0.0068923407
-0.010380413 -0.00025400001 -0.0025493619
-0.025830332 -0.00050800003 -0.00037787241
0.0026554547 -0.00025400001 -0.0042382982
-0.020519422 0.00025400001 -0.0073748939
-0.0024140496 0.00025400001 -0.0064097876
0.022692068 0.00050800003 -0.00037787241
0.025347522 -2.1684043e-19 -0.0030319151
0.028002976 -2.1684043e-19 -0.0030319151
-0.012553059 -2.1684043e-19 0.0013110638
0.00024140497 -2.1684043e-19 -0.0068923407
0.017863967 -0.00127 -0.0001365958
0.0091733886 0.00127 -0.0015842554
0.023416281 -0.00127 -0.0015842554
0.026554545 -0.00127 -0.0020668085
0.0074835541 -2.1684043e-19 -0.0066510639
-0.0053109094 -0.00025400001 -0.0066510639
-0.028002976 -2.1684043e-19 0.00058723398
-0.0045866943 -0.00127 -0.0001365958
-0.0048280992 -0.0010160001 -0.0001365958
0.0057937191 -0.00127 -0.0023080851
-0.0077249589 -0.00025400001 -0.0032731916
-0.015691323 -0.00025400001 -0.0023080851
0.012794463 0.00025400001 0.0013110638
0.027520167 -0.00025400001 -0.0023080851
-0.025106117 -2.1684043e-19 -0.0066510639
0.0028968595 -0.00127 -0.00037787241
0.028002976 -2.1684043e-19 0.00082851062
-0.025588926 -2.1684043e-19 -0.0071336171
-0.014242893 0.00127 -0.0018255319
0.0024140496 0.00127 -0.00061914901
0.0074835541 0.00127 -0.0015842554
-0.028968595 -0.0010160001 -0.0011017022
-0.023899091 -0.00025400001 -0.0023080851
0.028002976 -0.00050800003 -0.0023080851
0.0024140496 0.00127 -0.0015842554
-0.015208513 -0.00025400001 -0.0027906385
-0.012070248 0.00127 -0.0023080851
0.0043452894 -0.00050800003 -0.00037787241
0.020278018 0.00076199998 -0.0001365958
0.025106117 -2.1684043e-19 0.0015523405
0.020519422 0.00127 -0.0011017022
-0.0024140496 0.00025400001 -0.0042382982
-0.011587438 0.00076199998 -0.0001365958
0.015449918 -0.00127 -0.0023080851
-0.0084491735 0.00127 -0.00086042559
-0.016656943 -0.00076199998 -0.0001365958
-0.0050695045 0.00025400001 -0.0073748939
-0.00024140497 -2.1684043e-19 -0.0025493619
-0.017863967 -2.1684043e-19 0.0010697872
-0.022933472 0.00025400001 -0.0049621277
0.028002976 -0.00050800003 -0.00037787241
0.0072421487 0.00050800003 -0.00037787241
0.0079663638 -2.1684043e-19 0.001793617
-0.020519422 -0.00127 -0.0001365958
0.0077249589 0.00025400001 0.0022761703
0.015932728 0.00076199998 -0.0001365958
-0.014001488 0.00127 -0.0023080851
0.010139009 -0.00127 -0.0001365958
-0.010139009 -0.00025400001 -0.0027906385
0.02727876 -2.1684043e-19 -0.0001365958
-0.018105373 -0.00025400001 -0.0023080851
-0.006035124 0.00127 -0.0020668085
-0.020278018 -0.00127 -0.0011017022
-0.0050695045 0.0010160001 -0.0023080851
0.024864711 0.0010160001 -0.0001365958
-0.0026554547 -0.00025400001 -0.0049621277
0.011104628 0.00127 -0.0011017022
-0.027761571 -2.1684043e-19 -0.0042382982
-0.023174876 -0.00076199998 -0.0023080851
-0.0077249589 -0.00025400001 -0.0037557448
0.022692068 -0.00025400001 0.0013110638
-0.015932728 -0.00127 -0.0001365958
-0.0098976037 0.00050800003 -0.0023080851
0.025830332 0.00127 -0.0015842554
0.010380413 -2.1684043e-19 -0.0047208513
0.015208513 -0.00025400001 -0.0027906385
-0.0026554547 -0.00127 -0.0013429788
-0.0084491735 -0.00127 -0.0015842554
-0.0038624795 -0.00076199998 -0.0023080851
-0.0024140496 0.00025400001 -0.0044795745
0.012553059 -0.00050800003 -0.00037787241
-0.006035124 -0.0010160001 -0.0023080851
-0.012794463 0.00025400001 -0.0068923407
-0.0033796695 -0.0010160001 -0.0023080851
0.00024140497 -0.00025400001 -0.0037557448
-0.023416281 0.00076199998 -0.0023080851
-0.029210001 -2.1684043e-19 -0.0015842554
0.019070992 0.00127 -0.0011017022
-0.025588926 0.00127 -0.00086042559
0.012794463 -0.00025400001 -0.0049621277
-0.020278018 0.00025400001 -0.0037557448
-0.015932728 -0.00127 -0.0013429788
-0.012553059 0.00025400001 0.0022761703
0.024864711 0.00127 -0.00061914901
0.019312397 -0.00127 -0.0020668085
-0.0024140496 0.00076199998 -0.0023080851
0.015449918 -0.00127 -0.0020668085
-0.013518678 -0.00050800003 -0.0023080851
0.0086905789 0.00050800003 -0.00037787241
-0.0098976037 0.00127 -0.0013429788
-0.0094147939 0.00127 -0.00086042559
-0.0019312397 0.00050800003 -0.00037787241
0 0.00025400001 -0.0066510639
0.0026554547 0.00025400001 -0.0044795745
0.00024140497 -2.1684043e-19 -0.0059272344
0.0062765293 0.00076199998 -0.0023080851
0.022692068 -2.1684043e-19 -0.0054446808
-0.012794463 -0.00025400001 0.0020348935
-0.0070007439 0.0010160001 -0.0001365958
-0.022933472 -0.00025400001 -0.0073748939
-0.021243637 -0.00127 -0.0023080851
-0.012070248 0.00025400001 -0.0001365958
-0.0077249589 -0.00127 -0.0013429788
-0.0074835541 -0.00076199998 -0.0023080851
-0.0050695045 0.00025400001 0.0025174469
0.012070248 -0.00076199998 -0.0001365958
0.0070007439 -0.00127 -0.00061914901
-0.024381902 -0.00127 -0.0011017022
-0.011587438 0.00050800003 -0.0023080851
0.010380413 0.00025400001 -0.0066510639
0.0077249589 0.00127 -0.0011017022
0.0048280992 -0.00076199998 -0.0023080851
-0.019070992 0.00025400001 -0.0001365958
0.00072421489 -0.00127 -0.0018255319
0.020278018 -0.00025400001 -0.0037557448
0.017622562 -2.1684043e-19 -0.0049621277
-0.026554545 -0.00050800003 -0.00037787241
0.0082077691 0.0010160001 -0.0001365958
-0.012553059 -2.1684043e-19 -0.0039970214
0.017863967 0.00025400001 -0.0027906385
0.017622562 0.00025400001 -0.0044795745
-0.013035868 0.0010160001 -0.0001365958
-0.017622562 0.00127 -0.0013429788
-0.010380413 -2.1684043e-19 -0.0054446808
-0.0096561983 0.00127 -0.0001365958
0.0077249589 -0.00127 -0.00086042559
-0.022933472 -0.00025400001 0.0013110638
-0.023416281 -0.00025400001 -0.0001365958
-0.016174132 -0.0010160001 -0.0023080851
-0.0062765293 0.00076199998 -0.0001365958
0 -0.00050800003 -0.0025493619
-0.026313141 -2.1684043e-19 -0.0001365958
0.0086905789 -2.1684043e-19 -0.0023080851
0.0033796695 0.0010160001 -0.0001365958
-0.0079663638 -0.00127 -0.0020668085
-0.0077249589 0.00025400001 -0.0076161702
-0.028727191 -0.00127 -0.0020668085
-0.0077249589 -0.00025400001 -0.0025493619
0.026313141 0.00127 -0.0023080851
0.020278018 -0.00127 -0.0023080851
-0.0089319833 -0.00050800003 -0.0023080851
-0.028002976 -0.00127 -0.00086042559
-0.017622562 -2.1684043e-19 -0.0073748939
0.0091733886 0.00025400001 -0.0023080851
0.022692068 -0.00025400001 -0.0071336171
-0.026313141 0.00025400001 -0.0001365958
0.027761571 -0.00127 -0.0011017022
-0.026554545 -0.00076199998 -0.0001365958
-0.017863967 -0.00127 -0.0015842554
0.022692068 -2.1684043e-19 -0.0064097876
-0.010139009 -0.00050800003 -0.0025493619
-0.027037356 0.00127 -0.0011017022
0.0065179341 0.00025400001 -0.0001365958
0.022692068 -2.1684043e-19 -0.0073748939
0.021485042 0.00025400001 -0.0023080851
0.014001488 -0.0010160001 -0.0001365958
0.0072421487 -0.00025400001 -0.0023080851
0.013760083 0.00127 -0.00086042559
-0.022692068 -2.1684043e-19 0.00058723398
-0.026554545 -0.0010160001 -0.0001365958
0.019553803 -0.0010160001 -0.0001365958
0.025588926 -2.1684043e-19 -0.0066510639
-0.011828844 0.00127 -0.0011017022
0.0048280992 -2.1684043e-19 0.0025174469
0.020760827 -0.00127 -0.00037787241
0.0086905789 -0.00127 -0.00037787241
0.011587438 -0.00025400001 -0.0001365958
0.012553059 0.00050800003 -0.00037787241
-0.0055523142 -0.00076199998 -0.0023080851
0.024140496 0.0010160001 -0.0023080851
-0.015208513 -2.1684043e-19 -0.0030319151
-0.026071737 -0.00127 -0.0018255319
0.024864711 0.00025400001 -0.0001365958
0.017381158 0.00127 -0.00086042559
-0.0089319833 -0.00127 -0.0001365958
-0.0026554547 -0.0010160001 -0.0023080851
-0.0050695045 0.00025400001 0.0013110638
-0.0038624795 0.00127 -0.0018255319
0.015449918 -0.00050800003 -0.0025493619
0.017622562 0.00127 -0.0001365958
0.0053109094 -2.1684043e-19 0.0025174469
0.0043452894 -0.0010160001 -0.0001365958
-0.015208513 -0.0010160001 -0.0001365958
-0.027761571 0.00076199998 -0.0001365958
0.0036210744 -0.00076199998 -0.0001365958
-0.026313141 -0.00050800003 -0.0023080851
-0.0043452894 0.00127 -0.0013429788
-0.0084491735 -0.00025400001 -0.0023080851
-0.00048280993 0.00050800003 -0.0023080851
-0.0048280992 -0.00025400001 -0.0066510639
0.0026554547 -2.1684043e-19 0.001793617
-0.020519422 0.00025400001 0.00058723398
-0.022933472 -0.00025400001 -0.0059272344
0.025588926 -0.00127 -0.0023080851
-0.014967108 0.00127 -0.0020668085
0.00024140497 0.00025400001 -0.0052034045
0.0050695045 -0.00076199998 -0.0001365958
0.00024140497 -0.00025400001 0.00082851062
0.020278018 0.00025400001 0.0022761703
0.013035868 -0.00127 -0.0023080851
-0.027761571 -0.00025400001 -0.0044795745
0.027520167 0.00127 -0.00061914901
-0.022933472 0.00025400001 -0.0054446808
-0.021967852 -0.00127 -0.00061914901
-0.015449918 -0.00127 -0.0011017022
0.014242893 0.00050800003 -0.0023080851
-0.00048280993 0.00025400001 -0.0023080851
0.0050695045 -0.00025400001 0.00034595741
0.0048280992 0.00127 -0.0018255319
0.0096561983 -0.00025400001 -0.0023080851
0.019795207 -0.00127 -0.0013429788
-0.013518678 -0.00127 -0.0011017022
-0.025106117 -0.00050800003 -0.00037787241
-0.023657687 -0.00025400001 -0.0001365958
0.025347522 -0.00127 -0.00061914901
-0.018346777 -2.1684043e-19 -0.0001365958
-0.00024140497 0.00076199998 -0.0001365958
0.017139753 0.00050800003 -0.0023080851
0.0045866943 -0.00127 -0.00061914901
0.016898347 -0.00025400001 -0.0001365958
0.0082077691 0.00127 -0.00086042559
-0.0014484298 -0.00127 -0.0023080851
0.0077249589 -0.0010160001 -0.0001365958
0.0098976037 0.00127 -0.0018255319
-0.023174876 0.00127 -0.00086042559
-0.016898347 -0.00050800003 -0.0023080851
-0.011346034 -0.00127 -0.00061914901
-0.014967108 -2.1684043e-19 -0.0035144682
-0.010380413 -2.1684043e-19 0.0015523405
-0.017863967 0.00025400001 0.0001046808
-0.019312397 0.00050800003 -0.0023080851
-0.00024140497 0.00025400001 -0.0049621277
0.020519422 -0.00127 -0.0013429788
-0.014242893 -0.00127 -0.0001365958
0.020519422 -2.1684043e-19 -0.0052034045
-0.015208513 -0.00025400001 -0.0035144682
0.026554545 -0.00127 -0.0001365958
0.027520167 -0.00076199998 -0.0001365958
0.027520167 0.00127 -0.0011017022
-0.022209257 0.0010160001 -0.0001365958
-0.026313141 -0.00127 -0.0015842554
0.022209257 0.00127 -0.00061914901
0.028002976 -0.00127 -0.0013429788
-0.0079663638 0.00127 -0.0023080851
-0.0021726447 -0.00127 -0.0013429788
-0.0028968595 0.00025400001 -0.0001365958
-0.019553803 0.00127 -0.0018255319
0.0024140496 -2.1684043e-19 0.0022761703
-0.020519422 -2.1684043e-19 0.0015523405
0.0079663638 -0.0010160001 -0.0001365958
-0.0089319833 0.00127 -0.0013429788
0.013277273 -0.0010160001 -0.0023080851
0.00024140497 -2.1684043e-19 0.00034595741
0.010380413 -0.00127 -0.0023080851
0.016898347 -2.1684043e-19 -0.0023080851
-0.021485042 -0.00127 -0.00061914901
0.010863223 -0.00050800003 -0.0023080851
0.0028968595 -0.00127 -0.0020668085
-0.0014484298 -0.0010160001 -0.0001365958
-0.028002976 0.00127 -0.0023080851
-0.0098976037 -0.00025400001 -0.0049621277
-0.015208513 0.00025400001 0.0015523405
-0.0053109094 -0.00127 -0.0020668085
0.0026554547 0.00025400001 -0.0039970214
-0.025347522 0.00127 -0.0001365958
-0.012794463 0.00025400001 0.0020348935
0.025830332 -2.1684043e-19 -0.0001365958
-0.00072421489 -0.00127 -0.0015842554
0.010380413 -2.1684043e-19 -0.0066510639
-0.021967852 -0.00127 -0.00086042559
0.025106117 -2.1684043e-19 -0.0025493619
0.017381158 -0.00127 -0.00061914901
0.0082077691 -0.00127 -0.0015842554
0.022933472 -0.00076199998 -0.0001365958
0.015449918 -0.00076199998 -0.0023080851
0.015691323 0.00025400001 -0.0001365958
-0.018105373 0.0010160001 -0.0001365958
-0.020519422 -0.00025400001 -0.0073748939
-0.028968595 -0.00050800003 -0.00061914901
0.017863967 -0.00025400001 0.0010697872
0.018105373 0.00050800003 -0.0023080851
0.012794463 -0.00127 -0.0001365958
0.023657687 -0.00127 -0.0013429788
0.0079663638 -2.1684043e-19 -0.0035144682
0.026313141 0.00127 -0.00086042559
0.006759339 -0.00127 -0.0018255319
0.025347522 0.00025400001 0.00034595741
-0.0077249589 -0.00025400001 -0.0035144682
0.027520167 -0.00127 -0.0011017022
-0.0082077691 0.00127 -0.00086042559
0.0074835541 0.00025400001 -0.0064097876
0.017622562 0.00025400001 0.0001046808
0.020519422 0.00025400001 -0.0052034045
0.0074835541 -0.00025400001 0.0013110638
0.027761571 0.00025400001 -0.0025493619
-0.0024140496 0.00025400001 0.0020348935
-0.020036612 -2.1684043e-19 -0.0054446808
0.0050695045 0.00025400001 0.0015523405
0.017622562 0.00025400001 -0.0071336171
-0.0053109094 -0.00025400001 -0.0068923407
-0.0024140496 0.0010160001 -0.0023080851
0.00096561987 0.00127 -0.0013429788
-0.010139009 0.00025400001 -0.0027906385
-0.0098976037 -0.00025400001 0.0001046808
-0.014725703 -0.00076199998 -0.0001365958
0.0053109094 -2.1684043e-19 -0.0049621277
-0.0096561983 -0.00127 -0.00037787241
0.0026554547 -2.1684043e-19 -0.0025493619
-0.017863967 0.00127 -0.0018255319
0.012070248 -0.00076199998 -0.0023080851
-0.00024140497 0.00025400001 -0.0054446808
0.00096561987 -0.00127 -0.00061914901
0.010380413 -0.00025400001 -0.0066510639
0.021967852 -0.00127 -0.0013429788
-0.0074835541 -2.1684043e-19 -0.0042382982
-0.0077249589 0.00025400001 0.0022761703
0.0026554547 0.00127 -0.00037787241
0.0031382646 -0.00050800003 -0.0023080851
0.025830332 -0.00127 -0.00037787241
-0.014001488 0.00127 -0.0011017022
-0.012553059 0.00127 -0.00037787241
0.0074835541 0.00127 -0.0011017022
-0.00024140497 -0.00127 -0.0020668085
0.0089319833 0.00127 -0.00037787241
0.0043452894 0.0010160001 -0.0001365958
-0.017381158 0.00127 -0.00086042559
0.017381158 -0.00050800003 -0.00037787241
-0.010380413 -0.00025400001 0.0013110638
0.013760083 0.00127 -0.0001365958
-0.0074835541 0.00025400001 -0.0027906385
-0.0084491735 0.00127 -0.0011017022
-0.0072421487 -0.0010160001 -0.0023080851
-0.025347522 0.00025400001 -0.0001365958
0.012794463 -2.1684043e-19 0.0022761703
-0.027761571 -2.1684043e-19 -0.0059272344
0.017622562 -2.1684043e-19 -0.0064097876
0.02727876 0.00127 -0.00061914901
-0.0074835541 -0.00025400001 -0.0066510639
-0.025347522 -0.00050800003 -0.0023080851
0.022933472 0.00127 -0.0011017022
0.0070007439 0.00025400001 -0.0023080851
-0.018588182 -0.00050800003 -0.00037787241
-0.0070007439 -0.00127 -0.00061914901
0 -0.00025400001 0.0020348935
-0.019553803 0.00127 -0.0023080851
0.025347522 -0.00025400001 -0.0042382982
-0.020278018 0.00025400001 -0.0068923407
0.029210001 0.00025400001 -0.0023080851
0.015208513 -0.00025400001 -0.0068923407
0.012553059 -0.00025400001 -0.0032731916
0.018829588 0.0010160001 -0.0023080851
-0.027761571 -0.0010160001 -0.0023080851
0.010380413 0.00025400001 -0.0073748939
-0.0098976037 -2.1684043e-19 0.0010697872
-0.027520167 -0.00025400001 -0.0001365958
0.028485786 -0.00076199998 -0.0023080851
0.017863967 -2.1684043e-19 -0.0059272344
0.0086905789 0.00076199998 -0.0023080851
-0.006759339 -0.00127 -0.0020668085
0.020760827 -0.00127 -0.0011017022
0.0019312397 -0.00050800003 -0.00037787241
-0.0053109094 -0.00025400001 0.001793617
0.020278018 0.00025400001 -0.0078574466
-0.017381158 -0.00127 -0.0001365958
-0.011587438 0.00127 -0.0023080851
-0.013518678 0.00050800003 -0.0023080851
-0.015691323 0.00025400001 -0.0023080851
-0.011104628 -0.00127 -0.0001365958
-0.016415538 -0.00025400001 -0.0001365958
0.00024140497 -0.00025400001 -0.0071336171
0.0086905789 -0.00127 -0.0001365958
0.00096561987 -0.00127 -0.0018255319
-0.00024140497 0.00025400001 -0.0030319151
0.0074835541 -0.0010160001 -0.0023080851
-0.025588926 -0.00127 -0.0020668085
-0.012794463 0.00025400001 0.0015523405
0.020278018 -0.00127 -0.0018255319
0.020519422 -2.1684043e-19 -0.0037557448
0.026554545 0.00076199998 -0.0023080851
0.017622562 -0.00025400001 0.00034595741
-0.019795207 0.0010160001 -0.0001365958
-0.025347522 0.00025400001 0.0020348935
0.011346034 -2.1684043e-19 -0.0001365958
0.014967108 -0.00127 -0.0015842554
0.015449918 -0.00127 -0.0001365958
-0.0094147939 -0.00076199998 -0.0023080851
-0.027761571 0.00127 -0.0015842554
-0.00024140497 0.00127 -0.00037787241
-0.018346777 -0.00127 -0.00061914901
-0.021002231 -0.00127 -0.0018255319
0.0057937191 -0.00025400001 -0.0023080851
0.028002976 0.00025400001 -0.0056859576
0.010621819 -0.00127 -0.0013429788
0.022933472 0.00025400001 0.001793617
-0.025588926 -0.00025400001 -0.0073748939
-0.006035124 -0.00127 -0.0020668085
0.027761571 -2.1684043e-19 -0.0066510639
-0.0077249589 0.00025400001 -0.0044795745
0.011587438 -0.00127 -0.0011017022
0.0043452894 -0.00127 -0.0011017022
0.027761571 -0.00025400001 -0.0068923407
0.006035124 -0.00127 -0.0013429788
0.006035124 -0.00127 -0.0020668085
-0.00024140497 0.00025400001 -0.0035144682
-0.0024140496 -0.00025400001 -0.0032731916
0.020278018 -0.0010160001 -0.0001365958
-0.0033796695 0.00127 -0.0020668085
0.025347522 -2.1684043e-19 -0.0047208513
-0.017622562 -2.1684043e-19 -0.0071336171
0.010380413 -0.00076199998 -0.0001365958
-0.022933472 0.00025400001 -0.0064097876
0.025106117 0.00025400001 -0.0001365958
-0.020519422 -0.00076199998 -0.0001365958
-0.018829588 -0.00076199998 -0.0023080851
0.0074835541 -0.00025400001 0.0020348935
0.021726446 -0.00076199998 -0.0023080851
-0.0077249589 0.00025400001 -0.0025493619
0.025588926 0.00025400001 0.0010697872
-0.00024140497 -0.00076199998 -0.0001365958
-0.022933472 -2.1684043e-19 -0.0059272344
-0.022450661 -0.00127 -0.0020668085
0.013760083 -0.00127 -0.0018255319
0.013760083 0.0010160001 -0.0001365958
-0.020278018 -0.00127 -0.00061914901
0.024140496 0.00050800003 -0.0023080851
0.020278018 0.00025400001 -0.0071336171
0.010380413 -2.1684043e-19 0.0015523405
-0.012794463 0.00025400001 -0.0027906385
0.016174132 0.00050800003 -0.0023080851
0.020760827 0.00127 -0.0001365958
-0.014484297 -0.00127 -0.00061914901
0.015449918 0.00025400001 -0.0049621277
-0.011104628 0.00127 -0.0001365958
-0.020760827 0.00127 -0.00086042559
-0.028002976 0.00025400001 -0.0032731916
-0.0041038846 -0.00127 -0.0011017022
0.0026554547 -2.1684043e-19 0.0020348935
0.028002976 0.00127 -0.0013429788
-0.015208513 0.00025400001 -0.0076161702
-0.0074835541 -0.00025400001 -0.0071336171
0.018829588 0.00076199998 -0.0001365958
-0.0026554547 0.00025400001 -0.0032731916
0.027520167 -0.00127 -0.0001365958
-0.017622562 -0.00025400001 0.00082851062
0.028002976 0.00025400001 -0.0068923407
-0.019553803 0.00050800003 -0.0023080851
0.023657687 0.00127 -0.0013429788
0.00048280993 -0.0010160001 -0.0001365958
-0.028002976 -2.1684043e-19 -0.0078574466
0.011104628 0.00076199998 -0.0023080851
0.00024140497 -0.00025400001 -0.0056859576
-0.00024140497 -0.00050800003 -0.00037787241
-0.015208513 0.00025400001 -0.0027906385
-0.0070007439 -0.00076199998 -0.0001365958
0.019070992 0.00025400001 -0.0001365958
-0.0026554547 -0.00025400001 -0.0054446808
-0.023174876 -2.1684043e-19 0.0001046808
-0.014001488 0.00127 -0.0013429788
-0.00024140497 -0.00127 -0.0015842554
-0.015449918 -0.00025400001 -0.0025493619
-0.00048280993 0.00127 -0.0020668085
0.0048280992 0.00050800003 -0.0023080851
-0.015449918 0.00025400001 -0.0032731916
0.00096561987 -2.1684043e-19 -0.0023080851
0.021243637 0.00076199998 -0.0023080851
-0.017139753 -0.00127 -0.0001365958
0.0024140496 -0.0010160001 -0.0023080851
-0.015691323 -2.1684043e-19 -0.0001365958
0.022933472 -0.00025400001 -0.0039970214
-0.025106117 -2.1684043e-19 -0.0030319151
-0.016898347 -0.00127 -0.00086042559
0.00048280993 -0.00076199998 -0.0001365958
-0.026554545 -0.00050800003 -0.0023080851
-0.017381158 -2.1684043e-19 -0.0001365958
0.017139753 0.00076199998 -0.0001365958
0.015208513 0.00025400001 -0.0076161702
-0.0033796695 -0.00025400001 -0.0001365958
-0.0098976037 -2.1684043e-19 -0.0068923407
-0.0026554547 -0.00127 -0.0023080851
0.0053109094 0.00025400001 0.0010697872
-0.0091733886 0.00025400001 -0.0001365958
0.021243637 -0.00127 -0.0023080851
-0.014001488 -0.00025400001 -0.0001365958
0.012070248 0.00127 -0.0013429788
0.0072421487 0.00127 -0.00086042559
-0.016898347 -0.00025400001 -0.0023080851
0.017139753 -0.00076199998 -0.0001365958
0.010139009 0.00025400001 0.0025174469
-0.0074835541 -2.1684043e-19 -0.0049621277
0.0096561983 -0.0010160001 -0.0023080851
-0.0074835541 0.00025400001 0.001793617
0.0024140496 -2.1684043e-19 -0.0035144682
-0.028002976 0.00127 -0.00086042559
-0.010380413 0.00025400001 -0.0030319151
0.025347522 0.00025400001 -0.0068923407
-0.027037356 -0.00025400001 -0.0023080851
-0.010139009 0.00076199998 -0.0023080851
-0.020519422 -0.00025400001 -0.0042382982
-0.022933472 -2.1684043e-19 -0.0078574466
0.013518678 0.00076199998 -0.0023080851
-0.02727876 -0.00127 -0.0023080851
-0.0074835541 0.00025400001 0.0013110638
0.0028968595 -0.00127 -0.00086042559
0.015208513 -0.00050800003 -0.00037787241
-0.022692068 0.00025400001 0.0001046808
-0.0024140496 -2.1684043e-19 -0.0076161702
0.0048280992 0.00127 -0.00086042559
-0.016656943 0.00127 -0.0001365958
-0.023416281 0.0010160001 -0.0001365958
0.020519422 -0.00025400001 -0.0025493619
0.018588182 0.00127 -0.0018255319
-0.010139009 -0.00127 -0.0025493619
0.023899091 0.00127 -0.0011017022
-0.012070248 0.00050800003 -0.00037787241
0.0026554547 -2.1684043e-19 0.0015523405
0.016898347 -0.00127 -0.0001365958
-0.017622562 -2.1684043e-19 -0.0076161702
-0.0021726447 0.00127 -0.0020668085
-0.0077249589 -0.00127 -0.0023080851
-0.020278018 0.00025400001 -0.0066510639
-0.023657687 0.00025400001 -0.0023080851
0.0096561983 0.00076199998 -0.0001365958
0.0012070248 -0.00127 -0.0015842554
0.0033796695 0.00127 -0.0023080851
0.020519422 0.00025400001 -0.0049621277
0.025347522 -0.00025400001 -0.0054446808
0.027761571 0.00127 -0.0018255319
-0.011346034 0.0010160001 -0.0023080851
0.0077249589 0.00127 -0.0020668085
0.024623306 0.00076199998 -0.0001365958
0.028002976 -2.1684043e-19 -0.0032731916
-0.027761571 -2.1684043e-19 -0.0032731916
0.024864711 -0.00076199998 -0.0023080851
-0.021485042 0.00050800003 -0.00037787241
-0.012794463 -2.1684043e-19 -0.0054446808
0.013760083 -0.00127 -0.0015842554
0.022450661 0.00025400001 -0.0023080851
0.011104628 -0.00025400001 -0.0001365958
-0.019553803 -2.1684043e-19 -0.0023080851
0.023416281 0.00127 -0.0001365958
0.010380413 0.00025400001 -0.0056859576
-0.020519422 -0.00025400001 0.00058723398
-0.0098976037 0.00050800003 -0.00037787241
0.0084491735 0.00127 -0.0011017022
-0.017622562 -2.1684043e-19 -0.0035144682
-0.019795207 0.0010160001 -0.0023080851
-0.022692068 0.00025400001 -0.0037557448
-0.015449918 -2.1684043e-19 -0.0066510639
0.025588926 -0.00025400001 0.0022761703
-0.0079663638 -0.00127 -0.00061914901
0.0098976037 -2.1684043e-19 -0.0061685108
0.0065179341 -0.00050800003 -0.0023080851
0.0024140496 -0.00076199998 -0.0001365958
0.0026554547 -2.1684043e-19 -0.0039970214
0.025347522 -0.00025400001 -0.0032731916
0.015208513 -0.00025400001 0.0013110638
-0.0098976037 -2.1684043e-19 -0.0025493619
-0.015208513 -0.00127 -0.00086042559
-0.0021726447 -0.00050800003 -0.00037787241
-0.028727191 0.00025400001 -0.0001365958
-0.023657687 0.00127 -0.0001365958
0.028244382 -0.00127 -0.0013429788
0.00096561987 0.0010160001 -0.0023080851
0.0036210744 -0.00127 -0.00037787241
-0.0038624795 0.00127 -0.0015842554
-0.0038624795 0.00127 -0.0020668085
0.029210001 -0.00025400001 -0.00086042559
-0.00096561987 -0.00076199998 -0.0001365958
-0.020760827 0.00127 -0.00061914901
-0.0026554547 -0.00025400001 -0.0066510639
-0.027761571 -2.1684043e-19 0.00082851062
-0.019312397 0.00076199998 -0.0023080851
-0.021485042 0.00127 -0.0023080851
-0.0021726447 -0.00025400001 -0.0023080851
0.0072421487 0.00127 -0.0015842554
0.019795207 -0.00127 -0.0018255319
0.0050695045 0.00025400001 -0.0059272344
0.0077249589 0.00025400001 -0.0061685108
-0.022209257 0.00127 -0.00061914901
-0.020278018 0.00127 -0.0018255319
-0.00096561987 0.00127 -0.00061914901
-0.010380413 0.0010160001 -0.0023080851
-0.0074835541 -2.1684043e-19 0.0022761703
0.020519422 -0.00050800003 -0.0023080851
0.022209257 0.00127 -0.0020668085
-0.017622562 -2.1684043e-19 -0.0068923407
0.020036612 -2.1684043e-19 -0.0068923407
-0.0019312397 -0.00050800003 -0.00037787241
-0.024140496 0.0010160001 -0.0023080851
0.016656943 0.00127 -0.0020668085
0.00096561987 -0.00076199998 -0.0023080851
-0.0094147939 -0.00025400001 -0.0023080851
-0.0024140496 0.00025400001 0.0013110638
0.027761571 0.00127 -0.0013429788
-0.011104628 0.00127 -0.0023080851
-0.0048280992 -2.1684043e-19 -0.0032731916
0.016174132 0.00025400001 -0.0023080851
-0.0050695045 -0.00076199998 -0.0025493619
0.027520167 -0.00025400001 -0.0001365958
-0.016415538 0.00127 -0.00037787241
-0.010139009 -2.1684043e-19 0.0025174469
-0.019070992 -0.00127 -0.0018255319
0.028244382 -0.00050800003 -0.00037787241
-0.022933472 0.00025400001 0.0025174469
0.023657687 -0.00050800003 -0.0023080851
-0.0021726447 -0.00127 -0.00086042559
-0.022692068 -0.00127 -0.00061914901
-0.0057937191 -2.1684043e-19 -0.0001365958
-0.0074835541 -2.1684043e-19 -0.0071336171
-0.023899091 -0.00127 -0.0011017022
