# .PCD v0.7 - Point Cloud Data file format
VERSION 0.7
FIELDS x y z
SIZE 4 4 4
TYPE F F F
COUNT 1 1 1
WIDTH 1225
HEIGHT 1
VIEWPOINT 0 0 0 1 0 0 0
POINTS 1225
DATA ascii
-0.021018991 0.00127 -0.0019381819
0 0.00018142856 0.0012363635
-0.019640697 -0.00127 -0.0019381819
-0.0048240307 0.00018142856 -0.0065236366
-0.0010337209 0.00090714288 -0.0022909092
-0.02274186 -0.00018142856 -0.0079345461
-0.0051686047 -0.00018142856 0.0019418182
-0.027221316 -0.00127 -0.0022909092
0.036180232 0.00127 -0.00052727282
0.0099926358 -0.00018142856 -0.0054654549
-0.042727131 -0.00127 -0.00052727282
-0.01516124 0.00127 -0.0022909092
-0.010681783 -0.00127 -0.0022909092
-0.027910464 0.00127 -0.0012327274
-0.039625969 0.00127 -0.00017454554
-0.018606976 -0.00127 -0.0019381819
0.017917829 -0.00018142856 0.0015890909
-0.0027565891 -0.00127 -0.0022909092
0.0024120153 0.00018142856 0.00017818174
-0.024120154 0.00018142856 -0.00017454554
-0.035491083 0.00054428569 -0.00052727282
-0.014127519 0.00127 -0.00052727282
-0.035835657 0.00127 -0.00088000012
0.041004263 0.00127 -0.00017454554
-0.01240465 -0.00018142856 -0.0065236366
0.030667054 0.00018142856 -0.0051127276
0.043416277 0.00054428569 -0.0022909092
0.021018991 0.00054428569 -0.0022909092
0.025153875 0.00018142856 -0.0051127276
0.0044794572 -0.00127 -0.00052727282
-0.037558526 -0.00127 -0.00052727282
-0.021708138 0.00127 -0.00088000012
0.01516124 -0.00127 -0.0012327274
-0.041004263 -0.00127 -0.00088000012
-0.025153875 0.00127 -0.00017454554
0.038592245 0.00127 -0.0015854547
0.040659688 -0.00018142856 -0.0082872733
0.0051686047 -0.00127 -0.0012327274
-0.017573256 -0.00127 -0.00052727282
-0.024120154 -0.00127 -0.00017454554
0.0379031 -0.00090714288 -0.00017454554
0.017228682 0.00127 -0.00017454554
-0.038247675 0.00018142856 0.00017818174
-0.011715503 -0.00090714288 -0.0022909092
0.021708138 -0.00090714288 -0.0022909092
-0.030667054 0.00127 -0.00052727282
-0.01895155 -0.00090714288 -0.0022909092
-0.011715503 -0.00127 -0.0022909092
-0.032734495 0.00127 -0.0022909092
0.0075806198 0.00127 -0.0019381819
0.012749224 -0.00018142856 0.0012363635
-0.0065468992 0.00054428569 -0.00052727282
-0.038247675 0.00018142856 -0.0026436364
0.025153875 -0.00127 -0.00088000012
0.030667054 -0.00018142856 0.00053090905
-0.034457363 0.00054428569 -0.00052727282
-0.017573256 0.00018142856 -0.0061709094
0.01516124 0.00018142856 -0.0054654549
0.034801938 -0.00127 -0.00052727282
0.023086434 -0.00018142856 -0.0029963637
0.043071706 0.00018142856 0.0015890909
-0.024809301 0.00127 -0.0019381819
-0.017228682 -0.00127 -0.00052727282
0 0.00127 -0.0015854547
0.025153875 0.00054428569 -0.00052727282
0.034801938 -0.00018142856 -0.00017454554
-0.03893682 0.00127 -0.0019381819
0.015505813 -0.00018142856 -0.0065236366
0.035491083 -0.00090714288 -0.00017454554
0.033423644 0.00127 -0.0019381819
0.0082697673 -0.00018142856 -0.0022909092
-0.012749224 0.00018142856 -0.0026436364
0.014472093 -0.00127 -0.00052727282
-0.040659688 0.00018142856 -0.0054654549
-0.0048240307 0.00018142856 0.0008836363
-0.021363566 -0.00054428569 -0.00052727282
-0.016884107 0.00090714288 -0.00017454554
-0.010337209 0.00018142856 0.0019418182
0.036869377 -0.00127 -0.0022909092
0.020674419 0.00127 -0.00088000012
0.0020674418 0.00127 -0.00088000012
-0.01516124 0.00127 -0.0012327274
-0.012749224 -0.00018142856 -0.0061709094
-0.03893682 0.00018142856 -0.0022909092
-0.021018991 -0.00054428569 -0.00052727282
-0.02274186 0.00018142856 -0.0061709094
-0.023086434 -0.00018142856 -0.0058181821
0.023086434 -0.00018142856 -0.0075818184
-0.00068914727 -0.00127 -0.0015854547
0.0048240307 -0.00018142856 0.0012363635
0.0051686047 -0.00127 -0.0015854547
-0.043760851 -0.00090714288 -0.0012327274
0.01516124 0.00018142856 0.0019418182
-0.033423644 0.00127 -0.0022909092
0.0034457364 0.00054428569 -0.00052727282
0.035491083 -0.00054428569 -0.00052727282
0.012060077 -0.00054428569 -0.0022909092
0.0051686047 0.00090714288 -0.0022909092
0.030322479 -0.00018142856 0.00053090905
-0.025498448 0.00018142856 -0.0037018184
0.028255038 -0.00054428569 -0.00052727282
0.043416277 -0.00018142856 0.0015890909
-0.01516124 -0.00127 -0.00017454554
0.0058577517 -0.00127 -0.00088000012
-0.013782945 0.00127 -0.00017454554
0.026532169 0.00127 -0.0019381819
0.01137093 0.00018142856 -0.0022909092
-0.020674419 0.00018142856 -0.0022909092
-0.014127519 0.00054428569 -0.00052727282
-0.031700775 0.00127 -0.0022909092
-0.027565891 0.00127 -0.00052727282
0.027910464 0.00018142856 -0.0040545454
0.00034457364 -0.00018142856 0.0012363635
0 -0.00018142856 -0.0033490912
0.017917829 -0.00018142856 0.00053090905
-0.032734495 -0.00127 -0.00017454554
0.036869377 0.00127 -0.0019381819
-0.00068914727 0.00127 -0.0022909092
-0.0072360463 0.00018142856 -0.00017454554
-0.010337209 -0.00018142856 -0.0037018184
0.029977906 0.00054428569 -0.00052727282
-0.035146512 0.00127 -0.0012327274
0.025843022 -0.00127 -0.00088000012
-0.0044794572 0.00127 -0.0022909092
0.043416277 -0.00018142856 -0.0047600004
-0.040659688 -0.00127 -0.00052727282
-0.015505813 0.00018142856 -0.0029963637
-0.017917829 -0.00018142856 0.0022945455
0.021708138 -0.00127 -0.00052727282
0.01240465 0.00018142856 -0.0037018184
-0.033079069 0.00018142856 0.00017818174
0.016884107 -0.00127 -0.0012327274
0.00068914727 -0.00127 -0.0015854547
0.013438372 -0.00127 -0.0012327274
-0.0096480614 0.00018142856 -0.00017454554
0.035491083 0.00018142856 0.00053090905
0.0075806198 -0.00127 -0.0019381819
0.040659688 -0.00018142856 -0.0051127276
-0.035146512 -0.00018142856 -0.0022909092
-0.010681783 -0.00127 -0.0012327274
-0.014127519 -0.00018142856 -0.00017454554
-0.0027565891 -0.00090714288 -0.00017454554
0.02274186 0.00127 -0.0015854547
0.033079069 0.00018142856 0.0008836363
-0.015505813 -0.00018142856 -0.0051127276
0.0079251938 0.00127 -0.0019381819
0.017917829 0.00127 -0.00088000012
-0.019296123 -0.00054428569 -0.0022909092
0 -0.00018142856 -0.0026436364
-0.0051686047 -0.00018142856 -0.00017454554
-0.015850388 -0.00018142856 -0.00017454554
-0.033423644 -0.00054428569 -0.00052727282
0.030667054 -0.00018142856 -0.0068763639
0.0048240307 0.00127 -0.00052727282
0.010337209 -0.00127 -0.00017454554
-0.021708138 -0.00090714288 -0.00017454554
0.025843022 0.00127 -0.0019381819
-0.030667054 -0.00018142856 0.00017818174
-0.0027565891 0.00018142856 -0.0054654549
-0.0068914727 -0.00018142856 -0.0022909092
-0.027910464 0.00018142856 0.00053090905
0.0041348836 0.00127 -0.0022909092
-0.0075806198 -0.00127 -0.0022909092
-0.014816666 0.00127 -0.0012327274
-0.011026356 -0.00127 -0.00088000012
-0.0024120153 0.00018142856 0.00017818174
0.017917829 -0.00018142856 -0.0044072731
0.0041348836 -0.00127 -0.0022909092
-0.02274186 0.00018142856 -0.0072290911
0.035835657 0.00018142856 -0.0079345461
-0.021708138 0.00054428569 -0.00052727282
-0.020329844 -0.00018142856 -0.0051127276
0.0096480614 0.00054428569 -0.00052727282
-0.014127519 -0.00127 -0.0022909092
-0.0062023252 -0.00127 -0.0012327274
-0.032734495 -0.00018142856 -0.0047600004
-0.01895155 -0.00127 -0.00017454554
-0.020674419 -0.00018142856 -0.0022909092
-0.035835657 -0.00018142856 -0.0054654549
-0.023431007 0.00127 -0.00088000012
0.0099926358 -0.00018142856 -0.0029963637
-0.010337209 -0.00018142856 0.0012363635
-0.031011626 0.00054428569 -0.00052727282
-0.019985272 -0.00090714288 -0.0022909092
0.016884107 0.00127 -0.0015854547
-0.030322479 -0.00018142856 0.00017818174
-0.032045349 -0.00127 -0.00052727282
0.010337209 -0.00127 -0.0022909092
-0.038592245 -0.00018142856 -0.0022909092
-0.010337209 0.00018142856 -0.00017454554
-0.0079251938 -0.00018142856 -0.0051127276
-0.032734495 0.00018142856 -0.00017454554
0.035146512 0.00127 -0.00052727282
-0.028944185 -0.00127 -0.00088000012
-0.0075806198 0.00018142856 -0.0037018184
-0.036869377 -0.00127 -0.0012327274
0.0048240307 -0.00018142856 0.0015890909
0.018262403 0.00127 -0.0015854547
-0.0099926358 -0.00018142856 0.00053090905
0.0079251938 0.00127 -0.0015854547
-0.015505813 0.00054428569 -0.00052727282
-0.027565891 0.00127 -0.00088000012
-0.017573256 -0.00127 -0.0012327274
-0.016539535 0.00054428569 -0.00052727282
0.017228682 -0.00054428569 -0.0022909092
0.0051686047 -0.00018142856 -0.0065236366
-0.01516124 0.00054428569 -0.0022909092
-0.038247675 -0.00018142856 -0.0044072731
-0.020329844 -0.00018142856 -0.0044072731
-0.0027565891 0.00090714288 -0.00017454554
-0.028944185 -0.00090714288 -0.0022909092
0.0017228682 -0.00090714288 -0.00017454554
0.041693408 -0.00018142856 -0.00017454554
0.0379031 -0.00018142856 -0.0061709094
0.040659688 0.00018142856 -0.0047600004
0.0010337209 -0.00127 -0.0015854547
-0.043071706 -0.00018142856 -0.00017454554
-0.014127519 0.00127 -0.0022909092
-0.027910464 -0.00018142856 -0.0033490912
-0.043071706 0.00018142856 0.0012363635
0.034801938 0.00127 -0.00017454554
0 -0.00018142856 -0.0051127276
-0.030322479 -0.00127 -0.0022909092
-0.035835657 -0.00127 -0.00017454554
-0.025153875 -0.00090714288 -0.00017454554
0.00034457364 -0.00127 -0.0019381819
0.023086434 -0.00054428569 -0.0022909092
-0.017917829 -0.00127 -0.00088000012
0.038247675 -0.00018142856 -0.0075818184
-0.024120154 -0.00054428569 -0.0022909092
0.0079251938 -0.00054428569 -0.00052727282
-0.035835657 0.00018142856 -0.0065236366
0.012749224 0.00018142856 -0.0033490912
-0.0048240307 0.00018142856 -0.0029963637
-0.014472093 0.00090714288 -0.00017454554
0.022397285 0.00054428569 -0.00052727282
-0.039281394 0.00127 -0.0012327274
-0.019985272 -0.00018142856 -0.00017454554
-0.0093034878 0.00054428569 -0.00052727282
-0.025153875 0.00018142856 -0.0051127276
0.032734495 -0.00090714288 -0.0022909092
0.0055131782 -0.00127 -0.00052727282
-0.012749224 0.00018142856 -0.0033490912
-0.018262403 -0.00127 -0.00017454554
-0.041348837 -0.00127 -0.00017454554
-0.0034457364 -0.00127 -0.0022909092
-0.027910464 0.00054428569 -0.0022909092
-0.016539535 -0.00127 -0.0015854547
0.0075806198 0.00127 -0.00088000012
-0.0072360463 -0.00127 -0.0015854547
-0.017573256 -0.00090714288 -0.0022909092
0.032734495 0.00018142856 -0.0072290911
0.032734495 -0.00127 -0.0019381819
-0.043071706 0.00018142856 -0.0075818184
-0.0068914727 0.00127 -0.0022909092
-0.0065468992 -0.00018142856 -0.0022909092
0.040659688 0.00018142856 0.0022945455
-0.033079069 0.00127 -0.00017454554
0.043416277 -0.00018142856 0.0022945455
-0.043760851 -0.00090714288 -0.00052727282
-0.02274186 0.00127 -0.0019381819
0.043071706 0.00018142856 -0.0054654549
0.0082697673 0.00054428569 -0.0022909092
-0.0044794572 -0.00127 -0.00052727282
0.017917829 -0.00018142856 -0.0075818184
-0.010337209 -0.00018142856 -0.0068763639
-0.035835657 0.00018142856 -0.0068763639
-0.038247675 0.00018142856 -0.0044072731
0.033768214 -0.00127 -0.0019381819
0.0082697673 0.00054428569 -0.00052727282
-0.0048240307 0.00018142856 -0.00017454554
0.017573256 0.00018142856 -0.0029963637
-0.017573256 -0.00127 -0.0015854547
0.021018991 0.00127 -0.00052727282
-0.026187597 -0.00127 -0.00088000012
0.015505813 0.00018142856 -0.0047600004
-0.029288759 -0.00090714288 -0.00017454554
-0.032734495 -0.00018142856 -0.0065236366
0.040659688 0.00018142856 -0.0051127276
-0.0048240307 0.00018142856 0.00017818174
0.025153875 0.00018142856 -0.0040545454
-0.021018991 0.00054428569 -0.00052727282
0.015850388 -0.00127 -0.00052727282
0.034112789 0.00127 -0.0022909092
0.0093034878 -0.00090714288 -0.0022909092
-0.015505813 0.00018142856 -0.0061709094
-0.033768214 -0.00018142856 -0.00017454554
-0.0058577517 -0.00127 -0.0022909092
0.017917829 -0.00018142856 -0.0033490912
-0.030667054 0.00018142856 0.0019418182
-0.022397285 0.00127 -0.0015854547
0.0379031 0.00018142856 -0.0040545454
0.0075806198 0.00018142856 -0.0065236366
-0.0099926358 -0.00018142856 -0.0026436364
-0.038247675 0.00127 -0.0012327274
-0.0051686047 0.00018142856 0.0019418182
0.017917829 0.00127 -0.00017454554
-0.01240465 -0.00018142856 0.00017818174
-0.023086434 0.00090714288 -0.00017454554
-0.017917829 0.00054428569 -0.00052727282
0.033079069 -0.00018142856 -0.0026436364
0.021018991 0.00127 -0.00017454554
0.023431007 0.00054428569 -0.0022909092
-0.029633332 -0.00127 -0.0015854547
0.035835657 0.00127 -0.0019381819
-0.016539535 -0.00127 -0.0019381819
0.017573256 -0.00090714288 -0.0022909092
0.040315114 0.00054428569 -0.00052727282
-0.025498448 0.00054428569 -0.0022909092
0.0051686047 -0.00018142856 -0.0061709094
-0.037213951 -0.00090714288 -0.0022909092
-0.020329844 0.00127 -0.0019381819
-0.0024120153 0.00018142856 0.0008836363
0.0079251938 0.00018142856 0.00053090905
-0.012060077 0.00090714288 -0.0022909092
-0.024464728 0.00127 -0.0012327274
-0.020329844 -0.00127 -0.0019381819
-0.0086143408 -0.00018142856 -0.00017454554
-0.026876744 -0.00054428569 -0.0022909092
-0.029288759 -0.00127 -0.00052727282
-0.025153875 -0.00054428569 -0.00052727282
-0.039970543 -0.00127 -0.00052727282
-0.029288759 -0.00054428569 -0.0022909092
-0.040659688 0.00018142856 0.0012363635
-0.0079251938 -0.00018142856 -0.0047600004
0.012060077 0.00127 -0.00017454554
0.00034457364 0.00127 -0.0015854547
-0.025153875 0.00018142856 -0.0040545454
-0.026187597 0.00018142856 -0.0022909092
-0.025498448 0.00018142856 -0.0054654549
-0.040659688 0.00018142856 -0.0082872733
0.0072360463 0.00127 -0.00052727282
0.043760851 -0.00090714288 -0.0022909092
-0.0058577517 0.00127 -0.00088000012
0.034457363 0.00090714288 -0.00017454554
-0.0062023252 -0.00054428569 -0.00052727282
-0.027221316 -0.00090714288 -0.00017454554
-0.0075806198 -0.00090714288 -0.00017454554
-0.012749224 -0.00018142856 -0.0037018184
0.011715503 0.00127 -0.0012327274
0.0089589143 -0.00018142856 -0.0022909092
0.0020674418 0.00018142856 -0.00017454554
-0.013438372 -0.00127 -0.0012327274
0.034457363 0.00127 -0.0012327274
0.038247675 -0.00018142856 -0.0058181821
-0.0017228682 -0.00054428569 -0.0022909092
0.024464728 -0.00127 -0.0019381819
0.020329844 0.00127 -0.0012327274
-0.0379031 0.00018142856 -0.0061709094
0.019296123 0.00090714288 -0.0022909092
-0.0044794572 0.00127 -0.0012327274
-0.0010337209 0.00018142856 -0.00017454554
-0.010337209 -0.00054428569 -0.00052727282
-0.027910464 -0.00127 -0.00052727282
-0.0031011626 0.00018142856 -0.0022909092
-0.0099926358 -0.00018142856 -0.0072290911
-0.017573256 -0.00127 -0.00017454554
0.025153875 0.00018142856 -0.0075818184
0.0034457364 -0.00127 -0.0015854547
0.0089589143 0.00127 -0.00052727282
0.0379031 0.00018142856 -0.0075818184
0.0065468992 -0.00127 -0.0019381819
-0.043071706 -0.00090714288 -0.0022909092
-0.015505813 0.00090714288 -0.0022909092
-0.01240465 0.00090714288 -0.0022909092
-0.040315114 -0.00018142856 -0.0022909092
0.0379031 0.00054428569 -0.0022909092
0.0010337209 0.00018142856 -0.0022909092
0.036869377 0.00090714288 -0.00017454554
0.014472093 -0.00127 -0.00017454554
0.028944185 -0.00090714288 -0.00017454554
0.0068914727 0.00018142856 -0.0022909092
0.037558526 -0.00127 -0.0019381819
0.032045349 0.00090714288 -0.0022909092
-0.035146512 -0.00054428569 -0.00052727282
0.020329844 0.00018142856 -0.0061709094
-0.026187597 -0.00018142856 -0.00017454554
-0.035146512 -0.00127 -0.0015854547
-0.026876744 -0.00127 -0.00017454554
-0.010681783 0.00018142856 -0.00017454554
-0.019296123 0.00127 -0.00088000012
0.010337209 0.00018142856 0.0019418182
-0.0031011626 -0.00127 -0.0012327274
0.018606976 0.00054428569 -0.00052727282
0.016884107 0.00018142856 -0.00017454554
0.013782945 0.00018142856 -0.00017454554
0 0.00018142856 -0.0026436364
-0.020329844 0.00127 -0.0022909092
-0.042727131 0.00127 -0.0019381819
0.022052713 0.00054428569 -0.00052727282
0.033768214 0.00090714288 -0.0022909092
-0.042037982 -0.00127 -0.0022909092
-0.01240465 0.00127 -0.0012327274
0.019296123 -0.00127 -0.0022909092
-0.042037982 -0.00127 -0.00017454554
-0.0099926358 0.00127 -0.0012327274
0.0020674418 -0.00127 -0.0019381819
0.039970543 -0.00127 -0.00017454554
-0.043071706 -0.00127 -0.00088000012
-0.0079251938 -0.00127 -0.00017454554
-0.0089589143 -0.00127 -0.0015854547
0.021018991 -0.00090714288 -0.0022909092
0.015505813 -0.00018142856 -0.0033490912
0.011026356 0.00127 -0.00088000012
0.036869377 -0.00018142856 -0.0022909092
-0.0379031 0.00018142856 0.0015890909
0.030322479 -0.00127 -0.0015854547
-0.030667054 0.00054428569 -0.0022909092
-0.021708138 -0.00127 -0.0022909092
-0.013782945 0.00090714288 -0.0022909092
-0.0065468992 -0.00127 -0.0012327274
0.017573256 0.00018142856 0.00017818174
0.029977906 0.00090714288 -0.0022909092
-0.034112789 -0.00127 -0.00052727282
-0.034112789 0.00127 -0.0012327274
-0.0010337209 -0.00127 -0.0022909092
0.031356201 0.00127 -0.0012327274
-0.01516124 -0.00018142856 -0.0033490912
-0.019640697 -0.00127 -0.00017454554
0.02274186 0.00018142856 0.0008836363
0.041004263 -0.00127 -0.0015854547
0.041348837 0.00127 -0.00017454554
0.032734495 -0.00018142856 -0.0068763639
-0.024464728 0.00090714288 -0.0022909092
0.031011626 -0.00090714288 -0.00017454554
-0.0099926358 0.00127 -0.00052727282
0.010337209 -0.00127 -0.0012327274
-0.025153875 -0.00090714288 -0.0022909092
0.017573256 0.00018142856 -0.0051127276
0.017917829 -0.00127 -0.0022909092
-0.021708138 -0.00127 -0.0019381819
0.033079069 -0.00018142856 0.0019418182
-0.028255038 0.00090714288 -0.00017454554
-0.040659688 0.00018142856 -0.0068763639
0.015505813 -0.00127 -0.0022909092
0.011715503 -0.00054428569 -0.00052727282
0.027910464 0.00054428569 -0.0022909092
0.035491083 0.00018142856 -0.0026436364
-0.013782945 -0.00090714288 -0.00017454554
-0.0379031 0.00090714288 -0.0022909092
-0.00068914727 0.00090714288 -0.00017454554
0.011026356 -0.00054428569 -0.0022909092
0.028944185 -0.00018142856 -0.00017454554
-0.0086143408 0.00090714288 -0.00017454554
0.023086434 -0.00127 -0.0015854547
-0.012060077 -0.00054428569 -0.00052727282
-0.011026356 0.00054428569 -0.00052727282
-0.034457363 -0.00054428569 -0.00052727282
0.017917829 0.00018142856 -0.0075818184
-0.0058577517 -0.00054428569 -0.0022909092
0.035491083 0.00018142856 -0.0047600004
0.0010337209 -0.00127 -0.00017454554
0.010337209 -0.00054428569 -0.00052727282
-0.041348837 -0.00054428569 -0.0022909092
0.042382557 -0.00018142856 -0.0022909092
-0.035146512 -0.00127 -0.0022909092
0.036524806 0.00054428569 -0.00052727282
-0.025153875 -0.00127 -0.00052727282
0.01240465 -0.00127 -0.0022909092
-0.0031011626 0.00090714288 -0.0022909092
-0.035835657 0.00018142856 -0.0054654549
0.017228682 0.00090714288 -0.00017454554
-0.032734495 -0.00018142856 -0.0033490912
-0.0027565891 -0.00018142856 -0.0061709094
-0.035835657 0.00018142856 -0.0037018184
0.0099926358 0.00018142856 0.0008836363
0.033079069 -0.00018142856 0.00017818174
-0.0048240307 -0.00018142856 0.0022945455
-0.032734495 -0.00127 -0.0022909092
0.037213951 -0.00127 -0.0012327274
0.031011626 0.00090714288 -0.00017454554
0.0024120153 0.00018142856 0.0015890909
0.017573256 -0.00018142856 -0.00017454554
0.013093798 0.00127 -0.0022909092
0.042382557 0.00127 -0.0012327274
0.036869377 -0.00127 -0.0019381819
0.0058577517 0.00054428569 -0.0022909092
0.025843022 0.00090714288 -0.00017454554
0.042382557 0.00054428569 -0.0022909092
-0.017917829 0.00127 -0.0022909092
-0.022052713 0.00127 -0.0015854547
-0.0075806198 0.00054428569 -0.00052727282
0.034112789 0.00127 -0.0015854547
-0.040315114 0.00054428569 -0.00052727282
-0.02274186 0.00018142856 -0.0075818184
0.020329844 -0.00127 -0.00088000012
-0.038592245 0.00054428569 -0.0022909092
-0.01619496 -0.00054428569 -0.0022909092
0 0.00018142856 -0.0079345461
-0.010337209 0.00127 -0.0019381819
-0.015505813 -0.00018142856 -0.0026436364
0.0379031 0.00018142856 0.0022945455
-0.0062023252 -0.00018142856 -0.00017454554
0.027221316 -0.00127 -0.0012327274
0.042727131 0.00054428569 -0.0022909092
-0.0068914727 -0.00127 -0.0019381819
-0.037213951 -0.00127 -0.00017454554
0.022397285 0.00054428569 -0.0022909092
-0.032045349 0.00127 -0.00052727282
-0.023086434 -0.00018142856 0.00017818174
-0.033423644 0.00018142856 -0.00017454554
-0.044105425 -0.00018142856 -0.0019381819
-0.0051686047 -0.00018142856 -0.0029963637
-0.032045349 0.00127 -0.00017454554
0.012749224 -0.00018142856 -0.0033490912
0.040315114 0.00018142856 -0.00017454554
-0.025153875 -0.00018142856 -0.0044072731
-0.0024120153 -0.00018142856 -0.0040545454
-0.040659688 -0.00018142856 -0.0061709094
0.0024120153 -0.00127 -0.0015854547
0.040659688 0.00018142856 -0.0033490912
-0.042037982 -0.00127 -0.0012327274
0.0075806198 -0.00018142856 -0.0054654549
0.014127519 0.00018142856 -0.00017454554
0.01516124 -0.00018142856 -0.00017454554
-0.039625969 -0.00127 -0.00052727282
-0.043416277 0.00018142856 -0.00017454554
-0.01619496 0.00090714288 -0.0022909092
0.028599612 -0.00127 -0.0012327274
0.030667054 0.00018142856 -0.0054654549
-0.033079069 0.00054428569 -0.00052727282
-0.026876744 0.00127 -0.00017454554
-0.012749224 0.00018142856 0.0012363635
0.037558526 -0.00127 -0.00052727282
-0.029977906 0.00054428569 -0.0022909092
-0.0086143408 0.00018142856 -0.00017454554
-0.010337209 0.00018142856 -0.0065236366
-0.043416277 0.00127 -0.0015854547
0.043071706 -0.00127 -0.00017454554
-0.014127519 0.00018142856 -0.00017454554
0.0051686047 0.00018142856 -0.0072290911
0.027910464 0.00018142856 0.0015890909
0.022052713 -0.00054428569 -0.00052727282
0.028944185 0.00127 -0.00088000012
0.01895155 0.00127 -0.00052727282
0.018262403 -0.00127 -0.00052727282
0.0051686047 0.00018142856 -0.0075818184
0.022397285 -0.00018142856 -0.0022909092
0.030322479 0.00018142856 -0.0072290911
-0.017917829 0.00018142856 -0.0051127276
0.0082697673 -0.00127 -0.00017454554
-0.020329844 -0.00018142856 0.0015890909
0.024120154 0.00127 -0.00052727282
0.040659688 -0.00018142856 -0.0047600004
-0.040659688 0.00018142856 0.00053090905
0.01895155 -0.00127 -0.0022909092
0.013093798 -0.00127 -0.00088000012
-0.0051686047 -0.00018142856 0.0015890909
0.032734495 0.00090714288 -0.00017454554
0.033423644 0.00127 -0.00088000012
0.0068914727 -0.00090714288 -0.0022909092
0.035835657 0.00054428569 -0.0022909092
0.038247675 -0.00127 -0.00052727282
0.040659688 -0.00127 -0.0022909092
0.021708138 -0.00127 -0.0022909092
-0.0079251938 -0.00127 -0.0015854547
-0.030667054 0.00018142856 -0.0054654549
-0.01619496 0.00127 -0.0015854547
-0.033079069 0.00018142856 -0.0079345461
-0.042727131 -0.00090714288 -0.0022909092
0.027910464 0.00127 -0.0015854547
-0.012749224 -0.00018142856 0.0012363635
0.013438372 0.00127 -0.0012327274
-0.030667054 -0.00018142856 -0.0029963637
-0.01240465 0.00018142856 -0.00017454554
0.011026356 0.00127 -0.0019381819
0 -0.00018142856 -0.0075818184
0.020329844 0.00018142856 0.0008836363
-0.0075806198 0.00127 -0.0015854547
0.043071706 -0.00018142856 -0.0029963637
-0.0079251938 0.00018142856 -0.00017454554
-0.041348837 -0.00018142856 -0.00017454554
0.033768214 0.00127 -0.0022909092
0.017917829 0.00018142856 0.00053090905
0.026187597 0.00054428569 -0.00052727282
-0.026876744 0.00127 -0.00088000012
0.0034457364 0.00018142856 -0.00017454554
-0.035835657 -0.00054428569 -0.00052727282
0.043760851 0.00127 -0.00088000012
-0.0079251938 0.00054428569 -0.00052727282
0.039970543 -0.00054428569 -0.0022909092
0.01240465 0.00090714288 -0.00017454554
0.0013782945 -0.00127 -0.00052727282
-0.020674419 -0.00090714288 -0.00017454554
0.0024120153 -0.00018142856 -0.0051127276
0.010337209 -0.00018142856 -0.0026436364
-0.01137093 -0.00054428569 -0.00052727282
0.040659688 0.00018142856 0.0015890909
-0.040659688 -0.00018142856 -0.0065236366
0.042727131 0.00127 -0.0022909092
0.015505813 0.00054428569 -0.00052727282
-0.035835657 -0.00127 -0.00088000012
-0.037213951 0.00127 -0.00017454554
0.0037903099 0.00127 -0.00052727282
0.017228682 -0.00127 -0.0012327274
0.012060077 0.00054428569 -0.0022909092
0.00034457364 0.00090714288 -0.00017454554
-0.030322479 0.00018142856 -0.0058181821
0.0082697673 -0.00127 -0.00088000012
-0.0027565891 0.00018142856 -0.0033490912
-0.013093798 0.00054428569 -0.0022909092
0.040659688 -0.00018142856 0.0026472728
-0.017917829 -0.00018142856 -0.0068763639
0.0379031 -0.00018142856 -0.0075818184
0.025843022 -0.00018142856 -0.0022909092
-0.041004263 0.00054428569 -0.0022909092
0.0037903099 0.00018142856 -0.00017454554
-0.021363566 -0.00127 -0.0019381819
-0.0072360463 0.00127 -0.0022909092
0.025498448 -0.00018142856 -0.0061709094
0.0044794572 0.00018142856 -0.0022909092
-0.029633332 -0.00018142856 -0.0022909092
-0.02274186 -0.00054428569 -0.0022909092
-0.035146512 0.00127 -0.00017454554
-0.038592245 -0.00090714288 -0.0022909092
0.0086143408 0.00054428569 -0.00052727282
0.0055131782 0.00090714288 -0.0022909092
-0.043416277 0.00018142856 0.0019418182
0.010337209 -0.00018142856 -0.0033490912
0.020329844 0.00127 -0.00017454554
-0.01516124 0.00018142856 -0.0026436364
0.013093798 0.00090714288 -0.00017454554
0.025153875 0.00018142856 -0.0037018184
0.043416277 -0.00018142856 -0.0026436364
0.0075806198 0.00018142856 -0.00017454554
-0.029977906 0.00018142856 -0.0022909092
0.0027565891 0.00018142856 -0.0044072731
-0.034457363 -0.00127 -0.0022909092
0.043071706 -0.00090714288 -0.0022909092
0.020329844 0.00018142856 0.0012363635
0.0379031 0.00127 -0.00052727282
-0.0055131782 -0.00127 -0.0015854547
0.032734495 0.00018142856 -0.00017454554
-0.036180232 -0.00127 -0.0022909092
0.032734495 0.00018142856 -0.0047600004
0.026532169 -0.00127 -0.0019381819
0.0031011626 -0.00018142856 -0.00017454554
-0.041693408 -0.00127 -0.0019381819
-0.031011626 -0.00127 -0.00017454554
0.025498448 0.00127 -0.0015854547
0.013438372 0.00018142856 -0.0022909092
-0.025843022 -0.00018142856 -0.00017454554
0.0027565891 -0.00018142856 -0.0068763639
0.035835657 0.00018142856 0.00017818174
0.021018991 -0.00127 -0.00052727282
0.0072360463 -0.00127 -0.00017454554
0.030667054 -0.00090714288 -0.0022909092
0.034457363 0.00127 -0.00052727282
-0.033423644 -0.00127 -0.0015854547
-0.041693408 -0.00090714288 -0.00017454554
0.026187597 0.00090714288 -0.00017454554
-0.0075806198 0.00127 -0.00052727282
-0.012749224 -0.00018142856 -0.0068763639
0.042037982 -0.00054428569 -0.0022909092
-0.016884107 0.00054428569 -0.00052727282
0.040659688 -0.00018142856 -0.0072290911
-0.043071706 -0.00018142856 -0.0047600004
-0.039281394 0.00090714288 -0.0022909092
0.0051686047 0.00018142856 -0.0040545454
0.0068914727 0.00127 -0.00088000012
-0.037213951 0.00127 -0.00088000012
-0.028255038 -0.00127 -0.00088000012
0.0055131782 0.00054428569 -0.00052727282
-0.0099926358 0.00018142856 -0.0040545454
0.034112789 -0.00127 -0.0019381819
0.01516124 -0.00018142856 -0.0033490912
-0.012749224 0.00054428569 -0.0022909092
-0.029288759 -0.00127 -0.0012327274
-0.02274186 0.00018142856 0.0022945455
0.012749224 0.00127 -0.00088000012
0.029288759 -0.00127 -0.0022909092
-0.041348837 0.00018142856 -0.0022909092
-0.026187597 -0.00127 -0.0015854547
0.026187597 -0.00090714288 -0.00017454554
0.024809301 0.00127 -0.0019381819
-0.035835657 -0.00018142856 -0.0061709094
-0.026187597 -0.00127 -0.0019381819
-0.010337209 0.00018142856 -0.0047600004
-0.0065468992 -0.00054428569 -0.0022909092
0.019640697 -0.00127 -0.0015854547
-0.043071706 -0.00018142856 -0.0054654549
0.026532169 0.00127 -0.00052727282
-0.010337209 0.00018142856 -0.0037018184
0.037213951 -0.00018142856 -0.0022909092
-0.01619496 -0.00127 -0.0015854547
-0.023086434 0.00018142856 -0.00017454554
0.014472093 -0.00018142856 -0.0022909092
-0.043071706 0.00090714288 -0.00017454554
0.030667054 -0.00018142856 -0.0033490912
-0.0072360463 -0.00054428569 -0.00052727282
-0.027565891 0.00127 -0.0022909092
-0.023086434 -0.00127 -0.00088000012
0.035835657 0.00090714288 -0.00017454554
0.014472093 0.00018142856 -0.00017454554
-0.01516124 -0.00018142856 0.00053090905
-0.032734495 -0.00127 -0.0019381819
0.023431007 -0.00127 -0.00017454554
0.025498448 0.00018142856 -0.0047600004
-0.038592245 -0.00127 -0.0012327274
0.017917829 0.00018142856 -0.0037018184
0.038247675 0.00018142856 -0.00017454554
-0.0072360463 -0.00054428569 -0.0022909092
0.02274186 -0.00018142856 0.0015890909
-0.023775581 -0.00090714288 -0.0022909092
-0.023086434 -0.00018142856 0.0022945455
-0.0010337209 -0.00127 -0.0019381819
0 0.00018142856 -0.0061709094
-0.017228682 -0.00090714288 -0.00017454554
0.0024120153 -0.00018142856 0.0019418182
0.029633332 -0.00127 -0.0022909092
0.027910464 0.00018142856 -0.0079345461
0.024809301 0.00127 -0.00052727282
-0.0075806198 -0.00090714288 -0.0022909092
-0.03238992 0.00127 -0.0012327274
-0.0379031 -0.00018142856 -0.0061709094
0.027910464 -0.00054428569 -0.0022909092
-0.017917829 -0.00054428569 -0.0022909092
0.021708138 0.00090714288 -0.0022909092
0.01895155 0.00127 -0.00088000012
0.013093798 0.00018142856 -0.0022909092
0.0062023252 -0.00127 -0.0015854547
-0.014816666 -0.00127 -0.00088000012
-0.024120154 0.00127 -0.00017454554
-0.0051686047 -0.00054428569 -0.00052727282
0.033079069 0.00127 -0.0022909092
-0.0089589143 0.00090714288 -0.0022909092
0.028255038 -0.00127 -0.00088000012
0.034457363 -0.00127 -0.00017454554
0.038247675 -0.00054428569 -0.0022909092
0.020329844 -0.00018142856 -0.0079345461
-0.035835657 -0.00018142856 0.0012363635
-0.0099926358 0.00018142856 -0.0061709094
-0.031356201 0.00127 -0.0012327274
-0.0379031 -0.00090714288 -0.00017454554
-0.01240465 -0.00127 -0.0022909092
-0.00034457364 0.00018142856 -0.0044072731
-0.018262403 0.00018142856 -0.00017454554
-0.021018991 0.00018142856 -0.00017454554
-0.028255038 -0.00127 -0.0012327274
-0.014472093 0.00090714288 -0.0022909092
0.018606976 0.00090714288 -0.0022909092
-0.0017228682 0.00127 -0.0019381819
0.017917829 0.00018142856 0.0008836363
0.035491083 0.00018142856 -0.0079345461
-0.018606976 0.00018142856 -0.00017454554
-0.036524806 0.00127 -0.0022909092
0.0075806198 0.00127 -0.00017454554
-0.013438372 0.00127 -0.0015854547
-0.016884107 0.00127 -0.0015854547
0.038592245 -0.00127 -0.0015854547
0.013782945 -0.00127 -0.0012327274
-0.03238992 0.00054428569 -0.00052727282
0.018262403 0.00018142856 -0.00017454554
-0.031356201 -0.00127 -0.00052727282
0.035835657 0.00127 -0.00088000012
0.027221316 -0.00018142856 -0.00017454554
0.0086143408 0.00090714288 -0.0022909092
0.023086434 0.00018142856 -0.0075818184
-0.044105425 0.00054428569 -0.0015854547
-0.0027565891 0.00018142856 0.0012363635
0.038247675 0.00127 -0.00088000012
-0.019296123 -0.00018142856 -0.00017454554
0.020674419 -0.00127 -0.0019381819
0.030322479 -0.00127 -0.0012327274
0.033079069 0.00018142856 0.0026472728
-0.033423644 0.00127 -0.00088000012
-0.012749224 0.00127 -0.0015854547
0.0027565891 0.00018142856 0.00017818174
0.010337209 -0.00018142856 0.00017818174
0.017228682 -0.00090714288 -0.00017454554
0.0062023252 0.00127 -0.00052727282
0.0024120153 -0.00018142856 -0.0033490912
-0.042727131 0.00127 -0.0022909092
-0.016884107 -0.00127 -0.0019381819
-0.0051686047 -0.00018142856 0.0008836363
-0.044105425 0.00018142856 -0.0019381819
-0.0099926358 -0.00018142856 -0.0054654549
0.0027565891 0.00127 -0.0019381819
-0.030322479 0.00018142856 0.0008836363
0.015505813 0.00127 -0.00088000012
-0.016884107 -0.00127 -0.00088000012
-0.0020674418 0.00054428569 -0.0022909092
-0.0041348836 -0.00127 -0.00088000012
0.027910464 -0.00127 -0.00017454554
-0.010681783 -0.00018142856 -0.0022909092
-0.0013782945 0.00018142856 -0.00017454554
0.033768214 0.00018142856 -0.00017454554
-0.025498448 -0.00018142856 0.0019418182
0.03893682 -0.00127 -0.0019381819
0.030667054 0.00127 -0.00088000012
0.038592245 -0.00054428569 -0.00052727282
0.013093798 0.00018142856 -0.00017454554
0.012060077 0.00090714288 -0.0022909092
-0.0027565891 -0.00018142856 -0.0065236366
-0.025843022 -0.00090714288 -0.0022909092
-0.043071706 0.00018142856 -0.0044072731
0.020329844 0.00018142856 -0.0026436364
0.01619496 -0.00054428569 -0.00052727282
-0.0055131782 0.00090714288 -0.00017454554
-0.037213951 -0.00018142856 -0.00017454554
-0.0020674418 -0.00127 -0.0019381819
-0.020329844 -0.00127 -0.0022909092
-0.022397285 -0.00127 -0.0022909092
-0.038247675 -0.00018142856 -0.0040545454
0.025498448 0.00018142856 0.00053090905
-0.012749224 0.00018142856 -0.0054654549
0.010681783 0.00054428569 -0.0022909092
0.034457363 0.00127 -0.00017454554
-0.040315114 -0.00127 -0.00052727282
-0.0079251938 0.00054428569 -0.0022909092
0.012749224 0.00018142856 -0.0040545454
-0.011026356 0.00127 -0.00052727282
-0.038247675 -0.00090714288 -0.00017454554
0.0048240307 0.00018142856 -0.00017454554
0.00034457364 -0.00018142856 0.00017818174
-0.038247675 -0.00018142856 -0.0051127276
-0.01240465 -0.00127 -0.0015854547
-0.023431007 0.00127 -0.0015854547
-0.018262403 0.00054428569 -0.0022909092
-0.019640697 -0.00127 -0.0015854547
-0.034457363 -0.00127 -0.0019381819
-0.0037903099 -0.00090714288 -0.0022909092
0.029977906 -0.00018142856 -0.00017454554
0.029633332 0.00018142856 -0.0022909092
0.012749224 -0.00054428569 -0.00052727282
0.016539535 -0.00054428569 -0.00052727282
0.01516124 -0.00054428569 -0.00052727282
-0.01516124 0.00018142856 -0.0037018184
-0.015505813 -0.00018142856 0.0015890909
0.028944185 0.00127 -0.0019381819
-0.029633332 0.00127 -0.0022909092
0.030667054 -0.00018142856 -0.0029963637
-0.015505813 -0.00018142856 -0.0075818184
-0.031011626 -0.00054428569 -0.00052727282
0.0048240307 0.00018142856 -0.0044072731
0.020329844 -0.00018142856 -0.0061709094
-0.034801938 -0.00127 -0.00052727282
0.036180232 0.00127 -0.0022909092
0.042382557 -0.00127 -0.00052727282
-0.034801938 -0.00018142856 -0.00017454554
-0.0048240307 -0.00090714288 -0.0022909092
0.017917829 -0.00018142856 -0.0068763639
0.044105425 -0.00018142856 -0.00088000012
0.0017228682 -0.00127 -0.0022909092
0.0379031 -0.00018142856 -0.0065236366
-0.025498448 0.00018142856 -0.0033490912
0.02274186 -0.00018142856 -0.0037018184
-0.033079069 -0.00127 -0.00017454554
0.032734495 0.00018142856 0.0012363635
-0.0048240307 -0.00018142856 0.0015890909
0.0075806198 -0.00018142856 0.0022945455
0.020329844 -0.00018142856 -0.0029963637
-0.033079069 -0.00054428569 -0.0022909092
0.015505813 0.00127 -0.0012327274
-0.0089589143 0.00127 -0.0015854547
0.0068914727 0.00127 -0.0019381819
-0.023086434 0.00018142856 -0.0026436364
0 -0.00018142856 0.00053090905
-0.017917829 -0.00018142856 -0.0079345461
-0.043071706 -0.00018142856 0.0019418182
-0.024464728 -0.00127 -0.00088000012
0.00034457364 0.00090714288 -0.0022909092
-0.02274186 0.00018142856 0.0019418182
0.024120154 -0.00127 -0.00088000012
0.015850388 0.00127 -0.0019381819
0.019296123 -0.00127 -0.0015854547
0.025498448 -0.00018142856 -0.0037018184
0.038247675 -0.00018142856 -0.0079345461
-0.041348837 -0.00090714288 -0.00017454554
0.027910464 0.00018142856 0.0019418182
-0.043416277 -0.00054428569 -0.0022909092
-0.015505813 0.00127 -0.0012327274
-0.0027565891 0.00018142856 -0.0075818184
-0.035835657 -0.00054428569 -0.0022909092
0.00034457364 -0.00018142856 -0.0075818184
-0.031011626 -0.00127 -0.00088000012
-0.025498448 -0.00018142856 0.00017818174
0.010337209 -0.00018142856 0.0012363635
-0.0099926358 0.00054428569 -0.00052727282
-0.035491083 0.00018142856 0.0022945455
-0.039625969 -0.00054428569 -0.0022909092
0.043071706 0.00018142856 0.0008836363
0.033079069 -0.00018142856 0.0026472728
0.0082697673 0.00127 -0.0015854547
-0.0051686047 0.00018142856 -0.0037018184
0.029288759 0.00127 -0.0015854547
-0.0058577517 -0.00090714288 -0.00017454554
0.017573256 -0.00127 -0.00052727282
0.0024120153 -0.00018142856 0.0022945455
0.031011626 -0.00090714288 -0.0022909092
-0.020674419 -0.00054428569 -0.00052727282
0.040659688 -0.00127 -0.00088000012
-0.0048240307 0.00090714288 -0.0022909092
-0.023086434 0.00018142856 -0.0037018184
0.0058577517 -0.00127 -0.0022909092
0.043416277 -0.00090714288 -0.00052727282
-0.017573256 0.00127 -0.00088000012
-0.028255038 -0.00054428569 -0.00052727282
0.012749224 -0.00018142856 -0.0065236366
0.043071706 0.00127 -0.00052727282
0.036180232 -0.00127 -0.00052727282
-0.038247675 0.00018142856 0.0008836363
-0.038247675 0.00127 -0.00017454554
-0.015505813 0.00127 -0.0022909092
0.032734495 -0.00090714288 -0.00017454554
0.032734495 0.00018142856 -0.0054654549
0.015505813 0.00018142856 -0.0054654549
0.036524806 0.00127 -0.0019381819
-0.027910464 0.00018142856 -0.0075818184
0.040659688 0.00018142856 -0.0079345461
-0.018262403 -0.00127 -0.00088000012
0.041693408 -0.00127 -0.0022909092
0.00034457364 -0.00018142856 -0.0033490912
0.012060077 -0.00127 -0.0019381819
-0.0075806198 -0.00018142856 0.0012363635
0.039625969 -0.00018142856 -0.0022909092
-0.013782945 -0.00127 -0.0022909092
0.020329844 -0.00018142856 0.0026472728
-0.0075806198 0.00018142856 -0.0044072731
0.036869377 0.00127 -0.00052727282
0.030667054 -0.00054428569 -0.00052727282
-0.041348837 -0.00127 -0.0022909092
0.042727131 0.00054428569 -0.00052727282
-0.026532169 0.00127 -0.0022909092
-0.013782945 -0.00090714288 -0.0022909092
0.028944185 -0.00127 -0.0015854547
-0.030667054 -0.00018142856 -0.0047600004
-0.0037903099 -0.00018142856 -0.0022909092
-0.013093798 -0.00054428569 -0.00052727282
0.012749224 -0.00018142856 -0.0054654549
-0.024120154 -0.00127 -0.00088000012
-0.017573256 0.00018142856 -0.0051127276
0.043071706 -0.00018142856 -0.0068763639
-0.027910464 -0.00018142856 0.00053090905
-0.023086434 0.00018142856 -0.0051127276
0.0027565891 -0.00018142856 -0.0040545454
-0.033423644 -0.00054428569 -0.0022909092
0.010681783 -0.00054428569 -0.0022909092
0.017573256 -0.00018142856 -0.0065236366
-0.029633332 0.00018142856 -0.0022909092
-0.033768214 -0.00127 -0.0022909092
0.011715503 0.00090714288 -0.00017454554
0.0048240307 0.00090714288 -0.00017454554
-0.043416277 0.00127 -0.0022909092
-0.027565891 -0.00127 -0.0012327274
-0.010337209 -0.00018142856 -0.0051127276
0.043071706 0.00018142856 -0.0029963637
0.042382557 0.00090714288 -0.00017454554
0.020329844 0.00127 -0.0019381819
0.037558526 0.00054428569 -0.00052727282
0.0027565891 0.00127 -0.0015854547
-0.035835657 0.00127 -0.0015854547
-0.0024120153 -0.00054428569 -0.0022909092
0.023431007 -0.00127 -0.00052727282
-0.023775581 0.00127 -0.00017454554
0.035146512 0.00018142856 -0.0022909092
-0.023431007 -0.00127 -0.0015854547
0.039281394 -0.00018142856 -0.00017454554
0.033768214 0.00127 -0.00017454554
0.040315114 -0.00090714288 -0.0022909092
-0.0017228682 0.00054428569 -0.0022909092
0.0013782945 0.00127 -0.00088000012
0.019985272 -0.00127 -0.0012327274
-0.022052713 0.00018142856 -0.0022909092
0.013093798 -0.00127 -0.0022909092
0.033768214 -0.00018142856 -0.0022909092
0.033079069 0.00127 -0.00017454554
-0.016539535 0.00127 -0.0012327274
0.01137093 0.00054428569 -0.0022909092
-0.015505813 -0.00127 -0.00088000012
-0.015505813 0.00018142856 0.0008836363
0.043416277 -0.00018142856 0.0019418182
0.0051686047 0.00018142856 -0.0026436364
-0.019296123 -0.00127 -0.00052727282
-0.034801938 -0.00127 -0.00017454554
0.039625969 -0.00127 -0.00088000012
-0.025153875 -0.00127 -0.0022909092
0.025843022 -0.00090714288 -0.00017454554
0.027565891 0.00127 -0.0012327274
-0.0037903099 -0.00054428569 -0.0022909092
-0.018606976 0.00127 -0.00017454554
-0.0075806198 -0.00018142856 0.00053090905
-0.025153875 -0.00018142856 -0.0051127276
0.020329844 -0.00090714288 -0.00017454554
-0.036524806 -0.00127 -0.0012327274
0.0072360463 0.00127 -0.0019381819
0.02274186 0.00018142856 -0.0072290911
0.023086434 -0.00127 -0.0019381819
-0.025498448 0.00018142856 -0.0026436364
-0.017917829 -0.00127 -0.00052727282
0.014816666 -0.00127 -0.00052727282
-0.018606976 -0.00127 -0.0012327274
-0.0075806198 -0.00127 -0.0012327274
-0.016884107 0.00127 -0.0012327274
0.011715503 0.00127 -0.0022909092
0.040659688 0.00054428569 -0.00052727282
-0.023086434 0.00127 -0.00017454554
-0.0041348836 -0.00018142856 -0.0022909092
0.0075806198 0.00127 -0.0015854547
-0.032734495 0.00018142856 -0.0075818184
-0.033768214 0.00090714288 -0.00017454554
0.015505813 -0.00018142856 0.0019418182
0.038247675 -0.00090714288 -0.0022909092
0.023086434 -0.00018142856 -0.0058181821
-0.0024120153 0.00018142856 -0.0058181821
-0.0379031 -0.00018142856 -0.0079345461
-0.014127519 0.00127 -0.0012327274
-0.011026356 -0.00090714288 -0.0022909092
-0.0051686047 -0.00127 -0.0015854547
-0.015505813 -0.00090714288 -0.00017454554
0.030322479 0.00018142856 -0.0065236366
0.025153875 0.00018142856 -0.0047600004
-0.00034457364 0.00127 -0.00017454554
0.032734495 -0.00018142856 0.0022945455
0.012749224 -0.00127 -0.0012327274
0.025498448 0.00018142856 -0.0079345461
-0.010681783 0.00090714288 -0.00017454554
0.015505813 0.00127 -0.0019381819
-0.019640697 -0.00127 -0.0022909092
0.021708138 0.00018142856 -0.00017454554
0.0013782945 0.00127 -0.0019381819
0.020329844 -0.00127 -0.00017454554
-0.039625969 0.00127 -0.00052727282
0.016539535 0.00018142856 -0.00017454554
0.0010337209 0.00090714288 -0.0022909092
-0.022052713 -0.00127 -0.0022909092
-0.035491083 -0.00018142856 -0.0079345461
-0.039625969 -0.00127 -0.0012327274
-0.022052713 0.00090714288 -0.00017454554
-0.023431007 0.00018142856 -0.00017454554
0.027910464 0.00018142856 -0.0047600004
-0.022052713 -0.00018142856 -0.0022909092
0.0027565891 0.00018142856 -0.0075818184
0.017228682 -0.00018142856 -0.00017454554
0.043071706 -0.00018142856 -0.0026436364
-0.032045349 -0.00090714288 -0.0022909092
0.0010337209 0.00127 -0.00017454554
0.0013782945 -0.00018142856 -0.0022909092
0.0013782945 0.00127 -0.00017454554
0.028599612 -0.00127 -0.00088000012
-0.025153875 -0.00018142856 0.0015890909
-0.039970543 -0.00127 -0.00088000012
-0.030667054 0.00018142856 -0.0051127276
0.033079069 -0.00018142856 -0.0044072731
0.039970543 -0.00127 -0.00052727282
0.039970543 0.00054428569 -0.00052727282
-0.0075806198 -0.00018142856 -0.0068763639
-0.033768214 -0.00127 -0.00017454554
0.022052713 -0.00090714288 -0.00017454554
-0.036869377 -0.00018142856 -0.0022909092
-0.032734495 0.00127 -0.0015854547
0.015850388 -0.00054428569 -0.00052727282
-0.030322479 0.00127 -0.00052727282
0.035491083 -0.00018142856 -0.0026436364
-0.044105425 0.00090714288 -0.0015854547
-0.0024120153 0.00018142856 -0.0061709094
0 0.00018142856 0.0022945455
-0.027565891 -0.00127 -0.0022909092
0.019985272 0.00090714288 -0.0022909092
0.021363566 0.00127 -0.00052727282
-0.024120154 0.00127 -0.00052727282
-0.041693408 0.00054428569 -0.00052727282
0.010681783 0.00127 -0.0019381819
0.0089589143 0.00018142856 -0.0022909092
-0.0051686047 0.00127 -0.00088000012
0.029288759 0.00127 -0.0022909092
0 -0.00054428569 -0.00052727282
0.036180232 -0.00054428569 -0.00052727282
-0.031700775 -0.00054428569 -0.00052727282
0.0379031 -0.00018142856 0.0015890909
0.0027565891 -0.00127 -0.0022909092
0.040659688 -0.00018142856 0.0019418182
-0.011026356 0.00090714288 -0.0022909092
0.0048240307 0.00018142856 -0.0068763639
-0.023431007 0.00127 -0.0012327274
-0.0379031 -0.00018142856 -0.0037018184
-0.01240465 -0.00127 -0.0019381819
-0.032045349 -0.00127 -0.00088000012
0.020329844 0.00090714288 -0.0022909092
0.0024120153 -0.00127 -0.0012327274
-0.024464728 0.00127 -0.00017454554
-0.0099926358 -0.00018142856 -0.0058181821
-0.019985272 0.00127 -0.00088000012
0.035491083 -0.00018142856 0.0012363635
0.01895155 -0.00018142856 -0.00017454554
0.012749224 -0.00018142856 0.00053090905
-0.011026356 0.00018142856 -0.00017454554
0.028255038 -0.00090714288 -0.00017454554
-0.02274186 0.00127 -0.0022909092
0.038247675 -0.00018142856 -0.0047600004
0.01240465 0.00127 -0.0015854547
-0.0072360463 -0.00127 -0.0019381819
0.022397285 0.00090714288 -0.0022909092
0.01137093 -0.00127 -0.00052727282
-0.041004263 -0.00127 -0.0012327274
0.013093798 0.00090714288 -0.0022909092
0.0099926358 -0.00018142856 -0.00017454554
0.020674419 -0.00018142856 -0.0022909092
0.010337209 -0.00018142856 0.0022945455
-0.0379031 0.00018142856 -0.0047600004
0.030667054 -0.00127 -0.0012327274
-0.033079069 0.00054428569 -0.0022909092
-0.014127519 -0.00127 -0.00017454554
-0.031011626 0.00127 -0.00017454554
0.040659688 0.00018142856 0.0008836363
0.0051686047 -0.00018142856 -0.0026436364
-0.010337209 0.00018142856 -0.0068763639
-0.0086143408 0.00127 -0.0019381819
-0.034112789 -0.00018142856 -0.00017454554
0.038592245 -0.00127 -0.00088000012
-0.0048240307 0.00127 -0.0015854547
0.032734495 -0.00127 -0.00052727282
-0.0051686047 0.00018142856 -0.0061709094
0.010337209 -0.00054428569 -0.0022909092
-0.015505813 0.00090714288 -0.00017454554
0.027910464 0.00127 -0.0019381819
0.024464728 0.00127 -0.00088000012
0.014816666 0.00054428569 -0.0022909092
-0.033079069 0.00018142856 0.0008836363
-0.00068914727 -0.00127 -0.00017454554
0.022397285 -0.00127 -0.0022909092
0.016884107 0.00127 -0.00088000012
-0.032734495 0.00018142856 -0.0029963637
-0.025498448 -0.00018142856 -0.0051127276
-0.021363566 0.00127 -0.00052727282
0.021708138 0.00127 -0.0019381819
0.032734495 0.00018142856 0.0022945455
-0.021708138 -0.00127 -0.00052727282
-0.014472093 -0.00090714288 -0.0022909092
0.020329844 0.00018142856 -0.0058181821
0.0013782945 -0.00127 -0.0022909092
0.0055131782 -0.00090714288 -0.00017454554
-0.0048240307 -0.00018142856 -0.0029963637
0.039625969 -0.00090714288 -0.00017454554
0.026187597 -0.00127 -0.0015854547
-0.023431007 0.00127 -0.0019381819
0.0379031 -0.00018142856 -0.0072290911
-0.035491083 0.00018142856 -0.0072290911
-0.025498448 0.00018142856 -0.0040545454
-0.031356201 -0.00127 -0.00017454554
-0.024809301 -0.00054428569 -0.00052727282
-0.038247675 -0.00127 -0.0015854547
0.016539535 0.00127 -0.0015854547
-0.017573256 0.00018142856 0.0008836363
0.028944185 -0.00127 -0.00017454554
-0.023086434 -0.00018142856 0.0008836363
0.038247675 -0.00018142856 0.0008836363
0.03893682 0.00018142856 -0.00017454554
-0.016539535 -0.00127 -0.0022909092
-0.0082697673 -0.00127 -0.00017454554
0.015505813 0.00018142856 0.00053090905
-0.043071706 0.00018142856 -0.0079345461
0.01240465 0.00090714288 -0.0022909092
0.0034457364 -0.00054428569 -0.00052727282
-0.043071706 0.00018142856 -0.0033490912
0.031700775 -0.00090714288 -0.00017454554
0.030667054 0.00018142856 -0.0075818184
0.027910464 0.00018142856 -0.0037018184
0.0075806198 0.00018142856 -0.0054654549
0.013093798 -0.00127 -0.00017454554
-0.012749224 -0.00018142856 0.0015890909
0.014816666 -0.00018142856 -0.00017454554
0.013438372 -0.00090714288 -0.00017454554
0.017573256 -0.00127 -0.0015854547
0.0037903099 0.00127 -0.00017454554
0.0089589143 0.00127 -0.0019381819
0.030322479 0.00018142856 0.0012363635
0.031356201 -0.00127 -0.0015854547
0.032045349 0.00127 -0.0012327274
-0.019640697 -0.00127 -0.00052727282
0.0065468992 0.00054428569 -0.0022909092
-0.01240465 -0.00018142856 0.0008836363
-0.02274186 -0.00090714288 -0.0022909092
-0.0065468992 -0.00127 -0.00017454554
0.027910464 -0.00054428569 -0.00052727282
0 0.00018142856 -0.0029963637
0.025843022 0.00018142856 -0.0022909092
0.034457363 -0.00090714288 -0.00017454554
0.036524806 -0.00090714288 -0.0022909092
-0.023086434 0.00018142856 0.0015890909
0.01137093 -0.00090714288 -0.0022909092
0.0075806198 0.00054428569 -0.00052727282
0.02274186 -0.00018142856 0.00017818174
0.0048240307 0.00018142856 -0.0040545454
-0.038247675 -0.00127 -0.0022909092
0.025843022 -0.00127 -0.0022909092
-0.044105425 0.00018142856 -0.00017454554
0.019296123 0.00018142856 -0.0022909092
0.035146512 -0.00127 -0.0015854547
0.01619496 -0.00054428569 -0.0022909092
-0.01516124 0.00018142856 -0.0058181821
0.028944185 0.00018142856 -0.00017454554
0.040659688 -0.00018142856 -0.0037018184
-0.033079069 -0.00018142856 -0.0079345461
0.020329844 0.00018142856 -0.0079345461
-0.0037903099 0.00127 -0.0012327274
-0.0027565891 0.00018142856 0.00017818174
-0.0379031 0.00018142856 -0.0026436364
0.044105425 0.00018142856 -0.00088000012
0.030667054 -0.00018142856 -0.0047600004
-0.038247675 -0.00018142856 0.0015890909
-0.043760851 0.00127 -0.0019381819
-0.019296123 0.00127 -0.0022909092
0.0072360463 -0.00127 -0.00088000012
-0.017917829 0.00018142856 0.0022945455
-0.011715503 0.00127 -0.00052727282
-0.01516124 -0.00018142856 -0.00017454554
-0.036524806 0.00090714288 -0.00017454554
-0.041004263 0.00018142856 -0.0022909092
-0.035491083 0.00127 -0.0015854547
-0.0010337209 -0.00054428569 -0.0022909092
0.017228682 0.00054428569 -0.00052727282
0.023086434 -0.00018142856 0.0012363635
-0.0013782945 0.00127 -0.00052727282
0.039281394 -0.00018142856 -0.0022909092
0.035491083 -0.00018142856 -0.0079345461
-0.03238992 -0.00054428569 -0.00052727282
-0.018262403 0.00090714288 -0.00017454554
-0.02274186 0.00018142856 -0.0051127276
0.043071706 0.00018142856 -0.0026436364
0.0058577517 -0.00054428569 -0.00052727282
0.0099926358 0.00127 -0.00052727282
-0.0027565891 -0.00127 -0.00052727282
0.01516124 0.00127 -0.00052727282
-0.0072360463 0.00054428569 -0.00052727282
