# .PCD v0.7 - Point Cloud Data file format
VERSION 0.7
FIELDS x y z
SIZE 4 4 4
TYPE F F F
COUNT 1 1 1
WIDTH 1410
HEIGHT 1
VIEWPOINT 0 0 0 1 0 0 0
POINTS 1410
DATA ascii
0.024036834 -0.00084666669 -0.00156
-0.019564865 0.00084666669 -3.9999999e-05
-0.043042704 0.00042333335 -0.00232
-0.039688725 -0.00042333335 -0.00156
0.047514673 0.00127 -0.00079999998
0.027018147 -0.00084666669 -0.00118
-0.024036834 0 -0.0083999997
0.0098755984 -0.00084666669 -0.00194
-0.043788031 -0.00084666669 -3.9999999e-05
-0.020310193 -0.00042333335 -0.00194
0.041179381 0 -0.00194
-0.036334749 -0.00127 -0.00232
-0.013229575 -0.00127 -3.9999999e-05
0.042297374 0.00042333335 -0.00194
-0.017701544 -0.00084666669 -0.00232
-0.0095029343 0 -0.00079999998
-0.032235444 0.00084666669 -0.00156
0.040434055 -0.00127 -0.00118
0.04639668 -0.00042333335 -0.00042
0.0087576061 0 -0.0087799998
-0.020682856 -0.00127 -3.9999999e-05
-0.018074209 -0.00042333335 -0.00232
-0.036707412 0 0.0026199999
-0.044160694 0.00127 -0.00118
-0.0031676448 -0.00127 -0.00118
-0.0046583014 -0.00042333335 -0.00194
0.018074209 -0.00127 -3.9999999e-05
0.00055899617 -0.00042333335 -0.00118
-0.023291506 -0.00084666669 -0.00194
-0.0057762936 0.00042333335 -0.00194
0.036707412 0 -0.0046000001
0.03186278 -0.00127 -0.00042
-0.038570732 0.00127 -0.00042
0.00018633205 -0.00084666669 -0.00118
-0.010993591 -0.00042333335 -0.00042
0.038198069 0.00084666669 -0.00232
0.0087576061 -0.00042333335 -0.00042
-0.04639668 -0.00084666669 -0.00232
-0.035589419 -0.00127 -3.9999999e-05
0.027763475 -0.00084666669 -0.00079999998
-0.00055899617 -0.00042333335 -0.00079999998
0.0068942858 0.00127 -3.9999999e-05
-0.0013043244 0.00127 -3.9999999e-05
0.015092895 0.00042333335 -0.00118
-0.039688725 0 -0.00156
-0.0091302702 -0.00084666669 -0.00232
0.010248262 -0.00127 -0.00194
0.0054036295 -0.00084666669 -0.00079999998
0.036334749 0.00042333335 -3.9999999e-05
0.012111583 0.00042333335 -0.00042
0.008012278 0.00084666669 -0.00042
0.016210888 0.00084666669 -0.00156
-0.021428185 0 -0.00764
-0.042297374 0 -0.00232
-0.024782162 0.00042333335 -0.00079999998
-0.010620927 -0.00042333335 -0.00042
0.014347567 -0.00042333335 -0.00194
-0.031490117 0 -3.9999999e-05
-0.0031676448 0.00042333335 -0.00079999998
-0.035589419 -0.00084666669 -0.00079999998
0.02552749 0.00084666669 -0.00118
-0.04565135 -0.00127 -0.00232
-0.00018633205 0 -0.00118
0.03447143 0.00084666669 -0.00194
-0.0020496524 -0.00127 -0.00156
0.016956216 -0.00042333335 -0.00232
-0.0013043244 0.00127 -0.00194
0.046769343 0 -0.00232
0.030744787 0 -0.00156
-0.035589419 0 -0.00118
-0.040061388 0.00084666669 -0.00042
-0.024036834 0.00127 -0.00042
0.020310193 -0.00127 -0.00232
0.039316062 0.00084666669 -0.00232
-0.013974903 0.00042333335 -0.00232
0.034844093 0.00127 -3.9999999e-05
0.041924711 0.00042333335 -0.00232
0.02180085 0 -0.0030799999
0.027763475 -0.00127 -0.00042
0.010993591 0.00042333335 -0.00079999998
-0.00018633205 -0.00042333335 -0.00118
0.013974903 0 -0.0038399999
-0.020310193 -0.00042333335 -0.00118
0.011366255 0.00127 -0.00042
-0.019937528 0 -0.00232
0.013974903 -0.00042333335 -0.00346
0.016210888 0.00127 -0.00194
0.041924711 0 -0.00156
-0.017701544 -0.00127 -0.00232
0.02180085 0 0.0011
-0.0039129728 -0.00084666669 -0.00079999998
-0.047142006 0.00084666669 -0.00156
-0.027390812 0.00127 -0.00194
-0.024409497 0.00127 -3.9999999e-05
-0.023291506 0.00042333335 -0.00156
0.042670038 0.00127 -0.00042
-0.046769343 -0.00127 -0.00079999998
0.0054036295 0.00042333335 -3.9999999e-05
-0.0035403089 0 -0.0027000001
0.028881468 0.00042333335 -0.00194
0.036334749 0.00084666669 -0.00118
-0.0072669499 0.00127 -0.00118
0.0027949808 0 -0.00118
0.02180085 0 -0.0065000001
-0.0065216217 0.00084666669 -0.00232
-0.02180085 0 -0.0072599999
-0.04565135 0 -0.00118
-0.018446872 -0.00127 -3.9999999e-05
0.013974903 -0.00042333335 -0.00118
0.029999459 0.00127 -0.00118
-0.023291506 0.00084666669 -0.00079999998
0.026272818 -0.00127 -0.00042
-0.017328881 0.00042333335 -0.00079999998
0.028508803 0.00084666669 -3.9999999e-05
-0.0027949808 -0.00084666669 -3.9999999e-05
0.047142006 0.00042333335 -0.00156
-0.043042704 -0.00084666669 -0.00042
-0.029999459 -0.00042333335 -0.00232
-0.039316062 0 -0.0053599998
0.0050309654 -0.00084666669 -0.00042
0.010248262 -0.00042333335 -3.9999999e-05
0.010993591 -0.00042333335 -0.00079999998
0.047142006 0 -0.0027000001
-0.022173513 -0.00084666669 -0.00118
-0.0054036295 0 -0.00042
-0.021055521 -0.00084666669 -3.9999999e-05
0.041179381 -0.00084666669 -3.9999999e-05
-0.047142006 0 -0.0068799998
-0.047514673 -0.00084666669 -0.00079999998
-0.011366255 0 -0.0053599998
0.015838224 0 -0.00079999998
-0.022918841 -0.00127 -0.00042
-0.0076396139 -0.00127 -3.9999999e-05
-0.041179381 0.00042333335 -0.00118
0.0013043244 -0.00042333335 -0.0053599998
0.023664169 0.00127 -0.00194
-0.03447143 0 -0.0038399999
0.00055899617 0.00042333335 -0.00232
0.047887336 0.00042333335 -0.00042
-0.036707412 0.00042333335 -0.00118
-0.0083849421 0 -0.00079999998
-0.026645483 -0.00127 -0.00042
0.010993591 0 -0.00118
0.017701544 0.00084666669 -0.00232
0.03186278 0.00042333335 -0.00079999998
-0.0020496524 0.00084666669 -0.00079999998
0.034098763 -0.00042333335 -0.00194
-0.020310193 0 -0.00042
-0.036707412 -0.00042333335 -0.00042
-0.011366255 0.00127 -0.00194
0.034844093 0.00042333335 -0.00156
-0.012856911 0.00042333335 -3.9999999e-05
0.022173513 -0.00084666669 -0.00079999998
0.023291506 -0.00042333335 -0.00042
0.039688725 -0.00042333335 -0.00194
-0.0091302702 0 -0.00764
0.044906024 0.00127 -0.00042
0.026272818 0.00084666669 -0.00156
-0.025154827 -0.00042333335 -3.9999999e-05
-0.029999459 0.00127 -0.00042
0.0087576061 0.00127 -3.9999999e-05
-0.0020496524 0 -3.9999999e-05
-0.038943399 -0.00127 -0.00079999998
-0.041924711 -0.00084666669 -0.00194
0.0046583014 0.00127 -0.00232
0.020682856 0.00127 -0.00232
0.038198069 -0.00042333335 -3.9999999e-05
-0.047142006 -0.00127 -0.00118
-0.023291506 0.00042333335 -0.00194
-0.046024017 -0.00084666669 -0.00042
0.029254131 0.00084666669 -0.00194
0.0191922 0 -0.0065000001
0.020682856 0.00042333335 -0.00079999998
0.028508803 0 -0.00194
0.0027949808 -0.00127 -0.00079999998
-0.024036834 0 -0.00194
0.016583553 -0.00042333335 -0.0049800002
-0.040806718 -0.00042333335 -0.00156
-0.0020496524 -0.00127 -3.9999999e-05
0.018074209 -0.00042333335 -0.00042
-0.0061489576 -0.00042333335 -3.9999999e-05
0.038198069 0.00042333335 -0.00042
-0.0042856373 -0.00084666669 -0.00042
-0.0337261 -0.00127 -0.00156
0.03447143 0 0.00072000001
-0.015092895 0.00084666669 -0.00118
-0.027763475 0.00127 -0.00079999998
-0.019564865 -0.00127 -0.00156
0.043788031 -0.00084666669 -0.00156
-0.0050309654 -0.00042333335 -3.9999999e-05
-0.0024223167 0 -0.00042
-0.010620927 0 -0.00042
-0.0072669499 0.00127 -0.00232
-0.041179381 -0.00127 -0.00079999998
-0.014720231 -0.00042333335 -0.00156
-0.028881468 -0.00127 -0.00118
-0.0035403089 0.00042333335 -0.00232
0.008012278 0.00127 -0.00156
0.03447143 -0.00042333335 -0.00042
-0.039316062 0 0.00034
0.024409497 0.00042333335 -0.00194
-0.018446872 -0.00042333335 -0.00232
0.029254131 0 -0.00232
0.00093166024 0.00127 -0.00118
-0.027018147 0.00084666669 -0.00194
0.03186278 0.00084666669 -3.9999999e-05
0.029999459 -0.00127 -3.9999999e-05
-0.014720231 -0.00042333335 -0.00194
-0.0098755984 -0.00127 -0.00194
0.0068942858 0 -0.00079999998
0.018446872 0.00042333335 -0.00156
0.031490117 0.00042333335 -0.00194
0.04639668 -0.00042333335 -0.00156
0.014720231 -0.00084666669 -0.00156
-0.010993591 0.00084666669 -0.00194
0.0050309654 -0.00127 -0.00042
-0.023291506 -0.00042333335 -3.9999999e-05
0.031117452 -0.00042333335 -0.00156
-0.034844093 0 -0.00232
-0.040061388 0.00042333335 -0.00118
-0.032980774 0.00127 -0.00194
0.0013043244 -0.00042333335 -0.0049800002
0.041552048 0.00084666669 -0.00079999998
0.039316062 -0.00127 -0.00118
-0.047142006 -0.00084666669 -3.9999999e-05
-0.014347567 -0.00084666669 -3.9999999e-05
-0.037080076 -0.00084666669 -0.00079999998
-0.022546178 0.00127 -0.00042
-0.021055521 -0.00042333335 -0.00042
0.022173513 -0.00084666669 -0.00118
0.013602239 -0.00127 -3.9999999e-05
0.0013043244 0.00127 -0.00156
0.02552749 0.00084666669 -0.00232
0.030372124 0.00084666669 -0.00156
-0.0031676448 0.00042333335 -0.00156
0.020682856 -0.00042333335 -0.00156
0.04565135 0 -0.00194
0.041179381 0.00084666669 -0.00118
0.0083849421 0.00127 -0.00079999998
-0.013229575 -0.00127 -0.00118
0.0042856373 -0.00042333335 -0.00194
0.043788031 0 -0.00232
0.029254131 -0.00042333335 0.0022400001
0.03186278 -0.00084666669 -3.9999999e-05
-0.018446872 -0.00042333335 -0.00042
-0.0057762936 0 -0.00232
0.039688725 0 -0.00194
0.0061489576 0 -0.0049800002
0.00093166024 -0.00084666669 -0.00079999998
-0.012111583 -0.00042333335 -3.9999999e-05
0.04639668 0 -0.00194
-0.032235444 0 -0.00079999998
0.014720231 0.00127 -0.00156
0.021055521 0 -0.00118
0.042297374 -0.00127 -0.00079999998
0.0191922 -0.00084666669 -0.00232
0.0337261 0.00084666669 -0.00042
-0.0087576061 0 0.00148
0.047887336 0.00084666669 -0.00118
0.017328881 -0.00042333335 -0.00118
-0.030744787 0 -0.00079999998
0.0065216217 0.00042333335 -0.00042
0.032980774 0.00127 -0.00079999998
0.020682856 -0.00127 -0.00079999998
0.039316062 0.00042333335 -0.00079999998
0.00055899617 0.00084666669 -0.00118
0.030744787 0.00127 -0.00079999998
0.0098755984 0.00042333335 -0.00042
0.0065216217 -0.00042333335 -0.00232
-0.027018147 -0.00127 -0.00232
0.0191922 0 -0.0053599998
-0.041179381 -0.00042333335 -0.00118
0.041924711 0.00127 -0.00118
-0.032980774 -0.00042333335 -0.00079999998
-0.037825406 0.00127 -0.00194
0.018446872 0 -0.00156
-0.042297374 -0.00042333335 -0.00042
-0.034098763 0 -0.00194
0.019937528 0 -0.00118
-0.028508803 0.00084666669 -0.00232
0.037825406 -0.00042333335 -3.9999999e-05
-0.038943399 0.00042333335 -0.00232
0.026645483 0 -0.0046000001
0.012484247 -0.00127 -0.00232
-0.045278687 -0.00084666669 -3.9999999e-05
-0.043415368 0.00084666669 -0.00232
0.035216756 0.00084666669 -0.00232
0.023664169 -0.00042333335 -3.9999999e-05
-0.032235444 0 -3.9999999e-05
0.022918841 0.00127 -0.00118
-0.031490117 0.00127 -0.00194
-0.012856911 0.00042333335 -0.00118
-0.03447143 0 -0.0030799999
0.02552749 -0.00127 -0.00118
0.018819537 -0.00042333335 -3.9999999e-05
-0.016583553 -0.00042333335 -0.0083999997
0.031490117 -0.00084666669 -0.00079999998
-0.036707412 0 -0.00232
0.0024223167 -0.00084666669 -0.00194
0.026645483 0.00084666669 -3.9999999e-05
0.028508803 0.00127 -0.00232
0.017328881 0.00084666669 -3.9999999e-05
0.046769343 -0.00127 -0.00079999998
0.026645483 0 -0.0087799998
0.032235444 -0.00042333335 -0.00079999998
0.02552749 0 -0.00156
0.036707412 0.00084666669 -0.00042
-0.028508803 0.00042333335 -0.00118
0.038570732 0.00042333335 -0.00194
-0.033353437 0 -0.00079999998
0.030372124 0 -0.00232
0.027763475 0.00127 -0.00042
-0.014347567 -0.00042333335 -0.00232
0.023664169 -0.00127 -0.00118
0.0095029343 -0.00042333335 -0.00118
0.02552749 -0.00127 -0.00079999998
0.0031676448 0.00127 -0.00194
0.024782162 0.00127 -0.00232
0.016583553 0 -0.00346
0.039688725 0.00042333335 -0.00118
0.0039129728 -0.00042333335 -0.00156
-0.0191922 -0.00042333335 -0.00079999998
-0.02813614 0.00084666669 -0.00194
0.027390812 0.00127 -0.00232
0.02813614 -0.00127 -3.9999999e-05
0.014720231 -0.00127 -0.00118
0.03186278 0 0.0022400001
-0.0013043244 0.00127 -0.00232
-0.047514673 0.00127 -0.00156
0.028881468 -0.00127 -0.00079999998
-0.0061489576 0.00084666669 -3.9999999e-05
0.015465559 -0.00042333335 -0.00118
0.028508803 0.00127 -0.00156
0.0057762936 0 -0.00042
0.0098755984 0 -0.00232
-0.026645483 -0.00127 -0.00079999998
-0.00055899617 0.00042333335 -0.00079999998
0.0098755984 0 -0.00156
0.035962086 0.00084666669 -0.00156
-0.0098755984 -0.00127 -0.00232
-0.029999459 -0.00042333335 -0.00042
0.019564865 0.00042333335 -0.00118
-0.02180085 0.00042333335 -3.9999999e-05
-0.041179381 0 -0.00156
0.019564865 0.00084666669 -0.00118
0.038943399 0.00084666669 -0.00118
-0.040806718 -0.00127 -0.00079999998
-0.0083849421 0.00127 -0.00194
0.0072669499 0.00084666669 -0.00118
0.029999459 -0.00042333335 -0.00042
-0.0027949808 0 -0.00079999998
-0.0068942858 -0.00127 -3.9999999e-05
0.0039129728 0 0.0011
0.00093166024 0 -0.00042
-0.032980774 0 -3.9999999e-05
0.0083849421 0.00127 -0.00042
0.040434055 0.00042333335 -0.00232
0.047514673 0.00042333335 -0.00118
-0.0191922 0.00127 -0.00042
-0.02813614 0.00127 -0.00194
0.040434055 -0.00042333335 -0.00232
-0.028508803 -0.00127 -0.00156
-0.00055899617 0.00042333335 -0.00156
-0.041924711 0 -0.0065000001
-0.0337261 0 -0.00079999998
0.021055521 0 -0.00042
-0.0068942858 0.00084666669 -3.9999999e-05
0.042297374 0.00084666669 -0.00042
-0.03447143 0 0.00148
-0.040806718 -0.00042333335 -0.00232
-0.044160694 0.00042333335 -0.00194
0.04565135 0.00042333335 -0.00156
-0.032235444 -0.00042333335 -0.00156
-0.032235444 -0.00127 -0.00232
0.012856911 -0.00042333335 -0.00042
0.038198069 -0.00042333335 -0.00194
0.017328881 0.00084666669 -0.00079999998
0.037452742 -0.00084666669 -0.00042
-0.034098763 0 -0.0072599999
0.020682856 0 -0.00194
0.020310193 -0.00084666669 -0.00156
-0.0061489576 0.00127 -0.00079999998
-0.035216756 -0.00127 -3.9999999e-05
0.033353437 0.00127 -0.00079999998
0.00055899617 -0.00042333335 -0.00042
0.036707412 0 0.0022400001
-0.02180085 0.00042333335 -0.00194
-0.0039129728 -0.00127 -0.00042
-0.03447143 0 -0.0072599999
0.043042704 -0.00127 -0.00156
-0.0031676448 -0.00084666669 -0.00079999998
0.04639668 -0.00084666669 -0.00194
-0.044533361 0.00042333335 -0.00156
0.018074209 -0.00127 -0.00118
-0.0098755984 -0.00084666669 -0.00118
0.030744787 -0.00084666669 -0.00232
-0.00055899617 0.00127 -0.00194
-0.015092895 0.00127 -0.00118
0.024782162 0.00127 -0.00194
-0.020310193 0.00084666669 -0.00079999998
0.027390812 -0.00084666669 -0.00194
-0.018819537 -0.00084666669 -0.00232
0.016583553 0.00042333335 -0.00232
0.034098763 0.00042333335 -0.00156
-0.030372124 -0.00127 -0.00194
-0.0024223167 -0.00042333335 -3.9999999e-05
0.0013043244 0.00127 -3.9999999e-05
0.0095029343 -0.00042333335 -0.00194
-0.0046583014 0 -3.9999999e-05
-0.014720231 -0.00084666669 -0.00118
0.046024017 0 -0.00118
0.031117452 0 -0.00042
0.008012278 0.00042333335 -0.00232
-0.010993591 0 -0.00118
0.017701544 -0.00127 -0.00079999998
-0.0087576061 -0.00084666669 -0.00232
-0.020682856 0 -0.00194
-0.00018633205 -0.00084666669 -0.00079999998
-0.022546178 -0.00084666669 -0.00156
0.029254131 0 -0.0068799998
0.032980774 0 -0.00118
-0.013974903 0 -0.00612
-0.047514673 0 -0.00232
-0.037452742 -0.00084666669 -0.00079999998
0.0337261 -0.00084666669 -0.00194
0.0024223167 0.00084666669 -3.9999999e-05
-0.015465559 0.00084666669 -0.00079999998
0.017701544 -0.00042333335 -3.9999999e-05
-0.047887336 0 -0.00042
0.037080076 0.00127 -0.00156
-0.032608107 -0.00042333335 -0.00042
-0.00055899617 -0.00084666669 -3.9999999e-05
0.011366255 0 -0.0049800002
-0.032980774 -0.00127 -0.00156
0.016956216 0.00042333335 -0.00232
0.016583553 -0.00127 -0.00118
-0.03186278 0.00084666669 -0.00118
-0.0095029343 -0.00084666669 -0.00079999998
0.041179381 -0.00042333335 -0.00118
-0.0046583014 -0.00042333335 -0.00156
-0.0065216217 0 -0.0072599999
0.042670038 0 -0.00079999998
-0.0337261 -0.00084666669 -3.9999999e-05
-0.035962086 0.00127 -0.00232
0.044160694 -0.00084666669 -0.00118
-0.0072669499 0.00084666669 -0.00232
0.030744787 0 -0.00194
0.0013043244 0 0.0026199999
0.043788031 -0.00042333335 -0.00118
-0.02813614 -0.00042333335 -0.00232
0.041924711 0.00127 -0.00232
0.025154827 -0.00084666669 -0.00079999998
0.0027949808 0.00084666669 -3.9999999e-05
-0.0095029343 -0.00127 -0.00118
0.011738919 0.00084666669 -0.00118
-0.047887336 0.00042333335 -0.00118
-0.034098763 0 -0.0087799998
-0.037080076 0 -0.0046000001
0.028508803 -0.00127 -0.00194
-0.03447143 -0.00127 -0.00156
-0.027763475 -0.00127 -3.9999999e-05
0.0046583014 0 -0.00042
0.0016769884 0.00042333335 -0.00194
0.034844093 0 -0.00118
-0.035216756 -0.00084666669 -0.00079999998
-0.039316062 0.00084666669 -0.00156
0.038570732 0.00042333335 -0.00118
0.018074209 -0.00127 -0.00194
-0.03186278 -0.00127 -3.9999999e-05
0.044906024 0.00084666669 -0.00118
0.0087576061 0.00042333335 -0.00118
-0.040806718 0 -0.00079999998
-0.011738919 0 -3.9999999e-05
0.018446872 -0.00042333335 -0.00194
-0.008012278 0.00084666669 -0.00118
0.040806718 0.00084666669 -0.00042
0.016583553 -0.00127 -0.00232
-0.02180085 0.00127 -0.00118
-0.0065216217 0 -0.0038399999
0.025154827 -0.00127 -0.00079999998
-0.018446872 -0.00127 -0.00079999998
-0.0035403089 0 -0.0046000001
0.038570732 -0.00084666669 -0.00194
-0.041179381 0.00084666669 -0.00232
-0.024409497 0.00084666669 -0.00156
0.017701544 -0.00042333335 -0.00118
0.030744787 0.00127 -0.00156
-0.024782162 0.00084666669 -3.9999999e-05
-0.0095029343 -0.00084666669 -0.00232
0.038570732 0.00084666669 -0.00194
0.0046583014 0 -0.00232
-0.041924711 0 -0.0087799998
-0.044906024 -0.00084666669 -0.00118
-0.0091302702 0.00042333335 -3.9999999e-05
0.0191922 0.00042333335 -0.00156
-0.042297374 0.00127 -0.00042
-0.015092895 0.00084666669 -0.00194
-0.031117452 0.00084666669 -0.00156
0.010248262 -0.00042333335 -0.00194
0.037080076 0 0.0011
-0.014347567 0 -0.00118
-0.037452742 0 -0.00118
0.0083849421 -0.00042333335 -0.00042
-0.0027949808 0.00084666669 -3.9999999e-05
0.016956216 0 -0.00042
-0.047887336 0.00084666669 -0.00042
0.016583553 0.00042333335 -0.00118
-0.03186278 0.00127 -0.00156
0.035962086 0.00042333335 -0.00194
0.019937528 -0.00127 -0.00156
-0.0039129728 0 -0.00422
-0.0072669499 -0.00084666669 -0.00194
0.042670038 0.00127 -0.00194
-0.044906024 0.00127 -0.00194
-0.0035403089 -0.00084666669 -0.00232
-0.029626796 0.00084666669 -3.9999999e-05
-0.036334749 -0.00084666669 -0.00232
0.016210888 -0.00084666669 -0.00232
-0.040806718 0.00127 -0.00118
0.0013043244 -0.00127 -0.00079999998
0.0054036295 -0.00127 -0.00079999998
-0.026272818 0.00127 -3.9999999e-05
-0.0039129728 -0.00042333335 -0.00079999998
0.013974903 0.00042333335 -0.00118
0.038198069 0.00084666669 -0.00079999998
0.013602239 0.00084666669 -0.00156
-0.025154827 0.00127 -0.00232
-0.024782162 -0.00042333335 -0.00232
-0.039316062 0.00084666669 -0.00194
-0.024782162 -0.00127 -0.00042
-0.015092895 0.00127 -0.00156
-0.0098755984 0.00042333335 -0.00079999998
0.016956216 0 -0.00194
-0.043415368 -0.00042333335 -0.00042
-0.018074209 0 -0.00156
0.016583553 -0.00042333335 -0.0027000001
0.011738919 0 -0.00042
0.0095029343 0.00127 -0.00118
-0.016583553 0.00127 -0.00042
0.040806718 0.00084666669 -0.00079999998
-0.012484247 -0.00042333335 -0.00079999998
-0.018074209 0 -3.9999999e-05
-0.034844093 -0.00127 -3.9999999e-05
0.0191922 0.00042333335 -0.00118
0.024036834 0 -0.00764
-0.020682856 0.00084666669 -3.9999999e-05
-0.0087576061 -0.00042333335 -0.00156
-0.0042856373 -0.00042333335 -3.9999999e-05
0.034844093 -0.00127 -0.00194
0.0050309654 0.00084666669 -0.00042
-0.018446872 -0.00084666669 -0.00156
0.021428185 0 -0.0072599999
0.033353437 0.00084666669 -3.9999999e-05
-0.039688725 0.00042333335 -0.00079999998
-0.022546178 0.00127 -0.00194
0.0016769884 0.00084666669 -0.00079999998
-0.0191922 -0.00042333335 -0.00042
-0.032608107 0 -0.00232
-0.017701544 0.00127 -0.00118
0.0042856373 -0.00127 -0.00232
-0.0091302702 -0.00127 -0.00232
-0.028508803 0.00127 -0.00042
-0.0031676448 0.00084666669 -0.00079999998
0.0087576061 -0.00042333335 -0.00118
-0.00018633205 0.00042333335 -0.00194
0.012856911 -0.00084666669 -0.00118
-0.046769343 0 -0.0068799998
-0.043788031 0.00127 -0.00232
0.0072669499 0.00127 -0.00042
0.023664169 -0.00127 -0.00232
0.042670038 -0.00127 -3.9999999e-05
0.0031676448 -0.00042333335 -0.00079999998
-0.026645483 -0.00042333335 -0.00194
-0.0095029343 -0.00042333335 -0.00156
-0.047142006 0 -3.9999999e-05
-0.010248262 -0.00084666669 -0.00042
0.044533361 0.00084666669 -0.00079999998
0.022546178 -0.00127 -0.00118
-0.0083849421 0 -0.00232
0.0027949808 0.00042333335 -0.00194
-0.036707412 0 -0.0083999997
0.0016769884 0.00042333335 -0.00232
0.036334749 -0.00042333335 -3.9999999e-05
-0.016210888 0.00127 -0.00042
0.0024223167 0.00042333335 -0.00079999998
0.035589419 0 -0.00079999998
0.021428185 0 -0.0049800002
-0.036707412 0.00084666669 -0.00042
-0.0091302702 0.00084666669 -0.00194
0.029254131 0.00042333335 -0.00156
-0.0061489576 -0.00042333335 -0.00232
-0.030744787 -0.00127 -0.00232
-0.02813614 -0.00042333335 -3.9999999e-05
-0.0050309654 0.00127 -0.00156
0.032980774 0.00042333335 -0.00079999998
0.030372124 -0.00127 -0.00118
0.043788031 0.00042333335 -0.00079999998
0.040434055 0.00127 -0.00042
0.0016769884 0 -0.00118
-0.038570732 0.00127 -0.00232
0.015092895 0.00042333335 -0.00042
-0.00055899617 0.00042333335 -0.00118
0.039688725 -0.00127 -0.00194
-0.044160694 0 -0.00232
-0.0013043244 0 0.0022400001
-0.040061388 -0.00084666669 -0.00079999998
-0.0091302702 0 -0.00118
0.035589419 -0.00084666669 -0.00118
-0.031117452 -0.00127 -0.00232
-0.037825406 -0.00127 -0.00156
-0.037825406 -0.00127 -0.00079999998
0.0083849421 0 -3.9999999e-05
-0.039316062 0 -0.0046000001
-0.021428185 -0.00042333335 -0.00194
0.0024223167 -0.00127 -0.00118
-0.018819537 -0.00084666669 -3.9999999e-05
-0.012856911 -0.00084666669 -0.00118
0.044160694 0 -0.0027000001
-0.036707412 -0.00084666669 -0.00156
0.035216756 0.00042333335 -0.00194
-0.026272818 0.00084666669 -0.00156
0.034098763 -0.00127 -0.00232
-0.017701544 0.00084666669 -0.00118
-0.030372124 0.00042333335 -0.00156
0.042297374 0.00042333335 -0.00156
0.029626796 0 -0.00156
0.00055899617 0.00127 -3.9999999e-05
-0.030744787 -0.00084666669 -3.9999999e-05
-0.03186278 -0.00042333335 -0.00232
-0.037452742 -0.00084666669 -0.00042
0.022918841 0.00042333335 -0.00232
0.015838224 0.00042333335 -0.00194
-0.034098763 0 0.0026199999
0.032608107 -0.00127 -0.00042
0.039316062 0 -0.00042
0.017328881 0 -0.00079999998
0.025900155 -0.00127 -0.00118
-0.010248262 -0.00084666669 -0.00079999998
-0.0091302702 -0.00084666669 -0.00042
-0.021428185 0.00127 -0.00156
-0.034844093 -0.00127 -0.00194
-0.0035403089 0 -0.00194
-0.02813614 -0.00042333335 -0.00079999998
-0.047514673 0.00127 -0.00042
-0.011738919 0.00084666669 -0.00079999998
0.0191922 0 0.0026199999
0.044160694 0.00084666669 -0.00156
0.010993591 -0.00127 -0.00156
0.035216756 0 -0.00156
-0.0191922 -0.00127 -0.00156
0.039688725 -0.00127 -0.00232
-0.027018147 0.00084666669 -0.00079999998
0.03447143 0.00084666669 -0.00118
-0.035589419 -0.00042333335 -0.00079999998
0.034098763 0.00042333335 -0.00194
0.022918841 0 -3.9999999e-05
-0.041179381 0.00042333335 -0.00079999998
-0.0013043244 -0.00042333335 -0.00422
-0.044160694 0 -0.00422
0.020682856 -0.00042333335 -0.00118
0.027018147 -0.00127 -3.9999999e-05
-0.019564865 0 -3.9999999e-05
0.016583553 -0.00127 -0.00079999998
-0.041552048 -0.00127 -0.00194
0.029254131 -0.00127 -0.00232
-0.00055899617 -0.00127 -0.00118
0.041552048 -0.00127 -0.00156
0.02813614 0 -0.00232
0.039316062 0.00127 -0.00232
-0.044160694 -0.00042333335 -0.00156
-0.0095029343 0.00042333335 -0.00156
0.0087576061 -0.00042333335 -0.00156
0.025900155 0.00127 -0.00042
-0.045278687 -0.00042333335 -0.00118
0.029254131 -0.00042333335 -0.0065000001
-0.040806718 -0.00127 -3.9999999e-05
-0.012111583 -0.00084666669 -3.9999999e-05
0.03447143 -0.00084666669 -0.00079999998
-0.0046583014 0.00127 -0.00079999998
-0.043042704 -0.00084666669 -0.00156
0.043042704 -0.00127 -0.00194
0.035589419 0.00127 -0.00079999998
0.037825406 -0.00127 -0.00156
0.046024017 -0.00042333335 -0.00232
0.0031676448 0 -0.00194
0.031117452 0.00084666669 -0.00079999998
0.029626796 0.00127 -0.00156
-0.044160694 0.00042333335 -0.00118
0.026272818 0.00084666669 -0.00079999998
0.041179381 0.00042333335 -0.00042
0.0027949808 -0.00127 -0.00232
0.013974903 -0.00127 -0.00118
0.030372124 -0.00042333335 -0.00156
-0.010620927 0.00042333335 -0.00194
0.02813614 -0.00084666669 -3.9999999e-05
-0.03186278 0.00042333335 -0.00156
0.021428185 -0.00127 -0.00042
0.038943399 -0.00084666669 -0.00042
-0.011366255 0.00042333335 -0.00118
0.012484247 0.00084666669 -0.00118
0.0035403089 -0.00084666669 -0.00042
-0.018819537 0.00084666669 -0.00042
-0.032608107 -0.00127 -0.00118
0.0061489576 0.00127 -0.00118
-0.0013043244 -0.00084666669 -0.00232
-0.014347567 -0.00127 -0.00118
0.016210888 -0.00042333335 -0.00194
-0.010248262 0.00042333335 -0.00042
-0.029999459 0.00042333335 -0.00118
0.042670038 0.00127 -0.00118
0.015092895 0 -0.00194
-0.033353437 0.00084666669 -0.00042
-0.038198069 0.00127 -3.9999999e-05
-0.028881468 0.00127 -0.00156
-0.043788031 0 -0.00118
-0.0035403089 0 -0.0072599999
0.022173513 -0.00042333335 -0.00118
-0.0076396139 0.00084666669 -0.00118
-0.015838224 0.00042333335 -0.00118
-0.013602239 0 -0.00156
0.030372124 -0.00084666669 -0.00118
0.038570732 0.00084666669 -3.9999999e-05
0.044533361 -0.00084666669 -0.00079999998
0.018074209 -0.00042333335 -0.00079999998
-0.018819537 0 -3.9999999e-05
0.022546178 0.00084666669 -0.00194
0.044533361 0 -0.00079999998
0.0087576061 0 -0.0030799999
-0.047142006 0.00042333335 -0.00079999998
0.046024017 0.00042333335 -0.00232
0.029254131 -0.00084666669 -0.00118
-0.011738919 -0.00084666669 -0.00232
0.017701544 -0.00084666669 -0.00156
0.025154827 0 -0.00156
0.038943399 -0.00127 -0.00232
-0.043415368 -0.00127 -0.00156
-0.0087576061 0 -0.00422
0.041179381 0.00127 -0.00156
0.036334749 0.00127 -0.00079999998
-0.044533361 0 -0.0049800002
0.015092895 -0.00084666669 -0.00079999998
0.0050309654 0.00084666669 -0.00156
-0.036334749 0 -0.00232
-0.028881468 -0.00042333335 -0.00156
0.015838224 -0.00084666669 -0.00156
-0.021428185 -0.00042333335 -3.9999999e-05
0.03186278 0.00084666669 -0.00194
-0.038570732 -0.00042333335 -0.00042
-0.00093166024 -0.00084666669 -0.00232
0.022546178 0.00042333335 -0.00079999998
0.018819537 -0.00084666669 -0.00079999998
0.013974903 0 -0.0068799998
0.0087576061 0.00042333335 -0.00232
0.0013043244 0.00084666669 -0.00232
-0.013602239 0.00042333335 -0.00156
-0.027390812 -0.00084666669 -0.00042
-0.0031676448 0.00084666669 -0.00156
-0.032980774 -0.00084666669 -0.00156
-0.040434055 0 -3.9999999e-05
-0.013974903 0 -0.0080199996
-0.038198069 0.00084666669 -0.00232
-0.0068942858 -0.00084666669 -0.00194
-0.039316062 0.00042333335 -0.0027000001
0.040061388 0.00042333335 -0.00156
0.029626796 0.00042333335 -0.00079999998
-0.025900155 0.00084666669 -3.9999999e-05
-0.0016769884 -0.00084666669 -0.00079999998
0.046769343 -0.00042333335 -0.00079999998
0.043788031 0.00127 -0.00042
-0.014347567 -0.00084666669 -0.00079999998
0.0027949808 0.00127 -3.9999999e-05
-0.046769343 0 -0.0046000001
-0.040434055 -0.00084666669 -0.00079999998
0.012484247 0.00084666669 -0.00079999998
-0.0039129728 0.00084666669 -0.00194
-0.029254131 0 0.00186
-0.029254131 -0.00127 -0.00079999998
-0.038943399 0.00042333335 -0.00194
0.030372124 0 -0.00079999998
0.044533361 -0.00127 -0.00042
-0.044533361 0 -0.0072599999
-0.025900155 0 -0.00194
0.0035403089 0 -0.0080199996
0.029254131 0 -0.00764
0.0039129728 0 0.0022400001
0.039316062 -0.00042333335 -0.00079999998
-0.045278687 -0.00127 -0.00118
-0.0013043244 0 -0.00232
0.032235444 0.00127 -0.00194
-0.00018633205 0 -0.00079999998
-0.040806718 0.00127 -3.9999999e-05
0.0065216217 0.00127 -0.00042
-0.040434055 -0.00127 -0.00194
0.047887336 0.00084666669 -0.00194
-0.021428185 0.00084666669 -3.9999999e-05
-0.029254131 0 -0.00042
0.039316062 0.00084666669 -3.9999999e-05
-0.015838224 0.00042333335 -0.00079999998
-0.039316062 0.00084666669 -0.00079999998
-0.0039129728 0.00042333335 -0.00194
0.0027949808 -0.00084666669 -0.00079999998
0.039688725 0.00084666669 -0.00194
0.010993591 -0.00084666669 -0.00232
0.018446872 0.00042333335 -0.00194
0.030744787 -0.00127 -0.00156
0.040806718 -0.00042333335 -0.00118
-0.0042856373 0.00127 -0.00232
0.0091302702 0 -0.00612
-0.031490117 -0.00042333335 -0.00118
-0.043415368 0.00084666669 -0.00194
0.010993591 -0.00042333335 -0.00042
0.010620927 0.00042333335 -0.00156
-0.015838224 0.00084666669 -0.00042
-0.0091302702 0 -0.0049800002
-0.041552048 0.00042333335 -0.00118
0.0083849421 -0.00084666669 -0.00232
0.047887336 0.00042333335 -0.00079999998
0.047514673 0 -0.00232
0.047142006 -0.00042333335 -0.00194
-0.046024017 -0.00084666669 -0.00079999998
-0.041552048 -0.00127 -3.9999999e-05
-0.044906024 0.00084666669 -0.00156
0.037452742 0 -0.00079999998
0.011738919 0.00127 -0.00156
0.029254131 -0.00084666669 -0.00079999998
-0.031117452 0.00042333335 -0.00118
0.029626796 0 -0.00079999998
-0.03447143 -0.00042333335 -0.00156
0.015838224 -0.00042333335 -3.9999999e-05
0.014720231 -0.00127 -0.00079999998
-0.039316062 -0.00127 -3.9999999e-05
-0.044533361 -0.00042333335 -0.0027000001
0.02552749 -0.00042333335 -3.9999999e-05
0.02180085 0.00084666669 -0.00156
0.0016769884 0.00042333335 -0.00118
-0.039688725 -0.00127 -0.00118
-0.013229575 -0.00084666669 -3.9999999e-05
0.011366255 0.00084666669 -0.00118
0.041552048 -0.00084666669 -0.00079999998
-0.018446872 -0.00042333335 -0.00156
0.0337261 -0.00084666669 -0.00042
0.024036834 0 -0.00422
-0.013974903 0 -0.00194
0.034098763 0.00127 -0.00079999998
-0.044906024 -0.00127 -0.00118
0.021055521 -0.00084666669 -3.9999999e-05
0.0057762936 0 -3.9999999e-05
-0.028881468 0.00084666669 -0.00042
-0.017328881 -0.00042333335 -3.9999999e-05
0.024409497 0.00127 -0.00232
-0.0013043244 0.00127 -0.00156
-0.030744787 0.00127 -0.00042
0.00055899617 0.00084666669 -3.9999999e-05
0.0095029343 0.00042333335 -3.9999999e-05
0.032235444 0.00042333335 -0.00079999998
-0.018446872 0 -0.00118
-0.038570732 0.00042333335 -0.00156
-0.0072669499 -0.00127 -0.00156
0.043042704 0.00042333335 -0.00194
-0.0072669499 -0.00127 -0.00079999998
0.017328881 -0.00127 -0.00194
0.00093166024 -0.00042333335 -0.00232
0.039316062 0.00042333335 -0.00194
-0.0087576061 0 -0.0046000001
-0.0039129728 0 -0.00232
-0.035589419 0.00127 -0.00118
-0.034098763 -0.00084666669 -0.00232
-0.0057762936 -0.00042333335 -0.00079999998
-0.0020496524 0.00042333335 -3.9999999e-05
0.022546178 -0.00084666669 -0.00042
-0.029626796 0.00042333335 -0.00079999998
-0.047887336 0.00084666669 -0.00156
0.0076396139 0.00084666669 -0.00079999998
-0.0072669499 0.00042333335 -0.00079999998
-0.0035403089 0 -0.00156
-0.010248262 0 -0.00079999998
0.027390812 -0.00084666669 -0.00118
-0.037080076 0.00084666669 -0.00156
0.029254131 -0.00042333335 -0.00764
0.018819537 0.00042333335 -0.00232
-0.035962086 -0.00127 -0.00118
-0.0191922 0.00127 -0.00118
0.012856911 0.00042333335 -0.00042
0.035216756 -0.00042333335 -3.9999999e-05
-0.011366255 0 -0.00232
-0.047142006 -0.00084666669 -0.00194
-0.038570732 -0.00084666669 -0.00118
0.0087576061 0 -0.00194
-0.031117452 0.00084666669 -3.9999999e-05
-0.0095029343 -0.00084666669 -0.00042
-0.041179381 0.00127 -0.00079999998
0.0083849421 0.00084666669 -0.00079999998
0.035216756 -0.00127 -0.00232
0.022918841 -0.00084666669 -0.00194
-0.0087576061 0 -0.0038399999
-0.024036834 0.00127 -0.00079999998
0.024036834 0.00084666669 -0.00232
0.0013043244 0.00084666669 -0.00194
0.038198069 0.00084666669 -0.00194
0.03186278 -0.00127 -0.00118
0.012111583 0.00042333335 -0.00079999998
-0.047142006 0 -0.00422
0.037825406 0 -0.00079999998
0.0013043244 0.00042333335 -0.00194
-0.038943399 0 -0.00042
-0.00093166024 0.00084666669 -0.00079999998
0.013229575 -0.00127 -0.00232
-0.046769343 0.00084666669 -0.00156
0.043042704 -0.00127 -0.00042
-0.014347567 0.00042333335 -0.00156
-0.028508803 0 -0.00194
-0.021055521 -0.00127 -0.00042
-0.036707412 -0.00042333335 -0.00118
0.014720231 -0.00042333335 -0.00118
0.00055899617 0.00127 -0.00194
-0.042297374 -0.00042333335 -0.00194
0.043042704 -0.00084666669 -0.00194
-0.013974903 0 -3.9999999e-05
0.032980774 0.00042333335 -0.00194
-0.04565135 0.00084666669 -0.00079999998
0.039316062 0 -0.0027000001
-0.008012278 0.00127 -0.00232
-0.0016769884 -0.00127 -0.00042
-0.034098763 0.00042333335 -0.00079999998
0.0050309654 0.00127 -0.00079999998
-0.015465559 -0.00042333335 -0.00232
0.035216756 0.00084666669 -3.9999999e-05
0.040434055 -0.00127 -0.00156
0.0027949808 -0.00127 -3.9999999e-05
-0.023664169 0 -0.00079999998
-0.032980774 0.00084666669 -0.00156
0.02552749 -0.00084666669 -0.00042
0.037825406 0.00084666669 -0.00194
-0.0191922 0.00127 -0.00079999998
0.039316062 0.00042333335 -0.00156
0.0024223167 -0.00127 -0.00042
-0.025154827 -0.00127 -0.00156
0.011366255 0 -0.0072599999
-0.0027949808 -0.00042333335 -0.00118
0.041179381 0.00127 -0.00232
-0.0042856373 -0.00127 -0.00156
-0.019937528 -0.00084666669 -3.9999999e-05
0.037080076 -0.00127 -0.00042
0.023664169 -0.00084666669 -0.00079999998
0.0191922 0 0.00186
-0.025154827 0.00127 -0.00079999998
-0.018074209 -0.00042333335 -0.00194
-0.00018633205 0.00084666669 -0.00042
-0.025900155 -0.00127 -3.9999999e-05
0.047887336 0.00084666669 -0.00232
-0.045278687 0 -0.00156
-0.024782162 -0.00084666669 -0.00118
0.013602239 0.00084666669 -0.00232
0.0337261 0.00084666669 -0.00118
-0.0020496524 0.00127 -3.9999999e-05
-0.0031676448 -0.00042333335 -0.00118
0.0068942858 -0.00127 -0.00079999998
-0.029254131 0 0.0026199999
0.0035403089 0 -0.0027000001
0.040806718 -0.00127 -0.00042
-0.042297374 0.00042333335 -0.00194
-0.0013043244 -0.00042333335 0.00034
0.019937528 0 -0.00194
-0.027390812 0 -0.00232
0.020310193 0.00042333335 -0.00156
0.022173513 0.00042333335 -0.00156
-0.021428185 0.00127 -0.00232
-0.044533361 0.00127 -0.00156
0.023664169 0.00042333335 -0.00118
0.020310193 0.00084666669 -0.00232
0.017328881 -0.00127 -0.00118
-0.0024223167 -0.00127 -0.00042
-0.0013043244 0.00042333335 -3.9999999e-05
0.0035403089 -0.00084666669 -0.00194
-0.00093166024 0.00084666669 -3.9999999e-05
0.024036834 0 0.00148
0.044533361 0 0.0022400001
0.022918841 -0.00042333335 -3.9999999e-05
0.0065216217 0 0.00148
0.037825406 -0.00127 -0.00232
-0.0013043244 0 -0.0027000001
-0.038198069 -0.00127 -0.00232
-0.0031676448 0.00042333335 -0.00194
0.014720231 0.00127 -3.9999999e-05
-0.026645483 0.00127 -0.00232
-0.016583553 -0.00042333335 -0.0080199996
0.0068942858 0.00127 -0.00079999998
0.040434055 0 -0.00232
-0.026272818 0.00127 -0.00156
-0.045278687 -0.00127 -0.00232
0.037080076 0.00042333335 -0.00118
0.035962086 0.00084666669 -0.00194
0.047514673 0.00042333335 -0.00194
0.036707412 -0.00084666669 -0.00232
-0.018819537 -0.00084666669 -0.00156
0.027763475 0 -3.9999999e-05
0.00018633205 -0.00127 -0.00232
0.008012278 -0.00084666669 -3.9999999e-05
-0.032235444 -0.00084666669 -0.00194
-0.039688725 -0.00127 -0.00079999998
-0.0087576061 -0.00042333335 -0.00194
-0.044160694 -0.00084666669 -0.00194
-0.027763475 -0.00084666669 -0.00156
-0.00093166024 -0.00127 -0.00156
-0.0039129728 0.00127 -0.00079999998
0.026272818 0.00042333335 -0.00042
0.0098755984 0.00042333335 -3.9999999e-05
-0.0337261 0.00042333335 -0.00118
0.02180085 0 -0.0083999997
-0.039316062 0.00084666669 -0.00042
0.025900155 0.00042333335 -0.00042
-0.0020496524 0.00042333335 -0.00156
-0.012484247 -0.00127 -0.00232
0.034098763 0 0.0022400001
-0.024409497 -0.00084666669 -0.00118
0.0068942858 0 -0.00232
-0.010620927 -0.00042333335 -0.00232
0.040434055 0.00127 -0.00079999998
-0.030372124 -0.00084666669 -3.9999999e-05
-0.035589419 -0.00127 -0.00042
0.047887336 -0.00042333335 -0.00118
-0.029626796 0 -3.9999999e-05
-0.019564865 0.00084666669 -0.00079999998
0.035589419 -0.00127 -0.00118
-0.027390812 -0.00042333335 -0.00194
-0.015838224 0.00084666669 -0.00232
-0.042670038 -0.00084666669 -0.00118
0.0013043244 0 -0.0038399999
0.00055899617 -0.00084666669 -3.9999999e-05
-0.00093166024 0.00084666669 -0.00042
-0.020310193 0.00127 -0.00079999998
-0.023291506 -0.00084666669 -0.00118
0.0098755984 -0.00042333335 -3.9999999e-05
0.044160694 0.00127 -0.00232
-0.010993591 0 -0.00042
0.013974903 -0.00042333335 -0.00232
0.0031676448 -0.00042333335 -0.00118
0.017328881 -0.00084666669 -0.00232
0.038943399 0.00084666669 -0.00194
-0.018074209 -0.00084666669 -0.00042
0.041179381 0.00042333335 -0.00156
-0.031117452 -0.00127 -0.00194
-0.0068942858 -0.00127 -0.00194
-0.010620927 0.00042333335 -3.9999999e-05
-0.031490117 -0.00042333335 -0.00232
-0.017328881 0.00042333335 -3.9999999e-05
0.0087576061 -0.00042333335 -0.00612
-0.039688725 -0.00042333335 -0.00194
0.02552749 -0.00042333335 -0.00079999998
-0.022546178 -0.00084666669 -0.00079999998
0.023291506 -0.00042333335 -0.00079999998
-0.043788031 0.00084666669 -0.00042
-0.015838224 -0.00084666669 -0.00118
0.0057762936 0.00042333335 -0.00042
-0.022918841 0.00042333335 -3.9999999e-05
0.02813614 0.00084666669 -0.00118
-0.040806718 -0.00042333335 -0.00042
-0.011366255 0 -0.0072599999
0.024036834 0.00084666669 -0.00156
0.034098763 0.00127 -0.00194
0.031117452 -0.00127 -0.00194
0.036707412 0 -0.0083999997
0.023291506 0.00042333335 -0.00232
0.026645483 -0.00084666669 -0.00156
-0.016956216 0.00042333335 -0.00042
-0.038943399 -0.00042333335 -0.00079999998
-0.02552749 -0.00084666669 -0.00118
0.03447143 0 0.00034
0.047514673 0.00042333335 -0.00232
-0.00093166024 0 -3.9999999e-05
0.0083849421 -0.00084666669 -0.00156
0.0065216217 0 -0.0068799998
0.043788031 0.00042333335 -0.00042
-0.029626796 -0.00127 -0.00118
-0.015092895 0.00127 -0.00042
-0.041552048 0.00042333335 -0.00194
-0.0087576061 0 -0.00079999998
0.038943399 0.00127 -0.00232
-0.0027949808 -0.00127 -0.00232
-0.041924711 -0.00084666669 -0.00118
0.016210888 0.00127 -0.00042
-0.0020496524 0.00084666669 -0.00118
0.034098763 0.00084666669 -0.00118
-0.029999459 -0.00084666669 -0.00156
-0.041552048 0 -0.00079999998
-0.032235444 0.00084666669 -0.00042
-0.034844093 -0.00084666669 -3.9999999e-05
0.041552048 -0.00127 -0.00118
-0.043042704 0.00042333335 -0.00194
0.035216756 -0.00127 -0.00079999998
0.008012278 0 -0.00232
0.02552749 0.00084666669 -0.00156
0.030744787 0.00084666669 -3.9999999e-05
-0.040806718 0.00127 -0.00232
-0.033353437 0 -0.00042
0.033353437 0.00042333335 -0.00232
0.0337261 -0.00042333335 -3.9999999e-05
0.0020496524 0.00127 -0.00232
-0.043042704 0.00127 -0.00194
0.0031676448 -0.00127 -0.00042
0.036707412 -0.00127 -3.9999999e-05
-0.022173513 0 -0.00042
-0.013974903 0.00084666669 -3.9999999e-05
-0.02180085 -0.00127 -0.00156
-0.0016769884 0 -0.00232
0.0098755984 0 -3.9999999e-05
0.017328881 0.00127 -3.9999999e-05
-0.039688725 0 -0.00194
-0.0027949808 0.00127 -0.00232
0.0046583014 0.00042333335 -0.00079999998
-0.016583553 0.00084666669 -0.00079999998
-0.047514673 0.00127 -0.00118
-0.012856911 -0.00084666669 -0.00042
-0.024782162 -0.00084666669 -3.9999999e-05
-0.0337261 0.00127 -0.00118
-0.0072669499 -0.00042333335 -0.00079999998
-0.034844093 -0.00084666669 -0.00042
0.0087576061 -0.00084666669 -0.00156
0.019564865 -0.00042333335 -0.00156
0.0042856373 0 -3.9999999e-05
-0.041924711 0 -0.00612
0.022173513 0.00042333335 -0.00118
-0.037080076 0 -0.0038399999
-0.041179381 0 -3.9999999e-05
-0.013974903 0.00127 -0.00079999998
-0.028881468 -0.00042333335 -0.00194
0.041924711 0 -0.0046000001
0.010993591 0 -0.00042
0.037825406 -0.00127 -0.00194
0.027763475 0.00127 -0.00156
0.023291506 -0.00127 -3.9999999e-05
0.024782162 0.00084666669 -0.00156
0.034844093 -0.00127 -0.00118
0.0076396139 0.00127 -3.9999999e-05
0.022173513 0.00042333335 -0.00079999998
0.0076396139 -0.00127 -0.00079999998
0.0337261 -0.00084666669 -0.00156
0.024036834 0.00042333335 -0.00079999998
0.028508803 0.00127 -0.00118
0.021055521 -0.00127 -0.00042
0.043788031 -0.00042333335 -0.00079999998
-0.043415368 0.00127 -0.00079999998
0.016956216 -0.00084666669 -0.00156
0.028881468 -0.00127 -0.00156
0.021428185 0 -0.0038399999
0.008012278 0.00084666669 -0.00118
-0.042297374 0.00127 -0.00156
-0.038943399 0.00084666669 -0.00194
-0.0054036295 0.00042333335 -0.00194
-0.029626796 0.00042333335 -0.00194
-0.041924711 0.00127 -0.00118
0.045278687 -0.00084666669 -0.00232
0.047142006 0 -0.0046000001
-0.029254131 0.00127 -0.00118
-0.04639668 0.00042333335 -0.00118
0.010993591 0.00042333335 -0.00194
-0.0046583014 0.00084666669 -0.00042
0.035216756 0.00084666669 -0.00194
-0.0046583014 0.00042333335 -0.00156
0.0083849421 -0.00042333335 -0.00156
0.029254131 -0.00127 -0.00118
-0.027018147 -0.00042333335 -3.9999999e-05
0.030744787 -0.00084666669 -0.00194
0.0091302702 0 -0.0087799998
-0.010993591 0.00042333335 -0.00118
-0.0039129728 0.00042333335 -3.9999999e-05
-0.012484247 0 -0.00079999998
-0.042670038 0.00084666669 -3.9999999e-05
-0.0016769884 -0.00042333335 -0.00079999998
0.00093166024 0.00042333335 -3.9999999e-05
0.016956216 0 -0.00118
0.030744787 0.00042333335 -0.00118
-0.015465559 0 -0.00232
-0.00093166024 -0.00042333335 -0.00079999998
-0.029254131 0 -0.00118
0.038570732 -0.00042333335 -0.00194
0.0024223167 -0.00127 -3.9999999e-05
-0.013974903 -0.00084666669 -0.00156
0.044906024 -0.00127 -0.00232
-0.043415368 -0.00084666669 -0.00079999998
-0.031117452 0.00042333335 -0.00232
0.0068942858 0.00127 -0.00118
0.02180085 -0.00127 -0.00118
-0.038198069 0.00084666669 -0.00118
0.022173513 0 -0.00042
0.0016769884 -0.00042333335 -0.00042
0.032980774 -0.00084666669 -0.00042
0.013974903 -0.00042333335 -0.0049800002
0.0042856373 -0.00084666669 -0.00042
-0.040061388 0.00127 -0.00118
0.0016769884 0.00084666669 -3.9999999e-05
-0.034098763 0 0.0022400001
0.0068942858 0.00084666669 -0.00232
0.037452742 0 -0.00232
0.010248262 -0.00084666669 -0.00042
-0.03447143 0 0.00186
0.029254131 0 -3.9999999e-05
-0.0072669499 -0.00127 -0.00042
-0.032608107 0 -0.00118
0.023664169 -0.00084666669 -0.00232
-0.026645483 0.00127 -0.00156
-0.010993591 -0.00084666669 -0.00118
-0.024036834 -0.00042333335 -0.0030799999
-0.038943399 0.00042333335 -0.00156
-0.044160694 0 -0.00346
-0.029999459 0 -0.00118
-0.044533361 0.00084666669 -0.00118
0.020310193 -0.00084666669 -0.00118
0.03447143 0 -0.0027000001
0.045278687 0 -0.00079999998
0.0039129728 -0.00084666669 -0.00079999998
-0.034098763 -0.00127 -0.00194
0.039316062 -0.00127 -0.00042
-0.038198069 -0.00084666669 -3.9999999e-05
0.018819537 0 -0.0068799998
0.041179381 -0.00127 -0.00194
-0.018819537 -0.00042333335 -0.00042
-0.04639668 0.00042333335 -0.00156
0.016583553 -0.00042333335 -0.00156
0.031117452 -0.00084666669 -0.00079999998
0.015465559 0.00042333335 -0.00042
0.012111583 0.00042333335 -0.00232
-0.0013043244 -0.00042333335 -0.0072599999
-0.016210888 -0.00084666669 -0.00232
-0.029999459 0.00084666669 -0.00042
-0.011738919 0.00042333335 -0.00232
0.0046583014 0.00127 -3.9999999e-05
0.029626796 0.00042333335 -0.00156
-0.038570732 0.00127 -0.00194
0.00055899617 0.00042333335 -0.00079999998
0.029254131 0 -0.00346
0.016956216 -0.00042333335 -3.9999999e-05
0.029254131 0.00127 -0.00042
0.041552048 0 -0.00042
-0.041552048 -0.00042333335 -0.00042
-0.010993591 -0.00084666669 -3.9999999e-05
-0.0039129728 -0.00042333335 -0.0038399999
-0.021055521 0.00042333335 -0.00079999998
-0.040061388 -0.00042333335 -0.00194
0.0337261 -0.00084666669 -0.00079999998
0.02180085 0.00084666669 -3.9999999e-05
0.020682856 0 -0.00079999998
0.014347567 0.00084666669 -0.00232
-0.047514673 -0.00084666669 -0.00118
-0.022173513 -0.00127 -0.00232
-0.040061388 -0.00084666669 -0.00232
-0.0039129728 0.00127 -0.00194
0.043415368 -0.00042333335 -0.00079999998
-0.0095029343 -0.00042333335 -0.00079999998
-0.0024223167 0 -0.00156
0.035216756 0 -0.00042
0.040061388 -0.00127 -0.00194
-0.047142006 0.00127 -0.00232
0.015092895 0 -0.00232
0.043042704 -0.00042333335 -0.00156
0.018819537 0.00042333335 -0.00156
-0.018819537 0.00127 -0.00042
0.012111583 0.00042333335 -0.00118
0.016583553 0 -0.0068799998
0.039316062 -0.00042333335 -0.00118
-0.04565135 0.00127 -0.00118
-0.03186278 0 -0.00118
-0.030372124 -0.00042333335 -0.00079999998
0.008012278 -0.00084666669 -0.00194
0.0057762936 0 -0.00232
0.047142006 0 0.0011
-0.047142006 0 -0.0087799998
-0.023664169 0.00084666669 -0.00156
-0.015092895 0 -0.00042
-0.038198069 0.00042333335 -0.00079999998
-0.015465559 -0.00042333335 -0.00042
0.04565135 0.00127 -0.00118
-0.0065216217 0.00084666669 -0.00079999998
0.0050309654 0 -0.00079999998
0.020682856 0.00127 -0.00042
-0.0013043244 0 -0.0065000001
0.010993591 0.00127 -3.9999999e-05
-0.018819537 0.00042333335 -0.00118
-0.012111583 -0.00042333335 -0.00042
-0.0027949808 0.00084666669 -0.00232
0.043415368 -0.00127 -0.00118
0.0091302702 0 -0.0080199996
-0.0095029343 0.00042333335 -0.00118
-0.018819537 0 -0.0027000001
0.037080076 -0.00127 -0.00232
0.016583553 0.00084666669 -3.9999999e-05
0.044533361 0 -0.0083999997
0.017328881 -0.00042333335 -0.00042
0.0054036295 -0.00127 -3.9999999e-05
0.036707412 0 -0.0057399999
-0.012484247 -0.00127 -0.00118
-0.0076396139 0.00084666669 -0.00042
0.043042704 -0.00084666669 -0.00118
-0.0065216217 -0.00084666669 -0.00118
0.0095029343 0.00127 -0.00042
0.00055899617 -0.00127 -0.00232
0.032980774 -0.00127 -0.00194
0.035589419 -0.00127 -3.9999999e-05
0.019937528 0.00042333335 -0.00232
-0.026645483 -0.00042333335 0.00072000001
0.016210888 0.00042333335 -3.9999999e-05
-0.0027949808 -0.00042333335 -0.00042
0.028508803 0.00042333335 -0.00042
0.023664169 -0.00042333335 -0.00118
0.0016769884 0.00042333335 -0.00079999998
-0.038570732 0.00042333335 -0.00079999998
-0.0020496524 -0.00084666669 -0.00232
0.037080076 0.00084666669 -3.9999999e-05
0.018446872 -0.00127 -0.00232
0.018074209 0 -0.00079999998
-0.022173513 0.00084666669 -0.00156
-0.039688725 -0.00127 -3.9999999e-05
-0.024782162 -0.00042333335 -0.00156
-0.018074209 0.00084666669 -0.00118
-0.044160694 -0.00084666669 -0.00156
-0.039316062 -0.00084666669 -0.00232
0.0087576061 0.00042333335 -0.00156
0.041179381 -0.00084666669 -0.00079999998
0.030744787 0.00127 -0.00118
0.0013043244 -0.00042333335 -0.00194
0.0039129728 0.00127 -0.00118
0.035589419 0.00084666669 -3.9999999e-05
-0.0057762936 -0.00084666669 -0.00079999998
0.012484247 0.00084666669 -0.00042
-0.044160694 -0.00127 -0.00194
-0.0072669499 -0.00084666669 -0.00079999998
0.03447143 0.00127 -0.00156
-0.015092895 -0.00127 -0.00079999998
0.011366255 0 -3.9999999e-05
-0.031117452 0.00127 -0.00232
-0.021428185 0 -0.00194
0.008012278 0 -0.00156
-0.038943399 0.00084666669 -3.9999999e-05
-0.04565135 -0.00127 -0.00194
0.0076396139 0.00127 -0.00079999998
-0.0098755984 -0.00042333335 -0.00079999998
-0.035589419 -0.00127 -0.00118
0.0076396139 0.00127 -0.00156
0.021428185 0 0.00148
-0.040434055 -0.00042333335 -0.00079999998
0.040806718 -0.00084666669 -0.00079999998
-0.018074209 0 -0.00232
-0.00055899617 -0.00084666669 -0.00194
-0.0337261 -0.00084666669 -0.00194
-0.021428185 -0.00042333335 -0.00079999998
0.0013043244 0 -0.0083999997
-0.041924711 0 -0.0027000001
-0.0035403089 0.00042333335 -0.00042
-0.038570732 0 -0.00079999998
-0.021428185 0 -0.0057399999
-0.028881468 0.00127 -0.00194
0.030744787 0.00042333335 -0.00156
-0.044906024 0.00127 -0.00042
-0.026272818 0.00127 -0.00042
0.0098755984 -0.00127 -0.00194
0.013974903 0 -0.00118
-0.029626796 0.00084666669 -0.00156
-0.0087576061 -0.00084666669 -0.00042
0.0020496524 0.00042333335 -0.00118
-0.022546178 0.00127 -0.00079999998
-0.0065216217 0.00042333335 -0.00232
-0.033353437 0.00042333335 -0.00118
0.0013043244 -0.00042333335 -0.0038399999
0.028508803 -0.00084666669 -0.00042
0.044533361 0 -0.0053599998
-0.021055521 0.00084666669 -0.00079999998
0.043788031 0.00127 -3.9999999e-05
0.012484247 0.00127 -3.9999999e-05
0.0039129728 0.00127 -0.00194
0.023664169 0 -0.00079999998
0.035589419 0.00127 -3.9999999e-05
0.036334749 0 -0.00156
-0.015465559 0.00127 -0.00042
0.022173513 -0.00042333335 -0.00232
0.015465559 -0.00127 -0.00079999998
-0.045278687 -0.00042333335 -0.00079999998
0.015092895 -0.00127 -0.00156
0.016956216 0 -0.00156
-0.00055899617 0 -0.00156
0.030372124 0.00127 -0.00156
0.038943399 0 -0.00232
-0.021055521 0.00127 -0.00194
-0.03186278 0 -0.0057399999
0.033353437 -0.00084666669 -0.00042
0.029254131 0.00042333335 -0.00194
-0.0072669499 0.00084666669 -3.9999999e-05
0.024036834 0 0.00034
0.022173513 -0.00127 -0.00118
-0.045278687 0 -0.00042
0.0095029343 0.00127 -0.00156
0.041924711 -0.00042333335 -0.00118
0.036334749 -0.00127 -0.00079999998
0.019564865 0.00127 -0.00079999998
0.022173513 0.00127 -0.00156
-0.045278687 0.00127 -0.00232
0.022173513 -0.00042333335 -0.00156
-0.035589419 -0.00127 -0.00194
0.026272818 -0.00127 -0.00232
0.029999459 0.00042333335 -0.00079999998
-0.0068942858 0.00042333335 -0.00118
-0.021428185 -0.00084666669 -0.00156
0.017701544 -0.00042333335 -0.00194
0.047887336 -0.00084666669 -0.00194
-0.026645483 0 0.00148
0.015092895 -0.00127 -0.00194
-0.016583553 0 -0.00156
-0.040061388 -0.00084666669 -0.00118
0.0016769884 0.00084666669 -0.00232
-0.0035403089 0 -0.00232
0.0039129728 -0.00042333335 -0.0027000001
