# .PCD v0.7 - Point Cloud Data file format
VERSION 0.7
FIELDS x y z
SIZE 4 4 4
TYPE F F F
COUNT 1 1 1
WIDTH 1253
HEIGHT 1
VIEWPOINT 0 0 0 1 0 0 0
POINTS 1253
DATA ascii
0.0027963305 0.00018142856 0.0012363635
0.014680735 0.00054428569 -0.00035090919
-0.014855505 -0.00072571426 -0.0024672728
-0.015729358 -0.00127 -0.00070363644
-0.016777983 0.00127 -0.00070363644
0.0022720185 0.00127 -0.00052727282
0.00017477066 -0.00018142856 0.0015890909
-0.017651835 0.00018142856 0.0019418182
-0.010136697 -0.00036285713 0.00017818174
0.0047188075 -0.00127 -0.0010563637
-0.011709633 -0.00127 -0.0014090911
-0.012583487 0.00127 -0.00035090919
-0.0027963305 0 -0.0044072731
0.0015729358 0.0010885714 -0.0024672728
0.0013981652 -0.00127 -0.00070363644
0.016603211 -0.00127 -0.0019381819
0.0087385327 0.00090714288 -0.0022909092
-0.012583487 0.00127 -0.00017454554
-0.010311469 0.00036285713 -0.0052890913
0.017127523 0.00072571426 -0.00017454554
0.015205046 -0.00018142856 -0.0052890913
0.016603211 -0.00127 -0.00052727282
-0.0041944957 -0.00127 -0.0015854547
-0.010136697 0.00036285713 -0.0035254548
-0.012758258 0.00054428569 -0.00035090919
0.0012233945 -0.00054428569 -0.0024672728
-0.0033206423 -0.00127 -0.0024672728
-0.0061169728 0 -0.0024672728
-0.007515138 -0.00127 -0.00035090919
-0.0097871562 -0.00127 -0.0017618183
-0.0066412846 0.00127 -0.00052727282
-0.017651835 0.00018142856 0.0008836363
0.015030276 -0.00127 -0.0015854547
0.0041944957 -0.00127 -0.0021145456
-0.00052431197 0.00072571426 -0.0024672728
-0.010835781 -0.00090714288 -0.00017454554
-0.0078646792 0 0.0012363635
-0.011360092 -0.00090714288 -0.0024672728
0.010311469 -0.00036285713 -0.0067000003
0.018350918 0 -0.0022909092
0.0068160552 0.00127 -0.0017618183
0.0048935781 0.00018142856 0.0024709092
-0.00034954131 0.00018142856 -0.0037018184
0.0076899086 -0.00018142856 -0.0044072731
-0.0099619273 -0.00018142856 -0.0054654549
-0.0047188075 0.00127 -0.0019381819
0.0036701837 -0.00127 -0.00017454554
0.0033206423 0.00127 -0.0012327274
-0.0076899086 0.00018142856 0.00017818174
-0.016078901 0.00054428569 -0.0022909092
-0.0026215597 0 -0.0082872733
-0.0038449543 -0.00127 -0.00035090919
0.018176148 -0.0010885714 -0.0022909092
0.00052431197 -0.00054428569 -0.00035090919
-0.015379817 0.00036285713 -0.0026436364
0.006466514 0.00127 -0.00088000012
0.010311469 0 0.0024709092
-0.0033206423 0.00127 -0.0015854547
-0.0027963305 -0.00018142856 -0.0031727275
-0.0052431193 -0.00018142856 -0.0065236366
0.0050683487 0.00054428569 -0.0024672728
-0.0096123861 -0.00127 -0.00035090919
-0.0024467891 -0.00018142856 -0.0044072731
0.0040197251 -0.00127 -0.0019381819
-0.0076899086 0.00127 -0.0024672728
-0.010136697 0.00036285713 -0.0052890913
-0.014680735 0.00054428569 -0.00035090919
-0.0027963305 -0.00127 -0.00052727282
0.014680735 -0.00018142856 -0.0024672728
-0.018350918 0.00127 -0.00035090919
0.006466514 0.00054428569 -0.0024672728
-0.0041944957 0.0010885714 -0.0024672728
-0.0076899086 0.00018142856 -0.0068763639
-0.0038449543 -0.00127 -0.00017454554
-0.0019224772 0.00036285713 -0.0024672728
-0.0069908262 0.00090714288 -0.00017454554
0.0094376151 -0.00127 -0.0022909092
0.018001378 0 0.00070727267
-0.015205046 0.00036285713 -0.0067000003
0.013282569 -0.00127 -0.0017618183
0.0022720185 0.00018142856 0.0014127273
0.0031458717 0.00127 -0.0021145456
0.017651835 0.00018142856 0.00017818174
-0.015205046 -0.00036285713 -0.004230909
-0.018001378 -0.00018142856 0.00017818174
-0.016253671 -0.00090714288 -0.0022909092
-0.0071655968 0.00018142856 -0.00017454554
0.0024467891 0.00018142856 0.0012363635
-0.0013981652 0.00127 -0.0024672728
0.018176148 0.00054428569 -0.0024672728
-0.0062917434 -0.0010885714 -0.0024672728
0.0027963305 0 -0.0031727275
0.012933028 -0.00127 -0.00088000012
0.0040197251 -0.00127 -0.00088000012
-0.015729358 0.00127 -0.0022909092
0.0041944957 0.00036285713 -0.00017454554
0.012933028 -0.00018142856 -0.0035254548
-0.014680735 0.00072571426 -0.00017454554
0.0034954131 -0.0010885714 -0.00017454554
0.018176148 0.00127 -0.00088000012
0.0089133028 -0.00127 -0.0015854547
-0.0085637616 -0.00127 -0.00035090919
0.0043692663 0.00127 -0.0015854547
0.018001378 0.00018142856 0.0015890909
0.0099619273 0.00018142856 -0.004936364
-0.012408717 0 0.0014127273
-0.0080394503 0.00090714288 -0.00017454554
-0.011185322 0.00072571426 -0.00017454554
-0.01345734 0.00072571426 -0.00017454554
-0.0043692663 -0.00127 -0.0010563637
-0.0062917434 -0.00127 -0.00035090919
0.016428441 -0.00127 -0.0021145456
-0.014331194 0.00127 -0.0017618183
0.0069908262 -0.00054428569 -0.0024672728
-0.016603211 0.00018142856 -0.0022909092
0.0099619273 0.00018142856 -0.0051127276
0.0099619273 0.00018142856 -0.0065236366
0.015729358 0.00036285713 -0.00017454554
0.016603211 0.00127 -0.0021145456
0.0047188075 0 -0.00017454554
-0.01905 0.00036285713 -0.0019381819
0.017826606 -0.0010885714 -0.00035090919
-0.012758258 0.00018142856 0.0014127273
-0.00017477066 -0.00127 -0.0021145456
-0.0073403674 -0.00127 -0.0012327274
0.006466514 0.00127 -0.0019381819
-0.010311469 0.00018142856 -0.004230909
-0.017651835 0 -0.0047600004
0.015030276 0.00018142856 -0.0052890913
-0.016253671 -0.00127 -0.0017618183
-0.0052431193 -0.00018142856 -0.0075818184
0.01905 -0.00072571426 -0.0021145456
0.015379817 0.00090714288 -0.0022909092
-0.010136697 0.00018142856 0.0024709092
-0.013806881 0.00072571426 -0.0024672728
0.0087385327 0.0010885714 -0.00017454554
0.011534863 0.00127 -0.0012327274
-0.012233946 -0.00127 -0.0015854547
-0.014331194 -0.00018142856 -0.0022909092
-0.0026215597 0.00018142856 -0.0037018184
-0.01852569 -0.0010885714 -0.00017454554
-0.012233946 0.00036285713 -0.0024672728
0 -0.0010885714 -0.0024672728
0.0076899086 0.00018142856 -0.0059945458
0.015030276 0.00127 -0.00052727282
0.012583487 0.00072571426 -0.0024672728
0.017826606 -0.00018142856 -0.007758182
-0.0031458717 0.00054428569 -0.00035090919
-0.0040197251 0.00127 -0.0021145456
-0.011360092 0.00127 -0.0019381819
-0.0078646792 -0.00018142856 0.0022945455
-0.010486239 0 -0.00017454554
0.01345734 -0.00127 -0.00017454554
-0.0099619273 -0.00127 -0.00070363644
0 0.00018142856 -0.0070527275
-0.010311469 0 -0.0040545454
0.0082142204 0.00072571426 -0.00017454554
0.00087385328 0.00127 -0.0024672728
0.013806881 -0.00127 -0.00070363644
0.01066101 0 -0.00017454554
-0.016603211 0.00127 -0.0021145456
0.013806881 0.00127 -0.0021145456
-0.010136697 0.00036285713 -0.0074054548
-0.013107799 0.00072571426 -0.00017454554
0.0094376151 0.00127 -0.00088000012
0.0024467891 -0.00054428569 -0.00035090919
-0.013107799 0.00090714288 -0.00017454554
-0.016603211 -0.00127 -0.0019381819
-0.0052431193 -0.00127 -0.0014090911
-0.0061169728 0.0010885714 -0.00017454554
0.017651835 0.00036285713 -0.0058181821
0.010311469 -0.00072571426 -0.00017454554
0.015205046 -0.00127 -0.00017454554
-0.0059422022 -0.00018142856 -0.0022909092
0.0010486239 -0.00127 -0.0014090911
0.00034954131 -0.00018142856 -0.003878182
0.017651835 0.00018142856 -0.006347273
-0.01363211 -0.00036285713 -0.00017454554
-0.0026215597 -0.00127 -0.0022909092
-0.017826606 -0.00018142856 0.0010599999
-0.018350918 0.00127 -0.0012327274
0.0099619273 -0.00127 -0.0014090911
0.0069908262 0.00127 -0.00052727282
-0.0052431193 0.00018142856 -0.004230909
-0.01887523 -0.00090714288 -0.00017454554
0.007515138 -0.00018142856 -0.004936364
-0.015554588 0.00090714288 -0.00017454554
-0.016952753 -0.00127 -0.0022909092
-0.0097871562 -0.0010885714 -0.00017454554
0.0078646792 0.00018142856 -0.0031727275
-0.010311469 0.00018142856 -0.0059945458
-0.010136697 -0.00036285713 -0.0070527275
-0.013282569 -0.00127 -0.0021145456
-0.016777983 -0.00127 -0.0022909092
0.010136697 0.00036285713 -0.0051127276
-0.012583487 0.00018142856 0.0014127273
-0.0026215597 -0.00127 -0.0019381819
0.017302295 -0.0010885714 -0.0022909092
0.013981652 0.00127 -0.0014090911
0.017651835 0 0.0012363635
0.00034954131 -0.00018142856 -0.0074054548
-0.010136697 -0.00036285713 0.00053090905
0.012583487 0.00036285713 0.0022945455
0.018001378 0.00054428569 -0.0024672728
0.00034954131 -0.00127 -0.00035090919
0.011709633 0.00127 -0.0010563637
0.007515138 -0.00018142856 -0.0065236366
-0.015205046 0 0.0026472728
-0.00017477066 0.00018142856 -0.004936364
0.017826606 -0.0010885714 -0.0014090911
0.015030276 0 -0.006347273
-0.017651835 -0.00018142856 -0.0033490912
-0.017477065 0.00072571426 -0.0022909092
-0.0052431193 0 0.00070727267
-0.016428441 -0.00036285713 -0.0022909092
0.0024467891 0.00090714288 -0.0024672728
0 0.00127 -0.0014090911
0.0048935781 0.00072571426 -0.00017454554
-0.012758258 -0.00036285713 0.00070727267
-0.0050683487 -0.00018142856 -0.0082872733
0.015205046 -0.00090714288 -0.0022909092
-0.0076899086 -0.00018142856 -0.0079345461
0.0024467891 -0.00018142856 -0.0074054548
0.012233946 0.00036285713 -0.00017454554
-0.018176148 -0.00127 -0.0021145456
0.015205046 -0.00018142856 -0.0061709094
-0.011185322 0.00127 -0.0010563637
-0.0020972479 -0.00127 -0.0010563637
-0.011709633 0.00127 -0.0021145456
0.014855505 0 -0.00017454554
0.017651835 0 -0.0075818184
-0.0085637616 -0.00127 -0.0021145456
-0.014680735 -0.00127 -0.0019381819
-0.0027963305 -0.00018142856 -0.0033490912
0.00034954131 -0.00127 -0.0024672728
0.0026215597 0.00090714288 -0.0024672728
-0.0066412846 0.00127 -0.0019381819
0.0048935781 0.00090714288 -0.0024672728
0.0027963305 -0.00018142856 0.00070727267
0.017826606 -0.0010885714 -0.0010563637
0.012758258 0.00036285713 0.0010599999
-0.0059422022 0 -0.00017454554
-0.0034954131 0.00072571426 -0.0024672728
-0.007515138 0.00018142856 -0.0052890913
-0.0026215597 0.00127 -0.0024672728
0.013282569 0.00054428569 -0.00035090919
-0.017651835 0.00018142856 -0.0072290911
0.007515138 -0.00018142856 0.0015890909
-0.0027963305 0.00018142856 -0.0072290911
0.0022720185 0.00127 -0.0021145456
0.0019224772 0.00054428569 -0.00035090919
-0.0022720185 0 -0.0033490912
0.0087385327 0.00127 -0.0019381819
0.0073403674 0.00018142856 -0.0058181821
-0.015205046 0.00018142856 0.0015890909
0.0050683487 -0.00018142856 -0.0044072731
0.015205046 -0.00018142856 -0.0065236366
-0.014680735 -0.00090714288 -0.0022909092
-0.012933028 -0.00018142856 -0.004936364
0.0076899086 0.0010885714 -0.0022909092
-0.0024467891 0.00018142856 -0.0044072731
-0.0082142204 0.00127 -0.00052727282
0.01066101 -0.00127 -0.0022909092
-0.0099619273 -0.00018142856 -0.0068763639
-0.0052431193 -0.00127 -0.0021145456
0.0031458717 0.00127 -0.00088000012
0.0020972479 -0.00127 -0.0019381819
-0.016952753 -0.00127 -0.00035090919
-0.0073403674 -0.00018142856 -0.0037018184
0.0022720185 0 0.0010599999
-0.016777983 0.00127 -0.00035090919
0.010311469 -0.00018142856 -0.007758182
-0.0066412846 0.00072571426 -0.00017454554
-0.016253671 -0.00127 -0.0010563637
-0.0057674316 -0.0010885714 -0.0024672728
0.015030276 -0.00018142856 -0.0040545454
0.0054178904 0.00127 -0.0012327274
-0.0078646792 0 -0.0051127276
0.012583487 0.00036285713 -0.0065236366
0.0089133028 0.00127 -0.00052727282
0.0078646792 0 0.0008836363
-0.010486239 -0.0010885714 -0.0024672728
0.011709633 0.00127 -0.0022909092
-0.01852569 0.00090714288 -0.00017454554
0.0036701837 -0.00127 -0.0014090911
0.012233946 0 -0.0024672728
-0.0061169728 0 -0.00017454554
-0.014680735 0.00090714288 -0.0022909092
0.011360092 -0.00127 -0.00035090919
0.0020972479 0.00090714288 -0.0024672728
0.0024467891 -0.00018142856 -0.0044072731
0.0073403674 0.00018142856 0.0008836363
0.0099619273 0.00127 -0.0010563637
-0.0076899086 -0.00018142856 0.0008836363
0.0052431193 -0.00018142856 -0.004936364
0.0012233945 0.00072571426 -0.0024672728
-0.0078646792 -0.00018142856 1.8181046e-06
0.015554588 0 -0.0047600004
0.013282569 0.00054428569 -0.0024672728
0.017651835 -0.0010885714 -0.00017454554
-0.0083889915 0.00127 -0.0022909092
0.0071655968 -0.00127 -0.00035090919
-0.0033206423 0.0010885714 -0.0024672728
0.005592661 0.00018142856 -0.0022909092
0.0073403674 0 -0.0068763639
-0.016428441 -0.00127 -0.00070363644
0.017651835 -0.00127 -0.0010563637
-0.0076899086 -0.00018142856 -0.0045836368
-0.015205046 -0.00127 -0.00088000012
-0.011709633 -0.00127 -0.0012327274
0.0026215597 0.00018142856 -0.0082872733
-0.012583487 -0.00036285713 -0.0045836368
-0.011185322 0 -0.0022909092
0.012233946 -0.00072571426 -0.0024672728
-0.0024467891 -0.00090714288 -0.0024672728
0.0026215597 0.00018142856 -0.0044072731
-0.010311469 0.00127 -0.00035090919
-0.0052431193 0.00018142856 -0.0072290911
0.0061169728 0.0010885714 -0.0024672728
0.0027963305 0.00018142856 -0.0033490912
-0.00052431197 0.00127 -0.0019381819
-0.012583487 -0.0010885714 -0.00017454554
0.015205046 -0.00054428569 -0.00035090919
0.017826606 0.00036285713 -0.006347273
-0.014855505 -0.0010885714 -0.0022909092
0.0099619273 0.00018142856 -0.003878182
0.015729358 -0.00127 -0.0015854547
0.012583487 0.00018142856 0.0012363635
0.014505964 -0.00127 -0.00035090919
-0.010136697 -0.00036285713 -0.004936364
-0.0041944957 0.00127 -0.00035090919
-0.0033206423 0.00054428569 -0.0022909092
0.0052431193 0 0.0019418182
-0.0040197251 -0.00127 -0.0015854547
0.01066101 0.00018142856 -0.0022909092
-0.0050683487 0.00090714288 -0.00017454554
-0.0099619273 0.00018142856 -0.0040545454
0.017826606 0.00036285713 0.0012363635
0.01066101 -0.00090714288 -0.0022909092
0.010311469 0.00127 -0.0019381819
-0.005592661 -0.00127 -0.0010563637
0.0090880739 0.00127 -0.0017618183
0.015379817 0.00018142856 -0.0052890913
0.0048935781 0 -0.0045836368
0.010311469 -0.00036285713 -0.0037018184
-0.00069908262 0.00127 -0.0017618183
0.012758258 0.00036285713 -0.0051127276
0.0040197251 -0.00127 -0.0021145456
-0.010136697 -0.00036285713 -0.006347273
-0.015030276 -0.00018142856 -0.0081109097
0.015030276 0 -0.0031727275
0.0099619273 -0.00018142856 -0.004936364
-0.012758258 -0.00036285713 -0.0031727275
0.01905 0.00072571426 -0.0022909092
-0.0019224772 -0.00072571426 -0.0024672728
0.0090880739 -0.00127 -0.0015854547
-0.0097871562 0.00090714288 -0.00017454554
0.01852569 -0.0010885714 -0.00052727282
-0.01870046 0.00090714288 -0.0022909092
0.0099619273 0.00054428569 -0.00035090919
0.0041944957 0.00018142856 -0.0024672728
0.010136697 0.00072571426 -0.0024672728
0.011534863 0.00090714288 -0.00017454554
-0.015904129 0.00072571426 -0.0022909092
0.0085637616 -0.00036285713 -0.00035090919
-0.0073403674 -0.00072571426 -0.0024672728
-0.010136697 -0.00127 -0.00017454554
0.0073403674 -0.00127 -0.00070363644
0.0050683487 -0.00018142856 -0.003878182
0.018001378 0 -0.0056418185
0.0024467891 0.00036285713 -0.0028200001
0.01887523 0.00090714288 -0.0022909092
0.018001378 0 0.0021181819
-0.0054178904 0.00127 -0.0017618183
-0.012758258 0.00018142856 0.0026472728
-0.0026215597 0.00127 -0.0022909092
-0.00087385328 0 -0.0024672728
0.017302295 0.00072571426 -0.00017454554
-0.0024467891 0.00018142856 0.0010599999
-0.0048935781 0.00018142856 -0.0029963637
-0.010311469 0.00036285713 -0.0045836368
0.012408717 -0.00127 -0.00052727282
0.018001378 0 0.0015890909
0.01905 -0.00054428569 -0.0012327274
0.012933028 0.00127 -0.00088000012
0.0026215597 0.00018142856 0.0012363635
0.0099619273 -0.00018142856 -0.003878182
-0.0059422022 -0.00127 -0.0014090911
0.012933028 0.00018142856 -0.0061709094
-0.0062917434 0.00127 -0.0017618183
-0.010835781 -0.00054428569 -0.0022909092
0.00017477066 0.00018142856 0.0010599999
-0.0068160552 -0.00036285713 -0.00035090919
-0.011534863 -0.00054428569 -0.00035090919
0.010835781 0.00054428569 -0.00035090919
-0.010136697 -0.00018142856 -0.0081109097
0.013981652 -0.00127 -0.00088000012
0 0.00018142856 0.00053090905
-0.018001378 0.00018142856 -0.0028200001
0.01066101 -0.00127 -0.00052727282
-0.0026215597 -0.00018142856 0.0017654545
0.0019224772 -0.00127 -0.0014090911
-0.0019224772 0.00127 -0.0015854547
0.012233946 0.00072571426 -0.00017454554
0.010311469 -0.00127 -0.0024672728
0.011360092 0.00127 -0.0024672728
-0.01345734 0.00127 -0.00052727282
-0.0071655968 -0.00127 -0.0021145456
-0.0027963305 0.00127 -0.0019381819
0.014505964 0.00127 -0.0021145456
-0.011884404 -0.00127 -0.0021145456
-0.018350918 0.00018142856 -0.0022909092
0.0099619273 -0.00018142856 0.00035454539
-0.015205046 -0.00090714288 -0.00017454554
0.0071655968 -0.00127 -0.0019381819
0.0040197251 0.00127 -0.0017618183
0.015379817 -0.00018142856 -0.0047600004
0.015904129 -0.00127 -0.00088000012
-0.0027963305 0 0.0019418182
0.013806881 -0.00127 -0.00052727282
-0.012758258 -0.0010885714 -0.0022909092
-0.0024467891 0.00018142856 -0.0070527275
0.017651835 0.00018142856 0.0024709092
0.011709633 -0.00127 -0.0010563637
0.0034954131 0.00127 -0.00052727282
-0.015205046 -0.00036285713 0.0008836363
0.010311469 -0.00036285713 -0.003878182
0.0052431193 -0.00018142856 0.0012363635
-0.0052431193 -0.00018142856 -0.0037018184
0.0027963305 0.0010885714 -0.00017454554
0.012583487 0 -0.0056418185
0.012233946 0.00054428569 -0.0022909092
0.014331194 -0.00127 -0.00052727282
0.0078646792 -0.00127 -0.0019381819
-0.0019224772 0.00090714288 -0.00017454554
0.012933028 -0.00018142856 -0.004936364
0.0010486239 0.0010885714 -0.00017454554
0.0061169728 0.00127 -0.00035090919
0.0078646792 -0.00018142856 -0.007758182
0.0024467891 0.00018142856 0.00035454539
0.0099619273 0 -0.0033490912
-0.017826606 0.00018142856 0.0024709092
0.0092628449 0.00036285713 -0.00017454554
-0.0087385327 0.00127 -0.0012327274
-0.0076899086 -0.00018142856 0.0026472728
0.018350918 -0.0010885714 -0.00017454554
0.010311469 0 0.0021181819
-0.017651835 0.00018142856 -0.0058181821
0.013981652 -0.00127 -0.00052727282
-0.0099619273 -0.0010885714 -0.0024672728
-0.010311469 -0.00018142856 -0.0054654549
-0.0027963305 0.00018142856 -0.0045836368
0.0048935781 0.00018142856 -0.0040545454
-0.0012233945 -0.00127 -0.00017454554
-0.0087385327 0.00127 -0.0010563637
-0.010136697 0.00036285713 -0.004936364
0.01905 0 -0.00070363644
0.011185322 -0.00127 -0.0022909092
0.011185322 -0.00127 -0.0021145456
-0.0013981652 -0.00054428569 -0.0024672728
-0.014505964 0.00072571426 -0.0022909092
-0.007515138 0.00072571426 -0.0024672728
-0.0022720185 0 -0.004230909
-0.0052431193 0 0.00035454539
-0.010486239 -0.00127 -0.00070363644
0.01905 -0.00018142856 -0.0022909092
0.0026215597 0.00036285713 -0.0028200001
0.0078646792 0 -0.006347273
-0.017127523 0.00036285713 -0.00017454554
-0.0073403674 0.00127 -0.0021145456
-0.0048935781 0 -0.0059945458
0.0099619273 0 -0.0040545454
0.0020972479 -0.00054428569 -0.00035090919
-0.0026215597 0.00127 -0.00052727282
-0.013282569 0.00072571426 -0.0024672728
-0.016777983 0.00127 -0.0021145456
-0.014505964 -0.00127 -0.00017454554
-0.015554588 0 -0.0072290911
0.011709633 0.00127 -0.0019381819
0.011185322 0.00127 -0.00070363644
0.0052431193 -0.00127 -0.0024672728
-0.015030276 0 -0.0074054548
0.0022720185 -0.00127 -0.0019381819
0.0097871562 -0.00036285713 -0.0024672728
0.012059174 -0.00054428569 -0.00035090919
0.012233946 -0.00127 -0.0024672728
-0.0080394503 0 -0.0024672728
-0.014156423 -0.00072571426 -0.0024672728
0.01345734 0.00127 -0.00035090919
0.013107799 -0.00090714288 -0.0022909092
-0.015379817 0.00018142856 -0.0065236366
-0.01870046 -0.00036285713 -0.00017454554
-0.0052431193 -0.00018142856 -0.0045836368
-0.00052431197 -0.00127 -0.0017618183
0.0019224772 -0.00018142856 -0.0024672728
-0.012758258 0.00127 -0.00070363644
0.010136697 0.00036285713 -0.0026436364
-0.00034954131 0 -0.0068763639
0.0048935781 -0.00018142856 -0.003878182
-0.0092628449 -0.00127 -0.0012327274
0.01852569 0.00072571426 -0.0022909092
0.016428441 0.00054428569 -0.00035090919
0.0068160552 0.00127 -0.0021145456
-0.0027963305 0.00127 -0.00035090919
-0.0047188075 0.00072571426 -0.0024672728
0.0036701837 -0.00127 -0.00088000012
-0.00017477066 0.00127 -0.0022909092
0.015205046 -0.00018142856 -0.006347273
0.0071655968 -0.00054428569 -0.0024672728
-0.0047188075 -0.00127 -0.00070363644
0.018001378 0.00018142856 -0.0051127276
0.0048935781 0.00127 -0.0021145456
0.013806881 0.00072571426 -0.0024672728
-0.0092628449 -0.00036285713 -0.00035090919
0.017477065 -0.00090714288 -0.0022909092
-0.010311469 0.00018142856 0.0015890909
-0.015379817 -0.00018142856 -0.0040545454
-0.0019224772 0.00072571426 -0.00017454554
0.0040197251 -0.00127 -0.00035090919
0.012933028 -0.00018142856 0.0015890909
0.0017477066 -0.00127 -0.0024672728
-0.018176148 -0.00127 -0.00017454554
0.0094376151 -0.00054428569 -0.00035090919
0.0020972479 -0.0010885714 -0.0024672728
-0.01905 0 -0.0019381819
0.017302295 -0.00127 -0.0012327274
0.014505964 0.0010885714 -0.00017454554
-0.016078901 -0.00090714288 -0.0022909092
-0.0022720185 0 -0.0075818184
0.010311469 -0.00036285713 -0.0072290911
-0.0027963305 0.00018142856 0.0022945455
0.016777983 0.00054428569 -0.00035090919
-0.0059422022 0.00036285713 -0.00017454554
-0.0096123861 0.00072571426 -0.0024672728
0.0073403674 0 -0.0052890913
0.015554588 0.00054428569 -0.00035090919
0.0027963305 0.00127 -0.0012327274
0.0076899086 0.00072571426 -0.0024672728
0.0024467891 -0.00127 -0.0010563637
0.014680735 0.00072571426 -0.0022909092
0.0092628449 0.00072571426 -0.00017454554
0.01887523 0.00072571426 -0.0022909092
-0.006466514 0 -0.00017454554
-0.00069908262 -0.00127 -0.00035090919
-0.017826606 -0.00036285713 -0.0045836368
-0.0048935781 0 -0.0028200001
0.0027963305 -0.00018142856 -0.0074054548
-0.014680735 -0.0010885714 -0.00017454554
-0.0092628449 0.00036285713 -0.00017454554
-0.017127523 0.00018142856 -0.0022909092
-0.0076899086 -0.00018142856 -0.0054654549
0.012758258 -0.00127 -0.0012327274
0.014331194 0.00090714288 -0.00017454554
0.0052431193 -0.0010885714 -0.0024672728
-0.0029711011 -0.00127 -0.00052727282
-0.018176148 -0.00127 -0.0010563637
0.013282569 0.00127 -0.00052727282
-0.0083889915 0.00127 -0.0017618183
-0.015379817 0.00018142856 -0.0058181821
-0.0040197251 0.00018142856 -0.00017454554
-0.00052431197 0 -0.00017454554
-0.010136697 -0.00127 -0.0019381819
-0.0085637616 0.00127 -0.0017618183
0.017127523 0.00127 -0.0014090911
-0.017651835 0 -0.0081109097
-0.016428441 0.00090714288 -0.00017454554
-0.0045440369 -0.00090714288 -0.0024672728
0.013806881 0.00127 -0.0015854547
-0.00052431197 0.00036285713 -0.00017454554
0.0031458717 0.0010885714 -0.0024672728
0.0057674316 0.00127 -0.0015854547
-0.0026215597 -0.00018142856 -0.0081109097
-0.0087385327 0.00127 -0.0019381819
0.017651835 -0.00018142856 -0.0047600004
-0.010486239 0.00127 -0.0017618183
-0.013107799 -0.00127 -0.0014090911
0.0076899086 -0.00018142856 -0.0061709094
0.0029711011 -0.00127 -0.0024672728
0.018001378 0.00127 -0.0019381819
-0.0019224772 0 -0.0024672728
-0.00034954131 0.00018142856 -0.004936364
-0.00087385328 -0.00127 -0.00035090919
0.0015729358 -0.00090714288 -0.0024672728
0.00069908262 0.00054428569 -0.00035090919
-0.0085637616 0.00127 -0.00017454554
-0.0099619273 -0.00018142856 -0.0058181821
-0.012408717 0.00127 -0.0017618183
0.01905 0.00036285713 -0.0017618183
-0.014505964 0.00127 -0.0019381819
0.015030276 0 -0.0044072731
-0.01905 -0.00018142856 -0.00017454554
-0.0073403674 -0.00036285713 -0.0024672728
-0.018001378 -0.00018142856 0.0008836363
-0.016253671 0.0010885714 -0.00017454554
-0.0034954131 0.00072571426 -0.00017454554
-0.0078646792 -0.00127 -0.0019381819
-0.0048935781 0.00018142856 -0.0059945458
0.0078646792 0.00018142856 -0.0056418185
0.017651835 0.00018142856 -0.0056418185
0.005592661 -0.00127 -0.0021145456
-0.0045440369 -0.00018142856 -0.0024672728
-0.0066412846 -0.00127 -0.0017618183
0.012583487 -0.00018142856 -0.0033490912
0.0024467891 0.00018142856 1.8181046e-06
-0.0038449543 0.00127 -0.00035090919
-0.01066101 -0.00054428569 -0.00035090919
-0.0099619273 0.00018142856 0.0019418182
-0.0094376151 -0.00127 -0.00088000012
0 0.00127 -0.00052727282
-0.0076899086 0.00036285713 0.0019418182
0.0052431193 0.00018142856 -0.003878182
-0.012233946 0.00127 -0.0019381819
0.013806881 0.00127 -0.0022909092
0.012059174 0.0010885714 -0.0024672728
-0.0068160552 0.0010885714 -0.0024672728
-0.011534863 -0.00090714288 -0.0024672728
-0.015030276 -0.00127 -0.00070363644
0.018001378 -0.0010885714 -0.00070363644
0.018001378 0.00018142856 0.0021181819
0.015379817 -0.00127 -0.00088000012
0.015554588 0.00018142856 -0.0072290911
0.014680735 -0.00127 -0.0017618183
0.0047188075 0.00036285713 -0.0024672728
-0.0031458717 -0.00090714288 -0.0024672728
0.0078646792 0 -0.0056418185
0.017651835 0.00090714288 -0.00017454554
-0.01363211 -0.00127 -0.0015854547
-0.0073403674 0 -0.0065236366
-0.005592661 -0.00090714288 -0.0024672728
0.01345734 0.00127 -0.00052727282
0.0012233945 0.00036285713 -0.00017454554
-0.0024467891 0.0010885714 -0.0024672728
0.013107799 -0.00127 -0.00088000012
0.018350918 0.00127 -0.0014090911
-0.011010551 -0.00127 -0.00052727282
0.012758258 -0.00018142856 -0.0067000003
0.015904129 0.00018142856 -0.0022909092
-0.0026215597 0.00127 -0.0019381819
0.0048935781 0 -0.0052890913
-0.0071655968 -0.00127 -0.0019381819
-0.017826606 -0.00018142856 -0.0067000003
-0.0036701837 0.00127 -0.00052727282
-0.0027963305 0.00018142856 -0.0074054548
-0.0076899086 -0.00127 -0.00052727282
-0.00034954131 0 0.0010599999
-0.014680735 0.00054428569 -0.0024672728
0.006466514 0.00127 -0.0015854547
-0.00034954131 0.00018142856 -0.0031727275
0.0062917434 -0.00127 -0.0019381819
0.015554588 0 -0.0052890913
0.0071655968 -0.00127 -0.0022909092
-0.013282569 0 -0.00017454554
0 -0.00036285713 -0.00035090919
0.0097871562 0.00127 -0.00070363644
0.012583487 -0.00018142856 0.0010599999
0.0027963305 0.00018142856 -0.0052890913
-0.01905 0.00036285713 -0.00070363644
0.0048935781 0 -0.0075818184
-0.0012233945 -0.00036285713 -0.00035090919
-0.010311469 -0.00072571426 -0.0024672728
0.00017477066 -0.00018142856 0.00053090905
0.0057674316 0.00054428569 -0.0022909092
-0.011709633 -0.00127 -0.0019381819
-0.00087385328 0.00018142856 -0.00017454554
-0.011010551 0.00090714288 -0.0024672728
0.0096123861 -0.00127 -0.0022909092
-0.013981652 -0.0010885714 -0.00017454554
-0.0078646792 0.00018142856 -0.0044072731
0.0041944957 0.00018142856 -0.00017454554
-0.013282569 -0.00090714288 -0.0024672728
-0.0015729358 0.00127 -0.0014090911
0.015379817 -0.00018142856 0.0012363635
-0.01363211 -0.00090714288 -0.00017454554
-0.015030276 0 -0.0026436364
0.0062917434 0.00090714288 -0.00017454554
-0.0069908262 -0.00036285713 -0.0024672728
-0.010136697 0.00036285713 -0.0059945458
-0.016777983 -0.00018142856 -0.0022909092
0.0057674316 -0.00054428569 -0.0024672728
-0.013282569 0.00127 -0.0012327274
-0.018001378 -0.00127 -0.00035090919
-0.0094376151 0.00127 -0.0021145456
0.0097871562 0.00127 -0.0014090911
-0.0062917434 0 -0.00017454554
-0.012408717 0.00054428569 -0.00035090919
-0.0022720185 0 -0.0026436364
-0.013107799 -0.00036285713 -0.00017454554
-0.0080394503 0.00072571426 -0.00017454554
-0.0080394503 -0.0010885714 -0.0022909092
0.00052431197 -0.00127 -0.0021145456
-0.015554588 -0.00090714288 -0.0022909092
0.015904129 0.00090714288 -0.00017454554
0.01363211 0.00127 -0.0024672728
0.0076899086 0.00018142856 -0.007758182
0.0012233945 -0.0010885714 -0.00017454554
-0.01905 -0.00054428569 -0.00070363644
-0.007515138 0.00018142856 0.0022945455
-0.017651835 -0.00018142856 -0.0047600004
-0.00034954131 0.00018142856 -0.0052890913
-0.0059422022 -0.00127 -0.0010563637
-0.0076899086 0.00018142856 -0.004936364
0.012233946 0.00127 -0.00070363644
0.017302295 -0.00127 -0.0017618183
-0.0033206423 -0.00127 -0.0017618183
-0.015030276 -0.00018142856 -0.0026436364
0.012059174 -0.00127 -0.0012327274
0.0099619273 -0.00018142856 -0.0033490912
0.0027963305 0.00018142856 -0.0037018184
-0.0099619273 -0.00018142856 0.00053090905
-0.0052431193 -0.00018142856 -0.0028200001
0.017826606 0.00036285713 -0.0074054548
-0.0068160552 0.00072571426 -0.0024672728
0 0.00018142856 0.0019418182
-0.012583487 0.00018142856 -0.0047600004
0.007515138 0.00018142856 -0.0051127276
-0.013806881 0.00036285713 -0.00017454554
0.018001378 -0.00018142856 -0.0031727275
0.0052431193 -0.00036285713 -0.0026436364
-0.0099619273 0 -0.0052890913
-0.012583487 -0.00036285713 -0.004936364
0.0099619273 0.00018142856 -0.0045836368
0.0097871562 0.00127 -0.0017618183
-0.0089133028 -0.00054428569 -0.0022909092
-0.0038449543 0.00018142856 -0.00017454554
-0.0036701837 0.00018142856 -0.0022909092
0.010835781 0.00127 -0.0010563637
0.0080394503 0.00127 -0.0022909092
0.0040197251 0.00072571426 -0.00017454554
0.0024467891 -0.00018142856 0.00035454539
-0.018350918 -0.00090714288 -0.0022909092
0.0099619273 -0.00018142856 0.0019418182
0.012059174 0.00127 -0.0015854547
-0.016603211 -0.00036285713 -0.00017454554
-0.0038449543 -0.00090714288 -0.0024672728
0.007515138 0.00018142856 0.0024709092
0.012758258 -0.00018142856 -0.0054654549
0.0022720185 0.00036285713 -0.00017454554
-0.015030276 -0.00018142856 -0.0054654549
-0.015030276 -0.00018142856 -0.0031727275
0.0090880739 0.00036285713 -0.0024672728
-0.0062917434 -0.00072571426 -0.0024672728
0.013981652 -0.0010885714 -0.00017454554
0.00034954131 0 -0.0075818184
0.0052431193 0.00036285713 -0.0024672728
-0.01870046 -0.0010885714 -0.00070363644
0.01887523 -0.00072571426 -0.00088000012
0.0027963305 -0.00018142856 -0.004230909
0.0024467891 -0.0010885714 -0.0024672728
-0.0073403674 -0.00127 -0.00088000012
0.0052431193 -0.00018142856 -0.0061709094
0 -0.00018142856 -0.0052890913
0.015205046 0.00018142856 -0.003878182
-0.015205046 -0.00036285713 -0.0058181821
-0.012233946 0.00127 -0.0021145456
-0.01905 -0.00072571426 -0.0010563637
0 0.00018142856 -0.0068763639
0.013981652 -0.00127 -0.0022909092
0.0078646792 -0.00054428569 -0.00035090919
-0.012758258 0.00018142856 0.0022945455
0.0026215597 0.00018142856 0.0022945455
0.010136697 0.00036285713 -0.00017454554
-0.0038449543 0.00127 -0.00017454554
-0.013981652 0.0010885714 -0.0024672728
-0.01887523 0.00090714288 -0.0010563637
0.018001378 0.00018142856 -0.0058181821
0.0024467891 0.00018142856 -0.0081109097
0.0038449543 0.00072571426 -0.0024672728
-0.017651835 0.00036285713 -0.0026436364
0.012233946 0.00127 -0.0021145456
-0.018350918 -0.00036285713 -0.00017454554
0.018001378 -0.00018142856 0.0010599999
-0.00069908262 0.00127 -0.0022909092
-0.0078646792 0 -0.0072290911
0.00034954131 0.00127 -0.0015854547
-0.014331194 0.00072571426 -0.0022909092
-0.0010486239 0.00127 -0.0015854547
0.016078901 -0.00054428569 -0.0022909092
-0.015554588 0 -0.004230909
-0.011010551 0.00054428569 -0.00035090919
-0.018001378 -0.00018142856 -0.0072290911
-0.011185322 0.00054428569 -0.0024672728
0.01905 0.00072571426 -0.0021145456
-0.0031458717 -0.00072571426 -0.0024672728
-0.0050683487 0.00072571426 -0.00017454554
0.0048935781 0 -0.0061709094
-0.0089133028 0.00072571426 -0.0024672728
0.0059422022 0.0010885714 -0.0024672728
-0.017651835 -0.00018142856 0.00017818174
0.015205046 0.00127 -0.0015854547
0.0048935781 0.00018142856 -0.0067000003
0.013981652 0.00018142856 -0.0022909092
0.012583487 0 -0.0037018184
0 0.00018142856 -0.0067000003
-0.016603211 0.00090714288 -0.0022909092
0.018001378 0.00018142856 -0.0079345461
-0.018001378 0 0.00017818174
-0.006466514 0.00127 -0.00070363644
0.016078901 -0.00018142856 -0.0022909092
-0.011010551 0.00036285713 -0.0024672728
-0.010835781 -0.00127 -0.00070363644
0.0040197251 -0.0010885714 -0.00017454554
-0.018350918 -0.00127 -0.0021145456
-0.0027963305 -0.00018142856 0.0019418182
0.010311469 -0.00018142856 -0.0029963637
0.017302295 0.0010885714 -0.0022909092
-0.0050683487 -0.00018142856 -0.004230909
-0.005592661 0.00036285713 -0.0024672728
0.0047188075 0.00018142856 -0.00017454554
-0.0083889915 0.00127 -0.00088000012
0.017302295 -0.00036285713 -0.00035090919
0.012583487 0.00018142856 0.00070727267
-0.00034954131 0.00018142856 -0.0045836368
-0.0078646792 -0.00090714288 -0.0022909092
-0.011709633 -0.00127 -0.0022909092
0.011360092 -0.00127 -0.0015854547
0.0050683487 -0.00127 -0.0021145456
0.016253671 -0.00127 -0.0012327274
-0.015030276 0.00018142856 -0.0075818184
0.016078901 -0.00127 -0.0017618183
-0.0085637616 0.00127 -0.00035090919
-0.0054178904 0.00127 -0.0024672728
-0.01870046 -0.0010885714 -0.00017454554
0.012408717 0.00127 -0.0017618183
0.0054178904 0 -0.0024672728
-0.00052431197 -0.00054428569 -0.0024672728
0.00052431197 -0.00036285713 -0.00035090919
0.0050683487 -0.00072571426 -0.00017454554
0.013981652 0.00127 -0.0019381819
0.012933028 -0.0010885714 -0.00017454554
-0.017651835 -0.00018142856 -0.0056418185
-0.00052431197 -0.00090714288 -0.0024672728
-0.005592661 0.00072571426 -0.00017454554
-0.015904129 0.00127 -0.00035090919
-0.010311469 0 -0.0028200001
-0.015030276 0.00018142856 -0.0054654549
-0.0054178904 0.0010885714 -0.0022909092
0.0059422022 -0.00072571426 -0.0024672728
-0.015379817 0.00018142856 -0.0045836368
0.012933028 0 0.0017654545
0.0038449543 0.0010885714 -0.0024672728
0.012583487 0 -0.0081109097
0.0024467891 -0.00018142856 0.00053090905
-0.0092628449 -0.00018142856 -0.00017454554
0.016952753 -0.00127 -0.0017618183
0.012758258 0.00036285713 -0.0037018184
0.00017477066 0.00018142856 -0.0026436364
0.0015729358 -0.00127 -0.0021145456
0.0048935781 -0.00018142856 -0.0059945458
-0.016777983 -0.0010885714 -0.0022909092
-0.015379817 -0.00127 -0.0021145456
-0.011185322 0.00090714288 -0.0024672728
-0.00052431197 0.00054428569 -0.00035090919
0.0026215597 0.00018142856 0.0015890909
0.0027963305 -0.00090714288 -0.0024672728
-0.018176148 -0.00072571426 -0.00017454554
-0.012758258 -0.00036285713 -0.003878182
0 -0.00018142856 -0.0079345461
0.0026215597 0.00036285713 -0.0031727275
0.017651835 0.00018142856 -0.004230909
0.0085637616 -0.00127 -0.00070363644
0.0068160552 0.00018142856 -0.0022909092
-0.010311469 0.00090714288 -0.00017454554
0.0012233945 0.00054428569 -0.0024672728
-0.018001378 0.00036285713 -0.0022909092
-0.0092628449 0.00090714288 -0.00017454554
0.0090880739 -0.00018142856 -0.0022909092
-0.015379817 0.00018142856 0.0010599999
0.01852569 0.00127 -0.0019381819
-0.0036701837 0.00127 -0.00035090919
0.010311469 0 -0.0031727275
-0.0027963305 -0.00018142856 0.0015890909
-0.00069908262 -0.00090714288 -0.0024672728
-0.0048935781 0 -0.0047600004
-0.012059174 0.00127 -0.0019381819
0.010486239 0.00127 -0.00088000012
-0.0036701837 0 -0.00017454554
-0.010311469 0.00036285713 0.0019418182
0.0050683487 0.00090714288 -0.00017454554
0.015729358 -0.00018142856 -0.0022909092
0.0078646792 0 0.0022945455
-0.0045440369 -0.00127 -0.00017454554
-0.00087385328 0.00018142856 -0.0024672728
-0.0050683487 0.00018142856 -0.0079345461
-0.00034954131 0 -0.0059945458
-0.0073403674 -0.00127 -0.0014090911
-0.018001378 0.00127 -0.00017454554
-0.011360092 -0.00127 -0.0014090911
0.016253671 0.00127 -0.0010563637
0.012583487 0.00018142856 -0.0031727275
-0.00034954131 0 -0.004230909
-0.0073403674 0 -0.0068763639
0.0041944957 0.00054428569 -0.00035090919
-0.0017477066 -0.00127 -0.0014090911
-0.01345734 -0.00072571426 -0.0024672728
-0.017127523 0.00127 -0.0010563637
-0.010835781 -0.00127 -0.00017454554
0.017651835 0.00036285713 -0.004230909
-0.0073403674 -0.00018142856 -0.0033490912
0.010835781 0.00018142856 -0.0022909092
0.013107799 0.00127 -0.0021145456
0.0010486239 0.00054428569 -0.0024672728
0.0090880739 -0.00127 -0.0010563637
-0.0027963305 0.00018142856 0.00053090905
-0.0012233945 0.00127 -0.0024672728
-0.0099619273 0.00018142856 -0.0070527275
-0.01905 -0.00072571426 -0.0015854547
0.018176148 -0.0010885714 -0.00070363644
0.00069908262 0.00090714288 -0.00017454554
-0.012933028 0.00018142856 -0.0056418185
-0.0052431193 -0.00127 -0.0010563637
0.016428441 -0.00127 -0.0014090911
-0.01905 -0.00054428569 -0.0019381819
-0.0047188075 0.00036285713 -0.0024672728
-0.015205046 0.00036285713 -0.00017454554
0.006466514 -0.00127 -0.0010563637
-0.014331194 -0.00127 -0.0022909092
-0.01066101 -0.00072571426 -0.00017454554
-0.0096123861 0.00036285713 -0.00017454554
-0.010835781 -0.0010885714 -0.00017454554
-0.015379817 0.00018142856 -0.0075818184
0.005592661 -0.0010885714 -0.00017454554
0.0073403674 0 -0.0075818184
0.017651835 0 -0.004936364
-0.01870046 0.0010885714 -0.00035090919
-0.0071655968 0.00127 -0.00070363644
-0.015205046 0.00127 -0.0022909092
0.0052431193 0.00036285713 -0.0031727275
-0.00017477066 0.00090714288 -0.0024672728
-0.0052431193 0.00018142856 -0.0029963637
0.0089133028 -0.00072571426 -0.00017454554
-0.01905 0.00036285713 -0.00017454554
-0.0029711011 0.00127 -0.0024672728
0.0080394503 -0.00036285713 -0.00035090919
-0.007515138 -0.00018142856 0.0010599999
0.012758258 0.00036285713 -0.004936364
-0.0068160552 -0.00127 -0.0017618183
0.0024467891 0.00127 -0.0015854547
0.0048935781 -0.00018142856 -0.004936364
0.0083889915 -0.00127 -0.00070363644
-0.017651835 -0.00018142856 0.0010599999
0.00017477066 0.00018142856 0.00070727267
-0.0050683487 -0.00018142856 -0.0067000003
-0.0043692663 -0.0010885714 -0.00017454554
0.007515138 0.00018142856 -0.0074054548
0.0024467891 0.00072571426 -0.0024672728
-0.015904129 -0.00018142856 -0.00017454554
0.0022720185 0 -0.0037018184
-0.017127523 -0.00127 -0.0014090911
-0.0029711011 0.00018142856 -0.00017454554
0.01905 0.00054428569 -0.0019381819
-0.01066101 0.00018142856 -0.0024672728
0.007515138 0.00036285713 0.00035454539
-0.01066101 -0.00127 -0.0022909092
-0.012059174 -0.00127 -0.0024672728
0.018001378 -0.0010885714 -0.0014090911
0.015554588 0.00127 -0.0015854547
-0.00034954131 0 0.0014127273
0.0076899086 0.00018142856 0.0019418182
0.0022720185 0.00036285713 -0.0024672728
0.012933028 -0.00018142856 -0.0054654549
0.017651835 0.00018142856 0.0008836363
0.017127523 0.00018142856 -0.00017454554
0.0019224772 0.00090714288 -0.00017454554
0.007515138 -0.00018142856 0.0019418182
-0.0057674316 0.00090714288 -0.00017454554
-0.0022720185 -0.00018142856 -0.0075818184
-0.017302295 0.00127 -0.00052727282
-0.0071655968 0.00127 -0.0010563637
-0.0076899086 -0.00054428569 -0.00035090919
0.0010486239 -0.00036285713 -0.0024672728
0.0041944957 0.00127 -0.0012327274
0.01363211 0.00072571426 -0.00017454554
0.011010551 0.00127 -0.00035090919
0.0034954131 0.00127 -0.00035090919
-0.010835781 -0.00072571426 -0.0024672728
0 0.00018142856 -0.0074054548
0.015205046 0.00036285713 0.00017818174
-0.01905 0.00018142856 -0.00070363644
-0.0031458717 -0.00018142856 -0.00017454554
-0.013806881 -0.00090714288 -0.0024672728
-0.0048935781 -0.00072571426 -0.0024672728
-0.017826606 -0.00036285713 0.00070727267
-0.0096123861 -0.0010885714 -0.0024672728
0.0029711011 0.00127 -0.00070363644
-0.015030276 0.00018142856 -0.004936364
0.012233946 -0.00127 -0.0014090911
-0.010311469 0 -0.0056418185
-0.010835781 -0.00036285713 -0.00017454554
0.015205046 0.00018142856 -0.0072290911
0.012583487 0.00036285713 -0.0026436364
0.0027963305 0 -0.0054654549
0.012233946 0.00127 -0.0014090911
-0.012758258 -0.00036285713 -0.0033490912
-0.011709633 0.00072571426 -0.0022909092
0.010311469 -0.00036285713 -0.0059945458
0.012583487 0.00018142856 0.0010599999
0.0019224772 -0.00054428569 -0.00035090919
0.00087385328 -0.00127 -0.00088000012
0.0078646792 -0.00018142856 0.0015890909
0.017826606 -0.00018142856 -0.0079345461
-0.0012233945 0.00127 -0.0021145456
0.0052431193 0 -0.0045836368
-0.018001378 0.00127 -0.0019381819
0.0048935781 -0.00018142856 0.0021181819
-0.010311469 0 -0.0052890913
-0.0050683487 -0.00018142856 0.0021181819
0.012583487 0.00036285713 -0.0068763639
-0.015030276 0 -0.003878182
-0.015030276 0 -0.0028200001
-0.00017477066 -0.00018142856 -0.0065236366
-0.01066101 -0.00054428569 -0.0022909092
0.015030276 0.00018142856 -0.003878182
0.012933028 0.00018142856 -0.004230909
0.017127523 0.00036285713 -0.0022909092
-0.0066412846 0.00127 -0.0014090911
0.010311469 0 0.0014127273
-0.0038449543 0.00036285713 -0.00017454554
-0.018001378 0.00018142856 0.0014127273
0.0052431193 0.00127 -0.00052727282
-0.014156423 0.00127 -0.00035090919
0.010311469 -0.00036285713 -0.0054654549
0.0029711011 0.0010885714 -0.00017454554
0.00087385328 0.0010885714 -0.0024672728
0.015729358 -0.00127 -0.0017618183
-0.0054178904 0 -0.0024672728
-0.015904129 -0.00036285713 -0.00017454554
-0.00069908262 -0.00127 -0.00052727282
0.0036701837 0.00036285713 -0.0024672728
0.00034954131 0.00018142856 -0.0024672728
-0.0036701837 0 -0.0022909092
-0.0034954131 0.0010885714 -0.00017454554
0.010311469 0 0.0022945455
-0.016603211 -0.00127 -0.00088000012
-0.0076899086 -0.00018142856 0.0010599999
-0.011185322 -0.00127 -0.00035090919
-0.011709633 0.00072571426 -0.00017454554
0.015554588 0 0.0014127273
-0.015554588 0 -0.0054654549
0.007515138 0.00018142856 -0.0068763639
0 0.00018142856 1.8181046e-06
-0.016428441 0.00090714288 -0.0022909092
0.0080394503 0.00054428569 -0.00035090919
-0.0048935781 0 -0.0035254548
-0.012758258 -0.00036285713 0.0022945455
-0.012933028 -0.00018142856 1.8181046e-06
-0.01870046 -0.0010885714 -0.00052727282
0.0099619273 -0.00018142856 0.0010599999
0.0048935781 -0.00018142856 -0.0040545454
-0.011884404 -0.00127 -0.00017454554
-0.0089133028 -0.00036285713 -0.0022909092
0.0026215597 -0.00018142856 -0.0047600004
0.014505964 -0.00036285713 -0.0022909092
0.0076899086 -0.00127 -0.0014090911
0.0062917434 -0.00054428569 -0.0022909092
0.0059422022 -0.00127 -0.00070363644
0.0017477066 -0.00054428569 -0.0024672728
-0.01905 0 -0.0021145456
0.0015729358 0.00127 -0.0019381819
-0.012583487 0.00018142856 0.00070727267
0.013282569 -0.00127 -0.00070363644
-0.011360092 0.00054428569 -0.0024672728
-0.012408717 0 0.0008836363
0.0052431193 0 -0.0052890913
-0.017477065 0.00036285713 -0.00017454554
0.0099619273 -0.00072571426 -0.0024672728
0.016428441 0.00127 -0.0022909092
-0.010311469 -0.00018142856 -0.0075818184
-0.015205046 -0.00036285713 -0.0026436364
-0.010835781 0 -0.00017454554
-0.0080394503 -0.00036285713 -0.00035090919
-0.013107799 0.00127 -0.0024672728
-0.0012233945 -0.00127 -0.00052727282
0.0052431193 0 0.0024709092
0.0094376151 -0.00127 -0.0012327274
-0.010311469 0.00018142856 0.0012363635
-0.0024467891 -0.00127 -0.0015854547
0.0066412846 0.00036285713 -0.00017454554
-0.018001378 -0.0010885714 -0.0022909092
0.0043692663 -0.0010885714 -0.0024672728
0.010311469 -0.00090714288 -0.0024672728
-0.015379817 -0.00127 -0.0014090911
-0.0047188075 -0.00018142856 -0.0024672728
-0.00087385328 0.00127 -0.00088000012
-0.012583487 -0.00036285713 0.0008836363
-0.0083889915 -0.00127 -0.0015854547
-0.0087385327 -0.00127 -0.00017454554
-0.017826606 -0.00018142856 -0.004230909
0.014680735 -0.00127 -0.00088000012
0.0019224772 -0.00127 -0.0017618183
-0.014505964 0.00127 -0.0021145456
-0.0073403674 0 0.0012363635
0.015205046 0.00036285713 1.8181046e-06
-0.0048935781 0 -0.0037018184
0.0026215597 0.00018142856 0.0021181819
0.0027963305 0 -0.0045836368
0.013282569 0.00127 -0.0012327274
0.0050683487 0.00127 -0.00088000012
-0.011010551 0 -0.0024672728
0.018176148 0.00127 -0.0021145456
-0.0059422022 -0.00127 -0.0022909092
-0.015030276 0.00018142856 0.0017654545
0.016078901 -0.00127 -0.0022909092
0.0052431193 0 -0.0029963637
-0.018001378 0.00018142856 -0.0072290911
0.016428441 0.00072571426 -0.00017454554
0.012583487 0.00018142856 -0.0072290911
0.0027963305 0.00018142856 -0.004936364
0.0045440369 0.00018142856 -0.0024672728
0.015729358 -0.00127 -0.0010563637
-0.014505964 -0.00127 -0.00052727282
-0.0073403674 0.00018142856 -0.003878182
-0.011010551 0.00127 -0.0010563637
0.0080394503 0 -0.00017454554
-0.010311469 0.00127 -0.00052727282
-0.0073403674 0.00127 -0.0017618183
0.015030276 -0.00127 -0.00070363644
-0.0036701837 0.00127 -0.00088000012
0.0010486239 -0.00127 -0.0024672728
-0.0013981652 -0.00072571426 -0.00017454554
0.01363211 -0.00054428569 -0.0022909092
0.011709633 0 -0.0022909092
0.0026215597 -0.00018142856 -0.0061709094
0.015379817 0.00018142856 0.00053090905
-0.0078646792 -0.00127 -0.0014090911
0 -0.00018142856 -0.0074054548
-0.0076899086 0.00127 -0.00017454554
0.0027963305 0.00018142856 0.00035454539
0.0048935781 0 0.0017654545
0.0050683487 -0.00018142856 0.0024709092
0.0062917434 0.00036285713 -0.0022909092
0.0040197251 0.00127 -0.0019381819
-0.01066101 -0.00090714288 -0.0022909092
0.015379817 0 -0.0082872733
-0.017477065 -0.00127 -0.0014090911
0.017477065 -0.00127 -0.0021145456
0.00017477066 0.00018142856 -0.0068763639
0.014855505 0.00127 -0.0019381819
-0.0090880739 -0.00127 -0.0015854547
0.012758258 0.00036285713 -0.00017454554
-0.0024467891 0.00018142856 -0.0047600004
-0.015205046 0.00018142856 0.00053090905
0.0094376151 0.00127 -0.0010563637
-0.010136697 -0.00036285713 0.00035454539
-0.0083889915 0.00054428569 -0.0024672728
0.01870046 -0.00090714288 -0.0012327274
-0.010311469 0.00018142856 0.00035454539
0.012583487 -0.00018142856 0.0019418182
0.0052431193 -0.00018142856 -0.0047600004
-0.0010486239 0 -0.00017454554
-0.00017477066 0.00127 -0.0014090911
-0.015205046 -0.00127 -0.0010563637
-0.01887523 0.00090714288 -0.00017454554
0.010311469 0 -0.0040545454
-0.015554588 -0.0010885714 -0.0022909092
-0.017127523 0.00090714288 -0.0022909092
0.01905 0.00018142856 -0.0022909092
-0.018176148 -0.00127 -0.00035090919
0.017826606 0.00036285713 -0.00017454554
-0.0054178904 -0.00018142856 1.8181046e-06
0.0076899086 0.00127 -0.0010563637
-0.0092628449 0.00127 -0.00035090919
-0.015554588 0.00036285713 -0.0024672728
-0.012059174 0.00127 -0.00052727282
0.0094376151 -0.00127 -0.0014090911
0.018001378 0 0.00053090905
-0.010835781 0 -0.0024672728
-0.0078646792 -0.00018142856 -0.0040545454
-0.0052431193 0.00018142856 0.00053090905
-0.012408717 -0.00018142856 0.0017654545
0.0034954131 0.0010885714 -0.00017454554
-0.010311469 0 0.0012363635
0.0010486239 -0.00018142856 -0.00017454554
0.017651835 0 -0.0045836368
-0.0034954131 -0.00127 -0.00070363644
-0.01345734 -0.00127 -0.0014090911
0.0048935781 -0.00018142856 0.0008836363
-0.0015729358 -0.00036285713 -0.0024672728
-0.0073403674 -0.00018142856 0.00053090905
-0.015205046 0.00036285713 -0.004230909
0.0022720185 0 -0.0061709094
0.015554588 -0.00036285713 -0.00017454554
-0.0073403674 0 0.0008836363
0.011534863 -0.00127 -0.00070363644
-0.015205046 -0.00018142856 0.0024709092
0.01345734 -0.00127 -0.0012327274
0.012933028 -0.00127 -0.0022909092
0.0024467891 0.00054428569 -0.0024672728
-0.011534863 -0.00072571426 -0.00017454554
-0.015554588 0 0.0010599999
-0.013282569 0.00127 -0.0019381819
-0.016253671 0.00127 -0.0015854547
0.015379817 -0.00018142856 -0.0033490912
0.012933028 0.00018142856 -0.0026436364
-0.0029711011 0.00127 -0.00088000012
-0.017651835 0.00018142856 0.0014127273
-0.00087385328 0 -0.00017454554
0.0054178904 0.00127 -0.00070363644
-0.0022720185 -0.00018142856 0.0021181819
-0.012933028 -0.00018142856 0.00017818174
0.0085637616 0.00090714288 -0.00017454554
-0.01905 0.00054428569 -0.0014090911
0.0076899086 -0.00127 -0.0019381819
0.0022720185 0 -0.0056418185
-0.010136697 0.00036285713 -0.0029963637
0.0027963305 -0.00018142856 -0.0031727275
-0.0026215597 -0.00090714288 -0.00017454554
0.0087385327 -0.00127 -0.0019381819
-0.016428441 0.00127 -0.0012327274
0.005592661 0.00072571426 -0.00017454554
0.014505964 0.00127 -0.00070363644
-0.0041944957 0.00127 -0.0012327274
-0.015205046 0.00036285713 -0.003878182
0.0069908262 0.00036285713 -0.00017454554
-0.0057674316 -0.00072571426 -0.0022909092
-0.012583487 -0.00036285713 -0.0072290911
-0.017477065 0.00127 -0.00088000012
-0.0092628449 -0.00127 -0.00052727282
0.0020972479 -0.00054428569 -0.0024672728
-0.0010486239 0.00054428569 -0.00035090919
0.010311469 0.00018142856 0.0015890909
-0.0099619273 0 0.0010599999
-0.0078646792 0 0.0010599999
-0.0099619273 0 -0.003878182
0.010835781 0.00127 -0.0014090911
-0.01345734 -0.00127 -0.0019381819
-0.015030276 0 0.0008836363
-0.0050683487 -0.0010885714 -0.0022909092
0.010136697 -0.00036285713 -0.0070527275
0.0041944957 -0.00127 -0.0019381819
-0.0057674316 0.00036285713 -0.00017454554
0.015554588 -0.00054428569 -0.00035090919
-0.012059174 0.00072571426 -0.0024672728
0.015554588 0 0.00035454539
0.0092628449 0.00054428569 -0.00035090919
-0.015379817 0.00018142856 -0.0079345461
-0.015205046 -0.00090714288 -0.0022909092
0.017651835 0.00036285713 -0.003878182
0.010136697 0.00036285713 0.0010599999
0.0080394503 -0.00127 -0.00088000012
-0.012583487 0.00127 -0.0019381819
0.0026215597 0.00018142856 0.00035454539
-0.015030276 0 -0.0072290911
-0.012408717 -0.00018142856 0.0019418182
0.0024467891 0.00127 -0.00088000012
0.013107799 0.00127 -0.0019381819
-0.01852569 -0.00127 -0.0012327274
-0.012583487 0.00018142856 1.8181046e-06
-0.0012233945 -0.00127 -0.0022909092
0.0076899086 -0.00018142856 0.00035454539
0.0068160552 0.00090714288 -0.0024672728
0.011185322 0.00072571426 -0.00017454554
0.0073403674 0.00018142856 0.00017818174
-0.010311469 0.00090714288 -0.0024672728
