# .PCD v0.7 - Point Cloud Data file format
VERSION 0.7
FIELDS x y z
SIZE 4 4 4
TYPE F F F
COUNT 1 1 1
WIDTH 1219
HEIGHT 1
VIEWPOINT 0 0 0 1 0 0 0
POINTS 1219
DATA ascii
0.022303719 -0.00098777784 -0.0023361703
0.020204546 0.00014111112 -0.0076723406
0.012857438 -0.00014111112 6.5106382e-05
-0.030175619 0.00127 -0.0010021277
0.021516528 0.00127 -0.0018025532
0.014169421 0.00098777784 -0.00020170213
-0.017842975 -0.00014111112 -0.006871915
-0.030175619 -0.00127 -0.00020170213
0.030438017 0.00014111112 0.00059872342
0.026764462 -0.00098777784 -0.00020170213
0.0026239669 -0.00014111112 -0.00020170213
0.017580578 0.00098777784 -0.0023361703
0 0.00014111112 -0.0060714893
0.012857438 0.00014111112 6.5106382e-05
-0.031487603 0.00042333335 -0.0012689362
0.010495868 0.00127 -0.0023361703
-0.0023615703 -0.00127 -0.0015357446
-0.0076095043 0.00014111112 -0.0066051064
-0.013119834 -0.00127 -0.00046851064
-0.0078719007 -0.00127 -0.0020693617
0.012857438 0.00014111112 0.0003319149
0.0062975208 0.00042333335 -0.0023361703
-0.014956611 0.00014111112 -0.0042038299
0.024665289 -0.00127 -0.0023361703
0.0099710748 0.00127 -0.0018025532
0.025190083 0.00014111112 0.0019327659
0.028076446 -0.00042333335 -0.0023361703
-0.0049855374 0.00014111112 -0.0028697872
0.012857438 -0.00014111112 0.0021995744
0.023878099 -0.00014111112 -0.00020170213
0.0026239669 -0.00014111112 -0.0090063829
-0.0026239669 -0.00014111112 -0.006871915
-0.017580578 0.00014111112 -0.0052710637
0.011283058 0.00014111112 -0.00020170213
-0.010758264 0.00127 -0.00046851064
0.0055103307 -0.00127 -0.00073531916
-0.030700414 0.00070555555 -0.00046851064
0.022828512 -0.00127 -0.0020693617
0.019417355 -0.00127 -0.00046851064
0.024927685 0.00127 -0.0015357446
-0.03096281 0.00070555555 -0.00046851064
-0.012595042 -0.00014111112 0.0011323404
0.0002623967 -0.00127 -0.00046851064
0.026502065 -0.00070555555 -0.0023361703
-0.029650826 0.00014111112 -0.0023361703
0.0044607436 0.00127 -0.0010021277
-0.0041983472 0.00127 -0.0010021277
0.013119834 0.00070555555 -0.0023361703
0.021516528 -0.00042333335 -0.0023361703
0.0076095043 -0.00014111112 -0.0060714893
0.02938843 -0.00127 -0.0020693617
-0.0070847105 0.00098777784 -0.0023361703
0.028338842 0.00127 -0.0018025532
-0.0099710748 0.00014111112 0.0021995744
-0.0052479338 0.00098777784 -0.0023361703
0.030438017 -0.00014111112 -0.0028697872
0.0023615703 -0.00014111112 -0.004737447
0.012857438 -0.00014111112 0.0024663829
0.017318182 0.00070555555 -0.0023361703
-0.0099710748 -0.00014111112 -0.0087395748
-0.011807851 0.00098777784 -0.0023361703
-0.022566115 -0.00098777784 -0.0023361703
-0.031225206 -0.00014111112 -0.00020170213
-0.016530992 0.00127 -0.0015357446
-0.021254132 -0.00127 -0.0010021277
-0.030700414 -0.00014111112 -0.0028697872
-0.021778926 0.00014111112 -0.0023361703
-0.03096281 0.00098777784 -0.0023361703
0.022828512 0.00014111112 0.0011323404
-0.030700414 -0.00014111112 -0.0039370214
-0.017580578 0.00014111112 -0.0039370214
0.0065599172 -0.00098777784 -0.00020170213
0.0026239669 -0.00014111112 -0.0066051064
-0.018630166 -0.00127 -0.00046851064
-0.0044607436 0.00127 -0.00073531916
-0.024140496 -0.00127 -0.00020170213
0.0086590908 0.00127 -0.00020170213
0.028863637 0.00127 -0.00073531916
0.0078719007 0.00014111112 -0.0084727658
0.0010495868 0.00127 -0.00073531916
-0.0049855374 0.00127 -0.00073531916
-0.0073471074 0.00014111112 0.00059872342
0.025190083 -0.00014111112 -0.0074055321
-0.025714876 -0.00098777784 -0.00020170213
0.0052479338 0.00014111112 -0.0087395748
0.0007871901 0.00098777784 -0.00020170213
-0.0052479338 0.00014111112 -0.0090063829
0.014169421 0.00127 -0.0012689362
-0.020204546 0.00014111112 0.0011323404
0.015481405 0.00014111112 -0.0034034043
-0.020204546 -0.00014111112 -0.006871915
-0.022828512 -0.00014111112 -0.0087395748
-0.030438017 0.00014111112 -0.0058046808
0 -0.00127 -0.0023361703
0.015481405 -0.00014111112 -0.0042038299
-0.018892562 0.00127 -0.0023361703
-0.02702686 -0.00127 -0.00046851064
0.0028863635 -0.00098777784 -0.0023361703
0.023090908 0.00127 -0.0015357446
-0.022828512 -0.00014111112 -0.0036702128
-0.013119834 0.00042333335 -0.00046851064
-0.012857438 -0.00014111112 -0.0066051064
-0.020466942 0.00098777784 -0.0023361703
0.014956611 0.00127 -0.00073531916
0.0023615703 0.00014111112 0.0019327659
-0.021516528 0.00127 -0.0015357446
0.02545248 -0.00014111112 -0.0026029786
0.0057727271 -0.00014111112 -0.0023361703
0.022566115 -0.00098777784 -0.00020170213
0.0065599172 -0.00070555555 -0.00020170213
-0.012857438 0.00127 -0.0012689362
0.015481405 0.00127 -0.0018025532
-0.030175619 0.00127 -0.0012689362
-0.020466942 -0.00014111112 -0.0034034043
0.020729339 -0.00014111112 -0.00020170213
-0.022828512 0.00014111112 0.0024663829
0.020204546 -0.00014111112 -0.006871915
-0.0026239669 -0.00127 -0.0018025532
0.0073471074 0.00014111112 -0.0026029786
0.0023615703 -0.00098777784 -0.00020170213
0.020204546 0.00014111112 -0.0082059577
0.0052479338 0.00014111112 0.001399149
-0.028076446 -0.00014111112 -0.0087395748
0.0002623967 -0.00127 -0.0018025532
0.02545248 -0.00014111112 -0.0031365957
0.022828512 0.00014111112 -0.0076723406
-0.0020991736 -0.00127 -0.00020170213
0.028076446 0.00042333335 -0.00046851064
-0.0068223141 -0.00014111112 -0.0023361703
-0.022566115 -0.00127 -0.00046851064
-0.010495868 0.00127 -0.0015357446
0.016006198 0.00098777784 -0.0023361703
-0.011283058 -0.00127 -0.0020693617
0.022041323 -0.00127 -0.0023361703
-0.0047231405 -0.00127 -0.00020170213
-0.0002623967 -0.00014111112 -0.0052710637
0.0034111571 0.00127 -0.00073531916
0.012595042 -0.00070555555 -0.00020170213
-0.014956611 0.00127 -0.0015357446
-0.02938843 -0.00127 -0.00046851064
-0.015481405 0.00014111112 -0.0036702128
-0.024665289 -0.00042333335 -0.00046851064
-0.0049855374 -0.00127 -0.00020170213
-0.023090908 0.00127 -0.0015357446
0.017842975 0.00014111112 -0.0058046808
-0.0062975208 0.00098777784 -0.0023361703
0.015219009 0.00042333335 -0.0026029786
0.025190083 0.00014111112 -0.0074055321
-0.012595042 0.00014111112 -0.0044706385
-0.0020991736 0.00127 -0.0015357446
-0.023353305 -0.00042333335 -0.00046851064
0.0091838846 -0.00127 -0.00046851064
0.012857438 -0.00014111112 -0.006871915
0.026502065 0.00127 -0.00073531916
0.011545454 0.00127 -0.00046851064
-0.02545248 -0.00014111112 0.00086553191
0.010495868 0.00014111112 -0.0023361703
0.022828512 -0.00098777784 -0.0023361703
-0.025190083 0.00014111112 -0.0031365957
0.023090908 0.00014111112 0.0016659575
0.0034111571 0.00127 -0.0015357446
-0.031225206 -0.00014111112 -0.0023361703
-0.020204546 -0.00014111112 -0.0052710637
-0.013907025 -0.00070555555 -0.0023361703
-0.011545454 -0.00127 -0.0023361703
0.023090908 -0.00014111112 -0.0063382979
-0.0041983472 0.00014111112 -0.00020170213
-0.022828512 -0.00014111112 0.0027331915
0.0089214873 0.00127 -0.0023361703
0.023615703 0.00127 -0.0020693617
0.022303719 0.00042333335 -0.0023361703
0.0076095043 0.00127 -0.0012689362
-0.02545248 0.00127 -0.00020170213
-0.0023615703 -0.00014111112 -0.0063382979
-0.031225206 -0.00070555555 -0.0023361703
0.022828512 -0.00014111112 0.0021995744
0.02545248 -0.00127 -0.0020693617
0.0031487604 -0.00127 -0.0023361703
-0.030700414 0.00014111112 -0.0044706385
0.010495868 -0.00127 -0.0010021277
0.0026239669 -0.00042333335 -0.00046851064
0.012332644 0.00127 -0.0012689362
-0.030700414 -0.00098777784 -0.00020170213
0.020466942 0.00127 -0.0023361703
0.0055103307 0.00127 -0.00046851064
0.0068223141 0.00127 -0.0020693617
0.029913222 -0.00127 -0.0012689362
-0.025190083 -0.00127 -0.0012689362
-0.0083966944 0.00127 -0.0015357446
0.0023615703 0.00014111112 0.0011323404
0.02860124 -0.00127 -0.0018025532
-0.018630166 0.00127 -0.00046851064
0.027814049 -0.00127 -0.0023361703
0.011283058 0.00127 -0.00046851064
-0.0099710748 0.00014111112 -0.006871915
-0.02545248 -0.00042333335 -0.00046851064
0.0052479338 0.00014111112 -0.0036702128
-0.012595042 0.00127 -0.0023361703
-0.0073471074 -0.00127 -0.00046851064
-0.017842975 -0.00127 -0.00046851064
0.0062975208 -0.00042333335 -0.00046851064
0.020204546 -0.00098777784 -0.0023361703
-0.016793389 -0.00127 -0.0015357446
0.025977273 0.00098777784 -0.00020170213
-0.020204546 -0.00127 -0.0023361703
0.0099710748 0.00014111112 0.0011323404
0.022828512 0.00127 -0.0020693617
-0.012595042 0.00014111112 -0.004737447
0.011807851 -0.00127 -0.0015357446
0.017842975 -0.00014111112 -0.0028697872
-0.015219009 -0.00014111112 -0.0044706385
-0.019417355 -0.00042333335 -0.0023361703
-0.0002623967 0.00014111112 0.0024663829
-0.017580578 0.00014111112 -0.0063382979
0.023090908 -0.00014111112 0.0024663829
0.025714876 -0.00014111112 6.5106382e-05
0.020466942 0.00014111112 -0.0060714893
0.0002623967 0.00014111112 -0.0060714893
0.010233471 0.00014111112 0.0003319149
-0.010233471 0.00014111112 0.0021995744
0.006035124 0.00127 -0.00073531916
0.023353305 -0.00070555555 -0.00020170213
-0.02545248 -0.00014111112 0.00059872342
-0.0002623967 0.00014111112 -0.0028697872
0.015219009 0.00014111112 -0.0058046808
-0.030438017 -0.00014111112 0.0027331915
-0.024665289 0.00127 -0.00046851064
0.02545248 -0.00042333335 -0.0023361703
0.0002623967 0.00014111112 0.00059872342
0.02545248 0.00014111112 -0.0044706385
-0.016006198 -0.00014111112 -0.0023361703
0.022828512 -0.00042333335 -0.0023361703
0.01994215 0.00127 -0.00073531916
-0.0005247934 -0.00014111112 -0.00020170213
0.0026239669 0.00127 -0.00020170213
-0.0052479338 -0.00014111112 -0.00020170213
-0.0044607436 0.00127 -0.0020693617
0.017842975 -0.00127 -0.00073531916
-0.031487603 0.00098777784 -0.0020693617
-0.0097086774 -0.00127 -0.0010021277
-0.013644628 -0.00070555555 -0.00046851064
0.015743801 0.00098777784 -0.00020170213
0.01994215 0.00127 -0.0010021277
0.0081342971 0.00127 -0.00073531916
-0.027814049 -0.00014111112 6.5106382e-05
0.026502065 -0.00042333335 -0.0023361703
0.010233471 -0.00014111112 -0.0055378722
0.021516528 -0.00127 -0.0020693617
-0.0049855374 -0.00014111112 -0.0052710637
-0.018367769 0.00042333335 -0.0023361703
0.017580578 -0.00127 -0.00020170213
0.013119834 -0.00127 -0.00073531916
-0.0047231405 -0.00098777784 -0.00020170213
-0.020729339 -0.00098777784 -0.0023361703
-0.014956611 0.00127 -0.0018025532
-0.011807851 0.00014111112 -0.00020170213
0.015481405 0.00014111112 -0.0028697872
0.016006198 0.00042333335 -0.0023361703
-0.0089214873 0.00014111112 -0.00020170213
-0.019417355 -0.00070555555 -0.00046851064
0.017318182 0.00127 -0.0023361703
-0.022828512 -0.00014111112 0.0024663829
-0.024927685 0.00070555555 -0.0023361703
0.030438017 0.00014111112 -0.0055378722
0.0097086774 -0.00042333335 -0.0023361703
0.0073471074 0.00014111112 -0.0036702128
-0.0099710748 0.00042333335 -0.00046851064
0.030700414 -0.00014111112 -0.0039370214
0.012332644 -0.00127 -0.0010021277
-0.026764462 -0.00098777784 -0.00020170213
-0.0026239669 -0.00014111112 -0.0050042551
0.029126033 -0.00042333335 -0.00046851064
0.012857438 -0.00014111112 -0.0084727658
-0.012595042 -0.00014111112 -0.004737447
-0.015481405 0.00014111112 -0.0055378722
-0.030438017 0.00014111112 -0.006871915
-0.031487603 0.00014111112 -0.0010021277
0.016268594 -0.00014111112 -0.0023361703
0.026239669 -0.00127 -0.0018025532
0.0007871901 -0.00014111112 -0.00020170213
0.0026239669 0.00014111112 0.0027331915
0.010758264 0.00127 -0.0018025532
0.0091838846 -0.00127 -0.0012689362
0.025190083 -0.00014111112 0.0024663829
-0.0047231405 -0.00127 -0.0012689362
0.030438017 0.00127 -0.0023361703
-0.017580578 0.00127 -0.0012689362
0.023090908 0.00014111112 0.0021995744
0.025190083 -0.00014111112 -0.0028697872
0.030438017 0.00098777784 -0.00073531916
0.017842975 0.00014111112 -0.0044706385
-0.029126033 -0.00127 -0.00046851064
0.018892562 0.00127 -0.0018025532
0.0091838846 -0.00042333335 -0.0023361703
0.029913222 0.00098777784 -0.0015357446
-0.012857438 -0.00014111112 -0.0082059577
0.015219009 -0.00014111112 -0.0066051064
0.0073471074 -0.00014111112 -0.0039370214
-0.020204546 -0.00127 -0.0020693617
-0.0076095043 -0.00014111112 0.0021995744
-0.015219009 -0.00070555555 -0.0023361703
0.014169421 -0.00070555555 -0.0023361703
0.018367769 0.00127 -0.0010021277
-0.0010495868 -0.00127 -0.00020170213
0.0076095043 0.00014111112 0.0011323404
0.018892562 0.00127 -0.0023361703
-0.018630166 -0.00127 -0.0023361703
0.030438017 -0.00014111112 0.0019327659
0.0036735537 -0.00098777784 -0.00020170213
-0.020204546 -0.00127 -0.0012689362
0.0049855374 -0.00014111112 -0.0034034043
-0.0076095043 -0.00014111112 0.00059872342
-0.015219009 0.00014111112 -0.0066051064
-0.0057727271 -0.00042333335 -0.00046851064
-0.006035124 -0.00127 -0.00073531916
0.027814049 -0.00014111112 -0.0087395748
-0.009446281 0.00127 -0.0018025532
-0.0007871901 0.00014111112 -0.00020170213
-0.0049855374 0.00127 -0.0012689362
0.0076095043 -0.00014111112 0.0011323404
0.0002623967 -0.00014111112 -0.0066051064
-0.006035124 -0.00127 -0.00046851064
0.012595042 -0.00014111112 -0.0028697872
0.0034111571 -0.00127 -0.0012689362
-0.017580578 0.00070555555 -0.0023361703
-0.026764462 0.00127 -0.0023361703
-0.020204546 -0.00042333335 -0.00046851064
-0.030175619 0.00014111112 -0.0082059577
-0.0049855374 0.00014111112 -0.0074055321
-0.0052479338 0.00014111112 6.5106382e-05
0.0089214873 0.00127 -0.0015357446
0.009446281 0.00070555555 -0.0023361703
0.0086590908 0.00127 -0.0012689362
-0.026502065 0.00070555555 -0.00020170213
-0.0089214873 -0.00127 -0.00073531916
-0.0049855374 0.00014111112 -0.0036702128
-0.02860124 -0.00098777784 -0.0023361703
0.0049855374 0.00014111112 0.0024663829
-0.022566115 0.00042333335 -0.0023361703
-0.018367769 -0.00127 -0.0015357446
-0.024402892 0.00127 -0.0023361703
0.0089214873 -0.00014111112 -0.00020170213
0.0020991736 -0.00127 -0.0012689362
-0.012857438 -0.00127 -0.0010021277
0.0099710748 -0.00127 -0.0018025532
-0.025190083 -0.00014111112 -0.0026029786
-0.023878099 -0.00042333335 -0.00046851064
-0.020204546 0.00014111112 -0.0052710637
0.024927685 -0.00127 -0.0020693617
0.020204546 0.00014111112 -0.0090063829
-0.017580578 -0.00014111112 -0.0034034043
-0.0026239669 0.00014111112 -0.006871915
0.017055785 0.00014111112 -0.0023361703
-0.0062975208 0.00127 -0.00046851064
0.0073471074 -0.00014111112 0.00086553191
-0.010758264 0.00127 -0.0020693617
0.020466942 0.00014111112 -0.0084727658
-0.02860124 0.00127 -0.00046851064
-0.015481405 0.00014111112 -0.0031365957
-0.030700414 -0.00014111112 -0.004737447
-0.031487603 0.00014111112 -0.00046851064
0.029650826 -0.00014111112 -0.0023361703
-0.022303719 0.00127 -0.00046851064
-0.0070847105 -0.00127 -0.0018025532
-0.0081342971 -0.00070555555 -0.0023361703
0.015481405 0.00127 -0.00046851064
0.027551653 0.00127 -0.00020170213
-0.025190083 -0.00098777784 -0.00020170213
0.028338842 -0.00127 -0.0020693617
-0.0049855374 -0.00014111112 -0.0044706385
-0.031487603 0.00098777784 -0.0015357446
-0.0013119834 0.00014111112 -0.00020170213
0.0041983472 0.00127 -0.00046851064
0.030700414 0.00014111112 -0.0082059577
-0.0015743802 -0.00042333335 -0.0023361703
0.022566115 0.00014111112 -0.0060714893
-0.0041983472 0.00070555555 -0.0023361703
-0.0073471074 -0.00014111112 -0.0052710637
0.020204546 -0.00098777784 -0.00020170213
0.006035124 0.00070555555 -0.0023361703
0.0007871901 0.00127 -0.00073531916
-0.017580578 0.00014111112 0.00059872342
-0.010495868 -0.00127 -0.0020693617
0.011283058 0.00098777784 -0.0023361703
-0.021516528 -0.00127 -0.0018025532
-0.0073471074 0.00014111112 -0.0055378722
-0.029650826 -0.00127 -0.00046851064
-0.0026239669 0.00014111112 -0.0079391487
0.020466942 -0.00127 -0.0015357446
-0.0078719007 -0.00014111112 -0.00020170213
-0.0052479338 -0.00014111112 -0.0082059577
-0.015219009 0.00014111112 -0.0060714893
-0.014431818 0.00127 -0.00046851064
-0.023615703 -0.00127 -0.00073531916
-0.0089214873 -0.00014111112 -0.0023361703
-0.020466942 -0.00014111112 -0.00020170213
-0.011020661 -0.00042333335 -0.0023361703
0.0052479338 0.00014111112 -0.006871915
0.022828512 0.00042333335 -0.0026029786
0.0099710748 0.00014111112 0.00059872342
0.027814049 0.00014111112 -0.006871915
0.025190083 0.00014111112 -0.0052710637
-0.0076095043 0.00014111112 0.0019327659
0.012857438 0.00098777784 -0.0023361703
0.024140496 0.00127 -0.0012689362
0.025977273 0.00014111112 -0.00020170213
-0.017842975 -0.00014111112 -0.0079391487
0.0055103307 0.00042333335 -0.00046851064
0.025190083 0.00014111112 -0.00020170213
0.017842975 0.00127 -0.00046851064
0.0023615703 0.00014111112 -0.0071387235
-0.024665289 -0.00127 -0.0018025532
0.031487603 -0.00042333335 -0.00073531916
0.0049855374 0.00014111112 6.5106382e-05
-0.0005247934 -0.00127 -0.00046851064
0.020729339 0.00014111112 -0.00020170213
-0.0083966944 -0.00127 -0.0018025532
-0.0018367768 -0.00014111112 -0.00020170213
-0.012595042 0.00098777784 -0.0023361703
-0.0086590908 0.00127 -0.00073531916
-0.017580578 -0.00014111112 -0.0079391487
0.017580578 0.00070555555 -0.0023361703
0.0020991736 -0.00127 -0.00020170213
-0.0073471074 -0.00070555555 -0.00046851064
-0.0076095043 0.00098777784 -0.00020170213
0.0036735537 0.00070555555 -0.0023361703
0.0062975208 0.00127 -0.0023361703
0.022828512 0.00014111112 -0.0044706385
-0.029126033 0.00127 -0.00073531916
-0.020466942 0.00098777784 -0.00020170213
0.029126033 0.00098777784 -0.0023361703
-0.02545248 0.00014111112 -0.0026029786
-0.028076446 -0.00014111112 0.00059872342
0.012857438 0.00014111112 0.00059872342
0.0099710748 0.00014111112 -0.0066051064
-0.023090908 -0.00098777784 -0.0023361703
0.021516528 0.00127 -0.0010021277
0.015481405 -0.00127 -0.0012689362
0.0026239669 0.00070555555 -0.0023361703
-0.0099710748 0.00014111112 6.5106382e-05
-0.0026239669 0.00014111112 0.0027331915
0.027814049 -0.00127 -0.00073531916
-0.017055785 -0.00127 -0.0018025532
0.022828512 -0.00127 -0.00046851064
-0.023090908 -0.00014111112 -0.0071387235
0.0073471074 0.00127 -0.0010021277
0.025190083 0.00014111112 -0.006871915
0.020204546 0.00014111112 -0.00020170213
-0.0005247934 0.00042333335 -0.0023361703
-0.027814049 -0.00014111112 -0.0082059577
-0.031487603 0.00070555555 -0.0023361703
0.0078719007 -0.00014111112 -0.0063382979
-0.012595042 -0.00014111112 -0.0028697872
0.016793389 0.00127 -0.0018025532
-0.017580578 -0.00127 -0.0023361703
0.026764462 0.00127 -0.0020693617
0.022828512 0.00127 -0.0012689362
-0.0062975208 -0.00127 -0.0010021277
0.017842975 -0.00014111112 -0.0039370214
-0.015481405 0.00127 -0.0012689362
-0.012857438 0.00014111112 0.0011323404
0 0.00014111112 0.00059872342
-0.0039359503 -0.00127 -0.0012689362
-0.015219009 0.00014111112 -0.0087395748
-0.027814049 0.00014111112 6.5106382e-05
-0.031487603 -0.00098777784 -0.0023361703
0.0034111571 0.00127 -0.0020693617
-0.0089214873 -0.00127 -0.0012689362
0.030438017 0.00014111112 0.00086553191
0.012332644 0.00127 -0.00073531916
0.0005247934 0.00070555555 -0.0023361703
-0.011283058 -0.00098777784 -0.0023361703
-0.0091838846 -0.00127 -0.00046851064
0.027551653 -0.00014111112 -0.0023361703
0.019417355 0.00127 -0.0010021277
-0.024927685 -0.00127 -0.00073531916
0.01994215 0.00070555555 -0.0023361703
0.0099710748 0.00042333335 -0.00046851064
-0.0055103307 -0.00127 -0.00073531916
-0.0078719007 -0.00014111112 -0.0034034043
-0.013382231 -0.00070555555 -0.0023361703
0.012857438 -0.00014111112 -0.0036702128
0.016268594 -0.00127 -0.00020170213
-0.017055785 0.00070555555 -0.00020170213
0.018630166 -0.00070555555 -0.00020170213
0.015743801 -0.00014111112 -0.00020170213
0.020204546 -0.00127 -0.0020693617
0.015743801 0.00098777784 -0.0023361703
-0.027814049 0.00014111112 -0.0071387235
0.012595042 0.00014111112 0.0016659575
-0.0062975208 -0.00127 -0.0012689362
0.0091838846 0.00070555555 -0.0023361703
0.016006198 -0.00098777784 -0.00020170213
-0.027814049 0.00127 -0.0012689362
0 -0.00127 -0.0020693617
-0.027814049 -0.00014111112 -0.0055378722
-0.017580578 0.00014111112 0.0016659575
0.030700414 -0.00014111112 -0.0079391487
-0.0026239669 0.00014111112 -0.0066051064
-0.014956611 -0.00014111112 -0.0063382979
-0.0076095043 -0.00127 -0.0018025532
-0.010233471 -0.00014111112 -0.0050042551
-0.0089214873 -0.00127 -0.0015357446
0.0026239669 0.00014111112 -0.0036702128
0.02545248 -0.00014111112 -0.0039370214
0.014694215 -0.00070555555 -0.0023361703
-0.016793389 -0.00127 -0.0023361703
0.013644628 0.00127 -0.0012689362
0.031487603 -0.00042333335 -0.0012689362
-0.029650826 -0.00098777784 -0.0023361703
0.0070847105 0.00127 -0.0023361703
0.0052479338 -0.00014111112 -0.0034034043
-0.023878099 0.00127 -0.00046851064
-0.03096281 0.00098777784 -0.0010021277
-0.0099710748 -0.00127 -0.0023361703
-0.020204546 0.00127 -0.0010021277
0.017580578 -0.00042333335 -0.00046851064
-0.015481405 0.00127 -0.00073531916
-0.015481405 0.00014111112 0.00086553191
0.0081342971 0.00127 -0.00046851064
-0.027814049 -0.00014111112 -0.0066051064
-0.0068223141 0.00070555555 -0.00020170213
-0.017842975 0.00014111112 -0.0058046808
0.013119834 0.00098777784 -0.00020170213
-0.0052479338 -0.00014111112 -0.0060714893
-0.012595042 0.00014111112 -0.0034034043
-0.0036735537 0.00127 -0.00020170213
0 0.00014111112 -0.004737447
-0.0057727271 0.00127 -0.00073531916
0.020729339 0.00042333335 -0.00046851064
-0.028338842 -0.00042333335 -0.00046851064
0.019154958 0.00127 -0.0015357446
0.027814049 -0.00070555555 -0.0023361703
0.012595042 -0.00014111112 -0.0058046808
-0.015219009 -0.00014111112 6.5106382e-05
0.018367769 0.00127 -0.00073531916
0.025190083 0.00014111112 -0.0060714893
-0.017842975 0.00014111112 -0.0074055321
0.0089214873 0.00098777784 -0.0023361703
-0.023615703 -0.00098777784 -0.0023361703
0.015219009 -0.00127 -0.00020170213
0.024665289 -0.00127 -0.0018025532
0.0023615703 0.00014111112 -0.0052710637
0.029126033 0.00127 -0.00073531916
0.031487603 0.00042333335 -0.0023361703
0.019154958 -0.00127 -0.0020693617
0.023090908 0.00014111112 -0.0052710637
-0.0078719007 -0.00098777784 -0.00020170213
-0.0078719007 -0.00014111112 -0.0079391487
0.020204546 -0.00014111112 -0.0039370214
0.0039359503 -0.00127 -0.0020693617
-0.0078719007 0.00127 -0.00073531916
-0.0057727271 0.00127 -0.00020170213
-0.031225206 0.00042333335 -0.0023361703
0.022828512 -0.00098777784 -0.00020170213
0.019417355 0.00127 -0.00073531916
0.023090908 -0.00014111112 -0.006871915
-0.025977273 0.00127 -0.0015357446
0.010495868 -0.00014111112 -0.00020170213
0.012332644 0.00127 -0.0020693617
-0.0026239669 -0.00014111112 -0.0071387235
-0.022041323 -0.00127 -0.00046851064
-0.027814049 0.00127 -0.0015357446
0.026764462 0.00127 -0.0023361703
0 0.00042333335 -0.0028697872
0.01994215 -0.00127 -0.00020170213
-0.020204546 -0.00014111112 -0.0074055321
-0.020991735 -0.00127 -0.0020693617
0.012857438 0.00014111112 -0.0087395748
-0.012857438 0.00014111112 0.0021995744
0.012595042 -0.00070555555 -0.0023361703
0.022566115 0.00098777784 -0.0023361703
0.017580578 -0.00127 -0.0023361703
-0.014431818 0.00042333335 -0.00046851064
0.025190083 -0.00127 -0.0010021277
0.0070847105 0.00070555555 -0.00020170213
-0.017580578 -0.00070555555 -0.00046851064
0.0099710748 -0.00014111112 -0.0036702128
0.0073471074 0.00127 -0.00073531916
0.0049855374 0.00070555555 -0.0023361703
-0.015219009 -0.00014111112 -0.00020170213
-0.03096281 -0.00127 -0.0012689362
-0.0044607436 -0.00127 -0.0020693617
-0.015743801 -0.00127 -0.0018025532
0.010233471 -0.00127 -0.00046851064
0.016268594 0.00098777784 -0.0023361703
-0.0002623967 -0.00014111112 -0.004737447
0.010758264 0.00042333335 -0.00046851064
-0.0041983472 -0.00127 -0.00073531916
0.031225206 0.00042333335 -0.00046851064
0.0052479338 0.00014111112 -0.0026029786
0.015219009 -0.00014111112 0.001399149
0.015219009 0.00014111112 -0.0076723406
-0.025977273 -0.00127 -0.0018025532
0.028076446 -0.00014111112 -0.0079391487
0.029126033 0.00127 -0.0015357446
0.016006198 -0.00127 -0.0023361703
-0.0057727271 0.00014111112 -0.00020170213
-0.014694215 -0.00070555555 -0.00046851064
0.010758264 -0.00127 -0.0015357446
-0.022303719 -0.00070555555 -0.00046851064
0.030175619 -0.00014111112 -0.0023361703
-0.021254132 0.00014111112 -0.00020170213
-0.0031487604 0.00127 -0.0012689362
0.030438017 -0.00014111112 0.0011323404
-0.014956611 0.00014111112 -0.004737447
-0.0049855374 0.00042333335 -0.0023361703
0.030438017 -0.00014111112 -0.0082059577
0.026764462 0.00127 -0.0012689362
-0.013119834 -0.00127 -0.00020170213
0.019154958 0.00042333335 -0.00046851064
0.020204546 -0.00014111112 0.0003319149
0.021516528 -0.00127 -0.0012689362
0.013382231 0.00127 -0.0020693617
-0.016268594 0.00127 -0.00046851064
0.02702686 0.00127 -0.0010021277
0.0023615703 -0.00014111112 -0.0071387235
-0.0068223141 -0.00127 -0.0023361703
-0.0026239669 -0.00014111112 -0.0055378722
-0.02860124 0.00098777784 -0.00020170213
-0.0078719007 0.00014111112 -0.0060714893
0.012070248 0.00127 -0.00020170213
0.0028863635 0.00070555555 -0.0023361703
-0.0091838846 0.00014111112 -0.0023361703
-0.0018367768 0.00042333335 -0.0023361703
0.019154958 -0.00098777784 -0.00020170213
-0.0073471074 -0.00014111112 0.00059872342
-0.0013119834 0.00127 -0.00073531916
0.02545248 0.00098777784 -0.0023361703
0.027551653 -0.00014111112 -0.00020170213
-0.027289256 0.00014111112 -0.0023361703
-0.0078719007 -0.00014111112 -0.0063382979
0.0086590908 -0.00127 -0.00046851064
0.022828512 0.00014111112 -0.00020170213
0.025714876 -0.00070555555 -0.00020170213
-0.0052479338 -0.00014111112 0.0003319149
0.025190083 -0.00014111112 -0.0039370214
0.0039359503 -0.00042333335 -0.0023361703
0.02545248 0.00014111112 0.0024663829
-0.0099710748 -0.00014111112 -0.0058046808
-0.0026239669 0.00014111112 -0.0028697872
0.010233471 0.00014111112 -0.0039370214
-0.020991735 0.00042333335 -0.00046851064
-0.011807851 0.00070555555 -0.0023361703
0.026764462 0.00127 -0.00073531916
0.027814049 0.00014111112 -0.0058046808
-0.0055103307 0.00127 -0.0010021277
-0.0086590908 0.00127 -0.0023361703
0.015219009 -0.00014111112 -0.00020170213
-0.0023615703 -0.00127 -0.0012689362
-0.028338842 0.00098777784 -0.0023361703
0.0036735537 -0.00127 -0.00046851064
-0.0049855374 -0.00014111112 -0.0039370214
-0.022041323 0.00042333335 -0.0023361703
-0.0078719007 -0.00127 -0.0023361703
-0.016530992 0.00127 -0.0018025532
0.0073471074 -0.00014111112 -0.0066051064
-0.0023615703 0.00014111112 -0.0039370214
0.0031487604 -0.00042333335 -0.00046851064
-0.019679751 0.00127 -0.0020693617
-0.022828512 -0.00014111112 -0.0044706385
-0.0091838846 0.00070555555 -0.00020170213
-0.0047231405 0.00042333335 -0.00046851064
-0.014956611 0.00014111112 -0.0063382979
-0.012857438 -0.00014111112 -0.0052710637
-0.010233471 0.00127 -0.00046851064
-0.0073471074 0.00042333335 -0.00046851064
0.021516528 0.00070555555 -0.0023361703
-0.029913222 -0.00127 -0.0023361703
-0.030438017 -0.00014111112 0.00086553191
0.031225206 -0.00042333335 -0.00046851064
0.0097086774 0.00127 -0.00073531916
0.0026239669 -0.00014111112 0.00086553191
0.017055785 -0.00127 -0.00020170213
0 -0.00014111112 0.0021995744
-0.030700414 -0.00014111112 -0.0060714893
0.028338842 0.00127 -0.0012689362
0.014431818 0.00042333335 -0.0023361703
-0.016530992 -0.00042333335 -0.00046851064
0.011807851 0.00127 -0.0015357446
0.011807851 -0.00127 -0.0012689362
-0.022041323 -0.00127 -0.00073531916
0.020991735 -0.00127 -0.0018025532
-0.020204546 -0.00014111112 -0.0039370214
0.02545248 0.00014111112 -0.0034034043
0.030438017 0.00014111112 -0.0044706385
0.020204546 -0.00014111112 -0.0087395748
-0.030175619 0.00127 -0.00046851064
-0.028076446 0.00014111112 0.0024663829
0.013382231 0.00042333335 -0.0023361703
-0.012595042 0.00014111112 -0.006871915
0.020991735 -0.00070555555 -0.0023361703
0.015743801 0.00127 -0.00046851064
-0.030438017 -0.00127 -0.00020170213
0.02702686 -0.00070555555 -0.0023361703
-0.024402892 -0.00127 -0.00020170213
-0.009446281 0.00042333335 -0.0023361703
-0.0039359503 0.00098777784 -0.0023361703
0.025190083 -0.00014111112 -0.0087395748
0.012595042 -0.00127 -0.0012689362
-0.026239669 -0.00127 -0.0012689362
-0.028863637 -0.00127 -0.00020170213
-0.022566115 0.00014111112 -0.0023361703
0.028863637 -0.00098777784 -0.00020170213
0.028076446 0.00127 -0.0020693617
0.023878099 -0.00127 -0.00020170213
-0.025190083 -0.00014111112 0.0021995744
-0.010758264 -0.00014111112 -0.00020170213
-0.0049855374 -0.00014111112 -0.004737447
-0.027551653 -0.00098777784 -0.0023361703
-0.030438017 -0.00014111112 0.0016659575
0.012857438 0.00014111112 0.0019327659
-0.015481405 0.00070555555 -0.0023361703
0.0068223141 0.00098777784 -0.00020170213
-0.03096281 -0.00042333335 -0.0023361703
0.014956611 0.00014111112 -0.0071387235
-0.025190083 -0.00014111112 -0.0063382979
-0.0002623967 -0.00014111112 -0.0050042551
-0.016006198 -0.00127 -0.0018025532
-0.019679751 -0.00127 -0.0010021277
-0.014956611 0.00014111112 -0.0052710637
0.0052479338 0.00014111112 -0.0028697872
0.017580578 -0.00014111112 0.00086553191
0.012595042 -0.00014111112 0.00086553191
-0.031487603 0.00070555555 -0.00073531916
-0.0099710748 -0.00014111112 -0.0055378722
-0.020466942 0.00014111112 -0.0028697872
0.0013119834 -0.00127 -0.0018025532
0.014169421 0.00127 -0.0015357446
-0.015481405 0.00014111112 -0.0052710637
-0.019154958 0.00098777784 -0.0023361703
-0.012332644 -0.00127 -0.0020693617
0.0055103307 -0.00014111112 -0.00020170213
0.0091838846 -0.00014111112 -0.00020170213
0.02702686 0.00127 -0.00073531916
0.0039359503 0.00014111112 -0.00020170213
0.0076095043 0.00127 -0.0018025532
0.031225206 0.00098777784 -0.0020693617
0.011020661 -0.00014111112 -0.0023361703
-0.023090908 -0.00014111112 -0.0044706385
0.0023615703 0.00014111112 0.0016659575
0.0026239669 0.00014111112 -0.0034034043
0.012595042 0.00014111112 -0.0050042551
-0.011545454 0.00127 -0.00073531916
-0.0052479338 0.00042333335 -0.00046851064
0.025190083 0.00014111112 -0.0050042551
-0.0073471074 -0.00014111112 0.0016659575
0.030700414 0.00014111112 -0.0074055321
0.010233471 0.00014111112 0.0021995744
-0.014694215 -0.00127 -0.0010021277
0.0076095043 0.00014111112 0.0027331915
-0.022566115 -0.00127 -0.0023361703
-0.0041983472 0.00127 -0.00046851064
-0.0044607436 0.00042333335 -0.00046851064
-0.0023615703 0.00127 -0.0015357446
0.017055785 0.00042333335 -0.00046851064
-0.028076446 -0.00127 -0.00073531916
0 0.00127 -0.0015357446
0.020204546 0.00014111112 -0.0044706385
0.017842975 0.00127 -0.0010021277
0.0049855374 0.00014111112 -0.0031365957
0.016268594 0.00127 -0.0023361703
0.023878099 -0.00070555555 -0.00020170213
0.0070847105 -0.00042333335 -0.0023361703
-0.012857438 0.00014111112 -0.006871915
-0.014169421 0.00014111112 -0.0023361703
0.020204546 -0.00127 -0.0010021277
-0.009446281 -0.00127 -0.0010021277
0.0002623967 0.00127 -0.0010021277
0.02545248 0.00014111112 0.0019327659
0 -0.00014111112 -0.0071387235
-0.0039359503 0.00070555555 -0.0023361703
0.016530992 0.00070555555 -0.00020170213
-0.0028863635 0.00014111112 -0.0023361703
0.0070847105 -0.00127 -0.0023361703
0.0036735537 0.00127 -0.0010021277
0.0099710748 -0.00127 -0.00020170213
0.012595042 0.00014111112 -0.0079391487
-0.013907025 -0.00127 -0.0015357446
0.0049855374 0.00014111112 -0.0034034043
0.018892562 0.00098777784 -0.0023361703
0.022828512 0.00014111112 0.0021995744
-0.025977273 -0.00042333335 -0.0023361703
0.0065599172 0.00127 -0.00020170213
-0.013644628 0.00127 -0.00046851064
-0.02860124 0.00070555555 -0.00020170213
0.0057727271 0.00042333335 -0.00046851064
0.0034111571 0.00127 -0.0018025532
0.013119834 -0.00014111112 -0.00020170213
-0.02545248 0.00098777784 -0.00020170213
-0.0073471074 0.00014111112 -0.0050042551
0.021254132 -0.00127 -0.0010021277
-0.015481405 -0.00014111112 0.0019327659
-0.0047231405 0.00127 -0.00020170213
0.021254132 0.00127 -0.0018025532
0.017842975 -0.00014111112 -0.0036702128
0.015481405 0.00014111112 0.0016659575
-0.014956611 -0.00070555555 -0.00046851064
-0.020991735 -0.00042333335 -0.0023361703
0.0078719007 0.00014111112 -0.004737447
0.0039359503 -0.00127 -0.00020170213
-0.026764462 -0.00070555555 -0.0023361703
-0.017842975 0.00014111112 -0.0087395748
-0.0052479338 -0.00014111112 -0.0087395748
0.025190083 0.00127 -0.0023361703
-0.0068223141 0.00127 -0.0012689362
0.011283058 0.00127 -0.00020170213
0.017580578 -0.00014111112 -0.0039370214
0.012595042 -0.00127 -0.00046851064
0.0055103307 0.00127 -0.0020693617
-0.009446281 -0.00098777784 -0.00020170213
0.0076095043 -0.00014111112 0.00086553191
0.0047231405 0.00070555555 -0.0023361703
-0.017580578 -0.00014111112 0.00059872342
-0.012857438 0.00070555555 -0.0023361703
-0.018892562 0.00127 -0.0020693617
-0.0031487604 0.00127 -0.0018025532
0.015219009 -0.00014111112 -0.0052710637
0.018367769 -0.00127 -0.00046851064
-0.0083966944 0.00127 -0.0020693617
0.030700414 0.00014111112 -0.0028697872
0.0034111571 -0.00098777784 -0.0023361703
0.026502065 -0.00098777784 -0.00020170213
-0.0039359503 0.00070555555 -0.00020170213
-0.016006198 0.00070555555 -0.0023361703
0 -0.00014111112 -0.0044706385
0.0073471074 -0.00014111112 -0.0031365957
0.027289256 -0.00127 -0.0010021277
0.0002623967 -0.00014111112 0.00059872342
-0.0052479338 -0.00014111112 -0.0066051064
-0.010758264 -0.00070555555 -0.00046851064
-0.0044607436 0.00042333335 -0.0023361703
0.02545248 0.00070555555 -0.00020170213
0.021516528 -0.00127 -0.0023361703
0.015743801 -0.00042333335 -0.00046851064
0.026502065 -0.00098777784 -0.0023361703
-0.0068223141 -0.00042333335 -0.00046851064
0.028076446 0.00014111112 -0.0028697872
-0.0044607436 -0.00127 -0.0012689362
0.017580578 0.00014111112 6.5106382e-05
0.026764462 -0.00127 -0.0015357446
-0.0002623967 -0.00014111112 -0.0026029786
-0.012595042 0.00014111112 6.5106382e-05
-0.02702686 0.00098777784 -0.0023361703
-0.028076446 -0.00014111112 -0.0052710637
-0.020991735 -0.00127 -0.0015357446
-0.022303719 0.00127 -0.0023361703
-0.016268594 0.00070555555 -0.0023361703
0.0099710748 -0.00070555555 -0.0023361703
0.027814049 0.00014111112 -0.0044706385
0.0023615703 0.00014111112 -0.0031365957
-0.025714876 -0.00014111112 0.0016659575
-0.031487603 0.00014111112 -0.0012689362
0.016268594 0.00127 -0.0015357446
-0.0020991736 0.00127 -0.00073531916
-0.022828512 0.00014111112 -0.0082059577
-0.0044607436 -0.00042333335 -0.0023361703
0.012070248 0.00127 -0.0023361703
-0.029126033 0.00127 -0.0018025532
-0.016793389 -0.00127 -0.0012689362
-0.02545248 -0.00014111112 -0.0074055321
0.0013119834 0.00127 -0.0015357446
-0.020466942 0.00014111112 -0.0079391487
0.018367769 -0.00127 -0.00073531916
-0.017580578 0.00014111112 -0.0074055321
0.012070248 -0.00042333335 -0.0023361703
-0.0049855374 0.00014111112 -0.0026029786
-0.013119834 -0.00127 -0.0020693617
0.027814049 0.00014111112 -0.0087395748
0.019679751 0.00042333335 -0.0023361703
-0.010758264 -0.00127 -0.0020693617
0.0055103307 0.00127 -0.00020170213
-0.024665289 -0.00070555555 -0.0023361703
-0.0052479338 -0.00014111112 -0.0042038299
0.022828512 -0.00014111112 -0.0066051064
0.0091838846 0.00127 -0.00020170213
0.030438017 0.00014111112 -0.0079391487
0.014431818 -0.00042333335 -0.0023361703
-0.028076446 -0.00014111112 -0.0039370214
0.030175619 -0.00098777784 -0.00020170213
0.024927685 0.00042333335 -0.00046851064
0.012332644 0.00127 -0.0018025532
0.020204546 -0.00042333335 -0.0026029786
-0.030700414 0.00014111112 -0.0084727658
-0.0086590908 0.00127 -0.00046851064
-0.023090908 -0.00014111112 0.0019327659
0.019679751 -0.00014111112 -0.00020170213
-0.0091838846 0.00014111112 -0.00020170213
0.015743801 -0.00070555555 -0.0023361703
0.018367769 -0.00127 -0.0023361703
0.0023615703 -0.00014111112 -0.0031365957
0.011807851 0.00127 -0.0020693617
-0.013644628 0.00127 -0.0010021277
-0.0073471074 0.00014111112 0.0016659575
-0.018105371 -0.00127 -0.00020170213
-0.0026239669 0.00014111112 -0.0042038299
-0.0031487604 0.00127 -0.0020693617
-0.010233471 0.00014111112 -0.0090063829
-0.026502065 -0.00127 -0.0018025532
-0.0076095043 -0.00127 -0.0023361703
-0.0078719007 0.00014111112 -0.0063382979
-0.03096281 0.00098777784 -0.00046851064
0.022828512 0.00014111112 0.0024663829
-0.0055103307 0.00127 -0.0015357446
0.013382231 0.00127 -0.0023361703
-0.0023615703 0.00042333335 -0.00046851064
-0.02938843 -0.00042333335 -0.0023361703
-0.025190083 0.00014111112 -0.0042038299
0.0052479338 0.00014111112 -0.0084727658
0.028338842 0.00127 -0.00046851064
-0.02545248 0.00014111112 -0.0042038299
-0.0036735537 0.00098777784 -0.00020170213
0.023353305 -0.00098777784 -0.0023361703
-0.023353305 0.00070555555 -0.0023361703
-0.006035124 0.00127 -0.00073531916
-0.017580578 -0.00014111112 6.5106382e-05
-0.017842975 0.00127 -0.0018025532
0.023878099 0.00014111112 -0.0023361703
0.0036735537 0.00127 -0.0023361703
-0.010495868 0.00070555555 -0.00020170213
0.010495868 -0.00127 -0.0015357446
-0.0049855374 0.00014111112 0.0011323404
-0.025190083 0.00127 -0.0015357446
-0.012595042 -0.00127 -0.0023361703
0.017580578 -0.00014111112 -0.0058046808
-0.0002623967 0.00014111112 -0.0060714893
-0.012332644 0.00042333335 -0.00046851064
0.030700414 -0.00014111112 -0.0052710637
0.0083966944 -0.00127 -0.0012689362
-0.0099710748 -0.00014111112 -0.0052710637
-0.030700414 -0.00098777784 -0.0023361703
0.014956611 0.00098777784 -0.0023361703
-0.0023615703 0.00014111112 0.0024663829
0.012595042 -0.00014111112 -0.0044706385
-0.0078719007 -0.00070555555 -0.00046851064
0.021516528 0.00070555555 -0.00020170213
0.019679751 0.00127 -0.0023361703
0.017842975 0.00014111112 -0.0063382979
-0.012595042 0.00014111112 0.0021995744
0.017318182 0.00127 -0.0018025532
0.022828512 -0.00127 -0.0010021277
0.023090908 0.00127 -0.0012689362
0.028076446 0.00042333335 -0.0026029786
0.023353305 -0.00127 -0.00046851064
0.017318182 -0.00070555555 -0.0023361703
0.029126033 -0.00127 -0.0023361703
-0.015219009 -0.00127 -0.0015357446
0.017842975 -0.00014111112 -0.0044706385
0.018105371 0.00098777784 -0.00020170213
0.0023615703 -0.00014111112 0.0016659575
0.0007871901 -0.00042333335 -0.00046851064
0.020466942 -0.00127 -0.00046851064
-0.0052479338 -0.00127 -0.00020170213
-0.030700414 -0.00014111112 -0.0079391487
-0.020466942 0.00127 -0.00073531916
0.013907025 -0.00127 -0.0023361703
0.009446281 -0.00070555555 -0.0023361703
0.0091838846 -0.00042333335 -0.00046851064
0.022828512 -0.00014111112 -0.0058046808
0.017842975 0.00014111112 -0.0039370214
-0.0076095043 0.00127 -0.0023361703
0.029913222 -0.00127 -0.00046851064
0.018367769 -0.00127 -0.0018025532
-0.018892562 0.00070555555 -0.00020170213
-0.020729339 -0.00070555555 -0.00046851064
0.018892562 -0.00098777784 -0.0023361703
-0.0073471074 -0.00127 -0.00073531916
0.0005247934 0.00070555555 -0.00020170213
0.017842975 -0.00014111112 0.0019327659
0.010233471 0.00042333335 -0.0023361703
0.010233471 0.00014111112 6.5106382e-05
-0.028076446 -0.00070555555 -0.0023361703
0.028076446 0.00014111112 -0.0031365957
0.0081342971 0.00127 -0.0018025532
-0.010233471 0.00014111112 -0.006871915
-0.023615703 -0.00127 -0.0023361703
-0.0044607436 0.00070555555 -0.00020170213
0.013119834 -0.00014111112 -0.0023361703
-0.022303719 0.00127 -0.00020170213
-0.0023615703 -0.00127 -0.00046851064
-0.0036735537 -0.00127 -0.0015357446
0.012595042 -0.00014111112 -0.0055378722
0.015219009 -0.00014111112 -0.0042038299
-0.020466942 -0.00098777784 -0.0023361703
-0.0078719007 0.00014111112 0.0016659575
-0.03096281 -0.00098777784 -0.0023361703
0.030700414 -0.00014111112 -0.0028697872
-0.026764462 0.00127 -0.0018025532
0.014956611 -0.00127 -0.0012689362
0.031750001 0.00070555555 -0.0020693617
0.020466942 0.00127 -0.00073531916
-0.025714876 0.00127 -0.0015357446
-0.0023615703 0.00127 -0.00046851064
0.015219009 0.00014111112 -0.004737447
-0.0015743802 -0.00014111112 -0.0023361703
0.0023615703 0.00014111112 -0.00020170213
-0.010758264 -0.00127 -0.0015357446
-0.0002623967 0.00127 -0.0018025532
0.022828512 0.00014111112 6.5106382e-05
0.0049855374 0.00014111112 -0.0084727658
-0.028338842 0.00070555555 -0.0023361703
0.022828512 -0.00127 -0.0015357446
-0.030175619 0.00070555555 -0.0023361703
-0.027814049 -0.00014111112 0.001399149
-0.016530992 0.00014111112 -0.00020170213
0.02545248 -0.00014111112 0.0011323404
0.0065599172 -0.00014111112 -0.00020170213
0 0.00014111112 -0.0031365957
0.030175619 -0.00042333335 -0.00046851064
-0.010758264 -0.00042333335 -0.00046851064
-0.012332644 -0.00098777784 -0.00020170213
0.0073471074 -0.00014111112 -0.0063382979
0.022303719 -0.00014111112 -0.0023361703
0.026764462 -0.00127 -0.0023361703
-0.0020991736 -0.00070555555 -0.00046851064
-0.027551653 0.00127 -0.00020170213
0.016530992 -0.00070555555 -0.0023361703
-0.0065599172 0.00070555555 -0.00020170213
-0.012332644 0.00098777784 -0.00020170213
-0.02938843 -0.00127 -0.0012689362
0.0049855374 -0.00014111112 -0.0026029786
0.020466942 0.00014111112 -0.0050042551
-0.0018367768 -0.00127 -0.00046851064
0.027551653 0.00014111112 -0.0023361703
0.0057727271 0.00127 -0.0023361703
0.023090908 -0.00014111112 -0.0026029786
-0.0073471074 -0.00127 -0.0023361703
0.02545248 0.00014111112 -0.0087395748
0.012857438 -0.00127 -0.0018025532
-0.019417355 0.00127 -0.0012689362
-0.0097086774 0.00127 -0.00073531916
-0.029913222 -0.00042333335 -0.0023361703
-0.0031487604 -0.00127 -0.00020170213
0.021778926 0.00014111112 -0.00020170213
-0.02545248 -0.00042333335 -0.0026029786
0.0020991736 0.00127 -0.0023361703
-0.025714876 -0.00014111112 -0.0084727658
0.0026239669 -0.00127 -0.00073531916
0.02860124 -0.00127 -0.00020170213
0.0073471074 0.00014111112 -0.0034034043
-0.028863637 -0.00127 -0.0023361703
0.031750001 0.00042333335 -0.00073531916
-0.0068223141 0.00127 -0.0020693617
-0.0041983472 0.00127 -0.0023361703
0.012070248 0.00070555555 -0.0023361703
0.018105371 -0.00098777784 -0.0023361703
-0.0041983472 -0.00127 -0.0012689362
0.017580578 -0.00014111112 -0.0084727658
0.022566115 0.00014111112 0.0003319149
0.010758264 -0.00127 -0.00046851064
0.0026239669 0.00127 -0.0023361703
-0.022828512 -0.00014111112 -0.0082059577
0.017580578 0.00014111112 -0.0034034043
0.0026239669 0.00014111112 -0.0076723406
0.028338842 -0.00014111112 -0.00020170213
0.02938843 -0.00098777784 -0.0023361703
0.0091838846 0.00098777784 -0.0023361703
0.012857438 0.00014111112 -0.0079391487
-0.015219009 -0.00014111112 -0.0090063829
0.028863637 0.00127 -0.0018025532
-0.0052479338 0.00014111112 -0.00020170213
-0.013644628 -0.00127 -0.00046851064
-0.0026239669 -0.00127 -0.00046851064
0.03096281 0.00042333335 -0.00046851064
0.016793389 -0.00014111112 -0.00020170213
0.026239669 -0.00127 -0.0015357446
0.0083966944 -0.00127 -0.00046851064
-0.0081342971 0.00127 -0.0015357446
-0.021516528 -0.00042333335 -0.0023361703
-0.0062975208 -0.00042333335 -0.00046851064
-0.0026239669 -0.00098777784 -0.0023361703
0.014956611 -0.00042333335 -0.00046851064
-0.022828512 -0.00014111112 -0.00020170213
0.010233471 0.00014111112 -0.0028697872
-0.017580578 0.00014111112 -0.0079391487
0.025190083 -0.00014111112 -0.0044706385
-0.020204546 -0.00014111112 -0.0066051064
-0.023878099 0.00127 -0.00073531916
0.012595042 -0.00014111112 -0.0042038299
-0.028076446 0.00042333335 -0.0023361703
0.014169421 -0.00098777784 -0.00020170213
0.025977273 -0.00127 -0.0012689362
0.020466942 0.00014111112 -0.0066051064
0.0041983472 0.00042333335 -0.0023361703
-0.0065599172 0.00042333335 -0.0023361703
-0.0070847105 -0.00098777784 -0.0023361703
-0.028076446 -0.00127 -0.0020693617
0.022041323 -0.00070555555 -0.0023361703
0.031487603 0.00098777784 -0.0015357446
0.018105371 0.00127 -0.0020693617
-0.021516528 0.00098777784 -0.00020170213
0.029913222 0.00070555555 -0.00020170213
-0.016006198 0.00127 -0.00073531916
0.020204546 0.00014111112 -0.0028697872
0.0073471074 0.00098777784 -0.00020170213
-0.0068223141 0.00127 -0.00073531916
0.022566115 -0.00042333335 -0.00046851064
-0.0049855374 0.00070555555 -0.0023361703
0.013907025 -0.00042333335 -0.00046851064
-0.017842975 0.00014111112 -0.0090063829
0.015743801 -0.00127 -0.00046851064
-0.0047231405 0.00098777784 -0.00020170213
0.0089214873 -0.00098777784 -0.0023361703
0.0018367768 -0.00127 -0.00073531916
-0.025714876 -0.00014111112 0.0003319149
0.024402892 -0.00070555555 -0.00020170213
0.0010495868 -0.00127 -0.0018025532
0.0076095043 -0.00127 -0.00020170213
-0.022303719 -0.00042333335 -0.00046851064
0.0076095043 0.00014111112 -0.0058046808
-0.0020991736 -0.00098777784 -0.00020170213
0.030700414 0.00014111112 -0.0087395748
0.015481405 -0.00014111112 -0.0087395748
-0.017055785 0.00098777784 -0.0023361703
0.0086590908 -0.00098777784 -0.00020170213
-0.014956611 0.00014111112 -0.0087395748
0.024140496 -0.00127 -0.0023361703
-0.015481405 0.00127 -0.00046851064
0.0018367768 -0.00127 -0.0010021277
-0.025977273 -0.00127 -0.0023361703
-0.011807851 -0.00127 -0.00046851064
-0.021778926 0.00042333335 -0.0023361703
-0.015481405 -0.00014111112 -0.0050042551
-0.015481405 -0.00014111112 -0.0036702128
0.0010495868 0.00014111112 -0.0023361703
-0.015219009 0.00014111112 -0.0076723406
-0.0076095043 -0.00070555555 -0.0023361703
-0.029913222 -0.00070555555 -0.0023361703
0.017055785 0.00070555555 -0.0023361703
0.018367769 -0.00127 -0.0020693617
0.025714876 0.00014111112 0.0016659575
0.018105371 0.00014111112 -0.00020170213
-0.0010495868 -0.00127 -0.0010021277
0.020466942 0.00014111112 0.00059872342
-0.020466942 0.00014111112 -0.0087395748
-0.015481405 -0.00014111112 -0.0034034043
0.024402892 -0.00127 -0.0018025532
-0.030700414 0.00014111112 -0.0087395748
0.0049855374 -0.00014111112 -0.0028697872
0.02702686 0.00127 -0.0018025532
-0.012070248 0.00098777784 -0.0023361703
0.024665289 -0.00127 -0.0012689362
-0.0023615703 0.00014111112 -0.0050042551
-0.024665289 0.00127 -0.00020170213
-0.025714876 -0.00014111112 -0.0060714893
-0.0091838846 -0.00014111112 -0.00020170213
0.0091838846 -0.00127 -0.0018025532
0.0002623967 -0.00098777784 -0.00020170213
0.0091838846 0.00127 -0.0010021277
0.024665289 -0.00127 -0.00073531916
-0.028338842 0.00098777784 -0.00020170213
-0.031225206 -0.00098777784 -0.00020170213
-0.026502065 -0.00127 -0.0012689362
0.030438017 -0.00014111112 -0.00020170213
-0.0018367768 0.00127 -0.0020693617
0.020204546 0.00014111112 0.0016659575
0.017842975 -0.00127 -0.0018025532
0.019417355 -0.00127 -0.0010021277
0.023090908 0.00014111112 -0.0055378722
0.0015743802 -0.00098777784 -0.00020170213
-0.030438017 0.00014111112 -0.0044706385
-0.017842975 -0.00014111112 -0.0028697872
-0.025190083 0.00014111112 -0.0036702128
-0.020204546 0.00014111112 0.0024663829
0.0052479338 -0.00014111112 -0.0050042551
-0.0034111571 -0.00098777784 -0.00020170213
-0.030175619 0.00127 -0.0015357446
-0.023090908 0.00014111112 -0.0055378722
-0.012595042 -0.00127 -0.0020693617
-0.018105371 0.00127 -0.00073531916
-0.0076095043 0.00014111112 -0.0034034043
0.0002623967 0.00042333335 -0.00046851064
-0.014956611 0.00127 -0.00073531916
0.011020661 0.00127 -0.0015357446
-0.0097086774 -0.00127 -0.0015357446
-0.014956611 -0.00014111112 -0.0028697872
0 -0.00127 -0.0015357446
0.028076446 -0.00014111112 -0.0074055321
-0.0097086774 0.00042333335 -0.0023361703
0.017580578 -0.00014111112 -0.0066051064
0.0023615703 -0.00014111112 -0.0036702128
0.017842975 -0.00127 -0.0012689362
0.0073471074 0.00014111112 -0.0052710637
0.020466942 0.00127 -0.0015357446
0.015743801 -0.00127 -0.00073531916
-0.0078719007 0.00014111112 -0.0036702128
-0.0020991736 -0.00127 -0.0020693617
-0.021516528 -0.00127 -0.0010021277
0.027289256 -0.00098777784 -0.00020170213
0.031225206 -0.00098777784 -0.0012689362
-0.0020991736 -0.00042333335 -0.00046851064
-0.0023615703 -0.00014111112 -0.0084727658
0.0002623967 -0.00014111112 -0.0050042551
-0.024402892 -0.00127 -0.0018025532
-0.030175619 -0.00127 -0.0018025532
0.019417355 0.00127 -0.0023361703
0.012070248 0.00098777784 -0.0023361703
-0.017055785 -0.00127 -0.0010021277
0.020991735 0.00042333335 -0.0023361703
0.0023615703 -0.00127 -0.0020693617
-0.0049855374 -0.00042333335 -0.00046851064
0.031487603 -0.00014111112 -0.00020170213
-0.024927685 -0.00042333335 -0.00046851064
-0.028338842 -0.00127 -0.0010021277
0.02702686 0.00127 -0.0023361703
0.022566115 -0.00127 -0.0010021277
0.017842975 0.00014111112 -0.0036702128
0.018892562 -0.00127 -0.00073531916
0.012857438 -0.00127 -0.00046851064
0.024140496 0.00127 -0.0015357446
-0.025977273 -0.00014111112 -0.00020170213
0.014431818 -0.00127 -0.0018025532
0.030700414 0.00014111112 -0.0055378722
0.012857438 -0.00014111112 0.0016659575
-0.023615703 -0.00014111112 -0.00020170213
-0.015743801 0.00098777784 -0.0023361703
-0.0099710748 0.00014111112 -0.0079391487
-0.030438017 0.00014111112 -0.0087395748
-0.024927685 -0.00127 -0.0015357446
