# .PCD v0.7 - Point Cloud Data file format
VERSION 0.7
FIELDS x y z
SIZE 4 4 4
TYPE F F F
COUNT 1 1 1
WIDTH 1227
HEIGHT 1
VIEWPOINT 0 0 0 1 0 0 0
POINTS 1227
DATA ascii
0.01663354 0.00018142856 -0.0079552941
0.024026224 -0.00127 -0.0021352943
-0.011257042 0.00127 -0.00042352951
0.025370348 0.00127 -0.0017929412
-0.017641634 -0.00127 -0.0017929412
0.0052084825 0.00054428569 -0.0024776473
-0.01360926 -0.00018142856 -8.1176549e-05
0.030410815 0.00127 -0.0017929412
-0.024698287 0.00127 -0.0017929412
-0.011257042 0.00018142856 0.0012882353
0.041835874 0.00018142856 0.0019729412
-0.0035283267 -0.00018142856 0.00094588229
0.0035283267 0.00018142856 -0.0069282358
-0.021337977 -0.00127 -0.00076588243
0.011257042 -0.00127 -0.0024776473
-0.0042003891 -0.00090714288 -0.0024776473
0.0099129183 -0.00127 -0.0024776473
0.041835874 -0.00018142856 -0.0038470591
-0.0085687935 0.00054428569 -0.00042352951
-0.010921012 -0.00018142856 -0.0024776473
0.011257042 -0.00127 -0.00042352951
0.017305603 0.00054428569 -0.00042352951
-0.02234607 -0.00090714288 -0.0021352943
-0.011929104 0.00127 -0.00076588243
0.0078967316 -0.00127 -0.0024776473
-0.021674007 0.00018142856 -0.0038470591
0.016969571 -0.00054428569 -0.00042352951
-0.0068886378 0.00018142856 -0.0024776473
-0.030746847 -0.00127 -0.0017929412
0.013273229 -0.00127 -0.0011082354
-0.038139533 0.00127 -0.00042352951
-0.025370348 0.00090714288 -0.0021352943
0.041835874 0.00127 -0.0017929412
0.018985758 -0.00127 -0.0011082354
-0.01663354 -0.00127 -0.00076588243
-0.039483655 -0.00018142856 0.00026117641
-0.041163813 0.00054428569 -0.0021352943
0.031754941 -0.00127 -0.0014505883
0.04015572 -0.00127 -0.0021352943
-0.029402722 -0.00018142856 -0.0031623531
0.022682101 0.00127 -0.0021352943
0.010921012 0.00127 -0.0024776473
-0.037467469 0.00018142856 -8.1176549e-05
-0.041499842 -0.00018142856 -0.00042352951
-0.0065526068 0.00018142856 0.00060352933
-0.01629751 -0.00054428569 -0.0024776473
-0.038811594 0.00090714288 -0.0021352943
0.036459375 0.00127 -0.00076588243
-0.01629751 -0.00018142856 -0.0076129413
-0.017977664 0.00127 -0.00076588243
-0.01932179 0.00127 -8.1176549e-05
-0.0082327621 0.00054428569 -0.0024776473
0.001176109 0.00018142856 -0.0035047061
-0.017977664 -0.00054428569 -0.0021352943
0.01663354 0.00127 -0.0021352943
-0.012265136 0.00090714288 -8.1176549e-05
-0.036795408 0.00018142856 -0.0041894121
0.0099129183 0.00090714288 -8.1176549e-05
-0.018313697 -0.00127 -8.1176549e-05
0.028058598 -0.00127 -0.00042352951
0.020329883 -0.00018142856 -8.1176549e-05
0.031754941 -0.00018142856 -0.0038470591
-0.036795408 -0.00127 -0.0021352943
-0.030746847 -0.00127 -0.0024776473
0.0058805444 0.00018142856 -0.0024776473
0.0031922956 0.00127 -0.0011082354
0.022010038 0.00127 -0.00076588243
-0.0048724511 0.00127 -0.0011082354
0.011593074 -0.00018142856 -0.0035047061
0.029738754 -0.00127 -8.1176549e-05
-0.042843968 -0.00090714288 -0.0017929412
-0.020665914 0.00127 -0.0017929412
-0.039483655 0.00054428569 -0.0021352943
0.0048724511 -0.00127 -0.0011082354
-0.0018481711 0.00127 -0.0017929412
-0.032427002 -0.00127 -0.00076588243
-0.027722567 -0.00054428569 -0.00042352951
-0.030746847 -0.00127 -0.00042352951
-0.036795408 0.00018142856 -0.0062435297
-0.03410716 0.00018142856 -0.0024776473
0.01663354 0.00018142856 -0.0062435297
0.0065526068 -0.00018142856 -0.0059011765
-0.011257042 -0.00127 -0.0021352943
0.01629751 -0.00018142856 -0.0031623531
0.041835874 0.00018142856 -0.0072705885
-0.012265136 -0.00127 -0.0014505883
0.029402722 0.00090714288 -8.1176549e-05
0.021001944 0.00127 -0.00076588243
-0.025370348 0.00127 -0.0011082354
0.0078967316 0.00018142856 -8.1176549e-05
-0.001176109 0.00018142856 -0.0069282358
0.01965782 -0.00054428569 -0.0021352943
0.032427002 -0.00127 -0.0011082354
-0.0065526068 -0.00018142856 -0.0059011765
0.032427002 0.00127 -0.0017929412
0.026714474 0.00018142856 -0.0045317649
0.033099066 0.00127 -0.0011082354
-0.0025202334 0.00127 -0.00076588243
-0.029066691 -0.00018142856 0.0016305882
0.015289416 0.00127 -0.0014505883
0.031418908 0.00127 -0.0021352943
0.038811594 0.00127 -0.0011082354
-0.028730661 -0.00054428569 -0.0021352943
0.015289416 0.00054428569 -0.00042352951
-0.036123347 -0.00127 -0.00042352951
0.030074785 -0.00127 -0.0011082354
-0.024026224 -0.00018142856 -0.0031623531
-0.0052084825 -0.00127 -0.0017929412
0.040491749 0.00054428569 -0.0021352943
-0.039147627 -0.00127 -0.0021352943
0.036795408 0.00018142856 0.0016305882
-0.030410815 0.00127 -0.0024776473
0.024362255 0.00127 -0.0014505883
-0.0099129183 0.00127 -8.1176549e-05
-0.039483655 0.00018142856 0.0012882353
-0.011257042 0.00018142856 -0.0052164709
-0.019993851 0.00090714288 -8.1176549e-05
-0.039147627 0.00018142856 0.00094588229
-0.036123347 0.00127 -0.00042352951
-0.040827781 -0.00127 -0.0011082354
-0.03713144 -0.00090714288 -8.1176549e-05
0.00050404668 0.00127 -8.1176549e-05
-0.028394628 0.00127 -0.00042352951
-0.036795408 -0.00054428569 -0.00042352951
-0.026714474 0.00127 -0.0024776473
-0.026714474 0.00018142856 -0.0079552941
-0.03410716 -0.00018142856 -0.0076129413
-0.024698287 0.00054428569 -0.00042352951
0.028058598 0.00127 -0.0011082354
-0.025706381 0.00127 -0.0017929412
-0.029066691 0.00127 -0.0011082354
0.034443188 0.00127 -0.00076588243
-0.0062165754 -0.00018142856 -0.0031623531
0.016969571 -0.00090714288 -8.1176549e-05
0.027050504 0.00018142856 -8.1176549e-05
0.020329883 -0.00127 -0.0014505883
-0.026042411 -0.00090714288 -8.1176549e-05
-0.001176109 0.00018142856 -0.0079552941
-0.025034318 -0.00054428569 -0.0024776473
0.0078967316 -0.00018142856 -0.0024776473
0.03410716 -0.00018142856 -0.0031623531
-0.017305603 0.00127 -0.0024776473
0.042171907 0.00127 -0.0011082354
-0.00084007776 0.00127 -0.0014505883
-0.011929104 0.00054428569 -0.0024776473
0.032427002 0.00127 -0.0011082354
-0.0099129183 -0.00127 -0.00076588243
0.017305603 0.00127 -0.0014505883
0.0055445135 0.00127 -0.00042352951
0.018313697 -0.00054428569 -0.00042352951
0.012937197 -0.00127 -0.0024776473
-0.01629751 0.00127 -8.1176549e-05
0.01629751 -0.00127 -0.0014505883
-0.032090973 0.00090714288 -8.1176549e-05
-0.018985758 0.00018142856 0.0016305882
0.036795408 -0.00018142856 -0.0048741177
-0.028058598 -0.00127 -0.0021352943
0.020665914 0.00127 -0.00076588243
-0.042171907 -0.00018142856 -8.1176549e-05
-0.0042003891 -0.00127 -0.0014505883
-0.036795408 -0.00127 -8.1176549e-05
-0.026378442 -0.00127 -0.0011082354
-0.039819688 -0.00018142856 -8.1176549e-05
-0.014953384 0.00127 -0.0017929412
-0.027386535 -0.00018142856 -0.0021352943
-0.03410716 0.00054428569 -0.0024776473
-0.0099129183 -0.00127 -0.0011082354
0.041835874 0.00054428569 -0.0021352943
-0.024362255 0.00090714288 -0.0021352943
0.038139533 -0.00018142856 -0.00042352951
-0.0065526068 0.00018142856 -0.0048741177
0.031418908 0.00054428569 -0.00042352951
0.0021842022 0.00127 -0.00042352951
-0.0058805444 -0.00127 -0.0014505883
-0.015625447 -0.00090714288 -8.1176549e-05
-0.0062165754 0.00127 -0.00076588243
-0.0058805444 -0.00127 -0.0021352943
-0.026714474 -0.00018142856 0.0019729412
-0.036795408 0.00018142856 0.0012882353
-0.01629751 0.00127 -0.0011082354
-0.022010038 0.00090714288 -8.1176549e-05
0.031754941 0.00018142856 -0.0031623531
-0.029066691 0.00018142856 0.0016305882
0.0018481711 0.00054428569 -0.0024776473
-0.02234607 0.00054428569 -0.0021352943
-0.01663354 -0.00018142856 -0.0059011765
0.021337977 0.00018142856 -0.0045317649
0.0028562644 0.00018142856 -8.1176549e-05
-0.01663354 0.00018142856 -0.0035047061
-0.011929104 -0.00127 -0.0011082354
0.01629751 0.00018142856 -0.0045317649
0.027722567 0.00018142856 -8.1176549e-05
-0.041835874 0.00127 -0.0011082354
-0.030746847 0.00127 -0.0021352943
0.036459375 0.00127 -8.1176549e-05
-0.0062165754 0.00127 -0.0014505883
0.038139533 -0.00127 -0.0011082354
0.013945291 0.00018142856 -0.0028200001
0.01663354 0.00090714288 -8.1176549e-05
-0.0025202334 0.00090714288 -0.0024776473
0.0075607002 0.00127 -0.0014505883
0.028058598 -0.00127 -0.0017929412
0.0085687935 -0.00127 -0.00042352951
-0.02234607 0.00090714288 -0.0024776473
0.035115253 0.00018142856 -8.1176549e-05
0.0068886378 0.00090714288 -8.1176549e-05
0.026378442 0.00054428569 -0.0021352943
0.042507935 -0.00054428569 -0.0021352943
0.018649727 0.00127 -0.0011082354
0.014617354 -0.00054428569 -0.00042352951
0.029402722 0.00127 -0.00042352951
0.03713144 -0.00054428569 -0.00042352951
-0.008904825 -0.00127 -0.0014505883
-0.0021842022 -0.00127 -0.0011082354
-0.00016801555 -0.00127 -0.0017929412
0.033771127 -0.00127 -0.0011082354
0.00151214 -0.00018142856 -0.0079552941
-0.041499842 0.00127 -0.0017929412
0.025706381 -0.00090714288 -8.1176549e-05
0.012265136 -0.00127 -0.0011082354
-0.026714474 -0.00018142856 -0.0059011765
-0.008904825 -0.00018142856 -0.0031623531
-0.0058805444 -0.00127 -0.0011082354
-0.037467469 -0.00018142856 -0.0024776473
0.035115253 -0.00090714288 -0.0021352943
0.0031922956 -0.00127 -0.0024776473
-0.025706381 0.00090714288 -8.1176549e-05
0.029402722 0.00018142856 -0.0059011765
0.039483655 0.00018142856 0.00026117641
-0.00151214 0.00018142856 -0.0079552941
-0.036459375 0.00127 -0.00042352951
-0.0058805444 -0.00054428569 -0.00042352951
-0.041835874 0.00018142856 -0.0059011765
-0.0072246687 0.00127 -0.00042352951
0.011593074 -0.00018142856 0.0019729412
-0.014281322 -0.00018142856 0.0012882353
-0.017641634 0.00127 -0.0011082354
0.024362255 0.00090714288 -8.1176549e-05
-0.039483655 -0.00018142856 -0.0072705885
0.029066691 0.00018142856 -0.0038470591
-0.025034318 -0.00127 -0.0021352943
-0.0058805444 -0.00127 -8.1176549e-05
-0.025706381 -0.00127 -0.0024776473
-0.034443188 -0.00018142856 0.002315294
0.03410716 0.00018142856 0.0012882353
0.021337977 0.00018142856 -8.1176549e-05
-0.03713144 0.00127 -0.0021352943
-0.031754941 -0.00018142856 0.0012882353
-0.03410716 0.00018142856 -0.0076129413
0.0021842022 0.00127 -0.0024776473
-0.035115253 -0.00054428569 -0.00042352951
-0.030746847 -0.00090714288 -0.0024776473
-0.03410716 0.00018142856 0.002315294
0.01932179 0.00018142856 0.00026117641
-0.008904825 0.00127 -0.0011082354
0.0075607002 -0.00127 -0.00042352951
-0.0035283267 -0.00090714288 -0.0024776473
0.013945291 -0.00054428569 -0.00042352951
-0.022682101 0.00127 -0.0017929412
-0.041499842 0.00054428569 -0.0021352943
-0.014953384 -0.00054428569 -0.0024776473
0.00016801555 0.00127 -8.1176549e-05
0.041835874 0.00018142856 0.002315294
-0.023354162 -0.00127 -0.0014505883
0.00151214 -0.00018142856 -0.0072705885
-0.021337977 0.00018142856 0.0019729412
0.029066691 0.00127 -8.1176549e-05
-0.038139533 -0.00054428569 -0.0021352943
-0.0062165754 -0.00127 -0.00042352951
-0.00084007776 -0.00018142856 -0.0024776473
0.01663354 0.00054428569 -0.0024776473
0.034443188 -0.00018142856 -0.0031623531
-0.022010038 0.00127 -8.1176549e-05
0.01663354 0.00018142856 -0.0038470591
0.008904825 0.00127 -0.00042352951
-0.021674007 -0.00127 -0.0011082354
-0.0062165754 0.00018142856 -0.0072705885
0.01058498 -0.00127 -0.0017929412
-0.042171907 -0.00127 -0.00076588243
-0.025706381 -0.00090714288 -0.0024776473
0.017305603 -0.00127 -0.0017929412
-0.038811594 0.00054428569 -0.0021352943
0.00016801555 0.00018142856 -8.1176549e-05
0.00151214 0.00127 -0.00076588243
-0.031754941 0.00127 -0.00076588243
0.024362255 0.00127 -0.0017929412
0.02234607 -0.00090714288 -0.0021352943
0.039147627 -0.00018142856 -0.0062435297
-0.029066691 0.00018142856 -0.0035047061
-0.033435095 -0.00127 -0.0011082354
-0.0031922956 -0.00127 -0.00076588243
-0.041835874 -0.00018142856 -0.0052164709
0.039483655 0.00018142856 -0.0079552941
0.021337977 0.00018142856 -0.0062435297
0.00084007776 -0.00127 -0.0011082354
0.0042003891 -0.00127 -0.0011082354
-0.026714474 -0.00018142856 -0.0065858825
0.026378442 -0.00018142856 -8.1176549e-05
-0.008904825 0.00018142856 -0.0062435297
0.011257042 -0.00018142856 -0.0065858825
-0.031754941 -0.00018142856 -0.0055588237
-0.0025202334 -0.00054428569 -0.0024776473
0.024362255 -0.00018142856 -0.0072705885
-0.01663354 0.00018142856 -0.0031623531
0.0082327621 -0.00090714288 -8.1176549e-05
0.025706381 -0.00054428569 -0.0021352943
-0.0038643577 -0.00127 -0.0011082354
-0.029402722 -0.00018142856 -0.0045317649
-0.038139533 0.00018142856 -0.0021352943
-0.034443188 0.00127 -0.0017929412
0.03410716 0.00018142856 0.00094588229
0.031082878 0.00018142856 -8.1176549e-05
0.001176109 0.00018142856 0.002657647
-0.036123347 0.00127 -0.0011082354
-0.035115253 -0.00127 -0.0021352943
0.0052084825 0.00127 -0.00042352951
0.029066691 0.00018142856 0.00026117641
0.00050404668 0.00054428569 -0.00042352951
-0.013273229 0.00127 -0.0017929412
-0.0095768869 -0.00127 -0.00042352951
0.032427002 0.00127 -0.0021352943
0.008904825 -0.00018142856 -0.0065858825
-0.024698287 -0.00127 -0.0017929412
-0.008904825 0.00090714288 -0.0024776473
-0.0021842022 0.00018142856 -0.0024776473
-0.0052084825 -0.00054428569 -0.00042352951
0.023354162 0.00018142856 -0.0021352943
-0.042507935 0.00054428569 -0.0021352943
0.018313697 -0.00090714288 -0.0021352943
0.039483655 0.00090714288 -0.0021352943
-0.033435095 0.00127 -0.00076588243
0.029738754 0.00127 -0.0017929412
-0.021337977 0.00018142856 0.00026117641
0.031082878 -0.00018142856 -8.1176549e-05
0.014617354 -0.00018142856 -8.1176549e-05
0.024698287 0.00127 -8.1176549e-05
0.031082878 0.00090714288 -8.1176549e-05
0.033099066 0.00054428569 -0.0021352943
0.026378442 -0.00018142856 -0.0035047061
-0.011929104 0.00090714288 -8.1176549e-05
0.041835874 0.00018142856 0.00094588229
0.011593074 -0.00018142856 0.0016305882
0.039483655 -0.00054428569 -0.0021352943
-0.030074785 0.00018142856 -0.0021352943
0.023018131 0.00090714288 -8.1176549e-05
0.0078967316 -0.00127 -0.00042352951
-0.00151214 -0.00018142856 -0.0059011765
-0.041499842 -0.00127 -0.0014505883
0.025370348 0.00054428569 -0.0021352943
0.0042003891 -0.00018142856 -0.0024776473
-0.01360926 -0.00090714288 -0.0024776473
0.016969571 0.00127 -0.0021352943
-0.01965782 -0.00127 -0.0014505883
0.024026224 -0.00018142856 -0.0031623531
0.026378442 -0.00018142856 -0.0048741177
-0.03410716 -0.00127 -0.0014505883
-0.011593074 0.00054428569 -0.00042352951
-0.029402722 0.00018142856 0.0019729412
0.03410716 -0.00018142856 -0.0079552941
-0.011257042 0.00018142856 -0.0055588237
-0.030074785 -0.00090714288 -0.0021352943
0.0075607002 0.00127 -0.0021352943
0.00084007776 0.00054428569 -0.0024776473
0.011593074 -0.00127 -0.0011082354
-0.029402722 -0.00018142856 -0.0035047061
0.013945291 -0.00127 -0.0017929412
0.008904825 0.00018142856 -0.0048741177
0.038475562 -0.00090714288 -0.0021352943
0.0058805444 0.00127 -0.0021352943
0.0065526068 0.00018142856 -0.0024776473
-0.022682101 -0.00018142856 -0.0024776473
-0.013273229 0.00018142856 -0.0024776473
-0.039819688 -0.00127 -0.00076588243
-0.033771127 -0.00018142856 -8.1176549e-05
-0.018313697 0.00054428569 -0.0024776473
0.029066691 0.00018142856 -0.0065858825
0.034779221 -0.00090714288 -0.0021352943
0.026042411 0.00018142856 -0.0021352943
0.034779221 -0.00018142856 -8.1176549e-05
0.012937197 0.00018142856 -8.1176549e-05
-0.026714474 0.00018142856 -0.0035047061
0.01058498 0.00127 -0.0017929412
0.030074785 0.00090714288 -8.1176549e-05
-0.0065526068 0.00127 -0.0014505883
-0.033099066 -0.00127 -0.0011082354
0.018649727 -0.00090714288 -8.1176549e-05
0.032763034 -0.00090714288 -8.1176549e-05
0.0082327621 0.00127 -0.0014505883
-0.013945291 0.00018142856 -0.0076129413
-0.0035283267 -0.00018142856 -0.0052164709
0.008904825 -0.00018142856 -0.0048741177
-0.029402722 0.00018142856 -8.1176549e-05
0.034443188 -0.00018142856 -0.0045317649
0.0065526068 -0.00127 -0.0017929412
0.0018481711 0.00127 -8.1176549e-05
0.001176109 0.00090714288 -8.1176549e-05
-0.039483655 0.00090714288 -0.00042352951
-0.010248949 0.00127 -0.0024776473
0.030074785 0.00127 -0.0011082354
0.038811594 -0.00090714288 -0.0021352943
-0.040827781 -0.00127 -0.0017929412
0.017977664 -0.00127 -0.0014505883
-0.01629751 0.00018142856 -0.0059011765
-0.039819688 -0.00054428569 -0.00042352951
0.042843968 -0.00090714288 -0.00076588243
0.013945291 0.00018142856 -0.0072705885
0.039483655 -0.00127 -0.0014505883
0.0035283267 0.00018142856 -0.0059011765
0.034779221 -0.00127 -8.1176549e-05
0.041499842 -0.00127 -0.00076588243
0.0062165754 0.00018142856 -0.0031623531
0.040827781 -0.00127 -0.0021352943
-0.021337977 -0.00127 -8.1176549e-05
0.030746847 -0.00054428569 -0.00042352951
0.024362255 0.00018142856 -0.0041894121
0.029738754 0.00018142856 -0.0024776473
0.015961478 -0.00054428569 -0.0021352943
0.042843968 0.00090714288 -0.00042352951
0.028394628 -0.00127 -0.00042352951
-0.03713144 -0.00018142856 -0.0024776473
0.011593074 0.00018142856 0.00094588229
0.011593074 0.00018142856 0.00060352933
0.034443188 0.00018142856 0.002315294
0.0048724511 -0.00127 -0.00042352951
-0.0035283267 0.00127 -0.00076588243
-0.013945291 0.00018142856 -0.0045317649
-0.020665914 -0.00127 -0.0017929412
-0.0021842022 -0.00127 -0.0014505883
0.0045364201 -0.00127 -0.00076588243
-0.039147627 0.00018142856 -0.0062435297
-0.022010038 0.00090714288 -0.0021352943
-0.0065526068 0.00090714288 -0.0024776473
-0.018985758 -0.00018142856 0.00026117641
-0.029402722 0.00018142856 -0.0024776473
0.039483655 -0.00018142856 -0.0052164709
-0.027722567 0.00090714288 -0.0021352943
0.025370348 0.00127 -0.00042352951
0.0038643577 0.00127 -0.0024776473
-0.016969571 -0.00127 -0.00076588243
-0.039483655 0.00018142856 0.0019729412
-0.014281322 0.00054428569 -0.00042352951
0.029402722 0.00127 -0.0021352943
0.013273229 0.00127 -0.0021352943
-0.025370348 0.00127 -0.00042352951
0.008904825 -0.00018142856 0.0012882353
0.00084007776 -0.00018142856 -0.0024776473
0.014953384 0.00054428569 -0.00042352951
0.017977664 -0.00018142856 -8.1176549e-05
0.001176109 -0.00018142856 -8.1176549e-05
0.036795408 0.00018142856 -0.0076129413
0.0068886378 0.00127 -0.0017929412
0.026714474 0.00018142856 0.0016305882
0.024362255 -0.00090714288 -0.0021352943
0.024026224 0.00127 -0.0014505883
-0.031082878 0.00127 -0.00042352951
0.021674007 0.00018142856 -0.0038470591
0.0021842022 0.00018142856 -0.0024776473
0.008904825 -0.00018142856 -0.0038470591
-0.00050404668 0.00127 -0.00042352951
-0.029066691 -0.00018142856 0.00026117641
-0.031418908 0.00090714288 -0.0021352943
0.038139533 -0.00127 -0.0014505883
0.013945291 0.00018142856 0.00060352933
0.027722567 -0.00090714288 -8.1176549e-05
0.035115253 -0.00127 -0.00076588243
0.014281322 0.00127 -0.0014505883
0.032090973 -0.00127 -0.0017929412
0.03410716 0.00127 -0.0024776473
-0.020665914 0.00127 -0.00076588243
-0.03410716 0.00090714288 -0.0021352943
-0.035451282 0.00127 -8.1176549e-05
-0.037803501 -0.00090714288 -8.1176549e-05
-0.01629751 0.00018142856 -0.0076129413
-0.0021842022 0.00054428569 -0.00042352951
0.032090973 0.00127 -8.1176549e-05
0.029066691 -0.00127 -0.0014505883
0.021337977 -0.00054428569 -0.00042352951
0.032763034 -0.00127 -0.0011082354
0.01629751 -0.00090714288 -8.1176549e-05
-0.0065526068 -0.00054428569 -0.0024776473
-0.033435095 -0.00127 -0.0014505883
0.0065526068 -0.00018142856 -0.0045317649
-0.0028562644 -0.00127 -0.00076588243
-0.0078967316 -0.00018142856 -8.1176549e-05
-0.03713144 -0.00127 -0.00042352951
0.037467469 0.00090714288 -8.1176549e-05
-0.02234607 0.00127 -0.0017929412
-0.0038643577 0.00018142856 -0.0072705885
-0.037803501 -0.00127 -0.00042352951
0.022682101 -0.00018142856 -8.1176549e-05
0.039483655 0.00018142856 -0.0041894121
0.03410716 -0.00018142856 -0.0069282358
-0.031754941 0.00018142856 -8.1176549e-05
-0.037467469 -0.00127 -0.0017929412
-0.028394628 0.00127 -0.0014505883
0.01058498 -0.00018142856 -8.1176549e-05
-0.027050504 0.00127 -0.0011082354
0.024698287 0.00127 -0.00076588243
-0.0065526068 -0.00018142856 0.00094588229
0.039483655 -0.00127 -0.00042352951
0.012265136 0.00090714288 -0.0021352943
-0.031754941 -0.00127 -0.00076588243
0.019993851 -0.00054428569 -0.00042352951
0.031418908 0.00127 -0.00076588243
-0.0082327621 -0.00127 -0.0024776473
-0.011593074 -0.00018142856 -0.0045317649
-0.016969571 0.00127 -0.00076588243
-0.0035283267 -0.00018142856 -0.0045317649
0.013273229 -0.00127 -0.00076588243
0.024026224 -0.00054428569 -0.0024776473
-0.017977664 -0.00127 -0.0021352943
-0.041835874 0.00018142856 -0.0072705885
-0.011593074 0.00018142856 -0.0062435297
0.01663354 -0.00018142856 -0.0031623531
0.021337977 0.00090714288 -8.1176549e-05
0.042843968 0.00054428569 -0.00076588243
-0.026042411 -0.00090714288 -0.0021352943
0.031082878 0.00127 -0.0011082354
0.011257042 0.00018142856 -0.0072705885
-0.0055445135 0.00018142856 -0.0024776473
0.036795408 -0.00018142856 -0.0028200001
0.031754941 -0.00018142856 -0.0035047061
-0.0028562644 -0.00018142856 -8.1176549e-05
0.0028562644 -0.00127 -0.0021352943
0.01663354 -0.00018142856 0.002315294
-0.00084007776 0.00127 -8.1176549e-05
-0.014953384 0.00054428569 -0.00042352951
0.041835874 0.00090714288 -0.0021352943
0.030074785 0.00127 -0.0024776473
0.022682101 0.00018142856 -0.0021352943
0.018985758 -0.00018142856 -0.0062435297
-0.0038643577 -0.00018142856 -0.0045317649
0.008904825 0.00018142856 -0.0035047061
0.030410815 0.00127 -0.0024776473
-0.0038643577 0.00018142856 -0.0048741177
0.04015572 -0.00127 -0.00042352951
-0.012937197 0.00127 -0.0011082354
-0.0095768869 0.00054428569 -0.00042352951
-0.021674007 0.00127 -0.00076588243
-0.00016801555 0.00018142856 -8.1176549e-05
0.04015572 0.00127 -0.00076588243
-0.008904825 0.00054428569 -0.0024776473
-0.028730661 0.00127 -8.1176549e-05
0.0058805444 0.00018142856 -8.1176549e-05
0.042843968 0.00090714288 -0.0014505883
-0.031082878 0.00127 -0.0021352943
-0.029066691 0.00054428569 -0.00042352951
-0.020665914 0.00127 -8.1176549e-05
-0.017305603 -0.00054428569 -0.0024776473
-0.017305603 -0.00127 -0.0011082354
-0.021674007 0.00018142856 -0.0079552941
0.0018481711 0.00127 -0.00076588243
-0.011257042 -0.00054428569 -0.00042352951
-0.01663354 0.00018142856 -0.0079552941
0.031754941 -0.00018142856 -0.0048741177
-0.042507935 0.00127 -0.00076588243
0.011593074 -0.00018142856 -0.0052164709
-0.0065526068 0.00018142856 0.00094588229
-0.036459375 0.00018142856 -8.1176549e-05
0.030746847 0.00090714288 -8.1176549e-05
0.01932179 -0.00018142856 -0.0035047061
0.022010038 -0.00127 -0.00076588243
-0.024362255 0.00127 -0.0011082354
-0.038139533 0.00090714288 -8.1176549e-05
0.014617354 -0.00127 -0.0011082354
0.041835874 -0.00018142856 0.0016305882
-0.040827781 -0.00054428569 -0.0021352943
-0.00016801555 0.00127 -0.00042352951
0.029402722 0.00018142856 0.00094588229
-0.036459375 -0.00127 -0.00042352951
0.011257042 0.00018142856 -0.0062435297
0.0042003891 0.00090714288 -8.1176549e-05
0.024026224 0.00018142856 -0.0079552941
-0.021001944 0.00054428569 -0.0024776473
0.040827781 -0.00127 -8.1176549e-05
0.008904825 0.00018142856 0.0012882353
0.0078967316 0.00127 -8.1176549e-05
-0.036795408 0.00018142856 -0.0038470591
0.033099066 0.00127 -0.0014505883
-0.013945291 0.00127 -0.00076588243
0.00050404668 -0.00127 -0.0011082354
0.008904825 0.00018142856 0.00026117641
-0.012601167 0.00127 -0.0017929412
0.039147627 0.00127 -0.0014505883
0.031754941 0.00018142856 0.00094588229
-0.001176109 -0.00127 -0.00076588243
-0.038139533 -0.00054428569 -0.00042352951
-0.008904825 0.00018142856 -0.0052164709
0.015289416 0.00127 -0.0017929412
-0.027722567 0.00127 -8.1176549e-05
-0.017305603 0.00018142856 -0.0021352943
-0.024026224 0.00018142856 0.0016305882
-0.011257042 -0.00018142856 0.002315294
-0.034443188 -0.00018142856 -0.0059011765
-0.039483655 -0.00018142856 -0.0059011765
-0.017977664 0.00127 -0.00042352951
-0.033435095 0.00127 -0.00042352951
0.00050404668 -0.00127 -0.00042352951
-0.010921012 0.00127 -0.0017929412
-0.039147627 0.00018142856 -0.0055588237
0.0065526068 -0.00127 -0.00076588243
0.011929104 -0.00054428569 -0.0021352943
-0.023018131 -0.00054428569 -0.0024776473
-0.011593074 -0.00018142856 -0.0079552941
0.0078967316 0.00090714288 -0.0024776473
0.0028562644 -0.00018142856 -0.0024776473
-0.03410716 -0.00018142856 -0.0024776473
-0.0042003891 -0.00127 -0.0017929412
-0.031754941 0.00018142856 -0.0062435297
-0.015961478 -0.00127 -0.00076588243
0.026042411 0.00127 -0.0021352943
-0.0068886378 0.00054428569 -0.00042352951
0.011929104 0.00090714288 -0.0021352943
-0.021001944 -0.00018142856 -8.1176549e-05
-0.018985758 -0.00127 -0.0011082354
-0.012265136 -0.00127 -0.0011082354
0.023018131 0.00127 -0.00076588243
-0.026714474 0.00018142856 -0.0076129413
-0.00050404668 -0.00127 -0.0011082354
0.029738754 0.00127 -0.0021352943
0.024026224 -0.00018142856 -0.0045317649
-0.040827781 0.00018142856 -0.0021352943
-0.023018131 -0.00018142856 -8.1176549e-05
-0.029402722 -0.00018142856 -0.0062435297
-0.031754941 -0.00018142856 -0.0072705885
0.0068886378 -0.00127 -0.0024776473
-0.03410716 0.00018142856 -0.0079552941
0.03410716 -0.00127 -0.00042352951
-0.020665914 -0.00054428569 -0.0021352943
-0.01058498 0.00054428569 -0.00042352951
0.010921012 -0.00127 -0.0024776473
-0.0018481711 0.00127 -0.0021352943
0.001176109 -0.00018142856 0.00026117641
-0.01663354 0.00018142856 -0.0045317649
0.03410716 0.00018142856 -0.0072705885
-0.00016801555 -0.00090714288 -0.0024776473
-0.017977664 -0.00090714288 -0.0021352943
-0.023690194 0.00127 -8.1176549e-05
-0.04015572 -0.00127 -8.1176549e-05
-0.023018131 -0.00127 -0.0017929412
0.0048724511 -0.00127 -0.00076588243
0.0055445135 -0.00054428569 -0.0024776473
0.024026224 0.00018142856 0.0012882353
-0.022682101 -0.00127 -0.0011082354
0.017641634 0.00018142856 -8.1176549e-05
0.035115253 0.00127 -0.0014505883
-0.036795408 -0.00018142856 -0.0065858825
-0.01663354 0.00127 -0.0011082354
0.0085687935 0.00090714288 -8.1176549e-05
0.01663354 0.00018142856 -0.0072705885
-0.031754941 0.00018142856 0.00094588229
-0.0048724511 -0.00090714288 -0.0024776473
-0.041163813 -0.00127 -0.0014505883
-0.042507935 0.00127 -0.0014505883
-0.012265136 -0.00090714288 -0.0024776473
0.0025202334 -0.00090714288 -8.1176549e-05
-0.016969571 0.00127 -0.00042352951
0.0055445135 0.00127 -0.0021352943
0.024698287 -0.00127 -0.0017929412
0.024026224 0.00018142856 -8.1176549e-05
-0.018313697 -0.00018142856 -0.0021352943
0.042843968 -0.00054428569 -0.0017929412
-0.01058498 -0.00018142856 -0.0021352943
-0.042507935 0.00018142856 -0.0021352943
-0.021674007 -0.00054428569 -0.00042352951
0.023690194 0.00090714288 -0.0021352943
0.033099066 0.00127 -0.0017929412
0.03410716 -0.00018142856 -0.0059011765
0.032090973 0.00018142856 -0.0038470591
-0.028058598 -0.00127 -0.0014505883
0.041835874 -0.00127 -0.0021352943
-0.036795408 0.00127 -0.0017929412
-0.025706381 -0.00127 -0.0017929412
0.010248949 -0.00127 -0.0017929412
-0.0078967316 0.00090714288 -0.0021352943
0.0042003891 0.00127 -0.0024776473
-0.028058598 -0.00127 -0.0011082354
-0.01663354 0.00018142856 -0.0072705885
-0.001176109 0.00018142856 -0.0045317649
-0.024026224 -0.00054428569 -0.00042352951
-0.039147627 -0.00018142856 -0.0028200001
0.0078967316 -0.00018142856 -8.1176549e-05
0.01932179 -0.00127 -8.1176549e-05
-0.040491749 -0.00127 -0.00076588243
-0.0052084825 0.00090714288 -8.1176549e-05
-0.01058498 -0.00018142856 -8.1176549e-05
0.0085687935 -0.00018142856 -0.0024776473
-0.011257042 0.00018142856 0.00060352933
0.041835874 0.00018142856 -0.0062435297
0.031754941 -0.00018142856 -8.1176549e-05
-0.021674007 -0.00018142856 -0.0079552941
-0.021337977 -0.00018142856 -0.0055588237
0.028394628 0.00127 -0.0017929412
0.014281322 -0.00127 -0.00042352951
-0.026714474 -0.00018142856 0.00060352933
-0.041163813 0.00127 -0.0011082354
-0.0025202334 0.00054428569 -0.0024776473
-0.010248949 0.00127 -0.0021352943
0.030410815 -0.00127 -0.0011082354
-0.001176109 -0.00018142856 0.002315294
-0.026378442 -0.00127 -0.0014505883
-0.016969571 -0.00018142856 -8.1176549e-05
-0.020665914 0.00127 -0.0024776473
0.01663354 -0.00127 -0.0021352943
0.031082878 -0.00054428569 -0.00042352951
-0.01629751 -0.00090714288 -0.0021352943
0.031754941 0.00018142856 0.0012882353
-0.026042411 -0.00127 -0.00042352951
0.01932179 0.00018142856 0.00060352933
0.015625447 -0.00018142856 -8.1176549e-05
0.016969571 -0.00018142856 -8.1176549e-05
-0.0065526068 -0.00018142856 -0.0069282358
0.0062165754 0.00018142856 -0.0059011765
-0.024026224 0.00018142856 -0.0059011765
-0.012937197 -0.00127 -0.0024776473
0.041835874 0.00127 -0.00076588243
-0.0075607002 0.00127 -0.0014505883
0.042843968 0.00054428569 -0.0011082354
-0.0078967316 0.00090714288 -8.1176549e-05
-0.029402722 0.00054428569 -0.00042352951
0.015625447 0.00054428569 -0.00042352951
-0.03410716 -0.00018142856 0.00094588229
-0.025706381 0.00127 -0.0021352943
0.026714474 -0.00018142856 -0.0045317649
0.021674007 0.00018142856 0.00060352933
-0.031754941 -0.00018142856 0.0016305882
-0.010248949 0.00054428569 -0.0021352943
-0.034779221 0.00054428569 -0.00042352951
-0.036795408 0.00054428569 -0.00042352951
0.008904825 0.00054428569 -0.0024776473
0.027050504 0.00127 -8.1176549e-05
-0.029402722 0.00127 -0.00076588243
-0.023018131 -0.00127 -0.00076588243
-0.01932179 0.00127 -0.00042352951
0.041835874 -0.00018142856 0.0019729412
0.040491749 0.00090714288 -8.1176549e-05
-0.018985758 -0.00018142856 -0.0035047061
0.0025202334 -0.00127 -0.00076588243
-0.012601167 -0.00090714288 -0.0024776473
-0.012937197 -0.00018142856 -8.1176549e-05
-0.039147627 0.00018142856 0.0019729412
-0.029066691 -0.00090714288 -8.1176549e-05
0.034443188 -0.00127 -0.0014505883
-0.013945291 -0.00127 -0.0017929412
0.029402722 -0.00018142856 -0.0055588237
0.039483655 -0.00018142856 0.00026117641
-0.035451282 -0.00127 -8.1176549e-05
0.041163813 -0.00127 -0.0021352943
-0.011593074 -0.00018142856 0.002315294
-0.0092408555 -0.00127 -0.0021352943
-0.0095768869 -0.00127 -0.00076588243
-0.0085687935 -0.00127 -0.0011082354
0.039483655 -0.00127 -0.0021352943
-0.04015572 0.00054428569 -0.00042352951
0.035787314 0.00127 -0.00042352951
-0.015289416 0.00127 -0.0017929412
0.024362255 0.00018142856 -0.0072705885
0.024362255 0.00018142856 -0.0048741177
0.011593074 0.00127 -0.0014505883
-0.034443188 0.00018142856 -0.0028200001
-0.013945291 -0.00018142856 -0.0038470591
0.0018481711 -0.00127 -0.00076588243
-0.038475562 0.00018142856 -0.0021352943
0.019993851 -0.00054428569 -0.0021352943
-0.0092408555 0.00090714288 -8.1176549e-05
-0.038139533 0.00127 -8.1176549e-05
-0.0038643577 0.00127 -0.0024776473
-0.0075607002 -0.00127 -0.00076588243
-0.041835874 -0.00018142856 0.00094588229
0.008904825 0.00018142856 0.0016305882
-0.028058598 -0.00054428569 -0.00042352951
-0.001176109 -0.00018142856 -0.0028200001
-0.03713144 -0.00054428569 -0.00042352951
0.022682101 -0.00127 -0.0017929412
0.037467469 0.00054428569 -0.00042352951
-0.028730661 0.00127 -0.0017929412
-0.034443188 0.00018142856 -0.0072705885
0.00151214 -0.00018142856 -0.0076129413
-0.014617354 -0.00127 -0.0021352943
0.020329883 0.00127 -0.0017929412
0.001176109 -0.00018142856 -0.0052164709
0.03410716 -0.00018142856 -0.0048741177
0.0072246687 -0.00090714288 -0.0024776473
0.001176109 -0.00054428569 -0.0024776473
0.03410716 -0.00018142856 0.00026117641
-0.033435095 -0.00127 -8.1176549e-05
-0.029402722 0.00018142856 -0.0048741177
0.01932179 0.00127 -8.1176549e-05
-0.011929104 -0.00054428569 -0.00042352951
-0.0068886378 -0.00127 -8.1176549e-05
-0.035451282 0.00127 -0.00042352951
0.03713144 0.00090714288 -8.1176549e-05
-0.00151214 0.00127 -8.1176549e-05
0.023354162 -0.00127 -0.00076588243
-0.035787314 0.00127 -0.0017929412
-0.023018131 0.00090714288 -8.1176549e-05
0.021337977 -0.00018142856 -0.0035047061
0.01360926 -0.00054428569 -0.0024776473
-0.00084007776 0.00018142856 -8.1176549e-05
0.0062165754 0.00054428569 -0.0024776473
0.0085687935 0.00018142856 -0.0024776473
-0.0018481711 -0.00127 -0.00076588243
0.04015572 0.00127 -0.0021352943
-0.035451282 0.00127 -0.0011082354
0.028394628 0.00054428569 -0.00042352951
-0.01932179 -0.00090714288 -0.0024776473
0.033771127 -0.00054428569 -0.0024776473
0.026714474 0.00018142856 -0.0028200001
0.0035283267 0.00018142856 -0.0031623531
-0.03410716 0.00018142856 -0.0031623531
0.015961478 0.00127 -8.1176549e-05
-0.0018481711 -0.00127 -0.0021352943
-0.024026224 -0.00018142856 0.0019729412
-0.037467469 -0.00054428569 -0.0024776473
0.0021842022 0.00127 -0.0021352943
-0.0072246687 0.00054428569 -0.0024776473
0.041499842 0.00018142856 -0.0021352943
-0.00050404668 0.00127 -0.0021352943
-0.041835874 -0.00018142856 0.00060352933
0.03410716 0.00018142856 -0.0065858825
-0.0042003891 -0.00018142856 -0.0024776473
0.01629751 -0.00054428569 -0.00042352951
0.026378442 -0.00018142856 0.0016305882
-0.024026224 0.00127 -0.00076588243
-0.02234607 0.00127 -0.0024776473
0.039147627 -0.00018142856 -0.0041894121
-0.02234607 -0.00127 -0.0011082354
-0.039483655 -0.00127 -0.0014505883
0.0038643577 -0.00018142856 -0.0069282358
0.024026224 -0.00018142856 -0.0062435297
-0.025034318 -0.00054428569 -0.00042352951
0.036795408 0.00018142856 -0.0024776473
-0.032427002 -0.00018142856 -8.1176549e-05
-0.031418908 -0.00090714288 -0.0021352943
0.032090973 0.00018142856 -0.0076129413
0.011257042 0.00018142856 -0.0055588237
-0.036795408 -0.00018142856 0.00026117641
-0.038811594 0.00127 -0.0014505883
0.0021842022 -0.00127 -0.0017929412
-0.0068886378 -0.00090714288 -8.1176549e-05
-0.042843968 0.00018142856 -0.0011082354
0.022010038 0.00127 -0.0021352943
-0.029066691 -0.00054428569 -0.00042352951
0.020329883 0.00127 -0.0011082354
-0.036123347 0.00127 -8.1176549e-05
0.00084007776 0.00018142856 -0.0024776473
0.027050504 0.00054428569 -0.0021352943
-0.024026224 0.00127 -0.0017929412
0.01629751 0.00018142856 -0.0028200001
0.033771127 0.00127 -0.00076588243
0.01932179 -0.00127 -0.0021352943
-0.001176109 -0.00090714288 -0.0024776473
-0.039483655 -0.00127 -0.0017929412
0.026714474 -0.00018142856 -0.0055588237
0.0082327621 0.00127 -0.0011082354
0.023018131 0.00127 -0.0011082354
-0.039483655 0.00018142856 0.002657647
-0.018985758 -0.00054428569 -0.0024776473
-0.001176109 0.00018142856 -0.0035047061
-0.014281322 -0.00127 -8.1176549e-05
0.035115253 -0.00127 -8.1176549e-05
0.001176109 0.00127 -0.0017929412
-0.042507935 0.00127 -0.00042352951
-0.0068886378 0.00018142856 -8.1176549e-05
0.038811594 -0.00018142856 -0.0021352943
0.037803501 0.00127 -8.1176549e-05
0.008904825 -0.00090714288 -8.1176549e-05
0.01932179 -0.00054428569 -0.0021352943
-0.0048724511 0.00054428569 -0.0024776473
-0.039483655 -0.00054428569 -0.0024776473
0.0068886378 -0.00018142856 -0.0024776473
-0.0085687935 -0.00054428569 -0.0024776473
0.034443188 -0.00054428569 -0.0021352943
0.021337977 -0.00018142856 -8.1176549e-05
0.015625447 -0.00090714288 -0.0024776473
0.028058598 0.00054428569 -0.0021352943
-0.030074785 -0.00018142856 -0.0024776473
0.033771127 0.00090714288 -8.1176549e-05
0.026042411 -0.00090714288 -0.0021352943
-0.0052084825 -0.00127 -0.0011082354
0.0042003891 -0.00090714288 -0.0024776473
-0.036459375 0.00090714288 -0.0021352943
0.010921012 -0.00054428569 -0.0021352943
-0.035115253 0.00127 -0.0014505883
-0.013945291 0.00127 -0.00042352951
-0.0045364201 -0.00127 -0.0017929412
0.0075607002 0.00127 -0.00076588243
0.034443188 -0.00018142856 -0.0076129413
0.024698287 -0.00127 -0.00042352951
0.021337977 -0.00054428569 -0.0024776473
-0.036459375 -0.00054428569 -0.00042352951
-0.014281322 -0.00018142856 0.002315294
-0.008904825 0.00018142856 -0.0076129413
-0.00016801555 0.00127 -8.1176549e-05
-0.01932179 -0.00054428569 -0.0024776473
-0.014617354 0.00018142856 -8.1176549e-05
0.022010038 -0.00090714288 -8.1176549e-05
-0.026378442 -0.00127 -0.00042352951
0.00016801555 0.00127 -0.0021352943
0.032763034 0.00054428569 -0.0021352943
-0.015961478 0.00127 -8.1176549e-05
-0.034443188 -0.00127 -0.0021352943
0.00151214 -0.00018142856 -0.0041894121
0.0031922956 -0.00018142856 -8.1176549e-05
-0.019993851 0.00018142856 -0.0021352943
-0.041163813 -0.00127 -0.0017929412
-0.0092408555 -0.00127 -0.00076588243
-0.042843968 -0.00090714288 -0.00042352951
0.010921012 0.00127 -0.0011082354
-0.034443188 0.00090714288 -8.1176549e-05
-0.042843968 -0.00018142856 -0.0021352943
-0.024362255 0.00090714288 -8.1176549e-05
0.0042003891 -0.00127 -8.1176549e-05
0.001176109 -0.00018142856 0.00060352933
-0.038811594 -0.00127 -8.1176549e-05
-0.033099066 0.00127 -0.0011082354
-0.031754941 0.00018142856 -0.0035047061
-0.040827781 0.00018142856 -0.00042352951
0.032427002 0.00127 -0.00076588243
-0.013945291 -0.00018142856 -0.0072705885
0.018985758 -0.00127 -0.0017929412
-0.008904825 -0.00018142856 -0.0065858825
-0.011593074 -0.00018142856 -0.0028200001
-0.016969571 -0.00127 -0.0017929412
0.026042411 -0.00127 -0.0021352943
-0.01058498 -0.00090714288 -8.1176549e-05
0.017977664 -0.00090714288 -0.0021352943
0.010248949 -0.00090714288 -0.0021352943
-0.011593074 -0.00018142856 0.0019729412
0.017641634 -0.00090714288 -8.1176549e-05
-0.021001944 0.00018142856 -0.0024776473
-0.024362255 -0.00127 -0.0021352943
0.029402722 -0.00018142856 -0.0045317649
0.039819688 -0.00127 -0.0014505883
0.024026224 -0.00018142856 0.00060352933
0.00084007776 -0.00054428569 -0.0024776473
0.01360926 0.00127 -0.00042352951
-0.029738754 -0.00054428569 -0.0024776473
0.026378442 -0.00127 -8.1176549e-05
-0.0062165754 -0.00018142856 -0.0038470591
0.016969571 0.00127 -0.0024776473
-0.029402722 -0.00018142856 -0.0028200001
0.037467469 -0.00127 -0.0011082354
-0.039483655 0.00127 -0.00042352951
0.022682101 -0.00127 -8.1176549e-05
-0.011593074 -0.00018142856 -0.0065858825
0.008904825 0.00018142856 0.002315294
-0.011929104 -0.00018142856 -0.0024776473
-0.013945291 0.00018142856 -8.1176549e-05
-0.026042411 0.00127 -0.0024776473
0.029066691 -0.00018142856 -0.0031623531
-0.0038643577 0.00018142856 -0.0076129413
0.038811594 0.00018142856 -0.0021352943
-0.024026224 0.00018142856 -0.0041894121
-0.026042411 0.00127 -0.0021352943
0.013945291 0.00018142856 -0.0059011765
0.039483655 0.00018142856 -8.1176549e-05
-0.024362255 0.00127 -0.0024776473
-0.0025202334 0.00127 -0.0014505883
-0.0038643577 -0.00018142856 -0.0031623531
-0.014281322 -0.00018142856 -0.0055588237
0.041835874 0.00018142856 -0.0048741177
-0.02234607 -0.00090714288 -8.1176549e-05
-0.018313697 -0.00090714288 -8.1176549e-05
0.001176109 -0.00018142856 -0.0065858825
0.029066691 0.00127 -0.0011082354
-0.014953384 -0.00090714288 -8.1176549e-05
0.010921012 -0.00127 -0.0014505883
-0.024026224 0.00018142856 -0.0062435297
-0.029066691 0.00018142856 -0.0069282358
-0.030746847 0.00127 -0.00042352951
-0.035115253 0.00127 -0.00042352951
0.01932179 -0.00018142856 -0.0076129413
-0.032090973 0.00127 -0.00042352951
0.03410716 0.00018142856 0.00026117641
0.001176109 0.00018142856 -0.0062435297
0.017977664 0.00054428569 -0.00042352951
-0.025034318 -0.00018142856 -0.0024776473
0.010248949 -0.00127 -0.0011082354
-0.034779221 0.00090714288 -8.1176549e-05
-0.0082327621 0.00127 -0.00042352951
0.013945291 -0.00127 -8.1176549e-05
0.014281322 -0.00127 -0.0011082354
0.033099066 -0.00054428569 -0.00042352951
0.01965782 0.00054428569 -0.0021352943
0.035787314 0.00127 -0.0017929412
0.0065526068 0.00018142856 0.00060352933
-0.037803501 0.00127 -0.0021352943
0.015961478 0.00090714288 -8.1176549e-05
-0.01058498 -0.00127 -0.0021352943
0.0035283267 -0.00018142856 -0.0065858825
0.036459375 -0.00018142856 -0.0024776473
-0.025034318 0.00127 -0.00076588243
0.0052084825 0.00127 -0.0017929412
-0.0082327621 -0.00127 -8.1176549e-05
0.008904825 0.00018142856 -0.0076129413
0.0095768869 0.00018142856 -8.1176549e-05
0.0038643577 0.00018142856 -0.0076129413
-0.030074785 0.00127 -0.0021352943
0.00050404668 -0.00127 -0.0017929412
-0.0062165754 0.00018142856 0.00026117641
0.0082327621 0.00127 -0.00076588243
0.023690194 -0.00127 -0.0024776473
0.019993851 -0.00127 -0.0021352943
-0.0072246687 -0.00127 -0.0024776473
-0.034779221 -0.00127 -0.0017929412
0.04015572 -0.00090714288 -0.00042352951
-0.0018481711 -0.00127 -0.0017929412
0.039483655 0.00018142856 -0.0035047061
-0.0048724511 -0.00127 -0.00042352951
-0.027050504 0.00127 -8.1176549e-05
-0.021337977 -0.00018142856 -0.0076129413
0.0038643577 0.00018142856 -0.0035047061
0.029066691 0.00018142856 0.00060352933
-0.029066691 -0.00018142856 0.002315294
-0.038139533 -0.00127 -0.0014505883
-0.01932179 0.00127 -0.0017929412
0.039147627 -0.00018142856 -0.0069282358
-0.029066691 0.00018142856 0.00094588229
-0.036795408 0.00127 -0.0014505883
-0.0038643577 -0.00018142856 0.002315294
-0.03410716 -0.00018142856 -0.0059011765
-0.015289416 -0.00127 -0.00042352951
0.025034318 -0.00127 -0.00076588243
-0.039147627 0.00018142856 0.0012882353
-0.017305603 -0.00090714288 -8.1176549e-05
0.00050404668 -0.00127 -0.0024776473
0.031754941 0.00018142856 0.00026117641
-0.026042411 0.00054428569 -0.0024776473
-0.032763034 0.00127 -0.00076588243
-0.0062165754 0.00018142856 -0.0065858825
0.01629751 0.00018142856 -0.0079552941
0.041163813 0.00018142856 -0.0021352943
0.0092408555 0.00127 -0.0014505883
-0.039483655 -0.00054428569 -0.00042352951
0.027386535 0.00127 -0.0017929412
0.0099129183 -0.00054428569 -0.0024776473
-0.00016801555 -0.00127 -8.1176549e-05
0.015625447 0.00018142856 -8.1176549e-05
0.020665914 0.00127 -0.0024776473
0.033435095 -0.00127 -0.0021352943
-0.00084007776 -0.00090714288 -0.0024776473
-0.024362255 0.00018142856 -8.1176549e-05
0.012601167 0.00127 -0.0017929412
-0.0021842022 0.00054428569 -0.0024776473
0.029066691 0.00018142856 -0.0024776473
0.0031922956 -0.00127 -8.1176549e-05
0.011257042 0.00127 -0.0021352943
0.029066691 0.00127 -0.00042352951
0.036123347 -0.00054428569 -0.0024776473
0.0028562644 0.00127 -0.0017929412
-0.024026224 -0.00018142856 -0.0076129413
-0.026714474 -0.00127 -0.0011082354
-0.001176109 0.00018142856 -0.0076129413
0.0038643577 0.00018142856 -0.0028200001
-0.021674007 0.00018142856 -0.0055588237
-0.038811594 -0.00054428569 -0.0021352943
0.029402722 0.00127 -0.0014505883
0.026378442 -0.00018142856 -0.0031623531
-0.030074785 -0.00127 -0.0014505883
-0.015961478 -0.00127 -0.0014505883
-0.035451282 -0.00090714288 -0.0021352943
0.01360926 -0.00127 -0.0024776473
0.042843968 -0.00054428569 -0.00042352951
0.0035283267 0.00127 -0.00042352951
-0.011929104 0.00127 -0.0011082354
0.037467469 -0.00090714288 -0.0021352943
0.013945291 0.00018142856 -0.0045317649
0.028394628 0.00054428569 -0.0021352943
-0.012937197 -0.00090714288 -0.0024776473
-0.034443188 0.00018142856 -0.0038470591
0.024362255 -0.00018142856 -0.0038470591
-0.0085687935 -0.00127 -8.1176549e-05
-0.030746847 -0.00054428569 -0.0021352943
0.030074785 -0.00127 -8.1176549e-05
-0.01932179 0.00018142856 -0.0062435297
-0.029738754 -0.00090714288 -8.1176549e-05
0.039483655 0.00127 -0.0011082354
0.041163813 -0.00090714288 -0.00042352951
0.001176109 0.00127 -0.0021352943
-0.0031922956 -0.00127 -0.0011082354
-0.033771127 -0.00127 -0.00076588243
-0.023018131 0.00127 -0.00076588243
0.032090973 -0.00018142856 -0.0024776473
-0.036459375 -0.00054428569 -0.0024776473
-0.0099129183 -0.00018142856 -0.0024776473
0.042171907 0.00018142856 -0.0076129413
-0.033435095 0.00127 -8.1176549e-05
-0.033435095 0.00054428569 -0.00042352951
0.028730661 -0.00127 -0.0014505883
-0.020329883 -0.00127 -0.0017929412
0.011593074 -0.00018142856 -0.0062435297
0.0058805444 -0.00018142856 -8.1176549e-05
0.011593074 -0.00018142856 -0.0028200001
-0.0038643577 -0.00018142856 -0.0052164709
0.036459375 0.00127 -0.00042352951
-0.001176109 -0.00018142856 -0.0065858825
0.027050504 -0.00090714288 -8.1176549e-05
0.00151214 -0.00018142856 0.00094588229
-0.0038643577 0.00018142856 -0.0069282358
-0.039819688 -0.00054428569 -0.0024776473
0.028058598 -0.00054428569 -0.0021352943
-0.034779221 -0.00127 -0.00042352951
0.024362255 -0.00018142856 0.00094588229
-0.0075607002 -0.00127 -0.0021352943
-0.01965782 0.00127 -0.0021352943
0.01663354 0.00018142856 -0.0031623531
0.021674007 -0.00018142856 0.00060352933
-0.031754941 0.00018142856 -0.0045317649
-0.0052084825 0.00127 -8.1176549e-05
-0.039147627 0.00127 -0.0014505883
-0.026378442 0.00090714288 -8.1176549e-05
-0.041499842 0.00127 -0.00042352951
-0.0065526068 0.00018142856 -0.0079552941
0.0045364201 0.00018142856 -8.1176549e-05
0.0068886378 0.00054428569 -0.00042352951
-0.0065526068 -0.00054428569 -0.00042352951
0.018985758 0.00127 -0.0024776473
0.0018481711 -0.00127 -0.0011082354
-0.0028562644 -0.00054428569 -0.0024776473
0.011593074 0.00018142856 -0.0048741177
-0.041835874 -0.00018142856 -0.0065858825
-0.0058805444 0.00127 -0.0021352943
0.013945291 -0.00090714288 -8.1176549e-05
0.01965782 0.00127 -8.1176549e-05
0.01629751 0.00018142856 -0.0055588237
0.025370348 0.00127 -0.0024776473
-0.008904825 -0.00018142856 0.00060352933
-0.039819688 0.00127 -0.0011082354
-0.01360926 -0.00127 -0.00076588243
0.026378442 -0.00018142856 -0.0072705885
0.0085687935 -0.00054428569 -0.00042352951
0.014617354 -0.00090714288 -8.1176549e-05
-0.01058498 0.00127 -8.1176549e-05
-0.012937197 -0.00127 -0.0011082354
-0.013273229 -0.00054428569 -0.00042352951
-0.023354162 -0.00090714288 -8.1176549e-05
-0.016969571 -0.00127 -0.00042352951
0.031418908 0.00054428569 -0.0021352943
-0.042171907 0.00127 -0.00076588243
0.0062165754 -0.00018142856 0.0019729412
-0.026714474 0.00054428569 -0.0024776473
-0.029066691 0.00018142856 0.0019729412
0.042843968 0.00018142856 -0.00042352951
0.0065526068 -0.00127 -0.0024776473
0.031754941 -0.00127 -0.0021352943
0.013273229 0.00127 -0.00076588243
-0.026714474 -0.00018142856 0.002657647
-0.036123347 0.00054428569 -0.0024776473
0.010248949 0.00054428569 -0.00042352951
0.020329883 -0.00018142856 -0.0024776473
0.0085687935 0.00018142856 -8.1176549e-05
0.026378442 -0.00018142856 -0.0052164709
0.011257042 -0.00018142856 -0.0055588237
0.028730661 0.00090714288 -8.1176549e-05
0.042171907 -0.00054428569 -0.00042352951
-0.026714474 -0.00018142856 -0.0072705885
-0.023690194 -0.00127 -0.0011082354
-0.039483655 -0.00018142856 -0.0076129413
-0.027386535 -0.00127 -0.0024776473
-0.028730661 -0.00127 -0.0011082354
0.03713144 0.00018142856 -0.0024776473
-0.01058498 0.00018142856 -0.0021352943
0.041835874 -0.00090714288 -0.0021352943
0.015289416 0.00090714288 -8.1176549e-05
-0.034779221 -0.00054428569 -0.0024776473
0.0035283267 -0.00127 -8.1176549e-05
0.017641634 0.00127 -0.0014505883
-0.041835874 -0.00018142856 0.002657647
-0.021674007 -0.00018142856 -0.0065858825
-0.038811594 -0.00018142856 -0.0021352943
0.01932179 -0.00090714288 -0.0021352943
-0.031754941 -0.00018142856 -0.0031623531
-0.023690194 -0.00054428569 -0.0021352943
0.0042003891 0.00127 -0.0011082354
-0.0075607002 0.00090714288 -0.0024776473
0.029402722 0.00018142856 -0.0079552941
0.0048724511 -0.00018142856 -8.1176549e-05
0.012265136 0.00127 -0.0024776473
-0.031754941 -0.00018142856 0.0019729412
0.022682101 -0.00127 -0.0014505883
0.0018481711 -0.00127 -8.1176549e-05
-0.014281322 -0.00018142856 -0.0045317649
-0.0068886378 0.00127 -0.0017929412
-0.017641634 0.00054428569 -0.0024776473
-0.028394628 -0.00127 -0.0011082354
-0.036123347 0.00018142856 -8.1176549e-05
-0.00151214 -0.00090714288 -0.0024776473
0.027050504 -0.00127 -8.1176549e-05
0.0085687935 0.00018142856 -0.0076129413
-0.021337977 0.00018142856 -0.0059011765
0.011257042 -0.00018142856 -0.0048741177
0.041835874 -0.00018142856 0.002657647
0.036123347 0.00054428569 -0.00042352951
0.042507935 0.00127 -8.1176549e-05
-0.031082878 -0.00127 -0.0024776473
0.034443188 -0.00018142856 0.002315294
0.011593074 0.00018142856 0.002315294
-0.041163813 -0.00054428569 -0.0021352943
-0.033099066 -0.00054428569 -0.0021352943
-0.010248949 -0.00127 -0.0011082354
0.014617354 0.00054428569 -0.00042352951
-0.010248949 0.00090714288 -0.0024776473
-0.03410716 0.00018142856 -0.0069282358
0.024362255 0.00018142856 0.00094588229
0.03410716 -0.00018142856 -0.0038470591
0.027386535 0.00018142856 -0.0021352943
0.0048724511 -0.00127 -0.0024776473
0.018985758 -0.00127 -0.00042352951
-0.02234607 0.00090714288 -8.1176549e-05
0.01663354 -0.00054428569 -0.0024776473
0.039147627 -0.00018142856 0.0019729412
0.012601167 -0.00090714288 -8.1176549e-05
0.029066691 -0.00127 -0.0021352943
0.041835874 -0.00018142856 -0.0045317649
0.018985758 -0.00018142856 -0.0028200001
0.010248949 -0.00127 -0.00042352951
-0.027722567 0.00127 -0.0011082354
-0.041835874 -0.00018142856 -0.0038470591
-0.0085687935 0.00127 -0.00076588243
0.025370348 0.00127 -8.1176549e-05
-0.0048724511 -0.00127 -0.0014505883
-0.027722567 0.00054428569 -0.00042352951
0.033099066 0.00018142856 -0.0021352943
-0.026714474 0.00018142856 0.0019729412
-0.034443188 -0.00018142856 -0.0072705885
-0.036795408 0.00018142856 0.002315294
