# .PCD v0.7 - Point Cloud Data file format
VERSION 0.7
FIELDS x y z
SIZE 4 4 4
TYPE F F F
COUNT 1 1 1
WIDTH 1228
HEIGHT 1
VIEWPOINT 0 0 0 1 0 0 0
POINTS 1228
DATA ascii
0.0032608106 0.00127 -0.002498182
-0.0087527027 -0.00127 -0.0014672728
-0.032779727 0.00090714288 -0.0021545456
0.038271621 0.00090714288 -0.0021545456
0.0073797293 -0.00018142856 -0.0055909092
0.0012013513 0.00127 -0.0011236364
-0.023855405 -0.00018142856 -0.0021545456
-0.030377027 0.00127 -0.00078000006
-0.044106755 -0.00018142856 -0.0021545456
0.032779727 -0.00018142856 -0.0049036364
-0.02454189 -0.00018142856 -9.2727329e-05
-0.003604054 -0.00127 -0.0011236364
-0.038271621 0.00054428569 -0.00043636368
-0.037241891 -0.00018142856 -0.0021545456
-0.012528378 0.00018142856 -0.0028418184
-0.0077229729 0.00018142856 -0.0059345458
0.035525676 -0.00018142856 -0.0076527274
-0.02866081 -0.00054428569 -0.0021545456
-0.014587837 -0.00054428569 -0.0021545456
-0.027974324 0.00127 -0.0011236364
-0.036898647 0.00127 -0.0021545456
-0.013901351 0.00018142856 -9.2727329e-05
-0.012185135 -0.00127 -9.2727329e-05
0.0063499999 -0.00090714288 -9.2727329e-05
0.032436486 -0.00127 -0.0014672728
0.026258107 0.00127 -0.00043636368
-0.020422973 0.00127 -0.00043636368
-0.013901351 -0.00127 -9.2727329e-05
-0.017677026 0.00018142856 -0.0066218185
-0.0056635132 0.00127 -0.00078000006
-0.0070364862 0.00018142856 -9.2727329e-05
-0.042047296 -0.00090714288 -9.2727329e-05
-0.01802027 0.00054428569 -0.002498182
-0.012528378 -0.00127 -0.00078000006
-0.0060067568 0.00127 -0.002498182
0.030377027 0.00018142856 0.00025090904
-0.0060067568 -0.00127 -0.0018109091
-0.0097824326 0.00127 -9.2727329e-05
-0.0080662156 0.00090714288 -9.2727329e-05
-0.031406756 -0.00127 -0.0014672728
0.0090959454 0.00127 -0.00078000006
0.030720269 -0.00018142856 0.0012818181
0.024198648 0.00127 -0.0021545456
0.0073797293 -0.00054428569 -0.002498182
-0.031406756 -0.00090714288 -9.2727329e-05
-0.022482432 0.00054428569 -0.00043636368
0.036212161 0.00127 -0.00043636368
-0.0012013513 -0.00018142856 -0.002498182
-0.037241891 0.00127 -0.0021545456
-0.035868917 -0.00127 -0.00043636368
0.026944594 -0.00127 -0.00043636368
-0.020079728 0.00018142856 0.0023127273
-0.032093242 0.00054428569 -0.0021545456
0.0070364862 -0.00127 -0.0011236364
-0.026944594 0.00090714288 -0.0021545456
-0.036212161 0.00127 -0.00078000006
0.029347297 0.00127 -9.2727329e-05
-0.038958106 0.00018142856 -0.0021545456
0.02660135 -0.00127 -0.00078000006
0.024885135 -0.00090714288 -9.2727329e-05
-0.017677026 0.00090714288 -9.2727329e-05
-0.012528378 -0.00018142856 -0.0066218185
-0.020766215 -0.00127 -0.0021545456
-0.012871621 0.00018142856 -0.0035290911
-0.010812161 0.00127 -9.2727329e-05
0.016990541 -0.00018142856 -9.2727329e-05
-0.04136081 -0.00127 -0.00078000006
-0.021109458 0.00090714288 -9.2727329e-05
-0.033466216 -0.00018142856 -0.0021545456
-0.027287837 -0.00127 -0.00078000006
-0.032093242 -0.00090714288 -0.0021545456
-0.00017162162 -0.00018142856 -0.0062781819
-0.028317567 -0.00090714288 -9.2727329e-05
-0.038958106 -0.00127 -0.0021545456
0.0018878378 0.00127 -0.00078000006
0.02557162 -0.00018142856 -9.2727329e-05
0.017333783 -0.00090714288 -0.0021545456
-0.017677026 0.00018142856 -0.0028418184
-0.0018878378 -0.00018142856 -0.002498182
-0.011155405 0.00127 -0.00078000006
0.037928376 -0.00127 -0.0014672728
-0.012185135 0.00054428569 -0.0021545456
0.041017566 -0.00054428569 -0.0021545456
0.039644592 -0.00127 -0.0021545456
-0.0015445945 -0.00090714288 -0.002498182
-0.023168918 0.00018142856 -9.2727329e-05
-0.0012013513 0.00054428569 -0.00043636368
-0.0025743241 0.00018142856 -0.005247273
0.01802027 0.00018142856 -0.0031854548
0.02763108 -0.00090714288 -9.2727329e-05
0.028317567 0.00127 -9.2727329e-05
-0.018363513 -0.00127 -0.00078000006
-0.00085810811 0.00127 -0.0014672728
-0.0053202701 0.00054428569 -0.00043636368
0.044106755 0.00090714288 -0.00078000006
-0.011498649 -0.00127 -0.0018109091
-0.0029175675 0.00127 -0.00043636368
0.0025743241 0.00018142856 -0.0069654547
0.030720269 -0.00018142856 -0.0038727275
0.0029175675 -0.00018142856 -9.2727329e-05
-0.031749997 0.00127 -0.00078000006
-0.02557162 -0.00018142856 -0.005247273
-0.027974324 0.00018142856 -0.0073090913
0.011498649 0.00127 -0.0021545456
0.022139188 -0.00090714288 -0.002498182
0.033809457 0.00018142856 -0.0021545456
-0.026258107 0.00127 -0.00043636368
-0.034839187 0.00127 -9.2727329e-05
-0.00017162162 0.00127 -0.00043636368
0.015960811 -0.00127 -0.002498182
-0.036555406 -0.00127 -0.0014672728
-0.00051486486 0.00018142856 -9.2727329e-05
0.043763511 0.00090714288 -0.00078000006
0.030377027 0.00127 -9.2727329e-05
-0.003604054 -0.00127 -0.00043636368
-0.024198648 0.00090714288 -0.0021545456
-0.004977027 -0.00018142856 -0.0038727275
0.021109458 0.00127 -0.0021545456
-0.012871621 0.00054428569 -0.0021545456
0.0073797293 -0.00018142856 -0.0073090913
0.014244595 0.00054428569 -0.00043636368
-0.037241891 0.00127 -0.0011236364
0.0029175675 -0.00127 -0.0011236364
0.041017566 -0.00090714288 -0.0021545456
-0.0073797293 -0.00018142856 -0.0066218185
-0.025228377 0.00018142856 0.0016254545
0.00085810811 -0.00127 -0.0021545456
-0.029347297 0.00018142856 -0.0021545456
-0.042733781 -0.00018142856 -0.0021545456
0.0025743241 -0.00018142856 0.0026563636
-0.034152701 -0.00090714288 -0.0021545456
-0.014587837 -0.00054428569 -0.00043636368
-0.037928376 -0.00018142856 0.0012818181
-0.038271621 0.00018142856 -0.0035290911
-0.012871621 0.00018142856 -0.0055909092
-0.043763511 -0.00127 -0.0014672728
-0.0025743241 -0.00127 -0.00043636368
0.006693243 0.00018142856 -0.002498182
0.0073797293 -0.00127 -0.00078000006
0.004977027 0.00018142856 0.0023127273
-0.04136081 -0.00090714288 -0.0021545456
0.043077026 -0.00018142856 -0.005247273
-0.027974324 -0.00018142856 -0.0049036364
0.038271621 -0.00018142856 -0.0076527274
0.0063499999 0.00090714288 -0.002498182
0.0015445945 0.00018142856 -9.2727329e-05
0.0025743241 -0.00054428569 -0.002498182
0.015274324 0.00018142856 -0.0076527274
-0.020422973 -0.00018142856 -0.002498182
-0.030377027 -0.00018142856 -0.0062781819
-0.02763108 0.00054428569 -0.00043636368
0.010125675 -0.00054428569 -0.0028418184
0.037241891 -0.00127 -0.00078000006
0.030377027 -0.00018142856 0.0012818181
-0.0063499999 -0.00127 -0.0014672728
0.0090959454 0.00018142856 -0.0021545456
-0.0012013513 -0.00054428569 -0.002498182
0.035525676 0.00018142856 -0.0055909092
-0.035525676 0.00018142856 -0.0059345458
-0.036898647 0.00018142856 -9.2727329e-05
-0.0087527027 -0.00127 -0.0011236364
-0.025228377 0.00018142856 -0.0049036364
0.015274324 0.00127 -0.00043636368
-0.041704051 -0.00090714288 -0.0021545456
-0.0025743241 0.00018142856 -0.0035290911
-0.040674321 -0.00018142856 -0.0038727275
0.033122972 0.00018142856 -0.0028418184
0.003604054 0.00127 -9.2727329e-05
-0.0025743241 0.00018142856 -9.2727329e-05
-0.010468919 0.00127 -0.0014672728
0.025228377 0.00018142856 -0.0045600003
-0.030720269 -0.00127 -0.0018109091
0.037928376 0.00090714288 -0.0021545456
0.043077026 0.00018142856 0.0016254545
0.035525676 -0.00090714288 -9.2727329e-05
0.030377027 0.00018142856 -0.0035290911
0.039987836 -0.00127 -0.0014672728
0.0039472971 0.00127 -0.0011236364
0.02557162 -0.00018142856 -0.0076527274
-0.044106755 0.00090714288 -0.00043636368
-0.029004052 -0.00127 -9.2727329e-05
-0.014587837 -0.00127 -0.0011236364
0.0060067568 -0.00054428569 -0.00043636368
-0.036212161 -0.00127 -9.2727329e-05
0.029347297 -0.00127 -0.00078000006
-0.038271621 0.00018142856 0.0019690909
0.0073797293 -0.00018142856 -0.0069654547
0.028317567 -0.00090714288 -9.2727329e-05
0.011841891 -0.00018142856 -0.0021545456
-0.042733781 -0.00127 -0.0018109091
-0.012528378 -0.00018142856 -0.0038727275
0.035868917 0.00054428569 -0.0021545456
0.020422973 0.00127 -0.0021545456
0.035525676 0.00018142856 -0.0045600003
-0.041704051 -0.00127 -0.00078000006
0.026944594 -0.00090714288 -0.0021545456
0.030377027 -0.00018142856 -0.0059345458
0.0053202701 0.00018142856 -0.0028418184
-0.012528378 0.00018142856 0.0019690909
-0.018363513 0.00127 -0.0011236364
0.009439189 0.00090714288 -9.2727329e-05
0.0084094591 -0.00127 -0.0018109091
0.032779727 -0.00018142856 0.00059454539
-0.02660135 -0.00018142856 -0.0021545456
0.017333783 -0.00127 -0.00043636368
0.039644592 0.00090714288 -9.2727329e-05
0.026944594 0.00127 -0.00043636368
-0.040674321 -0.00127 -0.0011236364
0.010812161 -0.00127 -0.00043636368
0.039301351 -0.00127 -0.0011236364
-0.029004052 0.00054428569 -0.00043636368
-0.035868917 -0.00127 -0.0021545456
-0.021452703 -0.00018142856 -9.2727329e-05
0.025228377 0.00018142856 -0.0073090913
0.0070364862 0.00054428569 -0.00043636368
0.035525676 0.00127 -9.2727329e-05
-0.011841891 0.00054428569 -0.00043636368
-0.039987836 0.00090714288 -0.00043636368
-0.010125675 -0.00018142856 0.00025090904
-0.00085810811 0.00018142856 -9.2727329e-05
0.02660135 0.00127 -0.0018109091
-0.0090959454 -0.00127 -0.0018109091
-0.02763108 -0.00090714288 -9.2727329e-05
0.026944594 0.00127 -0.00078000006
-0.035525676 -0.00018142856 -0.0069654547
0.016647296 -0.00127 -0.00078000006
-0.019736486 0.00127 -0.0021545456
0.037241891 0.00127 -0.00078000006
-0.019393243 -0.00018142856 -9.2727329e-05
-0.024885135 -0.00090714288 -9.2727329e-05
-0.021795945 -0.00127 -9.2727329e-05
-0.011841891 -0.00018142856 -9.2727329e-05
0.010125675 -0.00018142856 0.0026563636
0.002231081 -0.00127 -0.00043636368
0.012871621 0.00127 -0.00043636368
-0.044106755 -0.00018142856 -0.00043636368
-0.026258107 0.00127 -0.0011236364
0.032093242 0.00127 -0.0021545456
-0.0073797293 0.00018142856 0.0019690909
0.022825675 -0.00018142856 -0.0028418184
-0.027974324 0.00127 -0.0021545456
-0.033122972 -0.00054428569 -0.0021545456
0.036555406 0.00018142856 -9.2727329e-05
0.029690539 -0.00127 -9.2727329e-05
-0.0032608106 0.00127 -0.0021545456
0.025228377 -0.00127 -0.0014672728
0.021795945 0.00127 -0.0018109091
-0.015274324 0.00127 -0.0014672728
0.032779727 -0.00127 -0.0011236364
-0.0039472971 -0.00054428569 -0.00043636368
-0.037585136 0.00127 -0.0018109091
-0.0097824326 0.00127 -0.00078000006
-0.037928376 0.00090714288 -9.2727329e-05
0.018363513 -0.00127 -0.002498182
-0.035182431 -0.00054428569 -0.0021545456
0.032779727 0.00018142856 -0.0028418184
0.003604054 -0.00018142856 -9.2727329e-05
-0.031063512 -0.00127 -9.2727329e-05
0.024198648 -0.00127 -0.0021545456
0.035525676 -0.00018142856 -0.0031854548
-0.026258107 0.00090714288 -0.0021545456
0.009439189 0.00090714288 -0.0021545456
-0.020422973 0.00018142856 -0.0055909092
0.036555406 -0.00090714288 -0.0021545456
-0.037928376 -0.00054428569 -0.0021545456
-0.003604054 0.00127 -0.0018109091
0.00085810811 0.00054428569 -0.00043636368
-0.033122972 -0.00018142856 -0.0069654547
0.031749997 -0.00018142856 -0.0021545456
0.034152701 -0.00127 -0.0011236364
-0.015274324 0.00018142856 0.0023127273
0.022139188 0.00127 -0.0021545456
0.039644592 -0.00127 -0.00078000006
0.020422973 0.00127 -0.002498182
0.002231081 -0.00127 -0.0014672728
-0.033466216 0.00127 -0.0018109091
-0.0084094591 0.00127 -0.0018109091
-0.029690539 0.00018142856 -9.2727329e-05
-0.02454189 0.00018142856 -0.0021545456
0.022139188 -0.00127 -0.00043636368
-0.01802027 0.00127 -0.0018109091
0.038614865 -0.00127 -0.0011236364
0.027287837 -0.00090714288 -0.0021545456
-0.030377027 -0.00018142856 -0.0045600003
0.002231081 0.00018142856 -0.0042163637
-0.0073797293 0.00127 -0.00078000006
0.015274324 0.00018142856 0.0016254545
0.034495946 -0.00054428569 -0.00043636368
-0.042047296 -0.00127 -9.2727329e-05
0.0015445945 -0.00054428569 -0.00043636368
-0.019393243 -0.00127 -0.00043636368
0.032779727 -0.00018142856 -0.0038727275
0.040674321 -0.00018142856 -0.0028418184
-0.016990541 -0.00054428569 -0.0021545456
0.025228377 -0.00018142856 0.0012818181
-0.017677026 0.00018142856 0.00025090904
-0.0053202701 0.00018142856 -0.0069654547
-0.037241891 0.00018142856 -0.0021545456
-0.025228377 -0.00018142856 -0.0045600003
-0.04239054 -0.00127 -0.00078000006
0.0073797293 0.00090714288 -9.2727329e-05
-0.002231081 -0.00018142856 0.00059454539
0.039987836 -0.00090714288 -0.00043636368
-0.015274324 -0.00018142856 0.0023127273
-0.022139188 -0.00127 -0.0021545456
-0.0015445945 0.00127 -0.00078000006
0.033809457 0.00090714288 -9.2727329e-05
0.00085810811 -0.00127 -0.00078000006
-0.030377027 -0.00018142856 -0.0042163637
0.006693243 -0.00090714288 -0.002498182
0.012185135 0.00127 -9.2727329e-05
0.002231081 0.00018142856 -0.0066218185
-0.0056635132 -0.00127 -0.002498182
-0.022482432 -0.00090714288 -9.2727329e-05
0.040674321 -0.00018142856 -0.0042163637
-0.020422973 -0.00018142856 -0.0076527274
-0.017677026 0.00127 -0.0021545456
-0.0025743241 0.00018142856 0.00059454539
0.043077026 -0.00018142856 -0.0069654547
-0.010468919 -0.00127 -0.0011236364
0.037585136 -0.00127 -0.00078000006
-0.02454189 -0.00127 -0.0014672728
-0.040674321 -0.00018142856 -0.002498182
0.016990541 -0.00127 -0.0011236364
-0.017677026 0.00018142856 0.0019690909
-0.012871621 -0.00018142856 -0.0028418184
0.016304053 -0.00127 -0.00043636368
-0.016990541 -0.00127 -0.0021545456
-0.030377027 0.00018142856 -0.0038727275
0.0084094591 -0.00127 -0.00078000006
0.020079728 0.00127 -0.0018109091
0.019393243 -0.00127 -0.0018109091
-0.013558107 -0.00127 -0.0014672728
-0.0063499999 0.00127 -0.002498182
0.020422973 -0.00018142856 0.0026563636
0.0053202701 0.00018142856 0.00093818177
0.002231081 -0.00054428569 -0.002498182
0.044106755 -0.00090714288 -0.00043636368
0.025228377 -0.00127 -9.2727329e-05
0.011155405 -0.00127 -0.0011236364
0.04136081 -0.00127 -0.0014672728
0.02660135 -0.00127 -9.2727329e-05
0.037241891 -0.00054428569 -0.0021545456
0.025914865 0.00090714288 -9.2727329e-05
0.02763108 0.00127 -0.0011236364
0.039301351 -0.00018142856 -0.0021545456
-0.023168918 0.00018142856 -0.0035290911
-0.023168918 0.00018142856 0.00059454539
0.037585136 0.00127 -0.0018109091
-0.025228377 0.00018142856 0.0012818181
0.011155405 0.00018142856 -9.2727329e-05
0.014244595 -0.00127 -9.2727329e-05
0.010812161 0.00127 -0.0014672728
-0.013214865 -0.00090714288 -0.002498182
-0.012871621 0.00090714288 -9.2727329e-05
0.02557162 0.00018142856 0.0023127273
0.030720269 0.00018142856 -0.0049036364
0.036898647 -0.00127 -0.0014672728
0.044106755 0.00018142856 -0.00078000006
-0.004977027 -0.00127 -0.0021545456
-0.01802027 0.00127 -0.0014672728
-0.0073797293 0.00127 -0.0021545456
-0.004977027 -0.00018142856 -9.2727329e-05
0.02763108 -0.00018142856 -0.0049036364
-0.00017162162 0.00018142856 0.0016254545
0.0077229729 0.00127 -0.00078000006
-0.017333783 0.00018142856 -0.0021545456
0.0042905402 0.00018142856 -9.2727329e-05
-0.02763108 -0.00127 -0.00078000006
0.027974324 0.00018142856 0.0012818181
-0.038271621 -0.00090714288 -9.2727329e-05
-0.013558107 0.00018142856 -9.2727329e-05
0.020422973 0.00018142856 -0.0031854548
-0.042047296 0.00127 -0.00043636368
0.022825675 0.00018142856 0.0019690909
-0.023512162 0.00127 -0.0011236364
-0.011498649 -0.00127 -0.0011236364
0.02866081 0.00054428569 -0.00043636368
-0.0087527027 0.00090714288 -9.2727329e-05
-0.022825675 0.00018142856 -0.0062781819
-0.003604054 0.00127 -0.002498182
0.0087527027 -0.00127 -0.002498182
-0.04136081 0.00127 -0.0021545456
-0.038614865 -0.00054428569 -0.00043636368
-0.040331081 0.00127 -0.0011236364
0.033122972 0.00018142856 0.00093818177
-0.010125675 0.00018142856 0.0023127273
0.02454189 -0.00127 -0.0011236364
-0.010125675 -0.00127 -0.0021545456
0.011155405 -0.00127 -0.0018109091
-0.012871621 0.00018142856 -0.0031854548
-0.038271621 0.00127 -0.00078000006
-0.039987836 0.00127 -0.00043636368
-0.044106755 0.00018142856 -9.2727329e-05
0.013901351 -0.00090714288 -0.0021545456
0.040674321 0.00018142856 -0.0028418184
0.038271621 0.00127 -0.0021545456
-0.031749997 0.00127 -9.2727329e-05
0.01905 0.00127 -0.00078000006
0.0073797293 -0.00127 -0.00043636368
0.02866081 -0.00127 -0.0014672728
0.020766215 0.00090714288 -0.0021545456
-0.040674321 -0.00090714288 -9.2727329e-05
0.041704051 0.00127 -0.00078000006
0.012528378 0.00018142856 -9.2727329e-05
-0.033122972 -0.00127 -0.0018109091
0.0012013513 -0.00054428569 -0.00043636368
-0.0090959454 0.00127 -0.0018109091
-0.014587837 -0.00018142856 -0.0021545456
-0.003604054 -0.00054428569 -0.002498182
-0.028317567 -0.00127 -0.0021545456
0.030377027 -0.00127 -0.00043636368
0.010125675 -0.00018142856 0.0019690909
-0.0056635132 -0.00127 -9.2727329e-05
0.037241891 -0.00054428569 -0.00043636368
0.030720269 0.00018142856 0.00093818177
0.0077229729 0.00127 -0.0011236364
0.029690539 0.00127 -0.0011236364
0.042733781 0.00018142856 -0.00043636368
-0.039301351 -0.00054428569 -0.00043636368
-0.0053202701 -0.00018142856 0.00025090904
-0.0063499999 -0.00127 -0.0021545456
0.00017162162 -0.00018142856 0.0023127273
-0.013214865 0.00127 -0.00078000006
-0.012185135 0.00018142856 -9.2727329e-05
0.031749997 0.00127 -0.0014672728
-0.004977027 -0.00127 -0.00043636368
0.021109458 0.00127 -0.00043636368
0.0029175675 0.00127 -0.0014672728
-0.023168918 -0.00054428569 -0.00043636368
-0.042733781 0.00090714288 -0.0021545456
-0.036898647 0.00127 -9.2727329e-05
-0.030377027 0.00127 -0.00043636368
0.038614865 -0.00090714288 -0.0021545456
-0.038614865 -0.00127 -0.0018109091
0.036555406 -0.00127 -0.0018109091
0.025228377 -0.00090714288 -0.0021545456
-0.004977027 0.00054428569 -0.00043636368
0.040674321 -0.00018142856 -0.005247273
-0.011498649 -0.00054428569 -0.00043636368
-0.032779727 -0.00054428569 -0.00043636368
0.022139188 0.00018142856 -9.2727329e-05
0.020766215 -0.00090714288 -0.002498182
-0.012871621 0.00127 -0.00078000006
-0.027974324 0.00090714288 -9.2727329e-05
0.002231081 0.00018142856 -0.0049036364
0.04136081 -0.00127 -0.0018109091
-0.036555406 -0.00127 -0.0018109091
-0.0073797293 0.00127 -0.0018109091
-0.0077229729 0.00018142856 -0.0073090913
-0.032093242 0.00127 -0.0021545456
-0.0080662156 -0.00127 -0.0014672728
0.0097824326 -0.00018142856 -0.002498182
0.029004052 -0.00127 -0.0011236364
0.030720269 0.00054428569 -0.002498182
-0.037585136 0.00090714288 -0.0021545456
0.020079728 0.00018142856 -0.005247273
-0.022139188 -0.00090714288 -0.0021545456
0.019393243 0.00127 -9.2727329e-05
0.041704051 0.00054428569 -0.00043636368
-0.041017566 -0.00127 -0.00043636368
0.015274324 -0.00018142856 -0.0076527274
0.0063499999 0.00054428569 -0.002498182
-0.0015445945 -0.00127 -0.0018109091
-0.013214865 -0.00127 -0.0014672728
-0.01905 0.00127 -0.00078000006
0.039301351 0.00054428569 -0.00043636368
0.022482432 -0.00127 -0.00078000006
0.012528378 0.00018142856 0.00059454539
-0.012871621 0.00127 -0.00043636368
-0.014931081 -0.00054428569 -0.0021545456
0.016990541 0.00054428569 -0.002498182
0.021109458 -0.00127 -0.00078000006
0.003604054 0.00054428569 -0.00043636368
-0.038958106 -0.00018142856 -9.2727329e-05
0.006693243 -0.00090714288 -9.2727329e-05
0.0042905402 -0.00054428569 -0.00043636368
-0.0063499999 -0.00127 -0.00078000006
0.002231081 0.00018142856 0.0023127273
-0.044106755 0.00018142856 -0.0018109091
-0.038958106 -0.00127 -0.00043636368
-0.015274324 0.00018142856 -0.0049036364
0.032779727 -0.00127 -0.0018109091
-0.030720269 0.00127 -0.0018109091
-0.025914865 0.00127 -0.0021545456
0.032436486 -0.00127 -0.0021545456
0.04342027 -0.00018142856 0.0019690909
-0.037585136 0.00127 -0.00043636368
-0.043077026 -0.00018142856 0.0016254545
-0.039644592 -0.00054428569 -0.00043636368
-0.02660135 0.00018142856 -0.0021545456
-0.029004052 -0.00090714288 -9.2727329e-05
0.0053202701 -0.00018142856 0.0016254545
-0.0053202701 -0.00018142856 0.00093818177
0.031406756 0.00090714288 -9.2727329e-05
-0.020422973 -0.00054428569 -0.002498182
-0.039644592 -0.00018142856 -9.2727329e-05
-0.014244595 -0.00054428569 -0.00043636368
-0.025228377 0.00127 -0.00078000006
0.041704051 -0.00018142856 -0.00043636368
-0.036898647 -0.00054428569 -0.00043636368
-0.012871621 -0.00127 -9.2727329e-05
0.040674321 0.00018142856 -0.0035290911
0.026258107 0.00090714288 -9.2727329e-05
-0.021795945 0.00018142856 -9.2727329e-05
0.039987836 -0.00018142856 -0.0021545456
-0.018706756 0.00054428569 -0.0021545456
0.036212161 0.00090714288 -0.0021545456
-0.034152701 -0.00127 -0.0021545456
0.010812161 0.00018142856 -0.002498182
-0.002231081 -0.00018142856 -0.0062781819
-0.036212161 -0.00054428569 -0.00043636368
-0.034495946 0.00090714288 -9.2727329e-05
0.02454189 -0.00054428569 -0.00043636368
-0.015617567 -0.00054428569 -0.002498182
0.026258107 0.00127 -0.0021545456
0.020422973 -0.00018142856 -0.0049036364
-0.027974324 -0.00127 -0.00078000006
0.042733781 0.00127 -0.0021545456
0.0053202701 0.00018142856 -0.0073090913
0.012871621 -0.00018142856 0.0023127273
-0.026944594 -0.00054428569 -0.0021545456
-0.02763108 0.00127 -0.0021545456
0.030377027 0.00018142856 0.0023127273
-0.023168918 0.00018142856 -0.0045600003
0.026258107 0.00127 -0.0018109091
0.020079728 0.00090714288 -0.0021545456
0.020079728 -0.00018142856 -0.0038727275
-0.00017162162 0.00018142856 0.00059454539
-0.029004052 0.00054428569 -0.0021545456
0.0046337838 0.00127 -0.00043636368
-0.012871621 0.00018142856 -0.0059345458
-0.011841891 0.00018142856 -9.2727329e-05
-0.035525676 0.00018142856 -0.0035290911
0.021795945 -0.00054428569 -0.00043636368
-0.004977027 -0.00018142856 0.0026563636
0.032436486 -0.00018142856 -0.0021545456
-0.012528378 -0.00018142856 -0.0049036364
-0.026944594 0.00127 -0.00043636368
-0.014244595 0.00090714288 -9.2727329e-05
-0.022825675 0.00018142856 -0.0031854548
0.013558107 0.00127 -0.0011236364
0.029347297 -0.00054428569 -0.00043636368
-0.040674321 -0.00127 -0.0014672728
-0.019393243 0.00090714288 -9.2727329e-05
-0.0077229729 -0.00018142856 -0.0045600003
0.028317567 0.00054428569 -0.00043636368
-0.009439189 -0.00127 -0.00043636368
0.022825675 -0.00018142856 0.0012818181
0.035525676 0.00127 -0.002498182
0.00051486486 0.00090714288 -0.002498182
-0.019736486 -0.00127 -0.00078000006
0.02763108 -0.00018142856 -0.002498182
-0.041017566 0.00127 -0.0011236364
-0.015960811 -0.00127 -9.2727329e-05
0.034839187 0.00090714288 -0.0021545456
0.010125675 -0.00018142856 -0.0045600003
-0.026258107 -0.00054428569 -0.00043636368
-0.028317567 -0.00127 -0.0018109091
-0.030033782 -0.00054428569 -0.0021545456
0.023168918 0.00018142856 0.0019690909
0.020079728 -0.00127 -9.2727329e-05
0.011155405 0.00127 -0.0014672728
0.038271621 0.00018142856 -9.2727329e-05
0.042733781 0.00090714288 -0.00043636368
0.014244595 -0.00018142856 -0.0021545456
-0.030377027 -0.00018142856 -0.0035290911
-0.018363513 -0.00127 -0.00043636368
0.035525676 -0.00018142856 -0.0049036364
-0.013901351 0.00018142856 -0.0021545456
-0.028317567 -0.00127 -0.00043636368
0.02763108 -0.00018142856 0.00059454539
-0.036212161 -0.00018142856 -9.2727329e-05
-0.022825675 -0.00018142856 -0.0035290911
0.025228377 0.00018142856 -0.0038727275
0.033122972 -0.00127 -0.0011236364
-0.035868917 0.00090714288 -0.0021545456
0.038958106 0.00127 -0.0018109091
0.023168918 -0.00127 -0.00043636368
-0.027974324 0.00018142856 -0.0035290911
-0.009439189 0.00127 -0.0011236364
-0.040674321 -0.00018142856 0.00093818177
-0.014931081 -0.00127 -9.2727329e-05
-0.032779727 -0.00018142856 -0.0045600003
-0.037241891 -0.00127 -0.0014672728
-0.01905 -0.00127 -9.2727329e-05
-0.002231081 -0.00127 -0.00043636368
-0.015274324 0.00018142856 0.0016254545
-0.016304053 -0.00090714288 -0.0021545456
-0.014931081 0.00018142856 -9.2727329e-05
-0.010468919 0.00054428569 -0.00043636368
0.037241891 -0.00127 -0.0014672728
0.025914865 0.00127 -0.0014672728
-0.015274324 0.00018142856 -0.0028418184
0.015960811 -0.00090714288 -9.2727329e-05
0.041017566 0.00127 -0.00078000006
-0.010812161 0.00090714288 -0.0021545456
-0.023168918 -0.00018142856 0.0019690909
-0.04342027 -0.00018142856 -0.002498182
0.0015445945 -0.00127 -0.0021545456
-0.038271621 0.00018142856 -0.002498182
0.018363513 0.00018142856 -9.2727329e-05
-0.031749997 0.00127 -0.0014672728
-0.035525676 -0.00018142856 -0.0038727275
-0.040674321 -0.00018142856 -0.0055909092
-0.012528378 0.00018142856 0.0023127273
-0.039301351 0.00090714288 -9.2727329e-05
-0.02763108 0.00127 -0.0014672728
-0.027287837 0.00054428569 -0.00043636368
-0.023168918 0.00018142856 0.00025090904
-0.023168918 -0.00018142856 -0.0073090913
0.034495946 -0.00127 -0.0021545456
0.020422973 -0.00018142856 -0.0066218185
0.019736486 -0.00018142856 -0.0021545456
-0.015960811 -0.00054428569 -0.0021545456
-0.025914865 0.00018142856 -0.0021545456
-0.025228377 -0.00018142856 -0.005247273
-0.038958106 -0.00054428569 -0.0021545456
-0.01802027 0.00018142856 -0.0028418184
0.014244595 0.00090714288 -0.0021545456
0.034152701 0.00054428569 -0.0021545456
0.017677026 -0.00018142856 0.00059454539
-0.00017162162 0.00018142856 -0.005247273
-0.019736486 0.00090714288 -0.0021545456
0.013901351 0.00127 -0.0021545456
0.018363513 -0.00018142856 -9.2727329e-05
0.019736486 0.00054428569 -0.002498182
-0.033809457 0.00018142856 -9.2727329e-05
0.02660135 0.00127 -0.0011236364
0.010468919 0.00090714288 -9.2727329e-05
-0.044106755 -0.00054428569 -0.0018109091
-0.035868917 0.00127 -0.0021545456
-0.044106755 -0.00054428569 -0.00043636368
0.023855405 0.00054428569 -0.0021545456
-0.012528378 0.00018142856 -0.0035290911
-0.011155405 -0.00127 -0.0018109091
0.030720269 -0.00090714288 -0.002498182
0.038614865 -0.00127 -0.0018109091
-0.00017162162 0.00127 -0.0021545456
0.0012013513 0.00127 -0.00078000006
-0.033809457 -0.00054428569 -0.00043636368
0.0053202701 0.00018142856 -0.0062781819
-0.009439189 0.00090714288 -0.0021545456
-0.0087527027 0.00127 -0.00043636368
0.035525676 0.00127 -0.0021545456
-0.035525676 0.00127 -0.00078000006
-0.037928376 0.00018142856 -0.0059345458
0.013901351 0.00054428569 -0.00043636368
-0.02660135 0.00127 -0.0021545456
-0.0073797293 0.00090714288 -0.0021545456
0.032779727 0.00127 -0.0021545456
-0.020766215 -0.00127 -0.00078000006
0.027287837 0.00127 -0.0014672728
-0.04239054 -0.00018142856 -0.0021545456
-0.012871621 0.00018142856 -0.005247273
-0.038614865 0.00127 -0.0018109091
-0.040674321 0.00127 -0.0011236364
0.01802027 -0.00018142856 0.0012818181
0.020766215 -0.00054428569 -0.002498182
-0.0087527027 -0.00127 -0.0018109091
-0.018706756 -0.00127 -9.2727329e-05
-0.044106755 -0.00090714288 -0.00043636368
-0.0039472971 -0.00127 -0.0018109091
0.02557162 -0.00127 -0.0014672728
-0.015274324 -0.00127 -0.00078000006
-0.04136081 0.00127 -0.0018109091
0.027974324 -0.00127 -9.2727329e-05
-0.018706756 0.00090714288 -0.0021545456
0.00051486486 -0.00090714288 -0.002498182
-0.034152701 -0.00018142856 -9.2727329e-05
0.030377027 -0.00018142856 -9.2727329e-05
-0.022825675 -0.00018142856 -0.0079963636
-0.035525676 0.00054428569 -0.00043636368
-0.04342027 0.00127 -0.00043636368
0.013214865 0.00127 -0.0014672728
-0.013901351 -0.00127 -0.0018109091
0.022825675 -0.00018142856 -0.0055909092
0.042733781 -0.00018142856 -0.0021545456
0.016990541 0.00127 -0.00043636368
-0.023168918 0.00090714288 -9.2727329e-05
-0.019736486 -0.00127 -9.2727329e-05
0.01802027 0.00127 -0.00043636368
0.017677026 -0.00018142856 0.00093818177
0.015274324 -0.00018142856 -0.0062781819
0.0090959454 -0.00090714288 -0.002498182
-0.040674321 -0.00018142856 -0.0031854548
-0.0077229729 0.00018142856 0.0019690909
-0.030720269 -0.00018142856 -0.0028418184
-0.0073797293 0.00018142856 0.0023127273
0.022825675 0.00018142856 0.00093818177
-0.015960811 0.00127 -0.00078000006
-0.029347297 -0.00054428569 -0.0021545456
0.015617567 -0.00054428569 -0.002498182
-0.02557162 -0.00018142856 -0.0031854548
0.004977027 0.00018142856 -0.0059345458
0.039301351 -0.00127 -0.0018109091
0.0077229729 0.00018142856 0.0019690909
-0.043077026 0.00018142856 -0.0035290911
0.00085810811 -0.00127 -0.0018109091
-0.037928376 0.00127 -0.00043636368
0.0025743241 -0.00127 -0.0018109091
0.033122972 0.00018142856 -0.0055909092
-0.012528378 0.00018142856 0.0016254545
-0.015617567 0.00127 -0.0014672728
0.00017162162 0.00018142856 0.0016254545
-0.030720269 -0.00127 -0.0011236364
0.031749997 0.00018142856 -0.0021545456
0.013214865 -0.00127 -9.2727329e-05
0.013558107 0.00127 -0.00043636368
0.004977027 0.00018142856 -0.0073090913
-0.039987836 -0.00127 -0.0011236364
0.044106755 -0.00090714288 -0.00078000006
0.0077229729 0.00090714288 -0.002498182
0.040674321 0.00018142856 0.0016254545
0.041017566 0.00018142856 -0.002498182
-0.024198648 0.00127 -0.0011236364
-0.004977027 -0.00018142856 0.00093818177
-0.0080662156 0.00054428569 -0.0021545456
0.009439189 -0.00018142856 -0.0021545456
-0.040674321 0.00018142856 -0.0045600003
0.02454189 0.00018142856 -9.2727329e-05
0.018706756 -0.00127 -0.00078000006
0.042047296 -0.00090714288 -0.00043636368
-0.019736486 -0.00127 -0.0018109091
0.0077229729 -0.00018142856 -0.0066218185
-0.02557162 -0.00054428569 -0.002498182
-0.016647296 0.00127 -0.0011236364
0.019393243 0.00018142856 -9.2727329e-05
0.017677026 0.00127 -0.0011236364
0.004977027 -0.00018142856 -0.0038727275
-0.030033782 0.00090714288 -9.2727329e-05
-0.027974324 0.00018142856 0.00093818177
-0.040674321 -0.00018142856 -0.0049036364
0.015274324 -0.00018142856 0.00059454539
-0.023512162 -0.00018142856 -0.0021545456
0.02557162 -0.00018142856 -0.005247273
-0.035525676 -0.00127 -0.0018109091
-0.031406756 -0.00018142856 -9.2727329e-05
-0.031406756 0.00127 -0.0021545456
0.020079728 0.00127 -9.2727329e-05
0.016647296 0.00127 -0.0021545456
-0.00017162162 -0.00018142856 -0.0069654547
-0.011841891 -0.00127 -0.002498182
0.030377027 0.00018142856 -0.0066218185
0.0046337838 -0.00127 -0.0018109091
-0.038271621 0.00018142856 -0.0066218185
-0.014244595 -0.00054428569 -0.0021545456
0.032779727 -0.00018142856 -0.0035290911
0.030720269 -0.00018142856 -0.002498182
-0.012871621 0.00018142856 -0.0049036364
-0.012528378 -0.00018142856 -9.2727329e-05
-0.039987836 0.00054428569 -0.0021545456
0.032779727 -0.00127 -0.0014672728
-0.026944594 0.00090714288 -9.2727329e-05
0.020422973 -0.00018142856 -0.0059345458
0.032436486 0.00018142856 -9.2727329e-05
0.0084094591 0.00127 -0.0014672728
0.029690539 -0.00127 -0.0014672728
0.00017162162 0.00018142856 -0.0045600003
-0.0018878378 -0.00127 -0.0018109091
0.025914865 0.00127 -0.0021545456
0.0063499999 0.00018142856 -9.2727329e-05
-0.037241891 -0.00127 -0.0011236364
0.0087527027 -0.00127 -0.0018109091
-0.01905 0.00127 -0.0011236364
0.0015445945 -0.00127 -0.0011236364
0.01905 -0.00127 -0.00043636368
0.025228377 -0.00018142856 -0.0028418184
-0.0018878378 -0.00127 -0.00043636368
-0.036212161 -0.00018142856 -0.0021545456
-0.035182431 -0.00090714288 -0.0021545456
0.037585136 -0.00127 -0.0018109091
0.010812161 -0.00127 -0.0018109091
-0.027287837 0.00054428569 -0.0021545456
-0.020766215 -0.00127 -0.0018109091
-0.039644592 0.00127 -0.0021545456
0.044106755 0.00054428569 -0.0021545456
0.00051486486 0.00127 -0.00043636368
0.020079728 0.00018142856 -0.0031854548
-0.019393243 -0.00018142856 -0.0021545456
0.036212161 0.00090714288 -9.2727329e-05
0.028317567 -0.00127 -0.0011236364
0.030033782 -0.00127 -0.0014672728
0.040674321 -0.00018142856 -0.002498182
-0.010812161 0.00127 -0.0014672728
0.04342027 -0.00018142856 0.00059454539
-0.0039472971 -0.00054428569 -0.0021545456
-0.037585136 -0.00127 -0.0021545456
-0.035525676 -0.00018142856 0.0012818181
-0.0032608106 -0.00127 -0.00078000006
-0.030377027 0.00054428569 -0.002498182
0.032779727 -0.00018142856 -0.0042163637
0.033122972 -0.00018142856 -0.0073090913
0.0087527027 0.00018142856 -0.0021545456
-0.022482432 0.00018142856 -9.2727329e-05
-0.02866081 0.00127 -9.2727329e-05
0.0097824326 0.00127 -9.2727329e-05
-0.015274324 -0.00090714288 -0.002498182
-0.02660135 0.00090714288 -0.0021545456
0.020766215 0.00018142856 -0.0021545456
0.028317567 -0.00127 -0.00078000006
0.038614865 -0.00054428569 -0.00043636368
-0.015274324 -0.00054428569 -0.00043636368
-0.014244595 0.00127 -0.0021545456
0.036555406 0.00054428569 -0.0021545456
0.020422973 -0.00018142856 -0.0062781819
-0.031063512 -0.00090714288 -9.2727329e-05
-0.0073797293 0.00018142856 -0.0073090913
-0.012871621 -0.00018142856 -0.0069654547
-0.022139188 0.00127 -0.0011236364
0.017677026 -0.00127 -0.00078000006
-0.002231081 0.00127 -0.0014672728
-0.021109458 -0.00018142856 -0.0021545456
0.021452703 0.00127 -0.0018109091
0.037585136 0.00127 -0.0021545456
-0.021109458 -0.00090714288 -0.0021545456
-0.020422973 -0.00127 -0.0021545456
-0.010125675 -0.00018142856 0.0016254545
0.010125675 0.00018142856 -0.0028418184
0.034152701 0.00127 -0.00043636368
-0.012871621 -0.00018142856 -0.0066218185
0.02454189 -0.00090714288 -0.0021545456
0.041017566 0.00127 -0.0021545456
-0.041017566 -0.00127 -0.0018109091
-0.02557162 0.00018142856 -0.0031854548
0.034495946 -0.00018142856 -9.2727329e-05
0.022482432 -0.00127 -0.00043636368
0.0077229729 0.00127 -0.0018109091
-0.01802027 -0.00018142856 -0.0055909092
-0.0012013513 -0.00127 -0.0014672728
-0.014587837 -0.00127 -0.00078000006
-0.01802027 0.00127 -0.0011236364
-0.0029175675 0.00018142856 -0.002498182
-0.01802027 0.00090714288 -9.2727329e-05
0.022139188 -0.00127 -0.0018109091
-0.036898647 -0.00127 -0.0018109091
0.0032608106 -0.00090714288 -0.002498182
0.011498649 0.00054428569 -0.0021545456
0.024885135 0.00054428569 -0.00043636368
-0.0073797293 0.00018142856 -0.0055909092
0.034495946 -0.00127 -0.0011236364
0.020766215 0.00127 -0.0018109091
0.025228377 -0.00018142856 -0.0076527274
-0.015960811 -0.00018142856 -0.0021545456
0.035182431 -0.00127 -0.00078000006
0.021109458 -0.00127 -9.2727329e-05
0.033122972 -0.00127 -0.0014672728
0.04239054 -0.00054428569 -0.0021545456
0.021109458 -0.00090714288 -9.2727329e-05
0.020422973 -0.00018142856 -0.0073090913
-0.010468919 -0.00054428569 -0.00043636368
0.016647296 0.00127 -0.00043636368
0.033466216 -0.00090714288 -0.0021545456
-0.035525676 -0.00018142856 -0.005247273
-0.0060067568 -0.00127 -0.0011236364
0.014587837 0.00054428569 -0.00043636368
0.016647296 -0.00018142856 -0.0021545456
0.0063499999 0.00127 -0.0014672728
-0.010125675 -0.00018142856 -0.0038727275
0.030720269 -0.00018142856 -0.0059345458
0.0097824326 0.00127 -0.0018109091
-0.017677026 0.00018142856 0.0012818181
-0.020079728 -0.00018142856 -0.002498182
-0.043077026 0.00018142856 -0.0069654547
-0.034152701 0.00127 -9.2727329e-05
0.02557162 -0.00054428569 -0.0021545456
-0.022825675 -0.00018142856 -0.0069654547
-0.038271621 -0.00127 -0.0018109091
0.033122972 0.00127 -0.0014672728
-0.035525676 -0.00127 -0.0021545456
0.024198648 0.00127 -0.0014672728
-0.037928376 0.00018142856 -0.0038727275
-0.022482432 -0.00127 -0.0014672728
0.002231081 0.00127 -0.002498182
0.041704051 0.00054428569 -0.0021545456
0.042733781 -0.00090714288 -0.0021545456
0.035868917 -0.00127 -0.00043636368
0.043077026 -0.00018142856 -0.0073090913
0.030377027 0.00018142856 -0.0055909092
0.022482432 0.00018142856 -9.2727329e-05
-0.0046337838 0.00054428569 -0.002498182
0.033122972 0.00018142856 -0.0045600003
0.0077229729 -0.00018142856 0.0016254545
-0.0077229729 -0.00018142856 -0.0031854548
0.0042905402 -0.00018142856 -0.002498182
-0.0025743241 -0.00018142856 -0.0042163637
-0.024885135 0.00127 -9.2727329e-05
-0.021452703 0.00127 -0.0014672728
-0.0053202701 0.00127 -0.0011236364
-0.016647296 0.00054428569 -0.0021545456
-0.040674321 0.00018142856 -0.0055909092
-0.010812161 0.00127 -0.0011236364
0.00017162162 -0.00090714288 -9.2727329e-05
-0.04342027 0.00018142856 -9.2727329e-05
0.022825675 0.00018142856 -0.0062781819
0.014244595 -0.00054428569 -0.00043636368
-0.017677026 -0.00054428569 -0.002498182
0.027974324 0.00018142856 -0.0076527274
0.025914865 0.00090714288 -0.0021545456
0.010125675 -0.00127 -0.00043636368
-0.015274324 0.00054428569 -0.002498182
-0.022825675 0.00127 -0.0018109091
0.011498649 0.00127 -0.0018109091
-0.012528378 -0.00018142856 0.0023127273
0.0073797293 -0.00127 -0.0014672728
0.012871621 0.00018142856 -0.0045600003
0.034152701 0.00127 -0.0014672728
0.016990541 0.00127 -0.002498182
-0.02866081 -0.00127 -0.0021545456
-0.0073797293 0.00018142856 -0.005247273
-0.023512162 -0.00018142856 -9.2727329e-05
0.016647296 0.00127 -0.0018109091
0.040331081 0.00018142856 -9.2727329e-05
0.033466216 -0.00127 -0.00078000006
-0.0077229729 -0.00018142856 -0.0059345458
0.036898647 0.00127 -0.00043636368
-0.010468919 -0.00127 -0.0018109091
-0.035525676 -0.00018142856 -0.0055909092
0.02557162 0.00018142856 -0.0035290911
0.012185135 -0.00127 -0.00078000006
-0.02454189 0.00054428569 -0.0021545456
0.021795945 -0.00127 -9.2727329e-05
0.004977027 -0.00018142856 0.00025090904
0.025228377 0.00018142856 0.00025090904
0.012528378 0.00018142856 -0.0066218185
0.04342027 0.00018142856 -0.0055909092
0.042047296 -0.00054428569 -0.00043636368
0.024198648 0.00018142856 -0.0021545456
0.025228377 0.00127 -9.2727329e-05
-0.00017162162 -0.00127 -0.0021545456
0.035525676 -0.00018142856 0.00025090904
-0.02557162 0.00018142856 -0.0076527274
-0.039301351 -0.00127 -0.0021545456
0.042733781 -0.00127 -0.0014672728
-0.032779727 -0.00127 -0.0014672728
-0.021452703 -0.00127 -9.2727329e-05
-0.027974324 -0.00018142856 0.0016254545
0.020079728 -0.00018142856 -0.0069654547
0.035868917 -0.00127 -0.0011236364
0.04239054 0.00054428569 -0.0021545456
0.016304053 0.00054428569 -0.00043636368
-0.021109458 -0.00054428569 -0.00043636368
-0.025228377 -0.00018142856 -0.0038727275
-0.010125675 0.00090714288 -0.0021545456
0.022139188 0.00090714288 -0.0021545456
-0.035525676 0.00018142856 0.0023127273
0.0063499999 0.00127 -0.00078000006
0.017677026 0.00090714288 -0.002498182
0.02763108 0.00127 -0.0018109091
0.022482432 -0.00127 -9.2727329e-05
0.038614865 0.00127 -0.00043636368
0.023168918 0.00127 -0.0018109091
-0.013214865 0.00090714288 -9.2727329e-05
0.0073797293 -0.00054428569 -0.00043636368
0.030720269 0.00127 -0.00043636368
0.012871621 0.00018142856 -0.0055909092
0.035868917 -0.00127 -0.0021545456
0.036898647 -0.00054428569 -0.0021545456
0.024198648 0.00127 -0.0018109091
-0.00017162162 -0.00018142856 -0.0042163637
-0.017677026 0.00018142856 -0.0049036364
-0.027287837 -0.00054428569 -0.0021545456
-0.038958106 0.00127 -0.0014672728
0.043077026 0.00127 -0.00043636368
-0.029347297 0.00090714288 -0.0021545456
-0.034495946 -0.00054428569 -0.0021545456
0.027974324 0.00018142856 -9.2727329e-05
-0.035868917 -0.00054428569 -0.00043636368
-0.039301351 -0.00127 -0.00078000006
0.040674321 -0.00018142856 0.0019690909
-0.025228377 -0.00018142856 0.00059454539
-0.0032608106 -0.00018142856 -0.002498182
0.010812161 0.00054428569 -0.002498182
-0.0053202701 -0.00018142856 0.0012818181
-0.0060067568 -0.00054428569 -0.00043636368
-0.038614865 0.00054428569 -0.0021545456
0.0039472971 0.00127 -0.0018109091
0.041017566 -0.00018142856 -9.2727329e-05
-0.011498649 0.00127 -0.0018109091
0.022825675 0.00018142856 -0.0059345458
-0.0039472971 -0.00127 -0.002498182
0.026944594 -0.00018142856 -9.2727329e-05
-0.026944594 0.00054428569 -0.0021545456
-0.0018878378 0.00018142856 -0.002498182
0.022825675 -0.00018142856 0.0016254545
-0.037241891 0.00127 -9.2727329e-05
-0.038958106 0.00127 -0.00078000006
0.029690539 -0.00090714288 -9.2727329e-05
0.017677026 -0.00018142856 -0.0073090913
0.037241891 0.00127 -0.0018109091
-0.043077026 0.00090714288 -0.0021545456
-0.0073797293 -0.00018142856 -0.0073090913
0.018706756 0.00127 -0.00078000006
-0.015617567 -0.00127 -0.00078000006
0.00017162162 0.00018142856 -9.2727329e-05
0.026258107 0.00054428569 -0.0021545456
-0.027974324 -0.00018142856 0.00093818177
-0.0025743241 0.00018142856 0.0026563636
0.027974324 0.00127 -0.00078000006
-0.019736486 0.00127 -0.0011236364
-0.035525676 0.00018142856 0.0019690909
-0.003604054 0.00127 -0.0011236364
0.042047296 0.00090714288 -9.2727329e-05
-0.029004052 0.00127 -0.0011236364
0.023168918 0.00018142856 -0.0038727275
0.014244595 -0.00090714288 -9.2727329e-05
0.02866081 -0.00090714288 -9.2727329e-05
0.020766215 -0.00054428569 -0.00043636368
-0.02454189 0.00127 -0.0011236364
-0.0025743241 -0.00127 -0.0018109091
-0.012528378 -0.00018142856 -0.0073090913
0.0042905402 -0.00018142856 -9.2727329e-05
0.021109458 0.00018142856 -9.2727329e-05
0.014244595 0.00127 -0.00043636368
0.039644592 0.00018142856 -0.00043636368
0.0073797293 0.00090714288 -0.0021545456
-0.037928376 0.00018142856 0.00059454539
-0.0053202701 -0.00018142856 -0.0045600003
0.033466216 -0.00127 -0.00043636368
-0.014931081 0.00054428569 -0.00043636368
0.00017162162 -0.00018142856 -0.0076527274
0.02763108 -0.00127 -0.0021545456
0.0029175675 0.00127 -0.00043636368
-0.020079728 0.00018142856 0.00059454539
0.017677026 -0.00018142856 0.0016254545
-0.0039472971 0.00127 -0.0018109091
-0.031749997 0.00054428569 -0.00043636368
0.02557162 0.00018142856 -0.0069654547
0.0070364862 -0.00127 -0.0021545456
0.04342027 -0.00018142856 -0.0055909092
0.014587837 0.00127 -0.0018109091
0.034495946 0.00127 -0.0011236364
0.04342027 -0.00018142856 0.0023127273
-0.02660135 -0.00127 -0.0021545456
0.0084094591 0.00127 -0.0021545456
0.015274324 0.00018142856 -0.0031854548
0.025914865 0.00127 -0.0011236364
0.036898647 -0.00018142856 -9.2727329e-05
-0.006693243 0.00127 -0.00043636368
-0.01802027 0.00054428569 -0.00043636368
0.012871621 -0.00018142856 -9.2727329e-05
0.00017162162 0.00018142856 -0.0028418184
0.036212161 0.00054428569 -0.0021545456
-0.009439189 0.00127 -0.00043636368
0.010125675 0.00127 -0.0011236364
0.015617567 -0.00018142856 -9.2727329e-05
-0.0042905402 0.00127 -0.0014672728
-0.021109458 -0.00127 -0.00043636368
-0.0077229729 0.00127 -0.0011236364
0.0046337838 -0.00127 -0.0021545456
-0.042047296 0.00127 -0.0011236364
0.020079728 0.00018142856 -0.0042163637
-0.037585136 -0.00127 -0.0014672728
-0.02866081 -0.00090714288 -0.0021545456
-0.0084094591 -0.00127 -0.0011236364
0.032436486 -0.00054428569 -0.0021545456
-0.030720269 -0.00127 -9.2727329e-05
0.038614865 -0.00127 -0.0014672728
-0.024198648 0.00054428569 -0.0021545456
0.029347297 -0.00127 -0.0011236364
-0.017333783 0.00090714288 -9.2727329e-05
-0.012528378 -0.00054428569 -0.002498182
-0.029347297 0.00127 -0.00078000006
0.033122972 0.00018142856 -0.0042163637
0.023168918 -0.00018142856 -0.0028418184
0.014244595 0.00018142856 -9.2727329e-05
0.033122972 0.00090714288 -0.002498182
0.023168918 0.00018142856 -0.002498182
-0.025228377 0.00054428569 -0.00043636368
-0.02557162 0.00018142856 -0.0055909092
0.036212161 -0.00054428569 -0.0021545456
-0.033122972 0.00018142856 -0.0045600003
-0.026944594 0.00018142856 -0.0021545456
0.0073797293 0.00127 -0.0014672728
-0.037928376 -0.00018142856 -0.0059345458
-0.020079728 0.00018142856 -0.0028418184
0.002231081 -0.00127 -9.2727329e-05
0.0077229729 0.00018142856 0.0016254545
0.035868917 0.00090714288 -0.00043636368
-0.025228377 0.00018142856 -0.0028418184
-0.032436486 0.00127 -0.0021545456
0.038614865 0.00018142856 -0.0021545456
0.020079728 -0.00018142856 -0.0055909092
0.0080662156 0.00127 -0.0018109091
0.04342027 -0.00018142856 0.00093818177
-0.014587837 -0.00127 -9.2727329e-05
0.00017162162 -0.00018142856 -9.2727329e-05
0.0025743241 0.00018142856 -0.0079963636
-0.019393243 -0.00127 -9.2727329e-05
0.031406756 -0.00127 -0.00043636368
0.027974324 -0.00018142856 -0.005247273
0.02866081 -0.00127 -0.00043636368
-0.0063499999 -0.00054428569 -0.002498182
0.041704051 -0.00127 -0.00043636368
-0.020422973 0.00018142856 0.0019690909
0.037928376 -0.00127 -0.0021545456
0.017333783 0.00127 -0.0014672728
0.01802027 -0.00018142856 -0.0049036364
0.031406756 -0.00090714288 -0.0021545456
-0.012871621 -0.00018142856 -0.0042163637
-0.019736486 0.00127 -0.0018109091
-0.016647296 -0.00127 -0.00078000006
0.023168918 0.00127 -0.00043636368
0.0060067568 0.00127 -0.00078000006
0.019736486 0.00018142856 -0.0021545456
0.017677026 0.00018142856 -0.0031854548
-0.027974324 -0.00018142856 -0.0076527274
-0.030377027 0.00018142856 -0.0066218185
-0.021795945 -0.00090714288 -9.2727329e-05
0.030377027 -0.00018142856 0.00025090904
-0.030720269 -0.00018142856 -0.005247273
-0.037928376 0.00127 -0.0011236364
-0.026944594 -0.00127 -0.0018109091
0.009439189 0.00127 -0.0011236364
0.032436486 -0.00018142856 -9.2727329e-05
-0.025228377 -0.00018142856 -0.0042163637
-0.01802027 -0.00018142856 -0.0031854548
-0.009439189 -0.00018142856 -9.2727329e-05
-0.020079728 -0.00018142856 -0.0066218185
0.013214865 0.00127 -0.00043636368
0.02557162 -0.00018142856 -0.0028418184
0.012871621 -0.00018142856 -0.0055909092
-0.003604054 0.00127 -0.0014672728
-0.040331081 0.00054428569 -0.0021545456
0.010125675 -0.00018142856 -0.0069654547
-0.030720269 -0.00127 -0.0014672728
-0.032093242 -0.00018142856 -0.0021545456
-0.011155405 -0.00090714288 -0.002498182
-0.033466216 0.00054428569 -0.0021545456
-0.0090959454 -0.00127 -0.0011236364
0.038271621 -0.00127 -0.00078000006
0.02763108 -0.00018142856 -0.0028418184
-0.015274324 -0.00054428569 -0.002498182
-0.038614865 0.00018142856 -9.2727329e-05
0.011155405 -0.00127 -0.0014672728
-0.037241891 0.00127 -0.0018109091
0.0077229729 -0.00090714288 -0.0021545456
0.038614865 -0.00018142856 -9.2727329e-05
-0.0025743241 -0.00018142856 -0.0076527274
-0.031063512 -0.00054428569 -0.00043636368
0.016304053 0.00018142856 -9.2727329e-05
0.040674321 0.00054428569 -0.00043636368
-0.012528378 0.00018142856 -0.002498182
0.004977027 -0.00018142856 0.0012818181
-0.033122972 0.00018142856 0.00025090904
0.042733781 -0.00018142856 -9.2727329e-05
0.0090959454 -0.00127 -0.0014672728
0.032779727 -0.00018142856 -0.0055909092
0.015617567 0.00127 -0.0014672728
-0.02866081 0.00018142856 -9.2727329e-05
0.023168918 -0.00018142856 -0.002498182
0.02557162 -0.00127 -0.00043636368
-0.02763108 0.00090714288 -0.0021545456
0.035525676 -0.00127 -0.0011236364
0.02763108 0.00018142856 0.00025090904
0.024198648 0.00090714288 -9.2727329e-05
0.014587837 -0.00127 -0.0014672728
-0.037928376 0.00018142856 0.00093818177
0.0015445945 0.00127 -0.0014672728
-0.027974324 -0.00018142856 -0.0055909092
0.029347297 -0.00090714288 -9.2727329e-05
0.025228377 -0.00127 -0.0021545456
-0.010125675 0.00018142856 0.0019690909
0.020079728 -0.00018142856 -0.0049036364
0.030377027 0.00018142856 0.0012818181
-0.029690539 0.00018142856 -0.0021545456
0.023855405 0.00090714288 -0.002498182
-0.0042905402 -0.00054428569 -0.0021545456
-0.040674321 -0.00018142856 -0.0069654547
-0.040331081 0.00127 -0.0018109091
0.02557162 -0.00018142856 0.00059454539
-0.0084094591 -0.00054428569 -0.0021545456
-0.036555406 -0.00018142856 -0.0021545456
-0.030377027 -0.00018142856 -0.0076527274
-0.04136081 0.00018142856 -9.2727329e-05
-0.020422973 0.00018142856 0.0012818181
0.012528378 -0.00090714288 -9.2727329e-05
-0.003604054 -0.00090714288 -0.002498182
-0.010125675 0.00018142856 -0.0076527274
-0.029347297 0.00127 -0.0018109091
0.022825675 0.00018142856 0.0012818181
-0.02763108 -0.00127 -0.0014672728
0.027287837 0.00127 -0.00043636368
-0.01905 -0.00127 -0.0014672728
-0.0025743241 -0.00127 -0.002498182
0.010125675 0.00018142856 -0.0042163637
-0.0097824326 0.00018142856 -9.2727329e-05
0.018363513 0.00054428569 -0.0021545456
-0.040674321 -0.00127 -0.00043636368
0.040674321 -0.00018142856 -0.0049036364
-0.033466216 0.00127 -0.0021545456
-0.030033782 0.00054428569 -0.00043636368
-0.004977027 0.00127 -0.0018109091
-0.022825675 0.00018142856 0.00093818177
0.0032608106 -0.00127 -0.0014672728
-0.037928376 -0.00127 -0.00078000006
-0.037928376 0.00018142856 -0.0045600003
0.014244595 0.00127 -9.2727329e-05
-0.027287837 -0.00127 -0.0014672728
0.023168918 -0.00018142856 -0.0035290911
0.010125675 0.00127 -0.0014672728
-0.00085810811 -0.00054428569 -0.002498182
0.04136081 0.00127 -0.0021545456
-0.0053202701 0.00018142856 -0.002498182
0.02866081 0.00127 -9.2727329e-05
0.00085810811 0.00127 -0.00078000006
0.038271621 -0.00018142856 -0.0059345458
-0.041704051 -0.00018142856 -0.0021545456
-0.016990541 0.00018142856 -0.0021545456
0.0070364862 -0.00127 -0.0014672728
0.032779727 0.00127 -9.2727329e-05
-0.019393243 0.00018142856 -0.0021545456
-0.020422973 0.00018142856 -0.0042163637
-0.00017162162 0.00090714288 -0.002498182
-0.022825675 -0.00127 -0.00078000006
0.0012013513 0.00090714288 -0.002498182
0.034839187 -0.00127 -9.2727329e-05
0.016647296 -0.00054428569 -0.00043636368
0.014587837 0.00127 -9.2727329e-05
0.010125675 -0.00018142856 -0.0028418184
-0.025914865 0.00127 -0.00078000006
-0.026944594 0.00127 -0.0014672728
-0.022139188 -0.00127 -0.0011236364
-0.039987836 -0.00127 -0.0021545456
0.0080662156 0.00054428569 -0.002498182
0.038271621 -0.00018142856 -0.0045600003
0.018363513 -0.00127 -0.0014672728
0.030377027 -0.00018142856 0.0019690909
