# .PCD v0.7 - Point Cloud Data file format
VERSION 0.7
FIELDS x y z
SIZE 4 4 4
TYPE F F F
COUNT 1 1 1
WIDTH 1196
HEIGHT 1
VIEWPOINT 0 0 0 1 0 0 0
POINTS 1196
DATA ascii
0.0014224 -0.00028677419 -0.0066050352
0.0032918402 0.00061451615 -0.0024537065
0.0012598401 0.00028677419 0.0022674126
0.0034544002 0.00012290322 -0.0079074129
-0.0019100801 -0.00127 -0.00017454554
0.0040233601 4.0967741e-05 -0.005791049
-0.00508 0.00069645164 -0.0019653148
0.00158496 0.00028677419 -0.0033490912
0.00150368 -0.00012290322 -0.0050584618
-0.0038608001 0.00012290322 -0.0081516085
-0.0041046403 -0.00127 -0.0015583218
-0.00028448002 0.001106129 -0.0024537065
0.00377952 -0.00020483871 -0.0044886717
0.0040233601 4.0967741e-05 -0.0077446154
-0.0032105602 -0.00069645164 -9.3146933e-05
0.00369824 -0.00028677419 -0.0033490912
0.00052832003 0.00086032256 -0.0024537065
-0.00508 0.00020483871 -0.0013955246
0.00052832003 0.00086032256 -1.174833e-05
0.00093472004 0.00012290322 -0.0075818184
-0.00085344003 -0.001106129 -1.174833e-05
0.0010160001 4.0967741e-05 -0.0076632169
0.00028448002 -0.00053258066 -0.00025594415
-0.00508 -0.00028677419 -0.0018025176
0.00377952 0.00028677419 -0.0059538465
0.0040233601 4.0967741e-05 0.0025116084
0.0039420803 -0.00020483871 -0.0063608396
-0.0010160001 -4.0967741e-05 0.00096503494
0.0041859201 0.00127 -0.00074433576
0.0014224 0.00028677419 -0.0035118882
0.00377952 -0.00127 -0.00033734273
0.0023977601 -0.00077838707 -0.00017454554
-0.0014224 0.00127 -0.0023723079
0.0043484801 0.0010241936 -1.174833e-05
-0.0026416001 -0.00127 -9.3146933e-05
0.00044704002 -0.00127 -0.00058153854
-0.0042672004 0.001106129 -0.0022909092
-0.0013411201 0.00127 -0.001314126
-0.0013411201 -0.00020483871 -0.0083144056
0.0036169603 0.00028677419 0.0016162237
-0.0038608001 -0.00028677419 -0.0031048954
-0.00150368 0.00020483871 -0.0077446154
0.00093472004 0.00020483871 -0.0043258741
0.0038608001 -0.00086032256 -0.00017454554
-0.0034544002 0.0011880645 -0.0023723079
0.0041046403 0.00020483871 -0.0026979023
-0.0029667201 0.0011880645 -1.174833e-05
-0.0035356802 4.0967741e-05 -0.0044072731
0.0031292802 -0.00028677419 -1.174833e-05
-0.0032105602 -0.00086032256 -0.0023723079
0.0041046403 0.00077838707 -0.0023723079
-0.0010160001 0.00020483871 -0.0074190213
-0.0010160001 0.00127 -0.00025594415
0.0040233601 0.00020483871 -0.0057096505
0.00508 -0.00045064517 -0.001314126
-0.0041859201 -0.00053258066 -0.00025594415
0.00508 -0.00036870968 -0.00058153854
0.0040233601 -0.00020483871 -0.0026979023
-0.0034544002 -0.00020483871 -0.0067678322
0.0040233601 0.00012290322 -0.0042444756
-0.00158496 4.0967741e-05 0.00055804191
0.0010160001 -0.00020483871 -0.0072562238
0.0035356802 -0.00020483871 -0.0054654549
0.0014224 -0.00127 -0.00090713298
0.0032918402 -0.00028677419 -0.0024537065
0.0036169603 -0.00086032256 -0.00017454554
-0.0014224 -0.00127 -0.00082573434
-0.00044704002 0.00094225805 -1.174833e-05
-0.00158496 -0.00028677419 -0.005791049
-0.0032105602 0.00012290322 -0.0024537065
0.00491744 0.001106129 -0.0010699301
0.0041859201 -0.0011880645 -0.00098853162
-0.0045110402 -0.00036870968 -1.174833e-05
0.0032918402 -0.00127 -0.00025594415
0.0011785601 -0.00028677419 -0.0039188815
0.00215392 -0.00127 -0.001721119
0.0033731202 0.00127 -0.0013955246
0.0028854401 0.0011880645 -0.0024537065
0.0040233601 0.00012290322 -0.0068492312
-4.0640003e-05 0.00127 -0.0018025176
-0.00093472004 -0.00012290322 -0.0035118882
-0.0028854401 -0.0011880645 -0.0024537065
-0.00093472004 4.0967741e-05 -0.002535105
-0.0034544002 -4.0967741e-05 -0.005791049
-0.00377952 -0.00028677419 -0.0053026574
-0.00508 0.00061451615 -0.00025594415
0.0017475201 -0.00036870968 -1.174833e-05
-0.0028854401 -0.00069645164 -9.3146933e-05
0.0013411201 -0.00028677419 -0.0052212588
0.00150368 0.00028677419 0.00080223772
0.00158496 -0.001106129 -0.0023723079
0.0039420803 0.00127 -0.00090713298
0.0039420803 -0.00020483871 0.0012906293
0.0011785601 0.00028677419 -0.0031862939
0.0046736002 0.00077838707 -0.0024537065
-0.0010160001 0.00028677419 -0.0034304897
0.0040233601 -0.00020483871 -0.0053840564
-0.00231648 -0.00020483871 -0.0024537065
-0.0023977601 -0.00061451615 -0.0024537065
0.00036576 -0.00127 -0.0019653148
-0.00215392 -0.00127 -0.00017454554
0.0025603201 -0.00069645164 -0.0024537065
-0.00491744 -0.00069645164 -1.174833e-05
-0.00158496 4.0967741e-05 -0.0027793008
-0.0014224 0.00028677419 -0.0061166435
0.00369824 0.00127 -0.00066293718
0.00012192001 0.00053258066 -0.002535105
-0.0036169603 0.00127 -0.0016397204
0.00093472004 0.00020483871 -0.0051398603
-0.0046736002 0.0010241936 -0.0010699301
0.0010160001 -0.00012290322 -0.0054654549
0.0035356802 -4.0967741e-05 0.00055804191
0.0014224 -0.00127 -0.0011513288
0.00158496 0.00020483871 -0.0064422381
-0.00369824 -0.00127 -0.00082573434
0.0036169603 -0.00028677419 -0.0047328672
0.00077216001 -0.00077838707 -1.174833e-05
-0.00158496 -0.00053258066 -0.00025594415
-0.0042672004 -0.0011880645 -0.0024537065
-0.00475488 -0.001106129 -0.001721119
-0.00508 0.00036870968 -0.0019653148
0.0039420803 -0.00028677419 -1.174833e-05
0.0040233601 -0.0011880645 -0.00017454554
0.00093472004 0.00020483871 0.0021046153
0.00207264 0.00127 -0.0018025176
-0.0049987203 -0.00061451615 -0.0023723079
0.00508 -0.00028677419 -0.00041874134
-0.0017475201 -0.00061451615 -0.002535105
0.00207264 0.00127 -0.0022909092
-0.00085344003 0.00077838707 -0.0024537065
-0.0041046403 -0.00012290322 -0.0076632169
-0.00215392 -0.00127 -0.0015583218
0.00459232 -0.001106129 -0.0010699301
-0.00069088 0.00045064517 -0.002535105
-0.00231648 0.00127 -0.001314126
0.0011785601 -0.00127 -0.00025594415
0.0010160001 -0.00020483871 -0.0028606995
0.0036169603 0.00028677419 -0.0061166435
0.00491744 -0.00020483871 -0.0023723079
-0.0014224 0.00127 -0.00058153854
0.0023977601 -0.00086032256 -9.3146933e-05
-0.00369824 0.00012290322 -0.0036746855
0.0032105602 -0.00127 -0.00082573434
-0.00508 0.00012290322 -1.174833e-05
-0.00508 0.00028677419 -0.00098853162
0.0017475201 0.00045064517 -9.3146933e-05
0.00052832003 -0.00127 -0.0010699301
-0.0035356802 4.0967741e-05 -0.0050584618
0.0035356802 0.00020483871 -0.0075818184
-0.0034544002 -4.0967741e-05 -0.0068492312
0.0014224 -0.00028677419 -0.0031048954
0.00377952 -0.00020483871 0.0004766433
-0.00150368 0.00028677419 -0.0035118882
-0.00377952 -0.00028677419 -0.0048142658
-0.0032105602 -0.00077838707 -0.0023723079
-0.00077216001 0.00053258066 -0.002535105
-0.00475488 -0.00053258066 -0.0024537065
-0.00231648 -0.00127 -0.0023723079
0.0028041601 -0.00086032256 -0.0023723079
-0.0017475201 -0.00127 -0.00033734273
-0.00508 -0.00086032256 -0.0015583218
0.00158496 0.00020483871 -0.0053026574
-0.0028041601 -0.00086032256 -1.174833e-05
0.0040233601 0.00028677419 0.0004766433
4.0640003e-05 -0.00127 -0.0021281121
-0.0011785601 -0.00028677419 -0.0079074129
-0.0032918402 0.00127 -0.001721119
-0.0011785601 -0.00028677419 0.0015348252
0.0041046403 -0.0010241936 -0.0023723079
0.0033731202 0.00094225805 -1.174833e-05
-4.0640003e-05 -0.00086032256 -0.002535105
0.0031292802 -4.0967741e-05 -1.174833e-05
0.00093472004 -0.00045064517 -1.174833e-05
0.0030480002 -0.0011880645 -0.00017454554
0.00508 4.0967741e-05 -0.0011513288
-0.0034544002 -4.0967741e-05 -0.0029420981
-0.0010160001 0.00012290322 0.0014534266
0.0035356802 0.00053258066 -0.00025594415
-0.0010160001 4.0967741e-05 -0.0070934268
-0.00028448002 0.00127 -0.00090713298
-0.0032918402 -0.00036870968 -1.174833e-05
-0.00158496 -0.00028677419 0.0013720279
-0.0036169603 -0.00028677419 0.0023488111
-0.0039420803 0.00028677419 -0.002535105
-0.0013411201 0.00127 -0.0023723079
-0.0010160001 -4.0967741e-05 -0.0070120282
-0.0036169603 -0.00028677419 -0.003593287
-0.0044297604 -0.0011880645 -0.0022909092
0.00028448002 -0.00127 -0.00041874134
0.0040233601 0.00020483871 0.0012906293
0.0019100801 -0.00053258066 -0.0024537065
0.0038608001 0.00028677419 -0.0044072731
-0.0025603201 -0.00036870968 -0.0024537065
0.0041046403 0.00127 -0.0018025176
0.0043484801 0.00127 -0.00041874134
0.0040233601 -0.00020483871 -0.002535105
-0.0011785601 -0.00028677419 6.9650276e-05
0.0032918402 -0.00077838707 -0.0023723079
-0.0034544002 -4.0967741e-05 -0.0063608396
0.0032918402 -0.00127 -0.0021281121
0.0017475201 -0.00127 -0.00082573434
-0.00508 0.00012290322 -0.0021281121
0.0010160001 -4.0967741e-05 0.0015348252
0.00093472004 0.00012290322 0.0012092307
-0.0036169603 -4.0967741e-05 -0.00807021
0.00459232 0.0010241936 -0.0024537065
0.00369824 0.00028677419 0.0015348252
4.0640003e-05 0.00045064517 -0.00017454554
0.0034544002 0.00020483871 0.0019418182
0.00158496 0.00028677419 -0.0035118882
-0.0034544002 -4.0967741e-05 0.0014534266
-0.0014224 0.00028677419 -0.0046514687
-0.00508 0.00045064517 -0.0013955246
-0.0040233601 4.0967741e-05 0.0016162237
-0.00069088 -0.001106129 -0.0024537065
-0.00012192001 0.00094225805 -1.174833e-05
0.00158496 4.0967741e-05 0.00023244748
0.00093472004 -0.00127 -0.00074433576
-0.0019100801 0.00086032256 -0.0024537065
-0.00158496 -0.00028677419 -0.0053026574
-0.0044297604 0.00086032256 -0.00017454554
-0.0028041601 0.0010241936 -0.0023723079
0.0010160001 -0.00053258066 -0.0024537065
0.0039420803 -0.00012290322 0.0024302099
-0.00508 -0.00020483871 -0.00025594415
-0.0032105602 -0.00077838707 -0.00017454554
0.0013411201 -0.00045064517 -9.3146933e-05
-0.0039420803 -0.00020483871 0.0025116084
-0.00207264 0.00127 -0.0012327274
0.0012598401 0.00127 -9.3146933e-05
-0.0018288001 -0.00127 -0.0024537065
0.00093472004 0.00012290322 -0.0033490912
-0.0010160001 0.00020483871 -0.0045700702
-0.00150368 0.00028677419 -0.0068492312
-0.00231648 -0.00028677419 -1.174833e-05
0.0040233601 -0.00012290322 -0.0077446154
-0.0026416001 0.00086032256 -1.174833e-05
-0.0023977601 0.0011880645 -0.0023723079
-0.00093472004 0.00036870968 -1.174833e-05
-0.0032918402 0.001106129 -1.174833e-05
0.0010160001 0.00028677419 0.0018604195
0.00377952 0.00028677419 0.0013720279
0.0041046403 0.00127 -0.0010699301
0.0011785601 -0.00069645164 -0.00025594415
-0.0014224 0.00028677419 -0.0036746855
-0.0010972801 -0.00127 -0.0018025176
-0.0040233601 4.0967741e-05 0.00055804191
-0.00150368 0.00012290322 -0.0076632169
0.0024790401 -0.001106129 -0.0023723079
0.0010160001 -0.00020483871 -0.0044886717
-0.0040233601 0.0011880645 -0.00058153854
0.00158496 0.00127 -0.0021281121
0.00028448002 0.00127 -1.174833e-05
-0.00207264 0.001106129 -0.00017454554
-0.00028448002 -0.00127 -0.001314126
-0.00093472004 -0.00012290322 0.00031384607
-0.0040233601 0.00012290322 -0.005872448
-0.00491744 0.00012290322 -1.174833e-05
-0.00491744 0.00086032256 -0.00041874134
-0.00369824 -0.00028677419 -0.0065236366
-0.0011785601 -0.00028677419 0.0022674126
-0.0027228801 0.00127 -0.0015583218
-0.00150368 0.001106129 -9.3146933e-05
-0.00012192001 -0.00020483871 -0.002535105
-0.00215392 0.001106129 -0.00017454554
-0.00508 0.00061451615 -0.001314126
0.00150368 -0.00127 -0.00058153854
0.00158496 4.0967741e-05 0.0021860139
-0.00508 -4.0967741e-05 -9.3146933e-05
0.0019100801 0.00127 -0.00066293718
0.00150368 -0.00020483871 -0.0040002801
-0.0042672004 -4.0967741e-05 -1.174833e-05
-0.0011785601 0.0011880645 -1.174833e-05
0.0039420803 -0.00061451615 -0.00025594415
-0.0017475201 0.00127 -0.00058153854
0.00166624 -4.0967741e-05 -0.002535105
0.0013411201 0.00028677419 -0.0079074129
0.00158496 0.00020483871 0.00039524469
-0.0013411201 -0.00028677419 -0.0042444756
-0.0031292802 0.00127 -0.0023723079
-0.0025603201 -0.00061451615 -0.00025594415
0.00077216001 0.00012290322 -1.174833e-05
-0.0028041601 0.00045064517 -1.174833e-05
0.0013411201 0.00028677419 0.0018604195
0.00012192001 0.00127 -0.00017454554
-0.0028854401 0.00036870968 -0.00025594415
0.0039420803 -0.00020483871 -0.0056282519
0.00150368 -0.00028677419 -0.0048142658
-0.0022352 -0.00020483871 -0.0024537065
-0.00377952 0.00012290322 -0.0027793008
-0.0010160001 0.00020483871 -0.006035245
-0.0039420803 0.00020483871 0.0022674126
0.00093472004 0.00028677419 -0.0029420981
0.0022352 0.00012290322 -1.174833e-05
-0.00377952 -0.00127 -0.0018025176
0.0010160001 0.00028677419 -0.0072562238
-0.00508 -0.00061451615 -0.00082573434
0.00491744 -0.00053258066 -0.00025594415
0.0010160001 -4.0967741e-05 0.0004766433
0.0034544002 0.00127 -9.3146933e-05
0.0012598401 -0.00028677419 -0.0046514687
0.0010160001 -0.00086032256 -0.00017454554
0.00508 0.00036870968 -0.0016397204
0.00369824 -0.00028677419 -0.0043258741
0.00207264 -0.00069645164 -0.0024537065
0.0012598401 0.00028677419 -0.0062794406
-0.0040233601 -0.00028677419 -0.0076632169
0.0014224 0.00012290322 -0.0081516085
0.0025603201 0.00127 -0.00058153854
0.0011785601 -0.00127 -0.00074433576
-0.0039420803 0.00012290322 -0.0063608396
0.0038608001 0.00127 -0.0020467134
-0.0035356802 0.00012290322 -0.0056282519
0.00158496 0.00127 -0.0024537065
0.0038608001 0.00028677419 -0.0033490912
-0.0043484801 -0.00127 -0.0022909092
0.0027228801 0.00012290322 -1.174833e-05
-0.0011785601 -0.00028677419 -0.0045700702
-0.0019100801 0.00127 -1.174833e-05
0.00199136 0.00127 -0.0020467134
0.0034544002 0.00012290322 0.0021046153
-0.0026416001 0.00028677419 -0.00017454554
-0.00508 -0.00028677419 -0.00082573434
0.0048361602 -0.00094225805 -0.0011513288
-0.00215392 0.00069645164 -0.00025594415
-0.0049987203 -0.00069645164 -0.0024537065
0.0031292802 -0.00127 -0.00017454554
-0.00028448002 -0.00012290322 -1.174833e-05
-0.0011785601 -0.00028677419 -0.0032676924
-0.0018288001 0.00127 -0.0011513288
0.00093472004 -0.00077838707 -0.00017454554
-0.0026416001 -0.00086032256 -1.174833e-05
-0.0011785601 0.00028677419 -0.0071748253
-0.00508 -0.00053258066 -0.00082573434
-0.0044297604 0.001106129 -0.00058153854
-0.0023977601 -0.00069645164 -0.0024537065
-0.0039420803 0.00012290322 -0.0031862939
-0.0043484801 -0.00127 -0.0024537065
0.0040233601 0.00012290322 0.00080223772
0.0010160001 -0.00028677419 -0.0057096505
-0.00077216001 0.00127 -0.0022909092
0.0039420803 -0.00127 -0.0014769232
0.0010160001 -4.0967741e-05 0.00063944049
0.0024790401 0.00127 -0.0014769232
0.00052832003 -0.00127 -0.0018025176
-0.00012192001 -0.00127 -0.0021281121
-0.0041046403 0.00012290322 -0.002535105
0.0022352 -0.00127 -0.00050013995
-0.0034544002 -4.0967741e-05 -0.0047328672
0.0029667201 0.00077838707 -1.174833e-05
-0.0039420803 -0.0011880645 -0.0024537065
0.0036169603 -0.00028677419 -0.0050584618
-0.00044704002 0.00127 -0.00058153854
0.0012598401 -0.00028677419 0.0012906293
-0.0027228801 -0.00077838707 -1.174833e-05
-0.0019100801 0.00053258066 -0.00025594415
-0.0019100801 0.00053258066 -0.0024537065
-0.0041046403 0.00094225805 -0.00017454554
0.0031292802 -0.00045064517 -9.3146933e-05
-0.0032918402 0.00127 -0.0013955246
0.0048361602 -0.00094225805 -0.00074433576
-0.00158496 -0.00020483871 -0.0053026574
-0.0031292802 -0.00036870968 -0.0024537065
-0.0044297604 0.001106129 -0.001314126
0.0040233601 0.00028677419 -0.0067678322
0.00044704002 0.00077838707 -0.00017454554
-0.0029667201 -0.00020483871 -0.0024537065
0.0034544002 -0.00012290322 -0.002535105
0.00377952 -0.00020483871 -0.0061166435
-0.0041046403 -0.00094225805 -1.174833e-05
0.0039420803 -0.00020483871 -0.0055468534
0.00369824 0.00127 -0.001721119
-0.00369824 0.00012290322 -0.0057096505
0.0013411201 0.00028677419 -0.0078260144
0.00369824 0.00127 -0.00082573434
-0.00093472004 0.00045064517 -1.174833e-05
0.0011785601 -0.00127 -0.001314126
-0.00158496 -0.00012290322 0.0014534266
0.00052832003 -0.00061451615 -0.002535105
0.00231648 -0.00127 -0.00074433576
-0.00044704002 -0.00127 -0.00058153854
0.0048361602 -0.0010241936 -0.0011513288
0.00231648 0.00028677419 -0.0024537065
0.00231648 0.00094225805 -0.0024537065
0.0011785601 0.00020483871 0.0027558042
0.00231648 0.00127 -0.00090713298
0.00150368 0.00028677419 -0.0055468534
-0.00377952 -0.00028677419 0.0010464335
-0.00508 0.00028677419 -0.001721119
0.00158496 0.00020483871 0.0004766433
-0.0045110402 0.00094225805 -0.0023723079
-0.0010972801 0.00028677419 0.0021046153
-0.0039420803 -0.00028677419 -0.00807021
0.0011785601 0.00028677419 6.9650276e-05
-0.0010160001 4.0967741e-05 -0.0062794406
-0.0038608001 -0.00028677419 0.0024302099
0.0032105602 -4.0967741e-05 -1.174833e-05
-0.0034544002 -4.0967741e-05 -0.0050584618
0.0011785601 -0.00028677419 -0.0075818184
-0.0036169603 0.00012290322 -0.0065236366
-0.0038608001 -0.00127 -0.0021281121
-0.0043484801 0.00045064517 -0.0024537065
-0.00158496 -0.00028677419 0.0016976224
0.0013411201 0.00077838707 -0.0024537065
-0.0010160001 -4.0967741e-05 -0.0066864337
-0.00369824 0.00012290322 -0.0032676924
-0.0046736002 -0.0011880645 -0.0021281121
-0.00377952 0.00012290322 -0.0052212588
0.0012598401 0.00028677419 0.00080223772
-0.00150368 0.00012290322 -0.0030234966
0.00459232 0.0011880645 -0.00017454554
-0.0035356802 4.0967741e-05 -0.0052212588
-0.00508 -0.00028677419 -0.0016397204
0.0011785601 0.00028677419 -0.0028606995
-0.0010160001 0.00077838707 -1.174833e-05
0.00508 -0.00061451615 -0.00041874134
-0.00052832003 -0.00127 -0.00050013995
-0.0019100801 0.00086032256 -1.174833e-05
0.0040233601 -0.00020483871 -0.0038374828
0.0040233601 0.00028677419 0.0018604195
0.00508 -0.00069645164 -0.0010699301
-4.0640003e-05 0.00028677419 -0.002535105
-0.0028041601 -4.0967741e-05 -1.174833e-05
-0.0010160001 0.00012290322 -0.0075004199
0.0040233601 0.00028677419 0.00015104888
-0.0014224 -4.0967741e-05 -0.0081516085
-0.0010160001 4.0967741e-05 0.0018604195
-0.00475488 -0.00028677419 -1.174833e-05
-0.0029667201 -0.00053258066 -0.0024537065
0.0010160001 -0.00020483871 0.00039524469
-0.0032105602 0.00028677419 -0.00017454554
0.00166624 -0.00045064517 -0.0024537065
0.00150368 -0.00061451615 -0.00025594415
-0.00166624 0.001106129 -1.174833e-05
-0.0014224 -0.00053258066 -0.002535105
-0.0034544002 -4.0967741e-05 -0.0039188815
0.0038608001 0.00028677419 0.0004766433
-0.0010160001 -4.0967741e-05 0.00015104888
0.0013411201 0.00127 -0.0022909092
-0.0010160001 0.00045064517 -9.3146933e-05
0.0028854401 0.0010241936 -1.174833e-05
-0.0018288001 -0.00094225805 -0.0024537065
-0.0040233601 -0.00127 -0.00017454554
0.0043484801 0.00127 -0.0024537065
-0.0038608001 0.00069645164 -0.00017454554
0.0017475201 0.00127 -9.3146933e-05
0.0032105602 0.00045064517 -0.0024537065
-0.0041046403 0.00036870968 -0.0024537065
-0.00150368 -0.00127 -0.0023723079
-0.00093472004 0.00012290322 0.00039524469
0.0010972801 -0.00127 -0.0018839162
-0.00377952 0.0011880645 -0.0023723079
0.0010160001 -4.0967741e-05 -0.0050584618
0.00150368 0.00028677419 -0.0040816786
0.0038608001 0.00028677419 0.00080223772
-0.00036576 -0.00127 -0.0019653148
0.0002032 -0.0011880645 -1.174833e-05
-0.0032105602 -0.00069645164 -0.00017454554
-0.0011785601 -0.00028677419 0.0014534266
0.00508 0.00053258066 -0.00090713298
-0.0010160001 0.00020483871 0.0011278321
-0.00166624 0.00086032256 -0.0024537065
0.00215392 -0.00127 -0.00025594415
-0.0034544002 -0.00020483871 -0.0057096505
0.0039420803 0.00028677419 -0.0045700702
-0.0032105602 -0.00127 -0.0014769232
-0.00369824 -0.00127 -0.00066293718
-0.00369824 -0.00077838707 -0.00017454554
0.00060960004 -0.00028677419 -1.174833e-05
-0.00044704002 0.00127 -0.0022095107
0.00231648 0.00127 -0.00074433576
-0.0028041601 -0.00020483871 -1.174833e-05
-0.0049987203 -0.00094225805 -0.00098853162
0.0002032 0.00045064517 -9.3146933e-05
0.0010160001 0.00028677419 -0.0050584618
-0.0032918402 -0.00127 -0.00058153854
0.0014224 0.00077838707 -1.174833e-05
0.0035356802 -0.00020483871 -0.003756084
-0.0010972801 4.0967741e-05 -0.0081516085
-0.0048361602 0.00036870968 -9.3146933e-05
0.00508 4.0967741e-05 -0.0023723079
0.0046736002 -0.00012290322 -1.174833e-05
0.00207264 0.00127 -0.0022095107
-0.0014224 -0.00028677419 -0.0070120282
-0.0038608001 0.00012290322 -0.0032676924
0.0049987203 0.00045064517 -1.174833e-05
0.0045110402 0.00036870968 -0.0024537065
0.0040233601 0.00012290322 0.0014534266
0.00158496 0.00012290322 -0.0032676924
0.00166624 0.00069645164 -0.00025594415
0.0039420803 0.00028677419 -0.0028606995
0.00207264 -0.00127 -0.00025594415
0.00052832003 0.00127 -0.0014769232
-0.0013411201 0.00028677419 -0.0073376228
-0.0011785601 -0.00028677419 -0.0034304897
0.00508 -0.00053258066 -0.0018839162
0.00069088 0.00127 -0.00098853162
-0.0045110402 -0.00127 -0.0020467134
0.00377952 0.00127 -0.00090713298
-0.0025603201 -0.00086032256 -1.174833e-05
-0.0031292802 -0.0010241936 -1.174833e-05
-0.00093472004 0.00012290322 0.00072083907
0.0013411201 0.00028677419 -0.0052212588
0.00028448002 0.00061451615 -0.002535105
-0.00052832003 -0.00127 -0.0011513288
-0.00012192001 4.0967741e-05 -1.174833e-05
-0.0033731202 -0.00127 -0.0014769232
0.00158496 0.00012290322 -0.0078260144
0.00085344003 -0.00127 -0.00098853162
-0.0010160001 0.00012290322 -0.0054654549
-0.00158496 0.00012290322 6.9650276e-05
-0.0019100801 -0.001106129 -0.0024537065
0.00150368 -0.00020483871 -0.0061166435
0.00158496 0.00012290322 0.0019418182
0.0023977601 0.00127 -0.001314126
0.00508 0.00020483871 -0.00025594415
-0.0026416001 -0.00053258066 -0.0024537065
0.0043484801 0.001106129 -1.174833e-05
0.00077216001 -0.0010241936 -0.0024537065
-0.00459232 0.00045064517 -9.3146933e-05
0.00150368 0.00028677419 -0.0032676924
0.00158496 -4.0967741e-05 0.0016976224
0.0040233601 -4.0967741e-05 -0.0048956648
0.00150368 -0.00012290322 -0.0031048954
-0.0010160001 4.0967741e-05 -0.0061166435
-0.00166624 -0.0010241936 -1.174833e-05
0.00207264 0.00127 -0.0013955246
-0.0042672004 0.00094225805 -0.00017454554
-0.0022352 0.00069645164 -0.00025594415
-0.00158496 -0.00020483871 -0.0050584618
0.0040233601 -0.00127 -0.0014769232
-0.00158496 -4.0967741e-05 -0.0027793008
0.0031292802 0.00127 -0.0013955246
0.0040233601 -4.0967741e-05 -0.0052212588
-0.0034544002 -0.00012290322 0.00055804191
0.00052832003 -0.00045064517 -9.3146933e-05
-0.00150368 -0.00028677419 0.00072083907
0.00093472004 0.00020483871 -0.003756084
0.0014224 -0.00086032256 -0.00017454554
0.0040233601 0.00020483871 -0.0046514687
-0.0034544002 -0.00094225805 -0.0024537065
-0.00085344003 -0.00077838707 -0.00017454554
0.00085344003 0.001106129 -0.0024537065
0.0036169603 -0.00127 -0.00066293718
0.0039420803 0.00028677419 0.0022674126
-0.0018288001 0.00127 -0.0012327274
-0.0041046403 0.0011880645 -0.0019653148
-0.00508 0.00028677419 -0.0011513288
-0.0049987203 0.00045064517 -0.0018025176
-0.0034544002 -0.00012290322 -0.0075818184
0.0012598401 -0.00028677419 -0.0030234966
-0.0014224 0.00028677419 -0.0039188815
0.00199136 -0.00127 -0.00082573434
0.0040233601 4.0967741e-05 -0.0047328672
0.0010160001 0.00127 -0.0010699301
-0.0013411201 0.00028677419 -0.0035118882
-0.00077216001 0.00012290322 -0.002535105
-0.00369824 0.00012290322 -0.0033490912
0.0039420803 -0.00020483871 -0.005791049
0.0048361602 -0.00094225805 -0.001314126
0.0024790401 0.00127 -0.00074433576
0.00491744 0.001106129 -0.00074433576
0.0040233601 -4.0967741e-05 0.00039524469
-0.0014224 -0.00028677419 0.0012092307
0.0042672004 0.00012290322 -1.174833e-05
-0.0039420803 0.00077838707 -0.00017454554
0.0025603201 4.0967741e-05 -0.0023723079
0.0010160001 0.00028677419 -0.0028606995
0.0032105602 0.00045064517 -9.3146933e-05
-0.0040233601 -0.00020483871 0.00023244748
-0.0018288001 0.00127 -0.00017454554
-0.0023977601 0.00127 -0.0019653148
-0.0002032 -0.00127 -0.0010699301
-0.0032918402 -0.00094225805 -1.174833e-05
0.0040233601 0.00045064517 -0.0024537065
0.0010972801 0.00127 -0.0014769232
-0.00377952 0.00012290322 -0.0028606995
0.0040233601 -4.0967741e-05 -0.0051398603
0.0034544002 4.0967741e-05 -0.0049770633
0.00369824 -0.00028677419 -0.0061980421
0.0049987203 -0.00036870968 -0.0022909092
-0.0012598401 0.00028677419 -0.0064422381
-0.00166624 0.00045064517 -0.00017454554
0.00377952 0.00127 -0.0012327274
-0.0030480002 0.00086032256 -0.0023723079
-0.0040233601 -4.0967741e-05 -0.0038374828
-0.00459232 0.001106129 -0.00098853162
0.0040233601 -0.00012290322 -0.0040816786
0.0019100801 0.00127 -0.0022095107
-0.00093472004 0.00127 -0.0019653148
0.0045110402 -0.00028677419 -0.0023723079
0.0010160001 -4.0967741e-05 -0.0065236366
-0.00036576 0.00127 -0.0023723079
0.0039420803 -0.00127 -0.001314126
0.0040233601 0.00028677419 0.00031384607
0.0011785601 0.00028677419 -0.0049770633
-0.00036576 -0.00053258066 -0.00025594415
-0.0010972801 -0.00036870968 -1.174833e-05
0.0014224 0.00012290322 0.0025930069
-0.0019100801 0.00127 -0.0023723079
-0.00093472004 -0.00012290322 -0.0069306297
-0.00199136 0.00127 -0.0012327274
0.0010160001 0.00028677419 -0.0055468534
0.00150368 0.00028677419 -0.0064422381
0.0011785601 -0.00053258066 -0.00025594415
0.0045110402 0.00028677419 -0.0024537065
0.0014224 0.00028677419 -0.0030234966
0.0038608001 0.001106129 -0.0024537065
-0.0034544002 0.00094225805 -0.00017454554
0.0042672004 -0.00094225805 -0.00017454554
-0.00028448002 0.00061451615 -0.00025594415
-0.0040233601 4.0967741e-05 0.00039524469
0.00093472004 -0.00012290322 -0.0075004199
-0.00158496 -0.00127 -0.0018025176
0.00508 0.00028677419 -0.0015583218
-0.0040233601 -0.00028677419 -0.002535105
-0.00459232 -0.00061451615 -0.00025594415
-0.00459232 -0.0011880645 -0.0010699301
-0.0012598401 -0.00053258066 -0.00025594415
0.00158496 0.00028677419 -0.0044886717
-0.0035356802 4.0967741e-05 -0.0079074129
0.0032105602 0.00020483871 -0.0024537065
-0.00085344003 -0.00127 -0.00082573434
-0.0010160001 -0.00020483871 -0.006035245
-0.0010160001 -0.00020483871 0.0015348252
-0.00369824 0.0011880645 -0.0014769232
0.0025603201 0.00127 -0.0010699301
0.0032105602 -0.00036870968 -1.174833e-05
-0.0030480002 -0.00020483871 -0.0024537065
0.00369824 0.00127 -0.0018839162
0.00231648 0.00127 -0.00082573434
0.0048361602 0.00028677419 -0.0024537065
0.00369824 -0.00028677419 -0.0050584618
0.0029667201 0.00127 -0.0023723079
-0.0010160001 0.00020483871 0.00063944049
0.0043484801 -0.0011880645 -0.00082573434
0.0010972801 0.00069645164 -0.00025594415
0.0041859201 -0.0011880645 -0.0018839162
0.0035356802 0.00012290322 -0.0076632169
-0.0036169603 -0.0011880645 -0.0024537065
-0.00012192001 -0.00127 -0.0013955246
0.0025603201 0.00061451615 -0.00025594415
-0.0031292802 0.00069645164 -0.00017454554
0.0010972801 -0.00028677419 -0.0044072731
-0.0048361602 -0.001106129 -0.0011513288
-0.0013411201 0.00028677419 -0.0063608396
-0.0026416001 -0.00036870968 -1.174833e-05
0.0049987203 0.00094225805 -0.001314126
0.00369824 -0.00045064517 -0.0024537065
0.00150368 -0.00020483871 0.0018604195
0.0030480002 0.00127 -0.0015583218
-0.00044704002 0.00127 -0.0014769232
0.0002032 -0.00086032256 -0.002535105
0.0048361602 -0.00077838707 -0.00017454554
0.00036576 -0.0010241936 -0.0024537065
-0.0022352 -0.00045064517 -0.0024537065
0.0040233601 4.0967741e-05 0.0013720279
0.00085344003 -0.00127 -0.00050013995
-0.00077216001 -0.00127 -0.0016397204
-0.00158496 -0.00020483871 0.0014534266
0.0026416001 -0.00077838707 -0.0024537065
0.00150368 -0.00012290322 -0.0075818184
-0.0010972801 -0.00028677419 -0.0028606995
0.0031292802 -0.00127 -0.0021281121
0.0036169603 -0.00028677419 -0.0073376228
0.00093472004 0.00127 -9.3146933e-05
0.0033731202 -0.001106129 -0.00017454554
0.0039420803 -0.00127 -0.00058153854
0.00158496 0.00045064517 -9.3146933e-05
-0.00508 0.00053258066 -0.00041874134
-0.0032918402 0.00045064517 -0.00017454554
0.0011785601 -0.00028677419 -0.0069306297
-0.00150368 -0.00127 -0.0018025176
0.00508 -0.00036870968 -0.0021281121
0.00377952 0.00028677419 0.0011278321
-0.0044297604 0.00077838707 -0.0023723079
0.0033731202 0.00127 -0.0014769232
-0.0046736002 0.00086032256 -0.00017454554
-0.00158496 -0.00012290322 -0.0053840564
-0.0043484801 0.001106129 -0.00050013995
0.0012598401 -0.00028677419 -0.0057096505
0.00199136 0.00094225805 -0.0024537065
0.0042672004 0.00127 -0.00058153854
0.0040233601 4.0967741e-05 -0.00807021
0.0010972801 -0.00028677419 -0.0026165037
-0.0010160001 -4.0967741e-05 0.0014534266
-0.00377952 -0.00127 -0.00058153854
0.0035356802 -4.0967741e-05 -0.0029420981
-0.00077216001 0.00127 -0.00098853162
-0.0010972801 -0.00028677419 -0.0061980421
0.0034544002 0.00012290322 -0.0034304897
0.0010972801 -0.00028677419 0.00072083907
-0.0026416001 0.001106129 -1.174833e-05
-0.0031292802 0.001106129 -1.174833e-05
-0.0032918402 -0.00127 -0.00098853162
-0.0013411201 0.00028677419 0.00031384607
0.0048361602 -0.0010241936 -0.0020467134
-0.00199136 0.00127 -0.001314126
0.00044704002 0.00127 -0.0012327274
0.0035356802 4.0967741e-05 -0.0070120282
0.00093472004 -0.001106129 -0.0024537065
0.00377952 -0.00020483871 -0.0070120282
0.0033731202 -0.00053258066 -0.00025594415
0.00508 -0.00036870968 -0.0016397204
-0.0027228801 0.00094225805 -9.3146933e-05
0.00491744 0.00028677419 -1.174833e-05
-0.0010972801 -0.00028677419 0.00055804191
-0.0022352 -0.00127 -0.0015583218
-0.0017475201 0.00127 -0.0015583218
-0.00369824 -0.00028677419 -0.0078260144
0.0010160001 0.00020483871 0.0025116084
-0.0026416001 0.00086032256 -0.0023723079
0.0029667201 0.00127 -0.00033734273
0.0036169603 -0.00028677419 -0.0032676924
0.00207264 0.00061451615 -0.00025594415
0.00475488 -0.0010241936 -0.0019653148
0.00508 0.00036870968 -0.0015583218
-0.00093472004 -0.00012290322 -0.0071748253
0.00158496 -4.0967741e-05 -0.0046514687
0.0036169603 0.00028677419 -0.0072562238
-0.00150368 0.00020483871 -0.0035118882
-0.00491744 0.00086032256 -0.00017454554
0.0031292802 0.00028677419 -1.174833e-05
0.00377952 -0.00020483871 -0.0052212588
-0.0011785601 0.00028677419 -0.0034304897
0.0022352 -0.00086032256 -1.174833e-05
0.0011785601 0.00028677419 0.00031384607
0.00377952 0.00127 -0.00050013995
-0.00028448002 0.00127 -0.001721119
-0.0024790401 0.00127 -0.001721119
-0.0029667201 0.00127 -0.00082573434
-0.0038608001 -0.00028677419 6.9650276e-05
-0.00459232 -0.0011880645 -0.0021281121
-0.0014224 -0.00086032256 -0.0024537065
-0.0036169603 -0.00028677419 -0.0028606995
-0.0041046403 -0.00012290322 -0.0072562238
-0.0040233601 -0.00012290322 -0.0059538465
0.00369824 -0.00127 -0.00074433576
0.00215392 -0.00094225805 -0.0023723079
0.00377952 -0.00127 -0.0013955246
0.00508 -4.0967741e-05 -0.00058153854
-0.0036169603 0.00012290322 -0.0044072731
-0.0040233601 0.00012290322 0.0016162237
-0.0033731202 0.00127 -0.00050013995
-0.0031292802 0.00127 -0.0020467134
-0.0034544002 -0.00012290322 -0.0054654549
0.0039420803 -0.00020483871 -0.0044072731
-0.00199136 -0.00094225805 -0.0024537065
-0.00069088 0.00127 -9.3146933e-05
-0.00207264 -0.00127 -0.0018025176
0.0022352 -0.00077838707 -0.0024537065
-0.0031292802 0.00127 -0.001314126
-0.00508 4.0967741e-05 -0.00050013995
0.00093472004 0.00028677419 0.00015104888
-0.0032918402 -0.00127 -0.0020467134
-0.0019100801 -0.00127 -0.0022095107
-0.00150368 -0.00028677419 -0.0068492312
-0.0010972801 0.00028677419 -0.0057096505
-0.00158496 -0.00028677419 -0.0068492312
0.00093472004 -0.00012290322 0.0021046153
-0.00508 -0.00045064517 -0.00090713298
0.0033731202 -0.0011880645 -0.00017454554
-0.0024790401 -0.00127 -0.00041874134
0.0038608001 0.00061451615 -0.0024537065
-0.0010972801 0.00028677419 -0.0052212588
-0.00377952 -0.0010241936 -1.174833e-05
-0.0027228801 0.00127 -0.0011513288
-0.0044297604 -0.00094225805 -0.0024537065
0.00459232 0.0011880645 -0.0011513288
0.0042672004 0.00061451615 -0.0023723079
0.0018288001 0.00127 -0.0024537065
0.00475488 -0.00045064517 -0.0023723079
0.00158496 0.00012290322 -0.0043258741
0.00377952 -0.00020483871 0.00023244748
-0.00158496 4.0967741e-05 -0.0055468534
-0.0033731202 0.00127 -0.001721119
0.0010160001 -0.00028677419 -0.0062794406
-0.0046736002 -0.0011880645 -0.0018839162
-0.0043484801 0.00020483871 -1.174833e-05
0.0013411201 -0.00028677419 -0.0064422381
-0.0034544002 -0.00020483871 0.0018604195
0.0014224 0.00028677419 0.0012906293
0.0038608001 -0.00127 -0.0013955246
-0.0034544002 -4.0967741e-05 0.0012092307
0.0040233601 -0.00012290322 -0.0061980421
0.0038608001 0.00028677419 -0.0063608396
-0.00150368 0.00012290322 0.00031384607
-0.00028448002 -0.00127 -0.00066293718
0.0032918402 0.00020483871 -0.0024537065
0.0035356802 0.0010241936 -0.0023723079
-0.0035356802 4.0967741e-05 6.9650276e-05
0.00052832003 0.00077838707 -0.002535105
-0.0011785601 0.00036870968 -0.0074190213
-0.0010160001 0.00127 -0.00058153854
-0.0030480002 -0.00127 -0.00090713298
-0.0010160001 0.00061451615 -0.00025594415
0.0040233601 0.00020483871 -0.0048142658
-0.00158496 -0.00061451615 -0.00025594415
-0.00508 -0.00053258066 -0.00098853162
-0.0012598401 0.00028677419 -0.0049770633
0.0012598401 0.00028677419 -0.0057096505
-0.0013411201 -0.00028677419 -0.0051398603
-0.0045110402 0.00086032256 -0.00017454554
-0.0013411201 -0.00127 -0.00050013995
0.00158496 0.00045064517 -0.0024537065
-0.0039420803 0.00012290322 0.0021860139
-0.00044704002 0.00127 -0.0018839162
0.0039420803 0.00028677419 -0.0043258741
0.0040233601 0.00028677419 -0.0079074129
-0.0010160001 -0.00028677419 -0.0035118882
-0.0032918402 -0.00069645164 -1.174833e-05
0.00028448002 -0.00020483871 -1.174833e-05
-0.00093472004 -0.00127 -0.00058153854
-0.0010160001 -0.00028677419 0.0013720279
0.0049987203 0.00012290322 -1.174833e-05
-0.0036169603 -0.00028677419 -0.0078260144
-0.0011785601 -0.00127 -0.00041874134
0.0014224 -0.00045064517 -0.00017454554
0.0023977601 -0.00086032256 -0.0024537065
0.0036169603 0.00127 -9.3146933e-05
0.00215392 0.00127 -0.0023723079
-0.0038608001 -0.00094225805 -0.0023723079
0.0039420803 -0.00020483871 -0.0062794406
-0.0034544002 -0.00086032256 -1.174833e-05
-0.0040233601 -4.0967741e-05 0.0010464335
0.0028041601 0.00012290322 -0.0024537065
-0.00508 -0.00045064517 -0.00098853162
0.0044297604 0.00061451615 -0.0024537065
0.0035356802 -4.0967741e-05 -0.0062794406
-0.00093472004 -0.00127 -0.0014769232
-0.0028854401 0.00086032256 -9.3146933e-05
0.00158496 -0.00028677419 -0.002535105
0.00150368 -0.00020483871 0.0008836363
0.0011785601 0.00028677419 -0.0071748253
0.0014224 0.00086032256 -1.174833e-05
0.0024790401 0.00127 -0.00082573434
-0.00158496 4.0967741e-05 -0.0053026574
-0.00150368 -0.00028677419 0.00096503494
0.0035356802 -4.0967741e-05 0.0021046153
0.0010160001 0.00028677419 0.0015348252
0.0018288001 -0.00127 -0.0011513288
0.0031292802 -0.00020483871 -0.0023723079
0.00158496 -4.0967741e-05 -0.0068492312
-0.0010160001 0.001106129 -1.174833e-05
0.0032918402 0.00127 -0.0019653148
0.0012598401 0.0010241936 -1.174833e-05
-0.0035356802 -0.00045064517 -0.00017454554
0.0030480002 -0.00127 -0.00082573434
0.00491744 -0.00077838707 -0.0020467134
-0.00369824 0.00028677419 0.0016976224
-0.0044297604 -0.0011880645 -0.0013955246
-0.00369824 0.00012290322 -0.0027793008
0.0014224 0.00028677419 -0.0054654549
-0.0013411201 0.00028677419 0.00072083907
0.0010160001 0.00061451615 -0.00025594415
-0.0045110402 -0.00069645164 -0.0024537065
-0.0014224 -0.00028677419 -0.0048956648
-0.00491744 -0.001106129 -0.0021281121
-0.00093472004 -0.00127 -0.00050013995
0.0010972801 -0.00028677419 0.0018604195
0.0010972801 -0.00028677419 0.0021046153
-0.0044297604 -0.001106129 -0.0024537065
0.0002032 -0.00053258066 -0.002535105
-0.0039420803 -0.00028677419 -0.0048956648
-0.0038608001 0.00086032256 -0.00017454554
0.0036169603 -0.00028677419 -0.0048142658
-0.00369824 0.00012290322 -0.0049770633
0.0014224 0.00028677419 -0.0028606995
-0.0049987203 -0.00086032256 -0.0014769232
-0.0031292802 0.00127 -0.0012327274
0.0031292802 -0.00127 -0.00098853162
-0.00093472004 -0.00086032256 -1.174833e-05
-0.00150368 -0.00077838707 -0.00017454554
0.0014224 0.00127 -0.0022909092
-0.0041859201 0.00086032256 -9.3146933e-05
0.0035356802 4.0967741e-05 -0.0075004199
0.00044704002 0.00127 -0.001721119
-0.0040233601 4.0967741e-05 -0.0062794406
0.00475488 0.00077838707 -1.174833e-05
-0.00085344003 -0.00045064517 -0.002535105
0.0025603201 4.0967741e-05 -1.174833e-05
-0.00150368 0.00020483871 -0.0064422381
-0.0043484801 -0.001106129 -1.174833e-05
0.0013411201 -0.00028677419 0.0024302099
-0.0034544002 0.00020483871 -1.174833e-05
-0.0041046403 -4.0967741e-05 -0.0055468534
0.0036169603 0.00028677419 -0.0044886717
-0.0034544002 -0.00020483871 0.00039524469
0.0002032 0.00127 -0.0012327274
0.00166624 -0.00127 -0.00098853162
-0.0012598401 0.00028677419 6.9650276e-05
-0.0048361602 0.0010241936 -0.00025594415
-0.00508 0.00061451615 -0.0020467134
0.00028448002 -0.0011880645 -9.3146933e-05
-0.00158496 -0.00020483871 0.00039524469
0.00369824 -0.00012290322 -0.0079074129
-0.0030480002 0.00053258066 -0.0024537065
0.00158496 0.00012290322 -0.0041630771
-0.0028041601 0.00127 -0.0016397204
-0.0022352 -0.00053258066 -0.0024537065
0.00377952 -0.00127 -0.00041874134
0.0048361602 -0.00094225805 -0.0010699301
-0.0025603201 0.0010241936 -0.00017454554
0.00199136 -0.00127 -0.00033734273
-0.00044704002 -0.0010241936 -1.174833e-05
-0.0041859201 -0.00028677419 -0.0024537065
-0.0014224 -0.00127 -0.0023723079
0.00508 -4.0967741e-05 -0.00025594415
0.00085344003 -0.00053258066 -0.00025594415
-0.0022352 0.00127 -0.0019653148
0.0028854401 -0.00077838707 -0.0024537065
0.0014224 -0.00028677419 0.0008836363
0.0038608001 -0.00020483871 0.0021046153
-0.00150368 -0.00028677419 -0.0028606995
0.00052832003 -0.00127 -0.001721119
0.0010160001 -4.0967741e-05 -0.0029420981
-0.0012598401 -0.00028677419 -0.0033490912
0.0040233601 4.0967741e-05 -0.0075004199
0.00369824 -0.00028677419 -0.0026979023
-0.00377952 0.00012290322 0.0025930069
0.0035356802 0.00028677419 -0.0040002801
-0.00150368 0.00012290322 0.00096503494
0.0035356802 -0.00127 -0.0022909092
0.0046736002 4.0967741e-05 -1.174833e-05
0.00158496 0.00012290322 -0.0054654549
-4.0640003e-05 0.00045064517 -9.3146933e-05
-0.00077216001 -0.00036870968 -1.174833e-05
0.00377952 -0.00127 -0.0011513288
0.00508 0.00086032256 -0.00082573434
0.0014224 0.00020483871 -0.0081516085
-0.0034544002 -0.00020483871 -0.0048956648
0.00093472004 -0.00127 -0.00041874134
0.0039420803 -0.00020483871 -0.0052212588
-0.00077216001 0.00127 -0.001721119
-0.0026416001 -0.00012290322 -0.0024537065
0.00093472004 0.00012290322 -0.0067678322
-0.0010160001 0.00028677419 0.00039524469
-0.00508 -0.00028677419 -0.00090713298
-0.00508 4.0967741e-05 -0.00074433576
-0.0048361602 0.00028677419 -0.0023723079
0.0012598401 0.00028677419 -0.0053840564
-0.0026416001 -0.00045064517 -0.00017454554
0.0010160001 -0.00012290322 -0.0061980421
0.0022352 0.00020483871 -1.174833e-05
-0.0013411201 -0.00028677419 -0.0053026574
-0.0036169603 -0.00086032256 -9.3146933e-05
-0.00060960004 -0.00020483871 -0.002535105
-0.0034544002 -0.00127 -1.174833e-05
0.0032918402 -0.00094225805 -0.0023723079
-0.0031292802 -0.00069645164 -0.0024537065
0.0011785601 0.00028677419 0.0018604195
-0.00215392 -0.00069645164 -0.0024537065
0.0022352 -0.00094225805 -0.00017454554
-0.0041859201 -0.00127 -0.00050013995
0.0032105602 -0.00053258066 -0.00025594415
-0.0035356802 0.00012290322 -0.0043258741
-0.0036169603 0.00012290322 -0.0047328672
0.0041859201 -0.0011880645 -0.00074433576
-0.0035356802 -0.00028677419 -0.003593287
-0.0040233601 -0.00020483871 -0.0033490912
0.0036169603 -0.00127 -0.00058153854
-0.00377952 0.0011880645 -0.0014769232
-0.0010160001 0.00012290322 -0.0036746855
4.0640003e-05 -0.00077838707 -9.3146933e-05
-0.00491744 0.00061451615 -0.00025594415
0.00369824 0.00028677419 -0.0047328672
0.00150368 0.00028677419 0.0016976224
-0.0034544002 -0.00012290322 -0.0039188815
-0.0032105602 0.00012290322 -1.174833e-05
-0.00508 4.0967741e-05 -0.00090713298
-0.00369824 -0.00069645164 -0.0024537065
-0.0040233601 0.00012290322 -0.0039188815
-0.0042672004 0.00077838707 -0.0023723079
-0.0010160001 0.00028677419 -0.0027793008
4.0640003e-05 0.00127 -0.0023723079
0.0039420803 0.00028677419 -0.0047328672
-0.0039420803 0.00012290322 0.0019418182
0.00093472004 -0.00127 -0.0010699301
0.0030480002 0.00127 -0.00058153854
-0.0010160001 4.0967741e-05 0.0021046153
-0.0031292802 -0.00045064517 -0.0024537065
-0.00199136 -0.00127 -0.0010699301
-0.0022352 0.00127 -0.00041874134
-0.00028448002 -0.00127 -0.0022909092
-0.00508 -0.00069645164 -0.0020467134
0.00231648 -0.00020483871 -1.174833e-05
-0.0019100801 -0.00127 -0.0018839162
-0.00199136 -0.00127 -0.0022095107
-0.00491744 -0.001106129 -0.0022909092
-0.00060960004 -0.00127 -1.174833e-05
-0.0029667201 0.00045064517 -0.0024537065
0.00012192001 -0.00053258066 -0.002535105
0.00207264 0.00077838707 -0.00017454554
-0.0042672004 -0.00069645164 -1.174833e-05
-0.00508 -4.0967741e-05 -0.0019653148
0.0039420803 -0.00127 -0.0012327274
0.0034544002 0.0011880645 -0.0023723079
0.0010972801 0.00028677419 0.0021046153
0.0013411201 -0.00028677419 0.00072083907
0.0032918402 0.00127 -0.0020467134
-0.0010160001 0.00020483871 0.001779021
-0.00012192001 0.00061451615 -0.00025594415
-0.00231648 -0.00012290322 -0.0024537065
0.00377952 -0.00020483871 -0.0031048954
0.0040233601 0.00127 -0.00066293718
0.0010160001 -0.00028677419 -0.0056282519
-0.0028041601 0.00127 -0.00041874134
0.00069088 0.00127 -0.001314126
0.00377952 0.00028677419 -0.0079888115
0.00377952 -0.00020483871 0.00055804191
-0.0041046403 -0.00127 -0.0018025176
0.0013411201 0.00028677419 0.001779021
-0.0035356802 -0.00028677419 -0.0043258741
0.00069088 0.00127 -0.0016397204
0.00093472004 0.00020483871 -0.0061166435
0.00044704002 0.00012290322 -0.002535105
0.0027228801 -0.00036870968 -1.174833e-05
-0.00508 0.00053258066 -0.0021281121
0.0010160001 -0.00012290322 -0.005872448
-0.00077216001 0.0011880645 -1.174833e-05
-0.0040233601 -0.00020483871 -0.0029420981
-0.0042672004 -0.00127 -0.00017454554
-0.0012598401 0.00127 -0.001721119
0.0034544002 4.0967741e-05 0.0018604195
-0.00077216001 -0.00036870968 -0.002535105
0.0040233601 4.0967741e-05 -0.0070120282
0.0038608001 0.00069645164 -0.0024537065
0.0040233601 0.00028677419 -0.0076632169
-0.0041046403 -0.00127 -0.0018839162
-0.00060960004 -0.00127 -0.0015583218
0.00093472004 0.00020483871 -0.0078260144
-0.0032918402 4.0967741e-05 -0.0024537065
0.0010972801 -0.00028677419 -0.0066050352
-0.0039420803 -0.00077838707 -0.0024537065
-0.00158496 -4.0967741e-05 -0.0050584618
0.0035356802 -0.00012290322 -0.0074190213
-0.0010972801 0.00020483871 -0.0079888115
0.0010160001 0.00028677419 0.001779021
0.00199136 -0.00069645164 -0.0024537065
0.00166624 -0.00086032256 -0.0024537065
-0.0023977601 -0.00045064517 -9.3146933e-05
-0.00215392 -0.00127 -0.0020467134
-0.0010160001 -0.00020483871 -0.00807021
-0.00508 0.00020483871 -1.174833e-05
0.0023977601 0.00127 -0.0010699301
0.00231648 -0.00020483871 -0.0023723079
-0.00012192001 -0.00053258066 -0.00025594415
0.00508 -0.00028677419 -0.0018839162
0.00036576 0.00069645164 -0.002535105
-0.00508 -0.00061451615 -0.00074433576
-0.0027228801 -0.00028677419 -1.174833e-05
0.00158496 0.00028677419 -0.0067678322
-0.0041046403 -4.0967741e-05 -0.0075818184
-0.0039420803 0.00012290322 -0.0053026574
0.0023977601 -0.00127 -0.0013955246
-0.0032105602 0.00020483871 -1.174833e-05
-0.00369824 -0.00127 -0.00033734273
0.0033731202 0.00012290322 -0.0024537065
0.0022352 0.00127 -0.0014769232
-0.00158496 -4.0967741e-05 -0.0077446154
0.0035356802 0.00028677419 -0.0053026574
0.0027228801 -0.00127 -0.0010699301
0.0010160001 0.00028677419 0.0021046153
0.0034544002 0.00020483871 -0.0068492312
-0.0045110402 0.001106129 -0.0016397204
0.0010972801 0.00028677419 -0.0067678322
0.0044297604 0.00028677419 -0.0024537065
-0.0045110402 -0.0011880645 -0.0010699301
0.0012598401 0.00053258066 -0.00025594415
0.00077216001 0.00036870968 -0.002535105
0.0024790401 -4.0967741e-05 -0.0023723079
-0.0036169603 -0.00028677419 -0.0075004199
0.0010972801 0.00045064517 -0.0024537065
-0.0039420803 0.00036870968 -0.0024537065
-0.00158496 4.0967741e-05 0.0016976224
0.00158496 4.0967741e-05 -0.0048956648
-0.00150368 -0.00127 -0.0021281121
-0.00012192001 -0.00036870968 -0.002535105
0.00231648 0.00053258066 -0.00025594415
-0.0017475201 -0.00061451615 -0.00025594415
-0.0046736002 -0.00045064517 -0.0024537065
-0.00215392 -0.00045064517 -0.00017454554
-0.00377952 0.00012290322 -0.0066864337
-0.0040233601 -0.00020483871 -0.005872448
0.0040233601 -4.0967741e-05 -0.0068492312
0.00052832003 -0.00127 -0.0020467134
-4.0640003e-05 0.00127 -0.00025594415
-0.00069088 -0.00127 -0.00041874134
0.00093472004 -0.00012290322 0.0011278321
-0.0039420803 0.00012290322 -0.0066864337
0.00052832003 0.00127 -0.0023723079
-0.0035356802 0.00036870968 -1.174833e-05
-0.00036576 -0.001106129 -0.0024537065
0.0034544002 0.00012290322 0.0018604195
-0.0038608001 0.00012290322 0.0004766433
-0.0012598401 -0.00045064517 -9.3146933e-05
0.0012598401 0.00077838707 -0.00017454554
-0.0032918402 -0.00127 -0.0016397204
-0.00077216001 0.00127 -0.00074433576
-0.0027228801 -0.00086032256 -0.0023723079
0.00158496 0.00028677419 -0.0049770633
-0.0013411201 0.00028677419 -0.0038374828
0.00150368 -0.00012290322 0.0019418182
0.00085344003 0.00012290322 6.9650276e-05
-0.0022352 -0.00127 -0.0018025176
-0.0025603201 -0.00127 -0.00066293718
0.0039420803 0.00061451615 -0.0024537065
-0.0014224 -0.00127 -0.00050013995
-0.0028041601 -0.00086032256 -0.0024537065
0.0041859201 -0.00077838707 -0.0023723079
4.0640003e-05 0.00127 -0.00058153854
0.00093472004 -0.00012290322 0.00031384607
4.0640003e-05 -0.0011880645 -1.174833e-05
-0.00377952 -0.00127 -0.0023723079
0.00158496 4.0967741e-05 -0.0053026574
-0.00377952 -0.00028677419 -0.0034304897
-0.00150368 0.00012290322 -0.0050584618
0.00150368 0.00028677419 -0.0044072731
-0.0035356802 4.0967741e-05 -0.0028606995
0.0010160001 0.00028677419 -0.0038374828
-0.00207264 -0.00028677419 -1.174833e-05
0.00077216001 -0.00045064517 -0.002535105
0.0034544002 4.0967741e-05 -0.0048142658
0.0040233601 0.00020483871 -0.0067678322
0.0010972801 -0.0010241936 -0.0024537065
0.0028041601 0.00127 -0.00090713298
0.0010972801 -0.00094225805 -1.174833e-05
0.0014224 -0.00028677419 0.0021046153
0.0028854401 0.00127 -0.00090713298
0.0040233601 0.00028677419 -0.0026979023
0.0013411201 -0.00028677419 -0.0028606995
0.0039420803 0.00028677419 -0.0041630771
0.0024790401 0.00045064517 -1.174833e-05
-0.00150368 0.00020483871 -0.0079074129
-0.0035356802 4.0967741e-05 -0.0054654549
-0.00012192001 -0.00127 -0.0014769232
-0.0010160001 -0.00028677419 0.0024302099
-4.0640003e-05 -0.00012290322 -1.174833e-05
-0.00459232 0.00053258066 -0.0023723079
-0.00377952 0.0011880645 -0.001721119
0.00069088 0.00077838707 -0.0024537065
0.0014224 0.00127 -0.0021281121
-0.0025603201 0.00077838707 -0.0024537065
0.0035356802 4.0967741e-05 -0.0035118882
-0.0038608001 0.00012290322 -0.005791049
-0.0018288001 -0.00028677419 -1.174833e-05
0.0002032 -0.00061451615 -0.00025594415
0.00044704002 0.0011880645 -0.0024537065
-0.0010160001 -0.00028677419 -0.0069306297
0.0034544002 0.00020483871 0.0004766433
0.0042672004 0.00127 -0.0012327274
0.0032918402 -0.00127 -0.00033734273
0.0012598401 0.00127 -0.00090713298
0.00052832003 -0.0011880645 -1.174833e-05
0.00369824 0.00028677419 -0.0070120282
0.0039420803 -0.00094225805 -0.00017454554
-0.00508 -0.00077838707 -0.0018025176
0.0043484801 -0.00036870968 -0.0023723079
0.0027228801 -0.00028677419 -0.0024537065
0.00377952 -0.00020483871 -0.0051398603
-0.00158496 -4.0967741e-05 6.9650276e-05
-0.0026416001 0.00053258066 -0.0024537065
-0.00475488 -0.00094225805 -1.174833e-05
0.0035356802 -0.00020483871 -0.0047328672
0.0002032 0.00127 -0.0018839162
-0.0039420803 0.001106129 -0.00017454554
-0.0042672004 0.00036870968 -0.0024537065
-0.0039420803 -0.00028677419 -0.006035245
0.0044297604 0.00086032256 -0.0024537065
0.0023977601 -0.00127 -0.001721119
0.0040233601 0.00028677419 -0.0040002801
0.00199136 -0.00045064517 -0.0024537065
-0.0024790401 -0.00127 -0.0021281121
0.00093472004 0.00045064517 -0.0024537065
-0.00377952 -0.00028677419 -0.0066050352
-0.00150368 0.00012290322 -0.0044072731
0.00508 0.00061451615 -0.0011513288
-0.0023977601 -0.00127 -0.00041874134
-0.0026416001 -0.00045064517 -1.174833e-05
-0.00036576 0.00127 -0.001721119
0.00060960004 4.0967741e-05 -0.002535105
0.00369824 0.00028677419 0.0014534266
-0.0045110402 0.001106129 -0.00074433576
0.0045110402 0.0011880645 -0.0022909092
-0.0012598401 0.00028677419 -0.0054654549
0.0036169603 -0.00086032256 -0.0023723079
-0.00158496 0.00069645164 -0.00025594415
0.00052832003 0.00020483871 -0.002535105
-0.0049987203 0.00086032256 -0.0019653148
0.0034544002 0.00020483871 0.0015348252
0.0014224 0.00061451615 -0.00025594415
0.00052832003 4.0967741e-05 -0.002535105
-0.0013411201 -0.00028677419 -0.0052212588
-0.0032918402 0.00127 -0.0018025176
0.0040233601 0.00127 -0.00082573434
0.0010160001 -0.00028677419 0.00039524469
