# .PCD v0.7 - Point Cloud Data file format
VERSION 0.7
FIELDS x y z
SIZE 4 4 4
TYPE F F F
COUNT 1 1 1
WIDTH 1255
HEIGHT 1
VIEWPOINT 0 0 0 1 0 0 0
POINTS 1255
DATA ascii
-0.0040622978 -0.0166624 -0.0051285718
0.0040622978 -0.0150368 -0.036830001
0.016655421 -0.0048767999 -0.024637144
-0.012593123 -0.011785599 -0.022198573
-0.014218043 0.011785599 -0.0035028574
-0.0081245955 -0.018288 -0.0026900002
-0.0073121362 0.0158496 -0.00025142872
0.016249191 0.0052831997 -0.0079735722
-0.012999353 0.0113792 -0.031140001
0.0064996765 -0.00081279996 -0.00025142872
0.010561975 0.0138176 -0.030327145
0.009749515 0.0016255999 -0.00025142872
0.014218043 0.01016 -0.015695715
0.010968204 -0.0048767999 -0.036830001
0.0048747575 0.0166624 -0.01407
0.012186893 0.011785599 -0.00025142872
-0.0073121362 0.0065023997 -0.00025142872
-0.0085308254 0.00081279996 -0.00025142872
-0.009749515 -0.014223999 -0.017727857
0.015842961 0.0044704 -0.00025142872
0.015842961 0.0069088 -0.0047221431
0.017467881 0.0093471995 -0.0022835718
0.00081245956 0.0170688 -0.0067542861
-0.009749515 0.014223999 -0.028295001
-0.013405583 -0.0097535998 -0.00025142872
-0.015436731 0.0081279995 -0.012850715
0.0024373787 0.0170688 -0.015695715
0.0093432851 0.0081279995 -0.00025142872
0.011374434 -0.0134112 -0.030733572
-0.015436731 -0.0081279995 -0.027075715
0.0081245955 -0.0170688 -0.033985
0.0089370552 -0.0150368 -0.012037857
-0.0190928 0.0024383999 -0.00025142872
-0.017467881 -0.0016255999 -0.020572858
-0.0040622978 -0.0044704 -0.00025142872
-0.015436731 0.0073151998 -0.025450001
0.00040622978 0.017475199 -0.010412144
0.010155745 -0.015443199 -0.00025142872
0.013811813 -0.01016 -0.036423571
0.0190928 -0.0052831997 -0.0035028574
-0.017467881 0 -0.011631429
-0.015842961 0.0065023997 -0.036423571
0.017467881 0.0012192 -0.0047221431
0.013811813 0.010566399 -0.027482145
0.016655421 -0.0048767999 -0.031546429
-0.0085308254 0.015443199 -0.033172145
0.014218043 -0.00081279996 -0.036830001
0.015842961 -0.0040639997 -0.036830001
-0.0190928 0.0040639997 -0.034391429
0.014624272 -0.0081279995 -0.00025142872
0.016655421 -0.0109728 -0.035610717
-0.017061651 -0.0036575999 -0.031140001
-0.0020311489 0.0170688 -0.018540716
0.0064996765 0.0170688 -0.0035028574
0.0089370552 -0.0146304 -0.0063478574
-0.017061651 0.0020319999 -0.0063478574
-0.016655421 -0.0044704 -0.027075715
-0.012999353 0.0113792 -0.018947143
-0.01868657 0 -0.035610717
0 0.017475199 -0.020572858
-0.0032498382 0.0170688 -0.01732143
-0.0069059064 -0.01016 -0.00025142872
-0.010155745 0.0056896 -0.00025142872
-0.016249191 -0.0060959999 -0.025043573
0.0190928 0.0012192 -0.00025142872
0.014624272 -0.0093471995 -0.024230715
-0.0056872168 -0.0134112 -0.00025142872
-0.017061651 -0.0032511998 -0.024230715
0.017467881 -0.0093471995 -0.00025142872
0.01828034 -0.0036575999 -0.0035028574
0.017467881 -0.0012192 -0.017727857
0.015436731 -0.0077215997 -0.022605002
0.017467881 -0.0012192 -0.023417858
-0.017061651 0.0024383999 -0.0087864287
-0.0085308254 0.0020319999 -0.00025142872
0.011374434 0.0032511998 -0.036830001
0.015842961 -0.0093471995 -0.0035028574
0.010155745 0.014223999 -0.011225001
-0.015842961 -0.0069088 -0.012444287
0.0032498382 -0.0052831997 -0.00025142872
0.0069059064 0.0158496 -0.010818572
0.0028436084 0.014223999 -0.00025142872
-0.010155745 -0.0044704 -0.00025142872
-0.015842961 0.0081279995 -0.00025142872
0.014218043 -0.01016 -0.0075671435
-0.015030502 -0.00081279996 -0.036830001
-0.0040622978 0.0134112 -0.00025142872
0.00081245956 0.0158496 -0.036830001
0.017061651 -0.0028448 -0.010818572
-0.013405583 0.0044704 -0.00025142872
-0.0056872168 0.00040639998 -0.036830001
0.017467881 -0.0097535998 -0.034797858
-0.0056872168 -0.016255999 -0.0083800005
0.012593123 -0.012192 -0.016508572
-0.0190928 -0.0056896 -0.0030964289
-0.01828034 0.0077215997 -0.0026900002
0.010155745 -0.0146304 -0.033578575
0.0052809874 0.016255999 -0.025450001
0.010155745 0.010566399 -0.00025142872
-0.017467881 0 -0.024637144
-0.014218043 -0.010566399 -0.0035028574
-0.00081245956 0.0146304 -0.00025142872
-0.016655421 0.0052831997 -0.019353572
0.013811813 -0.010566399 -0.019760001
0.010561975 -0.0060959999 -0.036830001
0.010968204 0.0032511998 -0.036830001
0.015030502 0.0032511998 -0.036830001
0.014218043 0.0113792 -0.036423571
-0.011374434 0.013004799 -0.014882858
0.015436731 -0.0081279995 -0.020979287
-0.012999353 0.0069088 -0.036830001
0.010155745 0.014223999 -0.0039092861
0.012593123 0.011785599 -0.00025142872
0.0052809874 0.0166624 -0.018540716
0.015436731 -0.0081279995 -0.0083800005
-0.010561975 0.015443199 -0.036423571
-0.015436731 0.0044704 -0.00025142872
0.0190928 0.0060959999 -0.0022835718
-0.012999353 -0.0150368 -0.036017146
-0.01990526 0.0016255999 -0.036017146
0 -0.017475199 -0.012037857
0.017467881 0 -0.0071607148
0.011374434 0.014223999 -0.033578575
-0.011374434 0.015443199 -0.036423571
0.0012186894 0.013004799 -0.00025142872
0 0.019913599 -0.034391429
0.017467881 0.00040639998 -0.02870143
0.012999353 -0.0125984 -0.0035028574
0 0.0077215997 -0.00025142872
0.015030502 0.0125984 -0.033985
0.0020311489 -0.0170688 -0.029107859
0.014624272 0.011785599 -0.033985
-0.011374434 -0.0016255999 -0.00025142872
0.017061651 0.0012192 -0.020979287
0.017061651 -0.0040639997 -0.029107859
-0.016249191 0.0012192 -0.036423571
-0.0064996765 0.0069088 -0.036830001
-0.01787411 -0.0012192 -0.00025142872
0.0024373787 -0.0138176 -0.00025142872
-0.017061651 -0.01016 -0.035204288
0.0032498382 -0.0170688 -0.011631429
0.014218043 0.0097535998 -0.015289286
0.009749515 0.0146304 -0.0087864287
-0.014624272 0.0093471995 -0.013663572
0.015842961 -0.0073151998 -0.0071607148
-0.017061651 -0.0032511998 -0.022605002
0.0048747575 -0.0166624 -0.015695715
-0.016249191 -0.0065023997 -0.030327145
0.015436731 -0.011785599 -0.00025142872
0.010561975 -0.0170688 -0.036017146
-0.01828034 -0.0077215997 -0.00065785728
-0.0048747575 0.011785599 -0.036830001
-0.0036560681 -0.0166624 -0.012444287
-0.0085308254 -0.0150368 -0.012037857
-0.0032498382 0.0170688 -0.010412144
-0.00081245956 -0.0093471995 -0.036830001
0.0044685276 -0.0170688 -0.0043157148
0.012593123 0.012192 -0.0043157148
0.0016249191 -0.017475199 -0.019760001
0.0048747575 0.0166624 -0.031546429
-0.010155745 -0.00040639998 -0.036830001
-0.009749515 -0.0170688 -0.0035028574
-0.015842961 0.0069088 -0.021385716
0.015030502 -0.0085343998 -0.021792144
0.015030502 -0.0085343998 -0.02585643
0.0052809874 0.0166624 -0.025043573
-0.017467881 0.00040639998 -0.026262859
0.016249191 -0.0032511998 -0.036423571
-0.012186893 0.0125984 -0.012850715
-0.0060934466 -0.0093471995 -0.036830001
-0.0089370552 -0.0146304 -0.025450001
0.010968204 -0.012192 -0.00025142872
-0.010561975 0.0138176 -0.021385716
-0.009749515 -0.0134112 -0.00025142872
0.010968204 0.0166624 -0.0026900002
0.0056872168 -0.016255999 -0.0071607148
0.012593123 0.011785599 -0.022605002
-0.016655421 -0.0048767999 -0.021792144
-0.015436731 0.0081279995 -0.029107859
0.01787411 -0.00081279996 -0.033172145
-0.016655421 -0.0032511998 -0.036423571
-0.017061651 -0.0028448 -0.014882858
-0.0093432851 0.0146304 -0.0063478574
0.013405583 -0.0146304 -0.00025142872
-0.017467881 -0.0024383999 -0.013257144
0.010155745 0.014223999 -0.015695715
-0.010968204 0.0138176 -0.023417858
-0.009749515 -0.0146304 -0.023417858
-0.017467881 0.00081279996 -0.012037857
0.0081245955 -0.018288 -0.0010642859
-0.0056872168 -0.0191008 -0.036017146
0.0020311489 0.0150368 -0.00025142872
-0.0069059064 -0.018694399 -0.0014707145
-0.015030502 -0.0085343998 -0.011225001
0.017061651 0.0020319999 -0.024230715
0.017467881 -0.0012192 -0.021792144
-0.01949903 0.0016255999 -0.036017146
0.010968204 -0.00081279996 -0.036830001
-0.016249191 -0.0085343998 -0.00025142872
-0.0089370552 -0.016255999 -0.0035028574
0 0.017475199 -0.00025142872
0.0085308254 -0.0150368 -0.027075715
0.014624272 -0.0093471995 -0.020979287
-0.0020311489 0.0020319999 -0.00025142872
0.01787411 0.0036575999 -0.036423571
-0.017061651 0.01016 -0.0022835718
0.0036560681 0.012192 -0.00025142872
0.00081245956 -0.017475199 -0.030733572
0.011374434 -0.012192 -0.00025142872
-0.0052809874 0.0069088 -0.036830001
0 0.018694399 -0.036423571
-0.0085308254 0.0150368 -0.018134287
0.012999353 0.0097535998 -0.00025142872
-0.016655421 0.0085343998 -0.00025142872
0.015842961 0.0073151998 -0.011631429
0.0040622978 0.0166624 -0.01407
-0.014624272 -0.0044704 -0.00025142872
-0.01787411 0.0028448 -0.036423571
0.013405583 -0.0012192 -0.00025142872
0.015842961 0.012192 -0.00025142872
0.010155745 -0.0138176 -0.013663572
-0.00081245956 -0.010566399 -0.00025142872
-0.015842961 -0.0073151998 -0.0055350005
-0.014218043 -0.0097535998 -0.022605002
-0.00040622978 0.017475199 -0.026669286
-0.01787411 -0.0081279995 -0.0035028574
0.0093432851 0.00040639998 -0.036830001
-0.0040622978 -0.0166624 -0.013663572
0.010155745 -0.0138176 -0.015289286
-0.017061651 0.0036575999 -0.023417858
0.00040622978 -0.0048767999 -0.036830001
-0.0081245955 -0.00081279996 -0.00025142872
-0.0032498382 -0.0146304 -0.00025142872
-0.0048747575 -0.017475199 -0.0035028574
-0.0040622978 0.018288 -0.036423571
0.00040622978 -0.0089408001 -0.036830001
-0.0089370552 0.0150368 -0.023417858
0.01787411 -0.0060959999 -0.036423571
-0.0024373787 -0.0146304 -0.036830001
0.0069059064 -0.018694399 -0.0030964289
-0.01868657 0.0012192 -0.0035028574
-0.015030502 -0.0113792 -0.036423571
0.013811813 -0.010566399 -0.020572858
-0.015842961 0.0073151998 -0.024637144
-0.016249191 -0.0077215997 -0.0035028574
-0.0064996765 0.016255999 -0.027482145
0.011780663 -0.013004799 -0.020572858
-0.0040622978 0.014223999 -0.036830001
-0.0024373787 0.0170688 -0.020166429
-0.016655421 -0.0052831997 -0.030733572
0.012186893 0.0158496 -0.0035028574
0.017467881 -0.00040639998 -0.030327145
-0.016249191 0.0056896 -0.016102144
0 -0.014223999 -0.00025142872
-0.013405583 -0.012192 -0.0035028574
-0.017467881 -0.00040639998 -0.013257144
-0.0048747575 0.012192 -0.00025142872
-0.0073121362 -0.018694399 -0.035204288
0.0064996765 0.018694399 -0.0022835718
0.011780663 0.0065023997 -0.036830001
-0.0032498382 0.0056896 -0.00025142872
-0.0036560681 0.017475199 -0.00025142872
-0.016249191 -0.0065023997 -0.00025142872
-0.00081245956 -0.0146304 -0.00025142872
-0.017061651 0.0028448 -0.022605002
-0.016655421 -0.0077215997 -0.033578575
0.0064996765 0.016255999 -0.030327145
0.00040622978 -0.019913599 -0.035204288
0.012593123 0.0125984 -0.032359287
0.009749515 -0.014223999 -0.013663572
-0.0093432851 0.0150368 -0.00025142872
0.0024373787 -0.0170688 -0.023011429
0.016249191 -0.0060959999 -0.012037857
0.0064996765 0.0016255999 -0.00025142872
-0.0032498382 0.0195072 -0.0026900002
0.012999353 0.014223999 -0.0035028574
-0.017467881 0.0097535998 -0.0026900002
0.0024373787 0.018288 -0.033578575
-0.01828034 0.0020319999 -0.00025142872
0.0048747575 0.0028448 -0.00025142872
0.015842961 -0.0073151998 -0.025043573
-0.0016249191 -0.0170688 -0.016508572
0.016249191 -0.0056896 -0.012850715
-0.0044685276 -0.0166624 -0.0083800005
0.015030502 0.0044704 -0.00025142872
0.012186893 -0.0012192 -0.00025142872
-0.014218043 -0.01016 -0.011225001
0.0020311489 0.0170688 -0.019760001
0.017061651 -0.010566399 -0.0022835718
-0.012999353 0.0150368 -0.034797858
0.015030502 -0.0085343998 -0.020166429
0.01828034 0 -0.0035028574
0.0028436084 0.0138176 -0.036830001
-0.009749515 0.0166624 -0.0035028574
-0.009749515 -0.0048767999 -0.036830001
0.017061651 0.0028448 -0.016508572
-0.0036560681 -0.0032511998 -0.00025142872
0.016249191 0.0056896 -0.0051285718
0.01990526 0.0012192 -0.035204288
0.015436731 0.0081279995 -0.019353572
-0.0060934466 0.017475199 -0.0035028574
0.0064996765 0.018694399 -0.0026900002
0.017467881 -0.0052831997 -0.00025142872
0.0064996765 -0.0020319999 -0.036830001
0.0048747575 -0.0012192 -0.036830001
0.0012186894 -0.0040639997 -0.00025142872
-0.012593123 -0.012192 -0.031546429
0.00040622978 0.0028448 -0.00025142872
0.015842961 0.0016255999 -0.036830001
-0.0081245955 -0.013004799 -0.00025142872
0.017061651 0.0032511998 -0.0071607148
-0.012186893 -0.0093471995 -0.036830001
-0.011374434 -0.0044704 -0.00025142872
-0.015436731 0.0081279995 -0.020166429
0.01990526 0.0016255999 -0.0035028574
-0.015842961 -0.0065023997 -0.0051285718
0.017467881 0 -0.011225001
0.013811813 0.0138176 -0.0035028574
-0.017467881 0.0020319999 -0.0039092861
-0.013811813 0.01016 -0.0063478574
-0.010155745 0.014223999 -0.023417858
0.013405583 0.0146304 -0.035204288
-0.0081245955 0.0040639997 -0.00025142872
0.0012186894 0.0170688 -0.023824288
0.012186893 0.0012192 -0.036830001
-0.0073121362 0.0093471995 -0.036830001
0.0190928 0.0065023997 -0.0014707145
-0.0044685276 -0.0178816 -0.036423571
-0.013811813 0.014223999 -0.034391429
0.0016249191 -0.0195072 -0.034391429
-0.014218043 -0.0097535998 -0.031140001
-0.0052809874 0.0166624 -0.0087864287
-0.016655421 -0.0060959999 -0.0035028574
0.0012186894 -0.0065023997 -0.00025142872
0.0024373787 -0.0170688 -0.019353572
0.013811813 0.01016 -0.0047221431
-0.015030502 0.013004799 -0.0022835718
0 -0.014223999 -0.036830001
-0.0052809874 -0.0158496 -0.00025142872
0.012186893 0.014223999 -0.033985
-0.011780663 -0.0125984 -0.036423571
0.01949903 -0.0044704 -0.00025142872
-0.016655421 -0.0048767999 -0.029514287
-0.017061651 0.0020319999 -0.02870143
0.0081245955 0.015443199 -0.01447643
-0.015030502 -0.0085343998 -0.017727857
-0.0036560681 0.0081279995 -0.036830001
-0.0028436084 0.0170688 -0.022198573
0.010155745 0.014223999 -0.016915001
-0.017467881 -0.0012192 -0.0075671435
0.0064996765 -0.018694399 -0.0010642859
-0.0032498382 0.0170688 -0.023417858
-0.0036560681 0.0069088 -0.00025142872
-0.013405583 0.0012192 -0.036830001
-0.0064996765 -0.0028448 -0.00025142872
-0.0073121362 0.0178816 -0.036017146
0.016655421 -0.0044704 -0.0055350005
-0.011374434 -0.014223999 -0.00025142872
0.0077183656 -0.015443199 -0.025043573
-0.016249191 0.0040639997 -0.036423571
0.011374434 0.014223999 -0.00025142872
-0.0089370552 -0.0178816 -0.0014707145
-0.0040622978 0.015443199 -0.00025142872
0.017467881 -0.0016255999 -0.029107859
-0.0040622978 0.0077215997 -0.036830001
0.016655421 0.0048767999 -0.020979287
0.01868657 -0.0048767999 -0.00025142872
0.009749515 -0.011785599 -0.00025142872
-0.015030502 -0.0089408001 -0.025043573
-0.0077183656 0.0065023997 -0.00025142872
0.01828034 0.00081279996 -0.0035028574
-0.015436731 -0.0077215997 -0.020979287
0.009749515 0.0146304 -0.024637144
-0.015030502 0.0012192 -0.036830001
0.0016249191 -0.0028448 -0.00025142872
-0.013811813 -0.010566399 -0.029514287
0.012999353 0.0044704 -0.036830001
-0.010561975 0.0170688 -0.0026900002
0.01828034 -0.0052831997 -0.036423571
0.011374434 0.0138176 -0.032359287
-0.010155745 0.014223999 -0.01732143
0.012186893 0.0113792 -0.036423571
-0.0081245955 0.015443199 -0.0043157148
-0.012593123 -0.0113792 -0.00025142872
0.00081245956 -0.0166624 -0.00025142872
-0.017061651 -0.0024383999 -0.012444287
0.012999353 -0.011785599 -0.025043573
-0.015842961 -0.0081279995 -0.0043157148
0.0060934466 0.0150368 -0.00025142872
0.0073121362 -0.0012192 -0.00025142872
-0.0069059064 0.0028448 -0.00025142872
0.0077183656 0.0097535998 -0.036830001
-0.010155745 0.0138176 -0.018134287
0.0081245955 -0.015443199 -0.029920716
0.0040622978 0.0081279995 -0.036830001
0.012593123 0.0125984 -0.0035028574
0.012593123 0.011785599 -0.02870143
-0.016655421 0.0048767999 -0.031546429
0.013811813 -0.014223999 -0.036017146
0.0012186894 -0.019913599 -0.035610717
-0.0048747575 0 -0.00025142872
-0.0012186894 -0.017475199 -0.029107859
0.017061651 -0.0016255999 -0.0067542861
-0.0032498382 0.0166624 -0.00025142872
0.0081245955 -0.015443199 -0.020166429
0.01949903 -0.0040639997 -0.0035028574
0.017467881 0.0020319999 -0.010412144
0.0044685276 -0.0166624 -0.029920716
-0.014624272 0.0097535998 -0.011631429
-0.00081245956 0.0052831997 -0.00025142872
0.017467881 0.00040639998 -0.028295001
0.0048747575 0.016255999 -0.00025142872
0.011780663 -0.0125984 -0.02870143
-0.0016249191 0.0170688 -0.0095992861
0.0048747575 -0.0036575999 -0.00025142872
-0.012593123 -0.011785599 -0.0047221431
-0.0028436084 -0.0093471995 -0.00025142872
-0.0064996765 0.0044704 -0.036830001
-0.016655421 0.0048767999 -0.0075671435
-0.0056872168 0.0134112 -0.036830001
0.0016249191 0.00040639998 -0.00025142872
0.0060934466 -0.0089408001 -0.00025142872
-0.0024373787 0.0170688 -0.014882858
-0.015842961 -0.0069088 -0.0095992861
-0.016249191 0.0052831997 -0.025450001
0.015436731 -0.0077215997 -0.016915001
0.00081245956 -0.0178816 -0.032765716
0.0024373787 0.0028448 -0.036830001
0.0020311489 0.013004799 -0.00025142872
0.00040622978 0.0138176 -0.036830001
-0.0040622978 -0.0170688 -0.031140001
-0.017467881 0.0052831997 -0.036423571
-0.0028436084 -0.0016255999 -0.036830001
-0.01990526 -0.0036575999 -0.0010642859
0.0044685276 0.0166624 -0.0091928579
0.0064996765 -0.018288 -0.0035028574
-0.013405583 -0.0109728 -0.017727857
-0.017061651 0.0040639997 -0.011225001
-0.0040622978 -0.017475199 -0.033578575
-0.012999353 0.00040639998 -0.036830001
-0.010155745 -0.0073151998 -0.00025142872
-0.0069059064 -0.0146304 -0.00025142872
0.0036560681 0.0195072 -0.0010642859
0.0032498382 -0.0170688 -0.020979287
0.017061651 0 -0.0051285718
-0.015842961 0.0073151998 -0.010412144
-0.013405583 -0.0109728 -0.0087864287
-0.0060934466 0.0077215997 -0.00025142872
-0.010968204 -0.0166624 -0.001877143
-0.017061651 0.00081279996 -0.01407
-0.012593123 0.012192 -0.02870143
0.010561975 -0.014223999 -0.032359287
0.0052809874 -0.0166624 -0.020979287
0.010968204 -0.0166624 -0.035610717
-0.0016249191 -0.0170688 -0.0067542861
0.015030502 -0.0085343998 -0.014882858
-0.0073121362 -0.015443199 -0.011225001
-0.01949903 -0.0040639997 -0.00025142872
-0.0056872168 0.011785599 -0.00025142872
-0.0069059064 -0.0158496 -0.0059414292
-0.0052809874 0.010566399 -0.00025142872
0.017061651 0.0028448 -0.018947143
0.01990526 0 -0.00065785728
0.00081245956 -0.0085343998 -0.00025142872
0.014218043 -0.0097535998 -0.010818572
0.0069059064 0.0158496 -0.018540716
-0.017467881 -0.0016255999 -0.023417858
0.016249191 0.0065023997 -0.027888574
-0.010968204 -0.0081279995 -0.036830001
0.016655421 0.010566399 -0.034391429
-0.016249191 0.0036575999 -0.00025142872
0.0040622978 0.018288 -0.036423571
0.0044685276 0.00040639998 -0.00025142872
-0.012186893 0.0150368 -0.036423571
0.016249191 0.0109728 -0.0035028574
-0.0024373787 0.0170688 -0.013663572
0.0044685276 0.0166624 -0.014882858
-0.015842961 -0.0085343998 -0.00025142872
-0.01787411 -0.0024383999 -0.0035028574
0.0060934466 0.0191008 -0.00065785728
-0.013811813 0.0020319999 -0.00025142872
-0.0044685276 -0.0195072 -0.00025142872
0.0048747575 0.0195072 -0.0022835718
-0.015842961 -0.0077215997 -0.00025142872
0.0024373787 -0.0191008 -0.00025142872
-0.00040622978 0.013004799 -0.00025142872
-0.0028436084 -0.0158496 -0.036830001
0.01990526 0 -0.0010642859
0.017061651 0.0085343998 -0.036423571
-0.0052809874 0.0158496 -0.036423571
0.0012186894 0.017475199 -0.010412144
0.016655421 0.0048767999 -0.021385716
0.0056872168 0.0097535998 -0.036830001
0.017467881 -0.00040639998 -0.018540716
-0.012999353 0.0113792 -0.014882858
-0.0081245955 0.015443199 -0.0067542861
0.017467881 0.0077215997 -0.00025142872
-0.017467881 0.00040639998 -0.025043573
-0.0036560681 0.0170688 -0.024637144
0.017467881 -0.00081279996 -0.013257144
-0.0048747575 0.0195072 -0.0010642859
0.0077183656 -0.016255999 -0.033172145
0.016249191 -0.0073151998 -0.032359287
0.0069059064 0.0166624 -0.0035028574
0.0052809874 -0.013004799 -0.036830001
-0.0048747575 -0.0036575999 -0.00025142872
0.012593123 -0.011785599 -0.026669286
-0.012186893 -0.0052831997 -0.00025142872
0.0093432851 -0.0146304 -0.0067542861
0.00040622978 -0.017475199 -0.022198573
-0.00040622978 0.0016255999 -0.036830001
0.012186893 0.015443199 -0.001877143
0.01787411 0.0089408001 -0.036017146
0.0012186894 0.019913599 -0.0035028574
-0.0085308254 -0.015443199 -0.032359287
-0.0024373787 0.0056896 -0.036830001
-0.0040622978 0.0138176 -0.036830001
0.0032498382 0.0081279995 -0.00025142872
0.00040622978 0.0125984 -0.00025142872
0.0048747575 0.0166624 -0.012444287
-0.0012186894 -0.019913599 -0.034797858
0.013811813 0.0113792 -0.0035028574
-0.012999353 0.0048767999 -0.036830001
-0.0052809874 0.0166624 -0.018540716
-0.0190928 -0.0060959999 -0.00025142872
-0.016249191 -0.0056896 -0.014882858
0.0069059064 0.0032511998 -0.036830001
0.0085308254 -0.015443199 -0.00025142872
0.0036560681 0.0170688 -0.011631429
-0.0048747575 0.0166624 -0.031546429
0.0190928 0 -0.035610717
-0.0024373787 0.0170688 -0.015289286
0.016249191 -0.0052831997 -0.013663572
-0.014624272 -0.01016 -0.032765716
-0.010968204 0.0134112 -0.019760001
-0.0012186894 -0.0044704 -0.00025142872
0.0060934466 0.0191008 -0.0010642859
0.0190928 -0.0040639997 -0.0035028574
-0.0081245955 0.015443199 -0.021792144
0.013811813 -0.0138176 -0.033985
-0.016249191 -0.0016255999 -0.00025142872
-0.017061651 -0.0036575999 -0.0063478574
-0.013811813 0.01016 -0.0083800005
-0.016655421 0.0048767999 -0.023417858
-0.014218043 -0.0069088 -0.036830001
-0.017061651 0.0040639997 -0.0059414292
-0.0073121362 0.010566399 -0.00025142872
0.013811813 0.010566399 -0.027888574
-0.015842961 0.0036575999 -0.00025142872
0.009749515 0.0170688 -0.036017146
0.012593123 0.0048767999 -0.036830001
0.014624272 -0.0044704 -0.036830001
-0.0073121362 -0.0081279995 -0.00025142872
0.0052809874 -0.015443199 -0.00025142872
-0.016249191 -0.0056896 -0.020979287
0.010155745 -0.0158496 -0.033985
-0.017467881 0 -0.015695715
0.014218043 -0.01016 -0.01447643
0.0089370552 -0.0097535998 -0.00025142872
-0.0190928 0.0020319999 -0.033985
-0.00081245956 0.0170688 -0.031140001
-0.011780663 0.0077215997 -0.036830001
-0.015030502 -0.0089408001 -0.0071607148
0.015842961 -0.0077215997 -0.0059414292
0.015842961 -0.0069088 -0.023824288
0.011374434 -0.0138176 -0.0035028574
0.0056872168 -0.0040639997 -0.036830001
-0.014624272 -0.0134112 -0.0035028574
0.0048747575 0.0166624 -0.00025142872
-0.017061651 -0.00040639998 -0.021385716
0.01787411 -0.0048767999 -0.00025142872
-0.0056872168 0.0138176 -0.00025142872
-0.0048747575 -0.015443199 -0.00025142872
0.016655421 -0.0060959999 -0.032765716
0.0077183656 0.0158496 -0.0055350005
-0.017061651 0.0032511998 -0.024637144
-0.015030502 -0.0020319999 -0.00025142872
-0.017467881 0.0016255999 -0.013257144
0.0064996765 -0.0016255999 -0.036830001
-0.0032498382 0.0170688 -0.0063478574
0.0073121362 -0.0065023997 -0.00025142872
0.016249191 0.0097535998 -0.036423571
-0.010155745 0.0170688 -0.0030964289
0.017061651 0.0028448 -0.024230715
-0.0089370552 0.017475199 -0.036017146
-0.0085308254 0.0012192 -0.036830001
0.00081245956 0.017475199 -0.026262859
-0.0060934466 -0.0093471995 -0.00025142872
0.016249191 0.0056896 -0.018540716
0.0060934466 -0.0032511998 -0.036830001
-0.012186893 0.0125984 -0.016915001
0.0032498382 0.0097535998 -0.036830001
0.0089370552 -0.0150368 -0.023417858
0.0052809874 -0.0166624 -0.023417858
-0.0069059064 0.0109728 -0.036830001
0.0044685276 -0.0195072 -0.035610717
-0.0048747575 -0.0146304 -0.00025142872
-0.016249191 -0.0056896 -0.026669286
-0.0073121362 0.0016255999 -0.00025142872
-0.0028436084 -0.0170688 -0.015289286
-0.017061651 -0.0065023997 -0.00025142872
-0.00040622978 -0.0195072 -0.036017146
-0.016249191 0.0056896 -0.025043573
0.017061651 -0.0032511998 -0.029920716
-0.00040622978 -0.017475199 -0.017727857
-0.0085308254 0.0125984 -0.00025142872
-0.0028436084 0.013004799 -0.00025142872
-0.016655421 -0.0056896 -0.016102144
-0.0040622978 0.0170688 -0.0039092861
0.0089370552 -0.017475199 -0.034391429
-0.0020311489 0.01016 -0.00025142872
0.0024373787 -0.0048767999 -0.036830001
0.0089370552 -0.0178816 -0.035204288
-0.015842961 0.0069088 -0.012037857
0.01787411 0.0085343998 -0.001877143
-0.0024373787 0.0170688 -0.028295001
0.016655421 0.0052831997 -0.0091928579
0.00081245956 0.017475199 -0.0087864287
-0.0064996765 -0.0138176 -0.036830001
0 0.017475199 -0.020166429
0.0012186894 0.0073151998 -0.036830001
-0.0081245955 -0.0016255999 -0.00025142872
0.017061651 -0.0032511998 -0.0063478574
-0.00040622978 -0.0195072 -0.00025142872
0.0032498382 0.0170688 -0.024637144
0.01828034 0.0065023997 -0.0035028574
-0.0089370552 -0.0150368 -0.027075715
-0.0036560681 0.0170688 -0.022605002
-0.0024373787 -0.015443199 -0.00025142872
-0.0073121362 0.0052831997 -0.00025142872
0.013811813 -0.014223999 -0.00025142872
-0.011374434 0.011785599 -0.036830001
0.0036560681 0.0093471995 -0.036830001
-0.015436731 0.0081279995 -0.0055350005
0.009749515 0.014223999 -0.02870143
0.012593123 -0.012192 -0.030733572
-0.0093432851 -0.0150368 -0.0043157148
-0.013405583 0.0032511998 -0.00025142872
0.012186893 0.00081279996 -0.00025142872
0.0089370552 0.0150368 -0.031546429
0.016249191 -0.0085343998 -0.033578575
0.0093432851 -0.0166624 -0.036423571
-0.010968204 0.0113792 -0.036830001
0.017061651 0.0040639997 -0.01407
0.0048747575 -0.018694399 -0.0035028574
-0.0069059064 -0.018694399 -0.034797858
-0.012999353 0.014223999 -0.00025142872
0.0024373787 -0.0195072 -0.034391429
0.0190928 -0.0044704 -0.036017146
-0.016249191 -0.0113792 -0.0030964289
0.010155745 -0.0170688 -0.0010642859
-0.0024373787 0.0191008 -0.034391429
0.011780663 -0.0158496 -0.035204288
0.016249191 0.00040639998 -0.036017146
0.015030502 -0.0024383999 -0.00025142872
-0.017061651 0.0020319999 -0.022605002
0.0081245955 0.0073151998 -0.036830001
-0.0032498382 0.0166624 -0.0051285718
-0.015436731 0.0020319999 -0.036830001
0.0056872168 -0.0166624 -0.0043157148
0.010561975 0.0065023997 -0.00025142872
0.0012186894 -0.0170688 -0.016915001
-0.016249191 -0.0093471995 -0.033985
-0.0056872168 -0.0166624 -0.012850715
0.0032498382 -0.0150368 -0.036830001
-0.0028436084 -0.011785599 -0.00025142872
0.012999353 -0.0052831997 -0.00025142872
0.016655421 -0.0040639997 -0.020979287
-0.016249191 -0.0060959999 -0.030733572
-0.01990526 0.0024383999 -0.00025142872
0.0044685276 0.0012192 -0.036830001
0.015436731 -0.0077215997 -0.010005715
0.012186893 -0.0158496 -0.001877143
0.0020311489 0.011785599 -0.00025142872
-0.00081245956 -0.0085343998 -0.036830001
0.010155745 0.0056896 -0.00025142872
0.0040622978 -0.018288 -0.036423571
-0.013405583 0.0109728 -0.011631429
0.012186893 0.015443199 -0.00025142872
0.017467881 -0.0048767999 -0.033578575
-0.0032498382 0.0085343998 -0.036830001
-0.010561975 -0.0138176 -0.0039092861
-0.0073121362 0.0158496 -0.02585643
-0.016655421 -0.0048767999 -0.036423571
0.00040622978 0.0077215997 -0.036830001
0.0077183656 0.0158496 -0.031952858
-0.0056872168 -0.014223999 -0.036830001
-0.0052809874 0.0166624 -0.036423571
-0.0069059064 -0.0016255999 -0.00025142872
-0.016249191 0.0056896 -0.030327145
0.010155745 0.0138176 -0.023824288
-0.0069059064 0.0097535998 -0.036830001
-0.016655421 -0.0069088 -0.0035028574
-0.0016249191 0.0191008 -0.033985
-0.0060934466 0.0113792 -0.00025142872
-0.012593123 -0.015443199 -0.035204288
0.0073121362 -0.0085343998 -0.00025142872
0.00081245956 0.0158496 -0.00025142872
0.0040622978 -0.0150368 -0.00025142872
0.016655421 0.0044704 -0.0075671435
0.0073121362 -0.0178816 -0.036017146
-0.011780663 -0.013004799 -0.01447643
0.00081245956 0.017475199 -0.01447643
0.01787411 0.0081279995 -0.0035028574
-0.01868657 -0.0065023997 -0.033985
0.0069059064 0.0089408001 -0.036830001
0.01949903 -0.0036575999 -0.0022835718
0.016655421 0.0044704 -0.0063478574
-0.012593123 -0.012192 -0.014882858
-0.011374434 -0.0016255999 -0.036830001
0.015030502 -0.0089408001 -0.022198573
0.0016249191 0.01016 -0.036830001
-0.015436731 -0.0125984 -0.0026900002
0.016249191 0.0089408001 -0.00025142872
0.0056872168 -0.0178816 -0.0035028574
0.0081245955 0.015443199 -0.012850715
0.0032498382 -0.0048767999 -0.00025142872
-0.0060934466 -0.0097535998 -0.036830001
-0.0077183656 0.0166624 -0.036423571
-0.0020311489 0.0170688 -0.01732143
0.01990526 0 -0.0022835718
0.010968204 0.0109728 -0.036830001
-0.0052809874 0.018694399 -0.036423571
0.015842961 0.0073151998 -0.031546429
0.017061651 0.0044704 -0.012850715
0.0089370552 -0.0150368 -0.010005715
0.013811813 -0.0052831997 -0.00025142872
0.0020311489 0.0077215997 -0.00025142872
-0.011780663 -0.0125984 -0.013663572
0.0020311489 -0.0195072 -0.00025142872
-0.017061651 0.0028448 -0.019760001
0.0064996765 -0.0048767999 -0.00025142872
-0.017061651 -0.0040639997 -0.027888574
0.0024373787 0.0146304 -0.00025142872
-0.010155745 0.0170688 -0.036017146
0.00081245956 0.0170688 -0.0091928579
-0.015842961 -0.00081279996 -0.036830001
0.009749515 -0.0166624 -0.00025142872
0.00040622978 0.017475199 -0.022198573
-0.012999353 0.0113792 -0.017727857
0.015842961 0.0065023997 -0.013663572
-0.0052809874 -0.0028448 -0.00025142872
-0.015436731 -0.0081279995 -0.0063478574
0.010561975 -0.0170688 -0.0022835718
0.013811813 -0.0089408001 -0.00025142872
-0.0069059064 0.0158496 -0.010818572
0.017061651 -0.0032511998 -0.0047221431
-0.0032498382 0.017475199 -0.0035028574
0.009749515 -0.0170688 -0.0035028574
0.0089370552 0.0125984 -0.00025142872
0.0040622978 -0.0166624 -0.025450001
0.010155745 0.01016 -0.00025142872
-0.0060934466 0.0048767999 -0.00025142872
0.015842961 -0.0052831997 -0.036423571
0.016249191 -0.0056896 -0.026669286
0.0040622978 0.0170688 -0.028295001
-0.016655421 0.0081279995 -0.036423571
-0.0073121362 -0.0081279995 -0.036830001
-0.010155745 0.014223999 -0.010412144
-0.0032498382 0.012192 -0.00025142872
0.0040622978 -0.0052831997 -0.00025142872
0.012593123 0.0065023997 -0.036830001
0.017061651 -0.0028448 -0.012444287
0.010155745 -0.0089408001 -0.036830001
0.016249191 -0.0056896 -0.013257144
0.0093432851 -0.0113792 -0.00025142872
0.0052809874 -0.0044704 -0.00025142872
0.010968204 -0.0134112 -0.016508572
0.0048747575 -0.0166624 -0.027482145
0.017061651 -0.0016255999 -0.020979287
-0.017467881 -0.0016255999 -0.029920716
0.0040622978 -0.0195072 -0.00065785728
0.0085308254 0.0150368 -0.010412144
0.0036560681 -0.0170688 -0.010412144
0.015842961 0.0073151998 -0.030327145
0.014218043 -0.0073151998 -0.036830001
-0.016249191 -0.0065023997 -0.0059414292
-0.01828034 -0.0077215997 -0.035204288
0.0081245955 0.0158496 -0.033172145
0.010155745 0.0069088 -0.00025142872
-0.0093432851 0.0069088 -0.00025142872
0.016655421 0.0032511998 -0.0051285718
-0.017061651 0 -0.0067542861
-0.015030502 -0.0069088 -0.036423571
0.017061651 0.0036575999 -0.016915001
0.016655421 -0.0048767999 -0.0039092861
-0.013811813 0.0138176 -0.036017146
0.0024373787 -0.00040639998 -0.00025142872
0.0028436084 -0.017475199 -0.031952858
0.017467881 0.00040639998 -0.029514287
-0.0052809874 0 -0.00025142872
0.0077183656 0.0044704 -0.00025142872
0.011374434 -0.013004799 -0.019353572
-0.0085308254 0.0150368 -0.0083800005
0.0056872168 -0.0146304 -0.00025142872
0.0044685276 0.0166624 -0.026669286
0.00040622978 -0.017475199 -0.014882858
-0.010155745 0.0138176 -0.023824288
0.0077183656 -0.0158496 -0.00025142872
-0.012593123 0.0012192 -0.00025142872
-0.0016249191 -0.018694399 -0.036423571
0.016249191 0.0065023997 -0.036423571
-0.0048747575 0.0170688 -0.036423571
0.017061651 0.0032511998 -0.0095992861
0.0044685276 -0.00081279996 -0.00025142872
0.0028436084 -0.0081279995 -0.036830001
0.00081245956 0.017475199 -0.0071607148
0.0073121362 -0.00081279996 -0.036830001
0.0073121362 -0.018694399 -0.00065785728
0.0064996765 -0.0089408001 -0.00025142872
-0.014218043 -0.0125984 -0.00025142872
-0.0012186894 -0.010566399 -0.036830001
-0.015842961 -0.0069088 -0.018134287
-0.013811813 0.01016 -0.026669286
0.0040622978 0.0170688 -0.026262859
0.0056872168 0.016255999 -0.013663572
-0.0052809874 -0.0166624 -0.0059414292
-0.016655421 0.0052831997 -0.0047221431
0.016249191 0.0052831997 -0.0095992861
-0.013811813 0.010566399 -0.018134287
-0.011374434 0.0134112 -0.025043573
0.0064996765 0.0158496 -0.01407
0.00040622978 -0.015443199 -0.036830001
-0.015842961 0.0069088 -0.029514287
-0.010155745 0.0138176 -0.0095992861
-0.0020311489 0.0048767999 -0.00025142872
-0.0064996765 0.0065023997 -0.00025142872
-0.012593123 -0.0040639997 -0.036830001
0.010968204 0.0134112 -0.027888574
0.01787411 0.0020319999 -0.032765716
-0.012186893 0.0158496 -0.035204288
0.017061651 -0.0073151998 -0.0035028574
0.00081245956 -0.00040639998 -0.036830001
-0.012186893 0.013004799 -0.032765716
-0.012999353 0.0113792 -0.0095992861
-0.0044685276 -0.0170688 -0.0043157148
-0.0024373787 0.0085343998 -0.036830001
-0.016249191 -0.0036575999 -0.00025142872
0.014218043 0.0097535998 -0.029107859
0.017467881 0.00081279996 -0.020572858
0.011374434 -0.0024383999 -0.00025142872
0.017467881 0.00081279996 -0.010005715
-0.010561975 0.0138176 -0.01447643
0.010155745 -0.0138176 -0.0095992861
0.0060934466 0.0166624 -0.033172145
-0.0044685276 -0.0166624 -0.012444287
0.009749515 -0.017475199 -0.035204288
-0.0089370552 -0.0150368 -0.0043157148
0.012593123 0.012192 -0.031140001
-0.0060934466 0.016255999 -0.017727857
0.01990526 -0.0032511998 -0.035610717
-0.0032498382 0.011785599 -0.036830001
-0.0048747575 -0.0166624 -0.018134287
0.014624272 -0.01016 -0.032359287
0.0069059064 0.01016 -0.00025142872
0.01787411 -0.0016255999 -0.00025142872
-0.014624272 -0.0048767999 -0.00025142872
0.0012186894 -0.0060959999 -0.036830001
-0.016655421 0.0032511998 -0.036423571
0.0052809874 -0.017475199 -0.00025142872
-0.0024373787 -0.0170688 -0.028295001
-0.0060934466 0.016255999 -0.0059414292
-0.0060934466 0.0150368 -0.036830001
0.01949903 -0.0044704 -0.036017146
0.0040622978 -0.0036575999 -0.036830001
-0.0040622978 0.010566399 -0.036830001
0.0032498382 -0.0170688 -0.016915001
-0.015436731 -0.0028448 -0.036830001
0.017061651 0 -0.013663572
-0.010155745 -0.0146304 -0.0035028574
-0.015842961 0.012192 -0.001877143
0.0081245955 0.0166624 -0.00025142872
-0.014624272 0.0093471995 -0.01732143
-0.010968204 -0.0150368 -0.0035028574
-0.009749515 0.017475199 -0.001877143
0.0060934466 -0.0191008 -0.0030964289
0.010155745 -0.014223999 -0.018947143
-0.0024373787 0.017475199 -0.036423571
0.0016249191 0.0134112 -0.00025142872
-0.015030502 0.0113792 -0.033985
0.010155745 0.0138176 -0.0051285718
0.013811813 0.014223999 -0.035610717
-0.0190928 -0.0056896 -0.0035028574
-0.01990526 -0.0016255999 -0.034797858
0.0044685276 -0.0081279995 -0.00025142872
0.017467881 -0.00040639998 -0.0095992861
-0.010155745 0.0089408001 -0.00025142872
0.012186893 -0.0125984 -0.014882858
0.010561975 0.0138176 -0.010818572
0.015842961 -0.0073151998 -0.031546429
0.0036560681 -0.0170688 -0.030733572
-0.00040622978 -0.0089408001 -0.036830001
0.015436731 0.0093471995 -0.036423571
-0.0060934466 -0.0146304 -0.036830001
0.017061651 -0.0040639997 -0.018540716
-0.0190928 0.0032511998 -0.036423571
-0.0044685276 0.0166624 -0.012850715
-0.017061651 -0.010566399 -0.036017146
0.0028436084 -0.0170688 -0.021385716
0.01868657 0.0040639997 -0.033985
0.0044685276 -0.0056896 -0.00025142872
0.017467881 0.00081279996 -0.0083800005
-0.0020311489 -0.0170688 -0.017727857
0.00040622978 0.0195072 -0.00025142872
-0.017467881 -0.00081279996 -0.0075671435
0.0052809874 0.017475199 -0.036423571
-0.0085308254 -0.015443199 -0.029107859
0.016249191 0.0113792 -0.00025142872
0.0048747575 -0.0081279995 -0.00025142872
0.014624272 0.0093471995 -0.021385716
0.017467881 0.0089408001 -0.0035028574
0.0056872168 0.0113792 -0.036830001
0.011374434 -0.0138176 -0.036423571
-0.01990526 0.00081279996 -0.0022835718
0.015436731 0.0077215997 -0.027075715
-0.014218043 0.0097535998 -0.013257144
0.0012186894 -0.0191008 -0.036423571
0.0077183656 -0.015443199 -0.0059414292
0.0020311489 0.018288 -0.033578575
0.0089370552 0.0146304 -0.025450001
-0.0073121362 -0.0125984 -0.00025142872
0.016655421 -0.010566399 -0.00025142872
-0.013811813 0.01016 -0.015289286
0.0056872168 0.016255999 -0.030327145
0.011374434 0.013004799 -0.029514287
-0.0081245955 0.0138176 -0.00025142872
-0.0077183656 0.0158496 -0.01447643
-0.016249191 0.0060959999 -0.027482145
-0.012999353 -0.0113792 -0.014882858
0.0093432851 0.0040639997 -0.036830001
0.014624272 -0.0089408001 -0.0091928579
0.010968204 -0.0134112 -0.012444287
0.017061651 0.0097535998 -0.00025142872
-0.00081245956 -0.0195072 -0.034391429
0.013405583 -0.0113792 -0.036423571
0.012999353 -0.0113792 -0.016508572
-0.0093432851 0.0048767999 -0.00025142872
0.0077183656 0.018288 -0.001877143
-0.013405583 -0.0097535998 -0.036423571
-0.009749515 0.015443199 -0.00025142872
-0.0069059064 -0.0036575999 -0.00025142872
-0.0016249191 0.017475199 -0.031546429
0.015842961 -0.0073151998 -0.015695715
0.0089370552 0.00081279996 -0.036830001
-0.012186893 -0.0158496 -0.0026900002
0.00081245956 0.0109728 -0.00025142872
0.014624272 -0.0113792 -0.00025142872
-0.0016249191 -0.017475199 -0.016102144
-0.01949903 -0.0012192 -0.036017146
-0.015842961 -0.0069088 -0.018540716
-0.016249191 -0.0056896 -0.025450001
-0.017467881 0 -0.0055350005
0.01990526 -0.0020319999 -0.035204288
-0.010968204 -0.0089408001 -0.00025142872
-0.014624272 0.0093471995 -0.0071607148
-0.016655421 -0.0048767999 -0.0075671435
-0.01787411 0.0065023997 -0.034391429
-0.0032498382 -0.017475199 -0.032359287
0.0093432851 -0.0150368 -0.021792144
-0.0048747575 -0.0195072 -0.034797858
0.015842961 0.0069088 -0.02870143
0.0077183656 0.016255999 -0.036423571
0.0032498382 -0.0036575999 -0.00025142872
0.010561975 -0.0138176 -0.0059414292
-0.0032498382 0.0170688 -0.027888574
0.0048747575 -0.0077215997 -0.036830001
0.016655421 0.0073151998 -0.036423571
-0.0073121362 -0.018694399 -0.035610717
0.00081245956 -0.017475199 -0.022198573
0.013405583 0.0109728 -0.0087864287
-0.0069059064 0.0138176 -0.00025142872
0.010561975 -0.0138176 -0.010005715
-0.015436731 0.0077215997 -0.00025142872
0.0048747575 0.0093471995 -0.00025142872
-0.015436731 -0.011785599 -0.0035028574
-0.010155745 -0.015443199 -0.036423571
0 0.017475199 -0.027482145
-0.009749515 0.0040639997 -0.00025142872
-0.017467881 -0.0016255999 -0.027482145
0.00040622978 0.0065023997 -0.036830001
-0.012186893 -0.0044704 -0.00025142872
0.0048747575 0.0166624 -0.025450001
0.017467881 0.0020319999 -0.026262859
-0.0085308254 0.0109728 -0.00025142872
-0.013405583 -0.014223999 -0.0035028574
-0.0012186894 -0.017475199 -0.036423571
0.0077183656 -0.018288 -0.0022835718
-0.0016249191 -0.0178816 -0.033578575
-0.0016249191 -0.00040639998 -0.00025142872
-0.016655421 0.0048767999 -0.025043573
0.011780663 0.0052831997 -0.00025142872
0.016249191 0.0060959999 -0.026669286
0.0089370552 -0.0170688 -0.034391429
-0.015842961 -0.0069088 -0.016915001
0.01868657 -0.0052831997 -0.033985
-0.015842961 0.0065023997 -0.025450001
-0.0016249191 -0.0170688 -0.01407
0.0073121362 -0.0150368 -0.036423571
-0.01828034 -0.0056896 -0.00025142872
-0.013405583 0.014223999 -0.033985
0.016249191 -0.0056896 -0.0055350005
0.0048747575 0.0170688 -0.031952858
0.016655421 -0.0044704 -0.016508572
0.010561975 -0.0036575999 -0.036830001
0.015436731 0.0073151998 -0.0067542861
0.0024373787 0.0170688 -0.019353572
0.00040622978 -0.017475199 -0.0047221431
-0.0085308254 -0.015443199 -0.016102144
-0.0073121362 0.015443199 -0.027075715
0.013811813 -0.010566399 -0.015289286
-0.0056872168 0.0166624 -0.0039092861
0.0052809874 -0.0166624 -0.01407
0.0024373787 -0.0170688 -0.024637144
-0.009749515 0.014223999 -0.027075715
0.0040622978 0.0170688 -0.032359287
-0.01787411 -0.0089408001 -0.0035028574
-0.0044685276 0.018694399 -0.036423571
0.0073121362 -0.0158496 -0.012850715
-0.012999353 -0.010566399 -0.00025142872
-0.0052809874 -0.0170688 -0.032359287
0 0.0170688 -0.0051285718
0.010561975 -0.016255999 -0.036017146
0.0077183656 -0.015443199 -0.014882858
0.017061651 -0.0012192 -0.022605002
0.0032498382 -0.0170688 -0.014882858
0.010968204 0.0166624 -0.0035028574
0.017061651 0.0028448 -0.010005715
0.0048747575 -0.0195072 -0.035204288
0.010968204 0.0097535998 -0.00025142872
-0.011780663 -0.016255999 -0.0030964289
0.017061651 0.010566399 -0.0014707145
-0.0024373787 0.019913599 -0.035204288
-0.017467881 0.0016255999 -0.030327145
-0.0190928 -0.0065023997 -0.0010642859
-0.0048747575 0.0056896 -0.00025142872
0.017061651 0.00081279996 -0.018134287
-0.011780663 -0.0125984 -0.023011429
-0.015842961 0.0069088 -0.00025142872
-0.015030502 -0.0093471995 -0.036423571
0.015030502 -0.0089408001 -0.018947143
-0.0064996765 -0.0012192 -0.036830001
0.014218043 0.0138176 -0.0022835718
0.016249191 0.0060959999 -0.027075715
0.01787411 -0.0060959999 -0.0035028574
0.010968204 -0.0134112 -0.0079735722
-0.017467881 -0.0020319999 -0.013257144
0.0081245955 -0.0150368 -0.0051285718
-0.0073121362 0.0113792 -0.036830001
0.0012186894 -0.0012192 -0.036830001
-0.016655421 0.0048767999 -0.020166429
-0.0081245955 -0.015443199 -0.031546429
0.0073121362 0.0178816 -0.00025142872
0.016655421 -0.0052831997 -0.018134287
0.015436731 -0.01016 -0.00025142872
-0.016249191 0.0020319999 -0.036830001
-0.010968204 0.0134112 -0.0051285718
0.012999353 0.013004799 -0.036423571
-0.013811813 0.010566399 -0.012037857
-0.012999353 0.0109728 -0.036423571
0.016249191 0 -0.036423571
-0.011374434 0.0048767999 -0.00025142872
0.0085308254 -0.0020319999 -0.036830001
-0.010561975 -0.0024383999 -0.036830001
-0.010561975 0.00040639998 -0.00025142872
-0.0020311489 -0.0191008 -0.0035028574
0.015842961 0.01016 -0.00025142872
-0.0064996765 -0.016255999 -0.025043573
0.010155745 -0.0081279995 -0.036830001
-0.015842961 -0.0081279995 -0.032359287
-0.0077183656 -0.0166624 -0.00025142872
0.0020311489 0.0032511998 -0.00025142872
0.017467881 0.0028448 -0.033172145
0.013405583 0.0146304 -0.034797858
-0.0028436084 -0.01016 -0.00025142872
-0.012999353 -0.0032511998 -0.00025142872
0.0020311489 -0.0125984 -0.036830001
-0.017061651 -0.0024383999 -0.020979287
-0.0020311489 0.0170688 -0.0071607148
0.0048747575 -0.0036575999 -0.036830001
-0.00081245956 -0.017475199 -0.017727857
0.0089370552 0.0150368 -0.0059414292
0.0064996765 0.0166624 -0.00025142872
0.014624272 0.010566399 -0.0035028574
0.0016249191 -0.0048767999 -0.00025142872
-0.01990526 -0.0032511998 -0.0014707145
-0.0052809874 0.0073151998 -0.036830001
0.0081245955 -0.015443199 -0.018947143
-0.012999353 0.0024383999 -0.00025142872
-0.0040622978 -0.0150368 -0.036830001
-0.010155745 0.0170688 -0.035610717
-0.0069059064 0.018694399 -0.0014707145
-0.0056872168 0.0085343998 -0.036830001
0.011780663 -0.0028448 -0.036830001
-0.013811813 -0.01016 -0.012037857
0.014218043 0.01016 -0.010005715
-0.015436731 -0.012192 -0.036017146
-0.0036560681 -0.0134112 -0.00025142872
-0.009749515 0 -0.036830001
0.0093432851 0.01016 -0.00025142872
0.0048747575 -0.0166624 -0.019353572
0.01990526 -0.0028448 -0.034797858
0.00081245956 -0.0195072 -0.0035028574
-0.00081245956 0.014223999 -0.036830001
-0.011374434 -0.0134112 -0.0043157148
-0.015842961 -0.0073151998 -0.0071607148
-0.0020311489 0.0170688 -0.022198573
-0.011374434 -0.0081279995 -0.036830001
0.010155745 -0.0097535998 -0.036830001
0.017467881 0.0024383999 -0.01447643
-0.013405583 -0.0020319999 -0.00025142872
-0.011780663 0.0085343998 -0.00025142872
-0.012186893 0 -0.036830001
0.00040622978 -0.0016255999 -0.036830001
-0.01787411 -0.0032511998 -0.033172145
-0.016655421 -0.0044704 -0.0095992861
-0.0024373787 -0.0191008 -0.00025142872
0.0073121362 0.014223999 -0.036830001
-0.011374434 0.011785599 -0.00025142872
0.011780663 -0.0060959999 -0.00025142872
0.0048747575 0.0166624 -0.01447643
-0.01787411 -0.0040639997 -0.0035028574
-0.0069059064 -0.0158496 -0.022605002
-0.00040622978 -0.017475199 -0.025043573
0.011374434 -0.013004799 -0.031140001
-0.0052809874 -0.0166624 -0.014882858
0.0081245955 -0.0109728 -0.036830001
0.012593123 -0.0048767999 -0.00025142872
0.013811813 -0.0109728 -0.033172145
0.0032498382 0.011785599 -0.00025142872
0 -0.013004799 -0.036830001
-0.015030502 0.0089408001 -0.013257144
0 0.0060959999 -0.036830001
-0.0024373787 0.014223999 -0.036830001
-0.014218043 0.0097535998 -0.012850715
-0.014218043 0.0138176 -0.035204288
0.015436731 -0.0125984 -0.035204288
-0.0089370552 0.0150368 -0.018540716
-0.0089370552 -0.0069088 -0.00025142872
0.014218043 0.01016 -0.030327145
0.0073121362 0.0089408001 -0.00025142872
0.015842961 -0.0073151998 -0.017727857
-0.0089370552 0.0178816 -0.0010642859
-0.0012186894 0.017475199 -0.020572858
0.017061651 0.0032511998 -0.023417858
-0.0012186894 0.017475199 -0.016102144
0.016249191 0.0089408001 -0.033985
-0.017467881 -0.0073151998 -0.036423571
0.016655421 0.0048767999 -0.016102144
-0.016655421 0.0048767999 -0.017727857
-0.0081245955 0.0036575999 -0.036830001
0.0012186894 0.018288 -0.033985
-0.015842961 -0.0056896 -0.036423571
0.01828034 -0.00040639998 -0.0035028574
0.00081245956 -0.0166624 -0.036423571
-0.0044685276 -0.0040639997 -0.00025142872
0.011374434 -0.016255999 -0.00065785728
-0.0020311489 -0.0056896 -0.00025142872
0.011374434 0.012192 -0.00025142872
0.016655421 0.0048767999 -0.019353572
-0.0032498382 0.0028448 -0.036830001
-0.0064996765 0.0040639997 -0.036830001
0.00081245956 0.017475199 -0.029920716
0.011780663 0.0125984 -0.017727857
-0.0093432851 -0.0012192 -0.00025142872
0.0020311489 -0.0138176 -0.00025142872
-0.017467881 0.00040639998 -0.0067542861
-0.010155745 0.0073151998 -0.036830001
-0.015436731 -0.0065023997 -0.036423571
-0.015842961 0.0065023997 -0.013663572
0.017467881 0.0036575999 -0.033172145
-0.015030502 -0.0020319999 -0.036830001
-0.017467881 -0.0016255999 -0.017727857
-0.0064996765 0.016255999 -0.010005715
0.013405583 -0.0109728 -0.029920716
-0.0085308254 -0.0150368 -0.026669286
0.016249191 0.0056896 -0.0087864287
-0.0012186894 0.019913599 -0.0030964289
0.01787411 -0.0032511998 -0.033578575
-0.01949903 -0.0048767999 -0.034391429
0 -0.00040639998 -0.036830001
0.0073121362 -0.018288 -0.0035028574
0.0020311489 -0.01016 -0.036830001
0.0016249191 -0.0150368 -0.00025142872
-0.0060934466 -0.0158496 -0.0051285718
0.01828034 0.0020319999 -0.0035028574
0.017467881 0.0024383999 -0.011631429
-0.011780663 -0.0125984 -0.016508572
-0.015030502 -0.0085343998 -0.020572858
-0.016655421 -0.0073151998 -0.00025142872
0.0052809874 -0.0024383999 -0.036830001
0.015030502 -0.0093471995 -0.031952858
0.016655421 0.0036575999 -0.018134287
0.01787411 -0.0089408001 -0.034797858
-0.012999353 0.0113792 -0.031546429
0.015030502 0.012192 -0.0035028574
-0.015436731 -0.0081279995 -0.015289286
-0.015842961 0.012192 -0.035610717
-0.017467881 0.0016255999 -0.016508572
-0.017061651 -0.0069088 -0.00025142872
0.00040622978 -0.0170688 -0.026669286
-0.0020311489 -0.0170688 -0.0083800005
0.014218043 -0.00040639998 -0.036830001
0.00081245956 -0.0170688 -0.026669286
-0.015842961 -0.0073151998 -0.025043573
0.010968204 0.0138176 -0.029107859
-0.0073121362 -0.0138176 -0.036830001
-0.016249191 -0.0069088 -0.032765716
0.0073121362 -0.018694399 -0.034797858
0.0064996765 0.016255999 -0.024637144
0.0069059064 -0.018694399 -0.033985
-0.0064996765 0.0073151998 -0.036830001
0.0060934466 0.0178816 -0.0035028574
0.0056872168 -0.016255999 -0.0055350005
0.0016249191 -0.0170688 -0.010818572
0.016249191 -0.0060959999 -0.014882858
0.00040622978 0.017475199 -0.0087864287
-0.0089370552 0.0178816 -0.034391429
0.00081245956 0.019913599 -0.001877143
0.010561975 -0.0138176 -0.018947143
-0.0044685276 0.0166624 -0.0051285718
-0.011780663 -0.00040639998 -0.00025142872
-0.017061651 -0.0048767999 -0.031952858
0.016655421 -0.0109728 -0.0026900002
-0.011780663 0.013004799 -0.020166429
0.0093432851 -0.0146304 -0.016508572
-0.01868657 -0.0069088 -0.0026900002
-0.0060934466 0.016255999 -0.016102144
0.017061651 0.0020319999 -0.028295001
0.014218043 0.0097535998 -0.031546429
0.0028436084 0.0195072 -0.034391429
0.016249191 0.0077215997 -0.032359287
0.014218043 0.01016 -0.012850715
-0.0028436084 -0.00081279996 -0.036830001
-0.012999353 -0.015443199 -0.00025142872
-0.014624272 0.0085343998 -0.036423571
0.016249191 0.0056896 -0.0047221431
-0.017061651 0.0028448 -0.027075715
0.0060934466 0.0040639997 -0.036830001
-0.010968204 -0.0134112 -0.012037857
-0.017467881 -0.0028448 -0.016102144
-0.01949903 -0.0048767999 -0.0014707145
0.015436731 -0.0097535998 -0.00025142872
-0.013405583 -0.0109728 -0.013257144
0.013405583 -0.0138176 -0.00025142872
-0.01828034 0.0052831997 -0.033985
0.0081245955 -0.015443199 -0.01407
-0.017061651 -0.0012192 -0.0067542861
0.012186893 0.0065023997 -0.036830001
-0.017467881 0.0020319999 -0.027482145
0.013811813 -0.0044704 -0.036830001
0.0069059064 0.0032511998 -0.00025142872
0.012186893 -0.014223999 -0.00025142872
-0.009749515 0.017475199 -0.0014707145
-0.015030502 -0.0089408001 -0.0075671435
-0.0085308254 0.0158496 -0.036423571
