# .PCD v0.7 - Point Cloud Data file format
VERSION 0.7
FIELDS x y z
SIZE 4 4 4
TYPE F F F
COUNT 1 1 1
WIDTH 1147
HEIGHT 1
VIEWPOINT 0 0 0 1 0 0 0
POINTS 1147
DATA ascii
0.0014363095 -0.00040282813 0.00026409258
0.00074688101 -0.0018415001 -0.0037965432
-0.00074688101 -0.00063301565 -2.1867694e-05
5.7452384e-05 0.0011509375 -2.1867694e-05
0.0018384763 0.00097829686 -0.0027670863
-0.0017810239 -0.0017839532 -0.0043112719
0 0.00051792187 0.0021514304
-0.0010915953 -0.00074810936 0.0031808873
0.0010341429 0.00028773438 -0.0047116163
0.0013214048 -0.0017839532 -0.00019344385
0.00097669056 -0.0015537656 -2.1867694e-05
0.0023555476 -5.7546877e-05 -0.0033961989
-0.00022980954 0.0017264063 -0.0021379737
0.0016086667 0.0012084844 -0.0027670863
-5.7452384e-05 0.00051792187 0.0015223178
-0.00022980954 0.00051792187 0.00026409258
-0.0010915953 -0.0018415001 -0.0033961989
-0.0018384763 0.00086320314 -0.0020235896
-0.00017235715 0.00092075003 0.0019226621
-0.0016086667 -0.0016688594 -2.1867694e-05
-0.00028726191 0.00086320314 0.00037847669
0.0012639525 0.0014962187 -0.0040253117
0.0023555476 -0.00011509375 -0.0029958545
0.0017235714 0.0011509375 -0.0023667419
0.0014363095 0.00040282813 -2.1867694e-05
-0.0020108335 -0.0014386718 -2.1867694e-05
-0.0022406429 -0.0010358437 -0.0022523578
-0.0017810239 -0.0017839532 -0.003510583
-0.00017235715 0.0017264063 -0.0009941326
-0.0011490476 -0.00074810936 0.002894927
-0.00097669056 0.0015537656 -0.0036249671
0.0020108335 0.00086320314 -0.0043112719
0.00051707146 -0.00097829686 -2.1867694e-05
-0.00011490477 -0.0018415001 -0.00065098028
-0.0010341429 -0.00069056248 0.0035240396
0.0012639525 -0.00097829686 -2.1867694e-05
-0.00028726191 0.00086320314 0.0022086224
0.0023555476 -5.7546877e-05 -0.0013372849
-0.0010341429 -0.00051792187 0.001808278
-0.0021831905 -0.0011509375 -0.0037393512
0.0011490476 -0.0017839532 -0.00053659617
-0.0018959286 -0.00051792187 -2.1867694e-05
0.00074688101 0.00086320314 -2.1867694e-05
0.0017810239 -0.0016688594 -0.0022523578
5.7452384e-05 -0.0012084844 -2.1867694e-05
0.00028726191 -0.0011509375 -0.0047116163
-5.7452384e-05 -0.00023018751 -2.1867694e-05
0.0015512144 -0.00046037501 0.00032128463
-0.0013788572 0.0012660313 -7.9059748e-05
-0.00063197623 0.00028773438 -0.0047116163
-0.0020682858 0.00017264062 -0.00013625179
0.0021831905 0.00040282813 -0.0047116163
0.0016661191 -0.0017264063 -0.004368464
-0.00097669056 0.0010358437 -2.1867694e-05
-0.001493762 -0.0018415001 -0.0021379737
0.00045961907 -0.0016113125 -2.1867694e-05
0.0012065001 -0.00063301565 0.0022086224
-0.00068942859 -0.0018415001 -0.0028242783
0.0023555476 -0.00069056248 -0.002481126
0.00080433337 -0.0018415001 -0.0019092055
-0.00045961907 0.00097829686 -2.1867694e-05
-0.0012065001 -0.00046037501 0.0027805429
-0.0017810239 -0.0017839532 -0.0017948213
-0.00017235715 0.00028773438 -0.0047116163
0.0022980953 -0.0012660313 -0.0045972322
0.0015512144 -0.0017264063 -0.0045400402
-0.00028726191 0.00057546876 0.00077882106
-0.00097669056 -0.00063301565 0.0020370462
-0.00028726191 0.00080565625 0.0021514304
-0.00086178572 -0.0018415001 -0.00093694055
-0.00028726191 0.0017264063 -0.0038537353
0.0024130002 -0.00069056248 -0.0041968878
-0.00011490477 -0.00028773438 -0.0047116163
0.0015512144 0.00011509375 -0.0047116163
0.0012065001 -0.0017839532 -0.0045972322
-0.001493762 0.0011509375 -0.0020235896
0.0014363095 0.001381125 -0.0037393512
-0.0019533811 0.00069056248 -0.0039109276
-0.00086178572 0.0016113125 -0.0037393512
0.0020108335 0.00069056248 -0.0039681196
0.0011490476 0.0015537656 -0.0023667419
-0.0012639525 -0.00069056248 -0.0047116163
0.00028726191 0.00011509375 -0.0047116163
0.0022980953 -0.0014386718 -0.0039109276
0.00086178572 -0.00097829686 -0.0047116163
0.00097669056 -0.00097829686 -2.1867694e-05
0.0021257382 -0.0016113125 -0.0027098942
0.0021257382 -0.0016113125 -0.0011657088
-0.00068942859 0.0017264063 -0.0033390068
0.0022980953 5.7546877e-05 -0.0032246227
-0.0021257382 -0.0014386718 -0.0036249671
0.0022980953 5.7546877e-05 -0.0011657088
-0.0016086667 -0.0018415001 -0.0041968878
-0.00086178572 0.0016113125 -0.0023667419
0.0012639525 0.0014962187 -0.0015088611
0.0012065001 -0.00040282813 0.0015795098
-0.0022980953 -0.00051792187 -0.0041968878
-0.00017235715 0.0017264063 -0.0040825037
0.00028726191 -0.0018415001 -0.0033961989
0.0021257382 -0.0016113125 -0.0023667419
0.0024130002 -0.00028773438 -0.0034533909
0.0014363095 0.001381125 -0.0028242783
-0.0010341429 -0.0018415001 -0.00053659617
0.00097669056 0.0013235782 -2.1867694e-05
-0.0022406429 -0.0010358437 -0.0028242783
-5.7452384e-05 0.00086320314 -0.0047116163
0.00051707146 -0.00086320314 -2.1867694e-05
0.00028726191 -0.0018415001 -0.0039109276
0.00051707146 -0.0018415001 -0.0040825037
0.0020108335 -0.00011509375 -2.1867694e-05
0.00045961907 -0.0018415001 -0.0024239339
0.0014363095 -0.0017264063 -0.001451669
-0.00028726191 -0.0018415001 -0.0036821591
-0.0022980953 -0.00086320314 -0.0039681196
0.00097669056 -0.00057546876 -0.0047116163
-0.00051707146 -0.0014962187 -2.1867694e-05
-0.00091923814 -0.0018415001 -0.0013372849
0.0021831905 0.00040282813 -0.00082255644
-5.7452384e-05 -0.0015537656 -2.1867694e-05
-0.00051707146 -0.0011509375 -0.0047116163
0.00040216668 -0.00040282813 -2.1867694e-05
0.00086178572 0.0016113125 -0.0023667419
-0.00091923814 0.0016113125 -0.0009941326
-0.0012639525 0.001381125 -0.0037965432
-0.00068942859 -0.0018415001 -0.0015088611
0.0010915953 0.00017264062 -2.1867694e-05
0.0024130002 -0.00092075003 -0.00030782796
0.0023555476 -0.00063301565 -0.0021951657
0.00045961907 0.0017264063 -7.9059748e-05
-0.0018959286 0.00011509375 -0.0047116163
-0.00022980954 0 -2.1867694e-05
-0.0019533811 -0.0017839532 -0.0023667419
0.00022980954 0.0012084844 -2.1867694e-05
0.00040216668 -0.0018415001 -0.0012800929
-0.0017810239 0.00092075003 -0.00047940412
-0.0003447143 -0.0012084844 -0.0047116163
-0.0022406429 -0.00092075003 -0.0021379737
-0.0020682858 -0.0014386718 -0.00019344385
-0.00097669056 -0.00063301565 0.0018654701
-0.0013788572 -0.0018415001 -0.0027098942
0.0010915953 -0.0014962187 -2.1867694e-05
-0.00017235715 0.00092075003 0.0030093112
0.00091923814 -0.0018415001 -0.0020235896
0 0.00051792187 0.0032380794
0.00011490477 0.0017839532 -0.00065098028
-0.00068942859 0.00028773438 -0.0047116163
-0.0020108335 -0.0016688594 -0.00042221206
-0.0021257382 0.00023018751 -0.00013625179
0.0015512144 -0.0017264063 -0.0027670863
-0.0014363095 -0.0018415001 -0.0036821591
-0.0010341429 -0.0018415001 -0.0017376293
0.0021831905 0.00034528124 -0.0033390068
0.0011490476 -0.00063301565 0.00020690053
0.0023555476 -0.00017264062 -7.9059748e-05
0.0021831905 -0.0015537656 -0.002481126
-0.0011490476 -0.00074810936 0.00077882106
0.00011490477 0.00086320314 0.0027805429
-0.0013788572 -0.00051792187 0.0010647813
0.0016661191 -0.00023018751 -0.0047116163
0.0024130002 -0.00086320314 -0.0032246227
0.00040216668 -0.0017264063 -2.1867694e-05
0.0013788572 0.00092075003 -2.1867694e-05
-0.0021257382 0.00017264062 -0.0021379737
0.00011490477 0.00092075003 0.00055005285
0.0013214048 -0.0017839532 -0.0027670863
0.0022980953 -0.0013235782 -0.0013372849
0.00028726191 0.0017264063 -0.002538318
-0.00080433337 -0.0018415001 -0.0028242783
0.0013788572 -0.001381125 -0.0046544243
-0.0003447143 -0.0018415001 -0.0010513247
-0.0021831905 -0.0011509375 -0.0036249671
0.00063197623 0 -0.0047116163
0.0014363095 -0.00069056248 0.0035812317
-0.0018384763 -0.0017839532 -0.00070817233
0.0022406429 -0.0014962187 -0.0037965432
-0.0012639525 0.001381125 -0.0021951657
0.0014363095 0.0010358437 -2.1867694e-05
0.0018959286 -0.0016688594 -0.0017376293
-0.0021831905 -0.0013235782 -0.0038537353
-0.0022980953 -0.00040282813 -0.00053659617
0.00040216668 0.00057546876 -2.1867694e-05
-0.00057452382 -0.0018415001 -0.0044828481
-0.0020682858 -0.0015537656 -0.0023667419
0.0013788572 -0.00069056248 0.0016938939
0.00068942859 -0.0018415001 -0.00076536438
0.0022406429 0.00023018751 -0.0033961989
0.00080433337 -0.00063301565 -0.0047116163
-0.0016086667 -0.00046037501 -0.0047116163
-0.00040216668 -0.0012660313 -2.1867694e-05
-0.00045961907 0.0016688594 -0.0038537353
-0.0013788572 -0.00069056248 0.0025517747
0.0011490476 0.0015537656 -0.0024239339
5.7452384e-05 0.00092075003 0.00077882106
-0.00022980954 0.0017264063 -0.0019663975
-0.0020682858 0.00040282813 -0.0019092055
0.0020108335 0.00057546876 -2.1867694e-05
-0.00063197623 0.0016688594 -0.0021951657
0.00097669056 0.00028773438 -2.1867694e-05
-0.0019533811 0.00034528124 -0.0046544243
0.0021257382 0.00046037501 -0.0043112719
-0.00074688101 -5.7546877e-05 -0.0047116163
-0.0015512144 0.00086320314 -0.0047116163
0.00045961907 0.00069056248 -0.0047116163
0.0010915953 0.0015537656 -0.0036821591
0.0021831905 -0.0015537656 -0.0045400402
0.00068942859 -0.0015537656 -2.1867694e-05
0.0010915953 0.0015537656 -0.0028242783
-0.00091923814 0.0010933906 -2.1867694e-05
0.00011490477 0.00080565625 0.0012935495
-0.0015512144 0.0011509375 -0.0033390068
-0.00057452382 0.0017264063 -0.0032818147
0.00011490477 0.00086320314 0.0023801986
0.0021257382 0.00046037501 -0.00093694055
-0.00074688101 -0.0018415001 -0.0036821591
-0.0014363095 -0.0016113125 -0.0046544243
0 0.0017264063 -0.0039109276
-0.00011490477 0.0017264063 -0.00047940412
-0.00057452382 0.00040282813 -0.0047116163
0.0010341429 0.0016113125 -0.00087974849
0.0023555476 -0.0012084844 -0.0043112719
-0.0012639525 -0.0018415001 -0.0044256561
-0.0017235714 -0.00086320314 -0.0046544243
-0.00063197623 0.0017264063 -0.0012229008
-0.0013788572 -0.00063301565 0.00037847669
-0.00091923814 0.0012660313 -2.1867694e-05
-0.00063197623 0.0017264063 -0.00087974849
-0.00086178572 0.00057546876 -2.1867694e-05
-0.0018959286 0.00023018751 -0.0047116163
-0.0013214048 -0.00080565625 0.00066443696
0.00074688101 0.0017264063 -0.00059378822
-0.0011490476 -0.0018415001 -0.0031674306
-0.0021831905 -0.0010933906 -0.0012229008
-0.0020108335 -0.0016113125 -0.0040825037
0.0003447143 0.0017264063 -0.00082255644
0.0021831905 0.00040282813 -0.0013372849
0.0017810239 -0.0012660313 -0.0047116163
-0.00022980954 0.00086320314 0.0027805429
0.0023555476 -0.00011509375 -0.002481126
-0.0012065001 -0.00080565625 0.0035812317
-5.7452384e-05 0.0017264063 -0.0025955101
-0.0022406429 -0.00074810936 -0.0045400402
-0.0016661191 0.0010358437 -0.0019663975
0.0016086667 -0.0014386718 -0.0046544243
-0.0003447143 -0.0017839532 -0.0046544243
-0.001493762 0.0011509375 -0.002481126
0.0022980953 0.00011509375 -0.0039681196
0.0018384763 -0.0014386718 -2.1867694e-05
-5.7452384e-05 -0.00057546876 -0.0047116163
-0.0012065001 -0.00080565625 0.0012935495
0.0014363095 0.0010933906 -2.1867694e-05
0.0022406429 -0.0013235782 -0.0022523578
0.00045961907 -0.0018415001 -0.00019344385
0.0017235714 0.0011509375 -0.00076536438
-0.0021257382 -0.001381125 -0.0016232452
0.0010915953 0.0015537656 -0.0036249671
0.0023555476 -0.00046037501 -2.1867694e-05
-0.0013214048 -0.00023018751 -2.1867694e-05
0.0018959286 -0.0016688594 -0.0013372849
0.0021257382 -0.00092075003 -2.1867694e-05
0.00097669056 -0.00097829686 -0.0047116163
0.0010341429 0.0016113125 -0.00019344385
-0.00057452382 -0.0012660313 -0.0047116163
0.00074688101 -0.0018415001 -0.0028242783
-0.0018384763 0.00086320314 -0.0021379737
0.00057452382 0.0017264063 -0.0012229008
0.00080433337 0.001381125 -0.0047116163
-0.0022406429 -0.00069056248 -0.0019092055
0.0012639525 -0.0017839532 -0.002538318
0.0011490476 0.0015537656 -0.0017376293
-0.00057452382 -0.0018415001 -0.0036821591
0.0023555476 -0.0010358437 -0.0017948213
-0.001493762 0.00074810936 -0.0047116163
0.0024130002 -0.0011509375 -0.0039681196
0.0013214048 0.0013235782 -2.1867694e-05
0.00040216668 -0.00046037501 -2.1867694e-05
0.0023555476 -0.00069056248 -0.0029958545
0.00028726191 0.0010358437 -0.0047116163
-0.0022980953 -0.00057546876 -0.0029958545
0.0023555476 -0.00011509375 -0.0046544243
0.00040216668 0.0017839532 -0.0041396958
0.0011490476 0.0015537656 -0.0018520134
-0.0013214048 0.0010933906 -2.1867694e-05
0.0018384763 0.00063301565 -2.1867694e-05
0.00074688101 -0.00080565625 -0.0047116163
0.0013214048 0.00023018751 -2.1867694e-05
-0.0022406429 -0.0010358437 -0.003567775
0.00040216668 0.0017264063 -0.0036249671
-0.0018384763 -0.0017839532 -0.00013625179
0.00074688101 0.0016688594 -0.0042540799
0.0012639525 -5.7546877e-05 -0.0047116163
0.0024130002 -0.00028773438 -0.0019663975
0.00068942859 0.0017264063 -0.00076536438
-0.0022406429 -0.0010358437 -0.0027670863
0.00011490477 0.0017264063 -0.003510583
-0.00074688101 0.0016113125 -0.0037393512
-5.7452384e-05 0.00092075003 0.00037847669
0.0016086667 -0.0017264063 -0.0024239339
-0.0020108335 0.00063301565 -0.001451669
0.0023555476 -0.00069056248 -0.0022523578
0.00028726191 -0.0018415001 -0.0038537353
0 0.00092075003 0.0011791654
0.00040216668 0.00023018751 -0.0047116163
-0.00040216668 -0.0018415001 -0.0020235896
-0.0016086667 -0.0015537656 -0.0046544243
0.0012065001 -0.00040282813 0.0011219734
-0.0016086667 -0.0012084844 -2.1867694e-05
-0.0010341429 -0.00086320314 9.2516413e-05
-0.0022406429 -0.00011509375 -0.0013372849
-0.0018959286 0.00080565625 -0.0044828481
0.0012065001 -0.0017839532 -0.0031674306
0.0024130002 -0.0010933906 -0.0036821591
0.0017235714 -0.0016688594 -0.0033390068
0.0016086667 0.0012084844 -0.0041968878
0.00017235715 -0.0018415001 -0.00065098028
0.0016086667 -0.00097829686 -0.0047116163
-0.00097669056 -0.00063301565 0.0011219734
-0.00080433337 0.0016688594 -0.0019092055
-0.00040216668 0.0013235782 -0.0047116163
-0.0021831905 0.00011509375 -0.0020807816
-0.0021257382 -0.001381125 -0.0027670863
-0.0015512144 -0.0018415001 -0.0012800929
0.0012639525 -0.0010358437 -2.1867694e-05
-0.00011490477 0.001381125 -0.0047116163
0.00017235715 0.0017264063 -0.0024239339
-0.0022406429 -5.7546877e-05 -0.003510583
0.00011490477 0.00069056248 0.0025517747
0.0013788572 -0.0017264063 -0.0028242783
-0.00097669056 -0.0018415001 -0.0036249671
-0.0020108335 -0.0016688594 -0.0021379737
-0.0022980953 -0.00074810936 -0.0013372849
-0.00086178572 -0.0018415001 -0.0009941326
0.0020108335 -0.00051792187 -0.0047116163
-0.00051707146 -0.00074810936 -0.0047116163
0.0020682858 -0.00051792187 -2.1867694e-05
-0.0019533811 -0.00074810936 -0.0046544243
-0.00028726191 0.0017264063 -0.0009941326
0.0017235714 0.00034528124 -2.1867694e-05
-0.00097669056 0.00040282813 -2.1867694e-05
0.0023555476 -5.7546877e-05 -0.0011657088
-0.0022980953 -0.00040282813 -0.0011085167
-0.00022980954 0.00086320314 0.0022086224
-0.0020682858 0.00040282813 -0.001394477
-0.00028726191 0.00074810936 0.0021514304
0.00074688101 -0.0018415001 -0.0009941326
-0.0020682858 0.00034528124 -0.00065098028
0.0020682858 -0.0016113125 -0.0013372849
-0.0021257382 -0.001381125 -0.0027098942
-0.00091923814 -0.0015537656 -0.0047116163
0.0003447143 0.00086320314 -2.1867694e-05
-0.00040216668 0.00097829686 -0.0047116163
0.0015512144 0.0012660313 -0.002481126
-0.0021257382 0.00023018751 -0.00059378822
0.0021257382 0.00051792187 -0.0038537353
-0.0020108335 -0.0016113125 -0.0023095498
5.7452384e-05 -0.00063301565 -0.0047116163
-0.0017810239 0.00092075003 -0.0045972322
-0.0012065001 -0.00040282813 -0.0047116163
-0.00080433337 0.0016688594 -0.0023095498
0.00011490477 -0.0018415001 -0.0020807816
-0.0013788572 0.0012660313 -0.0028242783
0.0019533811 -0.00011509375 -2.1867694e-05
-0.00063197623 0.0016688594 -0.00065098028
0.00074688101 -0.0017839532 -0.0045972322
0.0010915953 0.00023018751 -2.1867694e-05
0.0017810239 0.00046037501 -2.1867694e-05
-0.0013214048 -0.00051792187 0.0014079337
-0.0011490476 0.0014386718 -0.0033961989
-0.0021257382 -0.0014386718 -0.001451669
-0.0016661191 0.0010358437 -0.0021951657
0.0003447143 -0.00086320314 -0.0047116163
-0.0012639525 -0.0018415001 -0.0045400402
-0.001493762 -0.0018415001 -0.0027670863
-0.0022406429 -0.00086320314 -0.0011085167
0.0012065001 -5.7546877e-05 -0.0047116163
-0.00068942859 0.0017264063 -0.0043112719
0.0023555476 -0.0012084844 -0.00013625179
0.0022980953 0.00017264062 -0.0009941326
-0.0013788572 -0.00080565625 0.0010075893
0.0016661191 -0.0017264063 -0.0012800929
0.0018384763 0.00097829686 -0.0039109276
-0.0016086667 -0.0013235782 -0.0046544243
-0.0013214048 0.0013235782 -0.00087974849
-0.0014363095 -0.0018415001 -0.0019663975
0.00051707146 0.0017264063 -0.0036821591
-0.0020108335 0.00063301565 -0.003510583
-0.0022406429 -0.00063301565 -0.0046544243
0.0024130002 -0.00051792187 -0.0044828481
-0.0010915953 -0.00051792187 0.0036384237
-0.0016086667 0.00074810936 -0.0046544243
-0.00045961907 -0.00051792187 -0.0047116163
0.00022980954 0.0017264063 -0.0041968878
-0.00074688101 0.0016113125 -0.0011085167
-0.0021257382 0.00028773438 -0.00047940412
-0.0003447143 0.00063301565 0.00095039723
0.0013214048 -0.00051792187 -0.0047116163
-0.0019533811 0.00069056248 -0.00036502001
-0.00017235715 0.0017264063 -0.0045400402
-0.00040216668 -0.0018415001 -0.0023667419
-0.0013788572 -0.00069056248 0.0019798542
-0.00040216668 0.0017264063 -0.00082255644
-0.0017235714 -0.0016113125 -2.1867694e-05
-0.0021831905 -0.0013235782 -0.002538318
-0.0021831905 -0.0012660313 -0.0029386624
0.00051707146 -0.0018415001 -0.0022523578
0.0012065001 0.00092075003 -2.1867694e-05
0.00068942859 -0.0018415001 -0.00065098028
-0.00063197623 0.0017264063 -0.00082255644
0.0023555476 -0.00023018751 -0.0013372849
0.0018384763 0.0010358437 -0.0037965432
-0.00091923814 0.0016113125 -0.0023095498
0.00011490477 -0.00057546876 -2.1867694e-05
0.0014363095 -0.00069056248 0.0022658145
-0.0012065001 -0.00080565625 0.0015795098
-0.00080433337 0.0010933906 -2.1867694e-05
-0.0022980953 -0.00080565625 -0.0039681196
-0.00011490477 0.0017264063 -0.0020807816
-0.0022980953 -0.00074810936 -0.0029958545
-0.0021831905 -0.0011509375 -0.0026527022
-0.0022406429 -0.00017264062 -0.0019092055
-0.00068942859 0.0016113125 -0.0017948213
-0.0013214048 -0.0018415001 -0.00036502001
-0.0019533811 0.00069056248 -0.0042540799
0 0.0017264063 -0.0044828481
0.0013788572 -0.0017264063 -0.0011085167
-0.0021257382 -0.001381125 -0.0046544243
0.0012639525 -0.0016113125 -0.0046544243
0.0010915953 0.00028773438 -2.1867694e-05
0.0023555476 -0.001381125 -0.00070817233
0.00080433337 -0.0018415001 -0.0013372849
-0.0012065001 -0.00046037501 0.0006072449
-0.0012065001 -0.0018415001 -0.0020235896
0.0023555476 -0.00017264062 -0.00036502001
-0.0012065001 -5.7546877e-05 -0.0047116163
0.00086178572 0.00034528124 -0.0047116163
0.0017810239 0.0010358437 -0.0023095498
-0.0022980953 -0.00028773438 -0.0040253117
-0.0013788572 -0.0018415001 -0.0034533909
-0.0022406429 -0.00097829686 -0.002538318
0.0017810239 -0.00086320314 -0.0047116163
-0.00011490477 0.00092075003 0.0011791654
0.00080433337 -0.00097829686 -2.1867694e-05
-0.0021257382 -0.001381125 -0.0026527022
0.0020682858 0.00080565625 -0.0045400402
0.0017810239 -0.00097829686 -0.0047116163
-0.0013214048 0.00057546876 -0.0047116163
0.00080433337 0.00040282813 -2.1867694e-05
0.00040216668 0.0017264063 -0.00082255644
0.0021831905 0.00034528124 -0.003510583
-0.0011490476 -0.00063301565 0.0036384237
-0.0021257382 0.00028773438 -0.0002506359
0.0013214048 -0.0014962187 -0.0047116163
-0.0013214048 0.0013235782 -0.0011085167
0.0019533811 -0.0016688594 -0.0041968878
-0.0010341429 -0.00069056248 0.0026661588
0.0021831905 0.00040282813 -0.00047940412
-0.0011490476 -0.0018415001 -0.0037393512
-0.0018384763 -5.7546877e-05 -0.0047116163
-0.0012065001 0.001381125 -0.003510583
-0.0021257382 -0.001381125 -0.0037393512
-0.0011490476 -0.00034528124 -2.1867694e-05
0.0013788572 -0.00069056248 0.0015223178
-0.0021257382 -0.001381125 -0.0031674306
0.0012065001 -0.00040282813 0.0016367019
0.00028726191 0.0013235782 -0.0047116163
-0.0022406429 -0.00011509375 -0.0015660531
-0.0021257382 -0.0012660313 -0.00082255644
0.00074688101 -0.0016688594 -0.0046544243
0.0015512144 -0.00051792187 0.00020690053
0.0012639525 -0.0017839532 -0.00065098028
0.00011490477 0.00080565625 0.0030093112
-0.00091923814 -0.0018415001 -0.0045400402
0.0011490476 0.00011509375 -0.0047116163
0.0023555476 -0.0012660313 -0.0009941326
-0.001493762 -0.00046037501 -0.0047116163
0.0011490476 -0.0017839532 -0.0021379737
0.00086178572 0.0012084844 -0.0047116163
0.0013788572 -0.0012660313 -0.0047116163
-0.0020108335 0.00051792187 -0.0042540799
-0.0021257382 0.00017264062 -0.0037965432
-0.0011490476 0.0014386718 -0.0039681196
0.0020682858 -0.0016113125 -0.0010513247
-0.0013788572 -0.00051792187 0.0016367019
0.0024130002 -0.00040282813 -0.0026527022
0.0003447143 -0.0012660313 -0.0047116163
0.00086178572 0.0016113125 -0.002481126
0.0013788572 0.001381125 -0.0046544243
0.0012065001 -0.0012660313 -0.0047116163
0.001493762 -0.00028773438 -0.0047116163
-0.0010341429 -0.00051792187 0.002894927
-0.0021257382 -0.0014386718 -0.0021951657
-0.00097669056 0.0014962187 -0.0046544243
-0.0010915953 -0.00034528124 -2.1867694e-05
0.0012639525 0.0012084844 -2.1867694e-05
-0.001493762 -5.7546877e-05 -0.0047116163
0.0023555476 -0.00011509375 -0.0015660531
-0.0021831905 -0.00080565625 -0.0011657088
0.00051707146 0.0014386718 -0.0047116163
-0.0022980953 -0.00051792187 -0.002538318
-0.0014363095 -0.0018415001 -0.00036502001
0.0013214048 -0.00069056248 0.0027233509
5.7452384e-05 0.0017839532 -0.0037965432
0.0012065001 -0.00086320314 -2.1867694e-05
0.0024130002 -0.00080565625 -0.0025955101
5.7452384e-05 -0.0011509375 -0.0047116163
-0.00022980954 0.00023018751 -0.0047116163
-0.0021831905 -0.00028773438 -0.0002506359
-0.0012065001 0.0014386718 -0.0040253117
-0.0013214048 0.0013235782 -0.0025955101
-0.00080433337 0.00017264062 -0.0047116163
0.0023555476 -0.00051792187 -0.0030530465
-5.7452384e-05 0.00051792187 0.00014970847
0.0010915953 -0.0013235782 -0.0047116163
-0.00017235715 0.00051792187 0.00072162901
0.0014363095 0.001381125 -0.0020807816
0.0024130002 -0.00034528124 -0.0040825037
0.0022406429 0.00023018751 -0.003567775
-0.00045961907 0.0016688594 -0.0040825037
-0.0022406429 -0.00057546876 -0.0015660531
0.0010915953 -0.00051792187 0.0035812317
-0.0012639525 0.001381125 -0.0044256561
0.00097669056 0.0016113125 -0.0044256561
-0.0010915953 -0.00063301565 -0.0047116163
-0.0012639525 0 -2.1867694e-05
-0.0016661191 0.0010358437 -0.0022523578
0.0012065001 0.0015537656 -0.0041396958
0.00011490477 0.00097829686 -2.1867694e-05
0.0014363095 -0.00069056248 0.0031808873
0.0012065001 0.0014962187 -0.0002506359
0.0014363095 0.001381125 -0.0029386624
-0.0010341429 -0.00051792187 0.00020690053
-0.0021257382 -0.0014386718 -0.0040253117
0.0016661191 0.00097829686 -0.0047116163
0.0024130002 -0.00086320314 -0.00047940412
0.0018384763 -0.0016688594 -0.0011657088
0.00045961907 5.7546877e-05 -0.0047116163
-0.00086178572 -0.0018415001 -0.0012229008
-0.0003447143 0.00069056248 0.0022658145
-0.0012639525 -0.0018415001 -0.0019663975
0.0003447143 5.7546877e-05 -2.1867694e-05
-0.00074688101 -0.0018415001 -0.0019663975
0.00045961907 0.0017264063 -0.0038537353
0.00097669056 -0.00011509375 -2.1867694e-05
-0.00017235715 0.00092075003 0.0032952714
-0.0015512144 -0.0015537656 -2.1867694e-05
-0.0013788572 0.00011509375 -2.1867694e-05
-0.00091923814 0.0016113125 -0.0020807816
0.00063197623 -0.0018415001 -0.0032246227
-0.0021831905 -0.0012084844 -0.0021951657
0.0023555476 -0.00092075003 -0.0017948213
0.0013214048 0.0011509375 -2.1867694e-05
5.7452384e-05 0.00092075003 0.0010647813
0.00011490477 0.00086320314 0.0034668476
0.00074688101 0.0016688594 -0.0027670863
0.0020108335 0.00069056248 -0.00082255644
0.0018959286 0.00092075003 -0.0030530465
-0.0013214048 -0.00051792187 0.0019798542
0.00063197623 0.0010933906 -2.1867694e-05
-0.0022406429 0 -0.0030530465
0.00011490477 0.00092075003 0.0034668476
-0.0010915953 -0.0018415001 -0.00013625179
-0.0020682858 0.00034528124 -0.0025955101
0.0012065001 0.0012084844 -0.0047116163
-0.0013214048 -0.00080565625 0.00095039723
-0.00040216668 0.00034528124 -2.1867694e-05
0.00011490477 -0.0018415001 -0.004368464
0.0013788572 -0.0017264063 -0.00030782796
-0.0003447143 0.00069056248 0.0019226621
0.0013788572 -0.0017264063 -0.001394477
-0.00097669056 -0.0018415001 -0.0042540799
0.0020108335 0.00046037501 -0.0047116163
0.00051707146 0.0017839532 -0.0037965432
-0.0020108335 0.00057546876 -0.0031102386
-0.0011490476 -0.00046037501 0.0012363575
-0.00097669056 -0.0018415001 -0.0032818147
0.0017810239 -0.0012084844 -0.0047116163
0.0021257382 0.00057546876 -0.0042540799
0.0012065001 0.0015537656 -0.004368464
0.0021257382 0.00051792187 -0.00065098028
0.0024130002 -0.00080565625 -0.00036502001
0 -0.0018415001 -0.0031102386
0.0012065001 -0.00034528124 0.0035812317
0.00074688101 0.00074810936 -0.0047116163
0.0011490476 0.0012084844 -0.0047116163
0.0010915953 0.00051792187 -0.0047116163
0.00068942859 -0.0018415001 -0.0036821591
0.0018959286 0.00028773438 -0.0047116163
0.0013214048 0.00028773438 -2.1867694e-05
0.00017235715 -5.7546877e-05 -2.1867694e-05
-0.0003447143 -0.0018415001 -0.0034533909
-0.00057452382 0.00057546876 -2.1867694e-05
-0.0021257382 -0.0012660313 -2.1867694e-05
0.0018959286 0.00092075003 -0.0033390068
0.0003447143 0.0017264063 -0.0023667419
-0.0018959286 -0.0017839532 -0.0041396958
-0.0022406429 -0.00092075003 -0.0021951657
0.0022980953 5.7546877e-05 -0.0021951657
0.0021831905 0.00034528124 -0.0041968878
-0.0017810239 0.00092075003 -0.0028814704
0.00074688101 0.001381125 -0.0047116163
0.0024130002 -0.00040282813 -0.0045400402
-0.0016661191 -0.0018415001 -0.0032246227
0.00091923814 -0.0010358437 -0.0047116163
0 0.0017264063 -0.0021951657
-0.0010341429 -0.00051792187 0.0015223178
-0.00057452382 0.00080565625 -2.1867694e-05
0.0024130002 -0.00040282813 -0.00070817233
-0.00011490477 0.0017264063 -2.1867694e-05
0.0024130002 -0.00028773438 -0.0029386624
-0.00011490477 -0.0018415001 -0.0032818147
0.00011490477 0.00063301565 0.00089320517
0.0022980953 -0.0012084844 -0.0010513247
-0.0011490476 -0.00092075003 -2.1867694e-05
0.0011490476 0.00074810936 -2.1867694e-05
5.7452384e-05 0.00092075003 3.5324359e-05
0.0016661191 0.0011509375 -0.00036502001
0.0016086667 0.0012084844 -0.0031102386
0.0017810239 0.0010933906 -0.0016232452
0.0017235714 0.0011509375 -0.0041968878
0.00086178572 -0.00086320314 -2.1867694e-05
-0.0003447143 -0.0017839532 -2.1867694e-05
-0.00057452382 -0.0018415001 -0.0039109276
0 0.0017264063 -0.0017948213
-0.0015512144 0.0011509375 -0.00082255644
-0.0021257382 0.00023018751 -0.0016232452
0.00028726191 0.0017264063 -0.00082255644
-0.00017235715 -0.00017264062 -2.1867694e-05
0.0023555476 -0.00023018751 -0.0027670863
-0.00057452382 0.0017264063 -0.0044828481
-0.0016661191 -0.00092075003 -0.0046544243
0.0018959286 0.00086320314 -0.00070817233
0.0024130002 -0.00017264062 -0.0044256561
0.0018959286 -0.0016688594 -0.0020235896
-0.0003447143 0.00069056248 0.002837735
0.001493762 -0.0014962187 -2.1867694e-05
0.0014363095 -0.0017264063 -0.0044256561
0.00063197623 0.0017264063 -0.0019092055
-0.0003447143 0.00069056248 0.0030093112
0.0018959286 0.00017264062 -2.1867694e-05
-0.0021831905 -0.0010933906 -0.0024239339
0.0022980953 -0.0013235782 -0.0034533909
-0.0022980953 -0.00046037501 -0.0041968878
-0.0021257382 0.00028773438 -0.0020235896
-0.001493762 -0.0010933906 -0.0046544243
-0.0021831905 -0.0013235782 -0.0016804372
0.0017810239 -0.0016688594 -0.0029958545
0.0015512144 -0.0017264063 -0.004368464
0.0010915953 -0.00046037501 0.00055005285
0.0022406429 0.00023018751 -0.0044256561
0.0019533811 -0.0016688594 -0.00070817233
-0.00097669056 0.00069056248 -0.0047116163
-0.0020108335 -0.0016688594 -0.0046544243
-0.0022406429 0 -0.0024239339
-0.0022980953 -0.00069056248 -0.0041396958
-0.00022980954 -0.0014386718 -0.0047116163
0.0014363095 -0.0016113125 -2.1867694e-05
0.00086178572 -0.0018415001 -0.00042221206
0.0018959286 0.00092075003 -0.00065098028
0.0018384763 -0.0016688594 -0.0019663975
-0.0018959286 -0.00028773438 -0.0047116163
0.0015512144 0.0012660313 -0.0041396958
0.00074688101 -0.0018415001 -0.0015660531
0.00028726191 -0.0018415001 -0.0017948213
0.0018959286 0.00057546876 -2.1867694e-05
0.0010915953 -0.00092075003 -0.0047116163
-0.00086178572 -0.0018415001 -0.0020235896
0.00017235715 -0.0018415001 -0.00087974849
-0.0022406429 -0.0010358437 -0.00093694055
-0.0017235714 0 -2.1867694e-05
0.0010341429 0.0015537656 -0.001451669
0.0010915953 -0.0017839532 -0.0040825037
-0.0015512144 0.00046037501 -0.0047116163
-0.0016661191 -0.00046037501 -2.1867694e-05
-0.0016661191 -0.0012660313 -2.1867694e-05
-0.0012639525 -0.00080565625 0.0014079337
-0.0013788572 -0.00080565625 0.0030093112
0.0016661191 0.0012084844 -0.00082255644
0.00051707146 0.00028773438 -0.0047116163
0.00028726191 0.0017264063 -0.0043112719
0.0018959286 0.00069056248 -2.1867694e-05
-0.00091923814 0.0011509375 -0.0047116163
-0.00074688101 0.0016113125 -0.0037965432
0.0015512144 -0.00040282813 9.2516413e-05
-0.0018384763 0.00080565625 -0.00013625179
-0.0017810239 0.00092075003 -0.00093694055
5.7452384e-05 -0.0018415001 -0.00093694055
0.00017235715 0.0017264063 -0.004368464
0.0010341429 0.00046037501 -2.1867694e-05
-0.0020682858 0.00034528124 -0.0021379737
0.0023555476 0 -0.0030530465
-0.0015512144 -0.0017839532 -2.1867694e-05
-0.0021831905 -0.0012084844 -0.0021379737
0.0022406429 -0.0013235782 -0.0047116163
-0.00028726191 0.0017264063 -0.00065098028
0.00091923814 -0.0011509375 -2.1867694e-05
0.0010341429 -0.0014962187 -2.1867694e-05
-0.0015512144 -0.0013235782 -0.0046544243
0.00011490477 -0.0018415001 -0.0019092055
-0.00074688101 -0.0018415001 -0.0037393512
-0.0019533811 0.00069056248 -0.00059378822
-0.00017235715 0.0017264063 -0.00093694055
0.0021831905 -0.0015537656 -0.0015660531
-0.0018959286 -0.0017839532 -0.0040825037
0.0021257382 0.00051792187 -0.0045972322
0.00068942859 0.0017264063 -0.0015088611
0.00080433337 -0.00034528124 -0.0047116163
-0.0010341429 -0.00051792187 0.0011791654
-0.0015512144 0.0011509375 -0.0040253117
-0.0020682858 -0.0015537656 -0.001394477
0.0024130002 -0.00086320314 -0.0002506359
-0.0022406429 -0.0011509375 -0.0040253117
0.00057452382 -0.0018415001 -0.0017376293
-0.00011490477 -0.0018415001 -0.004368464
-0.00040216668 0.0016688594 -0.0013372849
0.00063197623 -0.00069056248 -2.1867694e-05
0.0015512144 -0.00051792187 0.0029521191
0.0012639525 0.00069056248 -0.0047116163
0 -0.0012660313 -0.0047116163
0.00051707146 -0.0012084844 -2.1867694e-05
0.0013788572 -0.00040282813 0.0019226621
0.0015512144 -0.00051792187 0.0006072449
-0.0016661191 -0.00046037501 -0.0047116163
-0.0010341429 0.0015537656 -0.0036821591
0.0012065001 -0.00040282813 0.0029521191
0.001493762 -0.00063301565 0.0025517747
0.0013788572 -0.00040282813 0.0015223178
0.00097669056 0.0016113125 -0.0043112719
0.00022980954 -0.0018415001 -0.0026527022
0.0024130002 -0.00080565625 -0.0017948213
0 0.00086320314 0.0036384237
-0.0022980953 -0.00074810936 -0.0023095498
0.0015512144 -0.00046037501 0.0014079337
-0.0015512144 -0.0011509375 -2.1867694e-05
-0.0022980953 -0.00069056248 -0.0027670863
-0.0020682858 0.00040282813 -0.0039681196
0.0016086667 -0.00092075003 -0.0047116163
0.0020108335 -0.0016688594 -0.0042540799
-0.0011490476 0.0011509375 -0.0047116163
-0.0013214048 -0.00080565625 0.00077882106
-0.0019533811 0.00069056248 -0.004368464
-0.0013214048 0.0013235782 -2.1867694e-05
-5.7452384e-05 0.00051792187 0.001808278
-0.00097669056 0 -2.1867694e-05
-0.00011490477 0.00092075003 0.00037847669
0.0010915953 0.0012084844 -2.1867694e-05
-0.00022980954 -0.0018415001 -0.0038537353
0.0021831905 0.00034528124 -7.9059748e-05
-0.0018959286 -0.0017839532 -0.0043112719
0.00063197623 0.0010358437 -2.1867694e-05
-0.0013788572 -0.00063301565 -0.0047116163
-0.00068942859 0.0014386718 -2.1867694e-05
-0.00017235715 0.00092075003 0.0016938939
0.001493762 0.0013235782 -0.0026527022
0.0019533811 0.00080565625 -0.0029958545
-0.0018959286 -0.00017264062 -0.0047116163
-0.0021831905 -0.0010358437 -0.0012229008
0.0022406429 -0.00069056248 -2.1867694e-05
0.0017810239 0.0010933906 -0.0044256561
-0.00045961907 0.00097829686 -0.0047116163
-0.0010341429 0.0014962187 -2.1867694e-05
-0.0017235714 -0.001381125 -0.0046544243
-0.00040216668 -0.0010358437 -0.0047116163
-0.0018959286 -0.0017839532 -2.1867694e-05
-0.00097669056 0.00069056248 -2.1867694e-05
0.0003447143 -0.0012084844 -0.0047116163
-0.0020108335 0.00057546876 -0.0009941326
-0.0020108335 -0.0016113125 -0.00030782796
0.0024130002 -0.00057546876 -0.00070817233
0.0011490476 -0.00063301565 0.00095039723
0.0017810239 -0.0016688594 -0.0021951657
0.0024130002 -0.00063301565 -0.00059378822
0.00017235715 0.0017839532 -0.0002506359
-0.00022980954 0.0017264063 -0.0012229008
-0.00091923814 -0.0018415001 -0.001451669
0.0016086667 -0.0017264063 -0.0025955101
-0.00080433337 0.0016688594 -0.0034533909
-0.00022980954 -0.0018415001 -0.0020235896
-0.00022980954 -0.0018415001 -0.0021379737
-0.0011490476 -0.00097829686 -0.0047116163
-0.0020682858 -0.0014962187 -0.0046544243
-0.00057452382 0.0016688594 -0.0045972322
0.00011490477 0.00092075003 9.2516413e-05
-0.0013788572 -0.00011509375 -0.0047116163
0.00022980954 -0.0018415001 -0.0037393512
-0.00051707146 -0.0016688594 -0.0047116163
-0.00086178572 0.0014386718 -2.1867694e-05
0.00063197623 0.0017264063 -0.0042540799
-0.00028726191 0.001381125 -2.1867694e-05
-0.0010915953 -0.0013235782 -0.0047116163
0.0012065001 -0.00040282813 0.0014079337
-0.00057452382 0.00069056248 -2.1867694e-05
-0.00097669056 -0.00057546876 0.0026089668
0.00045961907 0.0017264063 -0.0028242783
-0.00097669056 -0.00063301565 0.0032380794
0.0023555476 -0.00092075003 -0.0021379737
-0.0019533811 -0.0017839532 -0.0022523578
-0.0011490476 0 -2.1867694e-05
-0.00086178572 -0.0018415001 -0.0002506359
-0.0013788572 -0.0018415001 -0.0011085167
0.001493762 -0.00040282813 0.0011219734
-0.0013788572 -0.00074810936 0.0029521191
0.0020682858 -0.0016113125 -0.0025955101
0.0013788572 -0.0017264063 -0.0015088611
0.0003447143 0.0017264063 -0.001451669
0.0010341429 -0.0017839532 -0.0026527022
-0.00080433337 5.7546877e-05 -2.1867694e-05
0.0013214048 0.00086320314 -2.1867694e-05
-0.00022980954 0.00086320314 0.0034096555
0.0010915953 -0.00057546876 0.0011219734
-0.0010915953 -0.00074810936 0.002894927
0.0013214048 -0.00040282813 0.0034096555
-0.0018384763 -0.0017839532 -0.0039109276
-0.00028726191 0.00057546876 9.2516413e-05
-0.001493762 0.0011509375 -0.0046544243
-0.0013788572 0.0012660313 -0.0036821591
-0.0019533811 0.00069056248 -0.0016232452
0.0016086667 -0.00057546876 -2.1867694e-05
0.0012065001 0.00080565625 -0.0047116163
0.00017235715 -0.0018415001 -0.002538318
0.0021831905 -0.0015537656 -0.0012229008
0.00028726191 -0.00086320314 -0.0047116163
-0.00097669056 -0.00069056248 0.001808278
-0.00022980954 -0.0018415001 -0.003567775
0.0024130002 -0.0010358437 -0.0012800929
-0.00097669056 -0.00069056248 0.00026409258
0.0020682858 0.00034528124 -2.1867694e-05
-0.0019533811 -0.0012660313 -2.1867694e-05
-0.00051707146 0.0016688594 -0.002538318
0.0013214048 -0.00069056248 0.0023801986
0.0011490476 0.0015537656 -0.0045400402
0.0017235714 0.0011509375 -0.0037965432
-0.0022406429 -0.00069056248 -0.0046544243
0.0014363095 -0.00028773438 -0.0047116163
0.0010915953 0.0012660313 -2.1867694e-05
-0.0020108335 0.00063301565 -0.0016232452
0.0003447143 -0.0017264063 -2.1867694e-05
0.0015512144 -0.00046037501 0.0015795098
0.0019533811 0.00074810936 -0.003510583
-0.0021831905 -0.0010933906 -0.00053659617
-0.00028726191 -0.0017264063 -2.1867694e-05
-0.0011490476 -0.0018415001 -0.0019663975
-0.00022980954 -0.00069056248 -2.1867694e-05
0.00057452382 0.0013235782 -2.1867694e-05
0.00086178572 0.0016688594 -0.0015660531
-0.0022980953 -0.00046037501 -0.0027670863
-0.00028726191 0.0017264063 -0.0037965432
0.0018959286 -0.0016688594 -0.0033961989
0.0012639525 0.0014962187 -0.004368464
-5.7452384e-05 0.00092075003 0.0016367019
-0.00011490477 0.0017264063 -0.0023667419
-0.0018384763 -0.0017839532 -0.0040825037
0.0017810239 -0.00034528124 -0.0047116163
0.0016086667 -0.0017264063 -0.0019663975
-0.00063197623 0.0017264063 -0.0027670863
0.0022980953 -0.001381125 -0.0009941326
-0.00045961907 0.0016688594 -0.00059378822
0.0024130002 -0.00034528124 -0.0012229008
-0.00022980954 0.0012660313 -2.1867694e-05
5.7452384e-05 0.0017839532 -0.0040825037
0.0023555476 -0.00092075003 -0.003567775
0.0022406429 0.00028773438 -0.0041968878
0.0017235714 -0.0016688594 -0.0010513247
-0.0019533811 -0.0017839532 -0.0019663975
0.00045961907 -0.0010358437 -2.1867694e-05
-0.0022406429 -5.7546877e-05 -0.0037393512
0.001493762 -0.0017264063 -0.001394477
-0.0012639525 -0.0018415001 -0.0028814704
0.00011490477 0.00080565625 0.0023801986
-0.0011490476 0.0014386718 -0.002538318
0.00011490477 0.00074810936 0.0034668476
0.0019533811 -0.0016688594 -0.0044828481
-0.0017235714 -0.0018415001 -0.0021379737
0.00063197623 0.0017264063 -0.0040825037
-0.0021831905 -0.00017264062 -0.00030782796
0.00011490477 0.00057546876 0.00095039723
0.0020108335 -0.0012084844 -2.1867694e-05
-0.00045961907 -0.0014962187 -2.1867694e-05
0.0024130002 -0.00086320314 -0.0011085167
-0.00040216668 -0.0011509375 -0.0047116163
-0.0020108335 0.00063301565 -0.003567775
0.0020108335 0.00069056248 -0.00053659617
0 -0.00028773438 -0.0047116163
-0.0003447143 0.0017264063 -0.0015660531
0.0024130002 -0.00028773438 -0.0021951657
-0.0019533811 0.00074810936 -0.0021951657
-0.00068942859 0.0016113125 -0.00030782796
0.0017810239 -0.0014386718 -2.1867694e-05
-0.0013788572 -0.00051792187 0.0036384237
0.0023555476 -0.00017264062 -0.0036249671
0.00068942859 -0.00063301565 -0.0047116163
-0.0013788572 -0.00069056248 0.00014970847
0.0018384763 -0.00023018751 -2.1867694e-05
-0.0013788572 0.0012660313 -0.0019663975
0.0016086667 -0.0014962187 -2.1867694e-05
0.0017235714 -0.0016688594 -0.0017948213
0.00057452382 0.0017264063 -0.0016232452
-0.00045961907 -0.00017264062 -2.1867694e-05
-0.0021831905 -0.00057546876 -0.0044256561
0.0011490476 -0.00063301565 0.0020942383
0.00063197623 -0.00092075003 -0.0047116163
0.0020682858 0.00063301565 -0.002538318
-0.0017810239 5.7546877e-05 -2.1867694e-05
0.0023555476 -0.0011509375 -0.0016232452
0.00045961907 0.0017264063 -0.0016804372
0.0020108335 -0.0016688594 -0.0010513247
0.0022980953 0.00017264062 -0.0012800929
5.7452384e-05 0.00092075003 0.00020690053
-0.0021257382 0.00023018751 -0.0012800929
0.0015512144 -0.00011509375 -2.1867694e-05
-0.0013214048 -0.00080565625 0.0004928608
0.00045961907 -0.0011509375 -2.1867694e-05
0.00040216668 -0.00080565625 -2.1867694e-05
0.0017810239 0.0010933906 -0.00036502001
0.0016661191 -0.0016688594 -0.0045400402
0.0020682858 -0.0016113125 -0.0015088611
0.00011490477 -0.0018415001 -0.00047940412
-0.00051707146 0.00097829686 -2.1867694e-05
0.0018959286 -0.0016688594 -0.0016804372
-0.00074688101 0.0016113125 -0.0045400402
-0.0013788572 -0.00080565625 0.0026661588
-0.00040216668 -0.0015537656 -2.1867694e-05
-0.0021831905 -0.00063301565 -0.004368464
-0.0022406429 -0.00092075003 -0.0012800929
0.00011490477 0.0017264063 -0.0028814704
-0.0022406429 -5.7546877e-05 -0.0019663975
-0.00080433337 0.0016113125 -0.002481126
0.001493762 -0.0010358437 -2.1867694e-05
0.0011490476 -0.00040282813 0.0036384237
-0.00080433337 0.0012084844 -0.0047116163
0.0003447143 0.0017264063 -0.0016804372
0.0010341429 0.0015537656 -0.002481126
-0.00045961907 -0.0018415001 -0.0028242783
0.0003447143 0.0017839532 -0.0040825037
-0.0020682858 0.00034528124 -0.0031102386
0.00074688101 -0.0018415001 -0.0037393512
-0.0022980953 -0.00063301565 -0.0020807816
-0.00045961907 0.0010358437 -0.0047116163
5.7452384e-05 0.00069056248 0.0036384237
-0.0011490476 -0.0018415001 -0.0009941326
0.0019533811 0.00074810936 -0.0017376293
0.00011490477 0.00086320314 0.0014651257
0.00068942859 0.0017264063 -0.0041396958
-0.0017235714 0.00097829686 -0.0011657088
0.00057452382 -0.0010933906 -2.1867694e-05
0.00011490477 0.00057546876 0.0019226621
-0.0010915953 -0.00046037501 -0.0047116163
0.00063197623 0.00074810936 -0.0047116163
0.0003447143 -0.0018415001 -0.0018520134
-0.0020682858 -0.0013235782 -2.1867694e-05
-0.0010341429 0.00040282813 -0.0047116163
-0.0018959286 -0.0017839532 -0.0020235896
-0.00097669056 -0.00063301565 0.0026661588
0.00028726191 -0.0018415001 -7.9059748e-05
0.00097669056 -0.0018415001 -0.0044256561
-0.0013788572 -0.00051792187 0.0015795098
0.00068942859 -0.0018415001 -0.0019092055
0.0010915953 -0.00051792187 0.0027233509
-0.0019533811 -0.0010933906 -2.1867694e-05
-0.0021257382 0.00023018751 -0.0041396958
0.0011490476 -0.0017839532 -0.00013625179
-0.0021831905 5.7546877e-05 -0.0015088611
-0.0020108335 -0.0016688594 -2.1867694e-05
0.0023555476 -0.00057546876 -0.0019092055
5.7452384e-05 0.0017264063 -0.0042540799
0.0023555476 -0.0012084844 -0.0041968878
-0.0012065001 -0.0018415001 -0.0011657088
-0.0012639525 -0.00051792187 0.0019798542
-0.00063197623 -0.001381125 -0.0047116163
-0.00063197623 -0.0012660313 -2.1867694e-05
-0.00011490477 0.0013235782 -2.1867694e-05
0.00011490477 0.00086320314 0.0029521191
-0.0011490476 0.0014386718 -0.0046544243
0.00063197623 -0.0018415001 -0.00070817233
0.0011490476 -0.00040282813 0.0026089668
-0.0010915953 0.00028773438 -2.1867694e-05
-0.00068942859 0.0016688594 -0.0034533909
0.0022406429 -0.0012660313 -0.0019092055
0.0010341429 0.0015537656 -0.0012800929
-0.0012639525 -0.0012084844 -0.0047116163
0.00068942859 0.0017264063 -0.004368464
0.0014363095 -0.00040282813 0.00083601312
-0.00068942859 0.0012084844 -2.1867694e-05
-0.0003447143 -0.0018415001 -0.0028242783
0.0019533811 0.00074810936 -0.0039681196
0.0011490476 -0.00040282813 0.0011219734
-0.0021831905 0.00011509375 -0.0019092055
-0.0017810239 -0.0017839532 -0.00070817233
0.0022406429 0.00023018751 -0.0033390068
0.0013214048 0.0014386718 -0.0020807816
-0.0010341429 0 -2.1867694e-05
-0.0012639525 -0.0018415001 -0.0038537353
0.0021831905 -0.0014962187 -0.002538318
-0.00057452382 0.0017264063 -0.0031102386
-0.0020682858 0.00034528124 -0.0040825037
-0.00068942859 -0.00057546876 -0.0047116163
0.00063197623 -0.0018415001 -0.003567775
-0.00068942859 -0.0018415001 -0.0046544243
-0.0003447143 -0.0018415001 -0.0045972322
0.0016661191 -0.0017264063 -0.00082255644
-0.0010341429 -0.00069056248 0.0022086224
-0.00028726191 0.00086320314 0.00032128463
0.0003447143 -0.00069056248 -0.0047116163
-0.0019533811 0.00028773438 -0.0046544243
0.0021831905 -0.0014386718 -0.001394477
0.0017235714 -0.0016688594 -0.00013625179
-0.0021831905 -0.0012084844 -0.0011657088
-0.0011490476 -0.00046037501 0.0027233509
0.0022406429 -0.0013235782 -0.0032246227
0.00091923814 0.0016113125 -0.0009941326
-0.00045961907 5.7546877e-05 -2.1867694e-05
0.0023555476 -5.7546877e-05 -0.0023667419
0.0020108335 -0.00092075003 -2.1867694e-05
0.0021831905 0.00040282813 -0.0019092055
-0.00022980954 -0.0018415001 -0.004368464
-0.0021831905 -0.0011509375 -0.0011085167
-0.0003447143 -0.00051792187 -2.1867694e-05
0.00086178572 0.0016113125 -0.0027098942
0.00097669056 -0.0018415001 -0.0045400402
0.0012639525 5.7546877e-05 -0.0047116163
0.00097669056 0.0016113125 -0.0038537353
0.0024130002 -0.00034528124 -0.0029958545
0.00068942859 0.0017264063 -0.0032246227
-0.00086178572 -0.00017264062 -2.1867694e-05
0 0.0017264063 -0.0038537353
0.0021831905 -0.00011509375 -2.1867694e-05
-0.0013788572 -0.0018415001 -0.003567775
-0.0014363095 0.0012084844 -0.0012800929
-0.00011490477 0.00051792187 0.0018654701
-0.00091923814 -0.0014962187 -0.0047116163
0.0013788572 0.0010358437 -0.0047116163
0.00017235715 -0.0018415001 -0.0020235896
-0.0010915953 -0.00051792187 0.0012363575
0.0014363095 0.001381125 -0.004368464
0.0011490476 -0.00023018751 -2.1867694e-05
-0.0022406429 -0.00097829686 -0.0018520134
-0.0010341429 -0.0010933906 -2.1867694e-05
-0.0010915953 0.00057546876 -2.1867694e-05
-0.0012639525 -0.00051792187 0.0029521191
0.00068942859 -0.0018415001 -0.00036502001
0.00028726191 0.0017264063 -0.0039681196
-0.0010341429 0.0015537656 -0.0021951657
-0.0012639525 0.001381125 -0.0015660531
-0.0016086667 0 -0.0047116163
0.0012065001 -0.0017264063 -0.00013625179
0.0016086667 0.0012084844 -0.0039681196
-0.00040216668 0.00063301565 -2.1867694e-05
-0.0010915953 0.00034528124 -2.1867694e-05
-0.0011490476 0.00057546876 -2.1867694e-05
-0.0020682858 0.00034528124 -0.0032818147
-0.001493762 0.00097829686 -0.0046544243
0.0024130002 -0.00040282813 -0.0039681196
-0.00011490477 -0.00011509375 -2.1867694e-05
-0.0017235714 0.00097829686 -0.0027098942
-0.00028726191 0 -0.0047116163
0.0012065001 0.0014962187 -0.0030530465
0.00068942859 -0.00011509375 -0.0047116163
-0.00017235715 0.00051792187 0.0027233509
-0.0019533811 -0.0017839532 -0.0020807816
0.00045961907 -0.0018415001 -0.0031102386
0.0017810239 -0.00080565625 -2.1867694e-05
0.0022406429 -0.001381125 -0.0024239339
-0.0018384763 0.00086320314 -0.0032246227
0.0022980953 5.7546877e-05 -0.0043112719
0.00011490477 0.001381125 -2.1867694e-05
-0.0022406429 -0.00017264062 -0.0040825037
0.00063197623 0.0017264063 -0.00093694055
-0.0019533811 -0.0017839532 -0.0043112719
-0.00086178572 0.0016113125 -0.0041396958
-0.00091923814 0.0010358437 -2.1867694e-05
-0.0013214048 -0.00051792187 0.00066443696
0.00063197623 -0.00063301565 -2.1867694e-05
-0.0021257382 -0.0012660313 -0.00047940412
0.00045961907 -0.00069056248 -2.1867694e-05
0.0013214048 -0.0017839532 -0.002538318
-0.0017235714 -0.00074810936 -2.1867694e-05
0 0.00092075003 0.0012935495
-0.0020108335 0.00057546876 -0.00019344385
0.001493762 -0.00040282813 0.0022086224
-0.00063197623 -0.0018415001 -0.0019663975
-0.0013788572 -0.00074810936 0.0010647813
0.0018959286 0.00046037501 -2.1867694e-05
0.0017810239 -0.00080565625 -0.0046544243
-0.00080433337 0.0016688594 -0.0044256561
-5.7452384e-05 0.00051792187 0.0023230065
0.0014363095 -0.00040282813 0.0014651257
0.00086178572 0.0016688594 -0.0033961989
0.00068942859 0.0017264063 -0.0021951657
-0.0012639525 -0.00080565625 0.0029521191
0.0022980953 5.7546877e-05 -0.0022523578
0.0024130002 -0.00080565625 -0.0045400402
-0.00040216668 -0.0018415001 -0.003567775
-0.0014363095 0.00017264062 -2.1867694e-05
0.0020108335 0.00011509375 -2.1867694e-05
0.00011490477 0.00063301565 0.0034096555
-0.00097669056 0.0015537656 -0.0020807816
-0.0022406429 -0.00092075003 -0.0040825037
0.0021257382 0.00051792187 -0.0020235896
-0.0016661191 -0.0018415001 -0.0023667419
0.0016086667 -0.0017264063 -0.0028242783
-0.0018959286 -0.0017839532 -0.0011657088
0.0024130002 -0.00074810936 -0.0036249671
-0.00080433337 0.0016113125 -0.0009941326
-0.00017235715 -0.0018415001 -0.0045972322
-0.0013788572 -0.00057546876 0.0006072449
0.00091923814 0.0016113125 -0.00076536438
0.0017235714 0.00028773438 -2.1867694e-05
0.0013214048 -0.00040282813 0.00020690053
0.0017810239 -0.0016688594 -0.0019663975
-0.0012065001 0.0012084844 -2.1867694e-05
0.00022980954 -0.0016113125 -0.0047116163
0.0024130002 -0.00051792187 -0.0039109276
-0.00068942859 -0.0018415001 -0.0017948213
-0.0021257382 0.00023018751 -0.0033961989
0.0020108335 -0.0016688594 -0.0041968878
-0.00040216668 -0.00063301565 -0.0047116163
0.0023555476 -0.00057546876 -0.0033961989
-0.0020682858 -0.00017264062 -2.1867694e-05
0.0023555476 -0.00063301565 -7.9059748e-05
0.0012639525 -0.0017839532 -0.0039109276
-0.0012065001 -0.0018415001 -0.0040825037
0.0016086667 -0.0017264063 -0.0002506359
-0.00028726191 0.00063301565 0.0024373906
0.00091923814 0.0016113125 -0.002481126
-5.7452384e-05 -0.0014386718 -0.0047116163
-0.0010915953 -0.00051792187 0.0032952714
-0.0022406429 -0.0010358437 -0.0032246227
-0.00063197623 -0.00028773438 -0.0047116163
0.00022980954 -0.0018415001 -0.0032818147
-0.00045961907 -0.00023018751 -0.0047116163
-5.7452384e-05 -0.00017264062 -0.0047116163
-0.0020682858 0.00040282813 -0.00019344385
0.0010341429 -0.0013235782 -2.1867694e-05
-0.0013214048 -0.0018415001 -0.0024239339
0.0022406429 0.00023018751 -0.0019663975
-0.00045961907 -0.0018415001 -0.0037393512
-0.0022406429 -0.00063301565 -0.00053659617
0.0022980953 -0.0014386718 -0.0041968878
-0.0019533811 -0.0017264063 -0.0002506359
-0.0020108335 -0.0016688594 -0.0041396958
0.0023555476 -5.7546877e-05 -0.002481126
0.0013788572 0.00063301565 -0.0047116163
-0.00091923814 -0.00092075003 -2.1867694e-05
0.00022980954 0.0017839532 -0.00030782796
-0.0011490476 0.0014386718 -0.0027098942
-0.0020682858 -0.00063301565 -0.0046544243
-5.7452384e-05 0.0017264063 -0.0041968878
0.0010341429 -0.0017839532 -0.0023095498
0.00063197623 0.0012084844 -0.0047116163
