# .PCD v0.7 - Point Cloud Data file format
VERSION 0.7
FIELDS x y z
SIZE 4 4 4
TYPE F F F
COUNT 1 1 1
WIDTH 1185
HEIGHT 1
VIEWPOINT 0 0 0 1 0 0 0
POINTS 1185
DATA ascii
-0.0026206924 0.0073900861 -0.0014747874
-0.0013555306 0.0035581896 -1.42874e-05
-0.0040665916 -0.0010035919 -1.42874e-05
-0.0073198653 -0.0031932471 -0.0016573499
-0.0075006024 0.0011860632 -0.0034829748
-0.011296088 0.0037406608 -0.0031178498
-0.0089465016 0.0041056033 -0.0031178498
0.0044280668 0.0079375003 -0.0040306626
0.012741988 -0.0035581896 -0.0038480998
0.012380512 0.0015510058 -0.0045783501
-0.010573138 0.0024633622 -0.0025701623
-0.0071391277 -0.0024633622 -0.0051260372
-0.010392401 -0.004653017 -0.0027527248
0.00063258095 -0.0079375003 -1.42874e-05
0.0020784803 -0.0079375003 -0.00037941241
0.012741988 0.0037406608 -0.0001968499
-0.00045184352 -0.0072076148 -0.0047609126
-0.0073198653 -0.0055653737 -0.0045783501
0.012199775 0.0053829025 -0.00037941241
0.0093079768 -0.0079375003 -0.0042132251
-0.0040665916 0.0019159482 -1.42874e-05
0.0064161783 -0.00082112069 -0.0051260372
-0.0049702786 0.0077550285 -0.0001968499
0.011115351 0.0015510058 -0.0051260372
0.011657563 -0.00501796 -1.42874e-05
-0.0069583901 -0.00027370689 -0.0045783501
-0.011296088 -0.00063864945 -0.0031178498
-0.010211663 -0.0028283047 -0.0025701623
0.0018977429 -0.0053829025 -1.42874e-05
0.0078620771 0.0022808907 -0.0051260372
0.0053317538 -0.0011860632 -0.0051260372
0.0046088039 0.0079375003 -0.0047609126
0.0056932284 -0.0064777299 -0.0051260372
0.0017170054 -0.0066602011 -0.0051260372
-0.0073198653 0.004653017 -0.0012922249
0.010030926 0.0039231321 -1.42874e-05
0.0069583901 -0.0073900861 -0.0009270999
-0.0073198653 0.00501796 -0.0009270999
0.011657563 -0.0011860632 -0.0051260372
0.0035243796 0.0077550285 -0.002022475
0.0065969154 -0.0072076148 -0.0027527248
-0.00768134 -0.0044705458 -0.0023875998
-0.0132842 0.0055653737 -0.00037941241
-0.0062354407 -0.0061127874 -0.0042132251
0.011476826 0.0062952586 -0.0043957876
-0.0042473292 0.0077550285 -0.0023875998
-0.0035243796 -0.00045617815 -0.0051260372
-0.0038858543 0.0053829025 -0.0051260372
0.010211663 -0.0077550285 -0.002022475
-0.0132842 -0.0057478449 0.0012636501
0.012380512 0.0015510058 -0.0034829748
-0.005873966 -0.0073900861 -0.0012922249
0.0065969154 0.0020984195 -0.0051260372
0.003343642 -0.0073900861 -0.00037941241
-0.011296088 -0.004653017 -0.0027527248
-0.0020784803 0.0042880746 -0.0051260372
0.0098501891 -0.0042880746 -1.42874e-05
-0.0040665916 0.0033757184 -1.42874e-05
-0.0085850274 -0.0042880746 -0.0025701623
-0.0069583901 -0.0072076148 -0.00037941241
0.010030926 0.0039231321 -0.0051260372
0.0018977429 0.0073900861 -0.00074453739
0.0065969154 -0.0030107759 -0.0051260372
0.0031629046 -0.0020984195 -0.0051260372
0.0053317538 -0.0075725573 -0.00037941241
0.0060547031 -0.0066602011 -1.42874e-05
-0.0132842 -0.0053829025 -0.0022050375
-0.011657563 -0.0048354883 -0.0027527248
0.005873966 0.004653017 -0.0051260372
-0.0089465016 -0.00501796 -0.0027527248
-0.012741988 -0.0052004312 -0.0009270999
0.0047895415 -0.0011860632 -0.0051260372
-0.01256125 9.1235634e-05 0.0050974628
-0.0060547031 -0.0062952586 -0.0001968499
0.0018977429 0.0075725573 -0.0049434751
0.013103462 -0.004653017 -0.0022050375
0.0065969154 -0.0061127874 -0.0051260372
-0.0075006024 -0.0037406608 -0.0036655373
0.005873966 -0.0055653737 -1.42874e-05
-0.0051510162 -0.0062952586 -0.0051260372
0.0022592177 -0.0073900861 -0.0038480998
-0.011657563 0.00082112069 -0.0025701623
-0.0017170054 0.0028283047 -1.42874e-05
0.0042473292 -0.0019159482 -1.42874e-05
0.0084042894 -0.004653017 -0.0051260372
-0.005873966 0.0030107759 -1.42874e-05
-0.0065969154 0.0066602011 -0.0038480998
-9.0368703e-05 -0.0048354883 -0.0051260372
-0.0071391277 0.0075725573 -0.0034829748
0.010030926 0.0072076148 -0.0051260372
0.0020784803 0.0015510058 -1.42874e-05
-0.0042473292 0.0048354883 -0.0051260372
-0.0020784803 -0.0064777299 -1.42874e-05
-0.01256125 -0.0024633622 -0.0031178498
0.011296088 -0.0077550285 -0.0043957876
-0.0071391277 0.0077550285 -0.0027527248
-0.00768134 -0.0030107759 -0.0036655373
0.010211663 0.0022808907 -1.42874e-05
-0.012019038 0.0057478449 -0.0029352873
-0.0046088039 0.0019159482 -0.0051260372
0.0029821673 -0.0042880746 -0.0051260372
-0.0078620771 -0.0072076148 -0.0031178498
-0.0031629046 0.0059303162 -1.42874e-05
0.010573138 -0.0028283047 -0.0051260372
-0.01256125 -9.1235634e-05 0.0047323378
-0.012922725 -0.00501796 0.0005334001
-0.0060547031 -0.0062952586 -0.0051260372
0.013103462 -0.00501796 -0.0034829748
0.0085850274 0.0020984195 -0.0051260372
-0.0026206924 0.0075725573 -0.00056197488
-0.0064161783 0.0070251436 -0.002022475
-0.0013555306 -0.0073900861 -0.0025701623
0.0078620771 0.004653017 -0.0051260372
0.00027110611 0.00082112069 -0.0051260372
0.0082235523 -0.0013685345 -1.42874e-05
0.010211663 0.0079375003 -0.0027527248
-0.0093079768 0.0015510058 -0.0025701623
0.0029821673 0.0072076148 -0.00074453739
0.0082235523 -0.0022808907 -1.42874e-05
-0.011296088 -0.00082112069 -0.0031178498
0.0087657645 -0.0079375003 -0.00074453739
0.012199775 0.0052004312 -0.0001968499
-0.00063258095 -0.0072076148 -0.0016573499
-0.0056932284 0.0070251436 -0.0011096623
0.00027110611 0.0070251436 -0.0014747874
0.011476826 -0.00501796 -1.42874e-05
0.01256125 0.0064777299 -0.0051260372
-0.0017170054 -0.0073900861 -0.0022050375
0.0022592177 -0.0068426724 -0.0014747874
-0.0060547031 -0.0066602011 -0.0001968499
0.010211663 -0.0033757184 -1.42874e-05
0.011476826 -0.0062952586 -0.0043957876
0.0055124909 -0.0072076148 -0.0001968499
0.011115351 0.0019159482 -0.0051260372
-0.0060547031 -0.0068426724 -0.0001968499
-0.010392401 -0.0061127874 -0.0031178498
0.0029821673 -0.0052004312 -0.0051260372
0.0085850274 -0.0075725573 -0.0022050375
0.0062354407 0.0079375003 -0.0049434751
0.011115351 -0.0020984195 -1.42874e-05
0.011115351 -0.0073900861 -0.0011096623
-0.0062354407 -0.0019159482 -0.0001968499
0.0118383 0.0059303162 -0.0023875998
-0.0055124909 -0.0073900861 -0.0011096623
0.0013555306 -0.00082112069 -1.42874e-05
-0.0091272397 -0.0028283047 -0.0031178498
0.0078620771 0.0033757184 -1.42874e-05
0.005873966 -0.0072076148 -0.0033004123
-0.0118383 -0.00063864945 -0.0031178498
0.012380512 -0.0010035919 -0.00056197488
0.011115351 -0.0077550285 -0.0018399124
0.0098501891 -0.0022808907 -0.0051260372
0.0029821673 -0.0075725573 -0.0051260372
-0.0042473292 -0.001733477 -1.42874e-05
0.0042473292 0.0024633622 -1.42874e-05
0.0091272397 -0.0077550285 -0.00037941241
0.011476826 0.0028283047 -1.42874e-05
0.011476826 0.0062952586 -0.0001968499
0.012741988 0.0079375003 -0.00037941241
-0.0118383 -0.0026458334 -0.0031178498
0.012922725 -0.00501796 -1.42874e-05
-0.0075006024 -0.0041056033 -0.00074453739
0.005873966 -0.0013685345 -0.0051260372
-0.012741988 -0.0052004312 0.00071596261
-0.0056932284 0.0064777299 -0.0045783501
-0.0069583901 9.1235634e-05 -0.0045783501
0.0091272397 0.0075725573 -1.42874e-05
0.0118383 -0.0048354883 -1.42874e-05
-0.001536268 -0.0075725573 -0.0011096623
-0.011476826 -0.0042880746 -0.0031178498
0.010392401 -0.0077550285 -0.0016573499
0.0013555306 -0.0057478449 -1.42874e-05
0.010934614 -0.0079375003 -0.0009270999
-0.010392401 0.0048354883 -0.0031178498
0.0087657645 0.0052004312 -1.42874e-05
-0.011476826 0.00063864945 -0.0031178498
-0.010573138 -0.0011860632 -0.0025701623
-0.0085850274 0.0072076148 -0.0027527248
-0.0035243796 0.0024633622 -0.0051260372
-0.0071391277 -0.0033757184 -0.00074453739
-0.002439955 -0.0044705458 -0.0051260372
-0.012380512 0.0048354883 -0.0031178498
0.00045184352 -0.0020984195 -1.42874e-05
0.001536268 0.0064777299 -0.0051260372
-0.0085850274 -0.00501796 -0.0031178498
-0.013103462 -0.00063864945 -0.0001968499
-0.012922725 -0.0039231321 -0.0029352873
0.012741988 -0.0030107759 -0.0036655373
0.01256125 0.0026458334 -0.00037941241
-9.0368703e-05 -0.0035581896 -1.42874e-05
-0.0069583901 -0.0030107759 -0.0001968499
0.0031629046 -0.0053829025 -0.0051260372
-0.001536268 0.0030107759 -1.42874e-05
-0.0022592177 -0.0031932471 -0.0051260372
-0.012741988 0.00045617815 -0.0011096623
-0.0038858543 -0.00501796 -0.0051260372
-0.005873966 -0.0077550285 -0.0031178498
0.00099405576 -0.0070251436 -0.0012922249
-0.0013555306 0.0068426724 -1.42874e-05
-0.0020784803 0.0064777299 -1.42874e-05
0.011476826 0.0057478449 -0.00074453739
0.012741988 -0.0035581896 -0.0043957876
0.0075006024 -0.004653017 -1.42874e-05
0.0053317538 0.0077550285 -0.00074453739
-0.012199775 0.0030107759 -0.0027527248
0.0022592177 0.0041056033 -0.0051260372
-0.0087657645 -0.0066602011 -0.0031178498
0.003343642 0.0079375003 -0.0038480998
-0.0073198653 0.0055653737 -0.0049434751
0.0089465016 0.0039231321 -1.42874e-05
0.0053317538 0.00082112069 -0.0051260372
0.0085850274 0.00501796 -1.42874e-05
0.0073198653 -0.0057478449 -1.42874e-05
-0.0029821673 0.0072076148 -1.42874e-05
-0.0069583901 9.1235634e-05 -0.0018399124
-0.0031629046 0.0073900861 -0.0051260372
-0.01256125 0.0053829025 0.0054625878
-0.001536268 0.0024633622 -0.0051260372
-0.0053317538 -0.0070251436 -0.0051260372
0.0082235523 -0.0026458334 -1.42874e-05
-0.0060547031 0.0077550285 -0.0036655373
0.0040665916 -0.004653017 -0.0051260372
0.0053317538 0.0075725573 -0.0051260372
9.0368703e-05 -0.0079375003 -0.0045783501
0.0085850274 -0.0010035919 -0.0051260372
0.0051510162 -0.0044705458 -0.0051260372
0.0118383 0.0015510058 -1.42874e-05
-0.00045184352 0.0073900861 -0.0031178498
-0.006777653 -0.0020984195 -0.0047609126
-0.012922725 -0.00501796 0.0054625878
-0.0046088039 -0.001733477 -0.0051260372
-0.0094887139 -0.0066602011 -0.0027527248
-0.012019038 9.1235634e-05 -0.0025701623
0.012922725 -0.0048354883 -0.00037941241
-0.006777653 -0.0052004312 -0.0014747874
-0.0044280668 0.0064777299 -0.0051260372
0.0073198653 -0.0064777299 -0.0051260372
-0.00768134 -0.0031932471 -0.0038480998
0.0060547031 0.0079375003 -0.0034829748
0.002439955 0.0079375003 -0.0025701623
-0.010392401 -0.0066602011 -0.0027527248
-0.013103462 0.00045617815 -0.0029352873
0.00099405576 -0.0057478449 -1.42874e-05
-0.0038858543 0.00063864945 -1.42874e-05
0.0087657645 -0.0031932471 -0.0051260372
-0.011657563 -0.0061127874 -0.0027527248
-0.0132842 0.00501796 0.0043672128
0.012380512 -0.0011860632 -0.0043957876
-0.00099405576 -0.0031932471 -1.42874e-05
0.00768134 -0.0079375003 -0.0043957876
0.0080428151 -0.0024633622 -1.42874e-05
-0.0037051169 0.0031932471 -1.42874e-05
0.011476826 -0.0057478449 -0.0029352873
0.0075006024 0.0024633622 -0.0051260372
0.0020784803 0.0072076148 -0.0018399124
0.009669451 0.0057478449 -1.42874e-05
0.00099405576 0.0064777299 -1.42874e-05
0.0028014299 0.0079375003 -0.0031178498
-0.01256125 0.0053829025 0.0036369625
-0.0071391277 -0.0073900861 -0.002022475
-0.0094887139 0.0039231321 -0.0031178498
-0.00099405576 -0.00063864945 -0.0051260372
0.0073198653 0.00027370689 -1.42874e-05
0.00099405576 0.0073900861 -1.42874e-05
-0.010211663 -0.0013685345 -0.0031178498
-0.0017170054 -0.0075725573 -0.00056197488
-0.0049702786 -0.0079375003 -0.0018399124
0.0026206924 0.0053829025 -0.0051260372
0.00045184352 0.00063864945 -0.0051260372
0.0020784803 0.0075725573 -1.42874e-05
0.00063258095 -0.0079375003 -0.0040306626
-0.0020784803 -0.0073900861 -0.0025701623
0.0022592177 -0.0039231321 -0.0051260372
0.012380512 -0.0055653737 -0.0001968499
-0.0065969154 -0.0055653737 -0.002022475
-0.0087657645 -0.0072076148 -0.0029352873
0.0093079768 0.0048354883 -1.42874e-05
-0.011296088 0.00501796 -0.0027527248
0.0085850274 -0.0062952586 -1.42874e-05
-0.013103462 -0.0059303162 0.0058277128
0.00063258095 -0.0075725573 -1.42874e-05
0.01256125 -0.0013685345 -0.0038480998
0.012922725 0.0042880746 -0.0025701623
-0.0084042894 0.0052004312 -0.0027527248
9.0368703e-05 0.0042880746 -0.0051260372
-0.0132842 -0.00045617815 0.0021764627
0.0071391277 0.0053829025 -1.42874e-05
0.002439955 -0.0066602011 -0.0051260372
0.0069583901 0.0022808907 -1.42874e-05
-0.0013555306 0.0011860632 -0.0051260372
-0.0026206924 0.0026458334 -1.42874e-05
0.0028014299 0.0015510058 -1.42874e-05
-0.0044280668 -0.0077550285 -0.0022050375
-0.00027110611 -0.0070251436 -0.0034829748
-0.005873966 -0.0077550285 -0.0045783501
-0.002439955 -0.0044705458 -1.42874e-05
-0.009669451 -0.0015510058 -0.0031178498
0.005873966 0.0079375003 -0.002022475
0.010573138 0.001733477 -0.0051260372
-0.0042473292 -0.00501796 -1.42874e-05
-0.0087657645 0.0062952586 -0.0029352873
0.0093079768 -9.1235634e-05 -1.42874e-05
-0.0132842 0.0055653737 0.003819525
0.0089465016 -0.0030107759 -1.42874e-05
-0.013103462 0.00501796 0.0060102749
0.00027110611 0.0064777299 -1.42874e-05
-0.0013555306 -0.0037406608 -0.0051260372
-0.012741988 -0.00501796 0.0010810876
-0.003343642 -0.0042880746 -1.42874e-05
0.0040665916 -0.0072076148 -0.0033004123
0.0013555306 0.0059303162 -0.0051260372
-0.010934614 -0.00027370689 -0.0031178498
-0.0051510162 -0.0013685345 -0.0051260372
-0.0060547031 0.0068426724 -1.42874e-05
-0.0038858543 0.0070251436 -1.42874e-05
0.0098501891 -0.0057478449 -0.0051260372
-0.0044280668 -0.0044705458 -1.42874e-05
0.0029821673 0.00501796 -0.0051260372
0.00063258095 -0.0059303162 -1.42874e-05
0.0042473292 0.0052004312 -1.42874e-05
0.011476826 0.0077550285 -0.0042132251
-0.0098501891 -0.0064777299 -0.0031178498
0.011296088 0.0064777299 -0.00056197488
-0.0028014299 0.0019159482 -0.0051260372
-0.010753876 0.0061127874 -0.0031178498
0.0035243796 0.0061127874 -1.42874e-05
0.001536268 -0.0015510058 -1.42874e-05
-0.0018977429 0.0066602011 -1.42874e-05
-0.0042473292 0.0061127874 -1.42874e-05
-0.0055124909 0.0077550285 -0.0042132251
-0.012019038 -0.0053829025 -0.0031178498
0.0087657645 0.0024633622 -1.42874e-05
-0.01256125 -9.1235634e-05 -0.0014747874
0.00768134 -0.0024633622 -0.0051260372
-0.0089465016 -0.00063864945 -0.0025701623
0.0065969154 0.0013685345 -1.42874e-05
0.0018977429 -0.0052004312 -0.0051260372
-0.0118383 -0.0035581896 -0.0027527248
0.0022592177 -0.0041056033 -0.0051260372
-0.0073198653 -0.0028283047 -0.0012922249
0.0042473292 -0.0041056033 -0.0051260372
0.00768134 -0.0055653737 -1.42874e-05
0.0038858543 -0.0070251436 -0.00074453739
0.012922725 -0.0035581896 -0.0033004123
-0.0073198653 -0.0019159482 -0.0040306626
-9.0368703e-05 0.0068426724 -1.42874e-05
0.012741988 0.0044705458 -0.0034829748
-0.0040665916 -0.0041056033 -1.42874e-05
0.0026206924 -0.0035581896 -1.42874e-05
-0.012741988 -0.0052004312 -0.0018399124
-0.012741988 0.0055653737 0.0052800253
-0.0042473292 0.0020984195 -0.0051260372
-0.011296088 -0.0028283047 -0.0031178498
0.002439955 -0.0022808907 -0.0051260372
0.010392401 -0.001733477 -0.0051260372
-0.00099405576 -0.0053829025 -0.0051260372
-0.01256125 0.0052004312 0.0014462126
-0.013103462 0.004653017 -0.0009270999
-0.0073198653 0.0020984195 -0.0012922249
-0.0091272397 -0.0035581896 -0.0025701623
0.0093079768 -0.00082112069 -1.42874e-05
-0.013103462 0.0052004312 -0.0023875998
0.0055124909 -0.0079375003 -0.0034829748
-0.012922725 -0.0061127874 -0.0014747874
-0.005873966 0.0077550285 -0.0040306626
-0.001536268 -9.1235634e-05 -0.0051260372
-0.00099405576 -9.1235634e-05 -1.42874e-05
0.0075006024 0.0028283047 -0.0051260372
0.0118383 0.0070251436 -0.0051260372
0.0026206924 0.0079375003 -0.0040306626
0.00063258095 -0.0070251436 -0.0022050375
0.0085850274 0.00063864945 -0.0051260372
0.00768134 0.0026458334 -0.0051260372
0.005873966 -0.0031932471 -0.0051260372
0.00027110611 -9.1235634e-05 -1.42874e-05
0.0098501891 0.0079375003 -0.00056197488
-0.0069583901 0.00501796 -0.0001968499
0.0020784803 -0.0062952586 -0.0051260372
0.0087657645 -0.0028283047 -0.0051260372
0.00045184352 0.00501796 -0.0051260372
0.011296088 0.0052004312 -1.42874e-05
0.002439955 0.0068426724 -0.0012922249
-0.010030926 0.0019159482 -0.0025701623
-0.0132842 9.1235634e-05 -1.42874e-05
-0.0087657645 0.0031932471 -0.0025701623
0.012380512 0.0031932471 -0.0001968499
0.012741988 0.0039231321 -0.00074453739
0.0018977429 0.0077550285 -1.42874e-05
0.0056932284 -0.0075725573 -0.0033004123
-0.0073198653 -0.0013685345 -0.0001968499
0.010573138 -0.0077550285 -0.0014747874
0.012380512 0.0057478449 -0.00037941241
-0.0022592177 -0.0073900861 -0.0016573499
0.00063258095 -0.0070251436 -0.0031178498
0.01256125 -0.0031932471 -0.0051260372
0.013103462 0.0072076148 -0.0040306626
0.0053317538 -0.0010035919 -0.0051260372
0.0044280668 -0.0079375003 -0.0042132251
-0.0093079768 -0.0035581896 -0.0025701623
0.011476826 0.00027370689 -0.0051260372
-0.0073198653 -0.0048354883 -0.0045783501
-0.0075006024 -0.001733477 -0.0033004123
-0.006777653 -0.0010035919 -0.0045783501
0.0037051169 -0.0068426724 -0.0051260372
-0.0078620771 0.00027370689 -0.0025701623
-0.0071391277 -0.0079375003 -0.0022050375
0.01256125 -0.0024633622 -0.0043957876
-0.0062354407 0.001733477 -0.0051260372
-0.0047895415 0.0066602011 -1.42874e-05
9.0368703e-05 -0.0033757184 -1.42874e-05
0.0013555306 -0.0019159482 -1.42874e-05
-0.0069583901 -0.0061127874 -0.00037941241
-0.012741988 0.00045617815 0.0050974628
-0.0069583901 0.0053829025 -0.0018399124
-0.013103462 -0.004653017 -0.0012922249
-0.0018977429 -0.0010035919 -1.42874e-05
-0.00063258095 -0.0039231321 -0.0051260372
0.011296088 0.0075725573 -0.0001968499
-0.0062354407 0.0068426724 -0.0009270999
-0.0044280668 0.0039231321 -0.0051260372
-0.012741988 0.0052004312 -0.00074453739
0.012922725 -0.0061127874 -0.00037941241
0.011115351 0.0077550285 -0.0009270999
0.01256125 0.0037406608 -0.00056197488
0.010392401 -0.0077550285 -0.0023875998
0.003343642 -0.0066602011 -0.0014747874
0.0085850274 0.0057478449 -1.42874e-05
-0.0062354407 -0.0022808907 -0.0051260372
-0.0071391277 -0.00027370689 -0.0001968499
0.0047895415 -0.0037406608 -1.42874e-05
0.003343642 0.0020984195 -1.42874e-05
0.00768134 0.0079375003 -0.0031178498
-0.01256125 0.0052004312 0.0040020877
0.010392401 0.00027370689 -1.42874e-05
0.00099405576 -0.0039231321 -1.42874e-05
0.0011747931 0.0070251436 -0.0018399124
-0.006777653 -0.00045617815 -0.0047609126
0.010934614 0.0028283047 -1.42874e-05
0.001536268 0.0010035919 -0.0053085997
0.0091272397 -0.0079375003 -0.0043957876
0.0060547031 0.0061127874 -0.0051260372
0.011657563 -0.0079375003 -0.00037941241
0.002439955 0.0075725573 -1.42874e-05
0.0046088039 0.0055653737 -1.42874e-05
-0.0132842 -9.1235634e-05 0.0023590252
0.0098501891 -0.0030107759 -0.0051260372
0.012380512 -0.00063864945 -0.0014747874
0.00045184352 0.0026458334 -0.0051260372
0.0011747931 0.0075725573 -0.0038480998
0.012199775 -0.00027370689 -0.0011096623
0.0055124909 -0.0068426724 -1.42874e-05
-0.0089465016 0.00501796 -0.0031178498
-0.0078620771 0.0033757184 -0.0031178498
0.0042473292 0.0033757184 -1.42874e-05
0.0018977429 0.0033757184 -1.42874e-05
0.0042473292 0.0079375003 -0.0025701623
0.010211663 0.0026458334 -0.0051260372
-0.013103462 -0.00082112069 -0.0014747874
0.0038858543 0.0044705458 -1.42874e-05
-0.0073198653 0.0022808907 -0.0040306626
0.0118383 -0.00082112069 -1.42874e-05
-0.0022592177 0.0073900861 -0.0018399124
-0.0089465016 -0.0022808907 -0.0031178498
0.0132842 -0.0052004312 -0.0027527248
-0.011476826 0.0013685345 -0.0025701623
-0.0065969154 0.0061127874 -0.002022475
0.0065969154 0.0079375003 -0.0029352873
0.0029821673 -0.0053829025 -1.42874e-05
-0.0087657645 -0.00045617815 -0.0025701623
-0.00081331836 -0.0028283047 -1.42874e-05
0.0093079768 -0.0037406608 -0.0051260372
-0.0053317538 0.0072076148 -0.0051260372
0.0022592177 -0.0030107759 -0.0051260372
0.0062354407 -0.004653017 -1.42874e-05
0.003343642 -0.0031932471 -1.42874e-05
0.012922725 -0.0048354883 -0.0051260372
-0.0132842 0.00027370689 0.0025415877
0.012199775 0.0059303162 -0.00037941241
0.0087657645 0.0079375003 -0.0012922249
0.0060547031 0.0019159482 -0.0051260372
0.002439955 -0.0048354883 -0.0051260372
0.001536268 -0.0026458334 -1.42874e-05
-0.0069583901 -0.0052004312 -0.0001968499
0.0037051169 0.0079375003 -0.0034829748
0.0062354407 -0.0011860632 -0.0051260372
0.011296088 0.0028283047 -0.0051260372
0.0044280668 -0.0068426724 -0.0016573499
0.01256125 -0.0010035919 -0.002022475
0.010753876 0.0079375003 -0.0036655373
-0.0082235523 -0.0041056033 -0.0031178498
0.010934614 -0.00045617815 -1.42874e-05
-0.00027110611 -0.0030107759 -0.0051260372
0.011657563 0.0052004312 -0.0042132251
-0.0069583901 -9.1235634e-05 -0.0040306626
0.0013555306 -0.0072076148 -1.42874e-05
0.0035243796 0.0079375003 -0.0038480998
0.012741988 -0.0048354883 -0.0051260372
0.0085850274 -0.0079375003 -0.0042132251
-0.0085850274 -0.0062952586 -0.0031178498
0.0051510162 -0.0077550285 -0.00037941241
-0.0035243796 0.0028283047 -0.0051260372
0.00768134 0.0077550285 -0.0016573499
0.009669451 -0.0068426724 -0.00037941241
-0.0031629046 -0.00501796 -0.0051260372
0.0040665916 -0.0079375003 -0.0047609126
-0.0053317538 -0.0079375003 -0.0011096623
-0.0026206924 0.0055653737 -0.0051260372
-0.010392401 -0.001733477 -0.0031178498
0.0064161783 0.0039231321 -1.42874e-05
-0.003343642 0.0030107759 -0.0051260372
0.0080428151 -0.0039231321 -1.42874e-05
-0.0132842 0.0055653737 -0.002022475
0.011115351 -0.0070251436 -0.00037941241
0.0118383 -0.004653017 -1.42874e-05
-0.00768134 -0.0041056033 -0.0022050375
-0.0091272397 0.0042880746 -0.0031178498
0.0094887139 -0.0079375003 -0.0045783501
0.0080428151 0.0037406608 -1.42874e-05
-0.0038858543 -0.0077550285 -0.002022475
0.01256125 0.0077550285 -0.0034829748
-0.012741988 0.00045617815 0.0056451503
-0.010211663 0.0033757184 -0.0031178498
0.01256125 0.0037406608 -0.0051260372
0.0013555306 -0.0057478449 -0.0051260372
-0.00081331836 0.0079375003 -1.42874e-05
0.0011747931 -0.004653017 -1.42874e-05
0.002439955 0.0059303162 -0.0051260372
0.011657563 0.0064777299 -0.0023875998
0.0118383 -0.0072076148 -0.0049434751
-0.0073198653 0.0072076148 -0.0022050375
-0.0071391277 -0.0066602011 -0.00074453739
-0.0091272397 0.0035581896 -0.0025701623
-0.010753876 -9.1235634e-05 -0.0031178498
-0.012741988 -0.00045617815 0.0045497753
-0.0132842 -9.1235634e-05 0.0027241502
-0.0049702786 0.0042880746 -0.0051260372
-0.0011747931 0.00045617815 -1.42874e-05
0.0020784803 -0.00082112069 -0.0051260372
0.0037051169 -0.0028283047 -0.0051260372
0.012380512 0.001733477 -0.0011096623
-0.0080428151 0.0044705458 -0.0025701623
0.011296088 -0.0066602011 -0.0012922249
0.0029821673 -0.0066602011 -0.0031178498
0.0037051169 0.0075725573 -0.00074453739
-0.0071391277 0.0015510058 -0.0043957876
-0.0082235523 0.0041056033 -0.0025701623
-0.0073198653 -0.0028283047 -0.0038480998
-0.005873966 0.0073900861 -1.42874e-05
-0.0089465016 0.00082112069 -0.0031178498
-0.0132842 0.00501796 0.0003508376
-0.0049702786 -0.0079375003 -0.0012922249
-0.0044280668 -0.0057478449 -0.0001968499
-0.0093079768 -0.00045617815 -0.0025701623
0.012741988 -0.0013685345 -0.0025701623
0.005873966 -0.004653017 -0.0051260372
-0.0075006024 0.0030107759 -0.002022475
0.010392401 -0.0020984195 -1.42874e-05
0.0118383 -0.0077550285 -0.00037941241
0.0018977429 -0.0077550285 -0.0040306626
-0.010573138 9.1235634e-05 -0.0031178498
-0.0011747931 -0.0073900861 -0.0051260372
0.0028014299 0.00082112069 -1.42874e-05
0.012380512 0.00082112069 -0.0012922249
-0.0075006024 -0.0053829025 -0.0023875998
0.0089465016 0.00063864945 -0.0051260372
-0.00768134 -0.0031932471 -0.0033004123
-0.010573138 0.0039231321 -0.0031178498
-0.0071391277 -0.0064777299 -0.0047609126
-0.003343642 -0.0062952586 -1.42874e-05
0.0060547031 0.0075725573 -0.00074453739
0.00063258095 -0.0033757184 -1.42874e-05
-0.0089465016 -0.0015510058 -0.0031178498
0.0017170054 0.0073900861 -0.00037941241
0.0029821673 0.0033757184 -1.42874e-05
0.0040665916 -0.0053829025 -0.0051260372
0.00768134 -0.0064777299 -0.0051260372
-0.0093079768 0.0011860632 -0.0025701623
-9.0368703e-05 0.0037406608 -0.0051260372
0.005873966 -0.0072076148 -0.0009270999
-0.0075006024 -9.1235634e-05 -0.0036655373
-0.0046088039 0.0037406608 -1.42874e-05
0.011476826 -0.0041056033 -0.0051260372
0.0075006024 -0.0013685345 -1.42874e-05
-0.0073198653 0.0039231321 -0.0040306626
-0.0026206924 0.0031932471 -1.42874e-05
0.00081331836 -0.0028283047 -1.42874e-05
0.0073198653 0.0079375003 -0.0038480998
0.0064161783 -0.0048354883 -0.0051260372
-0.0031629046 -0.0022808907 -1.42874e-05
0.00063258095 0.0073900861 -0.0022050375
0.0064161783 0.0022808907 -1.42874e-05
-0.002439955 0.00045617815 -0.0051260372
-0.0040665916 -0.0055653737 -0.0051260372
-0.012199775 0.0010035919 -0.0031178498
0.0053317538 0.0079375003 -0.0043957876
-0.0022592177 -0.00027370689 -1.42874e-05
-0.00099405576 -0.00082112069 -0.0051260372
-0.0053317538 0.0077550285 -0.002022475
0.009669451 -0.00501796 -0.0051260372
-0.0056932284 -0.0077550285 -0.0025701623
0.0060547031 -0.0022808907 -1.42874e-05
0.0011747931 9.1235634e-05 -1.42874e-05
-0.0087657645 -0.00027370689 -0.0031178498
0.0031629046 -0.0033757184 -1.42874e-05
-0.0098501891 0.0041056033 -0.0025701623
0.0091272397 0.00063864945 -1.42874e-05
0.003343642 -0.0024633622 -0.0051260372
0.00045184352 0.00501796 -1.42874e-05
-0.0035243796 0.00501796 -0.0051260372
-0.012019038 0.0020984195 -0.0031178498
0.012741988 0.004653017 -0.0034829748
0.0053317538 0.0079375003 -0.0040306626
0.00081331836 0.0022808907 -0.0051260372
-0.0075006024 -0.001733477 -0.0023875998
0.011115351 -0.0079375003 -0.00074453739
0.011476826 -0.0022808907 -1.42874e-05
9.0368703e-05 -0.00045617815 -0.0053085997
0.0084042894 0.0079375003 -0.0025701623
0.010392401 0.0079375003 -0.00037941241
-0.012741988 0.0059303162 0.00089852512
-0.0042473292 0.0075725573 -0.0027527248
0.012380512 0.0022808907 -0.0001968499
0.0051510162 -0.0035581896 -0.0051260372
0.0020784803 0.0053829025 -0.0051260372
0.00081331836 -0.0026458334 -1.42874e-05
-0.0073198653 -0.00501796 -0.0045783501
-0.0038858543 0.0073900861 -1.42874e-05
0.0055124909 0.0019159482 -1.42874e-05
-0.005873966 -0.0062952586 -0.0043957876
-0.0073198653 -0.004653017 -0.0040306626
-0.011476826 -0.0052004312 -0.0027527248
-0.0051510162 -9.1235634e-05 -0.0051260372
-0.00027110611 0.0055653737 -1.42874e-05
0.001536268 0.0022808907 -1.42874e-05
-0.0047895415 0.0048354883 -1.42874e-05
0.0075006024 0.0079375003 -0.0029352873
-0.0046088039 0.0079375003 -0.0011096623
-0.0022592177 -0.0075725573 -0.0011096623
-0.0040665916 0.00501796 -0.0051260372
-0.0037051169 0.0033757184 -0.0051260372
-0.0037051169 -0.0028283047 -1.42874e-05
0.0071391277 -0.0044705458 -1.42874e-05
-0.0017170054 -0.0075725573 -0.00074453739
-0.0073198653 -0.0070251436 -0.0025701623
-0.0047895415 -0.0079375003 -0.0016573499
-0.010753876 -0.0031932471 -0.0031178498
0.0038858543 -0.0077550285 -0.0051260372
0.00768134 0.0020984195 -0.0051260372
-0.0075006024 0.0061127874 -0.0023875998
0.00081331836 -0.0057478449 -0.0051260372
-0.011476826 -0.001733477 -0.0025701623
0.012380512 0.0052004312 -0.0043957876
-0.0047895415 0.0010035919 -1.42874e-05
0.001536268 -0.00082112069 -0.0051260372
0.011476826 0.0042880746 -1.42874e-05
-0.011296088 0.0057478449 -0.0031178498
-0.012741988 0.0055653737 0.0045497753
-0.010392401 0.0037406608 -0.0027527248
0.0013555306 0.0079375003 -0.0049434751
0.010934614 -0.0079375003 -0.0029352873
0.0094887139 0.0030107759 -1.42874e-05
-0.00045184352 0.0066602011 -1.42874e-05
-0.0065969154 -0.0077550285 -0.0038480998
-0.0078620771 0.0035581896 -0.0031178498
-0.0031629046 0.00063864945 -0.0051260372
0.0031629046 0.0015510058 -0.0051260372
-0.001536268 -0.0024633622 -0.0051260372
0.012922725 -0.0042880746 -0.0043957876
0.011657563 -0.0064777299 -0.00037941241
-0.0037051169 -0.00082112069 -1.42874e-05
-0.0018977429 -0.0044705458 -1.42874e-05
-0.01256125 -9.1235634e-05 -0.0018399124
-0.0132842 -9.1235634e-05 0.0001682751
0.0073198653 0.00063864945 -0.0051260372
-0.011115351 -0.0031932471 -0.0031178498
-0.00045184352 -0.0079375003 -0.0047609126
0.0093079768 0.0079375003 -0.0045783501
0.012922725 0.0048354883 -0.0043957876
0.012922725 0.004653017 -0.0027527248
-0.0071391277 0.0019159482 -0.0042132251
0.0040665916 -0.0037406608 -1.42874e-05
0.009669451 -0.0079375003 -0.0045783501
0.012922725 0.0039231321 -0.0023875998
0.00027110611 -0.0048354883 -1.42874e-05
0.012019038 0.0039231321 -1.42874e-05
-0.012741988 0.0057478449 -0.0022050375
-0.0073198653 0.0057478449 -0.00074453739
-0.010392401 0.0020984195 -0.0031178498
-0.0013555306 0.00045617815 -0.0051260372
-0.005873966 -0.0073900861 -0.0018399124
0.012741988 -0.0026458334 -0.0034829748
0.0026206924 -0.0033757184 -1.42874e-05
0.0055124909 -0.0019159482 -0.0051260372
0.005873966 0.0079375003 -0.0040306626
-0.0056932284 0.0053829025 -0.0051260372
0.0073198653 0.0015510058 -1.42874e-05
0.00045184352 -0.0072076148 -0.0009270999
0.012741988 -0.0033757184 -0.0036655373
-0.0065969154 0.0057478449 -0.0009270999
-0.012922725 0.0010035919 -0.002022475
0.012199775 0.0064777299 -0.0038480998
-0.0051510162 0.0072076148 -0.0051260372
0.0118383 -0.0053829025 -0.0022050375
0.01256125 0.0077550285 -0.0025701623
0.0055124909 0.0026458334 -1.42874e-05
-0.006777653 -0.0031932471 -0.0001968499
-0.0132842 0.00027370689 0.0005334001
0.0022592177 0.00082112069 -1.42874e-05
0.010392401 0.0030107759 -1.42874e-05
0.0028014299 -0.0066602011 -0.002022475
0.010392401 -0.0062952586 -0.0051260372
-0.0132842 -0.0057478449 -0.0014747874
0.0047895415 -0.0013685345 -1.42874e-05
-0.0044280668 0.0022808907 -1.42874e-05
0.005873966 -0.0055653737 -0.0051260372
-0.0065969154 0.0037406608 -0.0001968499
-0.0073198653 0.0030107759 -0.0016573499
0.0084042894 -0.00045617815 -1.42874e-05
-0.0042473292 -0.0061127874 -0.0051260372
0.011657563 -0.0011860632 -1.42874e-05
0.012199775 -0.0072076148 -0.0034829748
0.01256125 -0.0024633622 -0.0014747874
-0.0087657645 0.0015510058 -0.0031178498
0.010211663 -0.0055653737 -1.42874e-05
0.00099405576 0.0010035919 -0.0051260372
-0.0089465016 0.00082112069 -0.0025701623
-0.0017170054 0.00063864945 -1.42874e-05
-0.012922725 -0.0059303162 0.0027241502
0.0093079768 0.0070251436 -0.0051260372
-0.0094887139 -0.0070251436 -0.0027527248
0.0040665916 -0.0079375003 -0.0051260372
-0.0056932284 -0.0070251436 -0.0009270999
0.0013555306 0.0075725573 -0.0049434751
-0.013103462 -0.00501796 0.0036369625
0.0093079768 -0.0015510058 -0.0051260372
0.00081331836 0.0013685345 -1.42874e-05
0.0047895415 0.0061127874 -1.42874e-05
9.0368703e-05 -0.0035581896 -1.42874e-05
0.0078620771 -0.0079375003 -0.0042132251
-0.0071391277 0.0035581896 -0.0011096623
-0.0037051169 -0.0033757184 -0.0051260372
0.012922725 -0.0044705458 -0.00037941241
0.0069583901 0.0079375003 -0.0049434751
-0.00063258095 -0.0013685345 -1.42874e-05
-0.002439955 0.0073900861 -0.0051260372
-0.00099405576 0.004653017 -1.42874e-05
-0.0064161783 -0.0070251436 -0.0038480998
0.0094887139 0.0079375003 -0.0025701623
0.0089465016 0.0055653737 -1.42874e-05
-0.0037051169 -0.00027370689 -0.0051260372
-0.0047895415 -0.0028283047 -0.0051260372
0.00063258095 0.004653017 -1.42874e-05
0.0051510162 0.0079375003 -0.0001968499
-0.0060547031 -0.0070251436 -0.0038480998
-0.00081331836 -0.0072076148 -0.0047609126
0.010211663 -0.0059303162 -0.0051260372
-0.012922725 -0.0059303162 0.0001682751
-0.0020784803 -0.0024633622 -1.42874e-05
-0.0071391277 -0.0066602011 -0.0001968499
-0.00768134 -0.0048354883 -0.0034829748
-0.0075006024 -0.0024633622 -0.0023875998
0.012741988 -0.0035581896 -0.0047609126
-0.010573138 -0.0052004312 -0.0027527248
0.002439955 -0.0079375003 -0.0043957876
-0.0071391277 9.1235634e-05 -0.00074453739
0.00027110611 0.0011860632 -0.0051260372
-0.0132842 -0.0053829025 0.0047323378
0.012922725 0.0073900861 -0.0038480998
-0.0071391277 -0.0039231321 -0.0001968499
0.002439955 -0.0068426724 -0.0051260372
-0.013103462 0.0048354883 -0.0009270999
0.012380512 0.0041056033 -1.42874e-05
0.005873966 0.0030107759 -0.0051260372
0.0026206924 0.0031932471 -1.42874e-05
-0.0022592177 0.0075725573 -0.0051260372
0.010753876 -0.0055653737 -0.0051260372
0.00063258095 0.001733477 -1.42874e-05
-0.011115351 -0.0052004312 -0.0031178498
0.0055124909 -0.0052004312 -1.42874e-05
-0.0085850274 -0.0052004312 -0.0031178498
0.0078620771 -0.0055653737 -0.0051260372
-0.0132842 9.1235634e-05 -0.00056197488
0.010573138 -0.0072076148 -0.00037941241
-0.00027110611 -0.0039231321 -1.42874e-05
0.010753876 0.0079375003 -0.0022050375
0.0040665916 0.0041056033 -1.42874e-05
0.0062354407 0.0026458334 -0.0051260372
-0.0046088039 -0.0052004312 -1.42874e-05
0.001536268 0.0070251436 -1.42874e-05
-0.0055124909 9.1235634e-05 -0.0051260372
-0.0049702786 0.0048354883 -1.42874e-05
-0.011657563 0.0064777299 -0.0027527248
0.0089465016 0.0031932471 -1.42874e-05
0.010211663 -0.0024633622 -1.42874e-05
0.002439955 -0.0019159482 -1.42874e-05
0.0094887139 -0.00063864945 -0.0051260372
-0.0073198653 -0.00063864945 -0.0051260372
0.0018977429 0.0062952586 -0.0051260372
0.0071391277 -0.0072076148 -0.0025701623
0.0042473292 -0.0072076148 -0.00074453739
-0.0073198653 0.0061127874 -0.0001968499
0.0046088039 0.00501796 -1.42874e-05
-0.00063258095 0.0028283047 -1.42874e-05
0.010934614 -0.0037406608 -0.0051260372
-0.0040665916 0.0072076148 -0.0051260372
-0.0087657645 0.0022808907 -0.0031178498
-0.0065969154 0.0028283047 -0.0001968499
-0.0118383 0.0057478449 -0.0031178498
-0.012922725 -0.0026458334 -0.0027527248
0.0011747931 -9.1235634e-05 -0.0053085997
-0.006777653 -0.00045617815 -0.0042132251
-0.00027110611 -0.0035581896 -1.42874e-05
0.0044280668 0.0024633622 -0.0051260372
-0.0071391277 -0.0070251436 -0.0018399124
-0.010392401 -0.0066602011 -0.0029352873
0.012199775 0.0068426724 -0.0031178498
-0.0011747931 -0.0037406608 -1.42874e-05
-0.0031629046 -0.0013685345 -1.42874e-05
-0.0073198653 0.0015510058 -0.0018399124
0.0071391277 0.0055653737 -1.42874e-05
-0.012741988 -0.0053829025 -0.002022475
-0.0055124909 0.0066602011 -0.0051260372
0.0087657645 0.0079375003 -0.0036655373
-0.0017170054 0.0024633622 -1.42874e-05
0.0064161783 -0.0020984195 -0.0051260372
-0.0062354407 0.0064777299 -0.0045783501
-0.00768134 0.0024633622 -0.0025701623
0.0031629046 -0.0064777299 -0.0051260372
0.002439955 0.0048354883 -0.0051260372
-0.0118383 -0.004653017 -0.0031178498
0.0022592177 0.0072076148 -1.42874e-05
-0.00027110611 -0.0015510058 -0.0051260372
-0.0051510162 0.0030107759 -1.42874e-05
0.001536268 -0.0048354883 -1.42874e-05
-0.0062354407 0.0022808907 -0.0001968499
-0.0075006024 -0.00501796 -0.0033004123
-0.01256125 0.00027370689 0.0054625878
0.001536268 -0.0068426724 -0.0018399124
0.011476826 0.0066602011 -0.0001968499
0.0071391277 0.0075725573 -0.0001968499
-0.00099405576 0.0062952586 -0.0051260372
-0.0091272397 -0.00501796 -0.0031178498
0.0064161783 0.0072076148 -0.0001968499
0.001536268 -0.0070251436 -1.42874e-05
0.001536268 -0.0070251436 -0.0051260372
0.0040665916 0.0037406608 -1.42874e-05
-0.0073198653 9.1235634e-05 -0.0038480998
0.0062354407 0.0075725573 -0.0012922249
-0.0060547031 0.0011860632 -0.0051260372
0.0042473292 -0.0055653737 -0.0051260372
0.0094887139 -0.0037406608 -0.0051260372
0.0065969154 -0.0079375003 -0.00037941241
-0.0017170054 0.0044705458 -1.42874e-05
-0.0073198653 -0.0030107759 -0.0012922249
0.0017170054 -0.001733477 -0.0051260372
-9.0368703e-05 -0.0079375003 -0.00037941241
0.0037051169 0.0070251436 -0.0012922249
-0.011476826 -0.0055653737 -0.0027527248
0.0029821673 -0.001733477 -0.0051260372
-0.012199775 0.0061127874 -0.0027527248
0.0011747931 0.0035581896 -1.42874e-05
-0.0089465016 0.0035581896 -0.0025701623
-0.0132842 0.00027370689 -0.00074453739
0.012019038 0.0068426724 -0.0033004123
0.0038858543 0.0079375003 -0.0049434751
-0.00099405576 0.0072076148 -0.0009270999
-0.0038858543 0.0075725573 -0.0042132251
-0.0065969154 0.0077550285 -0.0011096623
0.010211663 0.0053829025 -0.0051260372
0.010573138 0.0041056033 -1.42874e-05
-0.0078620771 -0.00501796 -0.0027527248
0.00027110611 -0.0079375003 -0.0042132251
0.0035243796 -0.0039231321 -0.0051260372
0.0042473292 -0.00063864945 -0.0051260372
0.0026206924 -0.0072076148 -1.42874e-05
0.0064161783 -0.0070251436 -0.0001968499
0.00027110611 -0.0037406608 -1.42874e-05
-0.0087657645 0.0011860632 -0.0025701623
0.0062354407 0.0013685345 -0.0051260372
-0.0132842 -0.00027370689 0.0016287751
-0.0051510162 0.0077550285 -0.0047609126
-0.0026206924 0.0068426724 -1.42874e-05
0.0089465016 0.00045617815 -0.0051260372
0.0018977429 -0.0059303162 -0.0051260372
-0.010392401 0.0011860632 -0.0031178498
-0.0040665916 0.0037406608 -0.0051260372
-0.0037051169 0.0075725573 -0.0042132251
-0.0028014299 -0.0026458334 -1.42874e-05
0.0018977429 0.0077550285 -0.0045783501
-0.0049702786 -0.0026458334 -0.0051260372
-0.0026206924 0.0077550285 -0.0051260372
9.0368703e-05 0.0075725573 -0.0047609126
-0.0091272397 -0.0019159482 -0.0025701623
-0.0037051169 0.0064777299 -0.0051260372
0.012741988 -0.0028283047 -0.0034829748
-0.01256125 0.0011860632 -0.0031178498
0.010030926 -0.0073900861 -0.00037941241
-0.0060547031 -0.0019159482 -0.0051260372
-0.006777653 0.0013685345 -0.0001968499
0.0051510162 0.0037406608 -0.0051260372
-0.0084042894 0.004653017 -0.0031178498
0.0042473292 0.0013685345 -0.0051260372
0.012922725 -0.0052004312 -0.0011096623
0.0018977429 0.0072076148 -0.0051260372
-0.006777653 -0.0020984195 -0.0049434751
-0.00045184352 0.0035581896 -1.42874e-05
-0.0011747931 0.0042880746 -0.0051260372
-0.0055124909 0.0041056033 -1.42874e-05
-0.0031629046 -0.0066602011 -0.0051260372
0.0046088039 0.001733477 -1.42874e-05
0.0089465016 0.0064777299 -0.0051260372
-0.013103462 0.0048354883 -0.00074453739
-0.0080428151 0.0044705458 -0.0031178498
0.0055124909 -0.0013685345 -0.0051260372
0.001536268 0.0064777299 -1.42874e-05
0.0011747931 0.0061127874 -0.0051260372
0.012380512 0.004653017 -0.0051260372
-0.001536268 -0.004653017 -0.0051260372
0.0056932284 -0.0070251436 -0.0027527248
0.010392401 -0.0026458334 -1.42874e-05
-0.0028014299 0.0073900861 -0.0022050375
0.0065969154 0.001733477 -0.0051260372
0.012380512 -0.0011860632 -0.0011096623
-0.0026206924 -0.004653017 -1.42874e-05
-0.003343642 0.0048354883 -0.0051260372
0.0078620771 0.0028283047 -0.0051260372
0.0053317538 0.0011860632 -1.42874e-05
-0.00768134 -0.0013685345 -0.0031178498
0.0026206924 0.00082112069 -1.42874e-05
0.0038858543 0.0022808907 -1.42874e-05
-0.00063258095 0.0022808907 -0.0051260372
0.0069583901 0.0079375003 -0.0047609126
0.00099405576 -0.0044705458 -1.42874e-05
-0.013103462 0.00063864945 -0.00037941241
-0.0020784803 -0.0073900861 -0.0029352873
0.0055124909 0.0011860632 -0.0051260372
-0.0085850274 0.0059303162 -0.0031178498
0.0069583901 -0.0010035919 -0.0051260372
0.0028014299 -0.0011860632 -0.0051260372
0.0056932284 0.001733477 -0.0051260372
-0.012922725 -0.0010035919 -0.0023875998
-0.010392401 0.0022808907 -0.0031178498
0.0031629046 0.0057478449 -1.42874e-05
-0.0040665916 0.0026458334 -1.42874e-05
-0.010934614 -0.0059303162 -0.0027527248
0.012922725 -0.0072076148 -0.0049434751
9.0368703e-05 -0.0073900861 -1.42874e-05
0.010392401 -0.0072076148 -0.0049434751
-0.003343642 0.0041056033 -1.42874e-05
-0.0118383 -0.0037406608 -0.0031178498
0.0091272397 0.0079375003 -0.0011096623
-0.0017170054 0.0010035919 -0.0051260372
0.0087657645 -0.00027370689 -1.42874e-05
0.00768134 -0.0031932471 -0.0051260372
0.0082235523 -0.00082112069 -0.0051260372
0.011476826 0.0011860632 -1.42874e-05
-0.01256125 0.0011860632 -0.0025701623
0.0073198653 0.0079375003 -0.0036655373
0.0060547031 -0.0039231321 -1.42874e-05
0.012380512 0.00063864945 -0.0027527248
-0.00045184352 0.0072076148 -1.42874e-05
-0.0069583901 -0.0053829025 -0.0001968499
0.0098501891 0.0039231321 -1.42874e-05
0.011657563 0.0061127874 -0.00037941241
0.0037051169 -0.0042880746 -1.42874e-05
-0.0037051169 -0.0062952586 -1.42874e-05
0.010573138 -0.001733477 -0.0051260372
0.00063258095 -0.00063864945 -1.42874e-05
0.0087657645 0.0011860632 -0.0051260372
-0.0046088039 -0.0055653737 -0.0001968499
-0.009669451 0.0062952586 -0.0027527248
-0.012741988 0.0052004312 0.00071596261
0.01256125 0.0028283047 -0.0001968499
-0.012741988 -0.0061127874 -0.0011096623
-0.0080428151 -0.0022808907 -0.0025701623
0.0087657645 0.0013685345 -0.0051260372
0.0028014299 0.0062952586 -0.0051260372
-0.00099405576 -0.0077550285 -0.0051260372
0.0020784803 -0.0068426724 -0.0023875998
0.011476826 -0.0070251436 -0.0034829748
0.0051510162 0.0053829025 -1.42874e-05
0.010934614 0.0033757184 -1.42874e-05
0.0029821673 0.0041056033 -0.0051260372
0.006777653 -0.00082112069 -0.0051260372
0.0028014299 0.0077550285 -0.0022050375
0.0098501891 -0.0079375003 -0.0038480998
-0.0132842 0.0053829025 0.0034544
-0.0085850274 -0.00063864945 -0.0025701623
0.012922725 -0.004653017 -0.0047609126
-0.010392401 -0.0057478449 -0.0027527248
0.0078620771 -0.0042880746 -0.0051260372
0.0022592177 -0.0073900861 -0.00037941241
-0.010392401 0.0019159482 -0.0031178498
-0.0040665916 -0.0077550285 -0.0016573499
0.011657563 -0.0052004312 -0.0038480998
-0.0053317538 -0.0061127874 -0.0001968499
-0.011115351 0.0062952586 -0.0031178498
-0.01256125 -0.00501796 -0.0029352873
-0.002439955 -0.0010035919 -1.42874e-05
-0.010573138 -0.0028283047 -0.0025701623
0.0075006024 -0.0055653737 -1.42874e-05
-0.012741988 0.00063864945 -0.0016573499
-0.0028014299 -0.0073900861 -0.0051260372
-0.0029821673 -0.0024633622 -1.42874e-05
0.0049702786 0.0031932471 -0.0051260372
0.010030926 0.0079375003 -0.0027527248
-0.0132842 -0.0055653737 0.0036369625
-0.011115351 -0.0064777299 -0.0031178498
0.0064161783 0.0020984195 -1.42874e-05
0.00027110611 0.0077550285 -1.42874e-05
0.010030926 -0.0077550285 -0.0018399124
-0.0056932284 -0.0070251436 -0.0042132251
-0.0064161783 0.0031932471 -0.0001968499
0.0017170054 0.0013685345 -0.0051260372
-0.0062354407 0.00063864945 -0.0051260372
0.0118383 0.0052004312 -0.0051260372
-0.00063258095 0.0079375003 -1.42874e-05
0.0094887139 0.0033757184 -1.42874e-05
0.0089465016 -0.0022808907 -1.42874e-05
-0.011657563 0.00027370689 -0.0025701623
-0.0029821673 -0.0044705458 -0.0051260372
-0.013103462 -0.0020984195 -0.0025701623
-0.01256125 -0.0011860632 -0.0031178498
-0.0080428151 -0.0011860632 -0.0031178498
0.0017170054 -0.0061127874 -1.42874e-05
0.0118383 0.0077550285 -0.0036655373
0.0011747931 0.001733477 -0.0051260372
0.0098501891 0.00027370689 -1.42874e-05
0.001536268 -0.0070251436 -0.00074453739
0.0089465016 0.004653017 -1.42874e-05
-0.0042473292 -0.0055653737 -0.0051260372
0.012922725 -0.0039231321 -0.0038480998
-0.0093079768 0.0030107759 -0.0025701623
-0.0056932284 -0.0057478449 -0.0001968499
0.0075006024 -0.00501796 -0.0051260372
-0.0049702786 -0.0075725573 -0.0051260372
-0.009669451 0.0013685345 -0.0025701623
0.0089465016 0.0079375003 -0.0051260372
-0.0071391277 0.0035581896 -0.0009270999
-0.0073198653 0.0057478449 -0.0051260372
-0.011296088 0.0011860632 -0.0031178498
0.011476826 -0.0057478449 -0.002022475
0.0026206924 0.00027370689 -0.0053085997
0.009669451 0.0022808907 -1.42874e-05
0.0069583901 -0.0072076148 -0.0025701623
-0.012922725 -0.00045617815 0.0016287751
0.0064161783 -0.0072076148 -0.0027527248
0.0062354407 0.0079375003 -0.0001968499
0.0018977429 -0.0026458334 -0.0051260372
0.0082235523 0.00027370689 -1.42874e-05
-0.0062354407 0.0062952586 -0.00056197488
0.002439955 -0.00045617815 -0.0053085997
-0.0062354407 0.0059303162 -0.002022475
0.013103462 -0.0039231321 -0.0027527248
0.012380512 0.0064777299 -0.0040306626
0.00063258095 -0.0020984195 -0.0053085997
-0.010573138 0.0026458334 -0.0025701623
-0.0060547031 0.0042880746 -0.0051260372
-0.0055124909 0.0022808907 -1.42874e-05
-0.0062354407 -0.0059303162 -0.0001968499
0.0062354407 -0.0072076148 -0.0012922249
-0.0093079768 -0.0037406608 -0.0025701623
-0.006777653 0.0061127874 -0.002022475
0.0038858543 0.0020984195 -0.0051260372
0.00027110611 -0.0079375003 -0.0049434751
0.0047895415 0.001733477 -1.42874e-05
0.0091272397 -0.00027370689 -1.42874e-05
-0.010934614 0.00082112069 -0.0025701623
-0.0094887139 0.0041056033 -0.0031178498
0.00099405576 0.0044705458 -1.42874e-05
-0.0073198653 9.1235634e-05 -0.00056197488
-0.0029821673 0.0022808907 -1.42874e-05
0.0080428151 -0.0019159482 -1.42874e-05
0.0098501891 0.0072076148 -1.42874e-05
0.0022592177 0.0013685345 -0.0051260372
0.011476826 0.0068426724 -0.0012922249
0.0049702786 0.0070251436 -0.0051260372
-0.0091272397 0.0059303162 -0.0031178498
-0.00768134 -0.0033757184 -0.0033004123
0.0065969154 0.0057478449 -1.42874e-05
-0.0075006024 0.0042880746 -0.0038480998
-9.0368703e-05 -0.0072076148 -0.00074453739
-0.012741988 -0.0053829025 0.00089852512
0.0035243796 -0.0059303162 -1.42874e-05
-0.0051510162 -0.0052004312 -1.42874e-05
-0.0071391277 -0.0068426724 -0.00074453739
0.011296088 -0.0062952586 -0.0011096623
-0.006777653 -0.00063864945 -0.0042132251
0.0031629046 0.00027370689 -1.42874e-05
-0.0051510162 -0.0079375003 -0.0011096623
-0.0026206924 0.0010035919 -0.0051260372
0.0011747931 -0.0079375003 -0.0038480998
0.011657563 -0.0020984195 -0.0051260372
0.00099405576 -0.0070251436 -0.0014747874
0.00081331836 -0.0073900861 -0.0042132251
0.006777653 -0.0033757184 -0.0051260372
0.0118383 0.0059303162 -0.0027527248
0.012019038 0.0053829025 -0.0025701623
0.0017170054 0.0079375003 -1.42874e-05
0.0013555306 0.0077550285 -0.0051260372
0.010392401 -0.0079375003 -0.00056197488
-0.00081331836 -0.0079375003 -0.0045783501
0.010030926 -0.0011860632 -1.42874e-05
0.0044280668 -0.0075725573 -0.00037941241
0.0053317538 0.0079375003 -0.0025701623
0.00081331836 -0.0077550285 -0.0045783501
0.0078620771 -0.0059303162 -1.42874e-05
0.006777653 -0.0079375003 -0.0042132251
-0.012199775 -0.0015510058 -0.0025701623
-0.0042473292 0.001733477 -1.42874e-05
-0.0089465016 -0.0037406608 -0.0031178498
-0.0069583901 -0.0015510058 -0.0051260372
0.0018977429 -0.0077550285 -0.00037941241
-0.0047895415 0.0041056033 -1.42874e-05
0.012199775 -0.0077550285 -0.00037941241
0.0046088039 0.0079375003 -0.0042132251
-0.003343642 0.0030107759 -1.42874e-05
0.011657563 0.0075725573 -0.0051260372
0.0013555306 -0.0070251436 -1.42874e-05
-0.0132842 0.0055653737 0.00071596261
-0.0094887139 0.0064777299 -0.0029352873
0.0047895415 0.0019159482 -0.0051260372
-0.0065969154 -0.0073900861 -0.00037941241
0.0040665916 0.0062952586 -1.42874e-05
-0.012741988 -0.00501796 -1.42874e-05
-0.0094887139 0.0044705458 -0.0031178498
-0.0132842 0.0053829025 0.0045497753
0.0011747931 -0.0073900861 -0.0045783501
0.011476826 0.0035581896 -0.0051260372
0.0082235523 -0.0079375003 -0.0040306626
-9.0368703e-05 0.0077550285 -1.42874e-05
0.0094887139 0.00501796 -0.0051260372
0.0065969154 0.0062952586 -0.0051260372
-0.0051510162 -0.0079375003 -0.00037941241
-0.0094887139 0.0064777299 -0.0027527248
-0.0075006024 -0.0042880746 -0.0038480998
0.001536268 -0.0011860632 -0.0051260372
-0.0062354407 0.00045617815 -0.0051260372
0.0011747931 -0.0041056033 -1.42874e-05
0.012922725 0.0064777299 -0.0040306626
0.010934614 0.0077550285 -1.42874e-05
0.011476826 -0.0020984195 -1.42874e-05
-0.013103462 -0.00063864945 -0.0018399124
0.011115351 0.0075725573 -0.00074453739
0.012199775 -0.0075725573 -0.0038480998
-0.0062354407 0.0053829025 -0.0051260372
0.01256125 0.0020984195 -0.0027527248
0.013103462 -0.0044705458 -0.0033004123
0.012199775 0.0010035919 -0.0011096623
-0.010573138 0.0057478449 -0.0031178498
0.01256125 -0.0030107759 -0.0011096623
0.0062354407 -0.0053829025 -1.42874e-05
-0.0044280668 0.0010035919 -1.42874e-05
0.012019038 -0.0052004312 -0.0040306626
-0.001536268 -0.0072076148 -0.0038480998
-0.0060547031 0.00063864945 -0.0001968499
-0.002439955 -0.0079375003 -0.0001968499
0.0037051169 -9.1235634e-05 -1.42874e-05
0.0073198653 -0.0073900861 -0.0012922249
-0.0028014299 -0.0077550285 -0.0011096623
-0.0040665916 -0.0077550285 -0.0025701623
-0.0042473292 -0.0077550285 -0.0049434751
-0.0040665916 -0.0031932471 -1.42874e-05
-0.013103462 0.0048354883 0.0023590252
-0.0085850274 -0.0048354883 -0.0027527248
-0.0055124909 -0.001733477 -0.0051260372
-0.0037051169 -0.0070251436 -0.0051260372
-0.0042473292 0.0033757184 -0.0051260372
0.010753876 -0.0033757184 -0.0051260372
0.0051510162 -0.0070251436 -0.0023875998
0.001536268 -0.0064777299 -1.42874e-05
0.0075006024 9.1235634e-05 -0.0051260372
0.0078620771 -0.00027370689 -1.42874e-05
0.0082235523 -0.0011860632 -0.0051260372
0.010934614 0.0079375003 -0.00037941241
0.003343642 -0.0019159482 -1.42874e-05
0.0093079768 0.0079375003 -0.0001968499
-0.0064161783 0.0077550285 -0.0029352873
0.0056932284 -0.0041056033 -1.42874e-05
-0.012922725 0.0048354883 -1.42874e-05
-0.010573138 -9.1235634e-05 -0.0031178498
-0.0094887139 -9.1235634e-05 -0.0031178498
0.012922725 0.00501796 -0.0045783501
0.0075006024 0.0079375003 -0.0033004123
0.006777653 0.0061127874 -0.0051260372
