# .PCD v0.7 - Point Cloud Data file format
VERSION 0.7
FIELDS x y z
SIZE 4 4 4
TYPE F F F
COUNT 1 1 1
WIDTH 1153
HEIGHT 1
VIEWPOINT 0 0 0 1 0 0 0
POINTS 1153
DATA ascii
-0.0043754652 0.00045245644 -0.00099928095
-0.0052750935 -0.002426812 0.0018590229
-0.0051933094 -0.00012339721 0.001369028
-0.0002862454 0.00020566203 -0.002305934
0.0044572498 -0.0025913415 -0.0020609365
0.0035576213 0.0006992509 -1.9291039e-05
0.0031486992 -0.001521899 -0.0022242682
0.0057657999 -0.0022622822 -0.00034595432
-0.0057657999 0.002426812 -1.9291039e-05
0.0040483274 -0.0010283102 -1.9291039e-05
0.0047843871 -0.0030026655 -0.00050928595
0.0037211902 -0.0025090766 -1.9291039e-05
-0.0031486992 0.0016864286 -0.0014892758
-0.004130112 -0.00053472124 -0.0014892758
-0.0051933094 0.00028792684 -0.00042762017
-0.0024126398 -0.00094604533 -0.0015709416
-0.00094052055 0.0030849304 -0.0013259442
0.004702603 0.001933223 -1.9291039e-05
0.0050297403 0.0017686934 -1.9291039e-05
0.002085502 -0.00020566203 -0.002305934
0.00020446099 0.0030849304 -0.0017342733
0.001022305 -0.002426812 -0.0022242682
0.0056022312 0.0010283102 -0.00067261764
0.0025762084 -0.0017686934 -1.9291039e-05
0.00094052055 -0.0012751046 -1.9291039e-05
-0.0021672866 -0.002426812 -0.00099928095
0.0015947957 -0.0010283102 -1.9291039e-05
-0.0015947957 0.00045245644 -0.0015709416
0.0018401489 0.0031671952 -0.0012442784
0.00036802978 -0.0030026655 -1.9291039e-05
0.0039665434 -0.0017686934 -1.9291039e-05
0.004702603 -0.001521899 -0.0014892758
0.00053159858 0.0032494599 -0.00075428345
-0.00036802978 -0.00020566203 -1.9291039e-05
0.0051115248 0.0008637805 -1.9291039e-05
-0.0049479562 0.0011105749 -0.00099928095
0.0056840158 0.0008637805 -0.00067261764
-0.0055204467 -0.0017686934 -0.00050928595
0.0029033462 0.002426812 -0.0022242682
-0.00094052055 0.0023445471 -0.0022242682
0.001431227 0.0030849304 -0.0018159391
-0.001431227 0.0020154878 -0.0017342733
-0.0056840158 -0.0020977526 0.00096069882
0.0043754652 -0.00061698607 -0.0022242682
-0.0012676582 0.0026736064 -0.0022242682
-0.0052750935 0.0025090766 0.000879033
0.0029033462 -0.00037019164 -1.9291039e-05
0.00012267659 0.0016041638 -1.9291039e-05
0.0051115248 -0.00078151567 -0.00075428345
-0.0052750935 -0.0022622822 0.001369028
0.0013494425 0.0018509582 -1.9291039e-05
-0.0029851305 -0.0012751046 -0.00099928095
-0.0051115248 0.00053472124 -0.00140761
0.0050297403 -0.0020154878 -0.00067261764
-0.0051933094 -0.0021800175 -0.00140761
-0.0038029745 0.0022622822 -0.0010809468
-0.002657993 -0.0025090766 -0.00099928095
-0.00094052055 -0.0032494599 -0.00059095182
0.0017583645 0.0017686934 -1.9291039e-05
-0.0002862454 -0.001933223 -0.0022242682
-0.0042936807 0.00028792684 -0.00099928095
-0.0054386626 0.0011928397 -0.0013259442
0.004130112 -0.0011105749 -0.0022242682
0.00012267659 -0.0030849304 -0.001897605
-0.0051933094 -0.00037019164 -0.00018262268
-0.0012676582 -0.002426812 -0.00034595432
-0.0056022312 -0.0012751046 -0.0011626126
-0.0013494425 -0.00078151567 -0.00075428345
0.0011858738 -0.002426812 -1.9291039e-05
-0.0013494425 -0.001521899 -0.00075428345
-0.00085873617 -0.0018509582 -0.00018262268
-0.0019219334 0.0016864286 -0.00099928095
0.0045390339 -0.0025913415 -0.0020609365
0.0046208184 0.00078151567 -0.00099928095
0.00077695178 -0.0031671952 -0.0015709416
0.0057657999 0.00020566203 -0.00026428851
0.0042936807 0.0021800175 -0.0022242682
0.004702603 -0.0013573694 -0.00140761
-0.0054386626 0.0016864286 -0.00075428345
0.0037211902 -0.0006992509 -1.9291039e-05
0.0025762084 -0.0032494599 -0.00099928095
-0.0013494425 -0.0011105749 -0.00042762017
0.0029851305 -0.0020977526 -0.0022242682
0.00094052055 -0.0032494599 -0.00042762017
-0.0052750935 0.002426812 0.0030840102
0.0045390339 0.001521899 -0.0020609365
0.002657993 -0.001933223 -0.0022242682
-0.0033122681 -0.0030026655 -0.0013259442
-0.00061338296 0.0031671952 -0.0010809468
-0.0056022312 -0.0025090766 0.000879033
0.001431227 -0.0008637805 -1.9291039e-05
0.0047843871 0.0025913415 -0.00075428345
-0.0015130114 -0.0020154878 -0.00099928095
0.0018401489 -0.00045245644 -1.9291039e-05
-0.0012676582 -0.0018509582 -0.00042762017
-0.0051115248 -0.00037019164 -0.00083594926
-0.0013494425 0.0012751046 -0.00083594926
-0.002657993 0.00020566203 -0.0015709416
-0.0020037177 -0.0029204008 -0.0015709416
0.004702603 0.00028792684 -1.9291039e-05
-0.0013494425 -0.0020977526 -0.00067261764
-0.0038847588 0.0021800175 -0.0014892758
0.0049479562 0.00020566203 -1.9291039e-05
-0.00077695178 0.00061698607 -1.9291039e-05
-0.0050297403 -0.0020977526 -0.00083594926
0.0040483274 -0.00037019164 -0.0022242682
0.0020037177 0.001933223 -1.9291039e-05
0.0035576213 -0.002755871 -0.0020609365
0.0016765802 -0.0020977526 -1.9291039e-05
0.0033940524 -0.0016041638 -1.9291039e-05
-0.0043754652 0.002426812 -0.0014892758
0.0046208184 -0.0020977526 -0.0011626126
0.001431227 0.0031671952 -0.0017342733
-0.0051933094 -0.00028792684 -0.00140761
-0.0052750935 -0.0025090766 0.0001440406
0.0019219334 -0.002426812 -0.0022242682
0.0046208184 -0.0022622822 -0.0013259442
0.0051933094 0.00061698607 -0.00067261764
0.0046208184 -4.1132404e-05 -1.9291039e-05
0.00020446099 -0.00094604533 -1.9291039e-05
0.0038029745 0.00045245644 -0.0022242682
0.0012676582 -0.0021800175 -1.9291039e-05
-0.0055204467 0.0020154878 0.00055236975
0.0048661716 0.00094604533 -1.9291039e-05
-0.0057657999 0.0022622822 0.003165676
0.0024944241 0.0013573694 -0.0022242682
-0.0052750935 -0.00028792684 0.0028390128
-0.00077695178 0.00078151567 -0.0022242682
0.0030669149 -0.0012751046 -1.9291039e-05
-0.005356878 -0.001933223 -0.00034595432
-0.005356878 0.00061698607 -0.00067261764
-0.0020037177 -0.002426812 -0.00099928095
-0.0052750935 -0.002426812 0.0021856863
0.0015130114 0.0031671952 -0.00140761
0.00094052055 -0.0031671952 -0.0018159391
-0.0056840158 0.0020154878 0.0012873621
0.0050297403 0.0020977526 -1.9291039e-05
0.0033122681 0.001933223 -0.0022242682
0.0022490709 0.00020566203 -0.002305934
-0.0052750935 -0.0020154878 0.0016956913
-0.00085873617 0.0025913415 -0.0022242682
-0.0023308552 0.002426812 -0.00099928095
-0.0050297403 0.00053472124 -0.00140761
-0.0056840158 0.0025913415 -0.00050928595
-0.00044981419 -0.0031671952 -0.0012442784
-0.0012676582 -0.0025913415 -0.00091761508
-0.005356878 0.0018509582 -0.00026428851
0.00044981419 -0.0030026655 -0.0022242682
0.00036802978 0.0031671952 -0.0012442784
-0.00061338296 -0.0025090766 -0.0022242682
-0.0023308552 -4.1132404e-05 -0.00099928095
-0.0051933094 0.0020154878 -1.9291039e-05
-0.002085502 0.0025913415 -0.0015709416
-0.0052750935 0.0020154878 -0.0013259442
0.0052750935 0.0011105749 -0.00067261764
-0.0013494425 -0.00045245644 -0.0020609365
0.0017583645 0.0032494599 -0.0010809468
0.0024126398 -0.0026736064 -0.0022242682
0.0042936807 0.0011928397 -0.0022242682
0.0044572498 0.0011928397 -0.0022242682
0.0037211902 0.001933223 -0.0022242682
-0.0023308552 -0.0030026655 -0.0015709416
-0.0042118966 0.0020977526 -0.0010809468
-0.0047843871 0.0025913415 -0.00140761
0.0046208184 0.0011928397 -1.9291039e-05
-0.0048661716 0.00053472124 -0.00099928095
-0.0033122681 0.0030026655 -0.0013259442
-0.0031486992 -0.0028381359 -0.0014892758
0.0047843871 0.00094604533 -0.00091761508
0.0048661716 0.0030849304 -0.00026428851
0.0033940524 -0.00094604533 -1.9291039e-05
0.0013494425 0.00045245644 -1.9291039e-05
-0.0020037177 -0.001521899 -0.00099928095
-0.0034758369 0.0030026655 -0.0012442784
0.0039665434 -0.00045245644 -1.9291039e-05
0.0019219334 -0.00053472124 -0.002305934
-0.0051933094 -4.1132404e-05 0.0004707039
4.0892199e-05 0.00037019164 -0.002305934
0.0045390339 -0.002755871 -0.00026428851
-0.0011858738 0.0031671952 -0.00075428345
0.0025762084 0.0010283102 -0.002305934
0.0046208184 -0.0011105749 -0.0020609365
-0.0052750935 -0.00037019164 -0.00034595432
0.0031486992 0.0031671952 -0.0012442784
-0.0024126398 -0.0020154878 -0.00099928095
0.002085502 -0.0016041638 -1.9291039e-05
-0.0027397773 0.00028792684 -0.0014892758
0.0049479562 -0.0028381359 -0.00067261764
0.0015130114 0.0014396341 -0.002305934
0.0045390339 0.00028792684 -0.0022242682
0.0029033462 0.0031671952 -0.0010809468
0.0033940524 0.0030849304 -0.001897605
-0.0051933094 0.0025090766 -0.00083594926
0.0047843871 4.1132404e-05 -0.00083594926
0.0012676582 0.0017686934 -1.9291039e-05
0.00020446099 -0.0025090766 -1.9291039e-05
0.0024126398 0.0030849304 -0.0018159391
-0.0055204467 0.0025913415 0.0001440406
-0.0057657999 0.001933223 -0.00034595432
-0.0052750935 -0.0026736064 -0.00067261764
0.0016765802 -0.0026736064 -1.9291039e-05
0.0046208184 0.00037019164 -0.0016526075
0.0016765802 0.0006992509 -1.9291039e-05
-0.004702603 -0.00045245644 -0.00099928095
0.004702603 0.0018509582 -0.00083594926
0.0017583645 0.00053472124 -1.9291039e-05
-0.0036394056 0.00012339721 -0.0014892758
-0.0011040893 0.0011928397 -0.00010095686
0.0027397773 0.00037019164 -1.9291039e-05
-0.0037211902 0.0006992509 -0.0014892758
-0.0015130114 0.0008637805 -0.00099928095
-0.0027397773 -0.002755871 -0.00099928095
-0.00036802978 -0.0032494599 -0.00091761508
-0.0013494425 -0.0016041638 -0.00075428345
0.0002862454 -0.0013573694 -0.0022242682
-0.0051933094 0.00037019164 -0.00050928595
-0.0056022312 -0.0010283102 -0.0010809468
0.0056840158 0.0014396341 -0.00010095686
0.0025762084 -0.00012339721 -0.002305934
0.0031486992 -0.00094604533 -0.002305934
-0.0056022312 -0.001933223 0.002757347
-0.0017583645 0.0021800175 -0.00099928095
0.0038029745 0.0031671952 -0.0017342733
0.0023308552 -0.0020154878 -0.0022242682
0.0017583645 -0.0011928397 -1.9291039e-05
-0.0017583645 0.002426812 -0.0015709416
-0.0012676582 -0.0016041638 -0.0020609365
-0.0045390339 -0.00020566203 -0.0014892758
-0.0052750935 -0.0020154878 0.0020223546
-0.0051933094 0.00020566203 0.0012056963
-0.0054386626 -0.0013573694 -0.0013259442
0.0006951674 0.0016864286 -0.002305934
-0.0023308552 -0.0023445471 -0.00099928095
0.0039665434 -0.0013573694 -1.9291039e-05
-0.00012267659 -0.0032494599 -0.00067261764
0.0033940524 0.0010283102 -1.9291039e-05
0.0046208184 -0.0018509582 -0.0015709416
0.0042936807 0.0031671952 -0.00059095182
-0.0048661716 0.0016864286 -0.0010809468
0.0046208184 0.0025913415 -0.00091761508
-0.0033940524 0.0018509582 -0.00099928095
-0.0057657999 0.002426812 0.0017773571
-0.0051933094 -0.00045245644 -0.00067261764
0.00020446099 -0.0020154878 -1.9291039e-05
-0.0013494425 -0.00028792684 -0.00067261764
-0.0006951674 -0.0031671952 -0.00018262268
0.0033122681 -0.0028381359 -0.00018262268
-0.001431227 0.001521899 -0.0017342733
0.0020037177 -0.0025913415 -1.9291039e-05
-4.0892199e-05 0.0029204008 -0.0022242682
0.0057657999 -0.0021800175 -0.00042762017
-0.0028215616 -0.002426812 -0.0014892758
0.0057657999 4.1132404e-05 -0.00050928595
-0.0049479562 -0.0017686934 -0.00099928095
0.0047843871 0.0028381359 -0.00067261764
-0.0057657999 -0.0021800175 0.0033290077
0.0018401489 -0.0032494599 -0.00083594926
-0.00012267659 0.0030849304 -0.0019792707
-0.0051933094 0.0020154878 0.0014506938
0.0020037177 -0.0028381359 -0.0021426023
-0.005356878 -0.0026736064 -0.00091761508
-0.0052750935 0.0025090766 0.0029206786
0.0042118966 0.00028792684 -1.9291039e-05
0.0023308552 -0.0025913415 -0.0022242682
-0.0049479562 0.002755871 -0.0010809468
-0.0057657999 0.0023445471 -0.00018262268
-0.0029033462 0.0013573694 -0.00099928095
-0.0046208184 -0.00061698607 -0.0014892758
-0.00061338296 0.0032494599 -0.00026428851
0.0002862454 0.002755871 -1.9291039e-05
0.0047843871 -0.0006992509 -0.00091761508
-0.0028215616 0.0014396341 -0.0015709416
-0.0025762084 0.001521899 -0.0015709416
0.0011040893 0.0030849304 -0.0021426023
-0.00020446099 0.0032494599 -0.00091761508
-0.0052750935 -4.1132404e-05 0.0038190025
-0.0029851305 0.00078151567 -0.0015709416
0.0015947957 4.1132404e-05 -1.9291039e-05
-0.0057657999 0.00012339721 0.0034923393
-0.0057657999 0.0020977526 -0.00018262268
-0.0056022312 -0.00094604533 -0.0012442784
0.00085873617 -0.0025090766 -1.9291039e-05
0.0022490709 -4.1132404e-05 -0.0022242682
0.0020037177 0.0032494599 -0.00018262268
0.0018401489 -0.001521899 -0.0022242682
0.0049479562 0.00012339721 -0.00075428345
-0.0057657999 0.0020977526 0.0016140254
0.0022490709 0.0028381359 -1.9291039e-05
-0.0056022312 0.00028792684 0.0020223546
0.0051933094 -0.0028381359 -0.00042762017
0.0046208184 0.00028792684 -0.0012442784
0.0057657999 -0.001521899 -0.00026428851
-0.0056022312 -0.0018509582 -0.00099928095
-0.005356878 0.00028792684 0.0034923393
-0.0013494425 4.1132404e-05 -0.00018262268
0.00012267659 -0.0030849304 -0.00140761
0.0040483274 -0.0031671952 -0.00026428851
-0.0056840158 -0.002426812 0.0001440406
-0.0029033462 4.1132404e-05 -0.00099928095
-0.0051933094 0.00012339721 -0.00140761
-0.00044981419 0.0006992509 -1.9291039e-05
-0.001431227 -0.0011928397 -0.0016526075
0.00044981419 -0.002426812 -1.9291039e-05
0.0040483274 -0.00094604533 -0.0022242682
0.0038029745 -0.0016041638 -1.9291039e-05
0.004702603 0.0030849304 -0.00042762017
0.0027397773 0.00094604533 -1.9291039e-05
0.0020037177 -0.001933223 -0.0022242682
0.0056022312 -0.0025090766 -0.00042762017
0.0006951674 0.0021800175 -1.9291039e-05
-0.0052750935 -0.0020154878 0.0019406887
-0.0030669149 0.0008637805 -0.00099928095
0.0017583645 -0.0010283102 -0.0022242682
0.0013494425 0.0032494599 -0.00042762017
-0.0052750935 0.0020154878 0.000879033
0.0024944241 0.0032494599 -0.00091761508
0.0046208184 -0.0025090766 -0.0013259442
0.0038847588 -0.0030026655 -0.0018159391
0.0046208184 -0.0018509582 -0.0012442784
0.005356878 -0.00045245644 -0.00067261764
-0.001431227 -0.0021800175 -0.0015709416
-0.0011040893 0.00053472124 -0.00018262268
0.00061338296 -0.0010283102 -1.9291039e-05
0.0046208184 0.0008637805 -0.0015709416
-0.0033940524 -0.0030026655 -0.0013259442
0.0045390339 -0.0022622822 -1.9291039e-05
-0.0024944241 0.001933223 -0.0015709416
-0.0033940524 -0.00053472124 -0.00099928095
0.0038847588 0.0021800175 -0.0022242682
-0.001431227 0.0025090766 -0.0016526075
-0.0056022312 4.1132404e-05 -0.0010809468
-0.0056022312 0.00028792684 -0.0011626126
0.0029851305 0.0021800175 -0.0022242682
-0.0055204467 -0.001933223 0.0034923393
-0.00036802978 0.0010283102 -0.0022242682
-0.0057657999 0.0023445471 -1.9291039e-05
-0.0052750935 0.00028792684 0.0025940153
0.0011040893 0.0013573694 -0.002305934
-0.0055204467 -0.00028792684 0.0029206786
-0.0048661716 0.002755871 -0.0010809468
0.0028215616 0.0023445471 -1.9291039e-05
-0.00036802978 -0.0032494599 -0.00059095182
0.00044981419 0.00037019164 -0.002305934
-0.0056022312 -0.00045245644 -0.0010809468
-4.0892199e-05 0.00045245644 -0.002305934
-0.001022305 -0.0013573694 -0.0022242682
0.00044981419 0.00012339721 -0.002305934
-4.0892199e-05 0.0032494599 -0.00075428345
-0.00053159858 0.00061698607 -0.0022242682
-0.0056840158 0.00028792684 6.2374784e-05
-0.0024126398 -0.0030849304 -0.0011626126
0.0047843871 0.0011928397 -0.00091761508
-0.0052750935 0.0014396341 -0.00140761
0.0037211902 0.0014396341 -1.9291039e-05
-0.0056840158 -0.002426812 0.0030840102
0.0050297403 0.0029204008 -0.00059095182
-0.0018401489 4.1132404e-05 -0.0015709416
-0.0054386626 -0.0020154878 0.0036556709
-0.0056840158 0.00037019164 -0.00018262268
-0.0051933094 -0.0020977526 0.002757347
-0.0029851305 -0.00053472124 -0.00099928095
-0.0027397773 0.0025090766 -0.00099928095
0.0033940524 0.0013573694 -1.9291039e-05
-0.0051115248 -0.0025913415 -0.00091761508
-4.0892199e-05 0.0014396341 -1.9291039e-05
-0.0019219334 -0.0012751046 -0.00099928095
0.0017583645 0.0030849304 -0.001897605
0.001431227 -0.001933223 -0.0022242682
0.0057657999 -0.00078151567 -0.00042762017
0.0050297403 -0.0029204008 -0.00050928595
-0.00077695178 0.00020566203 -0.00010095686
-0.0024126398 0.0028381359 -0.00099928095
-0.0013494425 -0.00078151567 -0.001897605
0.0027397773 0.0028381359 -1.9291039e-05
0.0038847588 -0.0006992509 -0.002305934
-0.0031486992 0.00012339721 -0.00099928095
0.0043754652 0.0030849304 -0.0011626126
-0.0045390339 -0.0016864286 -0.0014892758
0.00094052055 -0.0031671952 -0.0014892758
-0.0013494425 -0.00078151567 -0.0020609365
-0.0056840158 -0.002426812 0.0035740051
0.00085873617 0.001933223 -0.0022242682
-0.0057657999 -0.00012339721 -0.00067261764
-0.0046208184 -0.0014396341 -0.00099928095
0.0030669149 0.002426812 -1.9291039e-05
-0.0016765802 -0.0029204008 -0.0015709416
-0.0020037177 0.0030849304 -0.00140761
0.0002862454 -0.0030026655 -1.9291039e-05
0.0044572498 -0.00012339721 -0.0022242682
0.002085502 0.001933223 -1.9291039e-05
-0.005356878 -0.00045245644 -0.00034595432
-0.0034758369 -0.0016864286 -0.0014892758
0.0029851305 -0.0022622822 -1.9291039e-05
-0.0042118966 0.0028381359 -0.0011626126
-0.0015947957 0.002755871 -0.00099928095
0.00053159858 -0.00020566203 -0.002305934
0.0046208184 -0.0017686934 -1.9291039e-05
-0.0023308552 -0.0012751046 -0.00099928095
-0.0052750935 -0.00028792684 0.0019406887
-0.005356878 0.00061698607 -0.00018262268
0.0040483274 0.0016864286 -1.9291039e-05
-0.0057657999 0.0020977526 0.0024306837
0.0018401489 -0.0031671952 -0.0013259442
-0.00085873617 -0.00045245644 -1.9291039e-05
0.0015947957 -0.00037019164 -1.9291039e-05
0.004702603 -0.0011105749 -0.0015709416
-0.004702603 -0.0008637805 -0.00099928095
-0.001431227 0.00094604533 -0.00099928095
0.0020037177 -0.0020154878 -1.9291039e-05
4.0892199e-05 0.0032494599 -0.00067261764
0.002085502 0.0030849304 -0.0020609365
-0.0038029745 -0.0029204008 -0.0010809468
-0.0029033462 -0.002426812 -0.00099928095
-0.0029851305 0.0011105749 -0.0015709416
0.00020446099 -4.1132404e-05 -0.002305934
0.0040483274 0.001521899 -0.0022242682
-0.0013494425 0.0021800175 -0.0020609365
0.001022305 -0.0025090766 -0.0022242682
0.0018401489 0.0017686934 -1.9291039e-05
-0.0021672866 0.00020566203 -0.00099928095
-0.0020037177 -0.0025913415 -0.0015709416
-0.0030669149 0.0006992509 -0.0015709416
-0.0023308552 -0.00053472124 -0.00099928095
-0.0049479562 4.1132404e-05 -0.0014892758
-0.0015947957 0.0013573694 -0.00099928095
-0.0018401489 -0.0030849304 -0.0013259442
0.0006951674 0.0031671952 -0.0014892758
-0.0055204467 0.00028792684 0.0014506938
-0.00036802978 -0.0010283102 -1.9291039e-05
-0.004130112 -0.0011105749 -0.00099928095
0.004702603 -0.0011105749 -0.0017342733
-0.0051115248 0.00028792684 -0.00067261764
0.0020037177 -0.0032494599 -0.00026428851
0.0036394056 -0.0031671952 -0.00091761508
0.001431227 -0.0025090766 -0.0022242682
-4.0892199e-05 0.0020154878 -0.0022242682
-0.0052750935 -0.00028792684 0.00030737225
0.0029033462 -0.002426812 -1.9291039e-05
0.0002862454 0.00012339721 -1.9291039e-05
0.00061338296 -0.0017686934 -0.0022242682
-0.0033122681 0.00012339721 -0.00099928095
-0.0056022312 -0.00078151567 -0.00099928095
-0.0021672866 0.00078151567 -0.0015709416
0.0031486992 -0.0030849304 -0.0015709416
0.0013494425 -0.0031671952 -0.0018159391
-0.0056840158 0.00037019164 -0.00050928595
0.0011040893 -0.0011928397 -1.9291039e-05
-0.0011040893 0.00094604533 -1.9291039e-05
0.00036802978 0.001521899 -1.9291039e-05
-0.0034758369 0.0025090766 -0.0010809468
0.0055204467 0.002426812 -0.00018262268
-0.0054386626 -0.0020154878 0.0015323596
-0.005356878 0.00037019164 -1.9291039e-05
-0.0027397773 0.0013573694 -0.0015709416
-0.00061338296 0.0018509582 -1.9291039e-05
-0.0031486992 0.0021800175 -0.0014892758
-0.0037211902 -0.0008637805 -0.00099928095
0.00053159858 -0.00028792684 -1.9291039e-05
0.0049479562 0.00061698607 -1.9291039e-05
0.0036394056 -0.0030849304 -0.00026428851
0.0031486992 0.0010283102 -1.9291039e-05
-0.00020446099 -0.0031671952 -0.00018262268
0.001022305 -0.0014396341 -0.0022242682
0.0017583645 -0.0012751046 -0.002305934
-0.002085502 -0.0026736064 -0.00099928095
0.0021672866 -0.0032494599 -0.00059095182
0.00077695178 -0.00045245644 -1.9291039e-05
0.0052750935 0.0018509582 -1.9291039e-05
-0.0042118966 -0.001521899 -0.0014892758
-0.0040483274 -0.0026736064 -0.00099928095
-0.0022490709 0.001933223 -0.00099928095
-0.0042118966 -4.1132404e-05 -0.0014892758
-0.0017583645 -0.00078151567 -0.00099928095
-0.0028215616 -0.0026736064 -0.00099928095
0.0050297403 -0.0025090766 -0.00067261764
0.00012267659 -0.0030849304 -0.0019792707
0.0035576213 0.00061698607 -0.0022242682
0.0046208184 0.00078151567 -0.0010809468
0.0042936807 0.00037019164 -1.9291039e-05
-0.0039665434 -0.00061698607 -0.0014892758
0.0012676582 0.0032494599 -0.00042762017
0.0049479562 0.0026736064 -1.9291039e-05
0.0032304837 -0.0031671952 -0.0010809468
0.00077695178 -0.0017686934 -0.0022242682
-0.0052750935 -0.0025913415 0.0018590229
-0.0055204467 -0.001933223 0.00096069882
0.0011040893 -0.0006992509 -0.002305934
-0.0055204467 -0.0020154878 -0.0012442784
0.004702603 -0.001521899 -0.0013259442
-0.0052750935 0.0020154878 0.0034106735
-0.0045390339 0.002755871 -0.00099928095
0.0038847588 0.0012751046 -0.0022242682
0.0030669149 -0.00028792684 -0.002305934
0.00061338296 0.0030849304 -0.0019792707
0.0016765802 -0.0011105749 -1.9291039e-05
0.0037211902 -0.0031671952 -0.00091761508
-0.00077695178 0.0026736064 -0.0022242682
-0.0011040893 0.00012339721 -0.00018262268
-0.0021672866 -0.0026736064 -0.0015709416
-0.0052750935 -0.0020154878 0.0015323596
-0.0029033462 0.0023445471 -0.00099928095
0.0036394056 -0.00061698607 -1.9291039e-05
-0.0051933094 -0.00028792684 0.0034106735
0.0046208184 0.0031671952 -0.00050928595
-0.0056022312 0.0025913415 0.0025123495
-0.0052750935 -0.00028792684 -0.00034595432
-0.0055204467 0.0025913415 0.00055236975
0.001431227 -0.0028381359 -1.9291039e-05
0.00094052055 0.0008637805 -1.9291039e-05
-0.0024944241 0.001933223 -0.00099928095
0.005356878 -0.0025913415 -0.00026428851
0.002657993 0.0032494599 -0.00059095182
0.0047843871 -0.0025913415 -0.00018262268
0.0039665434 -0.002755871 -0.0020609365
0.00012267659 -0.0030849304 -0.0010809468
-0.0022490709 -0.00012339721 -0.0015709416
0.0045390339 0.0025913415 -0.0011626126
0.0038847588 -0.0023445471 -0.0022242682
-0.002085502 0.0026736064 -0.0015709416
-0.00085873617 0.0006992509 -0.00010095686
-0.00061338296 -0.00053472124 -0.002305934
-0.0021672866 -0.001933223 -0.0015709416
0.0046208184 0.00012339721 -0.0011626126
-0.0028215616 -0.0023445471 -0.0014892758
-0.0012676582 0.0020154878 -0.0022242682
0.0051115248 -0.00053472124 -0.00075428345
-0.0015947957 0.0017686934 -0.00099928095
-0.0025762084 -0.0028381359 -0.00099928095
0.0056840158 -0.0008637805 -0.00067261764
-0.0057657999 0.0025090766 0.0033290077
0.0037211902 -0.0020154878 -0.0022242682
-0.002657993 0.0018509582 -0.00099928095
0.0051933094 0.00053472124 -1.9291039e-05
0.0044572498 0.00028792684 -1.9291039e-05
0.0045390339 0.0030026655 -1.9291039e-05
-0.0040483274 0.0017686934 -0.00099928095
-0.0052750935 -0.002426812 -0.00010095686
0.0011858738 -0.0016864286 -1.9291039e-05
0.0030669149 -0.00045245644 -1.9291039e-05
-0.0021672866 0.002426812 -0.00099928095
-0.0046208184 -0.002755871 -0.0010809468
-0.0057657999 4.1132404e-05 0.0037373367
-0.0011040893 -0.0031671952 -0.00034595432
-0.0043754652 0.00094604533 -0.00099928095
-0.0027397773 0.001933223 -0.00099928095
0.0030669149 0.0030849304 -0.001897605
0.0022490709 0.0029204008 -1.9291039e-05
0.0039665434 -0.001521899 -0.0022242682
0.004702603 -4.1132404e-05 -0.00091761508
0.0015130114 -0.0031671952 -0.0014892758
0.0021672866 0.0026736064 -0.002305934
0.00085873617 -0.001933223 -1.9291039e-05
0.0029033462 -0.0031671952 -0.0016526075
0.0046208184 0.002426812 -0.00099928095
0.004130112 -0.0013573694 -0.0022242682
-0.0024944241 -0.00094604533 -0.00099928095
-0.0051933094 0.0026736064 -0.0012442784
0.0034758369 -0.0030849304 -0.0011626126
0.002657993 0.0032494599 -0.00099928095
-0.0033940524 0.0021800175 -0.0014892758
0.0039665434 -0.0022622822 -0.0022242682
-0.0057657999 0.00020566203 -0.00026428851
0.0024126398 0.0023445471 -1.9291039e-05
0.0039665434 -0.0008637805 -0.0022242682
-0.00077695178 0.0011105749 -1.9291039e-05
4.0892199e-05 -0.002426812 -0.0022242682
-0.0054386626 0.00028792684 0.0012873621
0.0035576213 0.0031671952 -0.0011626126
-0.0032304837 0.0006992509 -0.00099928095
0.0027397773 0.0022622822 -1.9291039e-05
0.0042118966 -0.0021800175 -1.9291039e-05
-0.0028215616 0.0022622822 -0.00099928095
-0.0052750935 0.0021800175 0.0012056963
0.0047843871 -0.0016864286 -0.00091761508
0.0038029745 0.0031671952 -0.0013259442
0.00061338296 -0.0011928397 -0.0022242682
-0.0055204467 0.00028792684 0.0026756811
0.00061338296 0.0026736064 -0.0022242682
0.0054386626 0.002755871 -0.00034595432
0.004702603 0.0020977526 -0.00091761508
0.00094052055 0.0020154878 -1.9291039e-05
0.0039665434 0.0014396341 -0.0022242682
-0.0002862454 0.0032494599 -0.00067261764
0.0046208184 -4.1132404e-05 -0.0010809468
-0.0012676582 0.0026736064 -0.00034595432
0.0035576213 0.0012751046 -1.9291039e-05
0.0045390339 0.0018509582 -0.0019792707
-0.0011040893 0.0030849304 -0.00140761
-0.0021672866 -0.00061698607 -0.00099928095
-0.0057657999 -0.0022622822 0.0020223546
0.00012267659 0.0011928397 -1.9291039e-05
-0.0052750935 0.002426812 0.00096069882
-0.0047843871 -0.0008637805 -0.00099928095
0.0048661716 0.0016864286 -1.9291039e-05
-0.0057657999 -0.00020566203 0.0012873621
-0.0052750935 -0.0023445471 0.0036556709
-0.0042936807 -0.00045245644 -0.0014892758
-0.0056022312 0.0017686934 -0.00075428345
0.0002862454 0.0028381359 -1.9291039e-05
-0.0056840158 0.00028792684 0.0033290077
-0.0056840158 -0.001933223 -0.00050928595
-0.00085873617 0.00045245644 -0.00010095686
-0.0043754652 0.0011105749 -0.0014892758
-0.0055204467 -0.00028792684 0.0001440406
0.0017583645 0.0020977526 -1.9291039e-05
0.0042936807 -0.0029204008 -0.0020609365
-0.0019219334 0.0029204008 -0.0014892758
-0.0015130114 0.00028792684 -0.0016526075
-0.0032304837 -0.0012751046 -0.0015709416
-0.0051933094 4.1132404e-05 0.0018590229
0.0015130114 -0.00012339721 -1.9291039e-05
0.0051115248 -0.0006992509 -1.9291039e-05
-0.0051933094 0.00012339721 0.0011240304
0.00085873617 -0.0032494599 -0.00091761508
-0.0011858738 0.0008637805 -0.00018262268
0.00053159858 -4.1132404e-05 -0.002305934
-0.0057657999 0.0020977526 0.0035740051
-0.0017583645 -0.0030026655 -0.00099928095
-0.00036802978 0.0030849304 -0.0018159391
0.0043754652 0.0012751046 -1.9291039e-05
0.004130112 -0.0010283102 -1.9291039e-05
0.0056840158 0.001933223 -0.00018262268
-0.00020446099 0.0030849304 -0.0018159391
0.002657993 -0.00094604533 -0.0022242682
0.0032304837 0.0008637805 -1.9291039e-05
0.0042118966 0.0030849304 -0.0018159391
-0.005356878 -0.0025913415 0.0020223546
0.0025762084 0.0030849304 -0.0020609365
0.0006951674 -0.0031671952 -1.9291039e-05
0.0033940524 -0.0028381359 -0.0020609365
0.0057657999 -0.0011928397 -0.00050928595
0.002657993 -0.00053472124 -1.9291039e-05
0.0036394056 -0.0018509582 -1.9291039e-05
-0.0055204467 0.0025913415 0.0037373367
-0.0051933094 -0.0021800175 0.0032473418
0.0046208184 0.0016864286 -0.001897605
0.0040483274 -0.0025090766 -1.9291039e-05
-0.0055204467 0.00061698607 -0.00050928595
-0.001431227 0.0030849304 -0.0014892758
-0.0054386626 0.0011928397 -0.00099928095
-0.0038847588 0.0011928397 -0.00099928095
0.0029033462 -0.0026736064 -0.0021426023
-0.0028215616 -0.0013573694 -0.00099928095
0.0048661716 -0.00020566203 -1.9291039e-05
0.00053159858 0.0014396341 -0.002305934
0.0019219334 0.00028792684 -0.002305934
-0.0024126398 0.0011928397 -0.0015709416
-4.0892199e-05 -0.0032494599 -0.00099928095
-0.0012676582 -0.0031671952 -0.0014892758
0.00044981419 0.0011928397 -0.002305934
0.0045390339 0.0029204008 -0.00083594926
-0.0057657999 0.0023445471 0.0018590229
0.0011040893 -0.00045245644 -0.002305934
0.005356878 -0.00061698607 -1.9291039e-05
0.0039665434 0.0006992509 -1.9291039e-05
-0.0011858738 0.0016041638 -0.00018262268
-0.0030669149 -0.0029204008 -0.00099928095
0.0045390339 -0.0029204008 -0.0016526075
-0.005356878 0.0020154878 0.00038903806
4.0892199e-05 0.001933223 -0.0022242682
-0.0023308552 -0.0025913415 -0.00099928095
0.00094052055 0.002426812 -0.0022242682
-0.00085873617 0.0026736064 -0.0022242682
0.0011858738 0.0028381359 -1.9291039e-05
-0.00020446099 0.0029204008 -0.0022242682
-0.005356878 -0.00028792684 0.0028390128
-0.0051933094 -4.1132404e-05 0.0011240304
-0.0039665434 -0.0018509582 -0.00099928095
0.0024944241 0.0031671952 -0.0015709416
-0.0046208184 0.0023445471 -0.00140761
0.00085873617 -0.002426812 -1.9291039e-05
-0.0006951674 -0.0011105749 -0.0022242682
-0.00020446099 -0.001521899 -1.9291039e-05
-0.00044981419 -0.00045245644 -0.002305934
-0.0052750935 0.00020566203 0.0038190025
-0.0020037177 -0.00012339721 -0.0015709416
-0.0012676582 0.0022622822 -0.00018262268
0.0032304837 0.00045245644 -0.0022242682
0.0044572498 0.00053472124 -1.9291039e-05
0.0002862454 -0.0030849304 -0.0018159391
-0.0042936807 0.0028381359 -0.0012442784
-0.0017583645 -0.0008637805 -0.0015709416
0.0051115248 0.0030026655 -0.00026428851
0.005356878 -0.0013573694 -1.9291039e-05
0.00053159858 -0.0014396341 -1.9291039e-05
-0.004130112 0.0025913415 -0.00140761
-0.0017583645 -0.00020566203 -0.00099928095
0.00085873617 -0.0031671952 -0.0017342733
0.00012267659 0.00053472124 -0.002305934
-0.0051933094 -0.00037019164 -0.00140761
-0.004702603 0.0020154878 -0.00099928095
-0.0013494425 0.0025090766 -0.001897605
-0.0052750935 -0.0023445471 -0.00050928595
0.0024126398 -0.0032494599 -0.00099928095
0.001431227 0.0030849304 -1.9291039e-05
0.0036394056 0.0006992509 -1.9291039e-05
-0.0012676582 -0.0028381359 -0.00042762017
0.0016765802 0.0020154878 -0.002305934
-0.0057657999 0.0020977526 0.0015323596
-0.0052750935 -0.0020154878 0.0016140254
0.00094052055 0.00028792684 -1.9291039e-05
-0.0057657999 4.1132404e-05 0.0004707039
-0.0055204467 0.0025913415 0.0011240304
-0.0029851305 0.00020566203 -0.00099928095
-0.0057657999 0.002426812 0.0025940153
0.0015130114 0.00028792684 -1.9291039e-05
-0.0038847588 -0.0012751046 -0.00099928095
-0.002085502 0.00012339721 -0.0015709416
0.0025762084 -0.002755871 -1.9291039e-05
0.00061338296 0.0032494599 -0.00059095182
-0.0056840158 -0.0023445471 0.001369028
0.002657993 0.002755871 -0.0022242682
0.0029033462 -0.0031671952 -0.00140761
-0.0052750935 -0.002426812 0.0025123495
-0.0018401489 -0.0018509582 -0.0015709416
-0.0051933094 -0.0021800175 0.00038903806
0.0044572498 0.0030026655 -0.0012442784
0.0038847588 0.00078151567 -1.9291039e-05
-0.0050297403 -0.0023445471 -0.00091761508
0.0056840158 0.0014396341 -0.00059095182
-0.0051933094 -0.00053472124 -0.00140761
-0.0052750935 -0.0023445471 0.0025940153
-0.0055204467 0.0011105749 -0.00099928095
-0.0033940524 0.0028381359 -0.00140761
-0.0039665434 -0.00045245644 -0.0014892758
0.001022305 0.00078151567 -1.9291039e-05
-0.0054386626 0.0025913415 0.0015323596
0.0032304837 -0.0022622822 -0.0022242682
-0.0036394056 0.0021800175 -0.0010809468
-0.0052750935 0.002426812 -0.00042762017
0.0022490709 0.0018509582 -1.9291039e-05
-0.0052750935 0.0020977526 0.00030737225
-0.0047843871 0.0020977526 -0.00099928095
-0.0029033462 0.0011105749 -0.00099928095
0.0051115248 -0.0016864286 -0.00067261764
-0.0057657999 4.1132404e-05 0.0034106735
0.0024126398 0.00061698607 -0.002305934
-0.0037211902 -0.00012339721 -0.00099928095
-0.0052750935 -0.0017686934 -0.00083594926
0.0044572498 0.00012339721 -0.0022242682
-0.0055204467 0.0023445471 -0.0010809468
0.0051115248 0.0016041638 -1.9291039e-05
-0.0013494425 0.0006992509 -0.0021426023
0.0044572498 -0.0030026655 -0.0010809468
-0.0047843871 0.00094604533 -0.00099928095
-0.0018401489 -0.00053472124 -0.00099928095
-0.0047843871 -0.0021800175 -0.0014892758
0.004130112 -0.0030849304 -0.00067261764
0.0022490709 -0.0026736064 -0.0022242682
-0.0018401489 -0.0025090766 -0.0015709416
0.0035576213 -0.0030849304 -0.0019792707
-0.0055204467 -0.0020154878 0.0025940153
-0.00085873617 0.0023445471 -0.0022242682
-0.0043754652 -0.0026736064 -0.0014892758
-0.0054386626 0.0020154878 0.0033290077
-0.0051933094 0.00037019164 -0.00042762017
0.0037211902 -0.0021800175 -0.0022242682
0.0021672866 -0.0006992509 -0.002305934
0.0006951674 -0.0031671952 -0.0017342733
0.0029851305 0.0013573694 -1.9291039e-05
0.0056022312 -0.0014396341 -0.00067261764
-0.0048661716 0.0011105749 -0.0014892758
0.0020037177 0.00045245644 -0.002305934
-0.0025762084 -0.0016041638 -0.0015709416
-0.0015947957 0.0020977526 -0.0015709416
0.0027397773 0.0014396341 -1.9291039e-05
-0.0057657999 0.00012339721 0.0032473418
0.0033122681 -0.0031671952 -0.0010809468
-0.0042118966 -0.0008637805 -0.00099928095
0.0050297403 0.00061698607 -1.9291039e-05
-0.0057657999 -4.1132404e-05 0.0024306837
-0.0021672866 0.0029204008 -0.00099928095
-0.001022305 -0.0032494599 -0.00083594926
-0.0036394056 -0.0026736064 -0.00099928095
-0.0052750935 -0.00028792684 0.00063403556
0.0024944241 0.002426812 -0.0022242682
-0.0042936807 0.0026736064 -0.00140761
0.0015947957 0.0030849304 -0.0019792707
-0.0057657999 0.002426812 -0.00010095686
0.0057657999 0.0010283102 -0.00059095182
-0.0052750935 -0.0020154878 0.0004707039
0.0056840158 0.00020566203 -0.00067261764
0.0012676582 -0.0016041638 -0.0022242682
-0.00036802978 0.0020977526 -0.0022242682
-0.001431227 -0.0022622822 -0.0015709416
0.0024126398 -0.0028381359 -0.0020609365
0.001431227 -0.0016041638 -1.9291039e-05
-0.0011858738 0.002426812 -0.0022242682
-0.0057657999 -0.0021800175 0.0015323596
-0.0047843871 -4.1132404e-05 -0.00099928095
-0.0052750935 -0.0022622822 0.0020223546
-0.0029851305 0.0013573694 -0.00099928095
-0.0047843871 0.0008637805 -0.0014892758
-0.00094052055 -0.0011928397 -0.00018262268
-0.0055204467 0.0025913415 0.0019406887
-0.0051933094 -0.00037019164 -0.00075428345
0.0024126398 0.0025090766 -0.0022242682
-0.005356878 -0.0025913415 0.00063403556
-0.0002862454 -0.0030849304 -0.00140761
0.0048661716 -0.0025090766 -0.00075428345
0.0046208184 0.00037019164 -0.0012442784
-0.0050297403 0.00012339721 -0.0014892758
0.0038029745 0.0025913415 -0.0022242682
-0.0051933094 0.00020566203 0.0016140254
-0.0057657999 0.00012339721 -0.00010095686
-0.0002862454 -0.0023445471 -0.0022242682
-0.0056022312 -0.0025913415 0.0025940153
0.00036802978 -0.0028381359 -1.9291039e-05
0.00012267659 0.0029204008 -1.9291039e-05
0.0037211902 0.0016864286 -0.0022242682
0.0027397773 -0.0030849304 -0.00026428851
0.0055204467 -0.0025090766 -0.00059095182
-0.0011040893 0.0010283102 -0.00010095686
-0.0018401489 0.0029204008 -0.0014892758
0.0049479562 0.0030849304 -0.00050928595
0.005356878 0.0013573694 -0.00067261764
-0.0052750935 0.0023445471 0.0011240304
-0.0012676582 -0.002755871 -0.00034595432
0.0051933094 0.0025090766 -0.00067261764
0.0023308552 -0.002755871 -0.0021426023
-0.0057657999 -0.0022622822 0.0015323596
0.0057657999 -0.0010283102 -0.00067261764
0.004130112 -0.002755871 -0.0020609365
-0.005356878 0.0011105749 -0.00099928095
-0.0038029745 -0.0018509582 -0.00099928095
0.0031486992 0.00028792684 -0.002305934
0.0050297403 0.00053472124 -1.9291039e-05
0.00044981419 -0.0014396341 -0.0022242682
-0.0006951674 0.00045245644 -1.9291039e-05
-0.0052750935 -0.00053472124 -0.00050928595
0.00085873617 -0.0029204008 -0.0022242682
-0.0056840158 -0.002426812 0.0028390128
0.0051115248 -0.00061698607 -1.9291039e-05
-0.001431227 -0.002755871 -0.0015709416
-0.0040483274 -0.0029204008 -0.0013259442
-0.004702603 -0.0017686934 -0.0014892758
0.00036802978 -0.0010283102 -0.0022242682
-0.0057657999 -0.00037019164 -0.00026428851
0.0024944241 0.0030849304 -0.001897605
-0.0015130114 0.0006992509 -0.0016526075
-0.0052750935 0.0020154878 0.0020223546
0.0013494425 0.00028792684 -0.002305934
0.0029851305 0.0032494599 -0.00042762017
-0.0056840158 -0.0017686934 -0.00075428345
0.0052750935 -0.002755871 -0.00034595432
-0.0011040893 0.0016041638 -0.0022242682
0.00012267659 0.0030849304 -0.0021426023
-0.005356878 0.00028792684 0.00030737225
0.0024126398 0.0008637805 -0.0022242682
-0.0056840158 -0.002426812 -0.00075428345
0.0052750935 -0.0010283102 -0.00067261764
0.0055204467 -0.001521899 -1.9291039e-05
0.0047843871 -0.0010283102 -0.00091761508
-0.0030669149 -0.0011928397 -0.0015709416
-0.0038029745 0.00037019164 -0.0014892758
0.00061338296 0.0011928397 -0.002305934
-0.0055204467 0.0020154878 0.0012056963
0.0029033462 0.0031671952 -0.0011626126
-0.0031486992 -0.0011928397 -0.0014892758
0.0018401489 0.00094604533 -0.002305934
-0.001431227 0.0030849304 -0.00140761
-0.0052750935 -0.0022622822 -0.00026428851
0.0056022312 -0.00037019164 -1.9291039e-05
-0.0048661716 0.001521899 -0.00099928095
-0.001431227 0.002755871 -0.0015709416
-0.0042118966 -4.1132404e-05 -0.00099928095
-0.00077695178 -0.0030849304 -0.00018262268
0.0056022312 0.0016864286 -1.9291039e-05
-0.0052750935 0.0010283102 -0.00140761
-0.005356878 -0.0008637805 -0.00099928095
0.0039665434 0.00053472124 -0.0022242682
0.0015947957 -0.0030849304 -0.0020609365
0.0038847588 -0.0028381359 -0.00026428851
0.0027397773 -0.0028381359 -1.9291039e-05
0.0047843871 0.0017686934 -0.00075428345
0.0043754652 0.00094604533 -0.0022242682
0.00061338296 -0.0031671952 -0.00010095686
-0.00020446099 0.0030026655 -0.0022242682
-0.0024126398 0.0030849304 -0.0014892758
0.0031486992 -0.0011105749 -1.9291039e-05
-0.0057657999 0.0023445471 0.0033290077
-0.0056022312 -0.00020566203 0.0038190025
-0.0013494425 0.0012751046 -0.00018262268
-0.0015947957 0.0028381359 -0.0015709416
-0.0056840158 -0.00037019164 -0.00083594926
-0.0015130114 0.0030849304 -0.00140761
0.0024126398 -0.0020977526 -0.0022242682
0.0029851305 -0.0021800175 -1.9291039e-05
0.0017583645 -0.00094604533 -1.9291039e-05
0.0038847588 0.0025090766 -1.9291039e-05
0.0015947957 0.0028381359 -0.0022242682
0.0057657999 -0.0017686934 -0.00067261764
0.0052750935 0.00012339721 -1.9291039e-05
-0.00077695178 0.0030026655 -0.0020609365
-4.0892199e-05 0.0030849304 -0.0017342733
-0.00053159858 0.0028381359 -0.0022242682
0.0030669149 0.0031671952 -0.0013259442
-0.00036802978 -0.002426812 -0.0022242682
-0.0056022312 -0.00028792684 0.00079736719
4.0892199e-05 0.0030849304 -0.0016526075
0.0024944241 -0.0025913415 -1.9291039e-05
0.0051933094 -0.002426812 -0.00018262268
0.00036802978 0.00028792684 -0.002305934
0.0015130114 -0.0012751046 -1.9291039e-05
-0.0034758369 0.0030026655 -0.0011626126
-0.005356878 -0.002755871 -0.00010095686
-0.0051933094 0.00053472124 -0.00140761
0.0043754652 -0.0016041638 -1.9291039e-05
-0.0011040893 -0.00061698607 -0.0022242682
-0.001022305 -0.0031671952 -0.00018262268
0.0011858738 -0.0026736064 -0.0022242682
-0.0050297403 -0.0021800175 -0.0014892758
0.0021672866 0.0030849304 -0.0020609365
0.0028215616 -0.0006992509 -0.002305934
-0.0032304837 0.0011928397 -0.00099928095
-0.0051115248 -0.002426812 -0.00140761
-0.0012676582 -0.0021800175 -0.001897605
-0.0025762084 0.00078151567 -0.0015709416
0.00061338296 0.0006992509 -1.9291039e-05
-0.00012267659 0.0025913415 -1.9291039e-05
-0.0051933094 -0.0020977526 0.0033290077
0.0024944241 -0.00094604533 -1.9291039e-05
-0.0054386626 0.0025913415 -0.0010809468
0.0047843871 0.00078151567 -1.9291039e-05
0.0021672866 0.0026736064 -1.9291039e-05
0.00085873617 0.0021800175 -1.9291039e-05
-0.0021672866 0.0012751046 -0.0015709416
0.00044981419 0.00078151567 -1.9291039e-05
-0.00077695178 0.001933223 -1.9291039e-05
0.0006951674 0.0032494599 -0.00067261764
0.0054386626 0.0016864286 -0.00067261764
-0.0013494425 -0.00045245644 -0.001897605
0.0016765802 -0.0030849304 -0.00018262268
-0.0015947957 -0.0020154878 -0.0015709416
-0.0017583645 -0.0012751046 -0.00099928095
0.0020037177 -0.00094604533 -1.9291039e-05
0.0048661716 0.0018509582 -1.9291039e-05
0.0042936807 -0.0030026655 -0.00026428851
0.0035576213 -0.0031671952 -0.00050928595
-0.0051115248 -0.00045245644 -0.00083594926
0.0006951674 0.00012339721 -1.9291039e-05
0.0045390339 0.0028381359 -0.00140761
-0.0029033462 0.00028792684 -0.0015709416
0.0027397773 -0.0020154878 -1.9291039e-05
-0.0029851305 -0.0029204008 -0.00099928095
0.001022305 0.00037019164 -0.002305934
-0.0019219334 0.001521899 -0.00099928095
0.0055204467 -0.0006992509 -1.9291039e-05
-0.0013494425 -0.00012339721 -0.00026428851
-0.002657993 0.0029204008 -0.0010809468
-0.0019219334 -0.00012339721 -0.0015709416
-0.0052750935 0.002426812 0.0028390128
-0.0018401489 -0.001521899 -0.0015709416
-0.0057657999 0.001933223 -0.00042762017
0.001022305 0.0032494599 -0.00034595432
0.0002862454 -0.0030849304 -0.00140761
-0.00012267659 -0.00045245644 -1.9291039e-05
0.0017583645 0.00094604533 -0.002305934
0.0029033462 0.0031671952 -0.00140761
0.0050297403 -0.0011928397 -0.00075428345
-0.00077695178 -0.0032494599 -0.00099928095
-0.0030669149 -0.0025090766 -0.00099928095
-0.0047843871 -0.0026736064 -0.00140761
0.0040483274 -0.0030026655 -0.0019792707
0.0040483274 -0.0014396341 -1.9291039e-05
-0.0051933094 0.00028792684 -0.00140761
-0.0054386626 0.0020154878 0.0025123495
-0.0054386626 0.0018509582 -1.9291039e-05
0.0044572498 0.00012339721 -1.9291039e-05
0.00044981419 0.0016041638 -0.0022242682
-0.0036394056 0.00028792684 -0.00099928095
-0.0045390339 0.00037019164 -0.0014892758
-0.00044981419 0.0030849304 -0.0018159391
-0.0049479562 0.00061698607 -0.00140761
0.0032304837 -0.0008637805 -1.9291039e-05
-0.0035576213 0.0030026655 -0.0013259442
-0.0048661716 0.0011928397 -0.0014892758
-0.0040483274 -0.0025913415 -0.00099928095
0.00044981419 -0.001933223 -1.9291039e-05
0.0036394056 0.0031671952 -0.0014892758
0.0024944241 0.0030849304 -1.9291039e-05
-0.0035576213 -0.0011928397 -0.00099928095
-0.0052750935 -0.002426812 0.0034923393
-0.0051933094 0.00012339721 -0.00034595432
0.0057657999 0.0010283102 -0.00034595432
-0.001022305 -0.0030026655 -0.0017342733
-0.00044981419 -0.0017686934 -0.00018262268
-0.0056022312 0.0025913415 0.00079736719
-0.0038847588 -0.001933223 -0.0014892758
0.00044981419 0.0023445471 -0.0022242682
-0.0020037177 0.00028792684 -0.00099928095
-0.0045390339 -0.0020154878 -0.00099928095
0.0029851305 0.0018509582 -0.0022242682
0.0047843871 -0.00094604533 -0.00083594926
0.00077695178 0.0030026655 -1.9291039e-05
0.0046208184 0.002426812 -0.0014892758
-0.0015947957 -0.002426812 -0.0015709416
-0.0023308552 0.00037019164 -0.00099928095
0.002657993 -0.0031671952 -0.0014892758
0.0021672866 0.00037019164 -1.9291039e-05
-0.0051115248 -0.0018509582 -0.00091761508
-0.0052750935 -0.0020154878 0.0010423646
0.0038029745 -0.0018509582 -0.0022242682
0.0046208184 0.0011105749 -0.001897605
-0.0006951674 0.0008637805 -1.9291039e-05
-0.0057657999 0.0022622822 0.0026756811
0.0057657999 -0.00012339721 -0.00050928595
0.0050297403 -0.002426812 -0.00067261764
0.00012267659 0.0030849304 -0.0017342733
-0.0021672866 -0.0018509582 -0.0015709416
-0.0011858738 0.0022622822 -0.0022242682
-0.0021672866 -0.0012751046 -0.00099928095
-0.005356878 -0.0016864286 -0.00091761508
-0.002085502 -0.0017686934 -0.0015709416
0.0028215616 -0.0011928397 -0.002305934
0.00094052055 -0.0008637805 -0.002305934
-0.0045390339 -0.0016864286 -0.00099928095
0.0044572498 0.0028381359 -0.0019792707
-0.0042118966 -0.00045245644 -0.00099928095
-0.0056840158 0.0022622822 0.0037373367
-0.0047843871 -0.0018509582 -0.0014892758
0.00053159858 -0.0031671952 -0.0020609365
-0.0013494425 0.0020977526 -0.00050928595
-0.0057657999 -0.00012339721 0.0012056963
-0.00044981419 0.0026736064 -1.9291039e-05
0.0057657999 -0.00053472124 -0.00042762017
-0.0011858738 -0.0030026655 -0.00042762017
-0.0039665434 -0.00028792684 -0.00099928095
-0.0012676582 -0.0016041638 -0.00018262268
-0.0052750935 -0.0006992509 -0.0013259442
0.0031486992 0.0011928397 -0.002305934
0.0056022312 -0.0006992509 -1.9291039e-05
-0.0054386626 0.0020154878 0.00038903806
-0.0015947957 0.0020154878 -0.0015709416
0.0027397773 0.0032494599 -0.00083594926
-0.0030669149 -0.0029204008 -0.0014892758
0.0029033462 -0.0008637805 -1.9291039e-05
0.0046208184 -0.0018509582 -0.0011626126
-0.0030669149 -0.0030026655 -0.00099928095
0.0011040893 -0.0032494599 -0.00075428345
0.0037211902 0.0028381359 -0.0022242682
0.0024944241 -0.0012751046 -1.9291039e-05
-0.00053159858 0.002755871 -0.0022242682
0.0025762084 -0.0006992509 -1.9291039e-05
-4.0892199e-05 0.0030026655 -1.9291039e-05
-0.0020037177 0.0016041638 -0.0015709416
-0.0056840158 0.0025913415 0.0004707039
-0.0006951674 0.0026736064 -1.9291039e-05
0.0031486992 -0.002755871 -1.9291039e-05
-0.0052750935 0.0023445471 0.0034106735
-0.001022305 0.0025090766 -0.0022242682
-0.0013494425 0.0006992509 -0.001897605
-0.0033940524 -0.0016041638 -0.0014892758
0.0046208184 -0.0028381359 -0.0012442784
0.0020037177 -0.002426812 -1.9291039e-05
0.0018401489 0.0021800175 -0.002305934
-0.0025762084 -0.0030026655 -0.00099928095
0.004130112 -0.0028381359 -0.0020609365
0.0056022312 -0.0020977526 -0.00067261764
0.0017583645 -0.0018509582 -0.0022242682
0.004130112 0.0012751046 -0.0022242682
-0.0036394056 0.0016864286 -0.0014892758
-0.0038029745 0.0008637805 -0.0014892758
0.0018401489 -0.0031671952 -0.0011626126
0.0042118966 0.0031671952 -0.00010095686
-0.0033940524 -0.0006992509 -0.00099928095
-0.0013494425 0.0023445471 -0.001897605
-0.00077695178 0.0025913415 -1.9291039e-05
-0.0057657999 -0.0021800175 0.0001440406
-0.0037211902 -0.00020566203 -0.0014892758
0.0050297403 0.0029204008 -0.00018262268
0.0038847588 0.00012339721 -1.9291039e-05
-0.0055204467 -0.00028792684 0.0026756811
-0.0033122681 0.0014396341 -0.0014892758
-0.0022490709 -0.0030849304 -0.00099928095
-0.0049479562 -0.0012751046 -0.00099928095
-0.0015947957 0.0006992509 -0.0015709416
-0.005356878 -0.00028792684 0.00096069882
-0.0040483274 -0.001521899 -0.0014892758
0.0052750935 -0.0011928397 -1.9291039e-05
0.0024944241 0.00094604533 -0.0022242682
0.00053159858 0.002426812 -1.9291039e-05
0.0029033462 0.00053472124 -1.9291039e-05
0.001022305 0.0032494599 -0.00042762017
-0.002085502 0.0022622822 -0.0014892758
-0.0056840158 -0.002426812 -1.9291039e-05
0.0045390339 0.0031671952 -0.00067261764
-0.0049479562 0.0022622822 -0.00099928095
-0.0051115248 -0.002755871 -0.00083594926
-0.0051933094 0.00053472124 -0.00083594926
-0.0011858738 -0.0029204008 -0.00018262268
0.0023308552 0.0030849304 -0.0021426023
-0.0013494425 0.0011928397 -0.0018159391
-0.0019219334 -0.0023445471 -0.00099928095
-0.005356878 0.0014396341 -0.0013259442
-0.0034758369 -0.0011928397 -0.0014892758
-0.0056022312 -0.0011928397 -0.0010809468
-0.0038029745 4.1132404e-05 -0.00099928095
0.0055204467 0.00020566203 -0.00067261764
0.0028215616 0.0016041638 -0.0022242682
-0.0027397773 0.002755871 -0.0014892758
-0.0057657999 -0.00028792684 0.00096069882
-0.0040483274 -0.0017686934 -0.0014892758
-0.0057657999 0.00012339721 -0.00050928595
-0.0002862454 -0.0025913415 -0.00018262268
-0.0057657999 0.002426812 -0.00067261764
-0.0017583645 0.0010283102 -0.0015709416
0.0051115248 -0.00028792684 -0.00075428345
-0.004702603 0.001521899 -0.0010809468
-0.0054386626 0.00028792684 0.0016140254
-0.0051933094 0.0020154878 -0.00042762017
-0.0052750935 0.002426812 0.0023490179
-0.0052750935 -0.002426812 -0.00042762017
0.0040483274 0.0030026655 -0.0022242682
-0.0016765802 -0.0020977526 -0.00099928095
-0.0050297403 0.0006992509 -0.00140761
0.0042118966 -0.0028381359 -0.0020609365
0.0050297403 -0.0017686934 -1.9291039e-05
0.0029033462 0.0011105749 -1.9291039e-05
0.0042118966 0.0031671952 -0.00059095182
0.0027397773 -0.0020154878 -0.0022242682
-0.0051115248 0.00028792684 -0.00075428345
-0.0052750935 -0.0022622822 0.0034106735
-0.0056022312 -0.0006992509 -0.0010809468
0.00036802978 -0.0025913415 -1.9291039e-05
0.0023308552 0.0006992509 -1.9291039e-05
0.004702603 -0.0014396341 -0.0014892758
0.0028215616 -0.0011105749 -1.9291039e-05
-0.0011858738 0.00020566203 -0.0022242682
-0.0050297403 0.0023445471 -0.00140761
-0.0051933094 4.1132404e-05 -0.00026428851
-0.0052750935 -0.0020154878 0.0034923393
-0.0051933094 -0.0020977526 0.0036556709
-0.00085873617 -0.00078151567 -0.0022242682
-0.0025762084 -0.0020977526 -0.0015709416
0.00085873617 -0.0021800175 -0.0022242682
0.00044981419 -0.0030849304 -1.9291039e-05
0.002657993 0.0025090766 -1.9291039e-05
0.0036394056 -0.0030849304 -0.0010809468
-0.001022305 0.0030849304 -0.00018262268
0.0056022312 -0.00061698607 -1.9291039e-05
4.0892199e-05 0.00028792684 -1.9291039e-05
-0.00085873617 -0.0031671952 -0.00140761
0.001431227 -0.0018509582 -1.9291039e-05
0.0033122681 -0.0025913415 -0.0022242682
0.0033122681 0.00012339721 -1.9291039e-05
-0.0038847588 -0.0029204008 -0.00099928095
0.0049479562 0.00028792684 -1.9291039e-05
-0.00020446099 -0.0023445471 -0.0022242682
-0.0029851305 0.0023445471 -0.0014892758
-0.0054386626 0.0020154878 0.0035740051
-0.0020037177 -0.0020977526 -0.00099928095
-0.0029851305 -0.0022622822 -0.0014892758
