# .PCD v0.7 - Point Cloud Data file format
VERSION 0.7
FIELDS x y z
SIZE 4 4 4
TYPE F F F
COUNT 1 1 1
WIDTH 1162
HEIGHT 1
VIEWPOINT 0 0 0 1 0 0 0
POINTS 1162
DATA ascii
-0.0066470588 0.0040330985 -0.00042777797
0.00029411764 -0.0041499999 -0.0019564817
-0.0070000002 -0.0032147889 -0.0056018522
0.001117647 -0.0011105634 -0.0073657413
-0.0070000002 -0.0016950704 -0.0078361118
0.0045294119 0.0013443662 -7.5000178e-05
-0.00076470588 0.0013443662 -0.0072481483
-0.0054705883 -0.0041499999 -0.0025444448
0.0060588233 0.0021626761 -0.0094824079
-0.0048823529 0.0041499999 -0.0091296304
-0.0070000002 0.00064295775 -0.002426852
0.0026470588 0.0011105634 -0.0073657413
-0.0068823528 0.0020457746 -0.0043083336
-0.0033529412 0.0041499999 -0.0027796298
-0.0070000002 0.00087676058 -0.0077185188
0.0059411763 0.0020457746 -0.0094824079
0.001 -0.0019288732 0.0026296296
-0.0068823528 -0.0036823945 -0.0026620373
0.0042941174 0.0041499999 -0.0066601853
0.001117647 -0.0037992958 -0.00019259276
0.0021764706 0.0037992958 -0.0072481483
-0.002882353 -0.0032147889 -0.0074833338
-0.0019411765 0.0012274649 -7.5000178e-05
0.0070000002 -0.0021626761 -0.0086592594
-0.0068823528 -0.0033316903 -0.0067777783
0.0015882353 0.0025133803 -7.5000178e-05
0.0041764705 -0.0041499999 -0.0038379633
0.0060588233 -0.0040330985 -0.0085416669
-0.0070000002 0.00064295775 -0.0060722227
0.0053529413 -0.0034485916 -0.0093648154
-0.0042941174 -0.00052605633 -7.5000178e-05
0.0070000002 0.002396479 -0.0048962967
0.0062941178 -0.00064295775 -0.0093648154
0.0066470588 0.0036823945 -0.0093648154
-0.0033529412 0.0041499999 -0.0047787041
0.0070000002 -0.0021626761 -0.0066601853
-0.0068823528 -0.0040330985 -0.0040731486
-0.0037058825 0.0030978874 -7.5000178e-05
0.003 0.0014612676 -7.5000178e-05
0.0070000002 -0.0011105634 -0.0058370372
0.0026470588 -0.0041499999 -0.0043083336
0.0060588233 0.0041499999 -0.0092472229
-0.0012352942 -0.0041499999 -0.0027796298
-0.0054705883 0.0041499999 -0.0031324076
-0.0041764705 -0.0041499999 -0.002426852
0.0061764708 -0.0020457746 -0.0093648154
0.0070000002 -0.00075985916 -0.0046611116
-0.0070000002 -0.0027471832 -0.0032500003
0.0070000002 -0.00017535212 -0.002191667
-0.0047647059 0.0041499999 -0.0031324076
0.0070000002 0.0018119719 -0.0066601853
0.0040588235 -0.0040330985 -0.0085416669
-0.0047647059 0.0027471832 -7.5000178e-05
-5.8823531e-05 0.0041499999 -0.0014861113
0.0066470588 0.0041499999 -0.0053666672
-0.0021764706 -0.0041499999 -0.0073657413
0.0067647058 -0.0012274649 -7.5000178e-05
0.0035882352 0.0041499999 -0.0059546297
0.00029411764 -0.003565493 -7.5000178e-05
0.0053529413 -0.0041499999 -0.0077185188
0.002882353 -0.00017535212 -7.5000178e-05
-0.0041764705 -0.0041499999 -0.0060722227
0.0067647058 0.0040330985 -0.00089814834
-0.0070000002 0.00040915495 -0.0027796298
0.0051176469 -0.0041499999 -0.003014815
-0.0064117648 -0.0041499999 -0.0083064819
-0.0070000002 -0.0020457746 -0.0086592594
-0.00076470588 0.0041499999 -0.0048962967
0.0070000002 -0.00087676058 -0.0078361118
0.00064705883 0.0041499999 -0.0045435186
0.003117647 -0.0041499999 -0.0057194447
-0.0037058825 -0.0016950704 -7.5000178e-05
0.00017647058 -0.00087676058 -0.0073657413
0.0012352942 0.0025133803 -7.5000178e-05
-0.0066470588 0.0040330985 -0.002191667
0.0038235295 0.0041499999 -0.0045435186
0.0070000002 -0.0026302817 -0.0040731486
-0.0070000002 -0.0030978874 -0.0031324076
-0.0068823528 -0.0037992958 -0.0020740742
0.0055882353 0.0041499999 -0.0017212965
0.0070000002 0.0021626761 -0.0086592594
-0.0041764705 0.0041499999 -0.0048962967
0.0053529413 0.0026302817 -7.5000178e-05
-0.0070000002 -0.0021626761 -0.0066601853
0.0027647058 -0.0040330985 -0.00019259276
-0.0021764706 0.0022795775 -0.0072481483
-0.0033529412 -5.8450707e-05 -0.0077185188
0.0070000002 -0.00099366205 -0.0031324076
0.0012352942 0.0032147889 -0.0072481483
-0.003 0.003565493 -0.0072481483
-0.0015882353 0.00017535212 -7.5000178e-05
-0.0070000002 -0.0022795775 -0.0045435186
5.8823531e-05 0.0041499999 -0.0031324076
-0.0070000002 0.00040915495 -0.0044259261
0.0039411765 -0.0026302817 -0.0081888894
-0.003235294 0.0041499999 -0.0068953708
-0.0041764705 -0.0041499999 -0.0072481483
-0.0068823528 0.0037992958 -0.0086592594
-0.0068823528 0.0021626761 -0.00089814834
-0.0070000002 -0.0019288732 -0.0070129633
-0.003 0.0041499999 -0.0026620373
-0.0041764705 0.00029225354 -7.5000178e-05
-0.003235294 -0.0012274649 -7.5000178e-05
-0.0042941174 0.00099366205 -7.5000178e-05
0.0066470588 0.0029809859 -0.0093648154
0.0048823529 0.0041499999 -0.0044259261
0.001 0.0015781691 -7.5000178e-05
0.0070000002 0.0012274649 -0.0039555556
-5.8823531e-05 5.8450707e-05 -7.5000178e-05
-0.0064117648 -0.0041499999 -0.003014815
0.0070000002 -0.0020457746 -0.0056018522
0.0070000002 -0.003565493 -0.0025444448
-0.0027647058 -0.00064295775 -7.5000178e-05
-0.0049999999 0.00040915495 0.0014537036
0.001117647 0.00029225354 -0.0073657413
0.0055882353 0.0025133803 -0.0093648154
-0.0013529412 0.002396479 -7.5000178e-05
-0.0022941176 -0.0041499999 -0.0057194447
-0.001117647 -0.0041499999 -0.0010157409
0.00088235294 -0.0041499999 -0.002426852
0.00064705883 0.0015781691 -0.0072481483
-0.0070000002 -0.0015781691 -0.0044259261
-0.0065294118 -0.0041499999 -0.00054537057
0.00029411764 -0.0013443662 -7.5000178e-05
-0.003117647 -0.0039161975 -0.0074833338
0.0068823528 0.0034485916 -0.00054537057
0.0033529412 -0.00075985916 -7.5000178e-05
-0.0057058823 0.0039161975 -0.0093648154
-0.0055882353 -0.0041499999 -0.003014815
-0.0068823528 0.0039161975 -0.0048962967
-0.0049999999 -0.0041499999 -0.0083064819
-0.001117647 5.8450707e-05 0.0018064814
-0.0037058825 -0.0025133803 -7.5000178e-05
-0.0020588236 0.003565493 -0.00019259276
-0.00052941177 0.0041499999 -0.0052490742
0.0012352942 -0.0041499999 -0.0064250003
-0.003235294 -0.0037992958 -0.0074833338
0.0025294118 -0.0041499999 -0.0037203706
0.0057058823 -0.0012274649 -7.5000178e-05
0.0059411763 -0.0041499999 -0.0087768519
-0.00088235294 -0.0030978874 -7.5000178e-05
0.0070000002 -0.0028640847 -0.00054537057
-0.0019411765 0.0030978874 -0.0072481483
0.0025294118 0.00040915495 -0.0073657413
-0.0070000002 0.00029225354 -0.0056018522
0.0045294119 -0.0011105634 -7.5000178e-05
-0.001 -0.0033316903 -0.0073657413
-0.0051176469 5.8450707e-05 0.002159259
0.0070000002 -0.0036823945 -0.00089814834
0.0067647058 0.0039161975 -0.0016037039
-0.0047647059 0.0021626761 -7.5000178e-05
-0.0039411765 0.00099366205 -7.5000178e-05
0.001 0.0021626761 -7.5000178e-05
-0.003235294 0.0021626761 -0.0072481483
-0.0070000002 -0.0011105634 -0.0028972225
0.0068823528 0.0030978874 -0.0059546297
-0.0068823528 0.0015781691 -0.0040731486
-0.0040588235 0.00017535212 -7.5000178e-05
0.0070000002 0.0025133803 -0.0084240744
0.0068823528 0.0037992958 -0.0012509262
0.0044117649 -0.0030978874 -7.5000178e-05
0.0039411765 0.0034485916 -0.0085416669
-0.0018235294 -0.0041499999 -0.0061898152
0.0040588235 -0.0041499999 -0.00042777797
-0.0017058824 -0.0014612676 -7.5000178e-05
0.0040588235 -0.0041499999 -0.0034851853
0.0041764705 0.002396479 -0.0092472229
-0.0026470588 0.00017535212 -7.5000178e-05
0.0052352943 0.0014612676 -0.0093648154
0.0052352943 -0.0040330985 -0.0052490742
-0.0051176469 0.0041499999 -0.0060722227
0.0066470588 0.0013443662 -0.0093648154
0.0057058823 -0.00052605633 -0.0093648154
-0.0012352942 0.0041499999 -0.00054537057
-0.0048823529 -0.002396479 -7.5000178e-05
0.0067647058 -0.0039161975 -0.0073657413
0.003 0.0040330985 -0.0073657413
-0.0068823528 0.0022795775 -0.0078361118
0.0020588236 0.0021626761 -7.5000178e-05
-5.8823531e-05 0.0039161975 -0.00019259276
-0.0065294118 0.0040330985 -0.0052490742
0.0070000002 0.0014612676 -0.00089814834
-0.00088235294 -0.00040915495 -0.0073657413
-0.0017058824 -0.0040330985 -0.0074833338
-0.003235294 0.00017535212 0.001336111
0.0038235295 -0.0021626761 -7.5000178e-05
-0.0059411763 -0.0041499999 -0.0014861113
-0.0039411765 -0.0041499999 -0.0065425928
-0.0041764705 -0.0041499999 -0.00042777797
-0.0051176469 -0.0018119719 0.0025120368
0.0022941176 -0.0028640847 -0.0073657413
0.0062941178 -0.00017535212 -7.5000178e-05
0.0025294118 -0.0041499999 -0.00089814834
-0.0070000002 -0.00099366205 -0.002191667
-0.0068823528 -0.0034485916 -0.0074833338
-0.00029411764 0.0041499999 -0.00066296314
0.0012352942 0.0041499999 -0.00089814834
-0.0033529412 0.0041499999 -0.0026620373
-0.0068823528 0.0033316903 -0.0011333335
-0.0046470589 0.0041499999 -0.0026620373
0.0057058823 0.003565493 -7.5000178e-05
0.0025294118 -0.0041499999 -0.0045435186
0.0055882353 0.0041499999 -0.0019564817
0.0070000002 -0.003565493 -0.0085416669
0.0018235294 0.00040915495 -0.0073657413
-0.0070000002 0.00087676058 -0.0014861113
-0.00088235294 -0.0041499999 -0.0034851853
0.00017647058 -0.0013443662 -0.0073657413
0.0070000002 -0.0033316903 -0.0067777783
0.0033529412 -0.0028640847 -7.5000178e-05
0.0018235294 0.0041499999 -0.0068953708
-0.0065294118 -0.0041499999 -0.0086592594
0.0060588233 0.0041499999 -0.00042777797
0.00017647058 0.0041499999 -0.0013685187
0.0044117649 -0.0013443662 -0.0093648154
-0.0038235295 0.00064295775 -0.0079537043
-0.003235294 0.0041499999 -0.0039555556
-0.0051176469 5.8450707e-05 0.00098333322
-5.8823531e-05 -0.00017535212 -7.5000178e-05
-0.0070000002 -0.0025133803 -0.0034851853
0.0068823528 -0.0016950704 -7.5000178e-05
0.0048823529 0.0041499999 -0.0051314817
-0.0033529412 -0.0041499999 -0.0057194447
0.0070000002 0.0013443662 -0.0093648154
-0.0068823528 0.0025133803 -0.0059546297
0.001 -0.0014612676 0.0012185184
0.003235294 -0.0041499999 -0.0043083336
-0.0060588233 -0.0040330985 -0.00066296314
-0.0021764706 0.0028640847 -0.0072481483
0.0070000002 -0.0026302817 -0.0079537043
0.0017058824 0.0029809859 -0.0072481483
0.0035882352 -0.0041499999 -0.00054537057
-0.003117647 0.0041499999 -0.00042777797
-0.0055882353 0.0019288732 -7.5000178e-05
-0.0068823528 0.0039161975 -0.0071305558
-0.0033529412 -5.8450707e-05 -7.5000178e-05
0.0070000002 -0.0033316903 -0.0070129633
0.0070000002 -0.00029225354 -0.00054537057
-0.0045294119 -0.00064295775 -0.0092472229
-0.0035882352 0.0041499999 -0.0039555556
0.0068823528 -0.0037992958 -0.0010157409
0.0049999999 -0.0041499999 -0.0083064819
-0.003 -0.0012274649 -0.0074833338
-0.0044117649 0.0041499999 -0.0066601853
-0.003 0.0041499999 -0.0019564817
-0.0035882352 0.0041499999 -0.0020740742
-0.0026470588 -0.0041499999 -0.0071305558
-0.0049999999 0.0041499999 -0.00078055577
-0.003117647 -0.003565493 -7.5000178e-05
-0.0070000002 -0.0028640847 -0.0047787041
-0.0026470588 0.0041499999 -0.0059546297
-0.001 -0.0037992958 -7.5000178e-05
0.0034705882 -0.0012274649 -0.0076009263
-0.0068823528 -0.0039161975 -0.0081888894
0.0049999999 0.0041499999 -0.0057194447
0.0065294118 0.0041499999 -0.0070129633
-0.0066470588 0.0040330985 -0.0051314817
0.0053529413 0.0041499999 -0.0037203706
0.0070000002 -0.00052605633 -0.0011333335
-0.0035882352 0.00040915495 -7.5000178e-05
0.0021764706 -0.0027471832 -0.0073657413
-0.0070000002 -0.00099366205 -0.0041907411
0.003 -0.0026302817 -7.5000178e-05
0.0070000002 0.0011105634 -0.0037203706
0.0042941174 -0.0041499999 -0.0038379633
0.003235294 0.0041499999 -0.0061898152
0.0070000002 -0.0032147889 -0.0052490742
0.0070000002 -0.003565493 -0.0047787041
-0.0048823529 -0.0019288732 0.0020416665
-0.0018235294 -0.0041499999 -0.00031018537
0.0070000002 -0.0022795775 -0.003014815
-0.0047647059 -0.0041499999 -0.0027796298
0.0022941176 -0.0013443662 -0.0073657413
-0.0040588235 -0.0040330985 -7.5000178e-05
-0.0047647059 -0.0041499999 -0.0038379633
-0.00017647058 -0.0041499999 -0.0026620373
0.0068823528 0.0032147889 -0.0036027781
0.0070000002 -0.00029225354 -0.0018388891
-0.0042941174 -0.0022795775 -7.5000178e-05
0.0039411765 -0.0040330985 -0.0079537043
-0.0070000002 -5.8450707e-05 -0.0061898152
-0.0062941178 0.0022795775 -0.0093648154
-0.0039411765 0.0041499999 -0.0066601853
-0.0068823528 0.0039161975 -0.0018388891
-0.0015882353 0.0041499999 -0.0072481483
-0.0064117648 0.0040330985 -0.0071305558
0.0039411765 0.00087676058 -0.0087768519
0.0061764708 -0.00052605633 -0.0093648154
0.0068823528 0.0015781691 -0.0073657413
0.00064705883 -0.00075985916 -0.0073657413
0.00064705883 -0.0041499999 -0.0017212965
-0.0070000002 -0.00052605633 -0.0071305558
0.0042941174 0.002396479 -7.5000178e-05
0.0038235295 -0.0036823945 -0.0080712968
0.0026470588 0.0039161975 -7.5000178e-05
-0.0049999999 -0.00087676058 -0.0093648154
0.00052941177 0.0040330985 -0.0072481483
-0.0042941174 0.0018119719 -7.5000178e-05
-0.0024117648 0.0037992958 -0.00019259276
0.0049999999 0.0012274649 -0.0093648154
-0.003117647 -0.0016950704 0.00086574059
-0.0060588233 -0.0029809859 -0.0093648154
-0.002882353 0.0033316903 -0.0072481483
-0.00041176472 0.0041499999 -0.0060722227
-0.00088235294 -0.0019288732 0.00098333322
-0.0014705883 0.0041499999 -0.0013685187
0.0068823528 0.002396479 -0.0093648154
-0.0051176469 0.0041499999 -0.0040731486
0.0070000002 -0.0012274649 -0.0072481483
0.0019411765 0.00017535212 -7.5000178e-05
0.0042941174 0.0041499999 -0.0023092595
0.0067647058 -0.0037992958 -0.0039555556
-0.0040588235 -0.0041499999 -0.0020740742
-0.001 -0.0019288732 4.2592419e-05
0.0070000002 0.0022795775 -0.0020740742
0.0070000002 -0.0037992958 -0.0078361118
0.0070000002 -0.0036823945 -0.0059546297
0.0070000002 0.0012274649 -0.0086592594
-0.0068823528 -0.0037992958 -0.0088944444
0.0039411765 0.002396479 -0.0085416669
0.0054705883 0.003565493 -7.5000178e-05
-0.0070000002 0.00075985916 -0.0073657413
0.0035882352 -0.0041499999 -0.0057194447
-0.002882353 0.0041499999 -0.0059546297
-0.0021764706 -0.0041499999 -0.00031018537
-0.0033529412 -0.0040330985 -7.5000178e-05
0.00052941177 -0.0041499999 -0.0068953708
-0.00076470588 -5.8450707e-05 -7.5000178e-05
0.0033529412 -0.0032147889 -7.5000178e-05
-0.0068823528 0.0022795775 -0.0079537043
0.0068823528 -0.0039161975 -0.0088944444
0.0027647058 -0.0041499999 -0.0010157409
-0.002882353 0.00029225354 0.0015712961
0.00076470588 -0.0022795775 -0.0073657413
0.0025294118 -0.0041499999 -0.00054537057
0.001 -0.0016950704 0.00063055538
0.0042941174 -0.0041499999 -0.0010157409
0.0045294119 0.0039161975 -0.0093648154
-0.0037058825 0.0015781691 -7.5000178e-05
0.00029411764 -0.0041499999 -0.0046611116
0.0045294119 -0.0022795775 -0.0093648154
-0.0044117649 0.0015781691 -7.5000178e-05
-0.001117647 -0.00029225354 -0.0073657413
-0.0066470588 -0.0040330985 -0.0031324076
0.0070000002 0.00075985916 -0.00031018537
-0.0039411765 -0.0019288732 -0.0085416669
0.00041176472 0.0028640847 -0.0072481483
-0.0070000002 -0.00064295775 -0.0067777783
-0.0018235294 0.0025133803 -7.5000178e-05
0.0070000002 0.00064295775 -0.0037203706
0.00064705883 0.0028640847 -0.0072481483
0.0062941178 -0.0039161975 -0.0031324076
-0.0068823528 0.0033316903 -0.0027796298
0.0064117648 0.00099366205 -0.0093648154
-0.0070000002 -0.0013443662 -0.0046611116
0.0027647058 0.00075985916 -0.0073657413
-0.00052941177 -0.00075985916 -7.5000178e-05
-0.0068823528 0.0022795775 -0.0073657413
0.0021764706 -0.0028640847 -7.5000178e-05
-0.0020588236 -0.0029809859 -7.5000178e-05
0.0070000002 0.00075985916 -0.0087768519
-0.0057058823 -0.0036823945 -7.5000178e-05
0.0038235295 -0.0028640847 -7.5000178e-05
-0.0068823528 -0.0030978874 -0.00054537057
0.00088235294 0.0039161975 -7.5000178e-05
0.0070000002 -0.0034485916 -0.0050138892
-0.0040588235 0.00017535212 -0.0092472229
0.002882353 -0.0041499999 -0.0032500003
0.0062941178 -0.0015781691 -0.0093648154
-0.0067647058 -0.0034485916 -0.0093648154
-0.0068823528 -0.00029225354 -0.0078361118
-0.0048823529 -0.0041499999 -0.0023092595
0.0070000002 0.0025133803 -0.00078055577
-0.0012352942 -0.0041499999 -0.0052490742
0.0012352942 0.0041499999 -0.0046611116
-0.0051176469 5.8450707e-05 0.00063055538
0.0012352942 -0.0012274649 -0.0073657413
0.003235294 -0.0016950704 4.2592419e-05
-0.0070000002 -0.0011105634 -0.00042777797
-0.0021764706 -0.0018119719 -0.0073657413
-0.0070000002 -0.0013443662 -0.00019259276
0.0022941176 -0.0041499999 -0.0047787041
0.0070000002 -0.0014612676 -0.0047787041
0.0070000002 5.8450707e-05 -0.0087768519
0.0018235294 0.0025133803 -0.0072481483
0.0053529413 -0.0022795775 -7.5000178e-05
-0.0054705883 -0.0039161975 -7.5000178e-05
-0.0044117649 0.0018119719 -7.5000178e-05
-0.003117647 5.8450707e-05 0.002159259
-0.0049999999 5.8450707e-05 0.00063055538
0.0067647058 -0.0037992958 -0.002191667
-0.0070000002 -0.0026302817 -0.0072481483
0.0070000002 0.00040915495 -0.0013685187
0.0035882352 -0.0041499999 -0.0067777783
-0.0070000002 -0.00052605633 -0.0023092595
-0.0055882353 0.0037992958 -0.0093648154
-0.0027647058 0.0016950704 -0.0072481483
0.0070000002 0.0025133803 -0.0048962967
-0.0068823528 0.0013443662 -0.0017212965
0.0065294118 0.0012274649 -7.5000178e-05
0.001 -0.0027471832 -7.5000178e-05
0.0070000002 -0.0036823945 -0.0020740742
-0.0068823528 0.0026302817 -0.003014815
-0.0040588235 0.0030978874 -0.0092472229
-0.0021764706 -0.00052605633 -7.5000178e-05
0.0039411765 0.0019288732 -0.0087768519
-0.0042941174 -0.0019288732 -0.0092472229
-0.00064705883 -0.0041499999 -0.0068953708
0.0024117648 0.0041499999 -0.002426852
-0.0051176469 0.00040915495 0.0026296296
0.0061764708 0.003565493 -7.5000178e-05
-0.0068823528 0.0025133803 -0.0025444448
0.0058235293 0.0041499999 -0.0047787041
-0.0070000002 -0.0012274649 -0.0051314817
-0.0070000002 -0.00099366205 -0.0072481483
-0.0034705882 0.0041499999 -0.00019259276
-0.0020588236 -0.0041499999 -0.0070129633
-0.0024117648 0.0041499999 -0.0016037039
-0.0052352943 0.0041499999 -0.00031018537
-0.0018235294 -0.0012274649 -7.5000178e-05
0.0070000002 -0.0027471832 -0.0023092595
-0.0070000002 -5.8450707e-05 -0.0088944444
0.0022941176 0.0041499999 -0.0018388891
0.00041176472 0.0041499999 -0.0037203706
0.0049999999 5.8450707e-05 -0.0093648154
-0.003235294 0.00040915495 0.0022768518
0.0046470589 0.0041499999 -0.0034851853
0.0070000002 -0.0037992958 -0.0018388891
-0.0053529413 0.0041499999 -0.0026620373
0.003235294 -0.0018119719 0.00074814801
0.0046470589 -0.002396479 -0.0093648154
0.0070000002 -0.0016950704 -0.0079537043
0.0026470588 -0.0015781691 -7.5000178e-05
-0.0025294118 0.0041499999 -0.0071305558
0.0034705882 0.0019288732 -7.5000178e-05
0.00041176472 0.0041499999 -0.0061898152
0.0070000002 0.0012274649 -0.0063074077
-0.00029411764 -0.00052605633 -0.0073657413
-0.0051176469 -0.0019288732 0.0015712961
0.0064117648 0.0019288732 -7.5000178e-05
0.00017647058 0.0033316903 -0.0072481483
-0.0034705882 0.0013443662 -7.5000178e-05
-0.0070000002 -0.0011105634 -0.0084240744
0.0012352942 -0.0041499999 -0.0010157409
0.0019411765 -0.0037992958 -0.00019259276
0.0070000002 0.0028640847 -0.0044259261
-0.0027647058 -0.0032147889 -0.0074833338
0.0046470589 0.0041499999 -0.0017212965
-0.0035882352 -0.0036823945 -0.0077185188
0.0048823529 -0.0041499999 -0.0048962967
0.0018235294 -0.0041499999 -0.0074833338
0.0068823528 0.0013443662 -0.0093648154
0.0020588236 0.0012274649 -7.5000178e-05
0.0042941174 0.0041499999 -0.0014861113
0.0020588236 0.0027471832 -0.0072481483
0.0070000002 -0.0027471832 -0.003014815
-0.0070000002 -0.0034485916 -0.0038379633
0.0062941178 0.0041499999 -0.0081888894
-0.0012352942 0.0041499999 -0.0051314817
-0.00064705883 -0.0019288732 -7.5000178e-05
0.0034705882 0.0041499999 -0.0023092595
0.003117647 0.00017535212 0.0025120368
0.0021764706 0.0041499999 -0.0020740742
-0.0035882352 -0.0039161975 -7.5000178e-05
-0.0018235294 0.0039161975 -0.00019259276
-0.0068823528 0.0029809859 -0.002191667
0.0070000002 0.0020457746 -0.0077185188
-0.003235294 0.0030978874 -7.5000178e-05
-0.00041176472 0.0028640847 -0.0072481483
0.0035882352 0.0041499999 -0.00089814834
-0.0014705883 0.0018119719 -0.0072481483
0.0070000002 -0.0021626761 -0.00054537057
0.0018235294 -0.0041499999 -0.0068953708
5.8823531e-05 -0.0041499999 -0.0050138892
-0.0068823528 0.0021626761 -0.0037203706
0.001117647 -0.0013443662 -0.0073657413
0.0034705882 0.0030978874 -7.5000178e-05
0.0065294118 0.0041499999 -0.0084240744
0.001 -0.00075985916 -7.5000178e-05
0.0070000002 0.00029225354 -0.0057194447
-0.0070000002 -0.00075985916 -0.0032500003
-0.001117647 0.00040915495 0.0023944443
0.0053529413 0.0041499999 -0.0016037039
0.0042941174 0.0029809859 -7.5000178e-05
-0.0070000002 -0.0014612676 -0.0054842597
0.0044117649 -0.0025133803 -7.5000178e-05
0.0018235294 -0.0028640847 -0.0073657413
0.0066470588 0.0018119719 -0.0093648154
-0.0058235293 -0.0029809859 -0.0093648154
-0.0068823528 0.0032147889 -0.0054842597
0.0067647058 -0.0037992958 -0.0025444448
-0.0064117648 -0.0041499999 -0.0044259261
0.0070000002 0.0022795775 -0.00054537057
0.0017058824 -0.0041499999 -0.0059546297
0.0055882353 0.0041499999 -0.0045435186
-0.0022941176 0.0014612676 -0.0072481483
-0.00017647058 0.00099366205 -0.0073657413
0.0068823528 -0.0027471832 -0.00019259276
-0.0070000002 0.00040915495 -0.0088944444
0.00017647058 0.0041499999 -0.00019259276
-5.8823531e-05 0.003565493 -0.0072481483
0.0068823528 0.0030978874 -0.0048962967
-0.0062941178 0.0028640847 -0.0093648154
-0.0024117648 -0.0041499999 -0.0067777783
-0.0070000002 -0.00029225354 -0.0034851853
0.0039411765 -0.002396479 -0.0083064819
0.00088235294 0.00040915495 0.001336111
-0.0070000002 -0.0016950704 -0.0074833338
0.0054705883 -0.0040330985 -0.0028972225
0.0070000002 0.0011105634 -0.0085416669
-0.003117647 -0.0019288732 0.00098333322
0.0014705883 -0.00029225354 -7.5000178e-05
-0.0039411765 0.0041499999 -0.0027796298
0.0070000002 -0.0012274649 -0.0078361118
-0.0014705883 -0.0014612676 -7.5000178e-05
-0.0070000002 0.00099366205 -0.0025444448
0.0064117648 0.0041499999 -0.0063074077
-0.00041176472 -0.0041499999 -0.0072481483
-0.0027647058 0.00040915495 -0.0074833338
-0.00052941177 0.0041499999 -0.0017212965
-0.0070000002 -0.0028640847 -0.0051314817
-0.0066470588 -0.0041499999 -0.0052490742
-0.0068823528 0.0014612676 -0.0026620373
-0.00076470588 0.0015781691 -7.5000178e-05
0.0070000002 0.0028640847 -0.0026620373
0.0021764706 0.0021626761 -7.5000178e-05
0.0033529412 0.0041499999 -0.0037203706
-0.0066470588 -0.0015781691 -0.0093648154
0.0070000002 -0.0011105634 -0.00089814834
0.003 -0.0041499999 -0.0011333335
0.0068823528 0.0030978874 -0.0019564817
-0.0039411765 -0.0041499999 -0.0066601853
0.0070000002 -0.0022795775 -0.0031324076
0.003117647 0.0041499999 -0.0061898152
-0.0047647059 0.0041499999 -0.0010157409
-0.0014705883 -0.00075985916 -7.5000178e-05
-0.00076470588 0.0041499999 -0.0051314817
-0.0040588235 0.00052605633 -7.5000178e-05
0.0039411765 0.0028640847 -0.0086592594
0.00017647058 5.8450707e-05 -0.0073657413
-0.00017647058 -0.0041499999 -0.00031018537
-0.001117647 5.8450707e-05 0.0011009257
0.0070000002 -0.00075985916 -0.0061898152
0.0052352943 -0.0040330985 -0.0059546297
0.0070000002 0.00087676058 -0.003014815
-0.0068823528 0.0029809859 -0.0023092595
0.0070000002 0.0011105634 -0.0073657413
-0.001 -0.00040915495 -0.0073657413
-0.0070000002 -0.0034485916 -0.0045435186
-0.0019411765 -0.0041499999 -0.003014815
-0.0068823528 0.0013443662 -0.0039555556
0.0038235295 -0.0041499999 -0.0048962967
-0.0070000002 -0.0022795775 -0.0037203706
0.0070000002 0.0015781691 -0.0060722227
-0.00088235294 -0.00052605633 -0.0073657413
0.00052941177 5.8450707e-05 -7.5000178e-05
-0.001 0.0041499999 -0.0063074077
0.0070000002 -0.0036823945 -0.0061898152
-0.00017647058 0.0041499999 -0.0064250003
5.8823531e-05 -0.0041499999 -0.002191667
-0.0062941178 0.00087676058 -7.5000178e-05
0.0066470588 0.0041499999 -0.0063074077
-0.0021764706 0.0019288732 -0.0072481483
0.0064117648 -0.0029809859 -0.00019259276
0.00052941177 0.0020457746 -0.0072481483
-0.001 0.0041499999 -0.0032500003
-0.00088235294 -0.003565493 -0.0073657413
-0.003235294 -0.0041499999 -0.0066601853
-0.0054705883 0.0041499999 -0.0044259261
0.0070000002 -0.0022795775 -0.0084240744
0.0045294119 0.0025133803 -7.5000178e-05
-0.0020588236 0.0033316903 -7.5000178e-05
-0.0058235293 -0.00029225354 -7.5000178e-05
0.0066470588 0.00052605633 -0.0093648154
0.0039411765 0.0027471832 -0.0090120379
0.0064117648 0.0040330985 -0.0016037039
-0.003117647 -0.0041499999 -0.0028972225
5.8823531e-05 -0.00099366205 -0.0073657413
-0.00041176472 0.0041499999 -0.0034851853
-0.0064117648 0.0040330985 -0.0085416669
-0.0015882353 0.0034485916 -7.5000178e-05
0.003117647 0.0020457746 -7.5000178e-05
-0.0048823529 0.0041499999 -0.0033675928
0.0015882353 0.0019288732 -7.5000178e-05
-0.0067647058 -0.0039161975 -0.0018388891
-0.0048823529 0.0041499999 -0.0025444448
0.0038235295 0.0032147889 -0.0076009263
-0.0068823528 0.0021626761 -0.0054842597
0.001117647 -0.0041499999 -0.0073657413
0.0037058825 0.0041499999 -0.0059546297
0.003117647 -0.0015781691 0.00098333322
0.0070000002 0.0025133803 -0.0087768519
-0.0039411765 -0.0033316903 -0.0081888894
-0.0060588233 -0.00052605633 -7.5000178e-05
0.0017058824 -5.8450707e-05 -7.5000178e-05
-0.00029411764 0.0041499999 -0.0011333335
-0.0035882352 -0.0041499999 -0.0016037039
-0.0024117648 0.0041499999 -0.003014815
-0.0066470588 0.0040330985 -0.0079537043
-0.0045294119 0.0041499999 -0.0039555556
0.0060588233 0.0019288732 -7.5000178e-05
0.0052352943 0.00052605633 -7.5000178e-05
0.0020588236 -5.8450707e-05 -0.0073657413
-0.0040588235 -0.0025133803 -7.5000178e-05
-0.0038235295 0.0041499999 -0.0020740742
0.0070000002 -0.00040915495 -0.0078361118
-0.0047647059 0.0041499999 -0.0060722227
-0.0047647059 -0.0041499999 -0.0031324076
-0.0047647059 -0.0041499999 -0.0083064819
0.00029411764 0.0029809859 -7.5000178e-05
-0.0051176469 0.00029225354 0.0015712961
-0.00017647058 -0.0041499999 -0.0074833338
0.0068823528 -0.00029225354 -7.5000178e-05
0.0014705883 0.0033316903 -0.0072481483
-0.0019411765 -0.0041499999 -0.00054537057
0.0022941176 -0.00017535212 -0.0073657413
0.0052352943 0.00029225354 0.00039537021
-0.00064705883 -0.0041499999 -0.00054537057
0.001 -0.0014612676 0.00074814801
-0.0070000002 0.00040915495 -0.0041907411
-0.0040588235 -0.0041499999 -0.0047787041
-0.0015882353 0.0041499999 -0.0041907411
-0.0039411765 0.0016950704 -0.0083064819
-0.003 -0.0041499999 -0.0054842597
-0.0070000002 -0.0026302817 -0.0033675928
-0.0047647059 0.0041499999 -0.0093648154
-0.0039411765 -0.0036823945 -0.0091296304
0.00041176472 -0.0041499999 -0.0028972225
0.0040588235 -0.0015781691 -7.5000178e-05
-0.0070000002 -0.00052605633 -0.0064250003
-0.0026470588 0.0022795775 -7.5000178e-05
0.0033529412 -0.0027471832 -7.5000178e-05
-0.0051176469 5.8450707e-05 0.00051296281
-0.00017647058 0.0041499999 -0.0051314817
0.0034705882 0.0033316903 -7.5000178e-05
0.0055882353 0.0036823945 -0.0093648154
-0.0049999999 -0.0019288732 0.00086574059
0.0042941174 0.003565493 -7.5000178e-05
0.0012352942 0.0013443662 -7.5000178e-05
0.0044117649 0.0041499999 -0.0051314817
-0.0068823528 0.0036823945 -0.0019564817
0.0061764708 0.0040330985 -0.0044259261
-0.0014705883 0.0026302817 -0.0072481483
-0.00017647058 0.0041499999 -0.0053666672
-0.0012352942 5.8450707e-05 0.0015712961
-0.0037058825 0.0026302817 -0.0074833338
0.00076470588 0.00029225354 0.0012185184
0.0055882353 0.0028640847 -7.5000178e-05
0.0018235294 -0.00087676058 -7.5000178e-05
-0.0070000002 0.00099366205 -0.0088944444
-0.002882353 0.0032147889 -0.0072481483
5.8823531e-05 0.0041499999 -0.0041907411
-0.0042941174 -0.0041499999 -0.0020740742
0.0025294118 -0.0026302817 -7.5000178e-05
0.0051176469 0.00040915495 0.00063055538
0.0054705883 -0.00064295775 -0.0093648154
0.0070000002 0.0019288732 -0.0073657413
-0.0047647059 0.0041499999 -0.00042777797
-0.0068823528 0.0030978874 -0.0040731486
0.0054705883 0.00040915495 -0.0093648154
-0.0013529412 -0.0041499999 -0.0059546297
-0.0070000002 0.0028640847 -0.0093648154
-0.002882353 0.0041499999 -0.00078055577
0.0039411765 -0.0041499999 -0.0068953708
-0.003 0.0041499999 -0.002426852
-0.0027647058 0.0041499999 -0.0057194447
-0.0012352942 0.0032147889 -7.5000178e-05
-0.0070000002 -0.0030978874 -0.0011333335
0.003 0.0041499999 -0.0026620373
0.0038235295 -0.00099366205 -7.5000178e-05
-0.003117647 -0.0018119719 0.00098333322
0.0070000002 -0.00040915495 -0.0084240744
0.0022941176 -0.0041499999 -0.0050138892
-0.0042941174 -0.0041499999 -0.00042777797
-0.0041764705 -0.00075985916 -0.0092472229
0.0033529412 0.002396479 -7.5000178e-05
-0.0038235295 0.0020457746 -0.0079537043
-0.00029411764 0.003565493 -0.0072481483
0.0070000002 0.0022795775 -0.0027796298
0.0053529413 0.0037992958 -0.0093648154
-0.001117647 0.0015781691 -7.5000178e-05
0.0067647058 0.00075985916 -0.0093648154
-0.0066470588 -0.0040330985 -0.0093648154
-0.0045294119 0.0041499999 -0.0040731486
0.0038235295 0.0030978874 -7.5000178e-05
-0.0068823528 -0.0033316903 -0.0076009263
0.0052352943 -0.0040330985 -0.0064250003
-0.0044117649 -0.0041499999 -0.0023092595
0.0053529413 -0.0040330985 -0.0065425928
-0.0070000002 0.00052605633 -0.00054537057
0.0022941176 0.00029225354 -0.0073657413
0.0070000002 -0.0026302817 -0.0037203706
0.001117647 -0.0041499999 -0.0070129633
-0.0058235293 -0.0041499999 -0.0040731486
0.0070000002 -0.0036823945 -0.0016037039
0.0067647058 -0.0039161975 -0.0079537043
0.0021764706 -0.0041499999 -0.0043083336
0.0041764705 0.0030978874 -0.0093648154
0.0068823528 0.0034485916 -0.0011333335
-0.0020588236 -0.0041499999 -0.003014815
0.0047647059 -0.0041499999 -0.0013685187
0.00076470588 0.00017535212 0.0011009257
0.0070000002 0.0020457746 -0.0085416669
0.0067647058 -0.00075985916 -0.0093648154
0.0042941174 -0.00029225354 -7.5000178e-05
0.0025294118 0.0014612676 -7.5000178e-05
0.0044117649 0.00040915495 -7.5000178e-05
-0.0068823528 0.0026302817 -0.00066296314
0.0070000002 -0.00075985916 -0.0036027781
0.0013529412 0.0041499999 -0.0028972225
0.00017647058 -0.0041499999 -0.0025444448
-0.0037058825 -0.00099366205 -0.0078361118
-0.003235294 -0.0041499999 -0.0072481483
0.0068823528 0.003565493 -0.0011333335
-0.00088235294 -0.0032147889 -7.5000178e-05
0.0038235295 -0.0041499999 -0.0068953708
0.0055882353 -0.0040330985 -0.0053666672
-0.0047647059 0.0036823945 -7.5000178e-05
0.0019411765 0.0033316903 -7.5000178e-05
0.0070000002 -0.00064295775 -0.002191667
-0.0052352943 0.0041499999 -0.0027796298
-0.0067647058 -0.00087676058 -7.5000178e-05
-0.0068823528 0.002396479 -0.0085416669
-0.003235294 0.00017535212 0.00074814801
0.0070000002 0.0016950704 -0.002191667
-0.0054705883 0.0041499999 -0.0027796298
0.00088235294 -0.0030978874 -0.0073657413
-0.0042941174 0.00029225354 -7.5000178e-05
0.0024117648 -0.0041499999 -0.0060722227
0.0057058823 0.0029809859 -0.0093648154
0.00029411764 -0.0041499999 -0.0063074077
-0.0021764706 -0.0041499999 -0.0027796298
0.0070000002 -0.0021626761 -0.0090120379
-0.0027647058 5.8450707e-05 4.2592419e-05
0.0070000002 0.0028640847 -0.0091296304
0.0019411765 0.0041499999 -0.0018388891
0.0055882353 -0.0040330985 -0.0050138892
-0.0064117648 0.0040330985 -0.0077185188
-0.0026470588 -0.0041499999 -0.0074833338
-0.0070000002 -0.0020457746 -0.0054842597
0.0070000002 -0.00052605633 -0.0051314817
-0.0066470588 0.0040330985 -0.0052490742
0.0068823528 0.0037992958 -0.0034851853
-0.0068823528 -0.0033316903 -0.0087768519
0.0040588235 0.0041499999 -0.0085416669
-0.0039411765 -0.0041499999 -0.0060722227
0.003117647 5.8450707e-05 0.002159259
-0.0051176469 -0.0018119719 0.001336111
-0.0044117649 -0.0041499999 -0.0060722227
0.0067647058 -0.0019288732 -7.5000178e-05
-0.0041764705 -0.0041499999 -0.0065425928
-0.0048823529 -0.0015781691 0.0025120368
0.0070000002 0.00064295775 -0.0010157409
-0.0024117648 0.0041499999 -0.0037203706
-0.0055882353 0.0041499999 -0.00031018537
-0.0070000002 -0.0028640847 -0.0020740742
-0.0059411763 0.0041499999 -0.0060722227
-0.0024117648 -0.003565493 -0.0074833338
-0.0049999999 0.0014612676 -0.0093648154
-0.0068823528 0.0037992958 -0.0023092595
-0.0068823528 0.0021626761 -7.5000178e-05
0.0067647058 0.0039161975 -0.0031324076
0.0035882352 -0.0018119719 -7.5000178e-05
0.0070000002 0.00099366205 -0.0068953708
0.00052941177 0.00075985916 -7.5000178e-05
0.001117647 -0.0015781691 0.0015712961
0.0025294118 0.003565493 -7.5000178e-05
0.0027647058 -0.0041499999 -0.0060722227
0.001117647 -0.00087676058 -7.5000178e-05
-0.0014705883 0.0041499999 -0.0018388891
0.0070000002 -0.0026302817 -0.0048962967
-0.0070000002 -0.0026302817 -0.0039555556
-0.0068823528 0.0013443662 -0.0036027781
0.0052352943 0.0026302817 -7.5000178e-05
0.0034705882 -0.0041499999 -0.0068953708
0.0039411765 0.0018119719 -7.5000178e-05
-0.0046470589 -0.0041499999 -0.0086592594
-0.0041764705 0.0041499999 -0.0031324076
-0.0068823528 0.0026302817 -0.0073657413
0.0049999999 0.0041499999 -0.0019564817
0.0070000002 0.0025133803 -0.0061898152
0.0070000002 0.00075985916 -0.0083064819
0.0057058823 -0.0040330985 -0.0063074077
-0.0014705883 -0.0011105634 -0.0073657413
0.0068823528 0.0032147889 -0.0072481483
0.0051176469 0.0041499999 -0.0090120379
-0.002882353 -0.0018119719 0.0016888888
0.0070000002 -0.00075985916 -0.0056018522
-0.003117647 -0.0025133803 -7.5000178e-05
0.0060588233 -0.0040330985 -0.0040731486
0.00064705883 0.0041499999 -0.0039555556
-0.0045294119 0.0012274649 -7.5000178e-05
-0.0060588233 -5.8450707e-05 -7.5000178e-05
0.0070000002 0.00052605633 -0.0071305558
0.0042941174 0.0041499999 -0.0085416669
-0.00029411764 0.0041499999 -0.00054537057
0.0059411763 -0.0025133803 -7.5000178e-05
-0.0051176469 -0.0039161975 -0.0093648154
-0.0013529412 0.0030978874 -0.0072481483
0.0017058824 0.00075985916 -7.5000178e-05
0.0070000002 -0.0022795775 -0.0061898152
0.0070000002 0.00029225354 -0.0045435186
-0.0061764708 -0.0034485916 -0.0093648154
0.0054705883 -0.0040330985 -0.0019564817
0.0057058823 -0.0041499999 -0.0074833338
-0.0070000002 -0.0021626761 -0.00078055577
-0.0026470588 -0.0041499999 -0.002426852
0.0070000002 0.0011105634 -0.0078361118
-0.0039411765 -0.0029809859 -0.0081888894
0.0061764708 0.0039161975 -7.5000178e-05
0.0045294119 0.00087676058 -0.0092472229
-0.002882353 0.0041499999 -0.00042777797
0.0068823528 0.0013443662 -0.0025444448
-0.0027647058 0.0041499999 -0.0027796298
0.0070000002 0.00029225354 -0.0036027781
0.0070000002 0.0026302817 -0.0045435186
-0.0052352943 -0.0013443662 -0.0093648154
-0.0048823529 0.0041499999 -0.0065425928
-0.003235294 -0.00087676058 -0.0076009263
0.003235294 0.0020457746 -0.0073657413
-0.0046470589 0.00099366205 -7.5000178e-05
-0.0070000002 -0.0027471832 -0.0013685187
0.00064705883 -0.0021626761 -0.0073657413
5.8823531e-05 -0.0041499999 -0.0016037039
-0.0070000002 -0.0027471832 -0.0034851853
0.0070000002 0.0018119719 -0.0020740742
-0.0037058825 -0.0036823945 -0.0079537043
-0.001117647 0.0030978874 -0.0072481483
-0.0053529413 -0.0019288732 -0.0093648154
0.0060588233 -0.0039161975 -0.0093648154
0.0049999999 0.0016950704 -0.0093648154
0.0038235295 0.0041499999 -0.00089814834
-0.0022941176 -0.0039161975 -0.0074833338
-0.0018235294 -0.0027471832 -0.0073657413
-0.0070000002 0.00017535212 -0.0036027781
0.003117647 -0.0015781691 0.0012185184
-0.003 -0.0019288732 0.00016018501
0.0052352943 0.003565493 -7.5000178e-05
-0.0070000002 -0.002396479 -0.0011333335
0.0014705883 -0.0041499999 -0.0060722227
-0.00076470588 0.0041499999 -0.00019259276
-0.0040588235 0.0040330985 -0.0091296304
-0.001117647 5.8450707e-05 0.00098333322
-0.0068823528 0.0014612676 -0.0067777783
-0.0015882353 0.0013443662 -0.0072481483
0.001 5.8450707e-05 0.0018064814
0.0058235293 0.0029809859 -0.0093648154
0.00052941177 -0.0041499999 -0.0041907411
-0.0059411763 -0.00075985916 -7.5000178e-05
-0.0070000002 -0.0015781691 -0.0027796298
0.0041764705 -0.0011105634 -7.5000178e-05
0.001117647 0.00040915495 0.00074814801
-0.0053529413 -0.0020457746 -0.0093648154
-0.0070000002 -0.0015781691 -0.0070129633
0.0051176469 0.0034485916 -0.0093648154
-0.0048823529 0.0022795775 -0.0093648154
0.0051176469 -0.0030978874 -7.5000178e-05
0.0070000002 -5.8450707e-05 -0.0037203706
0.0048823529 0.0041499999 -0.0031324076
-0.002882353 0.0015781691 -7.5000178e-05
0.0017058824 0.0041499999 -0.0038379633
0.0047647059 -0.0041499999 -0.0052490742
0.0014705883 -0.00099366205 -0.0073657413
-0.0025294118 0.0041499999 -0.0013685187
0.0070000002 -0.003565493 -0.0033675928
0.00064705883 -0.0040330985 -0.0074833338
0.0014705883 -0.0041499999 -0.0036027781
-0.0040588235 0.003565493 -0.0093648154
0.0070000002 0.0026302817 -0.0032500003
-0.0047647059 -0.0041499999 -0.0032500003
-0.0068823528 0.0034485916 -0.00019259276
0.0045294119 -0.0041499999 -0.003014815
0.0045294119 0.0041499999 -0.0066601853
-0.003235294 0.00087676058 -7.5000178e-05
0.0047647059 -0.002396479 -7.5000178e-05
-0.0022941176 0.0041499999 -0.0060722227
0.0070000002 -0.0012274649 -0.0076009263
0.0015882353 -0.00099366205 -0.0073657413
0.0014705883 -0.002396479 -0.0073657413
-0.0035882352 -0.00017535212 -7.5000178e-05
-0.0070000002 -5.8450707e-05 -0.0043083336
-0.0014705883 -0.0041499999 -0.0023092595
0.00064705883 -0.0028640847 -7.5000178e-05
-0.002882353 -0.0016950704 0.0023944443
-0.0068823528 0.0033316903 -0.0072481483
0.00076470588 0.0041499999 -0.0031324076
5.8823531e-05 0.0018119719 -7.5000178e-05
-0.0061764708 -0.0022795775 -0.0093648154
0.0070000002 -0.00064295775 -0.0060722227
0.0044117649 -0.0041499999 -0.0081888894
0.0070000002 -0.0021626761 -0.0010157409
0.00017647058 -5.8450707e-05 -0.0073657413
-0.0058235293 0.0041499999 -0.00031018537
-0.0070000002 -0.00099366205 -0.0027796298
-0.001 0.0041499999 -0.0040731486
-0.0062941178 -0.0040330985 -0.00066296314
0.0070000002 -0.0037992958 -0.0013685187
0.0048823529 0.00040915495 0.0027472221
-0.0038235295 -0.0011105634 -7.5000178e-05
0.0057058823 -0.0040330985 -0.0065425928
0.001 0.0037992958 -7.5000178e-05
-0.0065294118 -0.0041499999 -0.0090120379
-0.0051176469 -0.0041499999 -0.0016037039
0.00029411764 -0.0041499999 -0.0048962967
0.0033529412 0.0032147889 -0.0073657413
-0.0062941178 0.0011105634 -7.5000178e-05
-0.0039411765 0.0019288732 -0.0084240744
0.0038235295 -0.0041499999 -0.0038379633
-0.0068823528 -0.0034485916 -0.0092472229
0.0066470588 0.0041499999 -0.0067777783
0.0045294119 -0.0025133803 -0.0092472229
-0.0013529412 -0.0041499999 -0.0036027781
0.0070000002 0.0012274649 -0.00089814834
0.00041176472 0.0041499999 -0.0045435186
-0.0040588235 0.0041499999 -0.0012509262
-0.003235294 0.0029809859 -7.5000178e-05
0.0058235293 -0.0040330985 -0.0044259261
-0.0055882353 0.0041499999 -0.0051314817
0.0020588236 -0.0041499999 -0.002191667
0.0070000002 0.0020457746 -0.0081888894
-0.003235294 0.0041499999 -0.0012509262
0.00076470588 0.00052605633 -7.5000178e-05
-0.0062941178 -0.0040330985 -0.0019564817
-0.003235294 0.00029225354 0.00051296281
-0.00076470588 0.0018119719 -7.5000178e-05
0.0042941174 -0.0028640847 -0.0092472229
-0.0070000002 0.00075985916 -0.0065425928
-0.0068823528 0.0027471832 -0.00089814834
-0.0064117648 -0.0041499999 -0.0092472229
-0.0070000002 -0.0015781691 -0.0031324076
0.003235294 -0.0016950704 0.00098333322
0.0022941176 0.002396479 -0.0072481483
0.002882353 0.0041499999 -0.0070129633
0.0038235295 -0.003565493 -7.5000178e-05
0.0070000002 0.0021626761 -0.0031324076
0.0067647058 5.8450707e-05 -0.0093648154
-0.001 5.8450707e-05 0.00051296281
-0.003235294 -0.0011105634 -0.0076009263
-0.0068823528 0.0037992958 -0.0078361118
-0.0052352943 -0.0015781691 4.2592419e-05
0.0018235294 0.0041499999 -0.0025444448
-0.0068823528 0.0032147889 -0.0020740742
-0.0068823528 0.0034485916 -0.0064250003
0.0014705883 -0.0014612676 -7.5000178e-05
-0.0070000002 -0.0012274649 -0.0037203706
-0.0057058823 0.00064295775 -7.5000178e-05
-5.8823531e-05 -0.0022795775 -0.0073657413
-0.0026470588 0.0041499999 -0.00042777797
-0.0070000002 0.0011105634 -0.0044259261
0.0017058824 0.0013443662 -7.5000178e-05
0.0070000002 -0.0014612676 -0.0063074077
-0.0070000002 -0.0018119719 -0.00019259276
-0.0068823528 -0.0022795775 -0.00019259276
5.8823531e-05 -0.0041499999 -0.0020740742
0.0054705883 -0.0040330985 -0.0020740742
-0.001117647 -0.0021626761 -7.5000178e-05
0.002882353 -0.0041499999 -0.0067777783
0.0070000002 -5.8450707e-05 -0.0064250003
-0.0055882353 -0.0022795775 -0.0093648154
-0.0015882353 -0.0027471832 -0.0073657413
-0.0012352942 0.00040915495 -7.5000178e-05
-0.002882353 -0.0019288732 0.0012185184
-0.0068823528 -0.0039161975 -0.0011333335
-0.003 5.8450707e-05 0.0025120368
0.0013529412 -0.00075985916 -7.5000178e-05
-5.8823531e-05 0.00040915495 -7.5000178e-05
-0.0053529413 0.0041499999 -0.0057194447
0.0070000002 0.00040915495 -0.0031324076
0.0041764705 -0.0041499999 -0.0087768519
-0.0038235295 5.8450707e-05 -0.0079537043
0.0070000002 0.00075985916 -0.0085416669
-0.0014705883 0.0028640847 -7.5000178e-05
0.003117647 0.00040915495 0.00063055538
-0.0070000002 -0.00040915495 -0.0019564817
-0.003 0.0041499999 -0.0053666672
-0.0025294118 0.0041499999 -0.0018388891
0.0070000002 0.0019288732 -0.0084240744
0.0070000002 -0.0013443662 -0.0066601853
-0.0068823528 -0.0037992958 -0.0092472229
-0.0068823528 0.0032147889 -0.0057194447
0.003117647 -0.0041499999 -0.0053666672
0.0034705882 0.0040330985 -7.5000178e-05
-0.0058235293 0.00064295775 -7.5000178e-05
-0.0055882353 0.0041499999 -0.0057194447
0.0039411765 0.00029225354 -0.0090120379
0.0048823529 -0.0029809859 -0.0093648154
0.00017647058 0.0015781691 -7.5000178e-05
-0.0046470589 -0.00075985916 -7.5000178e-05
-0.0037058825 -0.0039161975 -7.5000178e-05
0.0024117648 0.0041499999 -0.0060722227
0.0045294119 -0.0025133803 -7.5000178e-05
-0.00052941177 0.0020457746 -0.0072481483
0.003117647 0.00040915495 0.00016018501
0.0068823528 -0.0015781691 -0.0093648154
0.0049999999 -0.0041499999 -0.0074833338
-0.0053529413 -0.00087676058 -0.0093648154
-0.0021764706 0.0015781691 -7.5000178e-05
0.0070000002 -0.00052605633 -0.0074833338
0.0070000002 -0.0033316903 -0.0012509262
-0.0070000002 -0.00087676058 -0.0060722227
-0.0035882352 0.0020457746 -7.5000178e-05
-0.0062941178 5.8450707e-05 -7.5000178e-05
-0.0061764708 0.003565493 -0.0093648154
0.0070000002 0.0018119719 -0.0031324076
-0.003 0.0041499999 -0.0072481483
-0.0038235295 -5.8450707e-05 -7.5000178e-05
0.002882353 0.0041499999 -0.0013685187
-0.0067647058 0.0039161975 -0.0073657413
-0.00029411764 -0.0041499999 -0.0016037039
-0.0070000002 0.00029225354 -0.0028972225
0.0015882353 -0.0041499999 -0.0017212965
-0.0048823529 0.00017535212 0.002159259
0.0070000002 -0.00017535212 -0.0011333335
-0.0057058823 0.0025133803 -7.5000178e-05
0.0042941174 -0.002396479 -0.0092472229
-0.0019411765 -0.0041499999 -0.0034851853
0.0015882353 0.0041499999 -0.0010157409
-0.0039411765 0.0018119719 -7.5000178e-05
-0.0020588236 0.0041499999 -0.0063074077
-0.0068823528 -0.0037992958 -0.0044259261
0.0068823528 0.0037992958 -0.0025444448
-0.00041176472 0.0030978874 -0.0072481483
-0.0070000002 0.0012274649 -0.0077185188
0.003 -0.0014612676 0.002159259
-0.0038235295 0.0041499999 -0.00031018537
0.0012352942 -0.0041499999 -0.0067777783
-0.0068823528 0.0029809859 -0.0038379633
0.0025294118 0.0029809859 -0.0072481483
0.0067647058 0.0039161975 -0.0019564817
-0.0039411765 0.0032147889 -0.0090120379
0.001117647 -0.0018119719 0.00074814801
0.0070000002 0.00040915495 -0.0064250003
-0.0052352943 -0.00087676058 -7.5000178e-05
0.0070000002 0.0026302817 -0.0057194447
0.0038235295 -0.0036823945 -0.0079537043
0.0066470588 0.0037992958 -0.00019259276
-0.0040588235 -0.00099366205 -7.5000178e-05
-0.0070000002 -0.0029809859 -0.0064250003
0.00076470588 0.0013443662 -0.0072481483
-0.0068823528 0.003565493 -0.00054537057
-0.001 -0.0012274649 -0.0073657413
0.0019411765 -0.00075985916 -0.0073657413
-0.0039411765 -0.0041499999 -0.0051314817
-0.0024117648 -0.0041499999 -0.0028972225
0.0048823529 -0.0041499999 -0.0018388891
0.00076470588 0.0041499999 -0.0016037039
-0.0039411765 -0.00017535212 -0.0086592594
0.0042941174 0.0030978874 -0.0093648154
0.0048823529 0.0041499999 -0.0047787041
-0.0040588235 -0.0041499999 -0.002426852
-0.0018235294 -0.0041499999 -0.0060722227
-0.0070000002 -0.0012274649 -0.0028972225
0.0051176469 0.0041499999 -0.002426852
0.0064117648 0.0041499999 -0.0046611116
0.003 -0.0019288732 0.00051296281
-0.0060588233 -0.0041499999 -0.0052490742
0.0012352942 0.0041499999 -0.0048962967
-0.0049999999 0.00040915495 0.00063055538
0.0035882352 0.0041499999 -0.00031018537
0.0070000002 0.0022795775 -0.0067777783
-0.0059411763 0.0016950704 -7.5000178e-05
-0.0035882352 -0.0022795775 -0.0077185188
0.0065294118 0.0040330985 -0.00054537057
0.00052941177 -0.0036823945 -0.0074833338
0.00076470588 -0.0021626761 -7.5000178e-05
-0.0046470589 -0.0032147889 -0.0093648154
0.0070000002 0.0019288732 -0.0090120379
0.0070000002 -0.0022795775 -0.0088944444
-0.0018235294 -0.0041499999 -0.0047787041
0.003117647 -0.0041499999 -0.0032500003
0.0013529412 -0.00099366205 -0.0073657413
-0.0055882353 -0.0041499999 -0.0033675928
0.0053529413 0.0041499999 -0.002426852
0.0042941174 0.0018119719 -7.5000178e-05
-0.0055882353 -0.0041499999 -0.0025444448
-0.0062941178 0.0040330985 -0.0038379633
-0.0041764705 -0.0041499999 -0.00089814834
0.0033529412 -0.00099366205 -0.0076009263
0.0013529412 0.0030978874 -0.0072481483
-0.0020588236 -0.0041499999 -0.0032500003
-0.0018235294 0.0041499999 -0.0048962967
-0.0051176469 0.0041499999 -0.0077185188
0.0052352943 0.0041499999 -0.0086592594
0.0054705883 0.00087676058 -7.5000178e-05
0.0039411765 0.003565493 -0.0091296304
-0.0053529413 0.0041499999 -0.0088944444
0.00088235294 -0.0040330985 -0.00019259276
0.0027647058 0.0041499999 -0.0040731486
-0.0054705883 0.0041499999 -0.0039555556
0.0070000002 0.0016950704 -0.0057194447
0.0070000002 0.0028640847 -0.0037203706
-0.0025294118 0.0037992958 -0.0072481483
0.0070000002 -0.0018119719 -0.0048962967
0.0046470589 0.0041499999 -0.0025444448
0.0025294118 -0.0041499999 -0.0023092595
-0.0045294119 5.8450707e-05 -7.5000178e-05
0.0070000002 0.0013443662 -0.0083064819
-0.0040588235 -0.0041499999 -0.0041907411
0.0041764705 -0.0041499999 -0.0088944444
-0.0070000002 -0.00064295775 -0.0028972225
-0.0068823528 0.0027471832 -0.0072481483
0.0070000002 -0.00075985916 -0.0037203706
0.001117647 0.0041499999 -0.0043083336
-5.8823531e-05 -0.0036823945 -0.0074833338
0.0067647058 -0.0037992958 -0.0063074077
-0.0057058823 -0.00064295775 -7.5000178e-05
-0.0020588236 -5.8450707e-05 -0.0073657413
-0.0066470588 0.0032147889 -0.0093648154
-0.0046470589 0.0041499999 -0.0040731486
0.00076470588 0.0041499999 -0.0067777783
0.0012352942 -0.0025133803 -0.0073657413
-0.0066470588 0.0029809859 -0.00019259276
-0.00041176472 -0.0041499999 -0.0028972225
-0.0039411765 0.0018119719 -0.0087768519
-5.8823531e-05 -0.0041499999 -0.0048962967
-0.0068823528 5.8450707e-05 -0.0077185188
-0.0042941174 0.0013443662 -7.5000178e-05
-0.0018235294 -0.0032147889 -0.0073657413
0.0048823529 -0.00029225354 -7.5000178e-05
0.0046470589 0.0041499999 -0.0059546297
-0.0053529413 -0.0034485916 -0.0093648154
0.0047647059 -0.0025133803 -0.0093648154
-0.0051176469 5.8450707e-05 4.2592419e-05
-0.0068823528 -0.00040915495 -0.0025444448
-0.0068823528 0.0018119719 -0.0065425928
0.0070000002 0.00052605633 -0.00078055577
0.0070000002 -0.003565493 -0.003014815
-0.00029411764 -0.00040915495 -7.5000178e-05
0.0070000002 0.00040915495 -0.0017212965
-0.0042941174 0.0041499999 -0.0054842597
-0.0062941178 0.0040330985 -0.0041907411
-0.0024117648 0.0041499999 -0.0048962967
-0.0060588233 0.00017535212 -7.5000178e-05
-0.0062941178 0.0040330985 -0.00066296314
0.0048823529 -0.0041499999 -0.0038379633
-0.0054705883 -0.0041499999 -0.0084240744
0.00029411764 0.0034485916 -0.0072481483
-0.0038235295 -0.0041499999 -0.0066601853
-0.0022941176 -0.0041499999 -0.0072481483
0.0015882353 0.002396479 -7.5000178e-05
0.0054705883 0.0041499999 -0.0060722227
-0.0068823528 0.0015781691 -0.00078055577
-0.0048823529 -0.0030978874 -7.5000178e-05
0.0058235293 0.0032147889 -0.0093648154
0.0041764705 -0.0041499999 -0.0011333335
-0.0051176469 -0.00040915495 -0.0093648154
0.001117647 0.0028640847 -7.5000178e-05
0.0058235293 -0.0028640847 -0.0093648154
0.00064705883 5.8450707e-05 -7.5000178e-05
-0.0070000002 -0.00075985916 -0.0040731486
-0.0057058823 0.00017535212 -0.0093648154
0.0035882352 0.0041499999 -0.0072481483
0.0019411765 -0.0041499999 -0.0023092595
-0.0068823528 -0.0012274649 -0.00019259276
-0.0044117649 0.0041499999 -0.00089814834
-0.0068823528 -0.0033316903 -0.0092472229
0.0070000002 -0.0022795775 -0.0036027781
-0.0034705882 0.00052605633 -0.0076009263
-0.0053529413 -0.0041499999 -0.0068953708
-0.0024117648 0.0029809859 -7.5000178e-05
0.0052352943 0.00029225354 0.0020416665
0.00088235294 -0.0012274649 -0.0073657413
