# .PCD v0.7 - Point Cloud Data file format
VERSION 0.7
FIELDS x y z
SIZE 4 4 4
TYPE F F F
COUNT 1 1 1
WIDTH 1147
HEIGHT 1
VIEWPOINT 0 0 0 1 0 0 0
POINTS 1147
DATA ascii
-0.0026853615 -0.0029749998 0.0011651064
-0.00089512049 -0.00083023251 -0.0012004256
-0.005715 -0.0011069768 -0.00043510637
0.00020656627 -0.0024215116 -0.0011308511
-0.0049575903 -0.00083023251 -1.7659575e-05
0.0048198793 -0.0001383721 -1.7659575e-05
0.0039936146 0 -1.7659575e-05
-0.00013771084 0.0026290696 -0.00078297872
-0.001790241 0.0022139535 -0.00050468085
-0.0019279518 -0.0029058137 -0.0005742553
0.0028230723 0.0029749998 -0.00078297872
0.0041313255 -0.00034593022 -0.0012004256
0.002134518 0.00041511626 -0.00092212769
0.0030296387 0.00034593022 -0.00036553192
0.0046821688 -0.0001383721 -0.0012004256
-0.0030296387 -0.0020755813 -0.0012004256
-0.0024099397 -0.0013837209 -0.0012004256
0.0011016867 -0.0028366279 0.0013042553
-0.00089512049 0.0019372093 -0.00078297872
0.00075740967 6.9186048e-05 -0.0011308511
-0.0018590963 0.0026982557 -0.00078297872
0.0023410844 0.0023523255 -0.00050468085
0.0026853615 -0.00089941855 -0.0012004256
0.00013771084 0.0019372093 -0.00092212769
-0.0042001805 0.0013837209 -0.00078297872
-0.0045444579 0.0028366279 -0.0005742553
0.0030296387 -0.00027674419 -0.0012004256
-0.0006885542 -0.0021447674 -1.7659575e-05
-0.0050953012 -0.0026982557 0.0016521277
-0.001308253 -0.0026290696 0.0017912766
-0.00020656627 -0.0022831394 -0.0011308511
-0.0024787951 -0.0029749998 -0.00022638298
0.00048198795 0.001522093 -0.00050468085
0.0029607832 -0.0017988371 -1.7659575e-05
0.0013771084 -0.0013837209 -1.7659575e-05
-0.001308253 0.0022831394 -0.00050468085
0.0010328314 0 -0.0012004256
0.0045444579 0.0029749998 -0.00064382982
0.0027542168 -0.001660465 -1.7659575e-05
0.00055084337 -0.0022139535 -1.7659575e-05
0.0032362049 0.0024215116 -0.00050468085
0.0026853615 -0.0024906977 5.1914893e-05
0.0016525302 -0.00089941855 -0.0012004256
0.0050953012 -0.0024906977 0.0011651064
0.0036493375 -0.0025598835 0.00060851063
0.0052330121 0.00041511626 -0.00043510637
0.0013771084 -0.0026982557 0.0010259574
0.00020656627 -0.0017988371 -0.0012004256
0.00013771084 0.0026982557 -0.00050468085
0.0039247591 0.0029058137 -0.00078297872
-0.0052330121 -0.0029058137 -1.7659575e-05
-0.0016525302 -0.0015912791 -1.7659575e-05
-0.0042001805 -0.00096860464 -0.0012004256
-0.0044067469 -0.0028366279 -1.7659575e-05
-0.0013771084 -0.0013837209 -1.7659575e-05
-0.003442771 0 -0.0011308511
0.0024099397 -0.0021447674 -0.0011308511
-0.0044067469 -0.00076104648 -0.0012004256
0.0055084336 -0.0023523255 -0.00043510637
0.0043378915 -0.00027674419 -1.7659575e-05
-0.0041313255 0.0026982557 -0.0005742553
0.0039936146 -0.0026982557 -0.00064382982
0.0023410844 0.00034593022 -0.00036553192
-0.0037870482 -0.0020063953 -1.7659575e-05
-0.0044756024 0.0023523255 -0.00050468085
-0.0035116265 0.00055348838 -0.00050468085
-0.0050953012 -0.00048430232 -0.00015680851
0.0031673494 0.0017988371 -0.00050468085
0.0051641567 -0.001660465 -0.0011308511
-0.0011705422 -0.0024906977 0.0010259574
0.0056461445 -0.0021447674 -0.00022638298
0.0026165061 -0.0024215116 5.1914893e-05
-0.0056461445 -0.001522093 -0.00043510637
0.00027542168 -0.0013837209 -0.0012004256
0.0017213855 0.00083023251 -0.00050468085
-0.0048198793 -0.0001383721 -0.0011308511
0.005577289 -0.0022831394 -0.00029595743
-0.0055084336 -0.00083023251 -0.0011308511
-0.0028919277 -0.0020063953 -0.0011308511
0.0006885542 -0.001660465 -0.0012004256
-0.00096397591 6.9186048e-05 -1.7659575e-05
0.0011016867 0.00062267442 -0.00092212769
0.0037870482 -0.0020755813 -0.0011308511
0.0054395781 -0.0013837209 -0.0012004256
-0.00075740967 -0.0026982557 -0.00071340427
0.001308253 -0.0029749998 -8.7234046e-05
0.0045444579 -0.0029058137 -1.7659575e-05
0.0031673494 -0.0014529069 -0.0012004256
0.0043378915 0.0023523255 -0.00078297872
0 0.0026290696 -0.00050468085
0.0032362049 -0.0029749998 -8.7234046e-05
-0.0056461445 -0.0022139535 -0.00050468085
0.003442771 0.00083023251 -0.00085255317
-0.0039936146 0.0027674418 -0.00064382982
-0.0053707231 -0.0024215116 -0.0010612766
-0.0031673494 -0.0019372093 -1.7659575e-05
6.8855421e-05 -0.0029058137 -0.00043510637
-0.0026165061 -0.0029749998 -0.00022638298
0.002134518 0.0014529069 -0.00043510637
0.00041313254 -0.0026290696 -1.7659575e-05
-0.0032362049 -0.0017296511 -1.7659575e-05
-0.0006885542 -0.00069186045 -1.7659575e-05
-0.0027542168 0.0023523255 -0.00050468085
0.0013771084 0.00069186045 -0.00036553192
-0.0006885542 -0.0029749998 -0.00015680851
0.0030296387 0 -0.0012004256
0.0032362049 0.001660465 -0.00050468085
-0.0010328314 6.9186048e-05 -0.0011308511
-0.0038559036 0.00069186045 -0.00085255317
-0.0024099397 0.0029058137 -0.00078297872
-0.0042001805 0.0026290696 -0.00071340427
0.0029607832 -0.0020063953 -1.7659575e-05
0.0027542168 -0.0018680232 -0.0012004256
-0.0045444579 0.0013145348 -0.00078297872
0.00055084337 0.001522093 -0.00050468085
-0.00013771084 -0.0024906977 0.0011651064
-0.00013771084 0.0014529069 -0.00050468085
-0.0030984939 -0.0024215116 -0.0012004256
0.0042001805 -0.0022831394 -0.0011308511
0.0022033735 0.0010377907 -0.00043510637
0.0013771084 0.0019372093 -0.00085255317
-0.0027542168 0.00034593022 -0.00092212769
-0.0037181927 0.001660465 -0.00050468085
-0.005715 -0.00027674419 -0.00085255317
0.0015148193 0.0011069768 -0.00085255317
-0.0031673494 0.0011761627 -0.00078297872
0.0050264457 0.00083023251 -0.00050468085
-0.0028230723 -0.0010377907 -1.7659575e-05
-0.0048887348 0.0022139535 -0.00078297872
0.0022033735 -0.0029749998 -8.7234046e-05
-0.00048198795 -0.00020755813 -1.7659575e-05
0.0025476506 0.0023523255 -0.00078297872
-0.0054395781 0.00034593022 -0.00085255317
-0.0046133134 -0.0029058137 -0.00043510637
-0.0011016867 -0.00076104648 -0.0012004256
0.0037181927 6.9186048e-05 -0.0010612766
0.0047510243 -0.0018680232 -1.7659575e-05
0.0028230723 0.0022831394 -0.00050468085
-0.00048198795 -0.0017988371 -0.0011308511
-0.0042001805 0.0020063953 -0.00050468085
0.001790241 0.0026982557 -0.00050468085
-0.0027542168 0.0024215116 -0.00050468085
0.0028230723 -0.0020063953 -1.7659575e-05
-0.0044756024 0.00034593022 -0.00036553192
-0.0048887348 -0.0027674418 0.0013738298
0.0052330121 0.0022139535 -0.00050468085
0.005715 -0.00089941855 -0.00064382982
0.0044067469 0.00055348838 -0.00050468085
-0.0030984939 0.0013837209 -0.00078297872
0.0037870482 -0.0029749998 0.00074765959
-6.8855421e-05 0.0017296511 -0.00092212769
0.0039247591 0.0020755813 -0.00050468085
0.0036493375 -0.0026982557 0.0008868085
0.0011705422 0.0017296511 -0.00085255317
-0.0013771084 0.00076104648 -0.00043510637
-0.0026853615 -0.0027674418 0.00053893618
-0.0036493375 -0.0026290696 0.00095638295
-0.003442771 -0.0020755813 -1.7659575e-05
0 0.0014529069 -0.00050468085
-0.0025476506 0.00034593022 -0.00092212769
-0.00020656627 -0.0011069768 -1.7659575e-05
0.0053707231 -0.00062267442 -0.0012004256
0.004269036 -0.0029058137 -0.00036553192
-0.001308253 -0.0029749998 0.00039978724
0.0024787951 0.0026290696 -0.00050468085
0.00075740967 0.0020755813 -0.00050468085
0.00048198795 0.0020063953 -0.00092212769
-0.0026165061 -0.0029749998 0.00081723405
-0.0010328314 0.0024906977 -0.00050468085
-0.0053018676 -0.0017988371 -0.0012004256
-0.0023410844 0.0001383721 -0.00099170208
0.0042001805 0.00062267442 -0.00085255317
-0.00406247 -0.00089941855 -1.7659575e-05
-0.0019968073 0.00020755813 -0.00099170208
0.004269036 -0.00055348838 -0.0012004256
0.005715 -0.0013145348 -0.00015680851
-0.005715 -0.00055348838 -0.00085255317
0.0015148193 -0.0021447674 -0.0012004256
0.0028230723 0.001522093 -0.00085255317
0.0037870482 -0.0024906977 0.00074765959
-0.0051641567 0.0001383721 -0.00092212769
0.0052330121 0.00069186045 -0.00085255317
0.00089512049 0.0028366279 -0.00078297872
0.0052330121 -0.0026982557 0.00060851063
-0.0054395781 -0.0011069768 -1.7659575e-05
0.0056461445 -0.0015912791 -0.00022638298
-0.0039936146 0.00041511626 -0.00036553192
0.00020656627 0.00096860464 -0.00036553192
-0.0020656628 0.00089941855 -0.00050468085
0.0050264457 0.0010377907 -0.00085255317
0.00061969878 0.0013837209 -0.00050468085
0.0014459639 0.00027674419 -0.00092212769
0.0053707231 0.00089941855 -0.00085255317
-0.0024099397 0.0017296511 -0.00078297872
-0.0056461445 -0.0013837209 -0.00071340427
0.0050953012 -0.0011761627 -1.7659575e-05
-0.0018590963 -0.00027674419 -0.0011308511
0.004269036 -0.00089941855 -1.7659575e-05
0.005715 -0.00069186045 -0.00043510637
-0.0052330121 -0.00034593022 -0.00015680851
-0.005715 6.9186048e-05 -0.00064382982
-0.00055084337 -0.00034593022 -1.7659575e-05
0.0046821688 -0.00020755813 -0.0012004256
-0.0042001805 -0.0001383721 -1.7659575e-05
-0.00013771084 -0.0019372093 -1.7659575e-05
-0.0033050603 0.00020755813 -0.00099170208
-0.003580482 -0.0029749998 -8.7234046e-05
0.003442771 -0.0013145348 -0.0011308511
-0.0028919277 -0.0020755813 -1.7659575e-05
-0.0048887348 0.0014529069 -0.00078297872
0.0039936146 0.0013145348 -0.00085255317
-0.0053018676 0.0020063953 -0.00078297872
0.0046133134 0.00055348838 -0.00085255317
0.0003442771 -0.00041511626 -1.7659575e-05
0.002134518 -0.00027674419 -1.7659575e-05
0.005715 -0.00089941855 -0.0011308511
0.00013771084 -0.0025598835 0.0008868085
0.0053018676 0.00020755813 -0.00092212769
-0.0014459639 -0.0020063953 -0.0012004256
0.005577289 -0.00048430232 -0.0012004256
-0.002134518 0.0013837209 -0.00050468085
-0.00013771084 -0.001522093 -0.0012004256
0.0028919277 -0.00069186045 -1.7659575e-05
-0.0031673494 -0.0013145348 -1.7659575e-05
-0.00075740967 0.0028366279 -0.00050468085
-0.0056461445 -0.001660465 -0.00099170208
0.0017213855 0.001522093 -0.00085255317
-0.0032362049 -0.0027674418 -0.00064382982
0.0019968073 0.00048430232 -0.00050468085
-0.0012393976 -0.0011761627 -1.7659575e-05
-0.0029607832 0.00041511626 -0.00092212769
0.0016525302 -0.00041511626 -0.0012004256
-0.0020656628 0.0017988371 -0.00078297872
0.0055084336 0.0010377907 -0.00050468085
-0.0053018676 -0.0001383721 -0.00099170208
-0.0036493375 -0.00076104648 -1.7659575e-05
-0.0011016867 0.0001383721 -0.00099170208
-0.0003442771 -0.00027674419 -0.0012004256
0.0053707231 -0.0026290696 -8.7234046e-05
-0.00020656627 -0.0024906977 -0.00092212769
0.0030984939 -0.0027674418 -1.7659575e-05
-0.0023410844 0.0011069768 -0.00043510637
-0.0026853615 0.0013837209 -0.00050468085
0.0030984939 -0.0001383721 -0.0012004256
6.8855421e-05 0.0011069768 -0.00036553192
-0.00061969878 -0.0024215116 -1.7659575e-05
0.0044067469 -0.0019372093 -1.7659575e-05
0.0049575903 0.0025598835 -0.00078297872
-0.0039247591 -0.0029058137 0.00026063831
-0.005577289 -0.00027674419 -0.00036553192
0.0035116265 0.0018680232 -0.00085255317
0.0052330121 -0.0013837209 -1.7659575e-05
-0.0024787951 0.0013837209 -0.00050468085
0.0037181927 0.0012453488 -0.00050468085
0.0025476506 0.00076104648 -0.00036553192
-0.0043378915 -0.0024215116 -1.7659575e-05
-0.0018590963 0.0014529069 -0.00085255317
-0.00048198795 -0.00055348838 -0.0012004256
-0.003580482 0.0022831394 -0.00050468085
0.0048887348 -0.0025598835 0.0010259574
0.0011705422 -0.0013145348 -1.7659575e-05
-0.0022033735 0.0022139535 -0.00078297872
-0.0046821688 -0.00062267442 -0.0012004256
0.0051641567 -0.0025598835 0.0008868085
0.0016525302 -0.0023523255 -0.0011308511
0.0049575903 0.00083023251 -0.00050468085
-0.0014459639 0.00020755813 -0.00099170208
0.0015836747 0.0014529069 -0.00085255317
0.003580482 0.0027674418 -0.00050468085
-0.0051641567 0.00034593022 -0.00036553192
0.0006885542 0.0023523255 -0.00050468085
0.0053707231 -0.0013837209 -0.0012004256
0.0011705422 0.00041511626 -0.00036553192
0.00027542168 0.0015912791 -0.00050468085
-0.0041313255 0.0017988371 -0.00043510637
0.00096397591 0.00020755813 -0.00099170208
-0.0017213855 0.0001383721 -0.00029595743
-0.0028230723 0.0013837209 -0.00078297872
0.0006885542 0.0019372093 -0.00085255317
-0.0022722289 0.00076104648 -0.00085255317
0.0030296387 -0.00089941855 -0.0012004256
-0.0019968073 0.0021447674 -0.00078297872
0.00096397591 -0.0025598835 -1.7659575e-05
0.0028230723 0.001522093 -0.00050468085
0.0048198793 -0.0018680232 -1.7659575e-05
-0.002134518 -0.0027674418 -0.00064382982
-0.0038559036 -0.00034593022 -0.0012004256
-0.0054395781 0.0010377907 -0.00050468085
0 0.0023523255 -0.00050468085
-0.0029607832 -0.0026982557 -0.00078297872
-0.0003442771 -0.0014529069 -0.0011308511
0.0047510243 -0.00020755813 -1.7659575e-05
0.0041313255 0.0017988371 -0.00050468085
-0.0024099397 0.0023523255 -0.00050468085
0.004269036 -0.0023523255 -1.7659575e-05
-0.00096397591 -0.0029058137 -0.00043510637
-0.0012393976 0.0029749998 -0.00071340427
6.8855421e-05 -0.00027674419 -0.00127
-0.0037870482 0.00069186045 -0.00050468085
0.0053018676 0.0019372093 -0.00050468085
0.0036493375 -0.0027674418 0.00053893618
-0.00048198795 0.00055348838 -0.00092212769
0.0029607832 0.00055348838 -0.00092212769
-0.0011016867 -0.0027674418 0.0010259574
-6.8855421e-05 -0.0029058137 0.0017217022
-0.0022722289 0.00076104648 -0.00043510637
0.0011016867 0.0017296511 -0.00085255317
0.0050953012 0.0027674418 -0.0005742553
0.0017213855 -0.00027674419 -0.0012004256
0.0016525302 -0.0019372093 -1.7659575e-05
0.00406247 -0.0011761627 -1.7659575e-05
-0.005715 -0.00083023251 -0.00029595743
-0.0039936146 -0.0013837209 -0.0012004256
0.0019968073 -0.0021447674 -1.7659575e-05
-0.00061969878 -0.0024215116 -0.00099170208
0.0036493375 -0.0027674418 0.00046936169
0.003442771 -0.0022139535 -0.0011308511
-0.0045444579 0.0017296511 -0.00078297872
-0.00041313254 0.0026982557 -0.00050468085
-0.0050264457 -0.00069186045 -1.7659575e-05
0.0013771084 -0.0024906977 0.0008868085
0.0022033735 0.0013837209 -0.00085255317
0.00027542168 0.0026982557 -0.00078297872
-0.0015836747 -0.0013145348 -1.7659575e-05
-0.0010328314 -0.0024215116 5.1914893e-05
0.0044067469 -0.00027674419 -1.7659575e-05
-0.0043378915 -0.0029058137 -0.00036553192
-0.0014459639 -0.0026982557 0.00039978724
0.0051641567 -0.0028366279 0.00053893618
0.0023410844 -0.0026982557 0.00039978724
0.0039936146 0.00083023251 -0.00050468085
0.0041313255 -0.00034593022 -1.7659575e-05
0.005715 -0.00027674419 -0.00064382982
0.001308253 -0.00089941855 -1.7659575e-05
0.0049575903 -0.00055348838 -0.0012004256
0.005715 -0.00055348838 -0.00015680851
-0.00013771084 -0.0029058137 0.00033021276
-0.0037870482 -6.9186048e-05 -0.0011308511
-0.0044756024 0.00089941855 -0.00050468085
-0.00406247 -0.0012453488 -0.0012004256
0.0033050603 -0.00027674419 -0.0011308511
0.003442771 0.0013837209 -0.00085255317
0.0039247591 -0.0025598835 0.00046936169
-0.0023410844 -0.0028366279 0.00019106382
-0.0033050603 0.0014529069 -0.00078297872
0.0036493375 0.00048430232 -0.00092212769
0.0023410844 -0.0027674418 0.0012346809
-0.0051641567 -0.00062267442 -8.7234046e-05
0.0042001805 0.0029749998 -0.00078297872
-0.00020656627 -0.0025598835 0.00060851063
-0.0012393976 0.0011069768 -0.00085255317
-6.8855421e-05 0.0021447674 -0.00092212769
0.0023410844 -0.0025598835 0.00067808508
-0.0011016867 -0.0027674418 0.00053893618
-0.0039247591 0.0015912791 -0.00078297872
-0.0019968073 0.0026982557 -0.00078297872
0.0039247591 0.0023523255 -0.00078297872
-0.0026165061 -0.0024906977 0.0010955319
-0.00406247 0.0018680232 -0.00078297872
-0.0056461445 -0.001660465 -0.00029595743
-0.00013771084 0.0028366279 -0.00050468085
0.0050264457 -0.0015912791 -0.0012004256
0.0036493375 -0.0027674418 0.0008868085
0.0030984939 -0.0029058137 -1.7659575e-05
0.001790241 0.00062267442 -0.00092212769
0.0047510243 0.0024906977 -0.00078297872
-0.0011016867 0.0018680232 -0.00078297872
0.0033050603 0.00027674419 -0.00092212769
0.00013771084 -0.0024906977 0.00026063831
-6.8855421e-05 0.0029058137 -0.0005742553
0.0020656628 -0.0027674418 -0.00064382982
-0.0046821688 -0.0012453488 -1.7659575e-05
0.0053018676 -0.0027674418 0.00033021276
-0.0012393976 0.00089941855 -0.00085255317
-0.003580482 0.0011069768 -0.00085255317
0.0019968073 0.00020755813 -0.00099170208
-0.00406247 0.00083023251 -0.00085255317
0.0048887348 0.0027674418 -0.00050468085
0.0026853615 -0.0029749998 -1.7659575e-05
6.8855421e-05 -0.001522093 -0.0012004256
-0.0041313255 -0.00096860464 -1.7659575e-05
0.0050264457 0.00076104648 -0.00085255317
-0.0013771084 0.0024906977 -0.00050468085
0.0046133134 -0.00055348838 -1.7659575e-05
0.005715 -0.0013145348 -0.00050468085
0.0029607832 -0.0022831394 -0.0011308511
0.003580482 -0.0015912791 -1.7659575e-05
0.002134518 0.001522093 -0.00036553192
0.0030296387 -0.0022139535 -0.0011308511
6.8855421e-05 0 -0.00127
0.0038559036 0.0011069768 -0.00085255317
0.0051641567 -0.0028366279 -0.00022638298
-0.0055084336 -0.0012453488 -0.0011308511
-0.0049575903 -0.0001383721 -0.00015680851
0.0049575903 -0.00034593022 -1.7659575e-05
0.0031673494 0.00027674419 -0.00036553192
0.0053707231 0.00076104648 -0.00050468085
-0.0035116265 -6.9186048e-05 -1.7659575e-05
-0.0024787951 0.0015912791 -0.00050468085
-0.0024787951 -0.0020063953 -0.0012004256
0.0042001805 -0.00048430232 -1.7659575e-05
0.005715 -0.00020755813 -0.00092212769
-0.0033739156 -0.0024906977 -0.00085255317
0.0052330121 -0.0027674418 0.00074765959
-0.0019279518 0.00089941855 -0.00050468085
-0.0033739156 0.00089941855 -0.00085255317
-0.0022033735 0.0022139535 -0.00050468085
0.0035116265 0.0001383721 -8.7234046e-05
0.0051641567 -0.0025598835 0.00095638295
-0.0030984939 -6.9186048e-05 -1.7659575e-05
0.004269036 -0.0020063953 -1.7659575e-05
-0.003580482 0.0026982557 -0.00071340427
-0.0019279518 -0.0001383721 -1.7659575e-05
-0.0056461445 0.00055348838 -0.00078297872
-0.0053707231 -0.00020755813 -0.00029595743
0.0019968073 0.001660465 -0.00085255317
-0.005715 -0.00069186045 -0.00043510637
0.0011016867 -0.0001383721 -0.0012004256
-0.0022722289 -0.0022831394 -0.0012004256
-0.0051641567 0.0019372093 -0.00078297872
-0.0052330121 0.00062267442 -0.00085255317
-0.0026853615 -0.00055348838 -0.0012004256
-0.0022033735 0.0001383721 -0.00029595743
-0.00013771084 -0.0022139535 -0.0012004256
0.0054395781 0.00055348838 -0.00085255317
-0.0022033735 -0.0026982557 -0.00071340427
0.0029607832 0.0013837209 -0.00050468085
0.00027542168 0.00055348838 -0.00092212769
0.005577289 -0.0022139535 -1.7659575e-05
0.0013771084 -0.0021447674 -1.7659575e-05
0.0013771084 -0.0029749998 0.0011651064
0.0019968073 -0.0017988371 -1.7659575e-05
-0.00013771084 0.00096860464 -0.00036553192
-0.0048198793 -0.0024906977 -0.0010612766
0.00406247 0.00048430232 -0.00092212769
0.0043378915 0.0001383721 -1.7659575e-05
0.001790241 -0.0029749998 -1.7659575e-05
0.0046133134 -0.0023523255 -0.00085255317
-0.0046821688 -0.0017988371 -0.0012004256
-0.005577289 -0.00089941855 -0.0011308511
-0.0022722289 6.9186048e-05 -8.7234046e-05
0.0029607832 6.9186048e-05 -0.00015680851
0.0003442771 0.00096860464 -0.00036553192
0.0011705422 -0.0019372093 -0.0012004256
0.0020656628 -0.0023523255 -1.7659575e-05
-0.0013771084 -0.0027674418 0.00074765959
0.0032362049 0.0011761627 -0.00085255317
-0.0011016867 -0.00069186045 -0.0012004256
0.005715 -0.0012453488 -0.00043510637
-0.00013771084 -0.0029058137 0.00046936169
0.0038559036 -0.001522093 -0.0012004256
0.0011705422 -0.0021447674 -0.0012004256
-0.0003442771 -0.0013145348 -0.0012004256
-0.00089512049 0.0012453488 -0.00092212769
-0.0056461445 -0.0017988371 -0.00029595743
0.004269036 0.0024215116 -0.00050468085
0.0047510243 -0.0014529069 -1.7659575e-05
-0.0042001805 0.0026982557 -0.00064382982
0.0027542168 -0.0026982557 0.00053893618
0.0015148193 -0.001522093 -0.0012004256
0.0027542168 -0.0029749998 0.00081723405
-0.0046133134 -0.00055348838 -0.0012004256
0.0012393976 -0.00020755813 -0.0012004256
-0.0054395781 0.0019372093 -0.00071340427
-0.0045444579 0.0024906977 -0.00050468085
-0.003442771 0.0022831394 -0.00050468085
0.0028230723 -0.0029749998 -8.7234046e-05
0.0019968073 0.001522093 -0.00085255317
-0.0042001805 0.0010377907 -0.00050468085
0.0033739156 0.0028366279 -0.00078297872
0 0.00055348838 -0.00050468085
-0.0024787951 0.0024906977 -0.00078297872
-0.0010328314 0.001660465 -0.00050468085
0.005715 6.9186048e-05 -0.00099170208
0.0043378915 0.0012453488 -0.00085255317
0.0030296387 0.00020755813 -1.7659575e-05
0.0029607832 0.0021447674 -0.00078297872
0.0037870482 -0.00062267442 -0.0012004256
0.0036493375 -0.0018680232 -1.7659575e-05
0.0023410844 0.00027674419 -0.00092212769
-6.8855421e-05 0.0014529069 -0.00050468085
-0.0012393976 -0.00034593022 -0.0012004256
0.0013771084 -0.0026982557 0.00053893618
0.0033739156 0.0022139535 -0.00078297872
-0.003580482 0.0010377907 -0.00085255317
0.003442771 -0.0013837209 -1.7659575e-05
-0.004269036 0.0013145348 -0.00078297872
-0.0022033735 0.00096860464 -0.00085255317
0.00027542168 -0.0029058137 -0.0005742553
0.0035116265 -0.0018680232 -1.7659575e-05
0.0014459639 -0.0026982557 -0.00078297872
-0.00082626508 0.0019372093 -0.00043510637
-0.0030296387 6.9186048e-05 -0.0010612766
-0.0047510243 -0.0021447674 -0.0012004256
0.0019968073 0.0021447674 -0.00050468085
0.001790241 0.0020063953 -0.00085255317
-0.0024099397 -0.0024906977 -0.00085255317
0.0039936146 0.00062267442 -0.00043510637
-0.0048887348 -0.0018680232 -0.0012004256
-0.0039936146 -0.0025598835 0.00012148936
-0.0029607832 0.0020063953 -0.00078297872
0.0037181927 -0.0028366279 -0.00050468085
-0.0048887348 -0.0027674418 0.0008868085
0.0011705422 -0.0014529069 -0.0012004256
0.00075740967 -0.00062267442 -1.7659575e-05
0.00027542168 0.001522093 -0.00050468085
0.0036493375 -0.0020755813 -0.0011308511
-0.0033050603 -0.0024215116 -0.0011308511
-0.0025476506 0.0015912791 -0.00050468085
0.0051641567 6.9186048e-05 -0.0012004256
0.0039247591 -0.00076104648 -1.7659575e-05
-0.0037870482 -0.00069186045 -0.0012004256
-0.0024099397 0.0024906977 -0.00050468085
0.0006885542 -0.0024906977 -0.00092212769
-0.0050953012 -0.0029058137 0.00046936169
0.0023410844 -0.0029058137 0.00074765959
-0.0012393976 0.0017988371 -0.00085255317
0.0015148193 0.00027674419 -0.00036553192
-0.0024099397 -0.0029058137 0.00046936169
-0.0046133134 -0.0012453488 -0.0012004256
-0.0037870482 0.0020755813 -0.00050468085
-0.0044067469 0.0020755813 -0.00078297872
-0.0026165061 -0.0029058137 0.00039978724
-0.0051641567 -0.0023523255 -1.7659575e-05
0.0019279518 0.00055348838 -0.00050468085
0.001790241 -0.00083023251 -1.7659575e-05
0.0011705422 -0.0024906977 0.0008868085
0.0046821688 0.00020755813 -0.00099170208
0.0003442771 0.0026290696 -0.00078297872
0.0037181927 0.0023523255 -0.00050468085
-0.0011016867 0.0024215116 -0.00036553192
-0.0011016867 -0.0023523255 5.1914893e-05
0.0051641567 0.0014529069 -0.00050468085
0.0048887348 -0.0025598835 0.00039978724
-0.0047510243 0.0017296511 -0.00036553192
0.0039936146 -0.0011761627 -1.7659575e-05
-0.0037870482 -0.0029749998 0.0012346809
-0.0017213855 -0.00089941855 -1.7659575e-05
-0.0029607832 -0.0027674418 -0.00064382982
0.0028230723 0.0013837209 -0.00085255317
0.0036493375 -0.0026290696 -0.00064382982
-0.0056461445 -0.00027674419 -0.00092212769
-0.0033050603 -0.00034593022 -1.7659575e-05
0.0026853615 -0.0024906977 0.0015129787
-0.0011016867 -0.0026982557 0.00060851063
-0.0044067469 0.0001383721 -0.00029595743
-0.0015148193 0.0020755813 -0.00043510637
-0.0031673494 0.0022831394 -0.00078297872
0.0014459639 0.0010377907 -0.00092212769
-6.8855421e-05 0.0013145348 -0.00092212769
0.0046133134 -0.0015912791 -0.0012004256
-0.0053018676 0.0022831394 -0.00050468085
-0.0019279518 0.0014529069 -0.00036553192
-0.0048887348 0.0021447674 -0.00050468085
-0.0028919277 0.0024215116 -0.00050468085
-0.0011705422 -0.0029058137 -0.0005742553
0.0026165061 -0.0024906977 0.00046936169
0.002134518 -0.0026982557 -0.00071340427
-0.0031673494 -0.00089941855 -0.0011308511
0.00075740967 -0.00041511626 -1.7659575e-05
-0.0016525302 -0.0024215116 -0.00092212769
-6.8855421e-05 0.0015912791 -0.00092212769
-0.0032362049 0.00041511626 -0.00085255317
-0.0010328314 -0.001660465 -0.0012004256
0.0027542168 -0.0028366279 0.00067808508
-0.0048198793 -0.0025598835 -1.7659575e-05
0.0015148193 -0.0019372093 -1.7659575e-05
0.0012393976 -0.0020755813 -1.7659575e-05
0.0020656628 0.0029749998 -0.00078297872
0.0036493375 0.00062267442 -0.00036553192
-0.0046133134 0.00062267442 -0.00050468085
-0.0044756024 -0.0022139535 -1.7659575e-05
0.003442771 0.0027674418 -0.00078297872
0.0012393976 0.00089941855 -0.00050468085
-0.0023410844 0.00096860464 -0.00050468085
-0.0053018676 -0.00027674419 -0.00015680851
-0.0037181927 -0.0022139535 -1.7659575e-05
0.0026165061 -0.0024906977 0.0013738298
-0.0022033735 -0.0025598835 -0.00078297872
-0.004269036 -0.0026982557 -0.00071340427
-0.0022033735 -0.00083023251 -1.7659575e-05
0.003580482 -0.00076104648 -0.0012004256
-0.0050953012 -0.0026982557 -0.00064382982
0.0029607832 0.00020755813 -1.7659575e-05
-0.003580482 -0.0029749998 0.00060851063
-0.0026853615 -0.00048430232 -1.7659575e-05
0.0028230723 -0.0023523255 -0.0011308511
0.0003442771 -0.0029058137 -0.00050468085
0.00089512049 0.0011069768 -0.00036553192
0.0024787951 0.0017988371 -0.00085255317
-0.0030984939 0.0001383721 -0.00099170208
-0.0015148193 0.0028366279 -0.00050468085
-0.0030984939 -0.00020755813 -0.0011308511
0.0027542168 -0.00034593022 -0.0012004256
-0.0053707231 0.0020063953 -0.00078297872
-0.0016525302 0.001522093 -0.00050468085
-0.0026853615 -0.0029058137 0.0010259574
0.00020656627 0.0015912791 -0.00092212769
0.0046133134 -0.0012453488 -1.7659575e-05
0.0049575903 0.0029058137 -0.00050468085
0.00041313254 -0.0029749998 -0.00015680851
-0.0033050603 0.0029058137 -0.0005742553
-0.0051641567 0 -0.00015680851
-0.00027542168 -0.0015912791 -0.0012004256
-0.0032362049 -0.00055348838 -0.0012004256
0.00041313254 0.0017296511 -0.00092212769
-0.00041313254 -0.00096860464 -1.7659575e-05
0.0049575903 -0.0028366279 0.0010955319
0.0038559036 -0.0024906977 0.0014434042
0.0012393976 -0.0019372093 -1.7659575e-05
-0.00406247 -0.0025598835 -0.00078297872
-0.0015836747 0.00076104648 -0.00036553192
-0.0048198793 0.0010377907 -0.00036553192
0.001790241 0.0011069768 -0.00085255317
-0.0043378915 -0.0029058137 -0.00050468085
-0.004269036 -0.0021447674 -1.7659575e-05
-0.0033739156 -0.0012453488 -1.7659575e-05
-0.00027542168 0.0026290696 -0.00050468085
-0.0039247591 0.0024906977 -0.00078297872
0.0048887348 0.001660465 -0.00078297872
0.00013771084 0 -0.00127
-0.00061969878 0.0013145348 -0.00050468085
-0.0046821688 0.0022831394 -0.00078297872
-0.0011705422 -0.0011761627 -1.7659575e-05
0.0011705422 -0.0026290696 -0.00078297872
0.0011705422 -0.0025598835 -0.00085255317
0.00075740967 0.00020755813 -8.7234046e-05
0.0039936146 -0.0029058137 0.00060851063
-0.0037870482 0.0020063953 -0.00078297872
0.0015148193 -0.00089941855 -0.0012004256
0.0031673494 0.0018680232 -0.00050468085
-0.0026165061 0.00020755813 -0.00029595743
-0.0033739156 -0.0029058137 -0.0005742553
-0.0025476506 -0.00096860464 -1.7659575e-05
-0.0049575903 -0.0029058137 5.1914893e-05
0.0033739156 -0.0013837209 -1.7659575e-05
0.0030984939 0.00076104648 -0.00043510637
-0.00096397591 0.0024906977 -0.00078297872
-0.001308253 -0.00034593022 -1.7659575e-05
0.0046821688 -0.00089941855 -0.0011308511
-0.0022033735 0.0014529069 -0.00085255317
0.00096397591 -0.0026982557 -0.00071340427
-0.0048198793 0.00055348838 -0.00085255317
0.005715 -0.0011761627 -0.00099170208
-0.0030296387 -0.0024906977 -0.00085255317
0.00061969878 -0.00096860464 -0.0012004256
0.0030296387 0.00089941855 -0.00085255317
0.0033050603 -0.0011069768 -0.0012004256
0.001308253 0.0010377907 -0.00092212769
0.0038559036 -0.0026982557 0.0017912766
-0.0046133134 -0.00076104648 -1.7659575e-05
0.00013771084 0.0025598835 -0.00078297872
0.0027542168 -0.0026982557 0.00039978724
0.0010328314 -0.0029749998 -8.7234046e-05
0.0011705422 -0.001660465 -1.7659575e-05
0.00020656627 -0.0026982557 0.0013042553
0.0053707231 -0.001660465 -0.0011308511
0.0024787951 0.0022831394 -0.00050468085
0.00013771084 6.9186048e-05 -1.7659575e-05
0.0031673494 0.00062267442 -0.00043510637
0.0045444579 0.0024215116 -0.00078297872
0.0045444579 -0.0028366279 -0.00050468085
0.0017213855 -0.0024906977 -0.00092212769
-0.0011705422 -0.0017296511 -0.0012004256
0.0003442771 -0.0029058137 -0.00036553192
0.0038559036 0.0019372093 -0.00050468085
0.00082626508 -0.00027674419 -1.7659575e-05
-0.00020656627 0.0013145348 -0.00092212769
0.0030984939 0.0029749998 -0.00071340427
0.0022033735 -0.0029058137 -1.7659575e-05
-0.00013771084 0.0020063953 -0.00036553192
0.00048198795 0.0013145348 -0.00050468085
-0.0028230723 -0.0015912791 -0.0011308511
-0.0022722289 0.0022139535 -0.00078297872
0.005577289 -0.0017988371 -0.0011308511
-0.0022722289 0.0017296511 -0.00043510637
-0.0033739156 -0.00055348838 -1.7659575e-05
-0.0025476506 -0.0011069768 -0.0012004256
0.0050264457 -0.0028366279 0.00039978724
0.0028230723 -6.9186048e-05 -0.0012004256
0.0041313255 0.00076104648 -0.00085255317
-0.0032362049 -0.0019372093 -1.7659575e-05
0.0050264457 6.9186048e-05 -1.7659575e-05
-0.0032362049 0.0026982557 -0.00064382982
0.0024099397 0.0017988371 -0.00085255317
-0.00061969878 0.0029749998 -0.00064382982
0.0049575903 0.00069186045 -0.00085255317
0.0035116265 0.0029749998 -0.00071340427
0.0053018676 -0.00096860464 -1.7659575e-05
0.0023410844 -0.0026982557 -0.00071340427
-0.0050953012 0.0013145348 -0.00050468085
0 0.0022139535 -0.00092212769
-0.0024099397 -0.001522093 -1.7659575e-05
0.0030984939 -0.00055348838 -1.7659575e-05
-0.0039936146 -0.0026982557 0.0008868085
-0.0033050603 -0.0018680232 -0.0012004256
-6.8855421e-05 0.00041511626 -0.00036553192
-0.0039247591 -0.0025598835 0.00033021276
0.0041313255 0.0026290696 -0.00078297872
0.0022033735 0.00062267442 -0.00092212769
0.0037870482 -0.0028366279 0.0017912766
-0.00061969878 0.00076104648 -0.00043510637
-0.0049575903 0.0024215116 -0.00078297872
-0.0025476506 0.0021447674 -0.00050468085
-0.0015148193 -0.0029058137 -0.00043510637
0.0047510243 -0.00076104648 -1.7659575e-05
0.0043378915 0.0020063953 -0.00050468085
-0.00096397591 0.0015912791 -0.00085255317
0.0011705422 -0.0024906977 0.00012148936
0.0032362049 0.0029749998 -0.00064382982
-0.003442771 0.0018680232 -0.00050468085
0.00089512049 -0.0029749998 -1.7659575e-05
-0.0033739156 -0.00041511626 -0.0012004256
-0.005715 -0.00083023251 -0.00078297872
0.0052330121 -0.0025598835 0.00033021276
-0.0024099397 -0.00062267442 -0.0012004256
-0.0039936146 -0.0019372093 -1.7659575e-05
-0.0028919277 0.0029749998 -0.00064382982
0.0028230723 -0.00020755813 -0.0012004256
0.0022033735 0.0028366279 -0.00078297872
0.0033739156 -0.00083023251 -1.7659575e-05
-0.003580482 -0.00069186045 -1.7659575e-05
0.0048887348 0.001522093 -0.00050468085
0.0024099397 0.0021447674 -0.00050468085
-0.0035116265 -0.0024215116 -0.00092212769
0.0048887348 -0.00048430232 -0.0012004256
0.00041313254 -0.0029058137 -0.00050468085
0.0013771084 0.0024906977 -0.00085255317
0.0033050603 -0.0023523255 -1.7659575e-05
-0.0048887348 0.0026290696 -0.00064382982
0.0049575903 0.00020755813 -0.00029595743
0.0048887348 0.0023523255 -0.00078297872
0.0030296387 -0.00062267442 -1.7659575e-05
0.0011705422 -6.9186048e-05 -1.7659575e-05
-0.0051641567 -0.00076104648 -1.7659575e-05
0.0032362049 0.0015912791 -0.00050468085
0.0043378915 0.0019372093 -0.00078297872
0.0010328314 0.0028366279 -0.00078297872
0.0016525302 0.00055348838 -0.00050468085
-0.0037870482 6.9186048e-05 -0.0011308511
0.0027542168 -0.0027674418 0.0008868085
0.005577289 -0.0012453488 -8.7234046e-05
-0.0037870482 0.0011761627 -0.00078297872
0.001790241 0.0026982557 -0.00078297872
-0.001308253 -0.0013145348 -0.0012004256
-0.0032362049 0.00096860464 -0.00036553192
0.0012393976 0.0029749998 -0.00078297872
-0.0045444579 0.00089941855 -0.00085255317
-0.001308253 0.0027674418 -0.00078297872
0.002134518 -0.0021447674 -0.0011308511
0.0039247591 -0.0019372093 -0.0011308511
0.0037870482 0 -1.7659575e-05
-0.0037870482 0.0026982557 -0.00071340427
-0.00089512049 0.00096860464 -0.00092212769
-0.00082626508 -0.00048430232 -0.0012004256
-0.0037870482 0.0026982557 -0.00078297872
-0.00075740967 0.001522093 -0.00085255317
0.0010328314 -0.0029058137 -0.00043510637
0.0050953012 -0.0014529069 -0.0012004256
0.00020656627 -0.0027674418 0.0015129787
0.0042001805 0.00020755813 -1.7659575e-05
-0.0048198793 -0.0029058137 -0.00043510637
-0.0022033735 0.0017988371 -0.00036553192
-0.00082626508 0.0017296511 -0.00085255317
-0.0024099397 -0.0013837209 -1.7659575e-05
-6.8855421e-05 -0.0029749998 -8.7234046e-05
0.0052330121 -0.0027674418 0.00067808508
-0.0015836747 0.0022831394 -0.00078297872
-0.00055084337 0.0024215116 -0.00036553192
-0.0003442771 -0.0017988371 -1.7659575e-05
-0.00406247 -0.0012453488 -1.7659575e-05
-0.001308253 0.00020755813 -0.00099170208
0 0.0015912791 -0.00050468085
0.0041313255 -0.0029058137 -0.00036553192
-0.0030984939 0.001522093 -0.00078297872
-0.003442771 0.0024906977 -0.00050468085
0.0027542168 0.0020063953 -0.00085255317
-0.0032362049 0.001660465 -0.00043510637
-0.001790241 -0.0028366279 -1.7659575e-05
0.002134518 -0.00055348838 -0.0012004256
0.00082626508 0.0011069768 -0.00092212769
-0.00061969878 0.00055348838 -0.00092212769
-0.00013771084 -0.0028366279 0.00067808508
0.0046133134 -0.0022139535 -1.7659575e-05
-0.0052330121 0.00048430232 -0.00085255317
-0.0036493375 0.00020755813 -0.00029595743
0.0053707231 -0.0022139535 -0.0011308511
0.0014459639 -0.0028366279 0.00033021276
0.00089512049 0.0011069768 -0.00043510637
6.8855421e-05 -0.0011761627 -1.7659575e-05
0.003442771 -0.0024906977 -0.00078297872
-0.0028919277 0.00034593022 -0.00036553192
0.00055084337 -0.0026290696 -0.00078297872
0.001308253 0.00027674419 -0.00092212769
-0.0030984939 0.00048430232 -0.00085255317
0.0011705422 -0.0029749998 -0.00015680851
0.0039247591 -0.0029749998 0.0008868085
0.0051641567 -0.0028366279 0.0013042553
-0.0006885542 -6.9186048e-05 -1.7659575e-05
-0.0033739156 0.0017988371 -0.00078297872
0.0050264457 -0.0024906977 0.00026063831
-0.0045444579 0.0014529069 -0.00078297872
0.005715 -0.00020755813 -0.00015680851
-0.0037181927 -0.0025598835 0.0015825531
0.0033739156 -0.0001383721 -0.0012004256
-0.0045444579 0.0010377907 -0.00085255317
-6.8855421e-05 0.00069186045 -0.00092212769
-0.0044067469 6.9186048e-05 -0.00015680851
-0.0011016867 -0.0029058137 0.0010955319
0.0036493375 -0.0027674418 0.00012148936
0.0039247591 -0.0010377907 -1.7659575e-05
0.00406247 -0.0018680232 -0.0011308511
0.00055084337 -0.0017296511 -1.7659575e-05
0.0042001805 0.0012453488 -0.00050468085
0.0050953012 0.001660465 -0.00050468085
0.00075740967 0.0022831394 -0.00085255317
0.0039936146 -0.0027674418 0.00081723405
-0.002134518 0.00076104648 -0.00036553192
-0.0012393976 -0.0018680232 -1.7659575e-05
-0.00013771084 0.0010377907 -0.00092212769
0.0053018676 0.00041511626 -0.00085255317
-0.0044756024 0.0017988371 -0.00078297872
0.0051641567 0.0014529069 -0.00078297872
0.0037181927 -0.001660465 -1.7659575e-05
-0.0033050603 0.0028366279 -0.00071340427
-0.0024099397 -0.0026982557 0.0013738298
-0.002134518 -6.9186048e-05 -1.7659575e-05
0.0039247591 6.9186048e-05 -0.0012004256
-0.0010328314 -0.0022831394 -0.0012004256
-0.0049575903 -0.0025598835 0.0013042553
0.0049575903 0.0011761627 -0.00085255317
0.0037181927 -0.00083023251 -1.7659575e-05
-0.00041313254 0.0020063953 -0.00043510637
-0.0012393976 0.0024215116 -0.00050468085
0.0050953012 0.0026290696 -0.00078297872
-0.004269036 0.0022139535 -0.00078297872
0.0028919277 0.00076104648 -0.00036553192
-0.0028230723 0.0010377907 -0.00043510637
-0.0024099397 -0.0029749998 -8.7234046e-05
0.0023410844 6.9186048e-05 -0.0011308511
0.0025476506 -0.00096860464 -1.7659575e-05
0.001790241 -0.001660465 -1.7659575e-05
0.005715 -6.9186048e-05 -0.00092212769
-0.0043378915 0.0025598835 -0.00050468085
0.0043378915 0.00069186045 -0.00085255317
0.0046133134 -0.0029058137 -8.7234046e-05
0.0016525302 -0.0029749998 -0.00029595743
0.0052330121 -0.0017988371 -0.0011308511
0.0015148193 0.0012453488 -0.00050468085
-0.0019968073 0.00096860464 -0.00085255317
0.0011016867 -0.0028366279 0.00074765959
0.0038559036 -0.0024906977 0.00074765959
0.0052330121 -0.00062267442 -1.7659575e-05
0.0035116265 -0.0026982557 -0.00064382982
-0.0052330121 -0.0028366279 0.0011651064
-0.001308253 -0.0024906977 0.00067808508
-0.0019279518 0.00096860464 -0.00050468085
0.0056461445 0 -0.0011308511
-0.0014459639 -0.0026982557 0.00081723405
-0.00020656627 -0.0026982557 0.0015825531
0.0036493375 -0.0029058137 0.00046936169
-0.0028919277 -0.0012453488 -0.0011308511
0.001790241 0.0017988371 -0.00085255317
-0.0050953012 -0.0026982557 0.0008868085
-0.0056461445 -0.0015912791 -0.00099170208
-0.0052330121 -0.0018680232 -0.0012004256
0.0033739156 0.00062267442 -0.00043510637
-0.0027542168 0.00027674419 -0.00092212769
0.0014459639 -0.0029058137 0.0013042553
-0.003580482 0.00055348838 -0.00050468085
-0.0043378915 0.00055348838 -0.00050468085
-0.0028919277 0.0011069768 -0.00085255317
-0.0050264457 -0.0029749998 -0.00029595743
0.0027542168 -0.0027674418 0.00081723405
0.001308253 -0.0024906977 0.00033021276
-0.0019279518 -0.0024215116 -0.0011308511
6.8855421e-05 -0.00027674419 -1.7659575e-05
0.0036493375 -0.0024906977 0.00053893618
-0.0014459639 0.0010377907 -0.00050468085
0.00020656627 -0.0010377907 -0.0012004256
-0.0053707231 -0.00027674419 -0.0011308511
6.8855421e-05 -0.00069186045 -1.7659575e-05
0.0026853615 -0.0017296511 -1.7659575e-05
0.0050264457 0.0028366279 -0.00078297872
0.0046133134 0.0017296511 -0.00050468085
0.004269036 -0.001522093 -1.7659575e-05
0.0015836747 0.0013145348 -0.00085255317
-0.00041313254 0.0020755813 -0.00036553192
0.0038559036 0.0012453488 -0.00050468085
-0.00020656627 0.0001383721 -0.00099170208
-0.003580482 -0.0026982557 -0.00078297872
0.0024099397 -0.00048430232 -0.0012004256
-0.0046133134 0.0018680232 -0.00078297872
-0.0006885542 0.0017988371 -0.00050468085
-0.0028919277 0.00076104648 -0.00050468085
0.0049575903 -0.0024906977 0.00046936169
-0.0053707231 -0.0017296511 -0.0011308511
-0.0014459639 -0.0029749998 -0.00022638298
0.0020656628 0.0010377907 -0.00036553192
0.0048198793 -0.0014529069 -0.0012004256
0.0037870482 0.00020755813 -8.7234046e-05
-0.0041313255 0.00027674419 -0.00036553192
-0.0013771084 -0.00089941855 -1.7659575e-05
-0.00075740967 -0.0022139535 -1.7659575e-05
6.8855421e-05 -0.0029058137 -0.0005742553
0.0015148193 0.0026290696 -0.00050468085
-0.0024787951 0.0011069768 -0.00085255317
-0.001308253 -0.0017988371 -1.7659575e-05
0.001308253 0.0014529069 -0.00050468085
-0.0024099397 -0.00076104648 -1.7659575e-05
0.00082626508 0.00076104648 -0.00036553192
0.00082626508 -0.0010377907 -0.0011308511
-0.00061969878 -0.0021447674 -1.7659575e-05
0.0032362049 0.0026290696 -0.00050468085
0.0013771084 -0.0029749998 0.0014434042
0.0025476506 -0.0029749998 0.00046936169
0.0037870482 0.0026982557 -0.00050468085
0.0046821688 0.0028366279 -0.00078297872
-0.00048198795 -0.0021447674 -0.0012004256
-0.0015836747 0.00069186045 -0.00036553192
0.0036493375 0.00027674419 -0.00092212769
0.00075740967 -0.0019372093 -0.0012004256
0.0039247591 -0.0001383721 -1.7659575e-05
0.0010328314 0.0012453488 -0.00085255317
-0.0052330121 0.0017296511 -0.00050468085
-0.0039247591 -0.0024906977 -0.00099170208
-0.00048198795 0.0015912791 -0.00092212769
0.0045444579 -0.0013837209 -1.7659575e-05
0.0032362049 0.00034593022 -0.00036553192
0.0024787951 0.0020063953 -0.00050468085
-0.0015836747 0.00076104648 -0.00085255317
0.001790241 0.00096860464 -0.00036553192
-0.0003442771 -0.0023523255 -1.7659575e-05
0.0037181927 -0.0026982557 0.0016521277
0.0044067469 0.0024906977 -0.00078297872
0.0003442771 0 -0.00127
0.0028919277 -0.0015912791 -1.7659575e-05
-0.0033050603 0.0014529069 -0.00050468085
-0.0036493375 -0.0029749998 5.1914893e-05
0.00055084337 0.0022831394 -0.00050468085
-0.0049575903 0.0021447674 -0.00050468085
-0.0045444579 0.00069186045 -0.00085255317
0.0024787951 0.0020755813 -0.00050468085
0.0023410844 0.0001383721 -0.00029595743
-0.0039936146 -0.0026982557 0.0015825531
0.0025476506 0.0029058137 -0.00050468085
0.0039936146 -0.0029749998 0.00033021276
0.0030984939 0.0027674418 -0.00078297872
-0.0032362049 0.0027674418 -0.00078297872
-0.0013771084 -0.00062267442 -0.0012004256
-0.0037181927 -0.0029749998 0.00033021276
-0.0043378915 0.0022139535 -0.00050468085
0.00082626508 0.0023523255 -0.00085255317
-0.0030296387 0.00076104648 -0.00050468085
-0.0046821688 0.0024906977 -0.00078297872
-0.00075740967 0.0013145348 -0.00050468085
-0.00089512049 0.00041511626 -0.00043510637
0.00061969878 -0.00055348838 -0.0012004256
-0.0050953012 0.00089941855 -0.00085255317
0.0036493375 0.0026290696 -0.00050468085
-0.0042001805 0.0011761627 -0.00078297872
0.00406247 -0.0012453488 -1.7659575e-05
0.0033050603 0.0028366279 -0.00078297872
-0.0038559036 -0.0027674418 0.0017912766
-0.0013771084 0.0014529069 -0.00050468085
0.0055084336 -0.0024906977 -0.00022638298
0.0037181927 0.0013145348 -0.00050468085
0.0011016867 -0.0026290696 0.00026063831
-0.0044756024 0.00076104648 -0.00036553192
-0.0037870482 -0.0015912791 -1.7659575e-05
-0.0052330121 -0.00041511626 -0.00015680851
0.0017213855 0.0029749998 -0.00071340427
0.0055084336 0.0001383721 -0.00036553192
0.0033739156 -0.0019372093 -0.0011308511
-0.0015836747 -0.0010377907 -1.7659575e-05
0.0054395781 -6.9186048e-05 -0.0012004256
0.00406247 0.00041511626 -0.00043510637
0.001790241 -0.0027674418 -0.00064382982
-0.00048198795 -0.0029749998 -0.00029595743
0.0022722289 0.00096860464 -0.00043510637
-0.0027542168 -0.0025598835 0.0014434042
-0.0026853615 0.0001383721 -0.00099170208
0.0026165061 0.00069186045 -0.00036553192
0.0011705422 0.0017296511 -0.00050468085
0.005715 0.00020755813 -0.00078297872
-0.0037181927 -0.0029058137 -0.00043510637
0.0053707231 0.001660465 -0.00050468085
0.005715 -0.0010377907 -0.00015680851
0.0011016867 -0.0029749998 0.0015825531
0.0039936146 0.001522093 -0.00050468085
-0.0039936146 -0.00089941855 -1.7659575e-05
0.0029607832 0.0026290696 -0.00050468085
-0.0019279518 -0.0029749998 -8.7234046e-05
-0.0028230723 0.0013145348 -0.00050468085
-0.0051641567 -0.0029058137 0.0016521277
-0.0039936146 0.00041511626 -0.00085255317
-0.0011016867 -0.00048430232 -0.0012004256
0.003580482 0.0017988371 -0.00085255317
-0.0022033735 -0.0011069768 -0.0012004256
-0.0036493375 0.00083023251 -0.00050468085
0.0019968073 0.0011069768 -0.00085255317
0.0003442771 -0.0029749998 -0.00022638298
-0.0031673494 -0.0029058137 -1.7659575e-05
0.003442771 -0.00062267442 -0.0012004256
0.0047510243 -0.0022831394 -0.00085255317
-0.0042001805 -0.00069186045 -1.7659575e-05
0.001308253 -0.0013837209 -0.0012004256
0.0015148193 -0.0021447674 -1.7659575e-05
0.0038559036 0.00020755813 -0.00099170208
0 -0.0018680232 -0.0012004256
-0.0053707231 -6.9186048e-05 -0.00029595743
0.00406247 -0.0013145348 -1.7659575e-05
-0.0036493375 0.0027674418 -0.00071340427
-0.0016525302 -0.00076104648 -0.0012004256
0.0042001805 0.0026982557 -0.00078297872
-0.005577289 -0.00083023251 -0.00022638298
-0.0024099397 -0.0029749998 0.00019106382
0.00075740967 0.0014529069 -0.00085255317
-0.0056461445 -0.0020063953 -0.00092212769
0.00027542168 -0.0022831394 -1.7659575e-05
-0.0046821688 -0.0029058137 -0.00036553192
-0.0030296387 -0.00034593022 -0.0011308511
-0.0028919277 0.00096860464 -0.00085255317
0.0006885542 0.0028366279 -0.00050468085
-0.0012393976 -0.0029749998 0.00074765959
-0.00020656627 -0.00048430232 -0.0012004256
0.0035116265 0.00020755813 -8.7234046e-05
-0.00020656627 0.0020755813 -0.00036553192
-0.0052330121 -0.0018680232 -1.7659575e-05
-0.0026165061 0.0023523255 -0.00050468085
-0.0026853615 -0.00020755813 -0.0012004256
-0.0029607832 -0.0017296511 -1.7659575e-05
0.0026853615 0.0020755813 -0.00085255317
-0.0033050603 0.0013145348 -0.00078297872
0.0028919277 -0.0029749998 -0.00015680851
0.0049575903 -0.0024906977 0.00012148936
-6.8855421e-05 0.00089941855 -0.00092212769
0.0024099397 -0.0029058137 0.00053893618
0.00048198795 0.0017988371 -0.00092212769
0.0006885542 -0.0010377907 -0.0012004256
-0.0026853615 -0.0028366279 0.0010955319
0.0044067469 0.0017988371 -0.00078297872
-0.0046133134 0.0022139535 -0.00078297872
0.0027542168 -0.0024215116 -1.7659575e-05
-0.0056461445 -0.0013145348 -0.0010612766
-0.0013771084 -0.0028366279 0.00019106382
0.0046821688 -0.0013145348 -0.0011308511
-0.0038559036 -0.0029749998 -1.7659575e-05
0.0011016867 -0.0028366279 0.00019106382
0.0035116265 -0.0010377907 -1.7659575e-05
-0.0050953012 -0.0029058137 0.0017217022
0.00013771084 0.0022831394 -0.00085255317
0.0011016867 -0.0027674418 0.00039978724
0.0036493375 -0.0027674418 0.0011651064
-0.0006885542 -0.0015912791 -0.0012004256
0.0006885542 -0.0020755813 -0.0012004256
0.0039936146 -0.00069186045 -0.0012004256
-0.0015148193 -0.001522093 -0.0012004256
0.0039247591 0.00069186045 -0.00036553192
-0.00013771084 -0.0028366279 0.00039978724
-0.0049575903 -0.0029058137 0.0010259574
0.0013771084 0.001660465 -0.00085255317
0.00020656627 -0.00034593022 -0.0012004256
-0.0012393976 -0.0026982557 -0.00071340427
0.0012393976 -0.0024906977 0.00067808508
0.0056461445 -0.00055348838 -0.0011308511
-0.0013771084 -0.0020063953 -0.0012004256
0.0048198793 -0.00096860464 -0.0012004256
-0.0049575903 0.0001383721 -0.00036553192
0.0041313255 6.9186048e-05 -0.00022638298
-0.0042001805 0.00089941855 -0.00085255317
0.0028919277 0.0022139535 -0.00050468085
0.0051641567 -0.0026982557 -0.00064382982
0.003442771 -0.00096860464 -1.7659575e-05
0.0013771084 -0.0014529069 -0.0012004256
-0.00075740967 -0.0010377907 -1.7659575e-05
0.0010328314 -0.00034593022 -0.0012004256
0.0019968073 -0.0012453488 -1.7659575e-05
0.0050264457 -0.001522093 -0.0012004256
-0.0043378915 0.0023523255 -0.00078297872
0.0024099397 -0.00083023251 -1.7659575e-05
0.0026165061 0.001522093 -0.00085255317
-0.00075740967 -0.0011069768 -0.0012004256
-0.0027542168 -0.0026982557 0.00067808508
0.0015148193 -0.00055348838 -1.7659575e-05
0.0015836747 -0.00027674419 -1.7659575e-05
-0.0011016867 -0.0018680232 -1.7659575e-05
0.00096397591 0.00076104648 -0.00092212769
0.0012393976 -0.0012453488 -1.7659575e-05
0.00020656627 -0.0027674418 0.0015825531
-0.0032362049 -0.00083023251 -1.7659575e-05
-0.00048198795 0.00062267442 -0.00036553192
0.0033050603 -0.0028366279 -0.00050468085
-6.8855421e-05 -0.0026982557 0.0017912766
0.0027542168 0.0023523255 -0.00078297872
-0.0043378915 -0.00041511626 -0.0011308511
-0.0028919277 0.0010377907 -0.00036553192
-0.00041313254 -0.0029749998 -0.00015680851
-0.0015836747 -0.0024906977 -0.00085255317
-0.0039247591 -0.0017296511 -1.7659575e-05
0.0014459639 -0.00089941855 -0.0012004256
0.002134518 -0.00034593022 -0.0012004256
-0.0055084336 -0.0025598835 -0.00029595743
-0.0051641567 -0.001660465 -1.7659575e-05
0.0044067469 -0.00069186045 -1.7659575e-05
-0.001790241 -0.00055348838 -1.7659575e-05
-0.0043378915 -0.0024215116 -0.00092212769
-0.0013771084 -0.00055348838 -1.7659575e-05
0.0039247591 -0.00096860464 -0.0012004256
0.0030984939 -6.9186048e-05 -1.7659575e-05
0.00020656627 -0.0026290696 0.00053893618
-0.0038559036 -0.0024906977 -1.7659575e-05
0.00013771084 0.0029749998 -0.00071340427
-0.0024099397 0.00076104648 -0.00036553192
0.0051641567 -0.0013145348 -0.0012004256
0.0036493375 -0.0029058137 -0.00036553192
-0.0033050603 0.0020755813 -0.00078297872
-0.0024099397 -0.0029058137 0.0013042553
-0.0053018676 0.0022139535 -0.00078297872
-0.003442771 0.0028366279 -0.00050468085
-0.00089512049 -0.00096860464 -0.0012004256
-0.0043378915 0.0011761627 -0.00078297872
0.0043378915 -0.00020755813 -1.7659575e-05
0.0037181927 0.00076104648 -0.00085255317
0.0016525302 0.0013145348 -0.00085255317
-0.0015148193 -0.0012453488 -0.0012004256
0.0033050603 -0.0029749998 -1.7659575e-05
0.00013771084 0 -1.7659575e-05
0.00061969878 -0.0017988371 -0.0012004256
-0.0022033735 0.0026290696 -0.00078297872
-0.0003442771 0.0011761627 -0.00092212769
0.0039936146 0.00055348838 -0.00092212769
0.00013771084 -0.0020755813 -1.7659575e-05
0.001790241 -0.00096860464 -1.7659575e-05
-0.0045444579 -0.00048430232 -0.0011308511
0.0039936146 -6.9186048e-05 -0.0012004256
-0.0033050603 -0.0012453488 -1.7659575e-05
0.001308253 -0.0029749998 0.0012346809
0.0036493375 -0.0019372093 -0.0011308511
-0.0043378915 -0.0011069768 -1.7659575e-05
0.0047510243 0.00062267442 -0.00050468085
-0.0046821688 6.9186048e-05 -0.00015680851
0.0052330121 -0.0027674418 0.0012346809
0.0013771084 -0.0015912791 -1.7659575e-05
-0.0046821688 -0.00034593022 -0.0011308511
-0.0044756024 0 -0.00015680851
-0.0026853615 -0.0024906977 0.0012346809
