# .PCD v0.7 - Point Cloud Data file format
VERSION 0.7
FIELDS x y z
SIZE 4 4 4
TYPE F F F
COUNT 1 1 1
WIDTH 1188
HEIGHT 1
VIEWPOINT 0 0 0 1 0 0 0
POINTS 1188
DATA ascii
-0.0010885714 -0.001524 0.00096779875
-0.00014514285 -0.00036285713 -0.0025159749
0.0021045713 -0.0023222857 -0.00026603774
0.0019594287 0.00043542858 -0.00048377359
-0.0013788572 -0.0010885714 -0.0029514465
-0.00254 0.0016691429 -0.0021530818
-0.0014514285 -0.0023948571 -0.0025159749
0.0023222857 0.0013062857 -0.00048377359
0.0014514285 0.001524 0.00082264154
-0.0021771428 0.0019594287 -0.0024433963
-0.0015965714 0.0013788572 -0.0037498113
-0.0010885714 0.001524 -0.0072335848
0.0012337143 -0.0024674286 -0.00084666669
-0.0024674286 0.0021771428 -0.0011369812
0.0017417143 -0.0017417143 -0.00048377359
-0.00254 -7.2571427e-05 -0.0017176101
-0.0010160001 0.00094342855 -0.0076690568
-0.0015965714 0.0013788572 -0.0041852831
-0.00254 0.00021771429 -0.0012821384
0.00254 0.0012337143 -0.0023708176
-0.0014514285 0.0010160001 0.0013306919
-0.00254 0.00029028571 -0.0020805032
-0.0014514285 -0.0014514285 0.0013306919
0.001524 -0.0010160001 -0.004765912
0.0016691429 -0.0023948571 -0.00070150942
0.00021771429 0.00072571426 -0.0025159749
-0.00254 0.0020320001 -0.00048377359
-0.0010160001 0.00094342855 -0.0044755973
0.0016691429 -0.0023948571 -0.001354717
0.0018868571 0.0024674286 -0.0021530818
-0.0022497142 -0.00094342855 -0.0025159749
0.00079828571 0.0023222857 -4.8301888e-05
-0.00036285713 0.001524 -4.8301888e-05
-0.00043542858 0.0015965714 -0.00033861634
0.0020320001 -0.0023222857 -0.0014272956
-0.0022497142 0.0020320001 -0.0023708176
-0.0013788572 -0.0018868571 -0.00048377359
0.00094342855 -0.0015965714 -0.0025159749
0.00094342855 0.0014514285 -0.0046933335
-0.0017417143 -0.00254 -0.0018627673
-0.00014514285 0.00050800003 -0.0025159749
-0.0023222857 -0.0021045713 -0.0023708176
-0.0013062857 -0.001524 -0.0062900628
0.00072571426 0.00014514285 -0.00048377359
0.0024674286 0.0019594287 -0.001354717
-0.0015965714 7.2571427e-05 -0.00048377359
-0.00072571426 -0.00254 -0.00041119498
0.0023222857 -0.0022497142 -0.00070150942
0.0011611428 0.0015965714 0.0021290565
-0.0012337143 -0.00072571426 -0.00048377359
-0.0011611428 -0.0014514285 0.0027822643
0.0010160001 0.0015965714 0.0024193712
-0.001524 -0.0013062857 -0.0048384904
0.0013062857 0.0010160001 0.001693585
-0.00058057142 0.00254 -0.0018627673
-0.00254 0.00014514285 -0.00062893081
0.00254 0.0013788572 -0.0018627673
-0.0010160001 0.00254 -0.00041119498
0.0016691429 0.00254 -0.0018627673
-0.0021771428 0.0023222857 -0.00033861634
0.0010160001 -0.0021771428 -4.8301888e-05
0.0014514285 0.0010885714 0.0015484276
-0.0018868571 -0.0010160001 -0.00048377359
0.00072571426 -0.00254 -0.00026603774
0.00036285713 0.0020320001 -0.00026603774
0.00094342855 0.001524 -0.0051288051
-0.0010160001 -0.0015965714 0.00045974844
0.0018142858 0.00254 -0.0015724528
-0.0010885714 0.0015965714 -0.00019345911
0.001524 -0.0013788572 0.0019113207
0.001524 -0.0015965714 -0.00041119498
-0.0010160001 0.00094342855 0.0014758491
-0.00043542858 -0.00029028571 -0.00048377359
-0.0022497142 -0.0023948571 -0.00048377359
0.0015965714 -0.0019594287 -0.00048377359
0.0011611428 -0.00021771429 -0.0025159749
-0.0023948571 0.0021771428 -0.00084666669
-0.0011611428 0.00043542858 -0.00048377359
0.0014514285 0.001524 -0.0025885534
0.0010885714 -0.00094342855 -0.0041127042
-0.00254 -0.0013788572 -0.001354717
-0.0023222857 -0.0021771428 -0.00099182385
0.0013062857 0.0010160001 -0.0032417611
0.0015965714 -0.0010160001 0.0010403773
0.0010160001 -0.0020320001 -0.00026603774
-0.0012337143 0.00094342855 0.00016943396
0.0013788572 0.001524 -0.0038949687
0.0020320001 -0.0022497142 -0.00019345911
0.0010885714 -0.0010160001 -0.0062174844
0.00072571426 0.00254 -0.00099182385
0.0013788572 0.00058057142 -0.0025159749
0.00087085715 -0.0016691429 -0.0025159749
-0.0010160001 0.00094342855 -0.0028062894
-0.00036285713 0.00254 -0.00077408802
0.0023222857 0.0021771428 -0.00041119498
0.00043542858 -0.0017417143 -0.00048377359
0.0011611428 -0.0024674286 -0.0022982389
0.0015965714 0.00087085715 -0.0025159749
-0.00254 0.00058057142 -0.0012095597
-0.0017417143 -0.00254 -0.0014998742
-0.0010885714 -0.0010885714 -0.002878868
-0.0023222857 -0.0022497142 -0.0020805032
-0.0013062857 0.0015965714 -0.00041119498
-0.00072571426 -0.00058057142 -0.0025159749
0.0011611428 -0.0014514285 -0.0025885534
-0.0015965714 0.0011611428 0.00060490565
-0.0013788572 0.0010160001 -0.0038949687
0.00029028571 -0.001524 -0.00033861634
0.0017417143 0.00254 -0.00077408802
0.0016691429 0.00254 -0.0014272956
0.00254 -0.00065314287 -0.0010644025
-0.0011611428 -0.00254 -4.8301888e-05
0.0023948571 0.0020320001 -0.0020079245
0.0023222857 0.0022497142 -0.00062893081
-0.0010885714 0.0013062857 -0.003604654
0.00087085715 0.00014514285 -0.00048377359
0.0013062857 0.0015965714 -0.0069432706
0.001524 -0.0013788572 -0.0029514465
0.00079828571 0.00254 -0.0023708176
0.00254 -0.0014514285 -0.0010644025
-0.0010885714 0.00254 -0.0011369812
0.0013788572 0.0015965714 0.0010403773
0.0012337143 -0.00094342855 -0.0041127042
0.00036285713 -0.00094342855 -0.0001208805
-0.001524 0.00058057142 -0.0025159749
-0.0014514285 0.001524 -0.0069432706
0.00094342855 0.0013788572 0.0016210063
-0.0013062857 -0.001524 -0.0027337107
0.0012337143 0.0010160001 -0.0048384904
0.0013788572 -0.0010160001 -0.00382239
0.0010160001 0.00094342855 -0.0073061637
-0.0023948571 -0.0021045713 -0.0014998742
-0.0012337143 0.001524 0.0011855346
0.0017417143 0.0011611428 -0.00019345911
0.0010160001 0.0015965714 -0.0049836477
0.001524 -0.0010160001 -0.00382239
-0.00050800003 0.0015965714 -0.00019345911
-0.0013062857 -0.0020320001 -0.00033861634
-0.0013062857 -0.00021771429 -0.0025159749
0.00036285713 -0.0024674286 -4.8301888e-05
0.0014514285 -0.0010160001 -0.0065803775
-0.0011611428 -0.0017417143 -0.0025159749
0.0023948571 -0.00058057142 -0.0025159749
-0.0010160001 0.0013062857 0.00096779875
-0.00065314287 0.00254 -0.0023708176
-0.0018868571 -0.0022497142 -0.0025159749
-0.00014514285 -0.00254 -0.00041119498
0.00094342855 -0.00094342855 -0.0001208805
0.0013062857 0.00094342855 -0.0025159749
-0.0010160001 -0.0015965714 0.0019113207
-0.0014514285 -0.0011611428 0.00060490565
0.0012337143 -0.00094342855 0.00031459119
0.00058057142 -0.0013062857 -4.8301888e-05
-0.00036285713 0.0012337143 -4.8301888e-05
0.00036285713 0.00254 -0.00099182385
0.00079828571 -0.0013788572 -0.0025159749
-0.0016691429 0.0011611428 -0.0044755973
-0.0022497142 -0.0023948571 -0.00070150942
-0.0017417143 0.00087085715 -0.00048377359
-0.00065314287 0.00254 -0.0012821384
-0.0012337143 -0.0013062857 -0.0083222641
-0.001524 0.0010885714 -0.0057820124
-0.0011611428 0.0024674286 -0.00048377359
0.0021771428 0.0023948571 -0.0023708176
0.0021771428 0.0023948571 -0.0022982389
0.001524 0.0013062857 -0.0046933335
-0.0018868571 0.0023222857 -0.0005563522
0.0023948571 0.0021045713 -0.0016450315
-0.001524 -0.0013062857 -0.0062900628
0.00021771429 -0.00029028571 -0.0025159749
0.0013788572 -0.00043542858 -0.0025159749
0.0023948571 -0.0011611428 -0.00048377359
0.0013062857 0.0010160001 -0.0077416352
-0.0014514285 0.0010160001 -0.0075238994
-0.0014514285 -0.00021771429 -0.00048377359
0.0015965714 -0.0020320001 -0.00026603774
-0.0013062857 -0.00254 -0.0019353459
0.0013062857 -0.00094342855 0.0010403773
-0.0018142858 -0.00014514285 -0.0025159749
-0.0019594287 0.0023948571 -0.0017901887
0.0015965714 -0.0010885714 -0.0052739624
-0.00094342855 0.0011611428 -0.0072335848
-0.0018868571 -0.0015965714 -0.00026603774
-0.0021771428 0.00079828571 -0.0025159749
-0.0023948571 0.0022497142 -0.00041119498
-0.0013788572 -0.0010160001 0.0014032704
0.0021771428 0.0023948571 -0.0018627673
-0.0022497142 0.0023222857 -0.0014998742
-0.0010160001 0.0012337143 0.0003871698
0.00254 -0.00036285713 -0.0010644025
-0.0018868571 -0.00254 -0.0011369812
0.0023222857 0.0022497142 -0.0019353459
-0.0011611428 0.001524 0.0012581132
0.0011611428 -0.00094342855 0.0022742138
-0.0021771428 0.00021771429 -0.00048377359
-0.0022497142 -0.0023222857 -0.0017901887
-0.00065314287 -0.00254 -0.00048377359
-0.0023222857 -7.2571427e-05 -0.0025159749
0.0014514285 0.0019594287 -0.00041119498
-0.0021045713 -0.00058057142 -0.00048377359
-0.0015965714 0.0014514285 -0.0037498113
-0.0023222857 7.2571427e-05 -0.0025159749
0.0020320001 -0.0010160001 -0.0025159749
0.0011611428 -0.0014514285 -0.0027337107
-0.00094342855 0.0011611428 -0.0062900628
7.2571427e-05 0.00094342855 -0.00019345911
0.0021045713 -0.0010885714 -0.00041119498
0.0017417143 0.0023948571 -4.8301888e-05
-0.0012337143 -0.001524 0.00045974844
0.0015965714 -7.2571427e-05 -0.00048377359
0.0010160001 -0.0019594287 -0.0025159749
0.00058057142 0.00254 -0.0001208805
-0.0017417143 -0.0022497142 -0.00026603774
-0.0015965714 0.0012337143 0.00075006287
-0.0017417143 0.0023948571 -0.00070150942
0.00094342855 0.0010160001 0.0022016352
0.0010885714 -0.0011611428 0.0014758491
-0.00087085715 -0.0012337143 2.4276729e-05
-0.0013788572 -0.0023948571 -0.0025159749
-0.0014514285 0.001524 2.4276729e-05
0.0015965714 -0.00094342855 -0.00048377359
0.00254 -0.00036285713 -0.00062893081
-0.00079828571 -0.0020320001 -0.0025159749
0.00072571426 -0.0021045713 -4.8301888e-05
-0.0013788572 0.0010160001 0.0022016352
-0.0010885714 0.001524 -0.0045481762
-0.0010160001 0.00094342855 -0.0039675473
0.001524 -4.3368087e-19 -0.0025159749
-0.0013062857 0.001524 9.6855343e-05
-0.0010160001 0.00254 -0.0022256605
0.00254 -0.0016691429 -0.0017176101
0.0013062857 -0.0013788572 9.6855343e-05
0.0014514285 -0.0010160001 -0.0079593714
-0.00079828571 -0.0021771428 -4.8301888e-05
-0.00254 -0.00072571426 -0.0015724528
0.0012337143 -0.00094342855 -0.0029514465
0.0012337143 -0.0024674286 -0.0011369812
-0.0024674286 -0.0018142858 -0.00048377359
-0.0011611428 0.001524 -0.0041127042
-0.0021045713 0.00072571426 -0.0025159749
0.0023222857 -0.0010885714 -0.0025159749
-0.00254 -0.00087085715 -0.0022256605
-0.0013788572 -0.0015965714 -0.00033861634
-0.0023948571 -0.0021045713 -0.00048377359
-0.00094342855 -0.0010885714 -0.0046207546
-0.0013062857 0.0017417143 -0.0025159749
-0.0015965714 0.0011611428 -0.0054191197
-0.0010885714 0.0010885714 0.0011855346
0.0015965714 -0.0010885714 -0.0073787421
0.0014514285 0.001524 0.00053232705
-0.0013788572 0.00050800003 -0.00048377359
-0.00072571426 -0.00254 -0.0020805032
-0.0022497142 -0.0023948571 -0.0011369812
-0.0011611428 -0.0015965714 -0.00033861634
-0.00087085715 0.00029028571 -0.0025159749
0.0010885714 -0.0010160001 -0.0062900628
0.00254 0.00072571426 -0.00070150942
-7.2571427e-05 0.0017417143 -0.0025159749
-0.0014514285 -0.0015965714 -0.0001208805
0.0012337143 -0.00050800003 -0.0025159749
-0.00021771429 -0.0018142858 -0.00048377359
-0.0017417143 0.0020320001 -0.00026603774
-7.2571427e-05 -0.0017417143 -0.00048377359
0.0011611428 -0.0014514285 0.0022742138
-0.0024674286 -0.0019594287 -0.0017901887
-0.0024674286 0.00021771429 -0.0024433963
0.0010160001 -0.00094342855 -0.00026603774
-0.0011611428 -0.001524 -0.0065803775
-0.0014514285 0.001524 -0.0030240251
0.0011611428 0.0015965714 0.0011855346
-0.00254 0.00058057142 -0.0018627673
-0.00254 0.00065314287 -0.0021530818
0.0015965714 -0.0013062857 -0.0031691825
0.0010885714 0.00254 -0.00084666669
0.0010885714 -0.0010160001 -0.0067255348
-0.0012337143 0.001524 -0.0072335848
0.00079828571 0.0015965714 -0.00026603774
-0.00072571426 -0.001524 -4.8301888e-05
-0.00094342855 -0.0024674286 -0.0025159749
-0.00087085715 -0.00058057142 -0.00048377359
-0.001524 -0.0013062857 0.0018387422
0.0015965714 -0.0010160001 -0.0054916982
0.00254 0.00029028571 -0.0014272956
0.00050800003 0.0017417143 -0.0025159749
0.0016691429 0.0024674286 -0.0025159749
-0.001524 0.0014514285 0.0003871698
0.00254 -0.0014514285 -0.0021530818
-0.00072571426 -0.0018142858 -0.00048377359
-0.00094342855 -0.0013062857 -0.0032417611
0.0013062857 0.00254 -0.00041119498
0.00094342855 0.0014514285 -0.0025885534
-0.00254 0.0016691429 -0.0010644025
-0.0018142858 -0.00036285713 -0.0025159749
0.0010885714 -0.0010160001 -0.0025885534
-0.0013062857 0.001524 0.00082264154
0.0023222857 0.00036285713 -0.0025159749
0.00094342855 0.0013788572 -0.0038949687
0.00079828571 0.00254 -0.00041119498
0.0019594287 -0.0010885714 -0.0025159749
0.0017417143 -0.0018868571 -0.0024433963
0.0019594287 -0.0023948571 -0.0012095597
0.001524 -0.0010160001 -0.0036772327
-0.0017417143 -0.00254 -0.0015724528
-0.001524 -0.0014514285 9.6855343e-05
-0.0010160001 -0.0010160001 0.001112956
-0.00094342855 -0.0011611428 -0.0073787421
-0.0010885714 -0.0010885714 -0.0043304404
-0.0014514285 -0.0011611428 -0.006072327
0.0010885714 -0.0011611428 0.00031459119
-0.00254 0.001524 -0.00099182385
0.0018868571 0.0021045713 -0.0025159749
-0.0013062857 0.0013062857 0.0026371069
-0.0011611428 -0.001524 -0.0034594969
0.00254 -0.0018142858 -0.0022256605
-0.00087085715 0.00072571426 -0.00048377359
-0.0020320001 -0.0024674286 -0.00033861634
0.0012337143 0.0015965714 -0.0057820124
0.0014514285 0.0011611428 -0.0033143396
0.0018142858 -0.0015965714 -0.00033861634
0.0023948571 0.0021045713 -0.0005563522
0.00254 0.0016691429 -0.0018627673
-0.0018142858 -4.3368087e-19 -0.0025159749
0.0010160001 -0.0011611428 -0.0025159749
0.00094342855 0.0013788572 -0.0057094339
0.0015965714 -0.0013062857 -0.0049836477
0.00254 0.00036285713 -0.0018627673
-0.0013062857 -0.00094342855 -0.0068706917
-0.0018868571 0.0016691429 -0.00048377359
0.00043542858 -0.00254 -4.8301888e-05
-0.0014514285 -0.0011611428 -0.0029514465
-0.0017417143 0.00065314287 -0.00048377359
-0.0015965714 0.0011611428 0.0015484276
-0.0022497142 -0.0023948571 -0.00041119498
0.0024674286 0.0019594287 -0.0018627673
-0.0018868571 -0.0020320001 -0.00033861634
-7.2571427e-05 -0.00072571426 -0.00048377359
-0.0010160001 -0.0015965714 -0.0078142136
-0.0013062857 0.001524 -0.0033869182
0.00094342855 0.0011611428 -0.0034594969
-4.3368087e-19 0.0010160001 -0.0025159749
-0.0010885714 -0.001524 -0.0052013835
0.0014514285 -0.0024674286 -0.00077408802
-0.0011611428 -0.00254 -0.0015724528
0.0010885714 0.0015965714 -0.002661132
0.0010885714 -0.0010160001 -0.0057094339
-0.0011611428 -0.00254 -0.00041119498
-0.0013788572 0.001524 0.00031459119
-0.00014514285 -0.0020320001 -0.00026603774
0.0018142858 -0.0022497142 -0.0001208805
-0.00254 0.0013062857 -0.0021530818
-0.00087085715 -0.0012337143 0.00031459119
0.00254 -0.0020320001 -0.0009192453
0.00254 -0.0019594287 -0.0011369812
-0.00087085715 -0.0013062857 -0.0025885534
0.00021771429 0.0017417143 -0.0025159749
0.00014514285 0.00094342855 -0.00041119498
0.00058057142 0.00036285713 -0.0025159749
-0.0017417143 0.0024674286 -0.0012821384
-0.0015965714 0.0013062857 -0.0055642766
-0.00254 -0.00021771429 -0.0021530818
0.00254 -7.2571427e-05 -0.0014998742
-0.00094342855 0.0010885714 -0.0066529559
-0.0011611428 -0.0010885714 0.00016943396
-0.00021771429 -0.00079828571 -0.0025159749
-0.0020320001 0.0010885714 -0.0025159749
-0.0013788572 0.00254 -0.0016450315
0.00094342855 -0.0023948571 -0.0023708176
0.0023948571 0.0012337143 -0.0024433963
0.001524 0.0013788572 0.0015484276
-0.0024674286 0.00029028571 -0.0025159749
0.0015965714 -0.0013788572 -0.0036772327
-0.0015965714 0.0010885714 0.0017661635
0.0013062857 -0.0013788572 -0.0066529559
-0.0016691429 -0.0024674286 -4.8301888e-05
-0.0021045713 -0.0019594287 -0.0024433963
-0.0014514285 0.0010160001 0.0012581132
0.00254 -0.001524 -0.00084666669
0.0014514285 -4.3368087e-19 -0.0025159749
0.00050800003 0.00254 -0.0001208805
0.00254 -0.0019594287 -0.00099182385
-0.0014514285 0.0010160001 -0.0066529559
0.00254 -0.0019594287 -0.0005563522
-0.0017417143 -0.0015965714 -0.0001208805
0.00254 -0.00072571426 -0.00048377359
-0.00014514285 -0.0016691429 -0.00048377359
0.0013062857 0.001524 0.0026371069
0.0010160001 -0.0024674286 -0.00026603774
0.001524 -0.0010160001 -0.0070884279
0.0013062857 0.00072571426 -0.00048377359
0.00058057142 -0.00254 -0.0017176101
-0.0015965714 0.0013788572 -0.0033143396
0.0010885714 -0.00094342855 -0.0035320756
-0.0016691429 0.0011611428 -0.004765912
0.00254 -0.0020320001 -0.00084666669
-0.0024674286 0.0021771428 -0.0017901887
-0.0017417143 0.0010885714 -0.00019345911
0.0015965714 -0.0011611428 0.00016943396
-0.0010160001 -0.001524 0.0024919496
-0.0010885714 -0.00094342855 -0.0054916982
0.0014514285 0.0013788572 -0.0042578615
-0.0010160001 0.0013062857 -0.0058545913
-0.00254 0.0019594287 -0.00070150942
0.0015965714 -0.0011611428 0.001693585
0.00072571426 -0.0022497142 -0.0025159749
0.0012337143 0.0010160001 -0.0070884279
0.0023948571 0.00014514285 -0.00048377359
0.0010160001 0.00021771429 -0.0025159749
0.0022497142 0.00021771429 -0.00048377359
0.0015965714 -0.0010885714 -0.002878868
-0.0013788572 -0.0021771428 -0.0025159749
-0.0010160001 0.0010885714 -0.0067981132
-0.0011611428 -0.00087085715 -0.0025159749
-0.0018142858 0.00021771429 -0.00048377359
-0.00043542858 -0.00058057142 -0.00048377359
0.00254 -0.0012337143 -0.0005563522
0.00254 0.00050800003 -0.0022256605
-0.0014514285 -0.0014514285 -0.0052739624
0.00043542858 -0.00014514285 -0.00048377359
-0.0024674286 -0.0020320001 -0.0022256605
0.0022497142 -0.00043542858 -0.0024433963
-0.0016691429 -0.00065314287 -0.0025159749
0.00254 0.00094342855 -0.0022256605
-0.0012337143 0.00043542858 -0.0025159749
0.0022497142 0.001524 -0.0025159749
-0.0024674286 -0.0018868571 -0.001354717
0.001524 0.0010885714 -0.00033861634
-0.00036285713 -0.00254 -0.0024433963
-0.0023222857 0.0022497142 -0.00048377359
0.00094342855 0.0015965714 -0.0001208805
-0.00094342855 -0.0013788572 -0.0055642766
-0.0010885714 -0.001524 -0.0076690568
-0.0022497142 -0.00036285713 -0.00048377359
-0.0014514285 -0.0011611428 -0.0044030189
0.00050800003 0.00029028571 -0.00048377359
-0.0013788572 0.001524 -0.0051288051
-0.0023222857 0.0022497142 -0.0022982389
-0.0013062857 0.0010160001 2.4276729e-05
0.00043542858 0.0020320001 -0.0025159749
-0.0023948571 -0.0021045713 -0.00062893081
0.0023222857 -0.0022497142 -0.00026603774
0.0015965714 -0.0013788572 -0.0053465408
0.00094342855 0.0012337143 0.0016210063
0.00079828571 0.00254 -0.001354717
-0.0011611428 -0.00094342855 -0.0057820124
0.0015965714 -0.0013062857 -0.0051288051
-0.0024674286 -0.0018868571 -0.00048377359
-0.0013062857 0.001524 -0.003604654
0.00094342855 0.0012337143 -0.0034594969
0.0010885714 -0.0012337143 -0.0025885534
0.0020320001 -0.0017417143 -0.00048377359
-0.00094342855 -0.0010885714 0.0021290565
0.00254 0.0013788572 -0.00077408802
-0.00043542858 -0.001524 -0.0025159749
0.00072571426 0.0024674286 -4.8301888e-05
-0.00043542858 0.00065314287 -0.00048377359
-0.0010160001 0.0011611428 -0.007015849
0.0023948571 0.0010160001 -0.0025159749
-0.00094342855 -0.0012337143 -0.0077416352
-0.0021045713 -0.001524 -4.8301888e-05
0.0011611428 -0.0014514285 -0.0034594969
0.00254 -0.00072571426 -0.0017176101
0.0014514285 0.0014514285 -0.0076690568
0.0016691429 -0.00058057142 -0.0025159749
0.001524 0.0014514285 -0.0067981132
0.0011611428 -0.00094342855 0.0013306919
-0.0010885714 0.00254 -0.00070150942
0.00087085715 -0.00058057142 -0.00048377359
-0.0015965714 0.0013062857 -0.0078867925
-0.0020320001 -0.00043542858 -0.00048377359
-0.0024674286 -0.0019594287 -0.0018627673
-0.0011611428 -0.00079828571 -0.00048377359
-0.00058057142 -0.0014514285 -0.0025159749
-4.3368087e-19 0.00014514285 -0.0025159749
0.00036285713 0.00254 -0.00019345911
0.00036285713 0.00021771429 -0.00048377359
-0.0015965714 0.0013062857 0.00060490565
0.0010885714 -0.0010885714 0.0021290565
0.00254 0.00014514285 -0.0022982389
0.0015965714 -0.0013062857 0.00024201258
0.0019594287 -0.0019594287 -0.0025159749
-0.0014514285 -0.0014514285 -0.0049110693
-0.0010885714 -0.001524 0.0015484276
-0.00029028571 -0.0013062857 -0.0025159749
-0.00094342855 -0.0013062857 -0.0052013835
0.0020320001 -0.0020320001 -0.00041119498
0.0010885714 0.00094342855 -0.0035320756
-0.0015965714 0.0012337143 0.00067748426
-0.0015965714 -0.00254 -0.0015724528
-0.0021771428 0.00029028571 -0.00048377359
0.00079828571 0.0018142858 -0.0025159749
-0.0019594287 -0.00036285713 -0.00048377359
0.001524 0.00254 -0.0005563522
-0.00094342855 -0.0014514285 -0.0064352201
0.0010885714 -0.00094342855 -0.0046207546
-0.00254 0.0012337143 -0.0019353459
0.00094342855 0.0013062857 -0.0041127042
0.00094342855 -0.00254 -0.0011369812
-0.0010160001 -0.001524 -0.0036772327
-0.0014514285 -0.00094342855 -0.00048377359
0.0010160001 0.0015965714 0.0020564781
-0.0012337143 -0.0013062857 0.0027096856
-0.0010160001 -0.0020320001 -0.0025159749
-0.00029028571 -0.0021771428 -4.8301888e-05
-0.0023948571 0.0021771428 -0.00019345911
-0.0013788572 -0.0010885714 0.001112956
-0.0014514285 -0.0012337143 -0.0037498113
-0.00065314287 0.0015965714 -0.00041119498
0.00094342855 0.0011611428 -0.0039675473
-0.001524 -0.0013788572 -0.0041127042
-0.0016691429 0.0023222857 -0.0001208805
0.0010160001 0.0015965714 0.0011855346
0.0010885714 0.0015965714 -0.0057094339
0.0018868571 0.0024674286 -0.0022256605
-0.0021771428 -0.0013788572 -0.00026603774
-0.0012337143 0.0024674286 -0.00070150942
-0.0013788572 0.00072571426 -0.0025159749
0.00254 -0.00021771429 -0.00070150942
0.0010885714 -0.0012337143 -0.0039675473
0.00021771429 -0.0019594287 -0.00048377359
0.0012337143 0.0010160001 -0.0037498113
0.0014514285 0.001524 -0.0050562266
-0.00029028571 -0.00079828571 -0.0025159749
0.0019594287 0.00014514285 -0.0025159749
-0.00254 -0.0012337143 -0.0020079245
-0.0020320001 0.00087085715 -0.00048377359
0.0024674286 0.0018142858 -0.00070150942
-0.0011611428 0.00029028571 -0.00048377359
0.0013788572 0.0015965714 -0.0035320756
-0.0010885714 0.0011611428 -0.0059997486
-0.0020320001 -0.0020320001 -0.00026603774
-0.0010160001 0.0012337143 -0.0054916982
0.00254 0.0012337143 -0.00077408802
0.0015965714 -0.0010160001 -0.0073787421
-0.0015965714 0.0012337143 -0.0030966038
-0.0015965714 0.0011611428 -0.0029514465
0.00021771429 0.00014514285 -0.0025159749
-0.00094342855 -0.0013788572 -0.0067981132
0.0024674286 0.0019594287 -0.0012095597
-0.0023222857 -0.0010160001 -0.0025159749
-0.00254 -0.0010885714 -0.0017901887
0.0015965714 -0.0011611428 -0.0049110693
0.00043542858 0.0015965714 -0.00019345911
0.0013062857 0.0010160001 -0.0066529559
-0.0023948571 0.0015965714 -0.00026603774
-0.00254 0.00065314287 -0.0016450315
0.0013062857 0.0020320001 -0.0023708176
-0.00072571426 -0.0015965714 -0.00019345911
0.00254 7.2571427e-05 -0.0014272956
-0.0021045713 0.00029028571 -0.00048377359
-0.0010160001 -0.0015965714 -0.0030240251
0.00254 0.00014514285 -0.0014998742
-0.0018142858 0.0013062857 -4.8301888e-05
0.00065314287 -0.0013788572 -4.8301888e-05
-0.0015965714 -0.0012337143 -0.00033861634
0.00065314287 0.00254 -0.00070150942
0.0011611428 0.00058057142 -0.00048377359
0.0015965714 -0.0013788572 -0.0041127042
7.2571427e-05 0.0010160001 -0.0025159749
0.0024674286 -0.0016691429 -0.00048377359
-0.0015965714 0.0013062857 0.0023467925
0.00014514285 0.0019594287 -0.00041119498
0.0013062857 -0.0020320001 -0.00026603774
0.00094342855 0.0013788572 -0.0053465408
0.0010885714 -0.0012337143 0.0023467925
-0.0021045713 -0.0013062857 -0.0025159749
-0.0012337143 -0.00254 -0.0022256605
-0.0010160001 0.0021771428 -4.8301888e-05
-7.2571427e-05 0.00254 -0.0022256605
-0.0010885714 0.00094342855 -0.0043304404
0.0023222857 0.0021771428 -0.0020079245
-0.00021771429 0.0015965714 -4.8301888e-05
-0.0014514285 -0.00254 -0.00077408802
0.0010885714 -0.0012337143 0.0018387422
-0.0015965714 0.0011611428 0.0013306919
-0.001524 0.0015965714 -0.00019345911
-0.0021045713 -4.3368087e-19 -0.00048377359
-0.00254 0.00058057142 -0.00048377359
-0.0010160001 -0.001524 -0.0030966038
-0.0010160001 0.0010160001 -0.0066529559
-0.0010160001 -0.001524 -0.0056368555
0.0014514285 0.00254 -0.00048377359
0.0010160001 0.00254 -0.0005563522
-0.0010160001 0.0013788572 0.00067748426
-0.00094342855 -0.0012337143 -0.0055642766
-0.0024674286 -0.0018868571 -0.00070150942
0.0014514285 -0.0010160001 -0.0076690568
0.0010885714 -0.0013062857 -0.0033143396
-0.0012337143 0.0010160001 0.0026371069
-0.0015965714 -4.3368087e-19 -0.00048377359
-0.00254 -0.0014514285 -0.0021530818
-0.0021045713 0.0023222857 -0.0009192453
0.0017417143 -0.00021771429 -0.00048377359
-0.0011611428 0.001524 9.6855343e-05
-0.00254 -0.0015965714 -0.00070150942
0.0015965714 -0.0010160001 -0.0030966038
0.0018142858 0.0023222857 -0.00026603774
0.0011611428 0.0012337143 0.0028548427
-0.0015965714 0.0011611428 -0.0050562266
-0.00094342855 -0.0010885714 0.00089522015
0.0023222857 0.0014514285 -0.0001208805
0.0010885714 0.0015965714 -0.0062900628
-0.0013062857 -0.0010885714 0.0011855346
0.0011611428 0.0024674286 -0.0024433963
-0.0013062857 -0.001524 -0.00382239
0.00254 -0.00021771429 -0.0012821384
-0.001524 -0.0014514285 0.00082264154
-0.0021045713 -0.0024674286 -0.00062893081
0.0011611428 0.00094342855 0.0003871698
-0.00043542858 0.00254 -0.00048377359
-0.0012337143 -0.001524 0.001112956
0.0015965714 0.00050800003 -0.0025159749
-0.0010885714 0.0013062857 -0.0043304404
0.00094342855 0.0010885714 -0.0045481762
0.0010885714 -0.0010885714 -0.0031691825
0.00254 -0.0013788572 -0.0021530818
-0.0023222857 0.0022497142 -0.00041119498
0.0019594287 -0.0023948571 -0.0012821384
-0.00254 0.0014514285 -0.00041119498
-0.0010160001 -0.00094342855 9.6855343e-05
0.0020320001 -0.0015965714 -0.00033861634
-0.00050800003 -0.0021045713 -0.00019345911
-0.0012337143 -0.0010885714 -0.003604654
-0.0023222857 0.00079828571 -0.00048377359
-0.0010160001 -0.001524 -0.0052013835
-0.00036285713 0.00094342855 -0.00033861634
-0.0011611428 -0.001524 -0.0057094339
0.0012337143 -0.00029028571 -0.0025159749
-0.00021771429 -0.00254 -0.00062893081
0.0015965714 -0.0013062857 -0.0072335848
-0.0015965714 0.0011611428 -0.0074513205
0.00254 -0.00050800003 -0.0016450315
-0.0013788572 -0.0010885714 -0.0049836477
0.0014514285 0.00014514285 -0.00048377359
-0.0011611428 -0.001524 0.0014032704
0.00065314287 -0.00087085715 -0.0025159749
0.00014514285 -0.00254 -0.0022982389
0.0011611428 -0.00094342855 -0.0043304404
0.0010885714 -0.00094342855 -0.0066529559
0.00043542858 0.0015965714 -0.00033861634
0.0014514285 0.0011611428 -0.002878868
0.001524 0.0013788572 -0.0046933335
-0.0014514285 0.001524 0.00075006287
0.001524 -0.0013062857 0.0025645283
-0.0014514285 -0.0011611428 -0.0057094339
-0.0015965714 0.0010885714 0.0013306919
-0.0010885714 0.0010885714 0.0015484276
-0.0023222857 -0.0016691429 -0.00048377359
0.00254 0.00036285713 -0.0012821384
-0.00094342855 0.0010885714 0.0020564781
0.0015965714 -0.0013062857 -0.0064352201
0.0015965714 -0.0013062857 -0.0027337107
0.00029028571 0.00050800003 -0.00048377359
0.0022497142 0.0021045713 -0.0001208805
-0.00094342855 0.0020320001 -0.0001208805
0.0020320001 0.0024674286 -0.00019345911
0.001524 -0.0015965714 -0.00026603774
-4.3368087e-19 -0.0016691429 -0.00048377359
0.0012337143 0.0014514285 0.0028548427
-0.0013788572 0.001524 -0.0077416352
-0.0013062857 -0.001524 -0.0057820124
0.0018868571 -0.0023948571 -0.00048377359
-0.00254 -0.00087085715 -0.0012095597
-0.0018868571 -0.0015965714 -0.0001208805
-0.001524 -0.0014514285 -0.0059997486
-0.00254 0.00021771429 -0.0009192453
-0.0015965714 0.0010160001 0.0024193712
-0.0010885714 0.0011611428 -0.0046207546
0.0014514285 0.0010885714 -0.00033861634
-0.0010160001 0.0013062857 -0.0051288051
-0.00058057142 0.0015965714 -0.00033861634
0.00079828571 0.00254 -0.0012821384
0.00079828571 -0.001524 -0.0025159749
-0.00254 0.0013062857 -0.0010644025
0.0013788572 -0.0021045713 -4.8301888e-05
0.00021771429 0.00050800003 -0.00048377359
0.0021045713 -0.0023222857 -0.0022256605
-0.0024674286 0.0021045713 -0.00048377359
-0.0010885714 0.001524 -0.0071610063
-0.0011611428 0.00058057142 -0.00048377359
0.0014514285 0.001524 -0.004765912
-0.00065314287 0.00058057142 -0.0025159749
-0.0010160001 0.0010160001 0.00031459119
-0.0012337143 0.001524 0.00060490565
0.00079828571 -0.0018142858 -0.00048377359
0.00058057142 -0.00014514285 -0.0025159749
0.001524 -0.0010160001 0.00060490565
0.0012337143 0.0015965714 0.0024919496
-7.2571427e-05 0.00254 -0.0018627673
-0.0013788572 0.0021771428 -4.8301888e-05
0.0023948571 -0.0021771428 -4.8301888e-05
-0.0015965714 -0.0012337143 -0.00019345911
-0.00254 0.0010160001 -0.00084666669
-0.0023222857 -0.00050800003 -0.0025159749
-0.0015965714 0.0014514285 -0.0049110693
0.0017417143 -0.00087085715 -0.00048377359
0.0015965714 -0.0013062857 0.0019838994
0.001524 -0.0013788572 0.0021290565
-0.0020320001 0.0023948571 -0.0020079245
0.0014514285 0.0011611428 0.0019113207
0.0024674286 -0.00036285713 -0.00048377359
-0.00254 0.0013788572 -0.0023708176
0.00094342855 -0.00254 -0.00084666669
-0.00043542858 0.0011611428 -0.0025159749
-0.00087085715 -0.001524 -0.00026603774
0.00254 0.0013062857 -0.0012821384
0.0015965714 -0.0013788572 9.6855343e-05
-0.0014514285 -0.00036285713 -0.0025159749
0.0013788572 -0.001524 -0.0058545913
0.0015965714 0.0020320001 -0.00019345911
-0.00050800003 -0.00254 -0.00033861634
-0.0014514285 0.001524 0.00067748426
0.0013788572 -0.0011611428 0.0027822643
0.0011611428 0.00254 -0.00048377359
0.0013788572 0.00254 -4.8301888e-05
0.0010885714 -0.0010885714 0.0011855346
0.0021771428 0.0023948571 -0.0019353459
0.0015965714 -0.0023948571 -0.0015724528
-0.0013788572 0.0010160001 -0.0049110693
0.00254 -0.00043542858 -0.0017176101
0.0014514285 -0.0019594287 -0.00048377359
0.0014514285 0.0011611428 -0.0044030189
-0.00254 -0.00087085715 -0.0017901887
0.0019594287 0.0024674286 -0.0014998742
0.00087085715 0.0011611428 -0.0025159749
-0.0010885714 0.00094342855 0.0015484276
-0.0011611428 0.00094342855 0.0016210063
0.0014514285 -0.0013788572 -0.0030966038
0.0016691429 0.0012337143 -4.8301888e-05
0.0015965714 -0.0013788572 -0.0037498113
0.0010885714 -0.0012337143 -0.00382239
-0.0015965714 0.0023948571 -0.0014998742
-0.0010160001 -0.0015965714 -0.0036772327
0.00050800003 -0.00254 -0.0011369812
-0.00029028571 0.0018868571 -0.00041119498
0.0015965714 0.00254 -0.0005563522
-0.001524 0.0010885714 -0.0065803775
0.0013062857 -0.0013788572 -0.0042578615
-0.00254 -0.00050800003 -0.0021530818
-0.0018142858 -0.00254 -0.00041119498
-0.0011611428 0.0013062857 -0.0079593714
-0.00087085715 0.00254 -0.0022256605
-0.0021771428 -0.0013062857 -0.00048377359
0.0018868571 0.001524 -0.0025159749
-0.001524 0.0010160001 -0.003604654
-0.00254 -0.00065314287 -0.0017901887
0.0012337143 -0.00058057142 -0.00048377359
-0.0013062857 0.0020320001 -0.0001208805
0.0023948571 0.0021045713 -0.0023708176
0.0013788572 -0.0013788572 -0.0075238994
-0.00043542858 -0.00254 -0.0021530818
0.00058057142 0.0017417143 -0.0025159749
-0.00254 0.0011611428 -0.0015724528
0.00058057142 0.0022497142 -0.0023708176
-0.0010160001 -0.001524 -0.0032417611
-0.0010885714 0.0014514285 -0.003604654
0.00254 -0.0015965714 -0.0022256605
0.0011611428 -0.0020320001 -0.00019345911
-0.0010160001 -0.0011611428 -0.0080319494
-0.0015965714 -0.00254 -0.00033861634
0.0020320001 0.0010160001 -0.0025159749
-7.2571427e-05 0.00072571426 -0.00048377359
7.2571427e-05 -0.0018868571 -0.00048377359
-0.0023222857 -0.0022497142 -0.00041119498
0.00094342855 0.001524 -0.0071610063
0.0017417143 -0.0015965714 -0.00033861634
-0.00021771429 -0.00254 -0.0010644025
-0.0015965714 0.0013788572 -0.0049836477
0.0018142858 -0.0023948571 -0.0014272956
-0.00058057142 -0.00065314287 -0.0025159749
-0.0012337143 0.00036285713 -0.0025159749
-0.0022497142 0.0019594287 -0.00041119498
0.00254 -0.00094342855 -0.00070150942
0.0013788572 0.00254 -0.00048377359
-0.0010160001 0.00094342855 -0.0046933335
0.0011611428 -0.0024674286 -0.00070150942
0.00254 0.00014514285 -0.0018627673
0.0022497142 0.00087085715 -0.00048377359
0.0013788572 0.0010160001 0.00031459119
0.0021771428 0.0016691429 -0.0025159749
0.001524 0.0010885714 2.4276729e-05
0.0018142858 0.00021771429 -0.00048377359
0.0013062857 0.0015965714 -0.0040401258
0.00254 -0.0010160001 -0.0019353459
0.001524 0.00094342855 -0.0025159749
-0.00094342855 -0.00254 -0.0024433963
-0.00036285713 -0.0014514285 -0.0025159749
-0.0023222857 -0.0020320001 -0.00026603774
-0.0016691429 -0.00065314287 -0.00048377359
0.0023222857 0.0016691429 -0.0024433963
-0.00094342855 0.0011611428 0.0014758491
0.0023948571 0.00087085715 -0.0025159749
0.00254 -0.00087085715 -0.0017176101
-0.0014514285 -0.00254 -0.0022256605
-0.0010885714 -0.0011611428 0.0027096856
0.0013062857 0.0010160001 0.0014032704
-0.0012337143 0.00050800003 -0.0025159749
0.00094342855 0.0010885714 -0.0052013835
0.0012337143 -0.0013788572 -0.0072335848
-0.0013788572 -0.0017417143 -0.0025159749
0.00254 -0.0012337143 -0.00062893081
0.0010885714 -0.0013062857 -0.006072327
-0.0018868571 0.0012337143 -0.0025159749
-0.00094342855 0.0015965714 -0.00026603774
0.0023222857 -0.00014514285 -0.0023708176
-0.0021045713 -0.00079828571 -0.0025159749
0.0013788572 -0.0013788572 -0.0031691825
0.0012337143 0.0015965714 -0.0058545913
0.0014514285 -0.0010885714 0.0027096856
0.00065314287 -0.00065314287 -0.0025159749
0.00254 -0.0013062857 -0.0015724528
0.00021771429 0.00254 -0.0012821384
0.00021771429 -0.00254 -0.0014272956
-0.001524 -0.0013788572 -0.002878868
0.0016691429 -0.0019594287 -0.00048377359
-0.0010160001 -0.0015965714 -0.004765912
-0.0020320001 0.0024674286 -0.0017176101
-0.0024674286 -0.0018142858 -0.00070150942
-0.0011611428 -0.0013062857 -0.0083222641
0.0017417143 0.00254 -0.0020805032
0.00254 -0.0019594287 -0.0020079245
0.0014514285 -0.00036285713 -0.0025159749
-0.0014514285 -0.0014514285 -0.0053465408
0.00094342855 0.00254 -0.0022982389
0.00094342855 0.0019594287 -0.00041119498
0.00094342855 0.0010160001 0.00089522015
-0.00254 -0.00014514285 -0.0012095597
-0.0014514285 0.001524 0.0011855346
-0.0015965714 0.0018142858 -0.00048377359
0.00094342855 0.0010885714 -0.0050562266
-0.00254 0.0018868571 -0.0014272956
-0.0014514285 -0.0012337143 -0.0069432706
0.00065314287 -0.00254 -0.0010644025
0.00254 -0.00014514285 -0.0020805032
0.00254 -0.00087085715 -0.0011369812
0.0014514285 -0.0022497142 -0.0025159749
-4.3368087e-19 -0.0020320001 -0.0025159749
0.0021045713 -0.00043542858 -0.00048377359
-0.00050800003 0.00254 -0.0012821384
0.00094342855 0.001524 -0.0052013835
-0.0021771428 0.00087085715 -0.0025159749
0.0010885714 -0.0013062857 -0.0044755973
-0.0020320001 -0.00029028571 -0.0025159749
-0.0021045713 -0.00072571426 -0.0025159749
0.0012337143 -0.00094342855 -0.0044755973
-0.0011611428 0.0017417143 -0.00048377359
-0.00094342855 0.0010885714 0.0014032704
-0.0017417143 -0.0010160001 -0.00048377359
0.0014514285 -0.0010160001 -0.0030966038
0.0023222857 0.00029028571 -0.0025159749
-0.0018142858 0.0024674286 -0.0012821384
0.0010885714 -0.0010160001 -0.0069432706
-0.00072571426 -0.00021771429 -0.00048377359
0.0012337143 0.001524 0.0026371069
0.00254 -0.0014514285 -0.0016450315
0.0022497142 0.0023948571 -0.00077408802
-0.00058057142 0.00254 -0.00077408802
-0.0022497142 0.00087085715 -0.0024433963
0.001524 -0.0013788572 -0.0075964779
0.00079828571 0.00087085715 -0.0025159749
-0.00065314287 0.00014514285 -0.0025159749
-0.0010885714 0.001524 9.6855343e-05
0.00058057142 -0.00254 -0.00084666669
0.0023222857 -0.0022497142 -0.0012095597
-0.0019594287 -0.0016691429 -0.00048377359
-0.00050800003 -0.00094342855 -0.00019345911
-0.00029028571 -0.00254 -0.00070150942
-0.00050800003 -0.0023222857 -4.8301888e-05
-0.00072571426 -0.00029028571 -0.00048377359
-0.00014514285 -0.0010160001 -0.0025159749
-0.0015965714 0.0012337143 -0.0077416352
0.0013788572 -0.0013788572 -0.0041852831
-0.00254 0.0010885714 -0.0011369812
-0.00254 0.0013062857 -0.0011369812
0.0012337143 0.00254 -0.0017176101
0.00094342855 0.001524 -0.0049836477
0.00072571426 0.0015965714 -0.0025159749
-0.0015965714 0.0013062857 -0.0053465408
-0.00072571426 -0.00254 -0.0016450315
-0.0010160001 -0.0021771428 -0.00026603774
-0.0010885714 -0.0010160001 -0.0061449055
-0.0013062857 -0.0010885714 -0.0025885534
0.0018868571 -0.0017417143 -0.00048377359
0.0012337143 -0.0024674286 -0.0005563522
-0.001524 -0.0014514285 -0.0054191197
0.00029028571 0.0015965714 -4.8301888e-05
7.2571427e-05 0.0023948571 -0.0024433963
-0.001524 -0.0014514285 -0.0048384904
0.0010160001 0.0017417143 -0.0025159749
-0.0013062857 -0.0010885714 -0.0031691825
0.0021045713 0.0015965714 -0.00026603774
-0.0012337143 0.001524 -0.0043304404
0.0010160001 0.001524 -0.0078867925
0.001524 -0.0023948571 -0.00026603774
-0.0011611428 -0.0018868571 -0.00048377359
-0.00029028571 -0.0023222857 -4.8301888e-05
-0.0014514285 -0.0014514285 -0.0069432706
0.0013788572 0.0010885714 -0.0044030189
0.0014514285 0.0015965714 0.0021290565
0.0012337143 0.00254 -0.00026603774
0.0020320001 -0.0011611428 -4.8301888e-05
0.00254 -0.00021771429 -0.0022256605
0.0015965714 -0.0010160001 -0.007015849
-0.00072571426 -0.001524 -0.0025159749
-0.0018868571 0.0015965714 -0.00026603774
0.0021045713 0.0016691429 -0.0025159749
-0.00021771429 -0.0014514285 -0.00026603774
0.00079828571 -0.00254 -0.00062893081
0.0014514285 0.0012337143 -0.0044755973
-0.00043542858 0.0018142858 -0.00048377359
0.0013062857 -0.00094342855 -0.0079593714
0.0014514285 -0.0014514285 -0.0025159749
-0.0010885714 0.0014514285 -0.0040401258
0.00254 -0.00050800003 -0.0022982389
-0.0018142858 0.0023948571 -0.0012095597
0.0013062857 -0.0013788572 0.00067748426
0.0014514285 0.001524 -0.0054191197
0.0010885714 -0.0013062857 0.001112956
-0.0010160001 0.0023948571 -0.0001208805
0.001524 0.001524 -0.0067981132
-0.00254 -0.0013788572 -0.00070150942
-0.0011611428 0.0012337143 0.0025645283
-0.00094342855 -0.0014514285 -0.0065803775
0.001524 -0.0010160001 -0.00033861634
0.00094342855 0.0013788572 -0.0031691825
0.0013062857 -7.2571427e-05 -0.0025159749
0.0015965714 -0.0011611428 0.0019838994
-0.0014514285 -0.0023222857 -0.0025159749
0.0014514285 -0.0013788572 0.0011855346
-7.2571427e-05 -0.00050800003 -0.0025159749
-0.001524 0.0014514285 -0.0052013835
-0.0013788572 -0.0010885714 -0.0073787421
0.001524 0.0013788572 -0.0073787421
-0.0010885714 0.0013788572 -0.0030240251
-0.0013062857 -0.0010885714 -0.00019345911
0.0011611428 -0.0014514285 -0.0075964779
-0.0013788572 0.0024674286 -0.0014998742
0.00094342855 0.0010885714 0.00024201258
0.00029028571 -0.00036285713 -0.00048377359
-0.0015965714 0.0014514285 -0.0050562266
0.00058057142 0.0024674286 -4.8301888e-05
-0.0012337143 -0.00036285713 -0.0025159749
-0.0010160001 -0.0015965714 -0.0049110693
0.00014514285 0.00254 -0.00070150942
0.0013788572 -0.0013788572 -0.0067981132
0.00014514285 -0.00043542858 -0.0025159749
0.00065314287 0.0023948571 -4.8301888e-05
-0.0023948571 0.0020320001 -0.00033861634
0.0023222857 0.00050800003 -0.0025159749
-0.00254 0.0018868571 -0.0017176101
-0.0010160001 0.0010885714 0.001112956
0.0015965714 -0.0013788572 -0.0030966038
-0.0014514285 0.0010160001 0.00089522015
-0.0019594287 -0.00036285713 -0.0025159749
0.0021045713 -0.00029028571 -0.0025159749
-0.0016691429 0.0023948571 -0.0018627673
-0.0010885714 -0.0023948571 -4.8301888e-05
-0.00050800003 -0.0023222857 -0.0025159749
0.00254 -0.00058057142 -0.0017176101
-0.0017417143 -0.00254 -0.0001208805
0.0013788572 -0.0014514285 -0.0044755973
-0.0013062857 -0.001524 -0.0038949687
0.0012337143 0.0010160001 -0.0025159749
0.00021771429 0.00029028571 -0.00048377359
0.0015965714 -0.0010885714 0.00082264154
-0.00021771429 -0.0013788572 -4.8301888e-05
-0.0023222857 -0.0021045713 -0.00026603774
-0.0020320001 -0.0014514285 -0.0025159749
-0.00094342855 -0.0014514285 -0.0039675473
-0.00094342855 0.00254 -0.0014998742
0.001524 0.00254 -0.0023708176
-0.0010160001 0.0013788572 -0.0065077986
0.0018868571 0.0024674286 -4.8301888e-05
-0.0014514285 -0.0013788572 -0.0078142136
0.0013062857 -0.0024674286 -0.0016450315
-0.00254 0.00029028571 -0.0015724528
-0.0013788572 0.0014514285 -0.0078867925
-0.0010885714 -0.00254 -0.0014272956
-0.0011611428 -0.00254 -0.00084666669
-0.0010885714 0.00094342855 -0.0038949687
0.0016691429 0.0015965714 -4.8301888e-05
0.0012337143 0.0012337143 -0.0082496852
0.0023948571 -0.0021771428 -0.0014998742
-0.0012337143 -0.0023948571 -0.0025159749
0.0021771428 0.0019594287 -0.0023708176
-0.0013788572 -0.0014514285 -0.0080319494
0.00094342855 0.0010885714 -0.0034594969
0.0010885714 -0.0012337143 -0.0030966038
0.00254 0.00072571426 -0.00099182385
-0.0013788572 0.0020320001 -4.8301888e-05
0.0010885714 0.0015965714 -0.0025885534
-0.0010160001 -0.0010160001 -0.0054191197
-0.0017417143 -0.00254 -0.0021530818
-0.00072571426 0.0015965714 -0.0025159749
0.0012337143 -0.00014514285 -0.00048377359
-0.0018868571 0.0023222857 -0.0009192453
-0.0010885714 0.00094342855 0.00053232705
0.00094342855 0.0010885714 0.0016210063
0.00254 0.0015965714 -0.00099182385
0.00065314287 0.00029028571 -0.0025159749
0.00029028571 0.00254 -0.00019345911
-0.0019594287 -0.0018868571 -0.0025159749
-0.0010885714 0.0014514285 -0.0051288051
0.0022497142 0.0014514285 -4.8301888e-05
0.0013788572 0.0010160001 -0.0033143396
0.0013062857 -0.0024674286 -0.0019353459
0.00254 7.2571427e-05 -0.00084666669
-0.0018868571 -0.0014514285 -4.8301888e-05
-0.0022497142 0.0023222857 -0.0011369812
0.00065314287 0.0019594287 -0.00041119498
-0.0018142858 -0.00254 -0.0020805032
-0.00050800003 -0.00254 -0.00084666669
0.0010885714 0.0015965714 -0.0062174844
-0.0010885714 0.0014514285 -0.0049110693
0.0021771428 -0.0015965714 -0.00041119498
-0.0015965714 0.0010885714 -0.0074513205
-0.0013788572 -0.001524 0.0025645283
0.0011611428 0.0017417143 -0.0025159749
-0.0022497142 0.0023222857 -0.0022256605
-0.00094342855 -0.001524 -0.0075964779
-0.0010885714 0.0012337143 -0.0070884279
0.00058057142 -0.00094342855 -0.0025159749
0.0013062857 -0.0014514285 -0.0044755973
-0.00254 0.00014514285 -0.0015724528
-0.00058057142 0.00072571426 -0.00048377359
-0.001524 -0.0013062857 -0.0049110693
-0.0010885714 0.0013788572 0.0022016352
-0.00254 0.0015965714 -0.00062893081
0.001524 0.0014514285 0.0011855346
0.0012337143 0.00072571426 -0.0025159749
0.00254 0.0013788572 -0.0012095597
0.0012337143 -0.0024674286 -0.0017901887
-0.0021045713 -0.0024674286 -0.0005563522
-0.00254 -0.0013788572 -0.0012095597
0.0013788572 -0.0013788572 0.0022742138
-0.0023222857 0.0012337143 -0.00026603774
-0.0010160001 -0.0021045713 -0.00026603774
-0.0015965714 0.0010885714 -0.0073787421
0.00036285713 0.00094342855 -0.00041119498
-0.0015965714 0.0014514285 -0.0075964779
0.0010885714 0.0011611428 -0.0081771072
-0.00254 -0.00079828571 -0.0023708176
-0.00094342855 -0.0014514285 -0.0030966038
0.00094342855 0.0013062857 -0.0056368555
-0.001524 0.0023222857 -0.0023708176
-4.3368087e-19 0.0020320001 -0.0001208805
-0.00087085715 -0.00254 -0.001354717
-0.0015965714 0.0014514285 -0.003604654
0.00094342855 0.0014514285 -0.0069432706
-0.00094342855 0.0011611428 -0.004765912
0.0013788572 -0.001524 -0.00026603774
-0.00072571426 0.00254 -0.00048377359
0.001524 -0.0014514285 -0.0025159749
-0.00036285713 -0.00094342855 -4.8301888e-05
-0.00094342855 -0.0010885714 -0.0064352201
0.00079828571 0.00254 -0.0015724528
-0.0017417143 -0.00014514285 -0.0025159749
-0.0020320001 0.00021771429 -0.0025159749
-0.0014514285 -0.0013062857 -0.0029514465
0.0010160001 -0.0010160001 9.6855343e-05
-0.00094342855 -0.0010885714 -0.0068706917
0.0012337143 0.00094342855 -0.00048377359
0.0014514285 -0.0013788572 -0.0031691825
0.0011611428 0.00094342855 -0.0027337107
7.2571427e-05 -0.001524 -0.0025159749
-4.3368087e-19 -0.00029028571 -0.00048377359
0.0011611428 -0.0024674286 -0.0014272956
0.0023948571 -0.0011611428 -4.8301888e-05
0.0021771428 -0.00079828571 -0.0025159749
0.00029028571 -0.00254 -0.0011369812
-0.0013788572 0.0024674286 -0.0012095597
0.0013062857 -0.0013788572 -0.0067981132
-0.00254 0.00021771429 -0.0017901887
0.0018142858 -0.00036285713 -0.0025159749
0.00254 -0.0018142858 -0.001354717
0.00254 -0.0014514285 -0.00077408802
-0.0020320001 -0.0015965714 -0.0001208805
-0.0010885714 0.0013062857 -0.0033143396
0.001524 -0.0013788572 0.0024919496
0.0014514285 -0.0013062857 0.0025645283
-0.0024674286 -0.0019594287 -0.00048377359
0.00058057142 0.00254 -0.0019353459
-0.0019594287 0.001524 -0.00019345911
-0.00072571426 -0.001524 -0.00026603774
0.0013788572 0.0010160001 -0.0072335848
0.001524 -0.0010160001 -0.0039675473
-0.00254 -0.0014514285 -0.0022256605
0.00094342855 0.0021771428 -4.8301888e-05
-0.001524 -0.00072571426 -0.00048377359
0.0015965714 -0.0013062857 -0.0067981132
-0.0010160001 0.0011611428 0.0018387422
-0.00043542858 0.0012337143 -4.8301888e-05
-0.0014514285 -0.0014514285 -0.0037498113
0.0010885714 -0.00094342855 -0.006072327
-0.00254 0.0013062857 -0.0015724528
0.0013788572 0.0015965714 -0.0069432706
-0.001524 0.0014514285 -0.0070884279
0.0010160001 0.0010160001 -0.0078142136
0.0010885714 -0.00254 -0.0012821384
0.0013062857 -0.0013788572 -0.0071610063
0.0012337143 -0.00094342855 0.0013306919
-0.0010160001 0.0010885714 -0.0040401258
0.00087085715 -0.00094342855 -4.8301888e-05
0.00014514285 0.0014514285 -0.0025159749
0.00094342855 -0.0021771428 -0.0025159749
0.00094342855 0.001524 -0.0057094339
-0.00254 0.0013788572 -0.00026603774
0.0010160001 0.00254 -0.0012821384
0.0023948571 -0.0022497142 -0.0016450315
-0.00014514285 0.0017417143 -0.0025159749
-0.0021045713 0.00058057142 -0.0025159749
0.00021771429 0.0015965714 -0.00041119498
0.0013788572 0.0010160001 -0.0041852831
-0.0011611428 0.00094342855 0.00060490565
-0.0013788572 -0.0020320001 -0.00033861634
0.0012337143 -0.00094342855 -0.0062900628
-0.00058057142 -0.0021771428 -0.0001208805
-0.0021771428 0.0023222857 -0.00041119498
-0.0013788572 0.0024674286 -0.00084666669
0.0023948571 0.0015965714 -0.00019345911
0.0015965714 0.0021771428 -0.0001208805
0.00029028571 -0.00254 -0.00048377359
0.0015965714 -0.0012337143 -0.0041852831
-0.001524 -0.0014514285 -0.0044755973
-0.00254 0.0019594287 -0.0012821384
-0.00058057142 0.00029028571 -0.0025159749
0.0017417143 0.00254 -0.0022256605
-0.00254 0.0015965714 -0.0015724528
-0.0010160001 0.00094342855 -0.004765912
0.00079828571 0.00036285713 -0.0025159749
-0.0012337143 0.00094342855 0.001112956
-0.0015965714 0.0011611428 0.0021290565
0.0014514285 0.001524 -0.0073061637
0.0019594287 0.0012337143 -0.00026603774
0.00094342855 0.0013062857 0.0020564781
-0.0011611428 -0.001524 -0.0038949687
-0.001524 0.0010160001 0.0015484276
-0.0014514285 -0.0011611428 0.00024201258
-0.0019594287 0.00058057142 -0.00048377359
-0.0015965714 0.0010160001 0.0003871698
-0.001524 0.0010160001 -0.0077416352
0.00036285713 0.0017417143 -0.00048377359
0.00043542858 0.00254 -0.00077408802
0.00036285713 -0.0024674286 -0.0025159749
-4.3368087e-19 -0.0011611428 -0.0025159749
-0.0012337143 -0.0010885714 -0.0059997486
-0.0010885714 0.0011611428 0.00053232705
-0.0012337143 0.001524 -0.004765912
0.0015965714 -0.0011611428 -0.0044755973
-0.0022497142 0.00050800003 -0.00048377359
0.0013788572 0.0010885714 -0.0042578615
0.0010885714 -0.0013788572 -0.002878868
0.0015965714 0.0012337143 9.6855343e-05
7.2571427e-05 0.00254 -0.0017176101
-0.00036285713 0.00254 -0.00084666669
0.00072571426 0.0018868571 -0.00041119498
-0.00094342855 -0.0013062857 -0.0045481762
-0.00043542858 -0.0012337143 -4.8301888e-05
-0.00079828571 0.00094342855 -0.00041119498
-0.0016691429 0.0010885714 -4.8301888e-05
0.0010160001 0.0015965714 -0.0033143396
-0.00079828571 0.0019594287 -0.0025159749
-0.001524 0.0023948571 -0.00033861634
-0.00254 -0.00079828571 -0.00084666669
0.0013788572 0.0010885714 -0.0078867925
-0.0013788572 -0.0010885714 -0.0037498113
0.0019594287 -0.0023948571 -0.001354717
-0.0015965714 0.0023948571 -0.00033861634
-0.0018142858 -0.0013062857 -0.00026603774
0.00079828571 0.00029028571 -0.0025159749
-0.00079828571 0.0021771428 -0.0025159749
0.00254 -7.2571427e-05 -0.0017176101
-0.0015965714 0.0013062857 -0.0046933335
0.0015965714 0.00014514285 -0.0025159749
0.00036285713 0.00029028571 -0.00048377359
0.0016691429 0.0011611428 -4.8301888e-05
-0.0017417143 -0.0020320001 -0.00026603774
-0.00094342855 -0.0010885714 -0.0070884279
0.00050800003 0.0015965714 -0.00041119498
-0.0013062857 -0.0010160001 -0.0065077986
0.00021771429 -0.0010885714 -4.8301888e-05
0.0015965714 -0.0013788572 -0.0072335848
-0.0012337143 0.00254 -0.001354717
0.00065314287 -0.00065314287 -0.00048377359
0.0015965714 -0.0010160001 0.0019838994
0.0010885714 0.0011611428 -0.0080319494
0.0013062857 -0.0023222857 -0.00019345911
-0.0010885714 -0.00094342855 -0.0058545913
-0.001524 -0.0013788572 0.0003871698
