# .PCD v0.7 - Point Cloud Data file format
VERSION 0.7
FIELDS x y z
SIZE 4 4 4
TYPE F F F
COUNT 1 1 1
WIDTH 1199
HEIGHT 1
VIEWPOINT 0 0 0 1 0 0 0
POINTS 1199
DATA ascii
-0.010496009 -0.0012147826 -0.0037498113
-0.010063184 0.0016565217 0.0023467925
0.015040673 0.00099391304 0.0021290565
0.023047937 -0.00077304349 -0.00026603774
0.014607848 -0.0012147826 -4.8301888e-05
0.01309296 0.00254 -0.00048377359
-0.0089811217 -0.00254 -0.0020079245
0.0048692827 0.00099391304 0.00016943396
-0.017421212 -0.00033130436 -0.00048377359
0.011578072 0.0012147826 -4.8301888e-05
-0.0024887444 -0.0016565217 -0.0046207546
-0.0050856951 0.00099391304 -0.0072335848
-0.01309296 0.00254 -0.00070150942
-0.014175023 -0.0020982609 -4.8301888e-05
0.0022723319 0.0016565217 -0.002661132
-0.013525785 0.00099391304 -0.0024433963
-0.022831526 0.0014356521 0.00082264154
-0.022615112 0.0014356521 -0.0065803775
0.0042200452 -0.00254 -0.0009192453
0.021316638 0.00254 -0.0011369812
0.016122736 0.0014356521 -0.0024433963
0.0048692827 -0.0018773914 -4.8301888e-05
0.01136166 0.00254 -0.0020079245
-0.0016230942 0.0023191303 -4.8301888e-05
0.0070334082 -0.0018773914 -0.0024433963
0.019152513 -0.00077304349 -0.0024433963
0.0206674 -0.0012147826 0.00060490565
-0.023047937 0.0014356521 -0.0059271697
0.00032461886 -0.00254 -0.0024433963
0.0074662333 -0.0014356521 -0.0076690568
0.0022723319 0.0012147826 0.0012581132
0.00032461886 -0.0014356521 -0.0044030189
0.00010820628 0.00099391304 -0.0072335848
0.018070448 -0.0012147826 0.00016943396
-0.010063184 0.00254 -0.00048377359
0.023480764 0.0014356521 -0.0024433963
0.0018395068 0.00099391304 -0.00026603774
0.0022723319 0.0012147826 -0.0046207546
0.0042200452 -0.00254 -0.0020079245
-0.013742197 0.00055217394 -0.00048377359
0.010063184 -0.0012147826 -0.0076690568
0.020018162 0.0014356521 0.0014758491
0.022831526 -0.0014356521 -0.0057094339
0.011145247 0.00077304349 -0.0024433963
-0.020450987 -0.0014356521 0.00016943396
0.00054103142 -0.00254 -0.00026603774
-0.0031379822 0.0018773914 -0.0024433963
0.0029215696 -0.00099391304 -0.0076690568
-0.017637623 -0.0014356521 0.0003871698
-0.0206674 0.00254 -0.00026603774
0.00075744395 -0.00254 -0.0011369812
-0.017637623 -0.00099391304 0.0014758491
0.017854037 -0.0014356521 -0.0037498113
-0.014607848 0.0020982609 -0.0024433963
0.023697175 -0.0014356521 -0.0022256605
-0.0046528699 -0.00033130436 -0.0024433963
0.016122736 -0.00033130436 -0.0024433963
-0.0016230942 -0.0012147826 -4.8301888e-05
-0.00010820628 0.0016565217 -0.0054916982
0.01309296 0.0012147826 -0.0024433963
0.012876548 -0.00099391304 -0.0039675473
-0.0063841706 0.00033130436 -0.00048377359
0.00010820628 0.0016565217 -0.0072335848
-0.015257086 -0.00254 -0.0022256605
0.012660135 0.00099391304 -0.0063626417
0.020883812 -0.0018773914 -0.00026603774
-0.017637623 -0.00099391304 0.0012581132
-0.017637623 0.00099391304 -0.0041852831
0.007249821 0.00099391304 -4.8301888e-05
-0.0081154713 -0.0016565217 -0.0024433963
-0.010279597 0.0014356521 0.0012581132
-0.012443722 -0.0014356521 0.00082264154
0.013742197 0.0020982609 -4.8301888e-05
-0.00010820628 0.00099391304 0.001693585
-0.017637623 -0.0023191303 -0.0024433963
-0.0074662333 -0.0014356521 -0.0081045283
0.015906323 -0.0012147826 -4.8301888e-05
-0.012876548 0.00254 -0.00048377359
0.0018395068 0.0023191303 -4.8301888e-05
-0.0024887444 0.0012147826 -0.0067981132
-0.015257086 0.0016565217 -0.0050562266
-0.010279597 0.0016565217 -0.0039675473
-0.0011902691 -0.0023191303 -4.8301888e-05
-0.018286861 0.00055217394 -0.00048377359
-0.010063184 0.00099391304 0.0003871698
0.015473498 0.00099391304 0.0021290565
0.012876548 0.00099391304 0.001693585
-0.021965874 -0.0012147826 -0.0024433963
0.010496009 -0.0012147826 -0.002661132
0.0048692827 0.0014356521 -0.002661132
0.023047937 0.0016565217 -4.8301888e-05
-0.0048692827 0.0012147826 -0.0074513205
0.022615112 0.0014356521 -0.0059271697
0.023913588 0.0020982609 -0.0015724528
-0.00032461886 0.0012147826 -0.0041852831
-0.024130002 0.00033130436 -0.0015724528
-0.007899059 0.00033130436 -0.0024433963
-0.0050856951 0.0016565217 -0.002661132
-0.017854037 0.0016565217 -0.0074513205
-0.018503275 -0.00011043478 -0.0024433963
-0.0024887444 0.0016565217 -0.002878868
0.020450987 -0.0014356521 -0.0074513205
0.015473498 0.0016565217 -0.002661132
-0.0048692827 -0.0014356521 -0.0072335848
0.020234575 0.00077304349 -0.00026603774
-0.022615112 0.0014356521 -0.0072335848
-0.012443722 0.0014356521 -0.0061449055
0.021965874 -0.00077304349 -0.0024433963
0.012660135 0.00254 -0.0015724528
-0.020450987 0.00099391304 0.0019113207
-0.02153305 -0.00077304349 -0.00026603774
-0.019585337 -0.00099391304 -4.8301888e-05
0.013742197 0.00033130436 -0.0024433963
-0.0050856951 -0.00099391304 -4.8301888e-05
-0.012443722 0.00254 -0.001354717
-0.02326435 0.00099391304 -4.8301888e-05
-0.0094139464 0.00099391304 -0.0024433963
-0.0053021079 -0.00011043478 -0.00048377359
-0.0031379822 -0.00033130436 -0.0024433963
-0.022831526 0.0014356521 -0.0063626417
-0.0050856951 -0.00254 -0.00048377359
-0.0024887444 0.0012147826 -0.0065803775
-0.020018162 -0.00099391304 -0.002661132
-0.0076826462 0.00099391304 -0.0046207546
-0.017854037 0.0012147826 0.0025645283
-0.015473498 -0.0012147826 -0.0067981132
-0.0085482961 -0.0016565217 -0.0024433963
-0.022831526 0.00099391304 -0.0072335848
-0.0050856951 -0.00099391304 -0.0072335848
-0.017854037 0.00254 -0.001354717
-0.0061677583 0.00254 -0.001354717
-0.0048692827 0.00099391304 0.00016943396
0.00075744395 -0.00033130436 -0.0024433963
0.012876548 -0.0016565217 -0.0078867925
-0.0089811217 0.0012147826 -4.8301888e-05
-0.018719686 -0.00055217394 -0.00048377359
0.015473498 -0.0016565217 0.0014758491
-0.002705157 -0.0016565217 -0.002661132
-0.017854037 -0.00077304349 0.0003871698
0.022831526 0.0014356521 -0.0035320756
0.017637623 0.00099391304 -0.0048384904
0.0031379822 0.0023191303 -4.8301888e-05
0.0018395068 0.00011043478 -0.00048377359
-0.0076826462 0.0016565217 0.0012581132
0.007899059 -0.00099391304 -0.0044030189
0.010063184 0.00254 -0.0009192453
-0.023047937 0.00099391304 0.0014758491
0.0061677583 -0.0023191303 -0.0024433963
0.02326435 -0.0014356521 -0.0022256605
-0.020018162 0.0014356521 -0.0052739624
-0.0053021079 0.0016565217 -0.0035320756
-0.019368924 0.0023191303 -0.0024433963
0.00054103142 -0.00099391304 -0.0024433963
0.014607848 0.00077304349 -0.0024433963
0.00032461886 0.0014356521 -0.0024433963
0.010712421 0.0023191303 -0.0024433963
0.0022723319 0.0018773914 -4.8301888e-05
-0.0094139464 0.00254 -0.0024433963
-0.015473498 -0.0023191303 -0.0024433963
-0.0024887444 0.0012147826 -0.0074513205
-0.020450987 -0.00254 -0.0017901887
-0.010279597 0.0016565217 -0.0072335848
-0.0053021079 -0.00099391304 -0.002878868
-0.012876548 0.0016565217 0.001693585
0.017204799 -0.00254 -0.00026603774
-0.0024887444 -0.00099391304 0.00060490565
-0.0081154713 0.0016565217 -0.0024433963
0.023480764 0.0023191303 -0.001354717
-0.013309373 -0.00077304349 -0.00048377359
-0.0048692827 -0.00254 -0.0015724528
0.023913588 -0.00033130436 -0.00048377359
0.0053021079 0.0014356521 0.00082264154
-0.016555561 -0.0016565217 -4.8301888e-05
0.0050856951 0.0016565217 -0.0048384904
-0.018070448 -0.0012147826 -0.0033143396
-0.010279597 0.0016565217 -0.0052739624
-0.0048692827 0.0012147826 -0.0050562266
0.0076826462 -0.0016565217 0.00016943396
-0.010279597 0.0014356521 0.00060490565
0.0020559193 -0.00033130436 -0.0024433963
0.0098467721 -0.00254 -0.0011369812
0.0044364575 0.0014356521 -4.8301888e-05
0.0081154713 0.0018773914 -0.0024433963
-0.010279597 0.0014356521 0.00016943396
0.019368924 0.00011043478 -0.0024433963
0.015257086 0.0014356521 -0.0083222641
-0.010279597 -0.00033130436 -0.00048377359
0.015906323 -0.00033130436 -0.00048377359
-0.018070448 -0.00099391304 -0.0046207546
-0.015257086 -0.0016565217 0.0012581132
0.020018162 -0.00055217394 -0.0024433963
-0.013309373 -0.00033130436 -0.0024433963
0.0050856951 -0.00077304349 -0.00048377359
0.023047937 -0.0012147826 0.0021290565
-0.024130002 -0.00077304349 -0.00026603774
0.0087647084 -0.0020982609 -4.8301888e-05
-0.00054103142 -0.0018773914 -0.0024433963
-0.0050856951 0.00099391304 0.0019113207
0.016771974 0.00033130436 -0.0024433963
-0.0076826462 -0.0016565217 -0.002878868
-0.014824261 -0.00077304349 -0.0024433963
0.010279597 -0.00099391304 0.0023467925
-0.007249821 -0.00011043478 -0.00048377359
-0.0024887444 -0.0016565217 -0.0059271697
-0.006600583 -0.00099391304 -0.0024433963
-0.0042200452 -0.0016565217 -4.8301888e-05
-0.0206674 0.00055217394 -0.00048377359
0.02153305 -0.00077304349 -0.0024433963
-0.0059513454 0.00033130436 -0.00048377359
0.0061677583 -0.00254 -0.0022256605
0.007899059 -0.0012147826 -0.0033143396
-0.012876548 0.0012147826 -0.0035320756
0.019368924 -0.00254 -0.0022256605
-0.0074662333 -0.00011043478 -0.00048377359
-0.020234575 -0.00077304349 -0.0039675473
0.00075744395 0.00033130436 -0.0024433963
0.0024887444 -0.00099391304 -0.0076690568
-0.006600583 -0.00254 -0.0015724528
-0.0076826462 -0.0016565217 -0.0050562266
0.017854037 0.00077304349 -0.00026603774
0.0022723319 0.0016565217 -0.0035320756
-0.013958611 -0.00254 -0.00048377359
0.020234575 -0.00011043478 -0.00048377359
-0.019801749 -0.0018773914 -0.0024433963
-0.0087647084 -0.00254 -0.0011369812
0.017637623 -0.0012147826 -0.0065803775
-0.023047937 -0.00099391304 0.0010403773
-0.0022723319 -0.0014356521 0.0019113207
0.002705157 -0.0023191303 -4.8301888e-05
-0.023047937 0.00099391304 -0.0061449055
0.018070448 0.0014356521 -0.002878868
-0.020450987 -0.00077304349 -0.0033143396
0.010496009 -0.0012147826 -0.0078867925
0.017637623 0.0016565217 -0.0052739624
-0.017854037 0.00055217394 -0.00048377359
0.00032461886 -0.0012147826 -0.0054916982
-0.022831526 -0.0012147826 -0.0081045283
-0.024130002 0.00055217394 -0.0009192453
0.015473498 -0.0016565217 -0.002661132
-0.0029215696 0.00254 -0.0024433963
0.015906323 0.0020982609 -0.0024433963
0.021749463 0.00077304349 -0.00026603774
0.0022723319 -0.0012147826 -0.0041852831
0.012660135 0.0020982609 -0.0024433963
-0.020450987 -0.00099391304 -0.002661132
-0.019152513 -0.00033130436 -0.00048377359
-0.017204799 0.0012147826 -0.0024433963
-0.02153305 0.00077304349 -0.0024433963
0.012010898 0.00011043478 -0.00048377359
0.016555561 -0.00254 -0.0024433963
-0.0076826462 -0.0016565217 -0.0059271697
-0.01136166 0.00254 -0.0017901887
0.0055185203 -0.0020982609 -0.0024433963
-0.021749463 -0.00033130436 -0.00048377359
-0.023047937 0.0012147826 0.0003871698
-0.0011902691 0.0016565217 -0.0024433963
0.021100225 -0.00254 -0.00026603774
0.017637623 0.0014356521 -0.0035320756
-0.012876548 0.00077304349 -0.0024433963
0.00010820628 -0.00033130436 -0.0024433963
-0.0076826462 0.00099391304 -0.0067981132
0.0048692827 -0.00254 -0.0011369812
-0.022831526 0.00099391304 -0.007015849
-0.022182288 -0.0012147826 -4.8301888e-05
0.023913588 -0.0020982609 -0.0015724528
0.022182288 0.00011043478 -0.00048377359
-0.019585337 -0.00055217394 -0.0024433963
-0.012876548 0.0014356521 -0.0059271697
0.0040036323 -0.00033130436 -0.00048377359
0.017421212 -0.00254 -0.0017901887
-0.010279597 -0.00099391304 0.0021290565
-0.002705157 -0.0014356521 -0.0065803775
0.0074662333 -0.0016565217 -4.8301888e-05
0.022182288 -0.0023191303 -0.0022256605
-0.01309296 0.00077304349 -0.00048377359
-0.0024887444 0.0016565217 -0.0072335848
-0.0035708074 0.00011043478 -0.00048377359
0.014391435 -0.00254 -0.0009192453
0.015257086 -0.0016565217 0.00060490565
0.022615112 -0.0014356521 -0.0059271697
-0.015689911 -0.00099391304 -0.00026603774
-0.012660135 -0.00099391304 -0.0081045283
0.0024887444 -0.0014356521 -0.0035320756
0.0024887444 0.0016565217 -0.0072335848
0.012876548 0.00099391304 -0.0059271697
-0.00075744395 0.0018773914 -0.0024433963
0.015040673 -0.0012147826 -0.0030966038
0.0053021079 -0.00254 -0.00070150942
0.020234575 0.00099391304 0.00082264154
-0.020450987 -0.00077304349 -0.0061449055
-0.007249821 0.00254 -0.0020079245
-0.0076826462 -0.0016565217 -0.0067981132
-0.0024887444 0.0012147826 0.0023467925
0.014175023 -0.0020982609 -4.8301888e-05
0.020450987 -0.00254 -0.0017901887
0.0081154713 0.0012147826 -4.8301888e-05
-0.020234575 0.00099391304 -0.0067981132
0.018286861 0.0018773914 -4.8301888e-05
0.015040673 0.0016565217 -0.0063626417
0.022831526 -0.0014356521 -0.0050562266
0.012660135 -0.0016565217 0.0012581132
0.010496009 -0.0018773914 -0.0024433963
-0.0074662333 0.00099391304 -0.0057094339
-0.017854037 0.00099391304 -0.0048384904
0.007899059 0.0012147826 0.001693585
0.010279597 0.00254 -0.0011369812
-0.0046528699 -0.0020982609 -4.8301888e-05
-0.017637623 0.00099391304 -0.0074513205
0.0050856951 0.0016565217 0.00060490565
0.012876548 -0.0016565217 -0.0035320756
-0.012660135 0.0012147826 0.00060490565
0.018719686 0.00254 -0.00070150942
0.017421212 0.0012147826 -0.0076690568
-0.023047937 -0.0014356521 -0.0052739624
-0.0011902691 0.00033130436 -0.00048377359
-0.00032461886 0.0014356521 -0.0046207546
-0.010496009 -0.0012147826 -0.0041852831
-0.020234575 0.00099391304 0.00082264154
-0.02153305 0.00055217394 -0.0024433963
0.017421212 0.0012147826 0.001693585
0.016988385 -0.00254 -4.8301888e-05
-0.023913588 0.0020982609 -0.0017901887
-0.015473498 -0.00099391304 0.00082264154
0.0061677583 -0.00254 -0.00070150942
0.002705157 -0.00254 -0.00070150942
0.012010898 -0.0020982609 -4.8301888e-05
0.017854037 -0.0014356521 0.0003871698
0.0048692827 0.0016565217 -0.0061449055
-0.011145247 -0.0016565217 -0.0024433963
-0.011578072 -0.00254 -0.0015724528
0.020234575 0.00099391304 -0.0052739624
0.0076826462 0.00099391304 0.00082264154
0.011145247 -0.0018773914 -0.0024433963
-0.0091975341 -0.00254 -0.0011369812
-0.010279597 0.0020982609 -0.0024433963
0.010496009 0.00099391304 -0.0078867925
0.0035708074 0.00254 -0.001354717
-0.014607848 0.00254 -0.0022256605
0.017204799 0.00254 -0.0015724528
0.0068169958 0.00254 -0.0009192453
-0.0098467721 0.00254 -0.0024433963
0.0081154713 0.00077304349 -0.00048377359
-0.016122736 0.00254 -0.0011369812
-0.016988385 0.00077304349 -0.0024433963
-0.0042200452 0.00254 -0.0015724528
0.0055185203 0.0020982609 -0.0024433963
-0.0053021079 -0.0012147826 0.0010403773
-0.010063184 -0.0016565217 -0.002878868
-0.017637623 -0.0016565217 -0.002878868
-0.024130002 -0.00055217394 -0.00070150942
-0.019152513 0.00254 -0.0009192453
0.012876548 -0.00099391304 -0.00026603774
0.023047937 0.00033130436 -0.0024433963
-0.002705157 0.00254 -0.0017901887
-0.012660135 0.0016565217 -0.0052739624
-0.0050856951 -0.0012147826 -0.0081045283
0.0074662333 -0.0012147826 0.0010403773
0.018719686 -0.00077304349 -4.8301888e-05
-0.015473498 -0.0014356521 -0.0059271697
0.011145247 -0.00099391304 -0.00026603774
-0.007249821 -0.0012147826 -0.0035320756
-0.0098467721 -0.00099391304 -0.0041852831
0.0029215696 0.0020982609 -0.0024433963
-0.010063184 0.0012147826 -0.002878868
0.0048692827 -0.0012147826 -0.0065803775
0.0074662333 -0.00099391304 -0.0033143396
0.002705157 -0.00254 -0.0024433963
-0.010496009 0.00254 -0.0015724528
-0.0035708074 0.0016565217 -4.8301888e-05
0.017637623 0.00099391304 -0.0046207546
-0.018070448 -0.0023191303 -0.0024433963
0.0031379822 -0.00254 -0.0009192453
0.019368924 -0.00254 -0.0011369812
-0.0053021079 -0.0014356521 0.0010403773
0.002705157 -0.0016565217 -0.0035320756
0.020450987 0.0012147826 0.0027822643
-0.022182288 0.00099391304 -0.0022256605
-0.0063841706 0.0020982609 -4.8301888e-05
0.00010820628 0.0016565217 -0.0054916982
0.00010820628 0.0016565217 0.0023467925
0.023047937 0.00254 -0.00070150942
-0.013742197 -0.0023191303 -4.8301888e-05
0.010063184 -0.00099391304 -0.00026603774
-0.022615112 -0.00099391304 0.0023467925
-0.021100225 -0.00011043478 -0.0024433963
-0.0087647084 0.0016565217 -4.8301888e-05
0.014607848 -0.0014356521 -0.0024433963
0.022182288 -0.00254 -0.0009192453
0.0074662333 0.0016565217 -0.0072335848
-0.019801749 -0.0016565217 -4.8301888e-05
-0.0055185203 0.00254 -0.00026603774
-0.019152513 0.0012147826 -4.8301888e-05
0.0040036323 0.00254 -0.0015724528
-0.023697175 -0.0023191303 -0.0011369812
0.012660135 0.00099391304 0.00082264154
-0.007899059 0.00055217394 -0.0024433963
-0.017854037 -0.00077304349 0.0012581132
-0.00010820628 0.0016565217 0.0025645283
-0.0024887444 0.0016565217 -0.0067981132
0.022831526 -0.00099391304 -0.0078867925
-0.019152513 -0.00099391304 -4.8301888e-05
-0.0037872198 0.00099391304 -0.00026603774
0.018070448 0.0012147826 -0.0074513205
0.024130002 0.00033130436 -0.001354717
-0.013309373 0.0023191303 -0.0024433963
-0.014607848 0.0020982609 -4.8301888e-05
0.015257086 -0.0018773914 -4.8301888e-05
-0.0050856951 -0.0014356521 -0.0081045283
-0.015040673 -0.00254 -0.0022256605
-0.0059513454 -0.00254 -0.00048377359
0.012443722 -0.00011043478 -0.0024433963
0.0057349331 0.00254 -4.8301888e-05
-0.023697175 -0.00099391304 -4.8301888e-05
-0.010063184 -0.00254 -0.00026603774
-0.014175023 -0.00254 -0.0024433963
0.021965874 -0.00011043478 -0.0024433963
-0.020450987 -0.00099391304 -0.0052739624
-0.018936099 -0.00011043478 -0.00048377359
-0.0033543948 -0.00254 -4.8301888e-05
-0.0050856951 -0.00254 -4.8301888e-05
-0.0024887444 0.0014356521 -0.0050562266
-0.016339149 -0.00254 -0.0020079245
-0.018936099 0.00254 -0.0020079245
0.0096303588 0.00254 -0.0017901887
0.0048692827 0.00099391304 -0.0072335848
0.012660135 0.0014356521 0.0027822643
-0.016771974 -0.00254 -0.0011369812
0.010496009 0.00099391304 -0.007015849
0.015689911 0.0023191303 -0.0024433963
0.0031379822 0.00099391304 -0.00026603774
-0.022398701 -0.00033130436 -0.00048377359
0.0053021079 0.00099391304 0.00016943396
-0.011145247 -0.00077304349 -0.00048377359
0.011145247 -0.0023191303 -4.8301888e-05
0.0098467721 -0.0016565217 -0.0024433963
-0.014824261 -0.0012147826 -0.002661132
0.007249821 0.00055217394 -0.0024433963
-0.017637623 -0.0014356521 0.00082264154
-0.023047937 -0.0012147826 -0.0076690568
0.015040673 -0.00011043478 -0.0024433963
0.010279597 -0.0016565217 -0.002661132
0.010712421 -0.00099391304 -0.00026603774
0.00010820628 0.0016565217 0.00082264154
-0.0087647084 -0.00254 -4.8301888e-05
-0.00032461886 0.00099391304 -0.002661132
0.014607848 0.00254 -0.0024433963
-0.010063184 -0.00099391304 -0.0048384904
-0.01309296 -0.00077304349 -0.0024433963
0.00097385654 0.00099391304 -0.0024433963
-0.00032461886 0.00099391304 -0.0041852831
-0.01309296 -0.0018773914 -4.8301888e-05
-0.0068169958 -0.00254 -0.0020079245
0.007899059 -0.00254 -0.0009192453
-0.020018162 -0.0014356521 -0.002661132
0.022831526 -0.00099391304 -0.0057094339
0.016771974 -0.0014356521 -4.8301888e-05
0.0098467721 0.00254 -0.00070150942
0.015257086 -0.0016565217 -0.0041852831
0.018070448 0.0014356521 0.0003871698
0.022831526 -0.0014356521 0.00082264154
0.0081154713 -0.0018773914 -0.0024433963
0.012443722 -0.00099391304 -0.0048384904
-0.0011902691 0.0020982609 -4.8301888e-05
0.0037872198 -0.00077304349 -0.00048377359
0.012443722 -0.00099391304 -0.0030966038
0.0029215696 -0.00077304349 -0.00048377359
0.020450987 0.00099391304 -4.8301888e-05
0.0087647084 -0.00033130436 -0.00048377359
0.022831526 0.0014356521 0.0025645283
-0.012660135 0.00099391304 0.00060490565
-0.019585337 -0.0018773914 -0.0024433963
0.017637623 -0.0014356521 -0.0035320756
0.012876548 0.0014356521 -0.007015849
-0.007899059 -0.0016565217 -4.8301888e-05
-0.0098467721 0.00033130436 -0.00048377359
0.020450987 0.0014356521 -0.0050562266
0.010496009 0.0018773914 -0.0024433963
0.0098467721 -0.00254 -0.00070150942
-0.00075744395 0.00099391304 -0.0024433963
-0.015473498 -0.0016565217 -0.0074513205
-0.007899059 0.00099391304 -0.0054916982
0.020234575 -0.0016565217 -0.0030966038
0.002705157 -0.0012147826 0.0010403773
0.018936099 0.00011043478 -0.0024433963
0.017637623 -0.0014356521 0.00082264154
-0.013742197 -0.0023191303 -0.0024433963
0.0048692827 0.00055217394 -0.00048377359
0.017854037 0.00099391304 -0.0067981132
-0.015473498 0.0018773914 -4.8301888e-05
0.012443722 0.00099391304 0.00082264154
-0.015257086 0.00254 -0.0022256605
0.012443722 0.00099391304 -0.0033143396
-0.020450987 -0.0016565217 0.00060490565
0.014824261 0.00254 -4.8301888e-05
-0.024130002 -0.00055217394 -0.0015724528
-0.021100225 0.00254 -0.0017901887
0.014391435 -0.00254 -0.00070150942
0.007899059 0.00077304349 -0.0024433963
-0.0068169958 0.00055217394 -0.0024433963
0.0083318837 0.00254 -0.0015724528
-0.0033543948 0.00011043478 -0.00048377359
-0.0085482961 0.00011043478 -0.00048377359
-0.010063184 0.0014356521 -0.0065803775
0.002705157 -0.00099391304 -0.0050562266
-0.0076826462 0.0020982609 -0.0024433963
0.017637623 -0.0014356521 -0.0057094339
-0.015040673 0.00099391304 -0.0067981132
0.022398701 -0.00033130436 -0.00048377359
0.016339149 0.00011043478 -0.00048377359
0.023913588 0.00055217394 -0.0022256605
-0.022615112 0.0012147826 -0.0035320756
0.014391435 -0.0016565217 -0.0024433963
-0.006600583 -0.00254 -0.0009192453
0.010063184 -0.0012147826 0.0023467925
-0.017637623 -0.0014356521 -0.002878868
-0.018719686 -0.0016565217 -4.8301888e-05
-0.0037872198 0.0023191303 -0.0024433963
-0.0048692827 0.00099391304 0.0010403773
-0.024130002 0.00011043478 -0.0017901887
-0.00054103142 -0.00254 -0.0015724528
-0.0048692827 0.0014356521 -0.0065803775
-0.015257086 -0.0014356521 -0.0083222641
0.00010820628 0.0014356521 0.00060490565
0.012443722 0.00099391304 -0.0041852831
-0.018503275 0.00254 -0.00026603774
0.012443722 0.00055217394 -0.00048377359
0.0022723319 0.0012147826 -0.007015849
-0.0068169958 -0.0023191303 -0.0024433963
0.00097385654 0.0018773914 -4.8301888e-05
-0.012443722 -0.0014356521 -0.0046207546
0.020234575 -0.00099391304 -0.0054916982
-0.012876548 -0.00099391304 -0.0057094339
0.010496009 -0.00099391304 -0.0035320756
0.012876548 0.0012147826 0.001693585
0.0044364575 0.0012147826 -0.0024433963
-0.0074662333 0.00254 -0.00048377359
0.010063184 0.00099391304 -0.0072335848
0.014824261 0.0016565217 -4.8301888e-05
0.015040673 0.0016565217 -0.0035320756
0.012876548 0.0014356521 -0.0081045283
0.00054103142 -0.00254 -0.0022256605
-0.0074662333 -0.0016565217 -0.0037498113
0.006600583 0.00254 -0.0017901887
0.0050856951 -0.00099391304 -0.0061449055
-0.00010820628 0.00099391304 0.00082264154
-0.020018162 0.0012147826 0.0003871698
-0.012876548 0.0012147826 0.00082264154
-0.015473498 -0.00254 -4.8301888e-05
0.0048692827 -0.00099391304 -0.0048384904
-0.012660135 0.00099391304 -0.0054916982
-0.012876548 0.0020982609 -4.8301888e-05
0.020450987 -0.0014356521 0.0025645283
0.019152513 -0.00254 -0.0022256605
-0.023047937 0.0014356521 -0.0065803775
0.020234575 -0.0014356521 0.00016943396
0.012010898 -0.00077304349 -0.0024433963
0.0048692827 0.0012147826 -0.0061449055
0.0024887444 -0.0016565217 0.0012581132
0.0053021079 0.00099391304 -0.007015849
-0.007899059 -0.00099391304 -0.0030966038
-0.017637623 -0.00099391304 0.0023467925
-0.00032461886 0.0012147826 -0.007015849
0.0018395068 -0.00055217394 -0.00048377359
0.020018162 -0.0014356521 -4.8301888e-05
0.023697175 -0.0023191303 -0.00070150942
0.012876548 0.00099391304 -0.0061449055
0.0042200452 0.0012147826 -0.0024433963
-0.007249821 0.00077304349 -0.0024433963
0.012876548 0.0014356521 -0.0041852831
-0.007249821 -0.0012147826 0.0019113207
0.0024887444 -0.0016565217 -0.0074513205
0.010279597 -0.00099391304 -0.0057094339
-0.00097385654 -0.0014356521 -4.8301888e-05
0.022831526 0.0014356521 -0.0072335848
0.012660135 0.00099391304 -0.0033143396
-0.0033543948 -0.0016565217 -4.8301888e-05
0.0206674 0.0012147826 -0.0050562266
-0.0053021079 0.0012147826 0.0019113207
0.00054103142 0.00254 -0.00048377359
-0.017421212 0.0023191303 -0.0024433963
0.018070448 0.0014356521 0.0012581132
0.011578072 0.00254 -0.0020079245
0.012876548 0.00254 -0.0017901887
0.020234575 0.0016565217 -0.0061449055
-0.018070448 -0.00099391304 -0.0035320756
-0.022398701 0.0018773914 -0.0024433963
0.012660135 -0.00033130436 -0.00048377359
-0.002705157 0.00099391304 0.0023467925
0.018936099 0.00254 -0.001354717
-0.0037872198 0.00055217394 -0.0024433963
0.022182288 0.00011043478 -0.0024433963
0.015473498 0.0014356521 0.0025645283
-0.0024887444 -0.0020982609 -0.0024433963
-0.00097385654 -0.00033130436 -0.00048377359
-0.010928835 0.00254 -0.0011369812
0.01309296 -0.00099391304 -0.00026603774
0.002705157 0.0012147826 0.0010403773
0.018936099 0.0012147826 -4.8301888e-05
0.0076826462 0.00077304349 -0.002661132
0.011145247 0.00099391304 -4.8301888e-05
-0.020234575 0.0020982609 -0.0022256605
-0.018070448 -0.0014356521 0.0003871698
-0.013525785 -0.00254 -0.0024433963
-0.0037872198 -0.0012147826 -0.0024433963
-0.0048692827 -0.00077304349 -0.00048377359
0.0076826462 -0.0014356521 0.0025645283
-0.017637623 -0.0014356521 -0.0046207546
0.023697175 -0.0023191303 -0.0015724528
0.00097385654 -0.00033130436 -0.00048377359
-0.0035708074 0.00254 -0.0015724528
-0.014391435 -0.0014356521 -0.0024433963
0.02326435 -0.00033130436 -0.0024433963
-0.00010820628 -0.00099391304 0.0019113207
0.017637623 -0.00099391304 -0.0050562266
0.016122736 0.00055217394 -0.0024433963
-0.015257086 0.0016565217 -0.0057094339
0.019368924 -0.0018773914 -0.0024433963
-0.0074662333 -0.00099391304 0.0021290565
0.012876548 -0.0012147826 -0.0065803775
0.010279597 0.00099391304 -0.0061449055
-0.0022723319 -0.0014356521 -0.0078867925
-0.0024887444 -0.00099391304 -0.007015849
-0.012876548 0.0012147826 -0.0059271697
0.022615112 0.00254 -0.00026603774
-0.014607848 0.00254 -0.00070150942
0.023047937 -0.00099391304 -0.0030966038
-0.0085482961 0.00033130436 -0.00048377359
-0.01309296 0.0018773914 -0.0024433963
0.017421212 0.00077304349 -0.00026603774
0.0053021079 0.00077304349 -0.00048377359
-0.0074662333 0.0014356521 -0.0035320756
0.016988385 0.0023191303 -0.0024433963
0.0048692827 0.00099391304 -0.00026603774
-0.023913588 -0.00077304349 -0.00026603774
0.010279597 0.00099391304 -0.0067981132
0.013958611 0.00033130436 -0.00048377359
0.015040673 0.00099391304 -0.0076690568
0.019152513 -0.0016565217 -0.0024433963
-0.006600583 0.00254 -0.0020079245
-0.01222731 0.00254 -0.00070150942
0.0024887444 -0.0020982609 -4.8301888e-05
-0.012876548 0.0014356521 -0.0052739624
-0.016339149 -0.00055217394 -0.0024433963
0.010063184 -0.0016565217 0.0010403773
-0.0018395068 0.00254 -0.0024433963
0.0091975341 -0.00254 -4.8301888e-05
-0.011145247 -0.00011043478 -0.0024433963
-0.0076826462 -0.0016565217 0.001693585
-0.024130002 -0.0016565217 -0.0020079245
-0.002705157 0.0014356521 -0.0074513205
0.010496009 0.00011043478 -0.00048377359
-0.0074662333 -0.0016565217 -0.0033143396
0.022831526 -0.00099391304 0.00060490565
0.0053021079 0.00077304349 -0.0024433963
-0.015257086 -0.0016565217 -0.0046207546
0.012660135 -0.0012147826 0.0012581132
-0.015257086 0.0020982609 -4.8301888e-05
-0.007899059 -0.00099391304 0.001693585
0.01222731 0.0020982609 -0.0024433963
-0.02153305 0.00099391304 -4.8301888e-05
0.01136166 0.00077304349 -0.0024433963
-0.010279597 -0.0020982609 -4.8301888e-05
0.012876548 0.0016565217 -0.0037498113
-0.0076826462 -0.00099391304 -0.0067981132
-0.015473498 -0.0014356521 0.0012581132
0.017421212 -0.00099391304 -4.8301888e-05
-0.0029215696 -0.00254 -0.0015724528
0.007249821 0.0014356521 -0.002661132
-0.015040673 0.0012147826 -0.002661132
-0.010496009 -0.0012147826 0.00082264154
0.017637623 -0.0012147826 -0.0061449055
0.0020559193 0.00254 -0.00048377359
0.022831526 -0.00099391304 0.0014758491
-0.0206674 -0.00055217394 -0.00048377359
-0.0050856951 0.0020982609 -0.0024433963
0.00032461886 -0.00099391304 -0.0030966038
-0.012660135 -0.0016565217 -0.0030966038
0.00032461886 -0.0020982609 -0.0024433963
0.0050856951 0.0016565217 -0.0054916982
0.014607848 0.0023191303 -0.0024433963
0.00032461886 -0.0012147826 -0.0065803775
-0.007249821 -0.0012147826 -0.0072335848
0.0011902691 -0.0018773914 -0.0022256605
-0.007899059 0.0018773914 -0.0024433963
0.0083318837 -0.00077304349 -0.00048377359
0.018070448 -0.0018773914 -4.8301888e-05
-0.0048692827 0.00011043478 -0.0024433963
-0.0074662333 -0.00099391304 0.00082264154
0.021965874 -0.00254 -0.00070150942
0.010279597 0.0014356521 0.0003871698
0.019801749 0.00033130436 -0.00048377359
0.012660135 -0.00099391304 -0.0037498113
0.00010820628 0.0018773914 -4.8301888e-05
-0.010279597 -0.0014356521 -0.0041852831
0.023913588 0.0018773914 -4.8301888e-05
-0.020450987 0.0014356521 0.0025645283
0.012660135 -0.0016565217 -0.0054916982
-0.012660135 -0.0016565217 -0.0033143396
0.0024887444 -0.00254 -0.0017901887
0.017637623 0.0014356521 -0.0081045283
-0.023047937 -0.0014356521 -4.8301888e-05
-0.0035708074 0.0018773914 -0.0024433963
0.013742197 0.00254 -0.00048377359
-0.018936099 -0.00099391304 -4.8301888e-05
0.017854037 -0.0012147826 -0.0081045283
0.0083318837 -0.00254 -0.0022256605
0.021749463 -0.00254 -0.0022256605
0.0053021079 0.00254 -0.0015724528
-0.023697175 0.00099391304 -0.00026603774
0.019801749 0.0018773914 -0.0024433963
-0.021749463 0.00254 -0.001354717
0.012660135 -0.00099391304 -0.0039675473
0.023697175 0.0023191303 -0.00048377359
0.010279597 -0.00099391304 0.0010403773
-0.00032461886 0.00099391304 -4.8301888e-05
0.0074662333 -0.00033130436 -0.00048377359
-0.024130002 0.00011043478 -0.0011369812
-0.023697175 -0.0023191303 -0.0015724528
0.002705157 -0.00099391304 -0.0033143396
-0.018070448 -0.0012147826 0.00060490565
-0.020883812 0.0023191303 -0.00026603774
0.017204799 -0.0012147826 -4.8301888e-05
-0.020018162 -0.0012147826 0.0012581132
-0.00010820628 0.0012147826 0.0025645283
-0.0040036323 -0.00033130436 -0.00048377359
0.011578072 -0.0023191303 -0.0024433963
0.0044364575 -0.0016565217 -4.8301888e-05
-0.0050856951 -0.00099391304 -0.0041852831
-0.023480764 0.00254 -0.00070150942
-0.010279597 0.0016565217 -0.002661132
0.017854037 -0.0014356521 -0.002661132
0.015040673 -0.0012147826 -0.0035320756
-0.018070448 -0.0012147826 -0.0037498113
0.007899059 0.00254 -0.0009192453
0.010279597 -0.0016565217 -0.0067981132
0.017637623 -0.0014356521 -0.0033143396
-0.015473498 0.00099391304 -0.002661132
0.022831526 0.00055217394 -0.0024433963
-0.0057349331 -0.00254 -0.00070150942
-0.017421212 0.0012147826 0.001693585
0.002705157 0.0014356521 0.0003871698
0.02153305 -0.00099391304 -0.0024433963
-0.018286861 -0.00254 -0.0020079245
-0.015257086 -0.00099391304 -0.0072335848
-0.020450987 -0.0014356521 -0.0048384904
-0.012876548 -0.0012147826 0.0023467925
-0.016339149 -0.0012147826 -4.8301888e-05
0.0046528699 -0.00254 -0.0015724528
0.014824261 0.0012147826 -0.002878868
0.015689911 0.0012147826 -4.8301888e-05
-0.0063841706 0.0012147826 -4.8301888e-05
-0.0018395068 -0.00055217394 -0.0024433963
0.0031379822 0.00254 -0.0017901887
0.010279597 0.0023191303 -0.0024433963
0.0050856951 0.0016565217 0.0023467925
-0.017637623 0.0012147826 -0.002661132
0.0048692827 0.0012147826 -0.0065803775
0.0076826462 0.0016565217 0.0021290565
0.014607848 -0.00055217394 -0.00048377359
0.0048692827 0.00099391304 -0.0074513205
0.0083318837 0.00254 -0.0009192453
0.0074662333 -0.00099391304 -0.0059271697
0.014175023 0.00254 -4.8301888e-05
0.017637623 0.0016565217 -0.002878868
0.023047937 -0.00254 -0.0015724528
-0.007249821 -0.00033130436 -0.0024433963
-0.017637623 -0.0016565217 0.001693585
0.022615112 -0.0014356521 -0.0065803775
-0.0206674 -0.0012147826 -0.0063626417
-0.007899059 -0.0014356521 -0.0061449055
-0.007899059 -0.0018773914 -0.0024433963
0.022182288 0.0018773914 -4.8301888e-05
-0.015040673 -0.0023191303 -4.8301888e-05
0.012876548 -0.00099391304 0.0023467925
-0.002705157 0.0016565217 -0.0041852831
0.0022723319 -0.0012147826 0.00016943396
-0.011145247 0.00254 -0.00070150942
-0.020450987 -0.0016565217 -0.0054916982
-0.00032461886 0.0014356521 -0.0074513205
0.022831526 0.0014356521 -0.0065803775
-0.013958611 0.0018773914 -4.8301888e-05
0.007899059 -0.00033130436 -0.0024433963
0.020234575 -0.0012147826 -0.0035320756
0.013958611 -0.00077304349 -0.00048377359
0.0087647084 0.0023191303 -4.8301888e-05
-0.024130002 -0.00033130436 -0.0020079245
0.017637623 0.00099391304 0.0012581132
-0.012876548 -0.0016565217 -0.0061449055
-0.018286861 0.00077304349 -0.0024433963
-0.002705157 0.0012147826 -0.0030966038
0.023047937 -0.0023191303 -0.00026603774
0.010496009 -0.00254 -0.001354717
0.015040673 -0.00099391304 -0.0061449055
0.00010820628 -0.00099391304 -0.0039675473
0.011794485 -0.00254 -0.00048377359
0.0206674 0.00033130436 -0.00048377359
-0.011578072 0.00055217394 -0.0024433963
0.0014066816 0.00254 -0.001354717
-0.0024887444 0.0014356521 -0.0057094339
-0.022615112 0.00099391304 -0.007015849
-0.02326435 -0.00011043478 -0.0024433963
-0.020450987 0.0014356521 -0.0067981132
0.0053021079 0.0012147826 -0.0046207546
-0.010063184 0.0014356521 -0.0054916982
-0.00075744395 0.00254 -0.00026603774
0.0096303588 0.00033130436 -0.00048377359
0.019368924 -0.00077304349 -4.8301888e-05
-0.011578072 0.00254 -0.00048377359
0.020450987 0.00099391304 0.00016943396
-0.022831526 0.00099391304 -0.0044030189
0.018070448 -0.00254 -0.0015724528
-0.0070334082 -0.00033130436 -0.0024433963
0.0024887444 -0.0014356521 -0.002878868
0.0094139464 -0.0023191303 -0.0024433963
-0.0081154713 0.00254 -0.00070150942
-0.022615112 0.00254 -0.00070150942
0.0014066816 0.0014356521 -4.8301888e-05
0.014607848 -0.00033130436 -0.0024433963
-0.016122736 0.0018773914 -4.8301888e-05
0.017204799 0.00254 -0.0022256605
-0.010928835 0.00011043478 -0.00048377359
0.021749463 -0.0018773914 -0.00026603774
-0.016988385 -0.00011043478 -0.0024433963
0.018070448 -0.0023191303 -4.8301888e-05
0.015473498 0.0016565217 -0.0037498113
0.013958611 -0.0020982609 -0.0024433963
0.022182288 -0.00099391304 -0.0024433963
-0.0014066816 0.00254 -4.8301888e-05
0.012443722 0.0014356521 0.0025645283
-0.018719686 0.0023191303 -4.8301888e-05
0.015040673 0.0012147826 -0.0048384904
0.017637623 0.0018773914 -4.8301888e-05
0.012443722 0.0012147826 -0.0044030189
-0.00075744395 -0.00254 -0.0011369812
0.0022723319 0.0014356521 -0.0030966038
0.00010820628 -0.0016565217 0.0019113207
0.019368924 0.00033130436 -0.00048377359
0.00032461886 -0.0012147826 -0.0048384904
0.021100225 -0.00077304349 -0.0024433963
-0.00010820628 -0.0014356521 0.0014758491
-0.0206674 -0.00077304349 -0.00026603774
0.010279597 -0.00099391304 -0.002878868
0.018719686 0.0016565217 -0.0024433963
0.021965874 0.0014356521 -0.0024433963
0.015473498 0.0012147826 -0.0057094339
0.0022723319 0.00254 -0.0022256605
-0.023047937 0.0012147826 -0.0057094339
-0.0044364575 0.00011043478 -0.00048377359
0.012660135 -0.0012147826 -0.002661132
-0.010496009 -0.00055217394 -0.00048377359
0.013309373 -0.00254 -0.0009192453
-0.007899059 -0.0023191303 -4.8301888e-05
-0.017854037 -0.00077304349 -0.0037498113
0.023047937 0.0014356521 -0.007015849
-0.016555561 0.0020982609 -4.8301888e-05
0.022182288 0.0023191303 -0.0024433963
-0.022615112 0.0020982609 -0.00026603774
0.015040673 -0.00099391304 -0.0065803775
0.0059513454 -0.0014356521 -4.8301888e-05
0.012010898 -0.00099391304 -0.00026603774
-0.013525785 -0.00254 -0.0015724528
0.0022723319 0.0016565217 0.0014758491
-0.0206674 -0.0012147826 -0.0033143396
-0.020234575 0.00099391304 0.00060490565
-0.023047937 -0.0014356521 -0.002661132
0.022615112 0.0012147826 -0.0057094339
0.023047937 0.0020982609 -4.8301888e-05
-0.0053021079 -0.00099391304 -0.0044030189
-0.0076826462 -0.00099391304 -0.0059271697
-0.0024887444 -0.0016565217 -0.002878868
-0.0094139464 0.0023191303 -0.0024433963
0.023697175 0.0012147826 -0.0024433963
0.007899059 -0.0014356521 -0.0059271697
0.010496009 0.00055217394 -0.00048377359
-0.020450987 -0.00077304349 0.001693585
-0.0048692827 -0.0014356521 -0.0078867925
0.017204799 -0.00254 -0.0022256605
0.002705157 0.00254 -4.8301888e-05
0.0024887444 -0.0014356521 -0.0037498113
0.022615112 -0.0023191303 -0.0022256605
-0.0046528699 0.00011043478 -0.00048377359
-0.0048692827 -0.0016565217 -0.0030966038
0.018503275 -0.00254 -0.001354717
0.0035708074 -0.0023191303 -0.0024433963
0.0063841706 -0.0018773914 -0.0024433963
-0.020018162 -0.00099391304 0.0021290565
-0.0022723319 -0.0014356521 -0.007015849
-0.021749463 -0.00254 -0.0011369812
0.010279597 -0.0014356521 -0.0061449055
0.010279597 0.0012147826 0.0027822643
-0.0074662333 -0.00099391304 -0.0044030189
0.012660135 -0.0014356521 -0.0041852831
-0.017637623 -0.0016565217 -0.0048384904
-0.0096303588 -0.00254 -0.00070150942
0.013525785 0.00254 -0.00048377359
-0.014175023 0.00254 -0.00026603774
-0.0070334082 0.00254 -0.0011369812
-0.007899059 -0.0020982609 -0.0024433963
-0.017854037 0.0016565217 0.00082264154
0.0053021079 -0.00099391304 -0.0048384904
-0.0046528699 -0.00254 -0.0020079245
0.0053021079 -0.00099391304 -0.0063626417
-0.017204799 -0.0012147826 -0.0024433963
0.0033543948 -0.0012147826 -4.8301888e-05
-0.0020559193 0.00254 -0.00048377359
0.022398701 0.00077304349 -0.0024433963
0.023480764 -0.00077304349 -0.0024433963
0.010279597 0.0014356521 -0.0063626417
-0.002705157 0.0012147826 -0.002878868
-0.012660135 0.00099391304 -0.0041852831
-0.002705157 -0.0014356521 0.00060490565
0.020883812 0.00254 -0.00048377359
-0.0074662333 -0.00099391304 -0.0057094339
0.010496009 -0.00099391304 -0.0044030189
-0.002705157 -0.0012147826 -0.0054916982
0.020018162 0.0014356521 -0.007015849
0.010063184 -0.0016565217 -0.0048384904
0.0018395068 -0.0018773914 -4.8301888e-05
0.007249821 0.0012147826 -0.0046207546
0.01136166 -0.0023191303 -0.0024433963
-0.0057349331 0.00254 -0.0009192453
-0.0022723319 0.00011043478 -0.0024433963
-0.0098467721 0.0023191303 -4.8301888e-05
0.014607848 -0.00254 -4.8301888e-05
-0.012876548 -0.0014356521 -0.002878868
0.0074662333 0.00099391304 -0.0039675473
0.0076826462 0.00033130436 -0.00048377359
0.015257086 -0.00254 -0.0011369812
-0.021749463 -0.00254 -0.001354717
-0.0063841706 -0.00055217394 -0.00048377359
0.010496009 -0.00254 -0.0011369812
-0.020018162 0.0014356521 -0.0059271697
0.019801749 0.00011043478 -0.0024433963
0.0053021079 0.0014356521 -0.0072335848
0.023913588 0.0018773914 -0.0011369812
0.002705157 0.0014356521 -0.002661132
-0.0070334082 0.0016565217 -0.0024433963
0.018719686 -0.00055217394 -0.00048377359
-0.015473498 -0.0012147826 0.0010403773
-0.0037872198 -0.00099391304 -4.8301888e-05
0.012876548 -0.00099391304 -0.0059271697
-0.010063184 0.0016565217 0.0021290565
-0.015040673 0.0016565217 -0.0024433963
0.0024887444 0.00099391304 -0.0052739624
-0.015689911 -0.00254 -0.0024433963
0.020234575 -0.0016565217 -0.0050562266
-0.010496009 -0.0012147826 -0.0035320756
-0.0044364575 0.00055217394 -0.0024433963
0.0074662333 0.00099391304 -0.0054916982
-0.012010898 -0.00254 -0.0011369812
0.0033543948 -0.0020982609 -0.0024433963
0.013309373 -0.0020982609 -0.0024433963
-0.012876548 0.0014356521 0.001693585
0.017421212 -0.0016565217 -4.8301888e-05
0.0014066816 0.0014356521 -0.0024433963
-0.022831526 0.0014356521 -0.0037498113
0.007899059 -0.0012147826 -0.0078867925
0.018070448 -0.0014356521 0.0023467925
0.0031379822 -0.00254 -0.00048377359
-0.0033543948 -0.00011043478 -0.00048377359
0.021965874 0.00077304349 -0.00026603774
-0.018719686 -0.0016565217 -0.0024433963
0.002705157 0.0012147826 -0.0067981132
0.017637623 0.00099391304 -0.0074513205
0.016122736 -0.00254 -0.00070150942
0.015473498 0.0012147826 0.0003871698
0.018503275 0.00077304349 -0.00026603774
0.013742197 0.0018773914 -0.0024433963
0.0022723319 -0.0020982609 -4.8301888e-05
-0.013309373 0.0014356521 -0.0024433963
0.014175023 -0.0016565217 -4.8301888e-05
-0.023047937 -0.00254 -0.001354717
0.010063184 -0.0012147826 -0.0078867925
-0.006600583 -0.0014356521 -0.0024433963
-0.0091975341 -0.0018773914 -4.8301888e-05
-0.0053021079 0.0016565217 0.00060490565
-0.0016230942 -0.00055217394 -0.0024433963
0.010279597 -0.0016565217 -0.007015849
0.0022723319 0.0012147826 -0.0030966038
-0.00097385654 0.00254 -0.0020079245
-0.0048692827 0.0012147826 -0.0033143396
0.0055185203 0.00254 -0.0017901887
-0.0048692827 0.0014356521 0.0019113207
0.011145247 0.0023191303 -0.0024433963
-0.012876548 0.0014356521 0.0003871698
0.023047937 -0.00099391304 0.0021290565
-0.0048692827 0.0014356521 -0.0035320756
0.0031379822 0.00254 -4.8301888e-05
0.012876548 0.0016565217 -0.0076690568
0.0033543948 0.00254 -0.0020079245
0.012876548 -0.0012147826 -0.0076690568
0.014391435 0.0020982609 -4.8301888e-05
-0.022615112 0.0012147826 0.0003871698
0.015257086 0.00099391304 -0.0076690568
-0.007249821 0.0014356521 -4.8301888e-05
0.0053021079 0.00099391304 0.00082264154
-0.0098467721 -0.00099391304 -0.0039675473
-0.012660135 -0.00099391304 -0.0076690568
-0.017421212 -0.0012147826 -0.002661132
-0.020450987 -0.00077304349 -0.0035320756
0.0035708074 0.0020982609 -4.8301888e-05
0.015473498 0.0016565217 0.0003871698
0.0048692827 -0.00254 -0.00070150942
0.016771974 -0.00254 -0.0022256605
0.020018162 0.0012147826 0.0019113207
-0.020234575 0.0014356521 -0.0039675473
0.010712421 -0.00077304349 -0.00048377359
0.0024887444 -0.0016565217 0.00016943396
0.020234575 0.0014356521 -0.0081045283
0.015473498 -0.0014356521 0.0003871698
-0.0048692827 0.00254 -0.0022256605
0.0087647084 -0.00011043478 -0.00048377359
-0.0044364575 0.00254 -0.0017901887
-0.022615112 -0.0014356521 -0.0072335848
-0.014607848 -0.0014356521 -4.8301888e-05
0.0018395068 -0.00099391304 -4.8301888e-05
0.016122736 0.00254 -0.0011369812
0.010279597 -0.0012147826 -0.0063626417
-0.012876548 -0.0012147826 -0.0037498113
0.012876548 -0.0012147826 0.0012581132
0.0018395068 0.00254 -0.00048377359
0.010496009 0.0012147826 0.00060490565
-0.019801749 0.00254 -0.00026603774
-0.023047937 -0.0012147826 -0.0048384904
0.015257086 -0.00055217394 -0.0024433963
0.0048692827 0.00099391304 -0.0039675473
0.012010898 -0.0018773914 -0.0024433963
0.012660135 0.0016565217 -0.0052739624
0.0098467721 -0.00254 -0.0009192453
0.0037872198 0.00254 -0.0024433963
-0.0063841706 0.00254 -0.00048377359
0.0081154713 -0.0018773914 -4.8301888e-05
0.021100225 -0.00077304349 -0.00026603774
0.016771974 0.00254 -4.8301888e-05
0.0061677583 0.00254 -0.0011369812
0.0024887444 0.0016565217 -0.002878868
0.010279597 -0.0014356521 -0.0041852831
0.014391435 -0.00099391304 -0.00026603774
0.0029215696 0.00254 -0.0022256605
0.0020559193 0.00077304349 -0.00048377359
0.01136166 -0.0020982609 -4.8301888e-05
-0.023480764 -0.00099391304 -0.00026603774
-0.010279597 0.00099391304 -0.0072335848
-0.020450987 -0.0014356521 0.00082264154
0.017421212 0.00055217394 -0.0024433963
-0.0031379822 0.00254 -0.00048377359
0.014607848 0.00011043478 -0.00048377359
0.0048692827 0.0014356521 -0.007015849
-0.0024887444 -0.0014356521 0.0027822643
0.010279597 0.0016565217 -0.0041852831
0.014607848 -0.0016565217 -4.8301888e-05
-0.0055185203 -0.00033130436 -0.00048377359
-0.00032461886 0.0012147826 0.00082264154
0.015040673 0.0014356521 -0.0065803775
0.0076826462 0.0016565217 -0.002878868
0.013742197 -0.0020982609 -4.8301888e-05
-0.020450987 0.0016565217 -4.8301888e-05
-0.012876548 0.0014356521 0.0021290565
0.007899059 -0.0012147826 -0.0063626417
-0.010063184 0.0012147826 -0.0063626417
0.0057349331 0.00033130436 -0.00048377359
0.016339149 0.00055217394 -0.00048377359
-0.017854037 -0.00077304349 -0.0065803775
0.022831526 0.0014356521 -0.002661132
-0.023913588 -0.0016565217 -0.0011369812
0.021965874 -0.0014356521 -0.0024433963
0.0048692827 0.0014356521 -0.0067981132
-0.019801749 0.0018773914 -0.0024433963
-0.0048692827 -0.0016565217 -0.0076690568
-0.0089811217 0.0020982609 -0.0024433963
-0.0094139464 0.0016565217 -0.0024433963
0.0024887444 0.00099391304 -0.0046207546
0.0074662333 -0.0014356521 0.0014758491
-0.00075744395 -0.00033130436 -0.0024433963
0.015257086 -0.0012147826 0.0027822643
0.017637623 -0.00099391304 -0.007015849
0.0022723319 0.0014356521 -0.0065803775
-0.0016230942 -0.0023191303 -4.8301888e-05
-0.010279597 -0.00099391304 -0.0054916982
0.00010820628 0.00254 -0.0024433963
0.0098467721 0.0014356521 -0.0067981132
0.018286861 0.0014356521 -4.8301888e-05
-0.018070448 -0.00254 -0.0020079245
0.011145247 0.00254 -0.001354717
-0.0022723319 -0.0014356521 0.0003871698
0.014824261 0.00099391304 -4.8301888e-05
-0.022398701 -0.0016565217 -4.8301888e-05
-0.010496009 0.00055217394 -0.00048377359
-0.019368924 0.00011043478 -0.0024433963
0.011145247 0.0023191303 -4.8301888e-05
0.0074662333 -0.0012147826 0.0021290565
-0.0022723319 0.00254 -0.0017901887
-0.0096303588 -0.0014356521 -0.0024433963
0.015040673 0.00099391304 -0.0067981132
-0.020450987 0.0023191303 -0.0022256605
0.00010820628 0.0016565217 -0.0033143396
0.015906323 0.00254 -0.0024433963
-0.010496009 -0.0020982609 -4.8301888e-05
0.017204799 0.0016565217 -0.0024433963
0.023480764 -0.0012147826 -0.00026603774
-0.023047937 0.0012147826 -0.0052739624
-0.015257086 -0.00254 -4.8301888e-05
-0.0024887444 0.00099391304 -0.0081045283
0.016339149 -0.00099391304 -0.00026603774
0.0050856951 0.0016565217 0.0012581132
0.010063184 -0.00099391304 -0.0061449055
0.019152513 -0.00099391304 -0.0024433963
0.022831526 0.0012147826 -0.0072335848
-0.0063841706 0.00254 -0.0015724528
-0.021316638 0.00077304349 -0.00048377359
-0.0022723319 0.00099391304 -4.8301888e-05
-0.022182288 0.00254 -0.00048377359
-0.023697175 -0.00055217394 -0.0024433963
0.00054103142 -0.00011043478 -0.0024433963
-0.016122736 -0.00254 -0.00070150942
-0.020883812 0.00254 -0.00070150942
-0.012876548 0.00099391304 0.0019113207
-0.020018162 0.00033130436 -0.0024433963
-0.018936099 -0.00055217394 -0.0024433963
-0.0074662333 0.00099391304 -0.0052739624
-0.017637623 -0.00099391304 -0.0063626417
-0.017637623 0.0014356521 -0.0065803775
0.0031379822 -0.00254 -0.001354717
-0.015040673 -0.0014356521 -0.002661132
-0.0053021079 0.0016565217 -0.0037498113
-0.012443722 0.00099391304 0.0014758491
0.020234575 -0.00254 -0.0009192453
-0.020450987 -0.0016565217 -0.0044030189
0.002705157 0.00254 -0.0009192453
-0.0091975341 -0.00254 -0.0022256605
-0.022615112 -0.00099391304 -0.0061449055
0.0085482961 -0.00254 -0.00048377359
0.013958611 -0.00055217394 -0.00048377359
0.0053021079 -0.0012147826 0.001693585
0.021316638 -0.0020982609 -0.00026603774
0.020234575 -0.0016565217 -0.002878868
0.0022723319 -0.00254 -0.00048377359
-0.02153305 -0.00254 -0.0024433963
0.0091975341 -0.00254 -0.0015724528
0.011578072 0.0016565217 -0.0024433963
-0.017204799 -0.0023191303 -4.8301888e-05
-0.002705157 -0.0012147826 -0.0035320756
0.0037872198 0.00033130436 -0.00048377359
-0.020883812 -0.0020982609 -4.8301888e-05
0.010063184 0.0016565217 -0.0078867925
-0.010928835 -0.00055217394 -0.0024433963
0.002705157 0.0012147826 -0.0065803775
0.0085482961 0.00055217394 -0.00048377359
0.010496009 -0.0012147826 -0.0067981132
0.022615112 0.00055217394 -0.0024433963
0.017421212 -0.0023191303 -0.0024433963
0.01136166 0.0016565217 -4.8301888e-05
0.022398701 0.0016565217 -0.0024433963
0.00097385654 -0.00254 -0.0024433963
-0.011794485 0.00254 -0.0017901887
-0.022398701 0.00099391304 -0.00026603774
-0.01136166 0.00254 -0.00070150942
-0.007249821 -0.0012147826 -0.0039675473
0.019368924 0.00254 -0.0022256605
0.021100225 -0.0016565217 -0.00026603774
0.018936099 -0.0014356521 -4.8301888e-05
0.015689911 0.00011043478 -0.0024433963
-0.012443722 0.0014356521 -4.8301888e-05
-0.0048692827 -0.0016565217 0.0012581132
0.021749463 0.0014356521 -4.8301888e-05
0.0098467721 -0.00055217394 -0.00048377359
0.0050856951 -0.0016565217 -0.0052739624
-0.0053021079 -0.00099391304 -0.0033143396
0.01309296 -0.00254 -0.00048377359
-0.015473498 -0.0012147826 -0.0052739624
-0.02326435 -0.0023191303 -4.8301888e-05
-0.017637623 0.0012147826 -0.0078867925
-0.0053021079 -0.00099391304 -4.8301888e-05
-0.0053021079 -0.00099391304 -0.0046207546
-0.007249821 -0.00077304349 -0.0024433963
-0.01222731 0.00254 -0.00026603774
0.0053021079 -0.0012147826 -0.0046207546
0.016122736 -0.0020982609 -0.0024433963
-0.018286861 -0.00254 -0.0011369812
0.010496009 -0.0012147826 -0.0048384904
0.00010820628 -0.0018773914 -4.8301888e-05
0.015906323 0.00254 -0.00048377359
-0.017637623 0.0014356521 -0.0063626417
-0.019152513 0.00254 -0.0017901887
-0.020234575 0.00099391304 -0.0050562266
0.015040673 -0.00099391304 0.0019113207
0.0087647084 0.00254 -0.0024433963
0.015473498 -0.0012147826 -0.0067981132
-0.010712421 -0.0012147826 -4.8301888e-05
-0.0098467721 -0.0012147826 -0.0048384904
-0.0033543948 -0.00055217394 -0.00048377359
0.012443722 0.0014356521 -0.0076690568
-0.012660135 -0.00099391304 -0.007015849
0.015040673 0.00099391304 -4.8301888e-05
-0.0063841706 0.00011043478 -0.0024433963
0.00010820628 0.0012147826 0.001693585
0.012010898 -0.00254 -0.0020079245
-0.010712421 0.00055217394 -0.00048377359
0.023047937 0.0012147826 -0.0067981132
