# .PCD v0.7 - Point Cloud Data file format
VERSION 0.7
FIELDS x y z
SIZE 4 4 4
TYPE F F F
COUNT 1 1 1
WIDTH 1212
HEIGHT 1
VIEWPOINT 0 0 0 1 0 0 0
POINTS 1212
DATA ascii
-0.0085876193 -0.0013304761 0.0017723404
0.012941905 0.0013304761 -0.00019191489
0.011490476 -0.00060476188 -0.00068297872
0.024311429 0.001572381 -0.0031382979
-0.016328571 0.0010885714 5.3617023e-05
0.023585714 0.00254 -0.0011740426
-0.01778 -0.00254 -0.0014195745
0.015602857 -0.0018142858 -0.0024017021
-0.0090714283 -0.00254 -0.0014195745
-0.01681238 0.0010885714 -0.0038748935
-0.026730476 -0.001572381 -0.0078034042
-0.013909524 -0.001572381 -0.005348085
-0.026246667 -0.0022980953 -0.00019191489
0.013909524 -0.0010885714 0.0012812766
0.016570477 0.0010885714 -0.0080489358
0.018989524 -0.0013304761 0.0015268085
0.011248572 0.001572381 5.3617023e-05
0.012458095 -0.00254 -0.00019191489
0.001572381 0.001572381 -0.00019191489
0.018747618 0.0010885714 -0.0046114894
-0.02382762 -0.00084666669 -0.00019191489
-0.016570477 -0.0013304761 -0.0080489358
0.024311429 0.0013304761 0.0025089362
-0.013909524 0.0010885714 -0.0026472341
-0.021408571 -0.00254 -0.0011740426
-0.016086666 -0.001572381 -0.0024017021
0.0061685713 0.001572381 -0.0033838297
-0.027214287 0.0022980953 -0.0016651064
0.026246667 -0.0022980953 -0.00019191489
0.0088295238 -0.00084666669 -0.0051025534
0.013425714 0.00254 -0.0021561703
-0.026488572 0.0010885714 -0.0051025534
-0.019715238 -0.0010885714 -0.0024017021
-0.0037495238 0.0010885714 0.0012812766
0.015602857 0.0020561905 -0.00019191489
0.018505715 0.0018142858 -0.00019191489
0.023585714 -0.00254 -0.00019191489
-0.019231429 0.0013304761 -0.005348085
-0.018021906 -0.0022980953 -0.0024017021
0.0039914288 0.00060476188 -0.0024017021
0.026972381 -0.0010885714 -0.005839149
-0.016086666 -0.0018142858 -0.0024017021
0.02286 0.00254 -0.0024017021
-0.015602857 -0.00254 -0.0024017021
0.026246667 0.00036285713 -0.00043744681
-0.019231429 0.0010885714 0.0015268085
0.014635238 -0.00036285713 -0.0024017021
-0.0093133338 0.00254 -0.0011740426
-0.0010885714 -0.00036285713 -0.0024017021
0.0090714283 -0.0010885714 -0.0031382979
0.019231429 0.0013304761 -0.0080489358
-0.013909524 -0.001572381 -0.0051025534
-0.020924762 0.00254 -0.00019191489
-0.014635238 0.00254 -0.0021561703
0.0010885714 -0.0013304761 -0.006084681
0.0064104763 -0.0010885714 -0.0078034042
-0.0064104763 0.001572381 -0.005839149
0.016570477 -0.001572381 0.0017723404
0.001572381 -0.0013304761 -0.0043659573
0.0042333333 0.00254 -0.0021561703
-0.027698096 0.00036285713 -0.0024017021
-0.010039047 -0.00084666669 -0.00019191489
0.021408571 -0.001572381 -0.0028927659
-0.018989524 0.00012095238 -0.0024017021
0.0018142858 0.0022980953 -0.00019191489
0.0068942858 -0.0018142858 -0.0024017021
0.019231429 -0.001572381 -0.005593617
0.0076200003 0.0013304761 -0.00019191489
0.013909524 -0.0013304761 -0.0070668086
0.013425714 0.0018142858 -0.00019191489
0.02382762 -0.0013304761 -0.0068212766
0.00012095238 0.0018142858 -0.0024017021
0.018263809 0.00254 -0.0014195745
0.020440953 -0.0022980953 -0.00019191489
0.0066523808 0.0010885714 -0.0065757446
-0.0085876193 -0.0010885714 -0.0075578722
-0.013909524 0.001572381 -0.0051025534
-0.0078619048 -0.0022980953 -0.0024017021
0.019957144 -0.0018142858 -0.0024017021
-0.0066523808 0.00254 -0.0019106383
-0.015844762 0.00254 -0.00092851062
0.00012095238 -0.00254 -0.00068297872
0.014151429 0.001572381 0.00054468086
0.018989524 0.00084666669 0.00079021277
0.018263809 0.00254 -0.00092851062
-0.013909524 0.0013304761 -0.0028927659
-0.014151429 0.00254 -0.0016651064
0.026972381 -0.0010885714 -0.0036293617
0.0095552383 0.00084666669 -0.00019191489
0.018505715 0.001572381 -0.00019191489
-0.0085876193 0.0020561905 -0.0024017021
-0.024311429 0.00254 -0.0021561703
0.0027819048 0.00084666669 -0.00043744681
-0.026488572 0.0010885714 -0.0033838297
0.0037495238 0.001572381 -0.0043659573
-0.019957144 0.0018142858 -0.00019191489
0.026488572 -0.0010885714 -0.0038748935
0.0066523808 -0.0013304761 0.00054468086
-0.0037495238 -0.001572381 0.0025089362
0.00036285716 0.001572381 -0.00019191489
0.014151429 0.0010885714 -0.0078034042
-0.0093133338 0.0020561905 -0.00019191489
0.0010885714 -0.0010885714 -0.0033838297
0.0013304763 0.0013304761 -0.0075578722
-0.0010885714 -0.001572381 0.0022634042
-0.011490476 0.0013304761 -0.0080489358
0.025762858 -0.00060476188 -0.00043744681
-0.0090714283 -0.0010885714 -0.0038748935
0.013667619 0.0010885714 -0.0033838297
0.0010885714 0.0010885714 0.00079021277
0.016570477 -0.0010885714 -0.0036293617
-0.00060476194 -0.00254 -0.0014195745
-0.0054428573 0.00084666669 -0.00019191489
0.0093133338 0.0018142858 -0.0024017021
-0.0085876193 0.00254 -0.00043744681
0.0042333333 0.0018142858 -0.00019191489
0.01318381 0.00060476188 -0.00068297872
0.018989524 0.001572381 -0.0031382979
0.018505715 -0.00036285713 -0.0024017021
0.011248572 0.00084666669 -0.006084681
-0.021408571 0.0013304761 -0.0080489358
0.024553334 -0.0020561905 -0.0024017021
0.0095552383 0.00012095238 -0.0024017021
0.021408571 0.0010885714 -0.0036293617
0.0044752383 -0.00012095238 -0.0024017021
-0.0013304763 0.001572381 -0.0073123402
0.0061685713 0.001572381 -0.0051025534
0.0013304763 -0.001572381 -0.0036293617
-0.0013304763 -0.001572381 -0.0080489358
-0.019473333 -0.00254 -0.0011740426
-0.019473333 -0.0013304761 5.3617023e-05
0.0039914288 -0.00084666669 -0.0043659573
0.018989524 0.00254 -0.0016651064
-0.0088295238 0.00012095238 -0.0024017021
0.01318381 -0.0018142858 -0.00019191489
0.027698096 -0.0022980953 -0.00092851062
0.019957144 0.0018142858 -0.00019191489
0.021892382 0.00254 -0.0014195745
-0.021892382 -0.0013304761 0.0010357447
-0.016570477 -0.00084666669 -0.0036293617
-0.014151429 -0.0013304761 0.002754468
0.015119048 0.0020561905 -0.00019191489
-0.00060476194 -0.00254 -0.00019191489
0.0078619048 0.0022980953 -0.0024017021
0.013909524 0.0010885714 -0.0070668086
0.0039914288 -0.0010885714 0.0012812766
0.01318381 0.00254 -0.00068297872
-0.0039914288 -0.0020561905 -0.0024017021
0.026730476 0.00012095238 -0.00043744681
0.0037495238 0.001572381 -0.0036293617
0.017054286 -0.00084666669 -0.0024017021
0.0090714283 -0.0010885714 -0.006084681
0.011248572 0.0010885714 -0.0033838297
0.00060476194 0.0018142858 -0.00019191489
-0.02382762 0.0010885714 0.0017723404
0.003507619 0.00036285713 -0.00068297872
0.016328571 0.0010885714 -0.0068212766
-0.0097971428 0.00254 -0.00068297872
-0.014151429 -0.00012095238 -0.00068297872
-0.0073780953 -0.00254 -0.0014195745
-0.016570477 0.001572381 -0.0070668086
-0.026972381 -0.0013304761 -0.0075578722
0.026488572 0.00254 -0.00019191489
0.00060476194 0.00012095238 -0.00068297872
-0.025279047 -0.0010885714 -0.00019191489
-0.016086666 0.00254 -0.0011740426
0.011732381 -0.0013304761 5.3617023e-05
-0.016328571 0.0010885714 -0.0051025534
-0.012458095 -0.0020561905 -0.0024017021
-0.013425714 0.0020561905 -0.00019191489
0.02745619 0.0020561905 -0.0024017021
-0.0088295238 -0.001572381 -0.0068212766
0.012458095 -0.00060476188 -0.0024017021
0.024311429 0.001572381 -0.0070668086
-0.012941905 0.0010885714 -0.00019191489
0.011732381 0.00012095238 -0.0024017021
0.026488572 0.0010885714 -0.0075578722
-0.010764762 0.00254 -0.00092851062
0.014151429 -0.0013304761 -0.0078034042
0.0039914288 -0.0013304761 -0.0078034042
0.026246667 -0.00012095238 -0.00043744681
-0.011490476 -0.001572381 0.00029914893
0.0037495238 0.0010885714 0.0022634042
0.027939999 -0.0010885714 -0.0021561703
-0.016086666 0.00012095238 -0.0024017021
0.014151429 -0.0022980953 -0.0024017021
-0.00012095238 0.0010885714 -0.0024017021
-0.018505715 -0.00254 -0.0019106383
0.019231429 0.001572381 -0.005593617
-0.02382762 0.0022980953 -0.0024017021
-0.025279047 -0.00084666669 -0.00019191489
-0.021892382 0.00036285713 -0.00043744681
0.013667619 0.0013304761 -0.006084681
0.0039914288 -0.001572381 -0.0036293617
-0.0061685713 0.001572381 -0.005348085
0.025762858 -0.00254 -0.0016651064
0.026972381 0.0020561905 -0.00019191489
-0.013909524 -0.001572381 0.00079021277
-0.0097971428 0.0020561905 -0.00019191489
-0.0047171428 0.00254 -0.00043744681
0.027214287 -0.0022980953 -0.00068297872
0.001572381 -0.00084666669 0.0020178724
0.0010885714 -0.00084666669 5.3617023e-05
0.015844762 -0.00060476188 -0.0024017021
-0.02745619 -0.0022980953 -0.0016651064
-0.014393333 0.0010885714 -0.0024017021
-0.02286 0.0022980953 -0.00019191489
-0.023343809 -0.00060476188 -0.0024017021
-0.021892382 0.0010885714 -0.0065757446
0.0090714283 -0.0010885714 -0.0048570214
-0.024069523 0.001572381 0.0017723404
-0.0064104763 -0.00254 -0.00043744681
0.018747618 0.00254 -0.0021561703
0.0013304763 0.0013304761 -0.0038748935
0.021650476 -0.001572381 0.0025089362
-0.0022980953 0.00254 -0.0019106383
0.0039914288 0.001572381 -0.0075578722
0.024069523 0.00084666669 -0.0063302126
0.021408571 -0.0013304761 -0.0063302126
0.016328571 0.001572381 -0.0026472341
0.0010885714 -0.0010885714 -0.0078034042
-0.020199047 0.00254 -0.00068297872
-0.020199047 0.00254 -0.00043744681
-0.0088295238 -0.001572381 -0.0075578722
0.0056847618 0.0013304761 -0.0024017021
0.021650476 -0.0010885714 -0.0075578722
-0.018989524 0.0013304761 -0.0080489358
0.00254 -0.0020561905 -0.0024017021
0.015119048 0.001572381 -0.00019191489
0.015119048 -0.001572381 -0.00019191489
-0.018747618 -0.0010885714 -0.0024017021
-0.014877143 0.00254 -0.00068297872
-0.0093133338 -0.0010885714 -0.0024017021
-0.016570477 -0.00084666669 5.3617023e-05
0.0013304763 0.0013304761 -0.005348085
-0.0010885714 -0.0010885714 -0.0031382979
-0.0042333333 -0.00254 -0.0011740426
0.016328571 -0.0010885714 -0.005839149
0.018021906 0.00084666669 -0.0024017021
0.011732381 -0.001572381 -0.0033838297
-0.012941905 -0.0022980953 -0.0024017021
-0.012458095 -0.00060476188 -0.00068297872
0.019231429 0.0010885714 -0.0043659573
-0.018505715 -0.00036285713 -0.00043744681
-0.0095552383 -0.0022980953 -0.0024017021
0.024311429 0.0010885714 -0.0033838297
-0.02745619 -0.00084666669 -0.00019191489
0.0127 -0.001572381 -0.0024017021
-0.023101905 -0.00036285713 -0.00043744681
-0.014877143 0.0018142858 -0.00019191489
-0.021892382 -0.0013304761 -0.0028927659
0.0059266668 0.001572381 -0.00019191489
-0.021892382 -0.001572381 -0.0063302126
0.022134285 -0.001572381 -0.0024017021
0.018989524 0.001572381 0.0020178724
0.021408571 -0.0010885714 -0.0036293617
-0.021408571 -0.0010885714 0.00079021277
-0.010522857 -0.00084666669 -0.0024017021
-0.027698096 0.0020561905 -0.00019191489
0.0010885714 -0.0013304761 -0.0075578722
-0.0054428573 0.00254 -0.0019106383
-0.021408571 0.0010885714 -0.0075578722
-0.027939999 0.0013304761 -0.00068297872
0.020440953 -0.00012095238 -0.0024017021
0.020682856 0.00036285713 -0.0024017021
0.019473333 -0.0022980953 -0.0024017021
0.001572381 -0.00254 -0.00092851062
0.027214287 -0.0020561905 -0.0021561703
0.014151429 0.001572381 -0.0075578722
0.011732381 0.00254 -0.0011740426
0.0061685713 -0.001572381 -0.0070668086
-0.016570477 0.0010885714 0.0012812766
-0.017538095 -0.00254 -0.0011740426
-0.019715238 -0.00254 -0.0019106383
0.00036285716 -0.00254 -0.0016651064
0.021408571 0.0010885714 -0.005593617
0.0039914288 -0.00084666669 -0.0028927659
0.0037495238 -0.00060476188 -0.00068297872
0.021408571 -0.00084666669 -0.00019191489
0.010280953 -0.001572381 -0.0024017021
-0.024311429 0.00254 -0.00092851062
0.0056847618 0.00254 -0.0016651064
-0.021166667 -0.00012095238 -0.0024017021
0.011248572 -0.00084666669 -0.0033838297
0.0013304763 -0.001572381 0.0017723404
-0.011248572 -0.00254 -0.00043744681
0.019231429 -0.0013304761 0.00054468086
-0.021650476 0.001572381 -0.0026472341
0.021650476 0.00254 -0.00092851062
0.0093133338 0.00012095238 -0.0026472341
-0.0085876193 0.00060476188 -0.0024017021
0.0056847618 -0.00254 -0.0019106383
0.016570477 -0.0013304761 0.00054468086
-0.014635238 -0.0020561905 -0.00019191489
-0.011248572 -0.001572381 -0.0078034042
-0.0010885714 -0.00084666669 0.0012812766
0.026004761 0.00254 -0.0014195745
0.0088295238 0.00084666669 -0.0063302126
-0.0061685713 -0.00084666669 0.00029914893
0.0013304763 -0.00084666669 -0.0038748935
-0.00254 -0.00036285713 -0.0024017021
-0.027214287 0.0018142858 -0.0024017021
-0.016328571 -0.00254 -0.0014195745
-0.020440953 0.00036285713 -0.00043744681
-0.0061685713 0.0010885714 -0.0073123402
-0.026972381 0.00254 -0.00068297872
0.021892382 -0.00254 -0.0021561703
0.026730476 -0.001572381 5.3617023e-05
0.026972381 -0.0013304761 5.3617023e-05
-0.0020561905 0.0013304761 -0.0024017021
0.02745619 0.0018142858 -0.00019191489
-0.0010885714 0.0010885714 -0.0046114894
-0.011732381 0.0013304761 -0.0065757446
0.010039047 -0.00254 -0.00019191489
-0.012941905 0.0013304761 -0.0024017021
-0.023585714 0.0010885714 -0.00019191489
0.0073780953 0.00036285713 -0.00068297872
0.0085876193 0.0013304761 -0.0051025534
-0.021892382 0.0010885714 -0.00019191489
0.026972381 0.0013304761 -0.0073123402
-0.011248572 -0.0010885714 -0.005593617
0.0061685713 -0.0013304761 -0.005593617
-0.02382762 -0.001572381 5.3617023e-05
0.019231429 -0.0013304761 -0.0065757446
0.0088295238 -0.00060476188 -0.0026472341
-0.0085876193 -0.00254 -0.0016651064
0.016086666 0.00254 -0.0024017021
-0.027214287 0.0020561905 -0.00019191489
0.026004761 -0.00060476188 -0.00043744681
-0.0039914288 0.00084666669 -0.0063302126
-0.0088295238 -0.0018142858 -0.0026472341
-0.0049590478 0.00254 -0.0021561703
-0.0083457148 0.00254 -0.0019106383
0.018747618 0.001572381 -0.005593617
-0.016328571 -0.001572381 -0.0075578722
-0.021408571 0.001572381 0.0010357447
0.019231429 -0.0013304761 0.00029914893
0.024069523 -0.001572381 0.0010357447
-0.024553334 -0.00254 -0.00068297872
0.024069523 -0.001572381 0.0025089362
-0.022134285 -0.00012095238 -0.00043744681
-0.018263809 -0.00254 -0.00092851062
-0.0037495238 0.0013304761 0.0015268085
-0.021408571 0.0010885714 -0.0046114894
-0.021408571 -0.0010885714 -0.0048570214
0.025279047 0.0010885714 -0.00019191489
0.0127 -0.00254 -0.00019191489
-0.0088295238 0.00084666669 -0.0068212766
-0.0061685713 0.0010885714 0.0012812766
0.00060476194 0.0018142858 -0.0024017021
-0.00060476194 -0.0020561905 -0.00019191489
0.011248572 -0.001572381 -0.0051025534
-0.00060476194 0.0010885714 -0.00019191489
0.015602857 -0.0013304761 -0.00019191489
-0.026004761 -0.001572381 -0.00019191489
-0.0064104763 0.001572381 -0.0065757446
0.0013304763 -0.00084666669 -0.0070668086
-0.015602857 -0.001572381 -0.00019191489
-0.0013304763 -0.001572381 0.00079021277
0.013667619 0.0013304761 -0.0048570214
0.024069523 0.001572381 -0.0046114894
-0.0032657143 0.0018142858 -0.0024017021
0.02382762 -0.001572381 0.00029914893
0.012458095 0.00254 -0.0016651064
0.0039914288 -0.001572381 -0.006084681
-0.02745619 -0.00012095238 -0.00043744681
-0.0090714283 -0.001572381 -0.0036293617
0.023343809 -0.00254 -0.0011740426
-0.010764762 -0.00254 -0.00068297872
0.026488572 -0.0010885714 -0.0041204253
-0.012941905 -0.00084666669 -0.00019191489
0.0083457148 0.00036285713 -0.0024017021
-0.018263809 0.00254 -0.00068297872
0.018989524 -0.00084666669 -0.0028927659
-0.024311429 -0.0013304761 -0.0063302126
-0.01681238 -0.0013304761 -0.0051025534
0.00254 0.00084666669 -0.00043744681
-0.017296191 0.00254 -0.0019106383
0.019231429 0.0018142858 5.3617023e-05
-0.025520952 0.00084666669 -0.00043744681
0.019231429 -0.0013304761 -0.0063302126
-0.021408571 -0.00254 -0.00019191489
0.021408571 -0.0013304761 -0.005593617
-0.0071361908 -0.00254 -0.0019106383
0.001572381 -0.00084666669 -0.006084681
-0.01681238 -0.0018142858 -0.0024017021
0.026972381 -0.0010885714 -0.0028927659
0.024311429 -0.00084666669 -0.0051025534
0.0056847618 0.00254 -0.0019106383
-0.018021906 0.0013304761 -0.0024017021
0.018989524 0.00084666669 -0.00019191489
0.026488572 0.0013304761 0.0015268085
0.02382762 -0.00012095238 -0.0024017021
0.021408571 -0.00012095238 -0.00043744681
-0.026730476 -0.0010885714 -0.005593617
0.0044752383 0.00060476188 -0.0024017021
0.02382762 -0.001572381 -0.005839149
0.023101905 -0.00254 -0.00043744681
-0.014151429 -0.001572381 -0.0075578722
-0.018989524 -0.00254 -0.00068297872
-0.0039914288 0.0013304761 -0.0048570214
0.0030238095 -0.00254 -0.00068297872
-0.0088295238 -0.00084666669 -0.0036293617
0.010764762 -0.00084666669 -0.00019191489
-0.0032657143 0.0018142858 -0.00019191489
-0.023343809 0.00036285713 -0.00043744681
0.0042333333 0.00254 -0.00068297872
-0.020924762 -0.00084666669 -0.00019191489
-0.011490476 -0.0010885714 -0.0082944678
0.0081038093 0.00036285713 -0.00068297872
0.0020561905 0.00060476188 -0.0024017021
0.011248572 0.0020561905 -0.0024017021
0.0042333333 0.0020561905 -0.0024017021
0.010280953 -0.0020561905 -0.00019191489
-0.016570477 0.001572381 0.00054468086
0.01778 0.00254 -0.00068297872
0.01681238 -0.001572381 5.3617023e-05
0.018021906 -0.0018142858 -0.0024017021
0.0127 0.0013304761 -0.00019191489
-0.021408571 -0.00084666669 0.00079021277
-0.00012095238 -0.00036285713 -0.00068297872
0.0061685713 0.0013304761 0.0020178724
-0.019957144 -0.00012095238 -0.0024017021
0.021166667 0.0010885714 5.3617023e-05
-0.015602857 -0.0010885714 -0.00019191489
0.0039914288 -0.001572381 -0.0026472341
0.00012095238 0.00254 -0.00043744681
0.027939999 0.0010885714 -0.00043744681
-0.012941905 0.0018142858 -0.0024017021
0.024311429 0.00254 -0.0024017021
-0.020440953 -0.001572381 -0.00019191489
0.011248572 0.001572381 -0.0033838297
-0.0022980953 -0.00036285713 -0.00068297872
0.0047171428 -0.0013304761 -0.00019191489
0.016570477 -0.00036285713 -0.0024017021
-0.0047171428 -0.00254 -0.00068297872
-0.0064104763 0.0010885714 0.0017723404
0.0054428573 0.00084666669 -0.0024017021
-0.0083457148 0.00012095238 -0.00068297872
0.02745619 0.00084666669 -0.00019191489
-0.010522857 -0.0018142858 -0.0024017021
-0.0076200003 0.00254 -0.0024017021
-0.026488572 -0.001572381 -0.0051025534
-0.021892382 -0.0010885714 -0.0063302126
0.0052009523 -0.0010885714 -0.00019191489
-0.016570477 0.001572381 -0.0078034042
-0.013667619 0.00060476188 -0.00068297872
-0.010039047 0.00036285713 -0.00068297872
-0.016328571 -0.0010885714 -0.0026472341
-0.023585714 0.001572381 -0.00019191489
-0.018989524 0.0010885714 -0.0063302126
0.0020561905 -0.00254 -0.0016651064
0.026730476 -0.001572381 0.00054468086
0.0020561905 0.0018142858 -0.00019191489
-0.016328571 0.0010885714 0.0020178724
0.011732381 0.0013304761 -0.0073123402
0.0083457148 0.00254 -0.0024017021
0.010280953 -0.00254 -0.0011740426
0.010039047 0.00254 -0.0021561703
-0.026488572 -0.0010885714 -0.0073123402
-0.026488572 -0.0010885714 -0.0033838297
-0.001572381 0.0013304761 -0.0031382979
-0.019231429 -0.00254 -0.0014195745
0.02382762 -0.00060476188 -0.00043744681
-0.010280953 -0.00254 -0.0021561703
0.0037495238 -0.0020561905 -0.00019191489
-0.0039914288 -0.001572381 -0.0041204253
-0.026972381 -0.00012095238 -0.0024017021
-0.023585714 -0.00254 -0.00092851062
-0.026730476 -0.00060476188 -0.00043744681
0.018989524 -0.00254 -0.00043744681
-0.0052009523 -0.00254 -0.0016651064
-0.026488572 0.0013304761 0.0015268085
0.019231429 -0.0010885714 -0.0038748935
0.014151429 -0.00254 -0.00092851062
0.021892382 -0.0013304761 -0.0026472341
-0.024795238 -0.00012095238 -0.0024017021
-0.026488572 0.0013304761 -0.0073123402
-0.026004761 0.00254 -0.0024017021
0.02382762 -0.0013304761 -0.0038748935
0.015602857 0.00254 -0.0019106383
0.024311429 0.0013304761 -0.0075578722
0.0027819048 0.00254 -0.0014195745
0.0088295238 0.00254 -0.0019106383
-0.026004761 0.0022980953 -0.00019191489
0.0088295238 -0.00084666669 -0.005839149
0.026730476 -0.001572381 -0.0070668086
0.0039914288 0.0010885714 -0.006084681
0.017296191 -0.00084666669 -0.0024017021
-0.0059266668 -0.00084666669 -0.00019191489
0.011732381 -0.00254 -0.0016651064
-0.021408571 0.0010885714 0.0020178724
-0.022618096 0.00254 -0.0021561703
0.001572381 -0.00012095238 -0.00068297872
-0.019231429 0.00254 -0.00019191489
-0.021408571 0.001572381 -0.0041204253
-0.00036285716 0.00036285713 -0.00068297872
0.019231429 -0.0010885714 -0.0078034042
-0.0076200003 0.001572381 -0.0024017021
0.0037495238 0.00254 -0.0019106383
-0.017538095 -0.00084666669 -0.0024017021
-0.022618096 -0.0020561905 -0.00019191489
-0.0061685713 -0.001572381 -0.0070668086
0.0013304763 -0.00084666669 -0.0063302126
-0.021166667 -0.00254 -0.0011740426
0.0085876193 -0.0018142858 -0.00043744681
0.023101905 -0.00254 -0.00092851062
0.016086666 0.00254 -0.00092851062
0.0054428573 0.0022980953 -0.0024017021
0.020199047 -0.0010885714 -0.00019191489
0.0037495238 0.001572381 0.0012812766
0.014151429 -0.0010885714 0.0010357447
-0.013909524 -0.00036285713 -0.00068297872
0.00254 0.00036285713 -0.00068297872
-0.021166667 -0.001572381 5.3617023e-05
0.018747618 0.0010885714 -0.0063302126
0.0088295238 -0.001572381 -0.0073123402
0.021408571 0.0010885714 0.0012812766
0.017054286 0.00254 -0.00092851062
0.021650476 -0.00084666669 5.3617023e-05
-0.0064104763 -0.00084666669 -0.0038748935
-0.0073780953 0.00060476188 -0.0024017021
0.0059266668 0.00254 -0.00043744681
-0.00012095238 -0.0020561905 -0.00019191489
-0.0081038093 0.00254 -0.00092851062
-0.0088295238 0.001572381 -0.0051025534
-0.016570477 -0.00036285713 -0.0024017021
0.0027819048 0.00254 -0.0024017021
-0.00012095238 -0.001572381 -0.00019191489
0.021650476 -0.001572381 -0.006084681
-0.011490476 0.0010885714 5.3617023e-05
0.027939999 0.0010885714 -0.0014195745
-0.011732381 0.0013304761 -0.006084681
-0.00036285716 -0.00036285713 -0.00068297872
0.0037495238 -0.0013304761 -0.0065757446
0.001572381 -0.0010885714 -0.0065757446
0.024311429 -0.0013304761 -0.0043659573
0.022134285 -0.00084666669 -0.00019191489
0.011490476 -0.00060476188 -0.0024017021
0.024311429 0.0020561905 -0.0024017021
0.02382762 -0.0013304761 -0.006084681
0.010522857 -0.00012095238 -0.0024017021
0.024795238 0.00012095238 -0.0024017021
0.021650476 -0.00036285713 -0.0024017021
-0.024795238 -0.00254 -0.00092851062
-0.021650476 0.00254 -0.0011740426
-0.024795238 0.00254 -0.00068297872
0.014393333 -0.0022980953 -0.0024017021
0.018263809 0.0010885714 -0.00019191489
0.024069523 -0.001572381 -0.0026472341
-0.011006666 0.00254 -0.00092851062
-0.0088295238 0.00084666669 0.00054468086
0.0044752383 -0.00060476188 -0.00068297872
0.016328571 -0.001572381 -0.0070668086
-0.014151429 0.0013304761 0.0017723404
0.003507619 0.0010885714 -0.0026472341
-0.018989524 0.0013304761 -0.0075578722
0.019231429 0.001572381 -0.0068212766
0.011732381 0.00060476188 -0.00068297872
0.019715238 0.00254 -0.0014195745
-0.026972381 -0.0010885714 0.0022634042
-0.00036285716 -0.0013304761 -0.00019191489
0.018263809 -0.00254 -0.0024017021
-0.021650476 -0.00084666669 -0.0068212766
0.024311429 -0.0013304761 -0.0078034042
-0.0039914288 -0.0013304761 -0.0051025534
0.0037495238 -0.00084666669 0.0012812766
-0.024553334 -0.00084666669 -0.00019191489
-0.00254 -0.0020561905 -0.00019191489
-0.013909524 -0.0010885714 0.0022634042
0.0054428573 -0.00084666669 -0.00019191489
-0.016328571 0.0013304761 -0.0026472341
0.018747618 0.001572381 -0.0063302126
-0.027939999 -0.001572381 -0.0014195745
0.0066523808 -0.0010885714 -0.0033838297
0.00060476194 -0.00084666669 -0.00043744681
-0.018989524 -0.00084666669 -0.0063302126
-0.00036285716 -0.0010885714 -0.0024017021
0.020440953 -0.0013304761 -0.00019191489
0.003507619 0.0013304761 -0.0063302126
0.011732381 0.001572381 -0.0068212766
-0.016328571 -0.0010885714 -0.0068212766
0.011248572 0.00254 -0.00043744681
-0.026488572 -0.0013304761 -0.0033838297
0.013425714 0.00084666669 -0.00019191489
-0.024795238 -0.00254 -0.0011740426
0.013909524 -0.0010885714 -0.0048570214
-0.021408571 0.0013304761 -0.0073123402
-0.014151429 -0.001572381 0.0025089362
-0.021166667 0.0013304761 -0.0024017021
-0.0059266668 -0.00254 -0.0011740426
-0.014151429 0.0010885714 -0.0028927659
-0.022134285 0.0010885714 -0.00019191489
0.026730476 0.001572381 -0.0043659573
0.016570477 0.0018142858 0.0012812766
0.022134285 -0.0020561905 -0.0024017021
-0.016328571 -0.001572381 -0.0033838297
-0.027939999 -0.0010885714 -0.0016651064
0.0010885714 -0.0010885714 -0.0046114894
-0.0010885714 0.0010885714 -0.0041204253
-0.011974286 -0.00254 -0.0021561703
0.0044752383 0.00254 -0.0011740426
0.016570477 -0.00254 -0.00092851062
-0.015360952 0.00254 -0.00068297872
-0.021650476 -0.00084666669 -0.0031382979
-0.013425714 0.001572381 -0.0024017021
0.020924762 0.00012095238 -0.0024017021
-0.0081038093 -0.00254 -0.0011740426
-0.0020561905 0.001572381 -0.0024017021
0.019715238 0.00254 -0.0021561703
0.011006666 -0.00254 -0.0024017021
0.0073780953 -0.0018142858 -0.00043744681
0.024311429 -0.00084666669 -0.0065757446
-0.024311429 -0.00084666669 -0.005839149
-0.019231429 0.001572381 0.0020178724
0.018989524 -0.00084666669 0.00079021277
0.0037495238 -0.0010885714 0.00079021277
-0.001572381 -0.00084666669 -0.0024017021
0.026004761 0.0020561905 -0.00019191489
0.0052009523 -0.00036285713 -0.0024017021
0.013667619 0.0013304761 0.0012812766
0.021166667 -0.0018142858 -0.0024017021
0.020199047 -0.00036285713 -0.00043744681
-0.0061685713 -0.00060476188 -0.0024017021
0.0013304763 -0.00084666669 -0.0068212766
0.011248572 0.0013304761 -0.0043659573
-0.0090714283 -0.0010885714 -0.0028927659
-0.024311429 -0.001572381 -0.0033838297
-0.017296191 -0.00254 -0.0024017021
0.025279047 -0.0013304761 -0.0024017021
0.021408571 0.001572381 -0.005348085
-0.0083457148 0.00036285713 -0.0024017021
-0.0010885714 -0.00254 -0.0016651064
0.0032657143 -0.00254 -0.0014195745
0.0049590478 0.00254 -0.0011740426
0.0127 0.00254 -0.0011740426
0.015119048 0.0013304761 -0.0024017021
0.011732381 -0.001572381 -0.0043659573
-0.019231429 0.0013304761 0.00079021277
-0.0039914288 0.0010885714 -0.0068212766
0.0090714283 -0.0010885714 -0.005839149
-0.0039914288 -0.0010885714 -0.0026472341
-0.010522857 -0.00254 -0.00019191489
0.021892382 0.0013304761 -0.005348085
0.016328571 -0.001572381 5.3617023e-05
-0.0010885714 0.0010885714 0.0022634042
0.0088295238 -0.0010885714 5.3617023e-05
0.0085876193 0.0013304761 0.0022634042
-0.019231429 0.0013304761 0.00029914893
-0.010039047 0.00084666669 -0.00068297872
-0.018989524 0.0010885714 -0.0048570214
-0.02286 -0.00254 -0.00092851062
-0.010522857 -0.00254 -0.0016651064
-0.026488572 0.0010885714 -0.0038748935
0.001572381 -0.0013304761 0.0012812766
-0.016328571 0.001572381 -0.0028927659
0.016570477 -0.0013304761 -0.0043659573
-0.0049590478 -0.00084666669 -0.00019191489
-0.0037495238 0.0020561905 -0.0024017021
-0.0078619048 -0.00254 -0.0019106383
0.0073780953 0.00254 -0.00068297872
-0.026488572 0.0010885714 -0.0065757446
-0.015844762 0.0010885714 -0.00043744681
0.0068942858 0.0013304761 -0.00019191489
-0.014877143 0.00012095238 -0.0024017021
0.026488572 0.0013304761 -0.005348085
0.024553334 0.00012095238 -0.0024017021
-0.019957144 0.00084666669 -0.00043744681
-0.019231429 -0.0010885714 5.3617023e-05
-0.00084666669 -0.00060476188 -0.0024017021
0.0037495238 -0.001572381 0.00029914893
0.018989524 -0.0013304761 0.0020178724
-0.011248572 -0.0010885714 -0.0046114894
0.0018142858 0.0010885714 -0.0024017021
0.023101905 0.00012095238 -0.0024017021
-0.027214287 -0.00084666669 -0.0024017021
-0.026488572 -0.001572381 -0.0041204253
0.001572381 -0.00084666669 -0.0068212766
0.025279047 0.00254 -0.0014195745
-0.019957144 0.00254 -0.0011740426
-0.00254 -0.00036285713 -0.00068297872
0.021166667 0.00254 -0.0021561703
0.010039047 -0.0010885714 -0.0024017021
-0.0013304763 -0.00060476188 -0.00068297872
0.0039914288 0.0010885714 0.0012812766
0.0088295238 0.0010885714 -0.0073123402
-0.014151429 0.00036285713 -0.00068297872
0.013909524 -0.00254 -0.0019106383
0.0090714283 -0.0013304761 -0.0048570214
0.0039914288 0.0010885714 0.00079021277
-0.015119048 0.00254 -0.00043744681
-0.014877143 0.001572381 -0.0024017021
0.014151429 -0.0010885714 -0.006084681
-0.014635238 -0.00254 -0.00043744681
-0.015360952 0.00254 -0.0019106383
0.020199047 -0.0020561905 -0.00019191489
-0.014151429 -0.001572381 -0.0031382979
0.026730476 0.00084666669 -0.0051025534
-0.024795238 -0.00254 -0.00043744681
-0.010039047 -0.00254 -0.00043744681
0.0064104763 0.001572381 -0.0031382979
-0.024795238 0.00254 -0.0021561703
0.0097971428 -0.00254 -0.00019191489
-0.0037495238 0.0013304761 -0.0046114894
0.011490476 0.00084666669 0.0012812766
0.018747618 -0.00060476188 -0.00043744681
-0.012458095 0.0022980953 -0.00019191489
0.019231429 0.0010885714 -0.0036293617
-0.019715238 -0.00084666669 -0.00019191489
-0.0049590478 -0.00254 -0.0019106383
0.018747618 0.0010885714 -0.0068212766
0.013909524 0.001572381 -0.006084681
-0.018989524 0.00036285713 -0.0024017021
-0.021650476 0.0018142858 0.0015268085
-0.018989524 -0.001572381 -0.0068212766
0.0061685713 -0.00084666669 -0.005593617
0.0052009523 0.00036285713 -0.0024017021
-0.026730476 0.00084666669 -0.0026472341
0.0032657143 -0.00254 -0.0019106383
0.0081038093 0.00254 -0.0016651064
-0.0097971428 0.00036285713 -0.00068297872
-0.025762858 0.00254 -0.0011740426
-0.026488572 0.0013304761 -0.006084681
-0.015360952 0.0022980953 -0.00019191489
0.0054428573 0.00084666669 -0.00019191489
0.011490476 -0.0010885714 -0.0033838297
-0.0056847618 0.001572381 -0.00019191489
0.021892382 0.0013304761 0.0025089362
-0.0013304763 -0.0013304761 -0.005839149
0.0039914288 0.001572381 -0.005348085
-0.021892382 0.0013304761 0.0015268085
0.003507619 0.0010885714 -0.0038748935
0.0042333333 -0.0013304761 5.3617023e-05
0.021650476 -0.001572381 -0.0046114894
0.0064104763 -0.00254 -0.0014195745
-0.017296191 -0.001572381 -0.0024017021
0.0039914288 0.001572381 -0.0028927659
-0.0127 -0.00254 -0.00043744681
-0.026730476 -0.0010885714 -0.0043659573
-0.024069523 0.0010885714 0.0022634042
-0.02382762 -0.00012095238 -0.00043744681
-0.018505715 -0.00254 -0.0024017021
0.019231429 0.0010885714 -0.005839149
0.026730476 0.0010885714 -0.0046114894
-0.019473333 -0.0010885714 -0.0024017021
-0.02286 0.0013304761 -0.00019191489
0.017296191 0.0013304761 -0.0024017021
-0.02382762 0.0010885714 -0.0051025534
-0.013909524 -0.00084666669 0.00079021277
-0.025520952 -0.00036285713 -0.00043744681
-0.0054428573 0.00060476188 -0.0024017021
-0.0066523808 0.0013304761 -0.0033838297
0.018989524 -0.0013304761 -0.0041204253
0.0061685713 0.0013304761 -0.0078034042
-0.018747618 -0.0010885714 0.00054468086
0.025037143 0.0020561905 -0.0024017021
0.0022980953 0.00036285713 -0.00068297872
-0.01681238 0.0010885714 0.0017723404
-0.02382762 -0.001572381 0.00054468086
-0.0093133338 0.00254 -0.0024017021
0.021892382 -0.0013304761 -0.0033838297
0.025279047 -0.0022980953 -0.0021561703
-0.0064104763 0.001572381 -0.005593617
-0.026972381 0.00012095238 -0.0024017021
-0.020924762 0.00254 -0.0024017021
-0.001572381 0.0010885714 -0.0080489358
-0.010522857 0.00254 -0.0014195745
-0.026488572 0.001572381 -0.0038748935
0.023343809 0.001572381 -0.00019191489
0.0066523808 -0.0020561905 -0.00019191489
0.011248572 0.0013304761 -0.0028927659
0.013425714 -0.00254 -0.0014195745
-0.0064104763 -0.0010885714 -0.0043659573
-0.0076200003 -0.0022980953 -0.0024017021
0.016328571 -0.0013304761 0.00054468086
-0.01681238 0.00036285713 -0.00043744681
-0.020440953 0.0022980953 -0.0024017021
0.016328571 0.0010885714 -0.0078034042
0.011248572 0.0010885714 -0.0036293617
-0.022618096 0.00254 -0.0014195745
-0.0076200003 -0.00084666669 -0.00043744681
0.0013304763 0.0018142858 -0.0036293617
-0.014151429 -0.001572381 -0.0078034042
0.00036285716 0.00012095238 -0.00068297872
0.013909524 0.00084666669 0.00054468086
0.011248572 -0.00084666669 -0.00043744681
-0.021408571 0.0013304761 -0.0070668086
0.019473333 -0.0020561905 -0.00019191489
0.011248572 0.0010885714 -0.0075578722
0.00036285716 0.00012095238 -0.0024017021
-0.014151429 0.0013304761 -0.0031382979
-0.019231429 -0.0010885714 -0.0038748935
-0.0085876193 -0.00084666669 -0.00043744681
0.026488572 0.001572381 -0.005593617
0.019231429 0.001572381 0.0020178724
-0.0085876193 -0.0010885714 -0.0026472341
0.016570477 -0.001572381 -0.0046114894
0.020440953 -0.00036285713 -0.0024017021
0.019231429 0.0013304761 0.00054468086
0.02382762 -0.0010885714 -0.0070668086
0.0064104763 -0.001572381 -0.0041204253
0.0013304763 0.0010885714 -0.005839149
0.018989524 -0.001572381 -0.0046114894
0.024553334 -0.00084666669 -0.0024017021
-0.0090714283 -0.0010885714 0.0015268085
-0.021892382 0.0013304761 0.0017723404
0.0090714283 -0.00084666669 -0.0028927659
0.019957144 0.00084666669 -0.00019191489
-0.015844762 -0.00060476188 -0.0024017021
-0.011248572 0.001572381 -0.0075578722
0.0090714283 -0.0010885714 0.0022634042
-0.018505715 0.00254 -0.00019191489
0.023101905 0.00084666669 -0.0024017021
0.0090714283 -0.0010885714 -0.0073123402
0.0059266668 0.00012095238 -0.00068297872
0.020199047 0.0020561905 -0.00019191489
0.00036285716 0.0020561905 -0.00019191489
0.011974286 0.00254 -0.00068297872
0.0088295238 0.0020561905 -0.00019191489
0.025279047 0.00254 -0.00068297872
0.021166667 -0.0022980953 -0.0024017021
-0.010039047 0.00012095238 -0.00068297872
0.0027819048 -0.001572381 -0.0024017021
0.023101905 -0.00254 -0.0021561703
0.022618096 0.0013304761 -0.0024017021
-0.0013304763 0.00036285713 -0.0024017021
0.01681238 0.001572381 0.00054468086
-0.018263809 0.00012095238 -0.00043744681
-0.0064104763 0.0010885714 -0.005839149
-0.014151429 0.00254 -0.00092851062
0.024069523 -0.0010885714 0.002754468
0.01318381 0.00084666669 -0.00043744681
0.0022980953 -0.0020561905 -0.00019191489
0.013909524 0.0010885714 0.002754468
0.013909524 0.00084666669 0.0010357447
0.020440953 -0.00254 -0.0014195745
0.018989524 0.001572381 0.0010357447
0.023585714 0.0020561905 -0.00019191489
0.0013304763 -0.00254 -0.0024017021
0.011248572 -0.0013304761 -0.0026472341
-0.0061685713 -0.001572381 -0.006084681
0.017054286 0.0013304761 -0.0024017021
-0.019957144 -0.00254 -0.00092851062
-0.01681238 -0.0010885714 -0.0028927659
-0.0066523808 0.0010885714 -0.005593617
-0.019715238 -0.00036285713 -0.00043744681
0.0090714283 0.001572381 -0.0075578722
-0.018989524 -0.0010885714 -0.0033838297
-0.011248572 0.001572381 -0.0033838297
-0.013909524 0.0013304761 -0.0078034042
0.026488572 -0.0010885714 0.0025089362
0.011732381 -0.00254 -0.0021561703
0.021408571 -0.0010885714 0.0020178724
0.024069523 0.00084666669 -0.0033838297
0.011732381 0.001572381 -0.0048570214
-0.0081038093 0.00254 -0.0021561703
-0.010764762 -0.00254 -0.00019191489
-0.027698096 0.0018142858 -0.0014195745
0.018747618 0.0013304761 0.0020178724
0.026488572 -0.001572381 0.00054468086
-0.014877143 -0.00012095238 -0.0024017021
0.010764762 0.0018142858 -0.0024017021
-0.0081038093 0.0020561905 -0.00019191489
0.0013304763 0.001572381 -0.0033838297
-0.024311429 -0.0010885714 0.0017723404
-0.016570477 0.001572381 -0.006084681
-0.0022980953 -0.0010885714 -0.0024017021
0.0090714283 0.00036285713 -0.0024017021
0.026730476 -0.0013304761 0.0025089362
0.011248572 0.00084666669 -0.0028927659
0.0027819048 0.00012095238 -0.00068297872
-0.019231429 0.0013304761 0.0010357447
0.021408571 0.001572381 0.00079021277
0.011248572 0.001572381 -0.0043659573
-0.003507619 0.0018142858 -0.00019191489
0.020440953 0.0010885714 -0.00019191489
0.0037495238 -0.001572381 0.0010357447
0.019231429 -0.001572381 -0.0051025534
-0.016570477 0.0010885714 5.3617023e-05
0.0037495238 -0.00254 -0.00092851062
0.026972381 0.0013304761 -0.0028927659
0.0013304763 0.0010885714 -0.0043659573
0.0085876193 0.0013304761 -0.0073123402
0.019231429 0.0010885714 -0.0048570214
0.02286 -0.00254 -0.0019106383
-0.01778 -0.0018142858 -0.0024017021
-0.011490476 0.0018142858 -0.0043659573
0.022618096 0.00254 -0.0016651064
-0.0013304763 0.00084666669 0.0015268085
0.0090714283 -0.0022980953 -0.0024017021
-0.015844762 -0.001572381 -0.00019191489
-0.021408571 0.00060476188 -0.00043744681
-0.026488572 -0.0010885714 -0.0038748935
-0.027698096 -0.0022980953 -0.00068297872
0.019231429 0.0020561905 -0.0024017021
0.014151429 -0.0013304761 0.00054468086
-0.0093133338 -0.00012095238 -0.00068297872
0.0061685713 0.0020561905 -0.00019191489
0.0027819048 0.00060476188 -0.0024017021
0.019231429 0.0013304761 0.0022634042
-0.025037143 0.0022980953 -0.0021561703
-0.0054428573 -0.00254 -0.00019191489
0.0030238095 0.00254 -0.0011740426
-0.0013304763 -0.00084666669 5.3617023e-05
-0.0039914288 -0.0013304761 -0.0075578722
0.016328571 -0.0010885714 -0.006084681
0.019715238 -0.00254 -0.0024017021
-0.013909524 -0.00084666669 -0.00019191489
-0.0076200003 0.00254 -0.0021561703
0.025520952 0.00060476188 -0.00043744681
0.0020561905 -0.0020561905 -0.00019191489
0.018747618 0.0013304761 -0.0028927659
-0.021408571 0.001572381 0.0012812766
-0.025279047 0.0013304761 -0.0024017021
-0.017054286 -0.0020561905 -0.0024017021
0.011248572 -0.0013304761 0.0017723404
0.014151429 -0.0013304761 -0.0048570214
-0.016086666 -0.0010885714 -0.0024017021
-0.025762858 0.0020561905 -0.00019191489
0.0054428573 -0.0022980953 -0.00019191489
0.0068942858 0.00254 -0.0024017021
-0.011006666 -0.00084666669 -0.00019191489
-0.0013304763 0.00254 -0.00019191489
-0.0088295238 0.0010885714 -0.0038748935
0.019473333 0.0018142858 -0.00019191489
0.019231429 0.00084666669 -0.0031382979
-0.0049590478 -0.00254 -0.0014195745
0.014635238 -0.00012095238 -0.00068297872
-0.026488572 -0.0018142858 -0.0024017021
0.02745619 -0.00060476188 -0.0024017021
-0.0030238095 -0.00254 -0.0021561703
-0.0042333333 0.00060476188 -0.00068297872
-0.00254 0.00254 -0.0019106383
0.0013304763 0.0013304761 -0.0041204253
0.011974286 -0.00254 -0.0024017021
0.011732381 -0.001572381 0.0017723404
0.018989524 -0.00254 -0.0024017021
-0.012216191 -0.00254 -0.00068297872
0.0097971428 -0.00254 -0.00043744681
0.012941905 -0.00036285713 -0.00068297872
-0.024311429 0.001572381 0.00054468086
0.019231429 0.001572381 -0.0036293617
0.0039914288 0.001572381 -0.0041204253
-0.011248572 0.00254 -0.00068297872
-0.027939999 -0.00036285713 -0.0024017021
0.0127 -0.0020561905 -0.00019191489
-0.026488572 0.0010885714 0.0010357447
-0.016328571 -0.0010885714 -0.0038748935
0.021408571 -0.0013304761 -0.0068212766
0.021408571 -0.001572381 0.00029914893
-0.0013304763 -0.0013304761 -0.0073123402
-0.012941905 0.00084666669 -0.0024017021
-0.0039914288 0.0010885714 -0.005593617
0.02382762 -0.0010885714 -0.0075578722
-0.0061685713 -0.00084666669 0.0012812766
-0.0085876193 -0.0010885714 -0.0028927659
-0.023585714 -0.00254 -0.00068297872
-0.0039914288 -0.0013304761 -0.0063302126
0.0010885714 0.0013304761 -0.0075578722
0.01318381 -0.00036285713 -0.00068297872
-0.014151429 0.001572381 -0.0038748935
-0.0039914288 -0.0013304761 0.00079021277
0.025762858 -0.0020561905 -0.0021561703
-0.015360952 0.00254 -0.0024017021
-0.022134285 -0.001572381 -0.0024017021
-0.00084666669 0.00254 -0.00068297872
0.012941905 0.001572381 -0.00019191489
-0.011006666 -0.00254 -0.00068297872
0.0090714283 -0.0013304761 -0.005593617
-0.019715238 -0.00254 -0.0014195745
-0.0073780953 0.0013304761 -0.0024017021
0.012458095 -0.00084666669 -0.00019191489
0.0068942858 0.0018142858 -0.0024017021
-0.018505715 0.0022980953 -0.0024017021
-0.0088295238 0.00084666669 5.3617023e-05
0.01318381 -0.00254 -0.0014195745
0.0010885714 -0.0022980953 -0.00019191489
0.01318381 0.00084666669 -0.00019191489
0.021650476 0.00084666669 -0.0026472341
-0.021408571 0.0010885714 -0.0063302126
0.019715238 -0.00084666669 -0.0024017021
-0.0010885714 -0.0013304761 0.00029914893
0.0037495238 0.00084666669 -0.0068212766
-0.0064104763 -0.0010885714 -0.0048570214
-0.01778 0.00254 -0.0011740426
0.010280953 -0.00254 -0.00043744681
0.012458095 0.00254 -0.0014195745
-0.014151429 0.001572381 -0.0026472341
-0.014151429 -0.001572381 0.0010357447
-0.0090714283 -0.0013304761 -0.0036293617
0.021408571 0.00036285713 -0.00043744681
0.020682856 -0.0018142858 -0.00019191489
0.026246667 -0.00254 -0.00092851062
-0.010280953 0.001572381 -0.00019191489
0.011732381 -0.00036285713 -0.0024017021
-0.024311429 0.0013304761 -0.0080489358
-0.013667619 -0.0013304761 -0.0033838297
-0.011732381 -0.00036285713 -0.0024017021
-0.0090714283 -0.0018142858 -0.0024017021
0.0085876193 -0.00060476188 -0.0024017021
0.0059266668 0.00254 -0.0011740426
-0.021892382 -0.001572381 -0.006084681
-0.025279047 0.0018142858 -0.0024017021
0.019231429 0.001572381 -0.0031382979
-0.022376191 0.0013304761 -0.00019191489
-0.0032657143 -0.0018142858 -0.00043744681
-0.0054428573 0.001572381 -0.0024017021
-0.00060476194 0.0018142858 -0.00019191489
-0.021892382 -0.001572381 -0.0075578722
-0.021408571 0.0013304761 -0.0036293617
-0.016086666 -0.001572381 5.3617023e-05
0.0090714283 -0.00084666669 -0.0043659573
0.0073780953 0.00254 -0.0014195745
-0.024069523 -0.00254 -0.00019191489
-0.027698096 0.0020561905 -0.0021561703
-0.02382762 -0.0010885714 -0.0033838297
-0.0030238095 0.0018142858 -0.0024017021
-0.011732381 0.0013304761 0.00079021277
-0.019231429 -0.0013304761 0.0012812766
-0.011248572 -0.001572381 0.0022634042
0.016328571 -0.00254 -0.0011740426
0.015119048 0.00084666669 -0.0024017021
-0.026972381 -0.0013304761 -0.0028927659
-0.019231429 -0.0010885714 -0.0033838297
-0.011248572 0.0010885714 0.0012812766
-0.013667619 0.00084666669 -0.0024017021
-0.024311429 -0.001572381 -0.005348085
-0.019231429 0.001572381 0.0015268085
-0.01681238 0.0010885714 -0.0063302126
-0.024069523 0.0022980953 -0.00019191489
-0.0088295238 -0.00254 -0.00043744681
-0.0013304763 0.0010885714 -0.0078034042
0.0093133338 0.00254 -0.0019106383
0.023343809 0.0013304761 -0.0024017021
-0.0061685713 0.0010885714 5.3617023e-05
0.003507619 0.0013304761 0.0017723404
0.0061685713 -0.0010885714 -0.0051025534
-0.00254 -0.00012095238 -0.00068297872
-0.016570477 -0.00084666669 -0.0026472341
0.0039914288 -0.00084666669 -0.0033838297
0.018747618 -0.0018142858 -0.00019191489
0.016086666 0.0022980953 -0.00019191489
0.021892382 0.001572381 -0.0036293617
-0.013667619 -0.0020561905 -0.00019191489
-0.0052009523 -0.0013304761 -0.0024017021
0.02382762 -0.00060476188 -0.0024017021
0.0066523808 -0.0020561905 -0.0024017021
0.026730476 -0.0020561905 -0.0021561703
-0.014151429 0.0018142858 -0.0024017021
-0.011248572 0.0010885714 0.0020178724
-0.02745619 -0.00254 -0.00068297872
-0.018989524 -0.00084666669 -0.0041204253
-0.0020561905 0.0022980953 -0.00019191489
-0.024553334 0.00060476188 -0.0024017021
-0.0085876193 -0.00060476188 -0.0024017021
-0.024311429 -0.00254 -0.00068297872
0.02382762 -0.0013304761 0.0015268085
0.016328571 0.0010885714 -0.0051025534
-0.027214287 0.0022980953 -0.0021561703
-0.017296191 0.00036285713 -0.00043744681
-0.0064104763 -0.001572381 -0.00019191489
0.024069523 -0.0010885714 0.0015268085
0.010522857 -0.00084666669 -0.00019191489
0.015602857 -0.00036285713 -0.0024017021
0.0088295238 -0.001572381 -0.0026472341
0.001572381 -0.00084666669 0.00054468086
0.012458095 0.0010885714 -0.0024017021
-0.0039914288 -0.0010885714 -0.0065757446
0.018989524 0.0018142858 5.3617023e-05
0.025762858 -0.0010885714 -0.00019191489
-0.0088295238 0.00084666669 -0.0038748935
0.013909524 -0.0010885714 -0.0028927659
0.011974286 -0.00254 -0.0014195745
-0.025279047 -0.00084666669 -0.0024017021
-0.00036285716 -0.00254 -0.00068297872
-0.018747618 -0.0013304761 -0.006084681
0.0066523808 -0.0010885714 -0.005593617
0.02382762 0.00254 -0.0024017021
0.010764762 0.00060476188 -0.00068297872
-0.014151429 0.0010885714 -0.00019191489
0.027214287 0.00254 -0.0011740426
-0.026488572 0.0010885714 -0.0048570214
0.017296191 -0.00254 -0.0011740426
-0.021408571 -0.00254 -0.0024017021
-0.0090714283 -0.001572381 -0.005839149
-0.0097971428 -0.00012095238 -0.0024017021
-0.015602857 0.0010885714 -0.0024017021
-0.0064104763 -0.0013304761 -0.0065757446
0.024069523 0.00084666669 -0.0043659573
0.014877143 0.00254 -0.0024017021
-0.01681238 0.0020561905 -0.0024017021
-0.020682856 0.00012095238 -0.0024017021
-0.027698096 0.0018142858 -0.0024017021
0.0061685713 0.00084666669 -0.0026472341
0.014151429 -0.001572381 0.0022634042
0.026730476 0.00084666669 -0.0038748935
-0.0013304763 -0.001572381 -0.0046114894
-0.025037143 0.00254 -0.0021561703
-0.0071361908 -0.00254 -0.0014195745
0.0013304763 -0.0010885714 0.0025089362
0.019957144 0.00254 -0.0021561703
0.026730476 0.001572381 -0.0026472341
0.015360952 0.00254 -0.0019106383
0.0088295238 0.001572381 -0.0075578722
0.0071361908 0.00012095238 -0.00068297872
0.022618096 0.00254 -0.00043744681
0.015360952 -0.00060476188 -0.0024017021
0.014877143 -0.00254 -0.0021561703
-0.0047171428 -0.00254 -0.00019191489
0.01778 0.0020561905 -0.0024017021
-0.016328571 0.0010885714 0.0025089362
0.016570477 -0.00084666669 -0.00019191489
0.016328571 -0.0013304761 0.0020178724
-0.0037495238 -0.001572381 -0.0036293617
-0.021892382 -0.001572381 -0.0038748935
0.011248572 -0.001572381 0.0012812766
-0.020199047 0.00084666669 -0.0024017021
0.0066523808 0.0010885714 -0.0073123402
0.024795238 -0.00254 -0.0019106383
0.023585714 -0.0022980953 -0.0024017021
-0.022618096 -0.00084666669 -0.0024017021
0.025279047 0.0022980953 -0.0024017021
-0.0064104763 0.001572381 0.00079021277
0.0085876193 0.0010885714 -0.0026472341
0.010764762 -0.0020561905 -0.00019191489
-0.011006666 0.0018142858 -0.0024017021
-0.021408571 0.00254 -0.0019106383
-0.0054428573 -0.0022980953 -0.00019191489
0.0037495238 -0.0010885714 -0.0033838297
0.0088295238 -0.00084666669 0.0010357447
0.026488572 0.001572381 -0.005348085
0.001572381 -0.00084666669 -0.0063302126
-0.018747618 -0.0013304761 -0.0073123402
-0.0052009523 -0.0018142858 -0.0024017021
-0.00254 -0.00254 -0.0021561703
-0.0090714283 0.001572381 -0.005348085
-0.0064104763 -0.0018142858 -0.00043744681
0.0090714283 -0.0013304761 0.0022634042
0.0018142858 0.0018142858 -0.00019191489
0.027939999 0.00084666669 -0.00019191489
-0.011248572 0.0010885714 -0.00043744681
0.0039914288 0.0013304761 -0.0075578722
-0.01681238 -0.0013304761 -0.0070668086
-0.00254 -0.00060476188 -0.0024017021
-0.0085876193 0.00254 -0.0011740426
0.0042333333 0.001572381 -0.0024017021
0.0088295238 -0.0010885714 -0.0065757446
0.027698096 0.00012095238 -0.00043744681
0.016328571 -0.001572381 -0.0048570214
-0.021166667 0.00036285713 -0.0024017021
-0.0037495238 0.00084666669 -0.00043744681
-0.0010885714 -0.001572381 5.3617023e-05
0.018747618 0.00254 -0.0024017021
-0.016570477 0.0013304761 -0.0070668086
-0.0088295238 0.001572381 -0.0063302126
0.026730476 -0.0010885714 -0.0070668086
-0.025279047 0.00254 -0.00019191489
0.014877143 0.00060476188 -0.00068297872
0.0088295238 0.001572381 0.00029914893
0.0090714283 0.0010885714 -0.005593617
0.00060476194 -0.00254 -0.00019191489
0.011248572 0.0010885714 -0.0028927659
-0.010522857 0.0018142858 -0.00019191489
0.016570477 -0.00036285713 -0.00043744681
0.020440953 0.00060476188 -0.0024017021
0.01778 0.0010885714 -0.00019191489
0.0071361908 -0.00084666669 -0.00043744681
0.026972381 0.001572381 -0.0028927659
-0.026730476 0.001572381 -0.0031382979
-0.011006666 -0.00254 -0.0021561703
0.026972381 -0.0010885714 0.00054468086
-0.021650476 -0.001572381 -0.0068212766
-0.026730476 0.0013304761 0.0012812766
-0.0071361908 0.0013304761 -0.0024017021
-0.013909524 0.0013304761 -0.0068212766
0.010522857 -0.0013304761 -0.0024017021
-0.011974286 -0.0010885714 -0.00019191489
-0.02382762 -0.001572381 0.0010357447
-0.012216191 -0.001572381 -0.0024017021
-0.015602857 0.0018142858 -0.0024017021
0.021408571 -0.0013304761 0.0015268085
0.0037495238 -0.0013304761 -0.006084681
-0.003507619 -0.0010885714 -0.0078034042
-0.0085876193 -0.00254 -0.00068297872
0.0030238095 -0.00254 -0.0019106383
-0.0039914288 -0.00036285713 -0.0024017021
-0.026730476 0.0013304761 0.0022634042
0.011732381 0.0010885714 0.0017723404
-0.022618096 -0.0018142858 -0.0024017021
0.0066523808 -0.0010885714 -0.0046114894
-0.0037495238 0.001572381 -0.0051025534
-0.003507619 0.0013304761 -0.00019191489
-0.0044752383 -0.00012095238 -0.0024017021
0.014151429 0.0020561905 -0.00019191489
0.0049590478 0.0013304761 -0.0024017021
0.00012095238 0.001572381 -0.00019191489
-0.001572381 0.0010885714 -0.0073123402
-0.0039914288 -0.0010885714 -0.0068212766
-0.013909524 0.001572381 0.00029914893
0.027214287 0.00084666669 -0.00019191489
-0.017296191 0.0018142858 -0.00019191489
-0.0095552383 0.00254 -0.00043744681
0.0090714283 -0.00084666669 -0.0033838297
0.015602857 0.0018142858 -0.0024017021
-0.019231429 0.0010885714 -0.0070668086
-0.024311429 -0.0013304761 -0.0041204253
0.0090714283 0.00084666669 -0.0051025534
-0.020682856 -0.0018142858 -0.0024017021
0.024069523 -0.0010885714 -0.005839149
0.026246667 -0.0010885714 -0.0024017021
0.02382762 -0.0010885714 -0.0046114894
-0.026730476 -0.001572381 -0.0068212766
