# .PCD v0.7 - Point Cloud Data file format
VERSION 0.7
FIELDS x y z
SIZE 4 4 4
TYPE F F F
COUNT 1 1 1
WIDTH 1187
HEIGHT 1
VIEWPOINT 0 0 0 1 0 0 0
POINTS 1187
DATA ascii
-0.0032484352 -6.9354835e-05 -0.0049406895
-0.0061512925 0.0031209677 -0.001457931
0.0032484352 0.0014564516 -0.0034082758
-0.0078100679 -0.0039532259 -0.00076137925
-0.0094688432 -0.0017338709 -0.00076137925
0.00020734694 0.0039532259 -0.0041048275
0.001174966 -0.0018725806 -0.0049406895
0.0064277546 -0.0039532259 -0.0034082758
-0.0038013605 -0.005617742 -0.00048275857
0.0068424488 0.0031209677 -0.00104
0.00034557821 0.00076290319 -0.0032689655
-0.0015896598 0.002566129 -0.00104
0.0062895236 -0.0018725806 -0.002293793
0.0021425849 -0.005617742 -0.0011793103
0.0068424488 -0.005617742 -0.00048275857
-0.0065659862 -0.0057564517 0.0024427585
-0.0058748298 -0.0049241935 -0.003965517
-0.0097453054 0.0031209677 -0.00104
0.00020734694 0.0060338709 -0.0041048275
0.008224762 0.0050629033 -0.003965517
0.0031102039 -0.0057564517 -0.003965517
-0.0090541495 -0.0050629033 -0.003965517
-0.0067042173 0.00034677418 -0.0048013791
-0.0014514285 0.0036758063 -0.0015972413
-0.0049072108 -0.0039532259 -0.00020413789
0.001727891 -0.005617742 -0.003129655
-0.001174966 -0.0032596774 7.4482792e-05
-0.0026955102 -0.0017338709 -0.0020151723
-0.0067042173 0.00090161286 -0.003547586
-0.0093306117 0.0021500001 -0.001457931
0.0091923811 -0.0046467739 -0.003965517
-0.0061512925 0.0045080646 -0.003547586
-0.00020734694 0.00034677418 -0.00076137925
0.001727891 -0.0021500001 -0.0048013791
0.00034557821 0.0046467739 -0.0041048275
-0.0061512925 -0.0064499998 -0.003547586
0.0097453054 0.0017338709 -0.003965517
-0.0004838095 0.0022887096 -0.0034082758
0.0062895236 -0.0053403224 -0.003547586
0.0031102039 -0.0020112903 -0.0048013791
-0.0036631292 -0.0045080646 -0.0041048275
-0.00034557821 0.0043693548 -0.0041048275
-0.0004838095 -0.005617742 -0.003129655
0.0025572788 0.00034677418 -0.00076137925
0.0033866665 -0.0021500001 -0.00048275857
0.0051836735 0.0045080646 -0.001457931
-0.0044925166 0.0053403224 -0.00104
-0.0010367347 0.0064499998 -0.0038262068
0.001174966 0.0017338709 -0.0041048275
-0.0050454419 0.0053403224 -0.00104
0.00076027209 0.0038145161 -0.0034082758
0.0055983672 -0.0057564517 -0.003965517
-0.0013131972 -0.0040919352 0.00063172419
0.0058748298 0.0039532259 -0.00104
0.0043542855 0.00076290319 -0.00104
-0.0024190475 0.005617742 -0.003547586
0.0096070748 0.0035370968 -0.0013186206
-0.01016 -0.00048548388 -0.0011793103
-0.0051836735 0.0047854837 -0.003965517
-0.0071189115 0.00090161286 -0.00104
-0.0044925166 0.00034677418 -0.00020413789
0.0071189115 -0.002566129 -0.001457931
-0.0093306117 -0.0020112903 -0.00090068963
-0.0067042173 -0.00076290319 -6.4827545e-05
0.0080865305 0.0032596774 -0.003547586
0.0086394558 0.00062419352 -0.0015972413
0.0050454419 -0.0057564517 -0.0024331033
-0.0089159179 0.0021500001 -0.00104
-0.0061512925 0.005617742 -0.001457931
-0.0064277546 -0.0060338709 0.0027213793
-0.0069806799 -0.0061725806 -0.00090068963
-0.0057365983 -0.0064499998 -0.00090068963
-0.0060130609 -0.004230645 -0.0034082758
0.0067042173 0.0015951613 -0.001457931
0.0043542855 -0.005617742 -0.0021544828
-0.0039395918 -0.0061725806 0.0027213793
0.001727891 0.0020112903 -0.0041048275
-0.0083629927 0.0038145161 -0.003965517
0.0004838095 0.00034677418 -0.002293793
0.0083629927 -0.0043693548 -0.003965517
-0.01016 -0.00076290319 -0.0041048275
-0.0015896598 0.0060338709 -0.003965517
-0.0086394558 -0.00020806451 -0.00020413789
6.9115646e-05 0.0061725806 -0.0041048275
0.0042160545 0.0063112904 -0.001457931
-0.010021769 -0.0018725806 -0.003547586
0.01016 0.00062419352 -0.003965517
0.0013131972 0.0050629033 -0.0015972413
0.0061512925 0.0049241935 -0.00104
-0.0013131972 0.0015951613 -0.0041048275
-0.0038013605 -0.0064499998 0.00021379314
-0.0042160545 -0.00020806451 -0.0049406895
0.0047689793 0.0031209677 -0.0034082758
-0.0091923811 -0.0058951611 0.00091034482
-0.0025572788 -0.005617742 -0.002293793
0.0055983672 -0.0015951613 -0.0048013791
-0.0085012242 -0.0020112903 -0.0034082758
0.0043542855 -0.0031209677 -0.00076137925
-0.0094688432 -0.0031209677 -0.00062206894
0.0053219046 0.00090161286 -0.004244138
0.0050454419 -0.0031209677 -0.00090068963
-0.0058748298 -0.0017338709 -0.0029903448
-0.0067042173 0.0049241935 -0.001457931
-0.0057365983 -0.0031209677 -0.00076137925
-0.0038013605 0.0043693548 -0.00104
-0.0033866665 0.003398387 -0.00104
-0.0025572788 0.0039532259 -0.0041048275
-0.0068424488 0.0057564517 -0.003547586
-0.0096070748 -0.0021500001 -0.004662069
-0.0049072108 0.004230645 -0.0041048275
-0.0033866665 0.0036758063 -0.0034082758
-0.0078100679 -0.003398387 -6.4827545e-05
-0.0039395918 -0.0039532259 0.0017462069
0.0068424488 0.0027048388 -0.003965517
-0.0071189115 0.0014564516 -0.001457931
-0.0039395918 -0.0032596774 0.002164138
0.0044925166 -0.0013177419 -0.0049406895
-0.0039395918 0.0058951611 -0.00104
-0.0057365983 -0.0027048388 -0.0041048275
-0.0018661224 0.0063112904 -0.0036868965
0.0073953737 0.0013177419 -0.001457931
0.0060130609 -0.0027048388 -0.00104
-0.0075336052 -0.005617742 -0.003965517
-0.0090541495 -0.0032596774 -0.001457931
-0.0020043536 0.0015951613 -0.0034082758
0.0061512925 0.0035370968 -0.00104
-0.008224762 0.0022887096 -0.00104
0.01016 0.00076290319 -0.00104
-0.0090541495 -0.00076290319 -6.4827545e-05
-0.0093306117 0.0050629033 -0.00104
-0.0094688432 -0.0017338709 -0.003129655
0.0091923811 -0.0061725806 0.0020248275
0.0049072108 0.00090161286 -0.0034082758
-0.0050454419 0.0038145161 -0.003547586
-0.0064277546 -0.0049241935 -0.003965517
-0.0064277546 -0.0064499998 -0.0013186206
-0.0058748298 0.0029822581 -0.003547586
-0.0046307482 0.00034677418 -0.001875862
-0.0035248979 -0.0057564517 -0.0028510345
-0.0086394558 -0.0058951611 -0.0032689655
-0.0086394558 -0.0058951611 0.00021379314
0.0055983672 0.0028435483 -0.003547586
-0.0071189115 0.00034677418 -0.0045227585
0.0051836735 -0.0064499998 -0.0011793103
-0.0061512925 0.004230645 -0.00104
0.0067042173 0.0054790322 -0.001457931
0.0076718363 0.0024274194 -0.00104
-0.0024190475 0.0035370968 -0.0034082758
0.009883537 0.00062419352 -0.0041048275
-0.0091923811 0.0014564516 -0.003965517
-0.0065659862 0.0054790322 -0.003547586
-0.0014514285 -0.0057564517 0.0020248275
0.0061512925 -0.0064499998 0.0016068965
0.0062895236 0.00048548388 -0.0034082758
0.0038013605 -0.005617742 0.0016068965
0.0071189115 0.0029822581 -0.001457931
0.0071189115 -0.0057564517 -0.0029903448
0.0013131972 0.0053403224 -0.0034082758
-0.0051836735 -0.0064499998 -0.00020413789
-0.00062204077 0.00076290319 -0.00104
0.0090541495 -0.0032596774 -0.0034082758
-0.0036631292 -0.0028435483 -0.0015972413
0.0060130609 0.0053403224 -0.00104
-0.0043542855 -0.0032596774 -0.0041048275
0.0040778229 0.0047854837 -0.00104
-0.0089159179 -0.0064499998 -0.0024331033
0.0055983672 -0.0058951611 -0.0034082758
0.0038013605 -0.0018725806 -0.0020151723
0.0047689793 -0.0011790323 -6.4827545e-05
-0.0040778229 0.0027048388 -0.0015972413
0.0050454419 -0.0021500001 -0.004244138
-0.0049072108 -0.0022887096 -0.0041048275
0.0067042173 -0.0039532259 -0.0034082758
-0.0097453054 -0.0039532259 -0.0038262068
-0.0072571426 0.0022887096 -0.003965517
0.0044925166 0.00034677418 -0.00034344822
-0.0014514285 -0.00020806451 -0.0049406895
0.0068424488 -0.0057564517 -6.4827545e-05
-0.0058748298 0.0040919352 -0.00104
-0.0026955102 0.00090161286 -0.0015972413
0.0039395918 0.00034677418 -0.00076137925
-0.0024190475 0.0024274194 -0.0015972413
-0.0085012242 0.00034677418 -0.0017365516
0.0044925166 -0.00090161286 -0.0049406895
-0.00062204077 -0.0029822581 -0.0015972413
0.0004838095 -0.0064499998 -0.003129655
-0.0079482989 0.0035370968 -0.003547586
0.0071189115 0.00034677418 -0.0020151723
-0.01016 -0.0013177419 -0.0041048275
0.0054601356 0.00034677418 -0.0029903448
0.0038013605 0.0018725806 -0.00104
0.0058748298 0.0014564516 -0.00104
-0.0015896598 0.0011790323 -0.0032689655
0.0046307482 0.0063112904 -0.001457931
-0.0093306117 -0.00076290319 -0.00020413789
0.0022808162 0.0040919352 -0.0034082758
0.0060130609 -0.0045080646 -0.003965517
-0.0069806799 0.0047854837 -0.00104
-0.0076718363 0.0049241935 -0.001457931
0.0051836735 -0.0015951613 -0.0048013791
0.0042160545 -0.0022887096 -0.0015972413
-0.0067042173 -0.0063112904 -0.0029903448
0.0018661224 6.9354835e-05 -0.0049406895
-0.0079482989 -0.0018725806 -0.002711724
-0.0086394558 0.0049241935 -0.001457931
0.0094688432 -0.0020112903 -0.004662069
-0.0058748298 0.0020112903 -0.001457931
-0.0051836735 -0.0036758063 -0.0011793103
-0.0067042173 -0.003398387 -0.003965517
0.001174966 0.0022887096 -0.0041048275
0.0029719726 0.0049241935 -0.0034082758
0.0047689793 -0.0021500001 -0.0015972413
0.0038013605 -0.0057564517 -0.0025724138
0.0087776864 -0.0039532259 0.0010496551
-0.0036631292 -0.004230645 -0.0041048275
-0.0021425849 0.0054790322 -0.003547586
-0.0010367347 0.0045080646 -0.00104
0.0029719726 -0.0018725806 -0.0028510345
0.0057365983 -0.0039532259 -0.00076137925
0.0086394558 -0.0032596774 -0.00062206894
-0.0060130609 0.0036758063 -0.001457931
0.0078100679 -0.00062419352 -6.4827545e-05
-0.0080865305 -0.0064499998 -0.003547586
-0.0022808162 0.0045080646 -0.00104
-0.0068424488 -0.0021500001 -0.0015972413
0.0094688432 0.0047854837 -0.001457931
-0.0029719726 0.0046467739 -0.0015972413
0.0054601356 6.9354835e-05 -0.0049406895
0.0021425849 -0.0021500001 -0.00034344822
0.00034557821 0.0039532259 -0.0041048275
-0.0073953737 -0.0060338709 -0.003547586
0.0086394558 -0.0031209677 -0.003965517
-0.0028337415 0.0063112904 -0.003965517
-6.9115646e-05 0.0038145161 -0.0034082758
-0.010021769 -0.00020806451 -0.002711724
-0.0043542855 -0.0032596774 -0.001457931
-0.0046307482 -0.0029822581 -0.00104
-0.0039395918 -0.0020112903 -0.00062206894
0.0049072108 0.0050629033 -0.003547586
-0.0031102039 -0.0031209677 -0.0015972413
-0.0049072108 -0.0039532259 -0.00090068963
0.0029719726 0.004230645 -0.0034082758
0.0097453054 -0.0015951613 -0.003129655
0.01016 -6.9354835e-05 -0.003547586
0.0035248979 -0.0029822581 -0.0034082758
-0.0073953737 0.002566129 -0.003547586
0.0062895236 -0.0057564517 0.002164138
-0.0060130609 -0.0060338709 0.0018855173
-0.0020043536 -0.00076290319 -0.0049406895
-0.0015896598 0.0054790322 -0.0034082758
-0.00020734694 -0.0038145161 -0.00020413789
0.0035248979 -0.0064499998 -0.0034082758
-0.0018661224 0.0045080646 -0.00104
0.00089850335 -6.9354835e-05 -6.4827545e-05
-0.0090541495 0.0050629033 -0.001457931
0.0071189115 -0.0031209677 -0.00020413789
0.0004838095 0.00076290319 -0.004244138
-0.001727891 0.0038145161 -0.0034082758
-0.0025572788 -0.0064499998 -0.0021544828
0.0094688432 6.9354835e-05 -0.0049406895
-0.0062895236 0.00034677418 -0.0045227585
-0.0010367347 -0.0040919352 0.0010496551
-0.0044925166 0.0061725806 -0.003965517
-0.0020043536 -0.0040919352 -0.00048275857
-0.0069806799 -0.0029822581 -0.001457931
0.0068424488 -0.0031209677 -0.00034344822
0.00062204077 0.00034677418 -0.004662069
0.00089850335 -0.003398387 -0.0041048275
-0.0039395918 0.0050629033 -0.00104
0.0083629927 -0.0028435483 -0.003965517
-0.0097453054 -0.00048548388 -0.0048013791
0.0049072108 0.0057564517 -0.003965517
-0.00062204077 -0.0064499998 -0.0024331033
0.0062895236 -0.0057564517 0.0018855173
0.0051836735 0.0058951611 -0.001457931
-0.0015896598 -0.0049241935 -0.0041048275
0.0010367347 -0.0027048388 -0.0041048275
-0.0020043536 0.0027048388 -0.0015972413
0.00076027209 -0.0021500001 -0.0049406895
-0.010021769 0.0011790323 -0.0013186206
-0.00089850335 -0.0017338709 -0.001875862
-0.0097453054 -6.9354835e-05 -0.0048013791
0.0042160545 0.0036758063 -0.0041048275
-0.0055983672 -0.0018725806 -6.4827545e-05
0.008224762 -0.0020112903 -0.0041048275
-0.0073953737 0.0022887096 -0.003547586
-0.008224762 -0.00020806451 -0.0048013791
0.0010367347 -0.003398387 0.0011889655
0.00020734694 0.0020112903 -0.0015972413
0.0089159179 0.0049241935 -0.003965517
0.0029719726 0.00034677418 -0.004383448
-0.0055983672 -0.0064499998 -0.00020413789
-0.0057365983 0.0011790323 -0.0041048275
-0.0042160545 0.00090161286 -0.0041048275
-0.0085012242 0.0064499998 -0.0011793103
0.0033866665 -0.0057564517 -6.4827545e-05
-0.0013131972 -6.9354835e-05 -6.4827545e-05
-0.0029719726 -0.0020112903 -0.0032689655
-0.01016 -0.0011790323 -0.0038262068
-0.0038013605 -0.005617742 -0.00062206894
0.00020734694 0.0058951611 -0.0041048275
0.0061512925 -0.0036758063 0.00091034482
0.0039395918 -0.005617742 -0.003129655
-0.00034557821 -0.0064499998 -0.003547586
0.0071189115 -0.0039532259 -0.00090068963
-0.0031102039 -0.0013177419 -0.0049406895
0.008224762 0.0058951611 -0.003965517
-0.0060130609 0.0046467739 -0.003547586
-0.0090541495 0.00034677418 -0.0025724138
-0.0060130609 -0.0039532259 -0.00090068963
-0.0075336052 0.0020112903 -0.00104
-0.0072571426 0.0045080646 -0.003547586
0.010021769 0.00090161286 -0.003547586
-0.0039395918 -0.0039532259 0.0024427585
-0.0069806799 -0.0017338709 -0.0029903448
-0.0083629927 0.0060338709 -0.003965517
0.0035248979 -0.0060338709 0.0017462069
0.0058748298 0.0045080646 -0.003965517
0.0015896598 -0.0018725806 -0.0024331033
-0.0053219046 0.00034677418 -0.0025724138
0.0028337415 0.0029822581 -0.0034082758
-0.0057365983 0.0057564517 -0.00104
-0.0029719726 0.0039532259 -0.00104
0.001174966 -0.0036758063 -0.0011793103
-0.0089159179 -0.0063112904 0.0027213793
-0.00034557821 -0.0015951613 -6.4827545e-05
0.0038013605 0.0049241935 -0.00104
0.0040778229 -0.0061725806 0.0023034483
-0.0075336052 -0.0039532259 -0.00104
-0.0026955102 0.00076290319 -0.0015972413
0.0039395918 -0.002566129 -0.00104
-0.00062204077 0.0064499998 -0.0036868965
-0.0010367347 -0.0013177419 -6.4827545e-05
-0.0010367347 -0.0021500001 -0.00034344822
-0.0065659862 0.0029822581 -0.003547586
0.0058748298 0.00034677418 -0.00062206894
0.0040778229 0.00048548388 -0.00104
-0.00089850335 0.0011790323 -0.00104
0.0013131972 -0.005617742 -6.4827545e-05
-0.0094688432 0.00076290319 -0.0041048275
-0.0058748298 -0.0057564517 -6.4827545e-05
-0.00062204077 0.0038145161 -0.0034082758
0.0078100679 -0.0020112903 -0.004383448
-0.0069806799 0.00034677418 -0.0025724138
0.0047689793 -0.0063112904 -6.4827545e-05
-0.0073953737 0.00020806451 -0.00020413789
-0.0021425849 0.0045080646 -0.0015972413
0.0043542855 -0.0031209677 -0.00090068963
0.0032484352 0.0028435483 -0.0041048275
0.0050454419 0.0013177419 -0.0034082758
-0.0035248979 -0.0040919352 -0.00034344822
-0.0040778229 0.0043693548 -0.00104
-0.0058748298 0.0047854837 -0.003965517
-0.0051836735 6.9354835e-05 -0.00020413789
0.0039395918 -0.004230645 -0.0034082758
-0.0038013605 -0.00020806451 -0.0049406895
0.0025572788 0.0017338709 -0.0015972413
-0.0043542855 -0.00062419352 -0.0049406895
0.0053219046 0.00034677418 -0.0029903448
-0.0072571426 0.00090161286 -0.004244138
0.00076027209 0.0043693548 -0.0041048275
-0.0047689793 -0.0040919352 -0.0032689655
-0.0085012242 0.0028435483 -0.00104
0.0021425849 -0.0036758063 -0.0011793103
0.0062895236 -0.0064499998 0.00035310347
0.0087776864 -0.0021500001 -0.004383448
0.0061512925 -0.00090161286 -6.4827545e-05
-0.0091923811 -0.0060338709 -0.002293793
0.0042160545 -0.0020112903 -0.00090068963
0.0097453054 0.0011790323 -0.00104
0.0073953737 -0.0021500001 -0.00062206894
0.0079482989 -0.0038145161 -0.003965517
-0.0090541495 0.00048548388 -0.004383448
0.0046307482 0.00020806451 -6.4827545e-05
-0.00062204077 -0.0045080646 -0.0032689655
-0.010021769 -6.9354835e-05 -0.00048275857
0.0061512925 -0.0031209677 -0.00048275857
0.0031102039 0.00034677418 -0.001875862
0.00034557821 -0.005617742 -0.0017365516
0.0078100679 -0.0031209677 -0.00048275857
-0.0060130609 -0.0031209677 -0.00062206894
0.0083629927 0.0046467739 -0.003547586
-0.0055983672 -0.0020112903 -0.004244138
-0.00034557821 0.0014564516 -0.00104
0.0038013605 -0.0022887096 -0.0015972413
0.0042160545 0.0053403224 -0.00104
-0.0086394558 -0.0039532259 -0.0034082758
0.0080865305 -0.005617742 -0.003965517
-0.0078100679 0.002566129 -0.001457931
-0.00020734694 0.0015951613 -0.0041048275
-0.001174966 0.003398387 -0.00104
-0.00062204077 -0.0060338709 -0.003965517
0.0010367347 0.0046467739 -0.0041048275
-0.0087776864 -0.0058951611 -0.0028510345
-0.0038013605 -0.005617742 -0.0025724138
-0.0051836735 0.0036758063 -0.00104
0.0071189115 -0.0018725806 -6.4827545e-05
-0.0069806799 0.0058951611 -0.001457931
-0.001174966 0.00076290319 -0.0032689655
-0.0024190475 0.0010403226 -0.0032689655
0.0094688432 0.0010403226 -0.003547586
-0.0018661224 0.0040919352 -0.0034082758
-0.009883537 0.00034677418 -0.0029903448
-0.0065659862 -0.0036758063 0.00035310347
0.0026955102 -0.00076290319 -6.4827545e-05
0.0010367347 -0.0021500001 -0.00104
0.0004838095 0.00090161286 -0.0032689655
0.0055983672 -0.0064499998 -0.00062206894
0.0043542855 -0.005617742 -0.00104
0.0076718363 -0.0018725806 -0.0029903448
0.0013131972 0.0035370968 -0.0041048275
-0.0010367347 0.003398387 -0.004244138
0.0054601356 0.0031209677 -0.00104
0.0021425849 -0.0035370968 -0.0034082758
0.0010367347 -0.0032596774 -0.0034082758
0.0087776864 -0.00076290319 -0.0049406895
-0.0014514285 -0.0011790323 -0.0049406895
-0.0065659862 0.0024274194 -0.001457931
-0.00020734694 -0.0053403224 -0.0032689655
0.0094688432 -0.0015951613 -0.003129655
-0.0053219046 -0.0047854837 -0.003547586
0.0038013605 0.00034677418 -0.0029903448
-0.0072571426 0.0020112903 -0.003965517
-0.008224762 0.002566129 -0.003547586
0.0022808162 0.0011790323 -0.0015972413
-0.0050454419 0.0022887096 -0.0034082758
-0.0015896598 -0.0021500001 -0.004662069
-0.0071189115 -0.0027048388 -0.00104
-0.0080865305 0.0040919352 -0.003547586
0.0014514285 -0.0064499998 -6.4827545e-05
-0.0062895236 0.00034677418 -0.00048275857
0.0061512925 -0.0036758063 0.002164138
0.0089159179 0.0032596774 -0.00104
-0.0032484352 0.0018725806 -0.0041048275
0.0091923811 -0.0046467739 -0.0034082758
0.001174966 0.0031209677 -0.00104
0.0053219046 -0.0021500001 -0.0048013791
-0.0049072108 -0.0064499998 -0.00020413789
-0.0067042173 -0.002566129 -0.001457931
0.00089850335 0.0018725806 -0.0015972413
-0.0044925166 0.0040919352 -0.003547586
-0.0043542855 0.0027048388 -0.0034082758
-6.9115646e-05 -0.0028435483 -0.00104
-0.0054601356 -0.0061725806 -0.0013186206
0.0025572788 -0.0032596774 -0.0034082758
-0.0015896598 0.00034677418 -0.0028510345
-0.00076027209 -0.0017338709 -0.0029903448
0.0010367347 0.0047854837 -0.0034082758
-0.0076718363 0.0020112903 -0.00104
0.0032484352 0.00034677418 -0.00034344822
-0.0029719726 0.0022887096 -0.0015972413
0.001174966 0.0064499998 -0.003965517
-0.0029719726 -0.0038145161 -0.00104
0.0028337415 0.00034677418 -0.001875862
-0.001727891 -0.0011790323 -0.0049406895
-0.0054601356 -0.0032596774 -0.001457931
-0.00076027209 0.0013177419 -0.00104
0.0067042173 -0.00076290319 -0.0049406895
-0.001174966 0.00034677418 -0.0049406895
-0.0024190475 0.0027048388 -0.00104
-0.01016 -0.00090161286 -0.0017365516
0.0032484352 0.0028435483 -0.0034082758
-0.0093306117 0.0028435483 -0.003547586
0.0087776864 0.0013177419 -0.003965517
-0.0018661224 -0.004230645 -0.0034082758
-0.0069806799 -0.0018725806 -0.002711724
0.0046307482 -0.005617742 -0.00104
-0.0025572788 -0.0064499998 -0.0036868965
0.0075336052 0.0036758063 -0.00104
-0.0032484352 0.0022887096 -0.0034082758
-0.00089850335 0.005617742 -0.00104
0.0072571426 0.0052016126 -0.003965517
-0.0046307482 0.00034677418 -0.002711724
-0.0065659862 -0.0035370968 0.0024427585
-0.010021769 -0.0010403226 -0.00076137925
-0.0010367347 -0.0029822581 -0.0041048275
-0.0080865305 0.0029822581 -0.001457931
-0.0075336052 0.00034677418 -0.00020413789
-0.0025572788 -0.005617742 -0.00076137925
-0.00020734694 -0.0053403224 -0.003965517
-0.0020043536 -0.0064499998 -0.003547586
0.0047689793 0.0058951611 -0.003965517
0.0035248979 -0.003398387 7.4482792e-05
-0.0060130609 0.0038145161 -0.001457931
0.0083629927 -0.0014564516 -0.0048013791
0.0022808162 0.0031209677 -0.00104
-0.00034557821 -0.0018725806 -0.0015972413
-0.0085012242 0.0021500001 -0.001457931
0.001174966 0.002566129 -0.0034082758
0.0093306117 -0.005617742 -0.0036868965
0.0079482989 0.002566129 -0.001457931
0.0068424488 0.0021500001 -0.0034082758
-0.0071189115 -0.00076290319 -0.0049406895
0.00062204077 -0.0032596774 -0.0034082758
-0.0043542855 -0.0024274194 -0.0032689655
0.0049072108 -0.005617742 -0.0013186206
0.00034557821 -0.005617742 -0.00076137925
0.0042160545 -0.003398387 -0.0041048275
0.0047689793 -0.0046467739 -0.003965517
-0.0067042173 0.0039532259 -0.00104
0.00034557821 0.0060338709 -0.0015972413
0.008224762 0.00076290319 -0.004383448
0.00034557821 -0.0032596774 -0.0015972413
0.0085012242 -0.0060338709 -0.00076137925
-0.0031102039 -0.0021500001 -0.00048275857
-0.0093306117 0.0045080646 -0.00104
0.0087776864 0.0011790323 -0.003965517
0.0068424488 -0.0045080646 -0.0034082758
0.0094688432 -0.0031209677 -6.4827545e-05
-0.0072571426 0.0038145161 -0.00104
-0.0064277546 0.0011790323 -0.003547586
-0.0033866665 -0.0014564516 -0.0049406895
0.0043542855 -0.0038145161 -0.0034082758
0.0029719726 -0.0021500001 -0.00034344822
-0.0064277546 -0.005617742 -0.00034344822
0.0013131972 -0.005617742 -0.001875862
-0.0040778229 -0.005617742 -0.0021544828
-0.0014514285 0.0053403224 -0.0015972413
0.0042160545 -0.0064499998 -0.0028510345
-0.0013131972 0.00034677418 -0.00062206894
0.0033866665 -0.0032596774 -0.00076137925
0.0075336052 -0.0039532259 -0.00020413789
-0.0021425849 0.0046467739 -0.0034082758
0.00062204077 -0.0036758063 -6.4827545e-05
-0.0031102039 -0.0022887096 -0.0032689655
-0.0053219046 -0.0020112903 -0.00090068963
0.01016 0.00020806451 -0.0020151723
-0.0032484352 0.0011790323 -0.00104
0.001174966 -0.0021500001 -0.00104
-0.0068424488 0.0035370968 -0.003547586
-0.0060130609 0.00034677418 -0.0020151723
-0.00020734694 0.00090161286 -0.00104
0.0022808162 -0.0018725806 -6.4827545e-05
0.0044925166 -0.00076290319 -0.0049406895
0.0073953737 -0.0039532259 -0.00034344822
0.0072571426 0.0022887096 -0.001457931
0.0091923811 0.00034677418 -0.0045227585
0.0033866665 -0.0038145161 -0.00104
-0.0042160545 0.0028435483 -0.00104
0.0097453054 0.0029822581 -0.001457931
0.0026955102 -0.0039532259 -0.00020413789
0.0086394558 0.00076290319 -0.0015972413
-0.0065659862 -0.0032596774 0.00021379314
-0.0060130609 -0.00062419352 -6.4827545e-05
-0.0013131972 0.0020112903 -0.0015972413
0.0022808162 -0.00062419352 -0.0049406895
0.0090541495 -0.0045080646 -0.003547586
-0.0020043536 0.0020112903 -0.0034082758
-0.0020043536 0.0022887096 -0.0041048275
-0.009883537 -0.0022887096 -0.00048275857
-6.9115646e-05 0.00034677418 -0.00076137925
0.0090541495 0.0039532259 -0.003547586
-0.0093306117 -0.0017338709 -0.001875862
-0.0093306117 -0.0021500001 -0.001457931
0.0076718363 -0.0021500001 -0.00062206894
0.0067042173 0.0015951613 -0.0034082758
0.0071189115 0.002566129 -0.00104
0.0079482989 -0.0028435483 -0.001457931
0.0038013605 -0.0039532259 0.0013282759
-0.0096070748 -0.0017338709 -0.001875862
-0.0094688432 -0.0018725806 -6.4827545e-05
-0.0062895236 -0.0057564517 -0.003965517
-0.0054601356 -0.003398387 -0.001457931
-0.0067042173 -0.0038145161 0.0020248275
-0.01016 -0.00076290319 -0.0029903448
-0.0097453054 -0.0039532259 -0.003547586
-0.0062895236 0.0028435483 -0.001457931
-0.0094688432 -0.0053403224 -0.003547586
-0.0022808162 0.0064499998 -0.0038262068
0.0050454419 -0.005617742 -0.0013186206
0.0049072108 -0.005617742 -0.0024331033
0.0069806799 -0.00034677418 -6.4827545e-05
-0.0038013605 -0.0040919352 0.0020248275
0.0086394558 -0.0021500001 -0.00090068963
0.0010367347 0.0053403224 -0.00104
-0.0039395918 -0.0058951611 0.002582069
0.0055983672 -0.0032596774 -0.0034082758
-0.0065659862 0.0064499998 -0.0038262068
0.0067042173 0.0039532259 -0.00104
0.0042160545 0.002566129 -0.0041048275
-0.001174966 -0.0015951613 -0.0049406895
0.0061512925 -0.005617742 -0.00020413789
0.00089850335 0.0017338709 -0.0015972413
-0.0028337415 -0.0053403224 -0.0041048275
-0.0054601356 -0.005617742 -0.00062206894
-0.0065659862 0.0053403224 -0.001457931
-0.0086394558 0.00076290319 -0.0041048275
-0.0080865305 -0.0021500001 -0.00020413789
-0.0025572788 -0.0039532259 -0.00104
-0.0058748298 0.0018725806 -0.0041048275
-0.0075336052 0.0060338709 -0.00104
-0.0062895236 -0.0061725806 0.0027213793
0.0053219046 -0.005617742 -0.00048275857
0.0032484352 0.0039532259 -0.0015972413
-0.00089850335 0.003398387 -0.0015972413
-0.0018661224 -0.0057564517 -0.003965517
0.0040778229 -0.0038145161 -0.0034082758
-0.0039395918 -0.0032596774 -0.0041048275
-0.0097453054 0.0024274194 -0.003965517
0.0038013605 0.0058951611 -0.003547586
-0.0053219046 -0.0039532259 -0.00020413789
0.0053219046 -0.0057564517 -6.4827545e-05
0.0049072108 0.00090161286 -0.00104
0.0035248979 0.0036758063 -0.0034082758
-0.0038013605 0.00076290319 -0.0032689655
0.0086394558 -0.0040919352 -0.00020413789
0.0047689793 -0.0039532259 -0.00034344822
0.0038013605 0.00076290319 -0.0015972413
0.01016 -0.0014564516 -0.0041048275
-0.0080865305 0.0057564517 -0.003965517
-0.0067042173 0.0058951611 -0.001457931
-0.0022808162 -0.0039532259 -0.00076137925
0.0046307482 -0.0022887096 -0.0034082758
-0.0073953737 -0.0027048388 -0.003547586
-0.0061512925 -0.0035370968 0.0010496551
-0.0053219046 -0.0064499998 -0.00076137925
-0.001174966 0.0013177419 -0.0015972413
-0.0061512925 -0.0032596774 0.0013282759
-0.0062895236 0.005617742 -0.001457931
0.0053219046 -0.0064499998 -0.0017365516
-0.0064277546 0.0021500001 -0.003547586
0.0091923811 -0.0039532259 -0.003965517
0.0021425849 -0.005617742 -0.0024331033
0.00020734694 -0.0036758063 -0.0041048275
-0.0067042173 0.00076290319 -0.00104
0.0089159179 -0.004230645 -0.003965517
-0.0042160545 -0.0058951611 -0.003965517
-0.00089850335 -0.0017338709 -0.0049406895
0.0004838095 0.0046467739 -0.0015972413
0.00020734694 0.0046467739 -0.0015972413
-0.0024190475 -0.0018725806 -0.0048013791
0.0046307482 -0.0024274194 -0.0041048275
0.0033866665 -0.0064499998 -0.0021544828
-0.0086394558 0.00034677418 -0.0048013791
0.01016 -0.00048548388 -0.00062206894
0.0029719726 -0.0039532259 -0.00076137925
0.0075336052 -0.0018725806 -0.0028510345
0.0032484352 0.0061725806 -0.001457931
-0.010021769 -0.00062419352 -0.00090068963
-0.0015896598 0.0017338709 -0.0034082758
-0.00020734694 -0.0064499998 -0.0011793103
0.0042160545 -0.0036758063 0.00021379314
-0.0085012242 -0.002566129 -0.003547586
-0.0050454419 0.0063112904 -0.003965517
0.0033866665 -0.0057564517 -0.003965517
0.0044925166 -0.0031209677 -0.00034344822
-0.0058748298 0.0027048388 -0.003547586
-6.9115646e-05 0.00034677418 -0.00034344822
0.0089159179 -0.003398387 0.00077103451
-0.0043542855 0.0021500001 -0.00104
0.0086394558 -0.0035370968 -0.001457931
-0.0055983672 0.0061725806 -0.003965517
-0.00062204077 0.0029822581 -0.0041048275
0.0071189115 0.0011790323 -0.00104
-0.0078100679 -0.004230645 -0.003547586
0.00062204077 -0.0036758063 -0.0011793103
-0.0053219046 0.0021500001 -0.0041048275
-0.0033866665 -0.0046467739 -0.0034082758
-0.0035248979 0.0032596774 -0.0034082758
0.0051836735 0.00048548388 -0.0034082758
0.0087776864 -0.0017338709 -0.0015972413
-0.0026955102 -0.0064499998 -0.002293793
0.0020043536 -0.0039532259 -0.0034082758
-0.0014514285 -0.0032596774 -0.0041048275
-0.0089159179 0.0032596774 -0.003547586
-6.9115646e-05 -0.002566129 -0.0032689655
0.0047689793 -0.00076290319 -6.4827545e-05
-0.00089850335 0.0057564517 -0.003965517
0.00020734694 0.0035370968 -0.0034082758
-0.0053219046 -0.0057564517 -0.003965517
0.0071189115 0.00034677418 -0.0021544828
-0.0033866665 0.0010403226 -0.0032689655
0.00089850335 0.0028435483 -0.0034082758
0.0090541495 0.0036758063 -0.003965517
0.0042160545 -0.00090161286 -6.4827545e-05
-0.0004838095 -0.0032596774 -0.0015972413
0.0096070748 0.0028435483 -0.00104
-0.0076718363 -0.0014564516 -0.0049406895
0.0094688432 -0.00090161286 -0.0048013791
-0.0039395918 0.003398387 -0.0015972413
0.0061512925 -0.0064499998 0.002164138
0.009883537 0.00062419352 -0.00104
-0.0024190475 0.0036758063 -0.0041048275
0.0024190475 0.0039532259 -0.0041048275
-0.0043542855 -0.0017338709 -0.0025724138
-0.0020043536 -0.0017338709 -0.0020151723
-0.0020043536 0.00034677418 -0.00048275857
-0.001174966 -0.0021500001 -0.00048275857
0.0073953737 -0.0057564517 -0.00062206894
-0.0024190475 -0.0064499998 -0.0038262068
0.0028337415 0.0020112903 -0.0034082758
-0.0043542855 0.0060338709 -0.003547586
0.0075336052 0.005617742 -0.003965517
-0.0031102039 -0.0017338709 -0.0028510345
0.0004838095 -0.0064499998 -0.002293793
-0.0029719726 -0.0017338709 -0.0020151723
-0.0067042173 6.9354835e-05 -0.0048013791
0.0054601356 0.005617742 -0.00104
-0.00020734694 0.0013177419 -0.00104
-0.0050454419 0.0052016126 -0.003547586
-0.0044925166 -0.0043693548 -0.0034082758
-0.0032484352 -0.0039532259 -0.00090068963
0.0021425849 0.0040919352 -0.0034082758
-0.00062204077 0.0036758063 -0.0034082758
-0.0039395918 0.0013177419 -0.0041048275
0.0087776864 -0.004230645 -0.003965517
0.0054601356 0.0058951611 -0.00104
0.0022808162 -0.0064499998 -0.0013186206
-0.01016 0.00020806451 -0.003965517
-0.0050454419 0.0045080646 -0.001457931
0.0067042173 0.0052016126 -0.003547586
-0.0090541495 -0.002566129 -0.003965517
0.0078100679 -0.004230645 -0.0034082758
-0.001174966 -0.005617742 -0.0024331033
-0.0055983672 -0.0045080646 -0.0041048275
0.0078100679 0.0045080646 -0.003965517
0.0058748298 -0.0035370968 -0.001457931
-0.0064277546 -0.0017338709 -0.001875862
0.0036631292 0.00048548388 -0.0015972413
0.0010367347 0.0050629033 -0.00104
-0.008224762 -0.0063112904 -0.0024331033
0.0051836735 0.00034677418 -0.0021544828
-0.0013131972 0.00090161286 -0.00104
-0.0035248979 -0.003398387 0.0010496551
0.0076718363 0.0054790322 -0.00104
-0.01016 0.00090161286 -0.0036868965
0.0044925166 -0.0031209677 -0.00048275857
-0.001174966 -0.0040919352 0.0014675863
-0.0014514285 -0.0057564517 0.0010496551
0.00034557821 0.0064499998 -0.0011793103
-0.0053219046 -0.0039532259 -0.00104
0.0033866665 0.0049241935 -0.0041048275
0.0014514285 -0.0045080646 -0.0041048275
0.0062895236 -0.0064499998 7.4482792e-05
-0.0025572788 0.0035370968 -0.0034082758
0.0067042173 0.00034677418 -0.001875862
-0.0089159179 0.0053403224 -0.003547586
0.0018661224 0.00034677418 -0.0024331033
0.00062204077 -0.0035370968 -0.0041048275
0.0091923811 0.00034677418 -0.0025724138
6.9115646e-05 -0.0039532259 -0.00104
0.0083629927 0.0029822581 -0.003547586
0.00076027209 0.0064499998 -0.0036868965
-0.0083629927 -0.0017338709 -0.002293793
0.0026955102 0.00048548388 -0.0032689655
0.0010367347 -0.0020112903 -6.4827545e-05
0.0060130609 -0.0061725806 0.0017462069
0.0093306117 0.0035370968 -0.00104
0.0010367347 -0.0035370968 0.0023034483
-0.0090541495 -0.0064499998 -0.00062206894
-0.0061512925 0.00062419352 -0.0015972413
0.0065659862 -0.0040919352 -0.0034082758
-0.0013131972 -0.005617742 -0.00090068963
0.0073953737 -0.0031209677 -0.0041048275
0.0032484352 0.0017338709 -0.00104
0.0020043536 0.00034677418 -0.004383448
0.00076027209 0.00034677418 -0.001875862
0.0089159179 -0.0040919352 0.0014675863
-0.0040778229 0.002566129 -0.0015972413
0.0010367347 -0.0035370968 0.00035310347
-0.0085012242 0.0022887096 -0.001457931
-0.008224762 -0.0017338709 -0.0029903448
-0.0046307482 -0.0020112903 -0.00090068963
-0.0035248979 -0.0020112903 -0.0049406895
0.0093306117 -0.0020112903 -0.00062206894
0.0038013605 0.0014564516 -0.0034082758
0.0046307482 0.0014564516 -0.0041048275
0.0078100679 6.9354835e-05 -0.0049406895
0.0083629927 -0.0018725806 -0.0024331033
0.0093306117 0.002566129 -0.00104
0.0057365983 0.0036758063 -0.001457931
0.0078100679 0.00034677418 -0.004662069
-0.0089159179 -0.0040919352 -0.00020413789
0.0015896598 0.0035370968 -0.0034082758
-0.0091923811 -0.0043693548 -0.003965517
0.0065659862 -0.0024274194 -0.0034082758
0.0065659862 -0.0045080646 -0.003965517
0.0078100679 -0.003398387 -0.003965517
0.01016 -0.0013177419 -0.00104
0.0053219046 0.00090161286 -0.0034082758
-0.0042160545 -0.0029822581 -0.0034082758
0.0044925166 -0.0049241935 -0.003965517
-0.0089159179 0.0011790323 -0.001457931
-0.0057365983 -0.0011790323 -0.0049406895
0.0079482989 0.0031209677 -0.00104
0.0046307482 0.0022887096 -0.0034082758
0.0033866665 0.0011790323 -0.0015972413
-0.0068424488 -0.0028435483 -0.00104
-0.0087776864 -0.0017338709 -0.0032689655
0.0047689793 0.0063112904 -0.003547586
0.0058748298 6.9354835e-05 -0.0049406895
0.0076718363 0.0036758063 -0.003965517
0.0020043536 -0.00090161286 -0.0049406895
0.00062204077 0.002566129 -0.0015972413
-0.0055983672 0.00034677418 -0.002293793
-0.0035248979 0.0057564517 -0.00104
0.0064277546 0.0018725806 -0.001457931
-0.0096070748 0.00062419352 -0.001457931
-0.0014514285 -0.0028435483 -0.00104
-0.0010367347 -0.003398387 0.0020248275
0.0085012242 -0.0027048388 -0.003965517
0.0014514285 0.00076290319 -0.0032689655
-0.0020043536 0.0064499998 -0.001457931
0.0049072108 0.0032596774 -0.003965517
-0.00034557821 -0.0020112903 -0.0015972413
-0.0029719726 -0.0053403224 -0.0041048275
-6.9115646e-05 -0.0057564517 -0.0011793103
-0.0079482989 0.0057564517 -0.003547586
0.0076718363 0.00034677418 -0.0025724138
0.0046307482 -0.004230645 -0.003965517
0.0021425849 0.0045080646 -0.00104
0.0046307482 0.0029822581 -0.0041048275
0.0043542855 0.00034677418 -0.0029903448
-0.009883537 0.0029822581 -0.003547586
6.9115646e-05 -0.0024274194 -0.00104
0.01016 0.00034677418 -0.004383448
-0.0020043536 -0.0018725806 -0.00090068963
0.0022808162 0.0043693548 -0.0041048275
0.0076718363 -0.0015951613 -0.0048013791
-0.0076718363 -0.0038145161 -6.4827545e-05
-0.0073953737 -0.0029822581 -0.001457931
0.0035248979 0.0011790323 -0.00104
-0.0061512925 -0.0027048388 -0.003547586
0.0065659862 -0.0035370968 -0.0041048275
0.01016 -0.0010403226 -0.003129655
-0.0055983672 -0.0032596774 -0.003965517
-0.00020734694 0.0054790322 -0.00104
-0.0085012242 0.0014564516 -0.003547586
-0.0021425849 -0.00034677418 -6.4827545e-05
0.0035248979 -0.0027048388 -0.0015972413
0.0062895236 -0.0057564517 0.00091034482
-0.0096070748 0.00020806451 -0.003129655
-0.0026955102 0.00034677418 -0.00034344822
0.0086394558 -0.0061725806 0.00091034482
0.0089159179 -0.0027048388 -0.00090068963
0.0065659862 0.0029822581 -0.003547586
0.0086394558 -0.0058951611 -0.002293793
0.0064277546 -0.0064499998 -0.0036868965
0.0097453054 -0.0010403226 -0.0048013791
0.0029719726 -0.005617742 -0.00048275857
0.0073953737 0.0039532259 -0.003965517
0.0031102039 0.0029822581 -0.00104
0.0072571426 -0.002566129 -0.0034082758
-0.0049072108 -0.0046467739 -0.0041048275
0.0057365983 0.0058951611 -0.003547586
-0.0087776864 -0.0017338709 -0.0029903448
-0.0036631292 -0.0064499998 0.00077103451
-0.0010367347 -0.0039532259 0.0023034483
-0.0014514285 -0.0022887096 -0.0015972413
0.001174966 -0.0038145161 0.0027213793
-0.0035248979 0.00062419352 -0.0015972413
0.0042160545 0.00062419352 -0.0034082758
0.0039395918 -0.0036758063 -0.0013186206
-0.0022808162 0.0064499998 -0.0013186206
-0.0062895236 -0.0031209677 -0.00076137925
0.0076718363 -0.0020112903 -0.00090068963
0.0072571426 -0.0063112904 -0.0036868965
-0.0010367347 -0.003398387 0.00077103451
0.0093306117 -0.0031209677 -0.00048275857
0.0035248979 0.0038145161 -0.00104
0.0083629927 0.0052016126 -0.003965517
-0.0051836735 -0.005617742 -0.00076137925
0.0026955102 -0.0027048388 -0.0041048275
-0.0078100679 -0.0021500001 -0.00034344822
0.0038013605 -0.0057564517 0.0023034483
-0.0025572788 0.0027048388 -0.0041048275
-0.0021425849 -0.0039532259 -0.00104
0.0080865305 -0.0052016126 -0.003547586
0.0096070748 0.0015951613 -0.001457931
-0.0015896598 0.0053403224 -0.00104
0.0071189115 0.00034677418 -0.0025724138
0.0044925166 -0.0039532259 -0.00048275857
0.0053219046 0.00034677418 -0.0048013791
0.0010367347 0.003398387 -0.004244138
0.00076027209 0.00062419352 -0.0015972413
0.0014514285 0.00034677418 -0.004383448
0.0091923811 0.0054790322 -0.001457931
-0.0086394558 -0.00020806451 -0.0048013791
0.0013131972 -0.0064499998 -0.0020151723
0.0051836735 -0.0053403224 -0.003965517
-0.0089159179 -0.0022887096 -0.003965517
0.0093306117 -0.0015951613 -0.0024331033
-0.0054601356 -0.005617742 -0.00048275857
0.0026955102 0.0057564517 -0.00104
-0.0013131972 -0.0024274194 -0.00104
0.0078100679 0.0018725806 -0.003965517
-0.001174966 -0.0040919352 0.0013282759
0.0087776864 0.0017338709 -0.003547586
-0.0071189115 0.00034677418 -0.00062206894
0.0043542855 0.00090161286 -0.004244138
0.008224762 -0.0043693548 -0.0034082758
0.0043542855 -0.0020112903 -0.0048013791
-0.0094688432 0.0045080646 -0.001457931
0.0087776864 -0.003398387 0.0017462069
-0.0025572788 -0.00034677418 -0.00034344822
-0.0020043536 -0.0018725806 -6.4827545e-05
0.0086394558 -0.0058951611 -0.001457931
0.0068424488 0.0022887096 -0.003965517
0.0004838095 -0.003398387 -0.001457931
-0.0038013605 0.0035370968 -0.00104
-0.0043542855 0.0017338709 -0.001457931
0.0087776864 -0.0064499998 0.00091034482
-0.0015896598 -0.005617742 -0.003965517
0.0004838095 -0.0064499998 -0.00034344822
-0.0065659862 -0.0039532259 0.0011889655
0.0032484352 -0.0039532259 -6.4827545e-05
0.0032484352 0.0049241935 -0.00104
-0.0065659862 0.0027048388 -0.00104
-0.0015896598 -0.002566129 -0.0032689655
-0.009883537 -0.0029822581 -0.003547586
-0.0013131972 -0.0018725806 -0.002293793
0.0080865305 0.0022887096 -0.00104
-0.0073953737 0.003398387 -0.003547586
0.0068424488 -0.0015951613 -6.4827545e-05
-0.0085012242 -0.0038145161 -6.4827545e-05
0.0026955102 0.004230645 -0.0034082758
0.0065659862 -0.0060338709 0.00035310347
-0.00034557821 0.00076290319 -0.00104
0.0061512925 0.0020112903 -0.00104
-0.001174966 -0.0064499998 -0.0013186206
0.0031102039 0.0058951611 -0.00104
0.0015896598 0.0046467739 -0.0034082758
-0.01016 0.00048548388 -0.0011793103
-0.0087776864 0.0011790323 -0.001457931
0.0044925166 -0.0014564516 -0.0049406895
-0.0062895236 -0.00090161286 -0.0049406895
0.0018661224 0.00034677418 -0.0048013791
-0.008224762 -0.0050629033 -0.003547586
-0.0055983672 -0.0064499998 -0.00076137925
-0.0050454419 -0.005617742 -0.00062206894
0.0020043536 -6.9354835e-05 -6.4827545e-05
0.0026955102 -0.003398387 -0.0041048275
-0.01016 -0.0010403226 -0.001457931
-0.0022808162 0.0052016126 -0.00104
-0.0055983672 0.0020112903 -0.003547586
0.0040778229 0.0035370968 -0.001457931
0.0085012242 0.00034677418 -0.002711724
0.0004838095 0.0049241935 -0.0034082758
0.0010367347 0.005617742 -0.003547586
-0.0024190475 0.0061725806 -0.0011793103
0.0083629927 0.0043693548 -0.003965517
0.0054601356 -0.0046467739 -0.003965517
-0.0004838095 0.0052016126 -0.0034082758
-0.0097453054 0.00020806451 -0.0017365516
-0.0025572788 -0.0017338709 -0.002711724
-0.00089850335 -0.0032596774 -6.4827545e-05
-0.0069806799 -0.0032596774 -0.0032689655
0.0083629927 -0.0064499998 -0.00020413789
-0.0093306117 0.0050629033 -0.0036868965
0.0061512925 -0.0032596774 7.4482792e-05
-0.0043542855 -0.0054790322 -0.003965517
-0.0060130609 -0.0057564517 -0.0032689655
0.0071189115 -0.0050629033 -0.0034082758
-0.00020734694 0.0029822581 -0.004244138
0.0065659862 0.00020806451 -0.0049406895
0.0080865305 0.0061725806 -0.003547586
0.0053219046 0.0050629033 -0.001457931
0.0040778229 -0.0036758063 0.0013282759
0.0057365983 0.0043693548 -0.003547586
0.0083629927 -0.0061725806 -0.002711724
0.0054601356 0.005617742 -0.003965517
-0.0049072108 0.0036758063 -0.003547586
0.008224762 0.0024274194 -0.001457931
-0.0093306117 -0.0021500001 -0.004662069
0.0089159179 -0.0057564517 -0.0015972413
-0.0038013605 -0.0018725806 -0.00062206894
-0.0036631292 0.0015951613 -0.0034082758
0.0085012242 0.0031209677 -0.00104
-0.0024190475 0.004230645 -0.00104
-0.0069806799 -0.0021500001 -0.00062206894
0.0064277546 -0.0018725806 -0.0048013791
-0.0042160545 -0.0027048388 -0.0034082758
-0.0069806799 -0.0021500001 -0.00020413789
-0.0054601356 0.0036758063 -0.00104
-0.0043542855 -0.0029822581 -0.0034082758
0.0053219046 0.00034677418 -0.0020151723
-0.0013131972 -0.0046467739 -0.0032689655
0.0090541495 -0.002566129 -0.0034082758
-0.0035248979 -0.0038145161 0.00077103451
0.0047689793 -0.0046467739 -0.0034082758
-0.0060130609 -0.0064499998 7.4482792e-05
0.0026955102 0.00034677418 -0.0017365516
-0.00034557821 0.0014564516 -0.0015972413
-0.0022808162 -0.0031209677 -0.00090068963
-0.0031102039 0.0045080646 -0.0015972413
-0.0067042173 -0.0040919352 -6.4827545e-05
0.0039395918 -0.0018725806 -6.4827545e-05
0.0015896598 0.0040919352 -0.0015972413
-0.0004838095 0.00048548388 -0.00104
0.0035248979 -0.0035370968 0.00021379314
-0.0021425849 -0.004230645 -0.0041048275
0.0090541495 0.0028435483 -0.00104
-0.0062895236 -0.0052016126 -0.003965517
-0.0018661224 0.0045080646 -0.0034082758
0.001727891 0.0010403226 -0.00104
0.0054601356 -0.0020112903 -0.004383448
-0.0089159179 -0.0022887096 -0.00034344822
-0.0061512925 0.0018725806 -0.0041048275
-0.0071189115 0.0032596774 -0.003965517
-0.00062204077 -0.005617742 -0.00104
-0.0089159179 0.0021500001 -0.003965517
-0.0036631292 -6.9354835e-05 -6.4827545e-05
-0.0068424488 -0.005617742 -0.00090068963
0.0065659862 0.0036758063 -0.003547586
0.0022808162 0.0013177419 -0.0032689655
-0.0053219046 -0.0020112903 -0.0032689655
-0.0013131972 -0.0028435483 -0.0032689655
-0.0090541495 0.003398387 -0.001457931
0.00020734694 0.00034677418 -0.0045227585
-0.0018661224 0.0036758063 -0.0041048275
6.9115646e-05 0.0021500001 -0.0015972413
-0.0022808162 0.0027048388 -0.00104
0.001174966 0.0040919352 -0.0034082758
0.0065659862 -0.005617742 -6.4827545e-05
0.0079482989 -0.0031209677 -0.00076137925
-0.0032484352 -0.0064499998 -0.0013186206
0.0064277546 0.0040919352 -0.001457931
-0.0032484352 0.00048548388 -0.0032689655
-0.0058748298 -0.0060338709 -0.0029903448
0.0087776864 0.002566129 -0.003965517
-0.0055983672 -0.0057564517 -0.0034082758
-0.00062204077 0.0049241935 -0.00104
-0.0051836735 -0.0058951611 -0.0034082758
0.0010367347 -0.0010403226 -0.0049406895
-0.010021769 -0.0010403226 -0.0024331033
-0.001727891 0.0011790323 -0.0041048275
-0.0015896598 0.00034677418 -0.0025724138
-0.0097453054 -0.0021500001 -0.00090068963
0.0097453054 0.0031209677 -0.0011793103
0.00089850335 0.00034677418 -0.002293793
0.0073953737 0.00034677418 -0.0020151723
-6.9115646e-05 0.0015951613 -0.0015972413
-0.0042160545 0.0011790323 -0.0041048275
0.0093306117 0.00034677418 -0.0025724138
0.0090541495 0.004230645 -0.001457931
-0.0085012242 0.0018725806 -0.003547586
-0.0090541495 0.002566129 -0.003965517
-0.0033866665 -0.0039532259 7.4482792e-05
0.0060130609 -0.0020112903 -0.00062206894
0.0020043536 0.0057564517 -0.0015972413
-0.0047689793 -0.0040919352 -0.0041048275
0.0060130609 0.0015951613 -0.0041048275
-0.0004838095 0.00062419352 -0.004244138
0.0004838095 -0.0018725806 -0.0021544828
-0.0039395918 0.0018725806 -0.0015972413
-0.0035248979 0.0031209677 -0.0034082758
0.0024190475 0.00062419352 -0.00104
0.0043542855 -0.0064499998 -0.00034344822
-0.0073953737 0.0049241935 -0.00104
-0.0064277546 0.00034677418 -0.002711724
0.0072571426 0.00076290319 -0.0034082758
0.0026955102 -0.0057564517 -0.003965517
-0.0064277546 0.004230645 -0.003965517
0.0089159179 -0.0057564517 -0.0011793103
0.0025572788 -0.0014564516 -0.0048013791
-0.0020043536 -0.005617742 -0.00062206894
0.0065659862 -0.003398387 0.00077103451
-0.0040778229 -0.0036758063 -0.0034082758
-0.0051836735 0.0043693548 -0.00104
-0.0010367347 -0.0022887096 -0.0032689655
-0.0087776864 -0.0021500001 -0.003547586
-0.0068424488 -0.005617742 -0.0032689655
0.0039395918 -0.0018725806 -0.002711724
-0.0022808162 -0.0050629033 -0.0032689655
-0.0044925166 0.0045080646 -0.00104
0.0094688432 0.0027048388 -0.003547586
-0.0025572788 0.0038145161 -0.0041048275
-0.0054601356 -0.0049241935 -0.003547586
-6.9115646e-05 0.0028435483 -0.00104
0.0075336052 0.0061725806 -0.003965517
0.0060130609 -0.0064499998 -0.001457931
-0.0093306117 0.0027048388 -0.00104
0.0057365983 -0.0064499998 -0.0015972413
0.009883537 -0.0020112903 -6.4827545e-05
0.0078100679 0.00034677418 -0.0028510345
-0.0091923811 0.0032596774 -0.00104
-0.0035248979 -0.0063112904 -0.0038262068
0.0078100679 -0.0018725806 -0.0048013791
0.0062895236 -0.0057564517 -0.0024331033
0.0022808162 -0.0028435483 -0.0015972413
0.0089159179 -0.0020112903 -0.00090068963
-0.0015896598 -0.0064499998 -0.0032689655
0.0049072108 0.0018725806 -0.0034082758
0.0071189115 -0.005617742 -0.002711724
0.01016 -6.9354835e-05 -0.004244138
-0.0087776864 -0.0029822581 -0.001457931
-0.0097453054 -0.0036758063 -0.003965517
-0.0010367347 0.0028435483 -0.0034082758
0.0072571426 0.0064499998 -0.00104
-0.0043542855 -0.0064499998 -0.00062206894
0.0028337415 -0.0021500001 -0.0015972413
-0.00076027209 0.0013177419 -0.0015972413
-0.0040778229 -0.0035370968 0.00063172419
-0.0091923811 -0.0035370968 0.0024427585
-0.0015896598 0.0061725806 -0.001457931
0.0053219046 0.0040919352 -0.003965517
0.0083629927 -0.0018725806 -0.001875862
-0.0040778229 -0.0063112904 0.0011889655
0.0062895236 -0.0040919352 -0.0034082758
-0.0062895236 0.0046467739 -0.003965517
0.0057365983 0.0043693548 -0.003965517
-0.0031102039 0.00076290319 -0.00104
0.001174966 0.0053403224 -0.00104
-0.0020043536 0.0027048388 -0.00104
0.008224762 0.004230645 -0.001457931
-0.0049072108 0.0058951611 -0.003965517
0.009883537 -0.0014564516 -6.4827545e-05
-0.0075336052 -0.0014564516 -0.00020413789
-0.0013131972 -0.00062419352 -0.0049406895
0.0025572788 0.00062419352 -0.0015972413
0.0075336052 -0.0032596774 -0.003965517
-0.0064277546 0.0058951611 -0.003965517
0.0067042173 -0.0039532259 -0.00020413789
-0.0055983672 -0.0038145161 -6.4827545e-05
-0.0085012242 0.00090161286 -0.00104
-0.0028337415 -0.003398387 -0.0034082758
0.0033866665 -0.0022887096 -0.00104
-0.0040778229 -0.0064499998 -0.0017365516
-0.0038013605 0.0057564517 -0.001457931
0.00020734694 -0.0060338709 -0.00020413789
-0.0020043536 -0.0064499998 -0.0024331033
-0.0058748298 -0.0053403224 -0.003965517
-0.0047689793 0.0046467739 -0.00104
0.0097453054 -0.0022887096 -0.0013186206
0.0061512925 -0.0057564517 7.4482792e-05
-0.0064277546 0.00090161286 -0.003547586
-0.0089159179 0.0054790322 -0.003965517
-0.00089850335 -0.0039532259 -0.0041048275
-0.0076718363 -0.0036758063 -0.0013186206
-0.0031102039 -0.0053403224 -0.0032689655
0.0055983672 -0.0036758063 -0.0013186206
0.0075336052 0.0049241935 -0.003965517
0.008224762 -0.0018725806 -0.002293793
0.0040778229 -0.0035370968 0.00049241382
-0.009883537 0.00076290319 -0.001457931
-0.0020043536 0.00062419352 -0.0015972413
-0.0013131972 -0.0021500001 -0.0048013791
0.0058748298 0.00034677418 -6.4827545e-05
0.0044925166 0.0014564516 -0.0034082758
0.0091923811 -0.0022887096 -0.00048275857
-0.00089850335 -0.0028435483 -0.00104
-0.0090541495 -0.0039532259 -0.003547586
-0.0014514285 -0.0057564517 0.0024427585
0.00020734694 0.00034677418 -0.004383448
0.001727891 -0.002566129 -0.00104
0.0067042173 0.0013177419 -0.001457931
0.0010367347 -0.00048548388 -0.0049406895
-0.0064277546 -0.00062419352 -6.4827545e-05
0.0038013605 -0.0032596774 0.00021379314
-0.0090541495 -0.0035370968 -0.003965517
0.0087776864 0.0050629033 -0.003547586
-0.010021769 0.0011790323 -0.00104
0.0047689793 -0.0031209677 -0.00048275857
-0.0021425849 -0.0021500001 -0.0049406895
-0.0091923811 -0.0060338709 -0.001457931
0.001727891 0.0064499998 -0.0038262068
0.0042160545 0.0031209677 -0.0041048275
-0.00089850335 0.0064499998 -0.00104
0.0061512925 -0.0035370968 0.0024427585
-0.0053219046 0.0038145161 -0.00104
-0.0067042173 0.0046467739 -0.003547586
0.0078100679 -0.0031209677 -0.0032689655
-0.0096070748 0.0039532259 -0.0011793103
0.0053219046 -0.0018725806 -0.0029903448
0.0038013605 -0.0035370968 -0.001457931
-0.0014514285 -0.0064499998 -0.0021544828
0.0025572788 -0.0064499998 -0.00048275857
0.0020043536 -0.0064499998 -0.00048275857
-0.0089159179 0.0010403226 -0.001457931
0.0071189115 -0.0058951611 -0.0029903448
0.00062204077 -0.0061725806 -0.003965517
0.0020043536 0.00034677418 -0.00076137925
0.0083629927 -0.003398387 -6.4827545e-05
0.0010367347 0.00034677418 -0.001875862
0.0057365983 0.0046467739 -0.003547586
0.0073953737 0.005617742 -0.001457931
6.9115646e-05 -0.0057564517 -0.0011793103
0.0025572788 -0.0039532259 -0.00048275857
-0.0071189115 -0.0021500001 -0.00020413789
-0.0004838095 0.0029822581 -0.0015972413
0.0047689793 0.0060338709 -0.00104
0.0078100679 0.0038145161 -0.00104
0.0091923811 0.005617742 -0.0011793103
-0.0083629927 -0.0022887096 -0.00090068963
-0.0073953737 0.0049241935 -0.003547586
0.0076718363 0.0039532259 -0.00104
0.0029719726 0.0057564517 -0.001457931
