# .PCD v0.7 - Point Cloud Data file format
VERSION 0.7
FIELDS x y z
SIZE 4 4 4
TYPE F F F
COUNT 1 1 1
WIDTH 1171
HEIGHT 1
VIEWPOINT 0 0 0 1 0 0 0
POINTS 1171
DATA ascii
-0.0049016392 -0.0036537314 -0.0027142856
0.00035519127 0.0046567162 -0.00085714285
0.0036229508 -0.0019343283 -0.0012857143
0.0036229508 0.0010746268 -0.0035714286
0.00035519127 -0.0042268657 -0.0011428571
-0.010442623 0.0009313433 -0.0038571428
-0.0051857922 -0.0012179104 -0.0032857142
-0.0037650273 0.0010746268 -0.0024285715
0.0047595627 -0.0040835822 -0.0022857143
-0.0043333331 -0.0036537314 -0.0027142856
-0.0040491805 -0.0040835822 -0.00057142857
-0.0090218578 0.0032238807 -0.0031428572
0.0078852456 -0.0022208956 -0.0012857143
0.012147541 -0.0023641791 0
-0.0027704919 -0.00035820896 -0.00014285714
0.0041912571 -0.0025074626 -0.0025714287
-0.012431694 -0.0009313433 -0.0012857143
0.0081693986 0.0010746268 -0.0038571428
0.0078852456 0.0025074626 -0.0031428572
0.0071748635 0.0032238807 -0.0028571428
0.0036229508 -0.0006447761 -0.00014285714
-0.0066065574 0.0046567162 -0.0011428571
0.010726776 -0.0030805969 -0.0028571428
-0.0080273226 -0.00078805973 -0.0020000001
0.0046174861 0.0025074626 -0.00071428571
-0.0088797817 0.0019343283 -0.0027142856
0.0098743169 0.0042268657 -0.0011428571
0.0010655738 -0.0048000002 -0.00042857142
0.0020601093 -0.0022208956 0.00057142857
-0.013 7.1641793e-05 -0.0020000001
-0.012289617 0.0020776119 -0.00085714285
0.0037650273 -0.0025074626 0.001
0.0081693986 0.0033671642 -0.0028571428
-0.0027704919 -0.0030805969 -0.0032857142
-0.012289617 0.0029373134 -0.00085714285
-0.0067486339 -0.0022208956 -0.0012857143
0.0087377047 0.0023641791 -0.00071428571
-0.0053278687 -0.0009313433 -0.00042857142
0.0049016392 0.0013611941 -0.0025714287
-0.0066065574 -0.0027940299 -0.0031428572
-0.0083114756 0.0029373134 -0.0031428572
-0.012289617 -0.0042268657 -0.0012857143
-0.01015847 0.0033671642 -0.0011428571
-0.0091639347 0.0010746268 -0.0017142857
-0.0047595627 0.00021492537 -0.0038571428
-0.0022021858 -0.0025074626 0.00085714285
-0.0013497268 -0.0020776119 -0.00071428571
0.0044754096 0.0030805969 -0.0032857142
0.012715847 -0.00078805973 -0.0024285715
0.0090218578 -0.0010746268 -0.0038571428
-0.0056120218 0.0033671642 -0.0032857142
0.0037650273 0.0012179104 -0.0032857142
-0.0019180328 0.0037970149 -0.0011428571
0.003907104 -0.0043701492 0.0025714287
-0.0060382513 0.0020776119 -0.0027142856
-0.012005464 -0.0042268657 0.00042857142
0.0094480878 -0.0043701492 -0.0031428572
-0.0057540983 -0.0040835822 -0.00071428571
0.0054699453 0.0045134327 -0.00085714285
-0.0087377047 -0.0027940299 -0.0031428572
-0.011579235 -0.0048000002 -0.0017142857
-0.003907104 -0.0048000002 0.0022857143
0.0091639347 -0.0022208956 -0.00028571428
0.0040491805 0.0015044776 -0.0032857142
0.00063934427 0.0010746268 -0.00071428571
-0.00092349725 0.0048000002 -0.0031428572
-0.012005464 -0.0042268657 -0.0012857143
-0.012857923 0.00050149253 -0.0018571429
0.0091639347 -0.00078805973 -0.0014285714
0.0033387977 0.0013611941 -0.0032857142
-0.0027704919 -0.0030805969 -0.0027142856
7.1038252e-05 0.0027940299 -0.00071428571
0.0043333331 0.0009313433 -0.0020000001
-0.00078142079 -0.0040835822 -0.0024285715
-0.0085956287 -0.0032238807 -0.0027142856
-0.0064644809 0.0019343283 -0.0012857143
0.0077431696 -0.0043701492 -0.0015714286
-0.011010929 0.0006447761 -0.0038571428
-0.0057540983 -0.0017910447 -0.0012857143
0.0088797817 -0.0010746268 -0.0012857143
0.0040491805 -0.0022208956 -0.00057142857
0.011295082 0.0030805969 -0.0011428571
-0.0077431696 0.0012179104 -0.0027142856
0.0050437157 0.0048000002 -0.0011428571
-0.00092349725 0.0042268657 -0.0027142856
0.012147541 0.0009313433 -0.00028571428
7.1038252e-05 -0.0048000002 -0.0014285714
0.0022021858 0.0025074626 -0.0011428571
0.010016394 -0.0048000002 0.0017142857
-0.010726776 0.0010746268 -0.00071428571
0.010016394 -0.0012179104 -0.0031428572
0.0047595627 -0.0048000002 -0.0027142856
0.0024863388 -0.0046567162 -0.003
-0.0012076503 -0.0036537314 -0.0025714287
0.0087377047 0.0013611941 -0.0025714287
-0.0081693986 -0.0032238807 -0.0031428572
0.012005464 -0.0046567162 0.001
0.0087377047 0.0027940299 -0.00071428571
0.0063224044 -0.0013611941 -0.00071428571
-0.0057540983 -0.0009313433 -0.0027142856
0.010300547 0.0040835822 -0.0028571428
-0.0012076503 -0.0048000002 -0.00057142857
0.00731694 0.0037970149 -0.0028571428
0.0094480878 0.0048000002 -0.0011428571
0.0060382513 -0.0027940299 0.0025714287
-0.0044754096 -0.0010746268 -0.0032857142
0.0046174861 0.0009313433 -0.0022857143
0.0049016392 0.00078805973 -0.0038571428
0.0067486339 -0.0016477612 -0.0031428572
-0.0066065574 -0.0023641791 -0.0031428572
0.0040491805 -0.0048000002 -0.00042857142
-0.0095901638 0.0026507464 -0.0011428571
0.0022021858 0.00050149253 -0.0038571428
-0.0044754096 -0.0029373134 -0.00014285714
0.0046174861 0.0017910447 -0.0012857143
0.0049016392 -0.0027940299 -0.0032857142
-0.0083114756 -0.00021492537 -0.0038571428
-0.0041912571 -0.0048000002 -0.0018571429
0.0051857922 -0.0048000002 -0.0014285714
0.012715847 0.0009313433 -0.0032857142
-0.0024863388 -0.0027940299 -0.00014285714
0.011295082 0.0017910447 -0.0012857143
0.011295082 -0.0045134327 -0.0028571428
0.011153005 0.0016477612 -0.00085714285
0.0078852456 -0.0040835822 -0.0011428571
7.1038252e-05 -0.0020776119 -0.00071428571
0.0090218578 0.0040835822 -0.0028571428
0.0060382513 -0.0023641791 -0.0032857142
-0.0064644809 -0.0048000002 -0.0014285714
-0.0091639347 -0.0048000002 -0.0025714287
0.010584699 -0.0033671642 -0.0031428572
-0.007032787 -0.0019343283 -0.00071428571
0.011437158 -0.0019343283 -0.0025714287
0.0037650273 0.00035820896 -0.00014285714
-0.0081693986 -0.0026507464 0.00071428571
-0.012289617 0.0032238807 -0.0028571428
-0.0029125684 0.0045134327 -0.0028571428
0.0080273226 0.0019343283 -0.0032857142
0.0029125684 0.0037970149 -0.00071428571
0.012857923 0.0009313433 -0.0035714286
-0.012289617 0.0023641791 -0.0011428571
0.0058961748 -0.0046567162 -0.003
-0.0024863388 -0.0026507464 -0.0027142856
-0.0013497268 -0.0039402987 -0.0025714287
-0.010442623 -0.0040835822 -0.00014285714
-0.0019180328 0.00050149253 -0.0038571428
0.00035519127 -0.0009313433 -0.0038571428
0.012005464 -0.0036537314 -0.0028571428
-0.0057540983 0.0043701492 -0.00085714285
0.0022021858 -0.0046567162 0.0025714287
0.012289617 0.0010746268 -0.0032857142
0.0060382513 -0.0040835822 -0.0011428571
-0.0031967212 0.0017910447 -0.00071428571
0.0030546449 -0.0040835822 -0.00042857142
-0.00021311475 -0.00021492537 -0.0038571428
0.0093060108 0.0017910447 -0.00071428571
-0.012857923 0.00021492537 -0.0020000001
0.0022021858 0.0017910447 -0.0011428571
0.0074590165 -0.0039402987 -0.0031428572
0.010442623 0.0030805969 -0.0011428571
0.012715847 -0.0016477612 -0.00071428571
-0.0084535517 -0.0012179104 -0.0034285714
-0.0031967212 0.0022208956 -0.0027142856
0.0036229508 -0.0026507464 -0.001
-0.0017759562 -0.0023641791 0.00085714285
0.0083114756 -0.0039402987 -0.0027142856
-0.0043333331 -0.00035820896 -0.0038571428
0.0093060108 -0.0019343283 -0.0027142856
0.0058961748 -0.0046567162 0.0020000001
0.011579235 -0.0048000002 -0.00014285714
0.0063224044 0.0036537314 -0.0028571428
-0.0080273226 -0.0012179104 -0.0027142856
-0.0097322408 0.0033671642 -0.0011428571
-0.012289617 0.0027940299 -0.003
-0.007601093 -0.00078805973 -0.0025714287
0.0027704919 0.0020776119 -0.00071428571
-0.0080273226 0.0016477612 -0.0034285714
-0.0047595627 -0.0012179104 -0.0012857143
-0.0053278687 0.0042268657 -0.0011428571
-0.00092349725 -0.0048000002 -0.001
-0.0074590165 -0.0040835822 -0.00071428571
-0.012289617 -0.0042268657 -0.0028571428
0.0012076503 7.1641793e-05 -0.00014285714
0.0090218578 0.0026507464 -0.0031428572
-0.0043333331 -0.0048000002 -0.0022857143
0.00063934427 -0.00078805973 -0.0038571428
0.0097322408 0.0043701492 -0.00085714285
0.0051857922 -0.00078805973 -0.0014285714
0.01015847 -0.0042268657 -0.0025714287
0.0087377047 0.00021492537 -0.00014285714
0.00092349725 -0.00035820896 -0.0038571428
-0.012005464 0.0016477612 -0.0011428571
0.011863388 -0.0029373134 -0.00071428571
-0.011295082 -0.0017910447 -0.0012857143
0.010584699 0.0010746268 -0.0037142858
0.011153005 -0.0042268657 -0.0028571428
-0.003907104 -0.0040835822 -0.00042857142
-0.0024863388 0.0025074626 -0.0027142856
-0.0071748635 0.0019343283 -0.0012857143
0.012857923 -0.00050149253 -0.00014285714
-0.0019180328 -0.0040835822 0.0014285714
-0.0024863388 -0.0040835822 -0.0014285714
-0.0034808742 -0.0027940299 -0.00085714285
-0.0016338797 0.0009313433 -0.00042857142
0.0017759562 -0.0048000002 -0.0024285715
0.010726776 -0.0042268657 -0.0027142856
0.0046174861 0.0048000002 -0.0011428571
0.0058961748 -0.00021492537 -0.0038571428
-0.0014918033 -0.0013611941 -0.00071428571
-0.012289617 0.0019343283 -0.0028571428
-0.0098743169 0.0026507464 -0.0028571428
-0.0037650273 0.0016477612 -0.0032857142
0.011721311 0.0010746268 -0.0022857143
0.003907104 0.0033671642 -0.0011428571
-0.0029125684 0.0022208956 -0.0032857142
-0.010016394 -0.0022208956 -0.00042857142
-0.0029125684 -0.0016477612 -0.00071428571
-0.0058961748 -0.0048000002 0.00028571428
-0.0090218578 0.0020776119 -0.0011428571
0.0012076503 -0.0042268657 -0.001
0.0017759562 0.00021492537 -0.00014285714
0.0090218578 -0.0009313433 -0.0038571428
0.00078142079 0.0013611941 -0.0011428571
-0.0036229508 -0.0019343283 -0.0032857142
7.1038252e-05 0.0048000002 -0.00085714285
0.0077431696 0.0009313433 -0.0038571428
0.0027704919 0.0042268657 -0.0032857142
0.010016394 -0.0039402987 -0.0028571428
0.0091639347 -0.0048000002 -0.0020000001
0.0063224044 -0.0022208956 -0.0012857143
0.0078852456 0.0033671642 -0.00071428571
0.0040491805 -0.0040835822 -0.0015714286
0.011153005 -7.1641793e-05 -0.00014285714
-0.0080273226 -0.0015044776 -0.0027142856
0.010442623 0.0012179104 -0.00071428571
0.0030546449 -0.0040835822 -0.001
0.0017759562 -0.0027940299 0.00071428571
-0.011579235 -0.0017910447 -0.0025714287
-0.011721311 0.0022208956 -0.0028571428
-0.0077431696 0.0043701492 -0.0028571428
-0.010016394 -0.0048000002 -0.0015714286
0.00021311475 0.0029373134 -0.00071428571
0.0066065574 0.0012179104 -0.0012857143
-0.0083114756 -0.00078805973 -0.0017142857
-0.0097322408 -0.0009313433 -0.0035714286
0.007032787 -0.0048000002 -0.0021428571
-0.0071748635 -0.0029373134 -0.0027142856
-0.0029125684 0.0013611941 -0.0025714287
-0.0078852456 -0.0019343283 -0.00071428571
0.0063224044 0.0010746268 -0.0034285714
0.0019180328 -0.0029373134 0.0025714287
-0.0026284154 0.0043701492 -0.0028571428
0.011721311 0.0042268657 -0.00085714285
0.0074590165 -0.0029373134 -0.00042857142
-0.0022021858 -0.0012179104 -0.00071428571
-0.0043333331 0.0019343283 -0.0012857143
0.007032787 -0.0015044776 -0.0012857143
0.0020601093 0.0009313433 -0.0037142858
0.0012076503 -0.0016477612 -0.0027142856
-0.0036229508 -0.00078805973 -0.00014285714
-0.0043333331 -0.0048000002 -0.00028571428
-0.010726776 0.0025074626 -0.0028571428
0.00731694 -0.0036537314 -0.0025714287
0.0064644809 -0.0048000002 -0.001
-0.0095901638 0.0023641791 -0.0028571428
-0.0083114756 -0.0010746268 -0.0037142858
-0.0081693986 -0.0015044776 -0.0012857143
0.011153005 -0.0019343283 -0.0025714287
-0.0016338797 0.0025074626 -0.0032857142
0.0026284154 0.0006447761 -0.00014285714
0.0063224044 -0.0022208956 -0.0027142856
-0.0031967212 -0.0042268657 -0.0031428572
0.00021311475 0.0010746268 -0.0012857143
0.0022021858 0.0012179104 -0.0011428571
-0.012289617 -0.0043701492 -0.0015714286
0.012715847 0.0020776119 -0.003
-0.0083114756 -0.0046567162 -0.0014285714
0.0044754096 -0.0017910447 -0.00071428571
0.007601093 0.0033671642 -0.00071428571
0.0014918033 -0.0048000002 -0.00085714285
-0.012289617 0.0026507464 -0.00085714285
-0.0098743169 0.0046567162 -0.003
-0.01015847 -0.0046567162 -0.0018571429
0.0020601093 -0.0048000002 -0.0022857143
-0.0057540983 0.0012179104 -0.0012857143
-0.0013497268 0.0042268657 -0.0011428571
0.010300547 0.0040835822 -0.0011428571
0.0033387977 -0.0010746268 -0.0025714287
-0.0064644809 0.0035104477 -0.0027142856
-0.011863388 -0.0043701492 0.0025714287
0.011863388 0.0032238807 -0.0028571428
0.0034808742 0.0009313433 -0.0017142857
-0.0067486339 0.0042268657 -0.00085714285
-0.0090218578 0.0016477612 -0.0027142856
-0.0013497268 0.0039402987 -0.00071428571
-0.0090218578 -0.0040835822 -0.0031428572
0.010300547 -0.0046567162 -0.00085714285
0.011010929 0.00035820896 -0.0038571428
0.010726776 0.0048000002 -0.003
-0.010442623 -0.0029373134 -0.0025714287
-0.0081693986 0.0016477612 -0.00071428571
-0.0061803279 -0.0023641791 0.0022857143
-0.0077431696 -0.0040835822 -0.00071428571
0.0024863388 -0.0026507464 -0.0027142856
-0.0066065574 -0.00021492537 -0.00014285714
0.0084535517 -0.0046567162 -0.003
-0.010016394 0.0017910447 -0.0027142856
0.0068907104 -0.0019343283 -0.0031428572
-0.01015847 -0.0023641791 0.0024285715
0.0037650273 -0.0006447761 -0.00014285714
-0.011437158 0.0033671642 -0.0028571428
0.0054699453 -0.0022208956 -0.00014285714
-0.0027704919 0.0035104477 -0.0011428571
0.00035519127 -0.0042268657 -0.00042857142
0.0098743169 -0.0045134327 0.00042857142
0.003907104 0.0035104477 -0.0027142856
-0.00021311475 -0.0043701492 0.0014285714
0.0088797817 -0.0020776119 -0.00057142857
0.0093060108 -0.0019343283 -0.0012857143
-0.0067486339 -0.0033671642 -0.0027142856
-0.00063934427 -0.0025074626 -0.0032857142
-0.0088797817 0.0033671642 -0.0031428572
0.0044754096 -0.0040835822 -0.0022857143
0.011863388 -0.0023641791 0.0020000001
-0.0053278687 0.0033671642 -0.00071428571
-0.0071748635 -0.0016477612 -0.0034285714
-0.0083114756 0.0025074626 -0.0011428571
-0.0050437157 0.0037970149 -0.00071428571
0.0097322408 0.00078805973 -0.00014285714
-0.0078852456 0.0029373134 -0.0031428572
0.0016338797 -0.0022208956 -0.0011428571
0.0044754096 0.0037970149 -0.0027142856
-0.0046174861 0.0045134327 -0.0031428572
-7.1038252e-05 0.0013611941 -0.0032857142
0.012147541 -0.0027940299 0.00057142857
-0.0012076503 0.0036537314 -0.00071428571
-0.0057540983 -0.00050149253 -0.0038571428
0.0040491805 0.0010746268 -0.0038571428
0.010726776 -0.00021492537 -0.0038571428
0.0040491805 0.0027940299 -0.00071428571
0.011010929 -0.0015044776 -0.0025714287
-0.010300547 0.0025074626 -0.0011428571
0.011153005 0.0040835822 -0.0011428571
0.00731694 0.0022208956 -0.0012857143
0.0037650273 0.0009313433 -0.0018571429
0.0084535517 -0.0029373134 -0.00028571428
0.0046174861 0.0030805969 -0.00071428571
-0.0049016392 -0.0019343283 -0.0012857143
-0.0090218578 -0.0022208956 -0.0012857143
0.0031967212 -0.0026507464 -0.00014285714
-0.0037650273 -0.0025074626 0.0012857143
-0.0016338797 -0.0037970149 -0.0027142856
0.0040491805 0.0012179104 -0.0032857142
-0.011010929 -0.0009313433 -0.00014285714
0.0013497268 0.0048000002 -0.00085714285
-0.007601093 -0.0009313433 -0.00014285714
-0.0016338797 -0.0025074626 -0.0011428571
0.0024863388 -0.0020776119 -0.0011428571
0.0077431696 0.0023641791 -0.0028571428
0.0095901638 0.0040835822 -0.0011428571
-0.010726776 0.0029373134 -0.00085714285
0.00063934427 0.0023641791 -0.0032857142
-0.0097322408 -0.0048000002 -0.0020000001
-0.0063224044 -0.0029373134 -0.0027142856
-0.0047595627 -0.00050149253 -0.0038571428
-0.0031967212 0.0037970149 -0.0011428571
-0.0095901638 -0.0010746268 -0.00028571428
-0.0010655738 -0.0009313433 -0.0037142858
0.0056120218 0.0035104477 -0.0032857142
0.0054699453 -0.0009313433 -0.0035714286
0.0034808742 0.0037970149 -0.00071428571
-7.1038252e-05 -0.0048000002 -0.00071428571
0.0058961748 -0.0045134327 0.001
-0.0081693986 0.0010746268 -0.0021428571
0.0019180328 -0.0040835822 -0.00028571428
0.0053278687 -0.00078805973 -0.0015714286
0.0022021858 -0.0023641791 0.0024285715
-0.0054699453 0.0043701492 -0.00085714285
0.0023442623 0.0009313433 -0.0021428571
-0.0056120218 0.00021492537 -0.00014285714
-0.010868852 -7.1641793e-05 -0.00014285714
-0.003907104 -0.00078805973 -0.0038571428
-0.0019180328 -0.00078805973 -0.0020000001
0.0061803279 0.0010746268 -0.0037142858
0.011437158 0.0016477612 -0.00085714285
-0.0022021858 -0.0045134327 0.0020000001
0.0017759562 -0.0026507464 0.0012857143
0.011579235 -0.0035104477 -0.003
0.0098743169 -0.0025074626 -0.0025714287
-0.0016338797 0.0033671642 -0.0011428571
0.0024863388 0.0006447761 -0.0038571428
-0.0026284154 0.00021492537 -0.0038571428
-0.0061803279 0.0026507464 -0.0032857142
-0.0036229508 -0.0048000002 -0.0022857143
-0.0051857922 0.0009313433 -0.00014285714
-0.0095901638 -0.0040835822 -0.00085714285
0.0036229508 0.0009313433 -0.0037142858
-0.0088797817 0.0035104477 -0.0031428572
-0.0098743169 -0.0027940299 0.00057142857
-0.00092349725 0.0043701492 -0.00085714285
-0.0085956287 0.00021492537 -0.0038571428
0.0051857922 -0.0022208956 -0.0032857142
-0.010442623 0.0040835822 -0.0031428572
0.0084535517 0.0020776119 -0.0028571428
0.0037650273 -0.0039402987 -0.0025714287
0.0090218578 -0.0037970149 -0.0031428572
-0.012147541 -0.0045134327 0.0015714286
-0.0049016392 -0.0019343283 -0.00071428571
-0.0031967212 -0.0025074626 -0.0025714287
0.00049726776 -0.0042268657 -0.0014285714
0.007601093 0.0010746268 -0.0037142858
-0.0027704919 -0.0017910447 -0.0032857142
0.0057540983 -0.00078805973 -0.0024285715
-0.0056120218 0.0016477612 -0.00071428571
0.0031967212 -0.0040835822 -0.00057142857
-0.01015847 -0.0026507464 0.0011428571
0.0053278687 -0.00078805973 -0.0038571428
-0.012431694 -0.0033671642 -0.003
0.011863388 0.0025074626 -0.0028571428
0.010300547 -0.0046567162 0
0.0036229508 0.00021492537 -0.00014285714
0.0031967212 -0.0048000002 -0.00057142857
-0.011010929 0.00021492537 -0.0038571428
0.0077431696 0.0036537314 -0.0031428572
-0.011153005 0.0010746268 -0.0022857143
-0.0020601093 -0.0040835822 -0.00071428571
0.0060382513 -0.00078805973 -0.0021428571
-0.011010929 0.0032238807 -0.0028571428
-0.007032787 -0.0048000002 -0.00042857142
0.007032787 0.00078805973 -0.00014285714
0.0051857922 -0.0040835822 -0.0014285714
-0.0037650273 -0.0029373134 -0.00042857142
0.0037650273 0.0015044776 -0.00071428571
0.0034808742 -0.0040835822 -0.0021428571
-0.0037650273 -0.00078805973 -0.0018571429
0.01015847 -0.0020776119 -0.0031428572
-0.0029125684 0.0036537314 -0.0027142856
-0.0077431696 -0.0020776119 -0.00057142857
-0.00021311475 -0.0023641791 0.0017142857
0.0027704919 0.0023641791 -0.00071428571
-0.0026284154 0.0015044776 -0.0032857142
0.012147541 0.0040835822 -0.0031428572
0.0077431696 -0.0019343283 -0.0027142856
-0.0078852456 0.0017910447 -0.00071428571
-7.1038252e-05 0.0009313433 -0.0018571429
0.0012076503 0.0043701492 -0.0027142856
0.0078852456 0.0030805969 -0.00071428571
-0.00078142079 0.0020776119 -0.0032857142
-0.010442623 0.0012179104 -0.0012857143
0.00731694 0.0019343283 -0.00071428571
-0.0068907104 -0.00078805973 -0.0015714286
-0.012715847 -0.0023641791 -0.0028571428
-0.0061803279 0.0027940299 -0.0011428571
0.0012076503 -0.0042268657 -0.00057142857
0.0081693986 0.0017910447 -0.0032857142
-0.003907104 -0.0022208956 0
0.0077431696 -0.0025074626 0.00042857142
-0.0020601093 -0.0048000002 0.00071428571
-0.0088797817 -0.0029373134 -0.00042857142
0.0029125684 0.0009313433 -0.0015714286
-0.00021311475 -0.0037970149 -0.0027142856
0.0061803279 0.0036537314 -0.0032857142
0.011579235 -0.0048000002 -0.0024285715
-0.0027704919 0.0020776119 -0.0011428571
-0.0093060108 -0.0029373134 -0.0027142856
-0.0090218578 -0.0025074626 -0.0012857143
0.0050437157 0.0040835822 -0.0031428572
-0.00078142079 0.0048000002 -0.00085714285
0.0078852456 -0.0012179104 -0.0025714287
-0.0030546449 -0.0040835822 -0.00057142857
-0.0063224044 0.0036537314 -0.0028571428
-0.012431694 0.0033671642 -0.0028571428
-0.0087377047 -0.0025074626 -0.0012857143
-0.0010655738 -0.0017910447 -0.00071428571
-0.0088797817 0.0032238807 -0.00085714285
-0.0058961748 0.0009313433 -0.0038571428
-0.0024863388 -0.0023641791 -0.0011428571
0.0034808742 -0.0009313433 -0.00057142857
0.0057540983 -0.0027940299 -0.0025714287
-0.0017759562 -0.0027940299 0.0011428571
-0.01015847 -0.0027940299 0.0018571429
0.012005464 -0.0029373134 -0.00071428571
0.00731694 -0.00078805973 -0.0022857143
0.0056120218 -0.0025074626 -0.0025714287
-0.007032787 0.0010746268 -0.00028571428
-0.0031967212 -0.0029373134 -0.00042857142
0.007601093 -0.0048000002 -0.0024285715
0.0060382513 -0.0027940299 0.00085714285
0.0078852456 -0.00021492537 -0.00014285714
-0.0078852456 -0.0010746268 -0.00028571428
0.010868852 -0.0016477612 -0.0031428572
-0.012431694 0.0023641791 -0.0011428571
0.0056120218 -0.0020776119 -0.00057142857
-0.00021311475 -0.0010746268 -0.0032857142
-0.0078852456 -0.0042268657 0.0015714286
-0.012857923 0.0016477612 -0.00085714285
-0.00049726776 -0.0033671642 -0.0027142856
-0.0036229508 -0.0040835822 -0.0012857143
-0.0047595627 0.0026507464 -0.0011428571
0.0095901638 -0.0040835822 -0.00071428571
0.0063224044 0.0043701492 -0.0028571428
0.0044754096 0.0048000002 -0.00085714285
0.0058961748 -0.0029373134 -0.00028571428
-0.011153005 -0.0040835822 -0.0031428572
0.0094480878 -0.00078805973 -0.0018571429
0.010016394 7.1641793e-05 -0.00014285714
-0.012857923 -0.0006447761 -0.0035714286
-0.0083114756 0.0042268657 -0.0028571428
0.00731694 -0.0023641791 -0.0031428572
0.00035519127 0.0042268657 -0.00071428571
0.0012076503 0.0046567162 -0.0032857142
0.0066065574 0.0036537314 -0.0028571428
0.010016394 -0.0042268657 -0.0011428571
-0.0058961748 -0.0042268657 0
0.0091639347 -0.0012179104 -0.0031428572
0.0064644809 0.0013611941 -0.00071428571
-0.0078852456 -0.0039402987 -0.0025714287
0.0083114756 -0.0048000002 -0.00057142857
0.0094480878 0.0027940299 -0.0011428571
0.0013497268 -0.0006447761 -0.00014285714
-0.011721311 0.0009313433 -0.0018571429
0.0078852456 -0.0045134327 0.0024285715
0.0040491805 0.0012179104 -0.0025714287
0.0014918033 0.0043701492 -0.0011428571
0.0081693986 0.0035104477 -0.0031428572
0.0027704919 0.0045134327 -0.0011428571
-0.012147541 -0.0020776119 -0.00057142857
0.0013497268 0.0027940299 -0.00071428571
0.0050437157 -0.0017910447 -0.0012857143
7.1038252e-05 -0.0026507464 -0.001
0.0098743169 0.0020776119 -0.0031428572
0.0014918033 -0.0025074626 -0.0011428571
-0.013 7.1641793e-05 -0.0025714287
0.0064644809 0.0010746268 -0.0035714286
-0.010442623 0.0039402987 -0.0031428572
0.0064644809 -0.0012179104 -0.0012857143
0.011437158 -7.1641793e-05 -0.00014285714
0.011863388 -0.0048000002 -0.00085714285
-0.0036229508 0.0012179104 -0.00071428571
-0.0087377047 0.0022208956 -0.0031428572
0.00078142079 0.0009313433 -0.00057142857
0.0020601093 0.0010746268 -0.0025714287
0.0050437157 -0.0025074626 -0.0032857142
0.012005464 0.0010746268 -0.00071428571
-0.0020601093 -0.0022208956 0.0015714286
0.0066065574 -0.0017910447 -0.0031428572
-0.0022021858 -0.0033671642 -0.0032857142
0.00092349725 0.0012179104 -0.0011428571
0.0060382513 -0.0013611941 -0.0012857143
-0.0098743169 -0.0010746268 -0.0038571428
-0.012289617 0.0042268657 -0.003
0.0077431696 -7.1641793e-05 -0.0038571428
0.0098743169 0.00050149253 -0.00014285714
-0.0033387977 0.0009313433 -0.00028571428
0.0041912571 -0.0040835822 -0.00085714285
-0.0022021858 -0.0026507464 0.0021428571
-0.0031967212 -0.0019343283 -0.0027142856
0.0036229508 -0.0010746268 -0.0032857142
-0.0090218578 0.0045134327 -0.0031428572
0.0047595627 -0.0040835822 -0.0014285714
0.012147541 -0.0043701492 0.0018571429
-0.011437158 0.0009313433 -0.00014285714
0.0066065574 0.0025074626 -0.0027142856
-0.0093060108 0.0019343283 -0.00071428571
0.0074590165 0.0010746268 -0.0015714286
-0.0016338797 -0.0006447761 -0.0038571428
-0.010300547 -0.0009313433 -0.00014285714
-0.0022021858 0.0036537314 -0.0027142856
-0.0027704919 0.0009313433 -0.0015714286
0.0017759562 0.0022208956 -0.0011428571
-0.0031967212 -0.00078805973 -0.0012857143
0.00078142079 -0.0009313433 -0.00057142857
0.0033387977 -0.0009313433 -0.0037142858
0.0029125684 0.0010746268 -0.0035714286
0.0097322408 -0.0010746268 -0.00014285714
0.0077431696 0.00035820896 -0.0038571428
-0.0060382513 -0.0022208956 0.0018571429
0.0068907104 0.0010746268 -0.0020000001
0.0026284154 0.0032238807 -0.0027142856
-0.00063934427 -0.0042268657 -0.00057142857
-0.0041912571 0.0015044776 -0.0032857142
-0.011863388 0.00078805973 -0.00014285714
-0.012857923 -0.0012179104 -0.003
-0.0044754096 -0.0040835822 -0.00042857142
-0.0071748635 -0.0022208956 -0.0031428572
-0.0088797817 -0.00078805973 -0.0022857143
0.0071748635 -0.0045134327 -0.00014285714
-0.0010655738 -0.0048000002 -0.00028571428
-0.00092349725 0.0022208956 -0.0027142856
0.0037650273 0.0025074626 -0.0012857143
-0.010868852 -0.0045134327 -0.0028571428
0.011863388 -0.0042268657 -0.003
0.0091639347 -0.0013611941 -0.00071428571
-0.0067486339 0.0027940299 -0.0027142856
0.0027704919 -0.0009313433 -0.00028571428
0.0030546449 0.0017910447 -0.0032857142
-0.0066065574 -0.0033671642 -0.0027142856
0.0016338797 0.0019343283 -0.0025714287
0.0013497268 -0.0025074626 -0.00014285714
-0.011721311 0.0010746268 -0.0034285714
-0.0063224044 0.0045134327 -0.00085714285
-7.1038252e-05 -0.0027940299 0.0025714287
7.1038252e-05 -0.0012179104 -0.0025714287
-0.0061803279 -0.0048000002 0.0024285715
0.0063224044 0.0036537314 -0.0032857142
-0.0080273226 -0.0042268657 -0.0018571429
0.0061803279 -0.0048000002 0.0025714287
-0.010868852 0.0026507464 -0.00085714285
0.00092349725 -0.00078805973 -0.0021428571
0.01257377 0.0029373134 -0.001
0.0027704919 -0.0009313433 -0.0034285714
-0.00078142079 -0.0012179104 -0.0032857142
-0.0016338797 0.0017910447 -0.0027142856
0.0040491805 0.0010746268 -0.0025714287
0.0010655738 -0.0026507464 -0.001
0.0044754096 -0.0025074626 -0.0032857142
0.0034808742 -0.00078805973 -0.0017142857
0.0010655738 0.0009313433 -0.0021428571
-0.0077431696 -0.0045134327 0.0012857143
0.00049726776 -0.0017910447 -0.0025714287
-0.0068907104 0.0029373134 -0.0011428571
0.007032787 0.0043701492 -0.0031428572
-0.011863388 -0.0030805969 -0.0031428572
0.0013497268 -0.0010746268 -0.00071428571
-0.0064644809 -0.00078805973 -0.0015714286
-0.00021311475 -0.0046567162 0.0018571429
-0.0014918033 0.0027940299 -0.0032857142
-0.007032787 0.00035820896 -0.00014285714
-0.0044754096 -0.0046567162 -0.0031428572
0.011721311 -0.0026507464 -0.00014285714
0.0017759562 -0.0040835822 -0.00014285714
-0.011437158 0.0009313433 -0.00042857142
-0.0041912571 -0.0023641791 -0.0027142856
-0.0020601093 -0.0046567162 0.00057142857
0.012147541 -0.0045134327 0.0027142856
-0.010868852 -0.0025074626 -0.0031428572
-0.012715847 -0.0013611941 -0.0031428572
0.0037650273 0.00078805973 -0.0038571428
-0.0041912571 -0.0048000002 -0.00042857142
-0.0013497268 0.0022208956 -0.0032857142
-0.0046174861 0.0039402987 -0.00085714285
0.007601093 -0.0040835822 -0.00042857142
-0.0046174861 0.00078805973 -0.0038571428
-0.0017759562 -0.0046567162 0.00014285714
0.0017759562 -0.0040835822 -0.0017142857
0.0044754096 0.0026507464 -0.0012857143
0.011579235 -0.0025074626 -0.001
-0.0050437157 0.0019343283 -0.00071428571
-0.0031967212 -0.0043701492 -0.00014285714
0.0054699453 0.0040835822 -0.0031428572
-0.0046174861 0.0026507464 -0.0027142856
0.0068907104 0.0013611941 -0.0025714287
-0.012289617 -0.0036537314 -0.0028571428
-0.0067486339 0.0025074626 -0.0031428572
-0.012289617 0.0029373134 -0.001
0.0033387977 0.00050149253 -0.00014285714
0.0041912571 -0.00078805973 -0.0017142857
-0.007032787 -0.00078805973 -0.0017142857
0.0083114756 0.0043701492 -0.0031428572
0.011579235 0.0026507464 -0.0011428571
-0.0066065574 -0.0016477612 -0.0012857143
0.013 -0.00035820896 -0.0012857143
0.0037650273 0.0017910447 -0.00071428571
-0.0060382513 -0.0022208956 0.0015714286
-0.0074590165 -0.00078805973 -0.0038571428
0.0014918033 -0.0020776119 -0.00071428571
-0.0017759562 -0.0043701492 0.0018571429
0.0023442623 0.0010746268 -0.0014285714
-0.00063934427 0.0037970149 -0.0032857142
0.00049726776 -0.0027940299 -0.00071428571
0.007032787 -0.0017910447 -0.0031428572
-0.0058961748 -0.0040835822 -0.0018571429
-0.0063224044 0.0012179104 -0.0027142856
0.010300547 0.0033671642 -0.0028571428
0.011437158 0.0015044776 -0.0012857143
-0.0024863388 0.0043701492 -0.00085714285
-0.0043333331 0.0025074626 -0.00071428571
-0.00035519127 0.00078805973 -0.00014285714
0.01015847 0.0023641791 -0.0011428571
0.0027704919 -0.0006447761 -0.0038571428
-0.0061803279 -0.0027940299 0.00057142857
-0.012147541 -0.00035820896 -0.00014285714
0.01015847 -0.0026507464 -0.0031428572
-0.0085956287 -0.0048000002 -0.0027142856
-0.0078852456 0.0032238807 -0.0028571428
-0.0034808742 0.0032238807 -0.0032857142
0.0012076503 -0.00050149253 -0.00014285714
-0.0077431696 -0.0010746268 -0.00014285714
0.0068907104 0.0020776119 -0.0032857142
0.010868852 -0.0026507464 -0.0031428572
-0.0057540983 -0.0033671642 -0.0027142856
0.0029125684 -0.0022208956 -0.00014285714
-0.0041912571 -0.0048000002 -0.001
-0.0074590165 -0.0045134327 -0.0021428571
0.0023442623 -0.0012179104 -0.00071428571
0.00092349725 0.0029373134 -0.0032857142
0.0034808742 0.0020776119 -0.0025714287
0.0013497268 -0.0023641791 -0.0027142856
0.0022021858 -0.0022208956 -0.00057142857
-0.012005464 -0.0030805969 -0.0028571428
0.0067486339 0.00021492537 -0.00014285714
-0.011153005 -0.0023641791 -0.0025714287
-0.0036229508 -0.0040835822 -0.00057142857
0.0050437157 -0.0009313433 -0.0038571428
0.003907104 0.0030805969 -0.0011428571
-0.01015847 0.0012179104 -0.0034285714
0.00731694 0.0029373134 -0.00071428571
-0.0054699453 0.0009313433 -0.00057142857
0.0053278687 -0.0020776119 -0.0012857143
-0.0087377047 -0.0026507464 -0.0011428571
-0.0050437157 -0.0043701492 -0.0031428572
-0.0087377047 -0.0030805969 -0.0027142856
-0.0053278687 0.0013611941 -0.0012857143
0.010584699 -0.0010746268 -0.0012857143
-0.0077431696 0.0033671642 -0.0031428572
-0.010726776 0.0006447761 -0.0038571428
-0.0068907104 0.0027940299 -0.0031428572
-0.0017759562 -0.0009313433 -0.0038571428
-0.0091639347 -0.0035104477 -0.0031428572
-0.0090218578 -0.0022208956 -0.00014285714
-0.0057540983 -0.0010746268 -0.0035714286
-0.0078852456 0.0037970149 -0.00085714285
-0.0095901638 0.0032238807 -0.0031428572
-0.0083114756 -0.0033671642 -0.0027142856
0.0053278687 0.0032238807 -0.0032857142
-0.0083114756 -0.0029373134 -0.00028571428
-0.0053278687 0.0048000002 -0.0011428571
-0.0010655738 -0.00021492537 -0.0038571428
-0.011153005 0.0036537314 -0.003
0.0088797817 -0.0043701492 -0.0018571429
-0.011153005 0.0037970149 -0.001
0.007601093 -0.0048000002 -0.001
-0.0061803279 -0.0046567162 -0.0031428572
-0.0041912571 -0.0045134327 0.00057142857
-0.0081693986 -0.0025074626 0.00085714285
-0.00731694 -0.0048000002 -0.0025714287
-0.0046174861 -0.0048000002 -0.0015714286
-0.0023442623 0.0035104477 -0.0032857142
0.0017759562 -0.0033671642 -0.0032857142
0.0014918033 0.0039402987 -0.0027142856
-0.0044754096 -0.0048000002 -0.0027142856
-0.0026284154 0.0039402987 -0.0011428571
-0.0040491805 0.0027940299 -0.00071428571
-0.011295082 -0.0033671642 -0.0031428572
0.0020601093 -0.0010746268 -0.00071428571
0.0098743169 -0.0029373134 -0.00071428571
-0.0091639347 0.0035104477 -0.0028571428
-0.0097322408 -0.0033671642 -0.0031428572
-0.003907104 -0.0035104477 -0.0032857142
0.0043333331 0.0042268657 -0.0031428572
-0.0051857922 0.0027940299 -0.0027142856
0.00092349725 -0.0020776119 -0.0027142856
0.010442623 -0.0016477612 -0.0031428572
-0.0040491805 -0.0022208956 0.00085714285
-0.011437158 -0.00050149253 -0.00014285714
0.0014918033 -0.00078805973 -0.0012857143
-0.00078142079 0.0010746268 -0.00071428571
0.0054699453 0.0033671642 -0.0032857142
-0.003907104 -0.0006447761 -0.00014285714
0.0095901638 -0.00021492537 -0.00014285714
-0.0067486339 -0.0017910447 -0.0027142856
-7.1038252e-05 0.0010746268 -0.0024285715
-0.0084535517 0.0026507464 -0.0028571428
0.0029125684 -0.0040835822 -0.0012857143
-0.011721311 -0.00078805973 -0.0014285714
-0.010016394 -0.0029373134 0.0022857143
-0.011010929 -0.0012179104 -0.0012857143
-0.0080273226 -0.0048000002 0.0025714287
-0.0034808742 -0.0048000002 -0.0017142857
0.0081693986 -7.1641793e-05 -0.0038571428
0.011010929 -0.0019343283 -0.0025714287
0.0074590165 -0.0026507464 -0.00014285714
0.0058961748 -0.0046567162 0.0027142856
-0.0046174861 -0.0016477612 -0.0032857142
-0.011153005 0.0026507464 -0.0028571428
0.0068907104 -0.0048000002 -0.0011428571
0.0080273226 -0.0022208956 0.00085714285
0.00021311475 -0.0030805969 -0.0027142856
0.010868852 -0.00078805973 -0.0012857143
0.0080273226 0.0016477612 -0.0012857143
-0.0020601093 -0.0048000002 0.0022857143
0.0074590165 -0.0015044776 -0.0031428572
0.010868852 0.0010746268 -0.0037142858
-0.0031967212 0.0025074626 -0.0027142856
-0.0017759562 0.0009313433 -0.00028571428
0.0029125684 -0.0033671642 -0.0032857142
-0.0037650273 -0.0048000002 -0.00071428571
0.0068907104 0.00050149253 -0.0038571428
-0.0084535517 0.0042268657 -0.0031428572
0.011153005 0.0037970149 -0.0031428572
0.0064644809 -0.0009313433 -0.0038571428
-0.0090218578 -0.0019343283 -0.0012857143
0.007601093 0.0006447761 -0.0038571428
-0.012857923 0.0006447761 -0.0027142856
-0.0074590165 -0.0006447761 -0.00014285714
0.0098743169 -0.00078805973 -0.0015714286
-0.0066065574 -0.00078805973 -0.0018571429
0.0098743169 0.0043701492 -0.00085714285
0.0077431696 -0.0043701492 -0.0014285714
0.0029125684 0.0009313433 -0.00014285714
0.0031967212 -0.0016477612 -0.0011428571
-0.010584699 -0.0016477612 -0.0025714287
0.0085956287 -0.0006447761 -0.00014285714
-0.007601093 -0.00078805973 -0.0024285715
0.01015847 0.0032238807 -0.0011428571
0.0024863388 -0.0040835822 -0.0031428572
0.010300547 0.0013611941 -0.0027142856
0.0061803279 -0.0015044776 -0.0012857143
0.0088797817 -0.0043701492 -0.0024285715
0.0046174861 -0.0040835822 -0.00014285714
-0.0067486339 0.0019343283 -0.0027142856
-0.010016394 -0.0048000002 0.0015714286
0.0022021858 0.0046567162 -0.0032857142
-0.012147541 -0.0043701492 0.0021428571
0.0031967212 0.0015044776 -0.0011428571
-0.0027704919 0.0032238807 -0.0011428571
0.007601093 0.0048000002 -0.00085714285
-0.010016394 -0.0048000002 -0.0017142857
0.012715847 0.0022208956 -0.0028571428
0.0090218578 -0.0012179104 -0.00071428571
-0.0066065574 -0.0040835822 -0.00014285714
0.0081693986 0.00050149253 -0.00014285714
0.0019180328 -0.0026507464 0.0027142856
0.0098743169 0.0033671642 -0.00085714285
0.0094480878 -0.0030805969 -0.0031428572
0.013 0.00021492537 -0.0018571429
-7.1038252e-05 -0.0042268657 -0.0017142857
-0.012289617 -0.0013611941 -0.0025714287
0.0017759562 -0.0027940299 -0.00085714285
0.0034808742 -0.0040835822 -0.0024285715
-0.0040491805 -0.0027940299 -0.00085714285
-0.0051857922 0.0013611941 -0.0032857142
0.0016338797 -0.0025074626 -0.00014285714
0.00049726776 -0.0048000002 -0.0018571429
-0.0061803279 -0.0023641791 0.00085714285
-0.0081693986 0.0037970149 -0.00085714285
-0.0084535517 0.0012179104 -0.0027142856
0.011437158 -0.0025074626 -0.0027142856
-0.0033387977 -0.0027940299 -0.00085714285
-0.0091639347 0.0017910447 -0.00071428571
0.0061803279 -0.0029373134 -0.00014285714
0.003907104 0.0032238807 -0.0027142856
-0.013 0.00050149253 -0.0031428572
0.0041912571 -0.0022208956 -0.00028571428
0.0034808742 -7.1641793e-05 -0.0038571428
-0.0017759562 0.0023641791 -0.0025714287
-0.01015847 -0.00078805973 -0.0015714286
0.0088797817 -0.0015044776 -0.0031428572
0.0013497268 -0.0030805969 -0.0027142856
-0.0085956287 -0.0023641791 -0.0012857143
-0.00078142079 -0.0048000002 -0.00028571428
0.0044754096 -0.0010746268 -0.0012857143
0.01015847 0.0022208956 -0.00085714285
0.010584699 0.0015044776 -0.0012857143
0.0067486339 -0.0027940299 -0.0025714287
-0.0022021858 -0.00078805973 -0.0022857143
-0.013 0.00035820896 -0.001
0.0054699453 0.0032238807 -0.0012857143
0.0050437157 -0.0009313433 -0.0037142858
-7.1038252e-05 -0.0048000002 0.00042857142
-0.010016394 -0.0030805969 -0.0025714287
-0.011010929 0.0036537314 -0.003
-0.0091639347 0.0023641791 -0.00071428571
0.011863388 -0.0043701492 0.0014285714
-0.0081693986 -0.0043701492 0.0012857143
7.1038252e-05 0.0039402987 -0.0027142856
-0.0093060108 0.0010746268 -0.0017142857
-0.0026284154 -0.0022208956 -0.00057142857
0.012289617 -0.0040835822 -0.0024285715
-0.0047595627 -0.0027940299 -0.0032857142
-0.0019180328 -0.0040835822 -0.00085714285
0.011863388 -0.0023641791 -0.0031428572
0.0078852456 -0.0026507464 -0.0027142856
0.0054699453 -0.0023641791 -0.00014285714
0.0023442623 -0.0009313433 -0.0038571428
0.0024863388 -0.0026507464 -0.00014285714
-0.011863388 -0.0006447761 -0.0017142857
0.010868852 0.0026507464 -0.0011428571
0.0061803279 -0.0023641791 0
-0.0040491805 -0.0015044776 -0.00071428571
0.012005464 -0.0029373134 -0.00042857142
-0.0097322408 0.00078805973 -0.00014285714
0.0083114756 0.0022208956 -0.0012857143
0.0016338797 0.0010746268 -0.0035714286
-0.0068907104 -0.0015044776 -0.0034285714
0.00078142079 -0.0009313433 -0.0034285714
0.0047595627 0.0012179104 -0.0025714287
0.00021311475 -0.0045134327 0.00057142857
0.0043333331 -0.0029373134 -0.00071428571
-0.0090218578 -0.0040835822 -0.0020000001
0.0041912571 -0.0025074626 0.0018571429
0.010442623 0.0010746268 -0.0037142858
-0.0040491805 -0.0026507464 -0.0027142856
0.0074590165 0.0043701492 -0.0031428572
0.003907104 -0.0026507464 0.0025714287
-0.011010929 0.0046567162 -0.003
-0.01015847 -0.0045134327 0.00028571428
0.012857923 -0.00050149253 -0.0031428572
0.010442623 -0.0029373134 -0.0027142856
0.01257377 0.00050149253 -0.00014285714
-0.0043333331 -0.0040835822 -0.001
0.0010655738 -0.0025074626 -0.0011428571
-0.0085956287 -0.0010746268 -0.00071428571
0.0014918033 -0.0026507464 -0.0027142856
0.010442623 0.0032238807 -0.0028571428
0.0022021858 0.0048000002 -0.0011428571
0.0040491805 0.0042268657 -0.0011428571
0.0017759562 0.0009313433 -0.00028571428
0.0020601093 0.0023641791 -0.0025714287
0.0029125684 0.0013611941 -0.00071428571
0.0090218578 0.0033671642 -0.0028571428
-0.01257377 -0.0012179104 -0.0031428572
-0.0094480878 -0.0025074626 -0.0012857143
0.0074590165 -0.0010746268 -0.00042857142
-0.007601093 -0.0029373134 -0.00014285714
-0.0057540983 -0.0048000002 0.0015714286
0.0041912571 0.0010746268 -0.0014285714
-0.0095901638 0.0042268657 -0.0028571428
-0.0067486339 0.0010746268 -0.0025714287
-0.0022021858 -0.0026507464 0.0024285715
-0.00021311475 -0.0023641791 0.00028571428
-0.0097322408 -0.0020776119 -0.0031428572
-0.011863388 -0.0048000002 0.0020000001
-0.01015847 0.0035104477 -0.001
-0.0077431696 -0.0023641791 0
0.00078142079 -0.0022208956 -0.00014285714
-0.0058961748 -0.0029373134 0.00042857142
0.0034808742 -0.0012179104 -0.00071428571
0.012147541 0.0009313433 -0.0015714286
0.0063224044 0.0016477612 -0.0032857142
-0.007601093 -0.0045134327 -0.0017142857
0.0013497268 -0.0048000002 -0.0011428571
-0.0056120218 -0.0023641791 -0.0032857142
-0.0023442623 -0.0048000002 -0.0020000001
0.0085956287 0.0032238807 -0.0031428572
-0.00092349725 0.0039402987 -0.0011428571
-0.00731694 0.0026507464 -0.0031428572
-0.01015847 -0.0027940299 0.0024285715
0.0078852456 -0.0025074626 -0.0011428571
-0.0030546449 -0.0040835822 -0.0015714286
0.0098743169 0.0026507464 -0.0028571428
-7.1038252e-05 -0.0015044776 -0.0025714287
0.0098743169 0.0029373134 -0.00085714285
-0.0017759562 -0.0027940299 0.00057142857
0.0056120218 -0.0013611941 -0.0027142856
0.0049016392 -0.0022208956 -0.0032857142
-0.010442623 0.0030805969 -0.0028571428
-0.0010655738 -0.0042268657 -0.00028571428
-0.011579235 0.0009313433 -0.0018571429
0.011295082 0.0023641791 -0.0028571428
0.0044754096 0.0013611941 -0.00071428571
0.00731694 0.0010746268 -0.0017142857
0.011863388 0.0017910447 -0.0031428572
-0.0053278687 0.00078805973 -0.00014285714
-0.0043333331 -0.0022208956 -0.00014285714
-0.010584699 0.0032238807 -0.0011428571
-0.0029125684 0.0040835822 -0.0032857142
-0.003907104 -0.0043701492 0.0027142856
-0.0043333331 -0.0012179104 -0.0012857143
-0.0071748635 -0.0048000002 -0.00071428571
0.00035519127 0.0023641791 -0.0032857142
0.0061803279 -0.0037970149 -0.0025714287
0.0024863388 0.0030805969 -0.00071428571
0.0054699453 -0.0012179104 -0.0012857143
0.0043333331 -0.0040835822 -0.00028571428
0.0017759562 -0.0040835822 -0.00028571428
0.0094480878 0.0023641791 -0.00085714285
-0.012005464 -0.0029373134 -0.00028571428
0.0077431696 -0.0016477612 -0.0012857143
0.011579235 -0.0013611941 -0.00071428571
0.010300547 -0.0040835822 -0.00014285714
0.0010655738 0.0048000002 -0.0031428572
0.0093060108 -0.0027940299 -0.0031428572
-0.0016338797 0.0010746268 -0.0037142858
-0.0047595627 0.0037970149 -0.0011428571
-0.012005464 0.0029373134 -0.001
0.0060382513 -0.0042268657 0.0018571429
0.012431694 -0.00050149253 -0.00014285714
0.0019180328 0.0029373134 -0.00071428571
0.0057540983 0.0027940299 -0.00071428571
-0.0040491805 -0.0016477612 -0.00071428571
0.0097322408 0.0025074626 -0.0031428572
-0.010868852 0.0013611941 -0.0027142856
0.010016394 -0.0022208956 -0.00014285714
0.0093060108 0.0045134327 -0.0031428572
0.0041912571 -0.0006447761 -0.0038571428
0.010442623 -0.0040835822 -0.00028571428
-0.0019180328 0.0035104477 -0.0032857142
0.0058961748 -0.0040835822 -0.00071428571
0.010300547 -0.0015044776 -0.00071428571
0.012147541 -0.0045134327 -0.0014285714
0.012857923 0.0019343283 -0.0011428571
0.0049016392 0.0026507464 -0.0012857143
0.0093060108 -0.0010746268 -0.0032857142
-0.0058961748 -0.0022208956 0.00028571428
0.0093060108 0.0029373134 -0.0011428571
0.0061803279 -0.0048000002 0.00057142857
0.011721311 0.0010746268 -0.00028571428
-0.0074590165 -0.0020776119 -0.00057142857
0.0093060108 -0.0037970149 -0.0031428572
0.00731694 -0.0012179104 -0.00071428571
0.0064644809 -0.0048000002 -0.0012857143
-0.011153005 0.0025074626 -0.00085714285
-0.0083114756 0.0015044776 -0.0012857143
0.0024863388 -0.00035820896 -0.0038571428
0.0030546449 0.0048000002 -0.0011428571
0.003907104 -0.0023641791 0.0025714287
0.0080273226 -0.0022208956 -0.00028571428
-0.0016338797 7.1641793e-05 -0.00014285714
0.0080273226 -0.0010746268 -0.0035714286
-0.011579235 -0.00050149253 -0.00014285714
-0.0077431696 0.0035104477 -0.0031428572
0.0077431696 -0.0029373134 -0.00014285714
0.0050437157 -0.0012179104 -0.0032857142
0.011010929 0.0033671642 -0.0028571428
0.010016394 -0.0048000002 -0.00014285714
0.0019180328 0.0048000002 -0.0031428572
0.00092349725 -0.0042268657 -0.0014285714
-0.0020601093 -0.00035820896 -0.00014285714
0.011153005 0.0030805969 -0.0031428572
-0.0014918033 0.0009313433 -0.00014285714
0.010726776 0.00021492537 -0.0038571428
0.010442623 -0.0040835822 -0.0018571429
0.0040491805 -0.0048000002 -0.001
-0.00731694 0.0030805969 -0.00071428571
0.0026284154 0.0046567162 -0.0028571428
-0.0027704919 -0.0036537314 -0.0025714287
0.0088797817 0.0029373134 -0.0028571428
-0.0020601093 0.0035104477 -0.0032857142
0.0066065574 0.0022208956 -0.0027142856
0.0081693986 -0.0025074626 0.00057142857
0.0022021858 0.0016477612 -0.0025714287
-0.00092349725 -0.0040835822 -0.0031428572
-0.00731694 0.0045134327 -0.0011428571
-0.007032787 -0.0030805969 -0.0027142856
-0.007032787 -0.0046567162 -0.00014285714
0.0020601093 0.0009313433 -0.0017142857
-0.0040491805 -0.0022208956 0.0011428571
-0.00731694 -0.0013611941 -0.0012857143
0.0066065574 0.0032238807 -0.0028571428
-0.0084535517 0.0017910447 -0.0012857143
0.0098743169 -0.0046567162 0.0018571429
0.003907104 -0.0023641791 0.0017142857
-0.0010655738 0.0016477612 -0.0011428571
-7.1038252e-05 -0.0023641791 0.00057142857
-0.0044754096 -0.0032238807 -0.0032857142
0.010442623 -0.00078805973 -0.0015714286
0.0058961748 0.0027940299 -0.0032857142
0.011010929 0.00021492537 -0.0038571428
0.0090218578 -0.0032238807 -0.0027142856
-0.0046174861 -0.0048000002 -0.0028571428
-0.0081693986 -0.0027940299 0.00071428571
0.00092349725 -0.0012179104 -0.00071428571
0.0060382513 -0.0040835822 -0.0031428572
0.0012076503 0.0009313433 -0.00042857142
-0.0012076503 0.0039402987 -0.0032857142
-0.0041912571 -0.0045134327 0.00028571428
-0.0019180328 -0.0048000002 0.0022857143
-0.0024863388 -0.0048000002 -0.0028571428
-0.0081693986 -0.0048000002 -0.0012857143
-0.0056120218 0.0027940299 -0.0027142856
0.00021311475 -0.0048000002 -0.00014285714
-0.00021311475 -0.0046567162 0.00028571428
0.0077431696 0.00021492537 -0.00014285714
-0.011721311 -0.0048000002 -0.0017142857
-0.00063934427 -0.0033671642 -0.0031428572
-0.00731694 -0.0039402987 -0.0024285715
-0.00049726776 -0.0017910447 -0.0032857142
0.0080273226 -0.0048000002 -0.00028571428
0.0027704919 -0.0040835822 -0.00042857142
-0.0088797817 0.0046567162 -0.001
-0.0084535517 7.1641793e-05 -0.00014285714
0.0044754096 0.0009313433 -0.0021428571
0.0081693986 -0.0046567162 0.0017142857
0.0083114756 -0.0010746268 -0.00071428571
0.0027704919 0.0016477612 -0.0011428571
0.00092349725 0.0015044776 -0.0011428571
0.0030546449 -0.00035820896 -0.0038571428
-0.00021311475 0.0020776119 -0.00071428571
-0.007032787 0.0027940299 -0.0027142856
0.0043333331 0.0009313433 -0.0017142857
0.0017759562 0.0046567162 -0.00085714285
-0.0098743169 -0.0022208956 0.00028571428
-0.0031967212 0.0026507464 -0.0011428571
0.012857923 0.00078805973 -0.00042857142
-0.0010655738 0.0022208956 -0.0027142856
-0.0041912571 -0.0043701492 0.00028571428
0.0041912571 -0.0040835822 -0.0014285714
-0.0053278687 -0.00078805973 -0.0014285714
-0.010726776 -0.00078805973 -0.0024285715
-0.003907104 0.0042268657 -0.0011428571
0.0010655738 -0.0029373134 -0.0027142856
-0.010442623 -0.0045134327 -0.00042857142
0.0098743169 -0.0009313433 -0.0038571428
0.011579235 0.0025074626 -0.0031428572
0.0010655738 0.0013611941 -0.00071428571
0.0022021858 -0.0045134327 0.0021428571
-0.0037650273 -0.0016477612 -0.0032857142
-0.0043333331 0.0023641791 -0.0032857142
0.0081693986 -0.0026507464 0.0022857143
-0.0084535517 0.0012179104 -0.0034285714
0.0040491805 0.0030805969 -0.0012857143
-0.0090218578 -0.0035104477 -0.0031428572
0.0043333331 0.0017910447 -0.0032857142
0.0053278687 0.00021492537 -0.0038571428
0.0030546449 0.0017910447 -0.00071428571
-0.0097322408 -0.0019343283 -0.00071428571
0.0098743169 0.0020776119 -0.00085714285
0.0051857922 0.0048000002 -0.0031428572
0.0060382513 0.0030805969 -0.0012857143
-0.0010655738 0.0009313433 -0.00014285714
0.012715847 -0.00078805973 -0.0021428571
-0.0077431696 -0.0029373134 -0.00028571428
0.010016394 -0.0015044776 -0.0031428572
-0.0054699453 -0.0025074626 -0.0011428571
-0.01015847 -0.0045134327 0.0024285715
0.0026284154 -0.0036537314 -0.0025714287
0.012431694 -0.0030805969 -0.0028571428
-0.0012076503 0.0013611941 -0.00071428571
0.0033387977 -0.0010746268 -0.00071428571
0.010016394 0.0043701492 -0.0011428571
-0.0037650273 -0.0046567162 0.00085714285
-0.0093060108 0.0029373134 -0.0031428572
0.0041912571 -0.0040835822 -0.0012857143
0.012005464 -0.0046567162 -0.0024285715
-0.0030546449 -0.0015044776 -0.00071428571
-0.00731694 0.0020776119 -0.00071428571
0.0090218578 -0.0033671642 -0.0031428572
-0.0057540983 -0.0048000002 0.00071428571
0.013 0.00035820896 -0.00071428571
-0.0044754096 -0.0026507464 -0.0032857142
-0.0030546449 -0.00078805973 -0.0038571428
-0.0081693986 -0.0048000002 -0.0022857143
0.0098743169 0.0027940299 -0.0028571428
0.0050437157 -0.0048000002 -0.0027142856
0.0043333331 0.00078805973 -0.00014285714
-0.00035519127 -0.0009313433 -0.0011428571
-0.010016394 -0.0020776119 -0.0031428572
0.011579235 -0.00021492537 -0.00014285714
7.1038252e-05 -0.0016477612 -0.00071428571
-0.007032787 -0.0010746268 -0.0027142856
0.0019180328 -0.0046567162 0.0025714287
-0.0054699453 0.0009313433 -0.00014285714
0.01015847 -0.0046567162 0.00042857142
-0.0033387977 0.0015044776 -0.0027142856
0.0074590165 -0.0048000002 -0.0024285715
0.0094480878 -0.0009313433 -0.0037142858
0.0027704919 0.0022208956 -0.0027142856
0.0084535517 -0.0030805969 -0.0025714287
0.0043333331 -0.0048000002 -0.003
-0.0017759562 -0.0029373134 -0.00014285714
0.0020601093 -0.0029373134 0.0015714286
0.0023442623 0.0045134327 -0.00071428571
0.010726776 0.0015044776 -0.0012857143
-0.0061803279 0.0025074626 -0.0032857142
-7.1038252e-05 -0.0010746268 -0.0032857142
0.0067486339 -0.00078805973 -0.0014285714
-0.003907104 -0.00078805973 -0.0025714287
-0.0023442623 -0.00035820896 -0.00014285714
-0.00092349725 -0.0048000002 -0.003
0.0066065574 -0.0006447761 -0.0038571428
0.00035519127 -0.0040835822 -0.0025714287
0.0046174861 -0.0009313433 -0.0037142858
0.013 -0.00021492537 -0.0012857143
-0.010868852 -0.0006447761 -0.0038571428
-0.0077431696 -0.0046567162 0.0015714286
0.00021311475 -0.0023641791 0.00071428571
0.0083114756 -0.0048000002 -0.0012857143
0.012147541 -0.0026507464 -0.0028571428
-0.0047595627 -0.0043701492 -0.0031428572
-0.0080273226 -0.0010746268 -0.00028571428
