# .PCD v0.7 - Point Cloud Data file format
VERSION 0.7
FIELDS x y z
SIZE 4 4 4
TYPE F F F
COUNT 1 1 1
WIDTH 1205
HEIGHT 1
VIEWPOINT 0 0 0 1 0 0 0
POINTS 1205
DATA ascii
0.031381804 -0.0046000001 -0.0042777779
-0.0035703848 0.0023000001 -0.00038888888
-0.042280871 0.0023000001 -0.0066111111
0.018979413 0.0046000001 -0.0035000001
-0.026871843 0.0046000001 -0.0066111111
0.019731073 -0.00345 -0.00038888888
0.00093957491 0.0038333333 -0.00038888888
-0.0088320039 -0.0046000001 -0.003888889
0.0065770247 0.0046000001 -0.0023333333
0.023865202 0.0015333333 -0.00038888888
0.027999332 0.00076666666 -0.0066111111
-0.030630143 -0.0046000001 -0.0042777779
-0.028750993 0.0046000001 -0.00038888888
-0.024616864 -0.0038333333 8.6736174e-19
-0.024241034 -0.0046000001 -0.0027222221
0.012966134 -0.0046000001 -0.0035000001
-0.016724434 -0.0046000001 -0.00038888888
-0.04378419 -0.0023000001 -0.00038888888
0.020106904 0.0015333333 -0.0066111111
0.00018791499 -0.0042166668 -0.00038888888
0.034764271 0 -0.00038888888
0.015221114 -0.0038333333 -0.0066111111
-0.034012612 -0.0046000001 -0.0042777779
0.029878482 0.0015333333 -0.00038888888
-0.011838644 0.0046000001 -0.0015555555
-0.0043220446 -0.0046000001 -0.0027222221
-0.026120184 0.0015333333 -0.00038888888
-0.012966134 0.00115 -0.0066111111
-0.017100263 -0.00038333333 -0.0066111111
-0.029126823 -0.0046000001 -0.0046666665
-0.0054495344 -0.00345 -0.0066111111
-0.0024428947 -0.0019166666 -0.00038888888
0.020106904 -0.0042166668 -0.00038888888
-0.0077045145 0 -0.00038888888
-0.044160023 0.0046000001 -0.0042777779
0.034012612 -0.0030666667 -0.00038888888
-0.010335324 -0.0015333333 -0.00038888888
0.012214474 0.0019166666 -0.0066111111
-0.024992693 -0.0038333333 0.0027222221
0.025744352 0.0046000001 -0.003111111
-0.012966134 0.0046000001 -0.0046666665
0.031005973 0.0026833334 -0.00038888888
-0.040025894 -0.00345 8.6736174e-19
0.040777553 -0.0046000001 -0.003888889
-0.011462814 -0.0046000001 -0.0011666666
-0.028375164 -0.0015333333 -0.00038888888
0.0039462149 0.0046000001 -0.00077777775
-0.035515934 0.0026833334 -0.00038888888
-0.026496014 0.0038333333 -0.0066111111
0.015972774 0.0046000001 -0.0058333334
-0.031757634 0.0046000001 -0.003888889
-0.0028187248 -0.0030666667 -0.00038888888
-0.021986054 -0.0046000001 -0.0066111111
0.017100263 0.00345 -0.0066111111
-0.0043220446 -0.0015333333 -0.00038888888
0.022737714 -0.0046000001 -0.0066111111
-0.010335324 0.0023000001 -0.0066111111
0.035515934 0.0030666667 -0.00038888888
-0.041529212 0.0046000001 -0.0023333333
0.028750993 0.0046000001 -0.003888889
-0.013341964 -0.0046000001 -0.0046666665
-0.0013154049 0.0046000001 -0.003111111
-0.023113543 -0.0046000001 -0.00077777775
-0.0054495344 0.0026833334 -0.00038888888
0.027623503 0.0046000001 -0.0042777779
0.0024428947 0 -0.00038888888
0.030254312 -0.00345 -0.0066111111
0.045663342 -0.0046000001 -0.0066111111
0.016724434 0.0038333333 -0.00038888888
-0.018227754 0.00115 -0.00038888888
-0.042656701 -0.0042166668 -0.0066111111
0.020482734 0.0046000001 -0.003111111
-0.042656701 -0.00345 -0.00038888888
0.039274231 -0.0046000001 -0.0011666666
0.031757634 -0.00115 -0.00038888888
-0.041153383 0.0046000001 -0.0015555555
-0.028750993 -0.0023000001 -0.0066111111
0.040401723 0.0046000001 -0.0042777779
-0.00093957491 0.0015333333 -0.00038888888
-0.028375164 -0.00345 0.0015555555
0.028375164 0.0019166666 -0.00038888888
0.0095836641 -0.00345 0.0027222221
0.046415001 0.0038333333 -0.0066111111
-0.040401723 0.0046000001 -0.0023333333
-0.033636782 -0.0046000001 -0.00038888888
0.0069528543 0.00038333333 -0.0066111111
0.044160023 0.0023000001 -0.00038888888
-0.0088320039 0.0026833334 -0.00038888888
0.013717794 -0.0046000001 -0.0015555555
0.038146742 -0.0019166666 -0.00038888888
-0.043032531 0.0015333333 -0.0066111111
0.0020670649 -0.0023000001 -0.0066111111
0.023865202 -0.0046000001 -0.00077777775
-0.0013154049 -0.0046000001 -0.006222222
0.033636782 0.0046000001 -0.0019444445
0.041153383 0.00076666666 -0.00038888888
0.0035703848 0.00038333333 -0.0066111111
-0.011462814 0.0015333333 -0.0066111111
-0.013341964 0.0046000001 -0.003888889
-0.040777553 -0.00115 -0.0066111111
-0.0050737048 0.0023000001 -0.00038888888
0.025744352 0.0019166666 -0.00038888888
-0.022737714 -0.0042166668 -0.00038888888
0.0031945547 -0.0042166668 -0.00038888888
0.031005973 0.0046000001 -0.0066111111
0.0013154049 0.00115 -0.00038888888
0.031757634 0.0046000001 -0.0066111111
-0.037019253 -0.0019166666 -0.0066111111
-0.026871843 -0.0046000001 -0.00038888888
-0.022737714 -0.0046000001 -0.0050555556
0.035891764 0.0046000001 -0.003111111
-0.033636782 -0.00076666666 -0.0066111111
0.028375164 0.00345 -0.00038888888
0.046415001 0.0038333333 -0.0050555556
0.046039172 -0.0030666667 -0.00038888888
0.03965006 -0.0026833334 -0.0066111111
-0.035515934 0.0046000001 -0.003111111
0.030254312 0.00115 -0.00038888888
0.040777553 0.0026833334 -0.00038888888
-0.03965006 -0.00038333333 -0.0066111111
-0.040025894 0.0046000001 -0.0058333334
0.0073286844 -0.0046000001 -0.00077777775
-0.031757634 -0.00038333333 -0.0066111111
-0.046415001 -0.0030666667 -0.003888889
-0.010711154 -0.0038333333 -0.0066111111
-0.014093624 0.0046000001 -0.0046666665
-0.037019253 -0.0046000001 -0.003888889
-0.042656701 0.0046000001 -0.003111111
0.034388442 0.0046000001 -0.00038888888
-0.011086985 0.00076666666 -0.0066111111
-0.0095836641 -0.0030666667 0.003111111
-0.026871843 0.00115 -0.0066111111
-0.013341964 -0.0030666667 0.0019444445
0.030630143 0.0015333333 -0.0066111111
-0.038898401 -0.0019166666 -0.00038888888
0.014845284 0.00345 -0.00038888888
-0.0046978747 -0.0026833334 -0.0066111111
-0.031381804 0.00345 -0.0066111111
0.032885123 -0.0015333333 -0.00038888888
0.0046978747 -0.0046000001 -0.00077777775
0.037395082 -0.0046000001 -0.003888889
-0.04340836 -0.0046000001 -0.0015555555
-0.029878482 -0.0046000001 -0.00038888888
-0.045287512 0.0046000001 -0.0050555556
-0.037019253 0.0026833334 -0.00038888888
0.029126823 -0.0019166666 -0.00038888888
0.039274231 -0.0026833334 -0.00038888888
-0.011838644 -0.0046000001 -0.003111111
0.030630143 -0.00115 -0.0066111111
-0.031381804 0.0023000001 -0.0066111111
-0.0092078345 -0.0038333333 -0.00038888888
0.037395082 0.0038333333 -0.0066111111
-0.021234393 0.00345 -0.0066111111
0.026496014 -0.0046000001 -0.0015555555
0.040777553 0.0038333333 -0.0066111111
-0.0050737048 -0.00115 -0.00038888888
0.0069528543 -0.00345 -0.0066111111
-0.023865202 -0.00345 -0.0066111111
-0.0088320039 0 -0.0066111111
0.014469454 -0.0019166666 -0.0066111111
0.023489373 -0.00345 -0.0066111111
-0.031005973 0.0015333333 -0.00038888888
-0.0080803446 -0.0046000001 -0.0050555556
0.028750993 0.00345 -0.0066111111
0.0050737048 -0.0046000001 -0.006222222
0.032133464 -0.0046000001 -0.0023333333
-0.017476093 -0.0046000001 -0.0023333333
-0.042280871 0.0046000001 -0.006222222
-0.046415001 0.0038333333 -0.00038888888
0.012214474 0.0015333333 -0.0066111111
0.011462814 0.00345 -0.0066111111
0.018227754 0.0042166668 -0.0066111111
-0.037019253 0.0030666667 -0.0066111111
-0.041153383 0.0026833334 -0.00038888888
0.017100263 -0.00345 0.0027222221
-0.031757634 -0.0046000001 -0.0015555555
-0.017851925 0.0046000001 -0.0066111111
0.019731073 -0.0046000001 -0.0042777779
-0.0054495344 0.0046000001 -0.00038888888
0.046415001 0.0015333333 -0.00077777775
0.017476093 0.0046000001 -0.0066111111
-0.034764271 -0.0046000001 -0.0011666666
-0.024992693 0.00076666666 -0.00038888888
-0.036267594 -0.0030666667 0.0011666666
0.0084561743 0.0046000001 -0.00038888888
0.034012612 0.0046000001 -0.0019444445
-0.032885123 -0.0046000001 -0.00038888888
0.0016912349 0.00038333333 -0.00038888888
-0.042656701 -0.0038333333 -0.0066111111
0.028375164 -0.00345 0.0027222221
0.044160023 -0.0019166666 -0.0066111111
-0.031381804 0.0046000001 -0.0019444445
-0.015972774 0.0023000001 -0.0066111111
-0.0016912349 0.0038333333 -0.0066111111
0.041905042 0.0042166668 -0.0066111111
-0.028375164 -0.00038333333 -0.00038888888
-0.04340836 -0.0046000001 -0.00077777775
-0.033636782 0.0042166668 -0.0066111111
0.021986054 0.0046000001 -0.006222222
0.026871843 0.0026833334 -0.00038888888
-0.032509293 0.0046000001 -0.0011666666
-0.042280871 0.0046000001 -0.0023333333
-0.014469454 0.0015333333 -0.00038888888
-0.00093957491 -0.0042166668 -0.0066111111
0.036267594 -0.0030666667 -0.0066111111
0.023113543 -0.0019166666 -0.00038888888
-0.042280871 -0.0046000001 -0.0027222221
-0.024241034 -0.0015333333 -0.0066111111
0.027247673 -0.00115 -0.00038888888
0.032133464 -0.00038333333 -0.00038888888
-0.014845284 -0.0038333333 -0.0066111111
0.0039462149 -0.0019166666 -0.0066111111
-0.0077045145 0.0046000001 -0.0054444443
0.0039462149 -0.0046000001 -0.0046666665
0.034012612 0.0038333333 -0.00038888888
-0.0058253645 -0.00345 0.0023333333
-0.0092078345 -0.0015333333 -0.00038888888
0.033636782 0.0046000001 -0.006222222
0.03965006 0.00038333333 -0.00038888888
0.012214474 0.0046000001 -0.003111111
0.0095836641 -0.00345 0.0015555555
-0.014469454 -0.0042166668 -0.0066111111
-0.028375164 -0.0030666667 0.0023333333
0.0088320039 0.0046000001 -0.006222222
0.0062011946 0.0023000001 -0.00038888888
0.0077045145 0.0046000001 -0.003888889
-0.021610223 -0.0046000001 -0.0054444443
-0.024992693 -0.0030666667 0.0011666666
-0.020106904 -0.0038333333 -0.0066111111
-0.040777553 0.0019166666 -0.00038888888
0.035515934 -0.0046000001 -0.003111111
-0.028750993 -0.0046000001 -0.0058333334
-0.0035703848 0.0030666667 -0.00038888888
0.017476093 0.0046000001 -0.003111111
-0.0050737048 -0.0026833334 -0.00038888888
0.0020670649 -0.00345 0.0023333333
0.027623503 -0.00115 -0.0066111111
-0.010711154 0.00345 -0.0066111111
0.037019253 0.0042166668 -0.00038888888
-0.0039462149 -0.0019166666 -0.00038888888
0.029126823 0.00345 -0.00038888888
-0.012590304 0.0019166666 -0.0066111111
0.0062011946 -0.0015333333 -0.00038888888
-0.022361884 0.0046000001 -0.0027222221
0.0020670649 -0.0046000001 -0.0011666666
0.018603584 -0.0042166668 -0.0066111111
0.0028187248 0.0042166668 -0.0066111111
0.015972774 -0.0015333333 -0.00038888888
-0.046415001 0.0015333333 -0.00077777775
0.04340836 -0.00076666666 -0.00038888888
0.014845284 0 -0.00038888888
0.0050737048 0.0046000001 -0.0066111111
-0.025368523 0.0046000001 -0.0066111111
0.0031945547 -0.0046000001 -0.0027222221
0.042280871 -0.0046000001 -0.0066111111
-0.0084561743 -0.0019166666 -0.00038888888
0.015972774 -0.0038333333 -0.00038888888
-0.036267594 0.0015333333 -0.0066111111
0.039274231 -0.0015333333 -0.0066111111
0.00018791499 0.0030666667 -0.0066111111
-0.0092078345 -0.0046000001 -0.0050555556
0.011462814 0.00345 -0.00038888888
0.046415001 0.00345 -0.0035000001
-0.04378419 0.0015333333 -0.00038888888
0.034012612 0.0026833334 -0.0066111111
-0.027999332 -0.0046000001 -0.0019444445
0.035515934 -0.0030666667 -0.00038888888
0.019731073 0 -0.0066111111
0.044160023 0.0030666667 -0.0066111111
0.017851925 -0.00076666666 -0.0066111111
0.042656701 0.0046000001 -0.0023333333
-0.018227754 0.0046000001 -0.0046666665
0.042656701 0.0023000001 -0.0066111111
-0.021610223 0.0046000001 -0.0011666666
-0.036267594 0.0038333333 -0.00038888888
0.0088320039 0.00115 -0.00038888888
-0.0084561743 0 -0.0066111111
-0.046039172 0.0042166668 -0.0015555555
0.036267594 -0.0030666667 0.0027222221
-0.017851925 -0.0015333333 -0.0066111111
0.040401723 0.0042166668 -0.0066111111
0.025744352 -0.0046000001 -0.0015555555
0.029502653 -0.00076666666 -0.00038888888
0.031381804 -0.0015333333 -0.00038888888
0.017476093 -0.0015333333 -0.0066111111
-0.0065770247 0.0026833334 -0.0066111111
0.016724434 0.0046000001 -0.0035000001
-0.037395082 -0.0046000001 -0.0042777779
0.023489373 -0.0046000001 -0.0054444443
-0.04340836 -0.0046000001 -0.00038888888
0.021234393 -0.00345 0.0027222221
-0.032885123 -0.0046000001 -0.0050555556
0.026120184 0.0030666667 -0.0066111111
0.015596944 -0.00115 -0.0066111111
-0.0073286844 0.0046000001 -0.003111111
0.0092078345 0.0046000001 -0.003888889
-0.046039172 -0.0042166668 -0.0050555556
-0.018979413 0.0038333333 -0.0066111111
0.0050737048 -0.00345 -0.00038888888
-0.026871843 -0.0046000001 -0.0035000001
0.014469454 0.00115 -0.00038888888
-0.019731073 -0.0046000001 -0.0066111111
-0.025368523 -0.00345 -0.00038888888
0.038146742 -0.0046000001 -0.0019444445
0.0054495344 -0.0030666667 -0.0066111111
0.045287512 -0.0038333333 -0.00038888888
0.020482734 0.0015333333 -0.0066111111
0.027623503 -0.0046000001 -0.0054444443
-0.026871843 0.0046000001 -0.00038888888
-0.0062011946 -0.00115 -0.00038888888
-0.0035703848 -0.0026833334 -0.00038888888
0.045287512 0.0046000001 -0.0019444445
-0.040025894 -0.0026833334 -0.0066111111
0.00093957491 0.0038333333 -0.0066111111
-0.034012612 0.0042166668 -0.0066111111
-0.00056374498 0.0046000001 -0.003888889
0.045287512 0.0046000001 -0.003111111
0.025368523 0.00038333333 -0.0066111111
-0.0020670649 -0.0046000001 -0.0035000001
0.032133464 0.0046000001 -0.003888889
0.0031945547 -0.0046000001 -0.0011666666
0.039274231 0.0046000001 -0.0015555555
-0.015221114 -0.0026833334 -0.00038888888
0.0080803446 -0.0015333333 -0.0066111111
0.014845284 -0.0030666667 -0.00038888888
-0.00056374498 0 -0.0070000002
0.032509293 0.0026833334 -0.00038888888
0.036643423 0 -0.0066111111
0.022737714 -0.0015333333 -0.00038888888
-0.046039172 0 -0.00038888888
-0.021986054 -0.0019166666 -0.00038888888
-0.038522571 0.0046000001 -0.00077777775
0.034012612 0.0046000001 -0.0015555555
0.0013154049 -0.00076666666 -0.0070000002
0.04340836 -0.0046000001 -0.0023333333
0.037395082 -0.0046000001 -0.0023333333
-0.011462814 0.0026833334 -0.00038888888
0.035891764 0.00115 -0.00038888888
0.018227754 0 -0.00038888888
0.046415001 -0.00115 -0.0011666666
-0.010711154 -0.0046000001 -0.0050555556
-0.0088320039 0.0030666667 -0.00038888888
0.042656701 0.0030666667 -0.00038888888
-0.026496014 0 -0.0066111111
-0.035140101 0.0046000001 -0.0035000001
0.046415001 0.00038333333 -0.006222222
0.0065770247 -0.0046000001 -0.0023333333
0.037395082 -0.0026833334 -0.0066111111
-0.0046978747 -0.0046000001 -0.0058333334
-0.012590304 -0.0046000001 -0.0023333333
0.0046978747 0.0015333333 -0.00038888888
-0.013717794 0.0046000001 -0.0027222221
-0.036267594 0.0046000001 -0.0011666666
0.029126823 0.0019166666 -0.0066111111
-0.0095836641 0.0015333333 -0.0066111111
-0.0050737048 -0.0046000001 -0.0019444445
0.03965006 -0.0042166668 -0.0066111111
-0.028375164 0.00076666666 -0.00038888888
0.029126823 -0.00345 -0.0066111111
0.017100263 -0.0046000001 -0.0023333333
0.023865202 0.0046000001 -0.003888889
0.045287512 0.0046000001 -0.0015555555
0.0077045145 -0.0046000001 -0.0015555555
-0.028375164 -0.0042166668 -0.0066111111
-0.03965006 -0.00115 -0.00038888888
0.0077045145 0.0030666667 -0.00038888888
-0.026496014 -0.0030666667 -0.00038888888
0.0092078345 -0.0046000001 -0.006222222
-0.034764271 0.0046000001 -0.003111111
0.020858563 0.0046000001 -0.0050555556
-0.012590304 -0.0046000001 -0.0042777779
-0.013717794 -0.0046000001 -0.0042777779
0.018979413 0.0046000001 -0.0042777779
-0.043032531 0.0046000001 -0.0019444445
0.011838644 0.0046000001 -0.0042777779
0.037395082 -0.00038333333 -0.0066111111
0.046039172 -0.00076666666 -0.0058333334
-0.024616864 -0.00038333333 -0.0066111111
-0.019355243 0.0046000001 -0.003111111
-0.031005973 0.0046000001 -0.0054444443
0.032885123 0.00115 -0.00038888888
-0.033636782 -0.0046000001 -0.0023333333
-0.027623503 0.0046000001 -0.003111111
0.033636782 -0.0046000001 -0.0050555556
0.019731073 -0.00115 -0.0066111111
0.046039172 -0.0023000001 -0.0027222221
-0.036643423 0.0038333333 -0.00038888888
0.0062011946 -0.0038333333 -0.00038888888
-0.0039462149 -0.0046000001 -0.0019444445
-0.026871843 0.00115 -0.00038888888
-0.011838644 0.0046000001 -0.003888889
-0.026120184 0.0046000001 -0.0042777779
-0.046415001 0 -0.0042777779
-0.0024428947 0.0038333333 -0.00038888888
-0.045663342 0.0019166666 -0.00038888888
0.015596944 -0.0015333333 -0.00038888888
-0.032885123 0 -0.0066111111
-0.037395082 0.0046000001 -0.0023333333
-0.025744352 -0.0023000001 -0.00038888888
-0.035891764 0.00038333333 -0.00038888888
-0.034388442 0.0046000001 -0.00077777775
0.018227754 0.00038333333 -0.00038888888
0.0073286844 0.00115 -0.00038888888
0.025744352 -0.0042166668 -0.0066111111
-0.029126823 -0.0046000001 -0.0058333334
0.028375164 -0.0030666667 0.0023333333
0.034388442 0.0046000001 -0.006222222
0.022737714 -0.0046000001 -0.006222222
-0.041529212 0.0019166666 -0.0066111111
-0.038898401 0.0046000001 -0.00038888888
-0.021986054 0.0038333333 -0.00038888888
-0.039274231 -0.0046000001 -0.0042777779
-0.040401723 -0.0046000001 -0.0035000001
0.024616864 0.0046000001 -0.0023333333
-0.041529212 0.0019166666 -0.00038888888
-0.026496014 -0.0046000001 -0.0066111111
0.026871843 0.0023000001 -0.0066111111
-0.00056374498 0.0046000001 -0.0066111111
0.027247673 0.0019166666 -0.00038888888
-0.017851925 0.00038333333 -0.00038888888
-0.021234393 -0.0046000001 -0.00038888888
0.0095836641 -0.0046000001 -0.0011666666
0.041529212 0.0046000001 -0.0015555555
-0.0088320039 0.0046000001 -0.0042777779
0.0092078345 -0.0046000001 -0.0023333333
0.020106904 -0.0026833334 -0.0066111111
-0.039274231 -0.0046000001 -0.0054444443
-0.0058253645 0.0030666667 -0.0066111111
0.023865202 -0.00345 -0.0066111111
0.015221114 0.0023000001 -0.00038888888
-0.03965006 -0.00345 0.0019444445
0.042656701 0.00038333333 -0.0066111111
0.0028187248 0.00115 -0.00038888888
-0.041153383 0.0046000001 -0.0011666666
0.038146742 0.00038333333 -0.0066111111
-0.0095836641 0.00038333333 -0.00038888888
0.042280871 -0.00345 -0.0066111111
0.010711154 0.00038333333 -0.0066111111
-0.035515934 0.0019166666 -0.00038888888
-0.017476093 -0.0046000001 -0.0019444445
-0.038898401 0.0046000001 -0.003111111
-0.018603584 0.0019166666 -0.00038888888
0.046039172 -0.00076666666 -0.003888889
-0.020858563 -0.00345 0.00038888888
0.038146742 0.0046000001 -0.0058333334
-0.029878482 0.0046000001 -0.0042777779
0.045663342 -0.00115 -0.00038888888
-0.0046978747 -0.00115 -0.00038888888
-0.034012612 0.0046000001 -0.003111111
0.0035703848 0.0046000001 -0.0027222221
-0.039274231 0 -0.0066111111
-0.00018791499 0.0046000001 -0.0042777779
-0.011462814 -0.0046000001 -0.0015555555
-0.014093624 -0.0042166668 -0.00038888888
-0.0013154049 0.0026833334 -0.00038888888
0.0092078345 -0.0030666667 0.0015555555
0.014845284 -0.0046000001 -0.0019444445
-0.020858563 0.0046000001 -0.00038888888
0.021610223 -0.0019166666 -0.0066111111
-0.017100263 -0.0023000001 -0.0066111111
-0.021610223 0.0026833334 -0.0066111111
0.014093624 -0.0046000001 -0.0046666665
0.040401723 0.0038333333 -0.00038888888
-0.023113543 -0.0046000001 -0.0066111111
-0.015221114 0.0046000001 -0.003888889
-0.020482734 0.00345 -0.0066111111
-0.0088320039 -0.0019166666 -0.0066111111
0.040777553 -0.0026833334 -0.0066111111
-0.010335324 -0.0030666667 -0.00038888888
0.018603584 -0.0046000001 -0.0050555556
-0.031381804 0 -0.0066111111
-0.020482734 0.0046000001 -0.0035000001
-0.0058253645 -0.0046000001 -0.0050555556
0.037019253 -0.0015333333 -0.0066111111
-0.025368523 -0.0046000001 -0.00077777775
0.017476093 0.0046000001 -0.006222222
0.014469454 -0.00076666666 -0.00038888888
0.045663342 0.00038333333 -0.0066111111
0.041529212 0.0046000001 -0.0066111111
0.016348604 -0.00115 -0.0066111111
0.044911683 0.0046000001 -0.0027222221
-0.038522571 0.0030666667 -0.00038888888
0.046039172 -0.00038333333 -0.0042777779
0.013341964 0.0038333333 -0.0066111111
0.024241034 0.0046000001 -0.0058333334
0.042656701 0.00076666666 -0.00038888888
-0.031381804 -0.0046000001 -0.00038888888
-0.041153383 -0.00345 -0.00038888888
0.0016912349 -0.00345 0.00077777775
0.021986054 0.00076666666 -0.0066111111
0.019355243 -0.0015333333 -0.00038888888
-0.044160023 0.0046000001 -0.0019444445
0.034764271 0.0023000001 -0.0066111111
0.022361884 0.0046000001 -0.0050555556
-0.033260953 -0.0046000001 -0.0027222221
0.020858563 0.0046000001 -0.00038888888
-0.038522571 0.0026833334 -0.0066111111
0.040401723 0.0023000001 -0.00038888888
0.040777553 -0.0046000001 -0.00038888888
0.012214474 -0.0015333333 -0.0066111111
-0.022361884 0.0015333333 -0.00038888888
-0.012966134 0.0046000001 -0.0058333334
-0.034388442 -0.0038333333 -0.00038888888
-0.018603584 0.00076666666 -0.00038888888
0.042280871 0.0030666667 -0.0066111111
0.044911683 0.0046000001 -0.0011666666
0.038146742 -0.0046000001 -0.0035000001
0.0035703848 0.0019166666 -0.0066111111
-0.027623503 0.0023000001 -0.00038888888
-0.044160023 0.0046000001 -0.0023333333
-0.036643423 0.0046000001 -0.0058333334
0.014845284 0.0038333333 -0.00038888888
-0.032509293 -0.0030666667 0.0015555555
0.018603584 -0.0046000001 -0.0046666665
0.024992693 -0.0046000001 -0.0058333334
0.017476093 0.0046000001 -0.0019444445
0.031757634 0.0046000001 -0.00077777775
0.017100263 -0.0046000001 -0.0035000001
-0.020106904 0.0015333333 -0.00038888888
-0.012590304 0.00345 -0.0066111111
0.0065770247 -0.0046000001 -0.00077777775
0.033636782 0.0038333333 -0.00038888888
-0.00018791499 -0.0046000001 -0.0027222221
0.016724434 0.0046000001 -0.0011666666
0.032885123 -0.0019166666 -0.00038888888
-0.029126823 -0.0042166668 -0.00038888888
-0.018979413 0.0030666667 -0.00038888888
-0.0095836641 -0.0023000001 -0.0066111111
0.027247673 0.0023000001 -0.00038888888
-0.0024428947 0.0030666667 -0.0066111111
-0.024992693 -0.0046000001 -0.0019444445
0.028375164 -0.0046000001 -0.0011666666
0.029502653 0.0026833334 -0.00038888888
0.034764271 0.0030666667 -0.00038888888
-0.0050737048 0.00076666666 -0.0066111111
0.025368523 -0.0030666667 -0.0066111111
-0.0013154049 0.00345 -0.00038888888
-0.039274231 -0.00038333333 -0.0066111111
-0.0013154049 -0.0038333333 -0.0066111111
-0.020482734 -0.0046000001 -0.0019444445
-0.0099594947 0.0023000001 -0.00038888888
0.026120184 0.0046000001 -0.0042777779
-0.014845284 0.0046000001 -0.0066111111
0.046415001 0.0042166668 -0.0042777779
0.023865202 0.0046000001 -0.0015555555
0.0054495344 0.00345 -0.00038888888
-0.020858563 0.0038333333 -0.00038888888
-0.015972774 -0.0019166666 -0.00038888888
0.025744352 0.00038333333 -0.0066111111
-0.0054495344 0.00115 -0.00038888888
0.019731073 -0.00345 -0.0066111111
-0.012590304 0.0030666667 -0.00038888888
0.038898401 0.00038333333 -0.00038888888
0.022361884 0.0015333333 -0.0066111111
0.043032531 -0.0046000001 -0.006222222
-0.046415001 -0.0019166666 -0.0019444445
-0.0058253645 0.0046000001 -0.0035000001
0.017100263 0.00038333333 -0.0066111111
-0.029126823 0.0046000001 -0.00038888888
0.0058253645 -0.00345 0.0015555555
-0.016724434 0.0038333333 -0.00038888888
-0.015221114 0.0046000001 -0.003111111
-0.017100263 0.0046000001 -0.0023333333
-0.017851925 0.0046000001 -0.0027222221
-0.0035703848 -0.0046000001 -0.0027222221
0.034012612 0.00038333333 -0.00038888888
0.040025894 0.0042166668 -0.0066111111
0.00056374498 -0.0046000001 -0.0042777779
-0.0013154049 -0.00038333333 -0.00038888888
-0.045287512 0.0046000001 -0.0035000001
-0.030254312 0.00115 -0.00038888888
-0.0043220446 0.0046000001 -0.0011666666
0.0054495344 -0.0046000001 -0.0011666666
-0.011086985 -0.0046000001 -0.00077777775
0.03965006 0.0026833334 -0.0066111111
-0.033260953 0.0030666667 -0.00038888888
-0.015596944 -0.0046000001 -0.0066111111
-0.020106904 0.0023000001 -0.00038888888
0.017851925 -0.0046000001 -0.0050555556
-0.034764271 -0.0015333333 -0.00038888888
0.0046978747 0.0046000001 -0.0015555555
0.014093624 -0.0046000001 -0.0066111111
-0.0058253645 0.0046000001 -0.0066111111
-0.04378419 -0.0046000001 -0.0023333333
0.029126823 -0.00345 -0.00038888888
-0.0092078345 -0.0023000001 -0.00038888888
0.0084561743 0.0038333333 -0.0066111111
-0.0077045145 0.00038333333 -0.00038888888
-0.014845284 0.0046000001 -0.0027222221
-0.0065770247 0.0030666667 -0.00038888888
-0.033636782 0.00345 -0.0066111111
0.0050737048 -0.0015333333 -0.00038888888
-0.0043220446 -0.0046000001 -0.0046666665
-0.0050737048 0 -0.00038888888
0.042656701 0 -0.0066111111
-0.027999332 0.0046000001 -0.00038888888
-0.016348604 -0.0026833334 -0.0066111111
0.037770912 -0.0046000001 -0.00077777775
0.040025894 -0.0030666667 0.0015555555
0.025368523 0.0046000001 -0.0019444445
0.027623503 -0.0042166668 -0.00038888888
-0.046415001 0.0015333333 -0.0054444443
-0.023865202 -0.0046000001 -0.00077777775
-0.044160023 -0.0023000001 -0.0066111111
0.014093624 0.00115 -0.00038888888
-0.025368523 -0.0046000001 -0.003888889
-0.037395082 -0.0030666667 -0.0066111111
-0.024241034 -0.0046000001 -0.003888889
0.018979413 -0.00038333333 -0.00038888888
0.020106904 -0.0046000001 -0.0066111111
-0.017851925 0.0015333333 -0.0066111111
0.04378419 0.0019166666 -0.00038888888
0.041153383 0.0038333333 -0.0066111111
-0.021234393 0.0046000001 -0.0058333334
-0.012590304 0.0046000001 -0.003111111
-0.027247673 0.0019166666 -0.00038888888
-0.0028187248 -0.0046000001 -0.0019444445
0.0046978747 -0.0046000001 -0.006222222
0.0024428947 -0.00076666666 -0.00038888888
-0.013341964 -0.0046000001 -0.0019444445
-0.046415001 0 -0.0066111111
-0.026871843 -0.0042166668 -0.0066111111
-0.044911683 -0.0042166668 -0.0035000001
-0.011086985 0.0046000001 -0.0046666665
-0.0058253645 0.0046000001 -0.0058333334
-0.0088320039 -0.0046000001 -0.0042777779
-0.035891764 -0.0026833334 -0.00038888888
-0.037019253 -0.0046000001 -0.00077777775
-0.037019253 0.00038333333 -0.00038888888
0.038522571 -0.00345 -0.00038888888
-0.020858563 0.0046000001 -0.0050555556
-0.024992693 0.0046000001 -0.003888889
0.027623503 0.0019166666 -0.00038888888
-0.0092078345 -0.00076666666 -0.00038888888
-0.044911683 0.0046000001 -0.0066111111
-0.027247673 0.0026833334 -0.0066111111
-0.012590304 -0.0023000001 -0.00038888888
-0.012214474 0.00038333333 -0.00038888888
-0.0039462149 -0.0046000001 -0.0046666665
0.00018791499 0 -0.00038888888
-0.022361884 -0.0046000001 -0.0019444445
-0.046415001 0.0015333333 -0.0058333334
-0.0099594947 -0.00345 -0.00038888888
-0.032133464 -0.0046000001 -0.0046666665
-0.030630143 -0.0023000001 -0.0066111111
0.027247673 0.0046000001 -0.003111111
-0.019355243 -0.00038333333 -0.00038888888
-0.0095836641 0.00345 -0.00038888888
-0.038898401 0.00038333333 -0.0066111111
0.038522571 0.0046000001 -0.0035000001
0.00018791499 -0.0046000001 -0.0050555556
0.0077045145 -0.0046000001 -0.003111111
0.0039462149 -0.0046000001 -0.0015555555
-0.011462814 -0.0046000001 -0.003888889
0.044911683 -0.0046000001 -0.00038888888
-0.013341964 -0.0038333333 0.00077777775
0.012590304 -0.00076666666 -0.00038888888
0.0035703848 0.0015333333 -0.0066111111
0.0050737048 -0.0023000001 -0.0066111111
-0.0039462149 -0.0023000001 -0.0066111111
0.010711154 0.00115 -0.00038888888
-0.020482734 0.0019166666 -0.00038888888
0.023489373 0.0046000001 -0.0011666666
0.038146742 -0.0015333333 -0.00038888888
-0.042656701 0.0038333333 -0.0066111111
-0.027623503 -0.00038333333 -0.00038888888
-0.0035703848 -0.00076666666 -0.00038888888
0.0043220446 -0.0015333333 -0.0066111111
0.0088320039 -0.0046000001 -0.0046666665
0.024616864 0.0046000001 -0.0042777779
-0.0028187248 0.0046000001 -0.00038888888
0.013717794 -0.0042166668 -0.0066111111
-0.0043220446 -0.0026833334 -0.00038888888
0.013717794 -0.0046000001 -0.0023333333
-0.010711154 -0.0046000001 -0.0027222221
0.023113543 0.0046000001 -0.003888889
0.0084561743 -0.0019166666 -0.0066111111
0.013341964 -0.0026833334 -0.00038888888
-0.011838644 -0.0046000001 -0.003888889
-0.028375164 0.0030666667 -0.0066111111
-0.024616864 0.00038333333 -0.00038888888
-0.042656701 0.0046000001 -0.0027222221
0.041905042 -0.0026833334 -0.00038888888
-0.026496014 -0.0046000001 -0.00038888888
-0.0069528543 -0.0038333333 -0.00038888888
-0.011086985 -0.0038333333 -0.00038888888
0.013341964 0.0026833334 -0.00038888888
-0.040025894 -0.00038333333 -0.0066111111
-0.044911683 0.0046000001 -0.00038888888
0.0092078345 0.0046000001 -0.0050555556
-0.0039462149 0.0042166668 -0.0066111111
0.040401723 -0.0015333333 -0.00038888888
0.031757634 0.0026833334 -0.00038888888
0.035140101 0.00038333333 -0.00038888888
0.020482734 -0.0046000001 -0.0050555556
0.0020670649 -0.00115 -0.0066111111
-0.028750993 -0.0046000001 -0.0054444443
0.0099594947 -0.0023000001 -0.0066111111
0.0031945547 -0.0046000001 -0.003111111
-0.021986054 -0.00345 -0.00038888888
-0.018227754 0.0042166668 -0.0066111111
-0.031381804 0.0046000001 -0.00077777775
-0.033260953 -0.00115 -0.00038888888
0.040025894 -0.00115 -0.0066111111
0.036267594 -0.0046000001 -0.0011666666
0.034388442 0.0015333333 -0.00038888888
-0.018227754 -0.0023000001 -0.0066111111
0.022361884 -0.0042166668 -0.00038888888
0.035891764 -0.0023000001 -0.0066111111
-0.0035703848 0.00038333333 -0.0066111111
-0.04340836 0.0015333333 -0.00038888888
-0.034012612 -0.0046000001 -0.006222222
-0.0043220446 0.0046000001 -0.0054444443
-0.017851925 -0.0046000001 -0.0058333334
0.015221114 0.0019166666 -0.00038888888
-0.029126823 0.0042166668 -0.00038888888
0.04378419 -0.00115 -0.0066111111
0.044160023 0.0046000001 -0.003111111
-0.012966134 0.0019166666 -0.0066111111
0.035891764 -0.00038333333 -0.00038888888
-0.0024428947 -0.00345 -0.0066111111
0.045287512 -0.00115 -0.00038888888
-0.0035703848 0 -0.0066111111
0.0054495344 0.0015333333 -0.0066111111
0.016348604 -0.0026833334 -0.00038888888
-0.029126823 -0.0046000001 -0.00038888888
-0.00093957491 0.00345 -0.00038888888
0.04378419 -0.00345 0.00038888888
0.044535853 -0.0026833334 -0.00038888888
-0.038522571 -0.0030666667 -0.00038888888
0.040777553 -0.0019166666 -0.00038888888
0.03965006 0.0046000001 -0.0019444445
-0.046415001 0.0030666667 -0.0023333333
-0.024241034 -0.00115 -0.00038888888
-0.027999332 0.0046000001 -0.0019444445
0.028750993 0.0046000001 -0.0015555555
0.035140101 0.00345 -0.0066111111
0.019355243 0.0046000001 -0.0027222221
0.0020670649 0.0023000001 -0.0066111111
0.046415001 0.00115 -0.00038888888
0.013341964 0.0046000001 -0.0066111111
-0.015972774 0.0046000001 -0.0019444445
0.035891764 0.0019166666 -0.00038888888
0.045663342 -0.0023000001 -0.0066111111
0.024616864 0.0042166668 -0.0066111111
0.041153383 0.0046000001 -0.003888889
-0.022361884 0.0046000001 -0.003111111
0.033636782 0.0019166666 -0.0066111111
-0.014469454 0.0046000001 -0.0023333333
-0.027623503 -0.0030666667 -0.0066111111
-0.011838644 0.0046000001 -0.0050555556
0.028750993 -0.00345 0.0011666666
0.039274231 -0.0046000001 -0.0058333334
-0.0065770247 -0.0046000001 -0.0058333334
-0.036643423 -0.00345 -0.00038888888
-0.040025894 0 -0.0066111111
0.0024428947 -0.0030666667 -0.00038888888
-0.021234393 -0.00076666666 -0.0066111111
0.014469454 -0.0038333333 -0.00038888888
0.027623503 -0.00076666666 -0.0066111111
0.027247673 0.0026833334 -0.00038888888
-0.011838644 -0.0019166666 -0.00038888888
-0.021234393 0.0046000001 -0.0011666666
-0.035891764 -0.0046000001 -0.0019444445
0.017476093 0.0046000001 -0.0015555555
0.015972774 -0.0046000001 -0.0066111111
0.032885123 0.0046000001 -0.006222222
0.013717794 0.0030666667 -0.00038888888
-0.029502653 -0.0046000001 -0.0050555556
0.027247673 0.0046000001 -0.0054444443
-0.04340836 -0.00076666666 -0.0066111111
-0.033636782 0.0046000001 -0.0027222221
0.038898401 0.0046000001 -0.0015555555
-0.043032531 -0.0042166668 -0.0066111111
-0.04340836 0.0046000001 -0.0058333334
-0.0073286844 0.0046000001 -0.0050555556
-0.0099594947 0.00076666666 -0.00038888888
-0.045287512 0.0046000001 -0.003888889
-0.04340836 0.0046000001 -0.0019444445
0.040777553 0.0023000001 -0.0066111111
-0.0028187248 -0.0026833334 -0.0066111111
0.037770912 0.0026833334 -0.00038888888
-0.018603584 -0.0046000001 -0.003888889
0.020858563 -0.00345 0.0027222221
-0.018979413 -0.0046000001 -0.0066111111
0.014093624 0.0046000001 -0.006222222
0.0031945547 0.0046000001 -0.0046666665
0.038898401 -0.00076666666 -0.00038888888
-0.036643423 0.0042166668 -0.0066111111
0.034012612 -0.0042166668 -0.0066111111
0.017100263 -0.00345 0.00038888888
0.011462814 -0.0046000001 -0.0023333333
0.019731073 0.00115 -0.00038888888
0.026871843 0.0046000001 -0.0015555555
-0.026871843 -0.0019166666 -0.00038888888
0.030630143 0.0046000001 -0.0023333333
-0.013341964 0.0019166666 -0.0066111111
-0.037395082 0.00345 -0.00038888888
0.0024428947 0.0046000001 -0.0011666666
0.015972774 0.0019166666 -0.0066111111
0.014093624 -0.0019166666 -0.0066111111
0.026120184 -0.0046000001 -0.00038888888
-0.011838644 -0.00345 -0.0066111111
0.018603584 0.0030666667 -0.00038888888
-0.041905042 0.0046000001 -0.003888889
-0.041905042 0.0023000001 -0.00038888888
0.034764271 -0.00076666666 -0.00038888888
0.029502653 -0.0038333333 -0.0066111111
-0.041905042 -0.00076666666 -0.0066111111
-0.022361884 -0.0046000001 -0.0050555556
0.025744352 0.0015333333 -0.0066111111
-0.016348604 0.0046000001 -0.0050555556
-0.044535853 0.0023000001 -0.00038888888
0.0073286844 0.00076666666 -0.0066111111
0.0099594947 -0.0046000001 -0.0054444443
-0.041529212 -0.0026833334 -0.00038888888
0.0073286844 -0.0046000001 -0.0066111111
0.00056374498 -0.0023000001 -0.00038888888
0.032133464 -0.0038333333 -0.0066111111
-0.04378419 -0.0030666667 0.0015555555
-0.019355243 0.0042166668 -0.00038888888
0.023865202 0.00345 -0.00038888888
0.037395082 -0.0042166668 -0.00038888888
0.046415001 0.00076666666 -0.0050555556
0.034388442 0.0030666667 -0.00038888888
0.0016912349 0.0023000001 -0.00038888888
-0.020482734 -0.0046000001 -0.0035000001
-0.035891764 -0.00345 0.0011666666
0.020858563 -0.0046000001 -0.0019444445
-0.0020670649 -0.00345 0.0015555555
0.014469454 -0.00345 -0.0066111111
-0.040401723 0.0042166668 -0.0066111111
0.015596944 0.0023000001 -0.00038888888
0.019731073 -0.0015333333 -0.0066111111
-0.041153383 0.00345 -0.00038888888
0.041529212 -0.0042166668 -0.00038888888
-0.025744352 0.00038333333 -0.0066111111
-0.014469454 0.0046000001 -0.006222222
0.0099594947 -0.0046000001 -0.00077777775
0.028750993 -0.0046000001 -0.0050555556
-0.010711154 0.0046000001 -0.0023333333
-0.038898401 0.0046000001 -0.0046666665
-0.041529212 0.00115 -0.00038888888
0.04378419 0.0019166666 -0.0066111111
-0.021234393 -0.00345 0.00038888888
0.046415001 0.00038333333 -0.0046666665
-0.040025894 0.0038333333 -0.0066111111
0.033260953 -0.0046000001 -0.0023333333
-0.036643423 0.0019166666 -0.00038888888
0.038522571 0.00076666666 -0.0066111111
-0.0073286844 -0.0038333333 -0.0066111111
-0.019355243 -0.0046000001 -0.0011666666
-0.045287512 0.0038333333 -0.0066111111
0.012966134 0.00115 -0.0066111111
0.033636782 -0.0019166666 -0.0066111111
-0.033260953 -0.0046000001 -0.003888889
0.010711154 -0.0015333333 -0.0066111111
0.0095836641 0.0019166666 -0.00038888888
-0.038146742 -0.0046000001 -0.003111111
0.012966134 0.0046000001 -0.0046666665
-0.031757634 0.00038333333 -0.00038888888
-0.040025894 -0.0038333333 0.0015555555
0.046039172 -0.0015333333 -0.0054444443
0.021234393 -0.0030666667 0.0019444445
0.0054495344 -0.0023000001 -0.00038888888
0.026496014 -0.0030666667 -0.0066111111
-0.031757634 -0.0046000001 -0.0027222221
-0.042280871 -0.0019166666 -0.00038888888
0.038522571 0.0038333333 -0.0066111111
0.027247673 0.0046000001 -0.0015555555
0.046415001 0.0030666667 -0.0054444443
0.010711154 -0.0046000001 -0.0046666665
-0.034012612 -0.0046000001 -0.0011666666
0.017100263 0.0046000001 -0.0015555555
0.0065770247 -0.00038333333 -0.00038888888
-0.0013154049 -0.0046000001 -0.0035000001
-0.018979413 0.0046000001 -0.0023333333
0.024241034 -0.0019166666 -0.00038888888
-0.025368523 -0.0042166668 -0.00038888888
0.029502653 0.0046000001 -0.0042777779
-0.012590304 -0.0019166666 -0.00038888888
0.011838644 -0.0046000001 -0.006222222
-0.0080803446 0.00345 -0.0066111111
-0.032885123 0.0046000001 -0.0019444445
-0.0043220446 0.0046000001 -0.00038888888
0.027999332 -0.0015333333 -0.0066111111
0.023113543 -0.0026833334 -0.0066111111
0.038898401 -0.00345 -0.00038888888
0.0092078345 -0.0046000001 -0.0066111111
-0.014469454 -0.00038333333 -0.0066111111
-0.040777553 0.0046000001 -0.003888889
0.0073286844 -0.00076666666 -0.00038888888
-0.029878482 -0.0019166666 -0.0066111111
0.026871843 0.0046000001 -0.0027222221
-0.042280871 0.0030666667 -0.00038888888
-0.03965006 -0.0019166666 -0.00038888888
-0.030630143 0.0046000001 -0.0050555556
-0.019731073 0.0015333333 -0.0066111111
-0.036267594 0.00076666666 -0.00038888888
-0.046415001 0.0038333333 -0.00077777775
0.033260953 0.00038333333 -0.0066111111
-0.0035703848 -0.0046000001 -0.0054444443
0.036643423 -0.0042166668 -0.00038888888
0.030630143 -0.0046000001 -0.0046666665
-0.026496014 -0.0046000001 -0.0015555555
-0.026871843 0.00038333333 -0.00038888888
0.023865202 0 -0.0066111111
-0.012214474 -0.0046000001 -0.003111111
-0.031757634 -0.0030666667 -0.0066111111
0.0084561743 -0.0038333333 -0.00038888888
-0.0058253645 -0.00345 0.0011666666
0.037770912 -0.0046000001 -0.0058333334
0.010335324 -0.0042166668 -0.00038888888
-0.019355243 0.00076666666 -0.0066111111
-0.041529212 0.0042166668 -0.0066111111
0.022737714 0 -0.0066111111
0.039274231 0.0015333333 -0.0066111111
-0.028750993 -0.00345 0.0019444445
0.021610223 0.0046000001 -0.0015555555
0.014469454 -0.0015333333 -0.00038888888
-0.037770912 0.0046000001 -0.00038888888
0.026871843 0.0019166666 -0.00038888888
0.044911683 -0.0026833334 -0.00038888888
0.041529212 0.0046000001 -0.0054444443
-0.0095836641 0.0046000001 -0.0054444443
0.0039462149 -0.0023000001 -0.0066111111
0.0062011946 -0.0046000001 -0.0050555556
-0.013717794 0.0046000001 -0.0050555556
-0.014469454 0.0023000001 -0.00038888888
-0.017476093 0.0046000001 -0.0066111111
-0.028750993 0.0046000001 -0.0011666666
-0.031757634 -0.0046000001 -0.003111111
-0.011462814 0.0023000001 -0.0066111111
0.0069528543 0.00345 -0.00038888888
-0.023865202 0.0046000001 -0.0058333334
0.014845284 0.0015333333 -0.00038888888
-0.011462814 -0.0026833334 -0.0066111111
0.029502653 0.0015333333 -0.00038888888
0.04378419 0.0030666667 -0.0066111111
-0.027999332 -0.0046000001 -0.0023333333
0.03965006 -0.0023000001 -0.0066111111
0.034012612 -0.0046000001 -0.0042777779
0.037395082 -0.0046000001 -0.0066111111
-0.010335324 0.0023000001 -0.00038888888
-0.042656701 -0.0046000001 -0.00077777775
0.0013154049 -0.0023000001 -0.0066111111
0.0095836641 0.0030666667 -0.0066111111
0.0088320039 -0.0046000001 -0.003111111
-0.0028187248 -0.0046000001 -0.003888889
-0.0080803446 -0.0038333333 -0.0066111111
0.0092078345 -0.0015333333 -0.0066111111
-0.038522571 0.00345 -0.0066111111
-0.0054495344 -0.00038333333 -0.0066111111
-0.023113543 -0.0019166666 -0.0066111111
-0.039274231 -0.0046000001 -0.0011666666
0.0062011946 0.0046000001 -0.0050555556
-0.044911683 -0.00076666666 -0.0066111111
-0.021986054 -0.00076666666 -0.00038888888
-0.041529212 -0.0046000001 -0.003888889
-0.014845284 -0.0046000001 -0.003111111
-0.045287512 0.0019166666 -0.00038888888
-0.027999332 -0.0019166666 -0.0066111111
-0.026871843 -0.0046000001 -0.00077777775
0.0020670649 -0.0046000001 -0.003888889
0.038898401 -0.0038333333 -0.0066111111
-0.013341964 -0.0038333333 0.00038888888
-0.021986054 0.0046000001 -0.0015555555
0.020482734 0.00076666666 -0.00038888888
-0.0043220446 -0.0030666667 -0.00038888888
0.019731073 -0.0038333333 -0.0066111111
-0.021234393 0 -0.0066111111
0.0046978747 -0.0019166666 -0.0066111111
-0.018227754 -0.00038333333 -0.0066111111
0.035891764 0.0046000001 -0.0058333334
0.042280871 0.0046000001 -0.0042777779
-0.017100263 -0.00345 -0.0066111111
-0.046415001 0.00345 -0.0011666666
0.038146742 -0.0046000001 -0.0050555556
-0.033636782 0.0015333333 -0.0066111111
0.023113543 0.0046000001 -0.00077777775
-0.042656701 -0.0026833334 -0.00038888888
-0.017476093 -0.0038333333 -0.00038888888
0.038146742 0.0042166668 -0.0066111111
-0.034388442 0 -0.0066111111
0.0043220446 -0.0019166666 -0.0066111111
0.0092078345 -0.0019166666 -0.00038888888
-0.044911683 -0.0019166666 -0.00038888888
-0.031005973 -0.00038333333 -0.00038888888
-0.046415001 0.0038333333 -0.003111111
0.0073286844 -0.0046000001 -0.0027222221
-0.0058253645 0.0046000001 -0.0027222221
0.026120184 -0.0046000001 -0.0058333334
0.044911683 0.0030666667 -0.00038888888
-0.040401723 0.00038333333 -0.00038888888
0.032509293 0.00076666666 -0.00038888888
0.044160023 0.0046000001 -0.0058333334
0.042280871 0.0046000001 -0.0046666665
-0.032885123 -0.0046000001 -0.0046666665
0.046415001 0.0023000001 -0.0058333334
-0.0088320039 -0.0046000001 -0.0050555556
0.010335324 -0.0015333333 -0.0066111111
0.022737714 0.0015333333 -0.00038888888
0.021986054 0.0042166668 -0.0066111111
-0.032509293 -0.0038333333 -0.0066111111
-0.04378419 -0.0026833334 -0.0066111111
0.044911683 0 -0.0066111111
0.04378419 -0.0046000001 -0.0066111111
0.0077045145 -0.0046000001 -0.0019444445
0.017851925 0.0046000001 -0.006222222
-0.019731073 0.00115 -0.0066111111
0.018979413 0.0046000001 -0.0019444445
-0.030254312 0.00115 -0.0066111111
-0.0088320039 0.0026833334 -0.0066111111
-0.0084561743 0 -0.00038888888
0.035140101 0.0046000001 -0.0023333333
-0.011462814 0.0038333333 -0.0066111111
-0.031757634 0.0046000001 -0.0015555555
0.017851925 0.00038333333 -0.00038888888
-0.018227754 -0.0030666667 -0.00038888888
-0.0084561743 0.0026833334 -0.0066111111
0.037019253 0.0019166666 -0.0066111111
0.014845284 -0.0046000001 -0.003111111
0.021986054 -0.0042166668 -0.0066111111
0.0013154049 0.0046000001 -0.0011666666
-0.018603584 0.0046000001 -0.0027222221
0.025368523 -0.0042166668 -0.0066111111
-0.011462814 -0.0030666667 -0.00038888888
-0.016724434 0.00076666666 -0.0066111111
0.00018791499 -0.0038333333 -0.00038888888
-0.027247673 -0.0042166668 -0.0066111111
0.026496014 0.0026833334 -0.0066111111
0.0095836641 0.0042166668 -0.0066111111
-0.040777553 -0.0042166668 -0.0066111111
-0.024992693 -0.00345 0.0027222221
-0.021610223 -0.00115 -0.00038888888
0.037019253 0 -0.00038888888
0.038898401 -0.00076666666 -0.0066111111
0.042656701 0.0046000001 -0.006222222
0.0024428947 0.0046000001 -0.0023333333
-0.038146742 -0.0046000001 -0.0011666666
-0.0092078345 0.0023000001 -0.0066111111
0.038898401 -0.0030666667 -0.0066111111
0.041905042 -0.0030666667 -0.0066111111
0.035515934 -0.00115 -0.0066111111
0.0016912349 -0.0038333333 8.6736174e-19
-0.032509293 -0.0046000001 -0.0035000001
0.0095836641 -0.0042166668 -0.0066111111
-0.036643423 -0.0019166666 -0.0066111111
0.00056374498 0.0042166668 -0.00038888888
-0.0073286844 0.0030666667 -0.00038888888
0.013717794 -0.0046000001 -0.0019444445
0.029502653 0.0046000001 -0.0046666665
0.020482734 -0.00115 -0.0066111111
-0.012966134 0.00076666666 -0.00038888888
0.023489373 0 -0.0066111111
0.044911683 0.00038333333 -0.0066111111
-0.017100263 -0.0026833334 -0.00038888888
-0.0084561743 0.0019166666 -0.0066111111
-0.0088320039 0.0046000001 -0.0050555556
0.018603584 0.0046000001 -0.0019444445
-0.00056374498 0.0046000001 -0.006222222
-0.019731073 -0.0015333333 -0.0066111111
0.016724434 0 -0.00038888888
-0.020858563 0.0015333333 -0.0066111111
0.034012612 0.0023000001 -0.0066111111
-0.015596944 0.0042166668 -0.00038888888
0.022361884 -0.0046000001 -0.00038888888
0.032133464 -0.0026833334 -0.00038888888
-0.029878482 0.0046000001 -0.00077777775
-0.012966134 0.0030666667 -0.00038888888
-0.031005973 0.0026833334 -0.0066111111
0.019355243 -0.0026833334 -0.0066111111
-0.025744352 -0.0046000001 -0.0042777779
-0.034012612 0 -0.0066111111
0.036267594 0.0046000001 -0.0035000001
-0.042280871 -0.0026833334 -0.0066111111
-0.0092078345 -0.00076666666 -0.0066111111
-0.033636782 -0.0046000001 -0.006222222
-0.0073286844 -0.00076666666 -0.0066111111
-0.040777553 -0.00115 -0.00038888888
-0.037019253 -0.0042166668 -0.0066111111
0.031005973 0.00076666666 -0.0066111111
0.0050737048 -0.00038333333 -0.0066111111
-0.030630143 -0.0046000001 -0.0058333334
-0.0043220446 0.0026833334 -0.0066111111
0.011462814 -0.00115 -0.00038888888
-0.018227754 0.00345 -0.0066111111
-0.020106904 -0.0019166666 -0.0066111111
0.0058253645 -0.0038333333 0.0023333333
-0.011086985 -0.0046000001 -0.0035000001
0.034012612 -0.00076666666 -0.00038888888
0.013717794 -0.0038333333 -0.0066111111
0.033636782 -0.0038333333 -0.00038888888
-0.035515934 -0.0046000001 -0.0042777779
-0.030630143 0.0030666667 -0.0066111111
-0.024992693 -0.0023000001 -0.0066111111
-0.018603584 -0.0046000001 -0.0035000001
0.032885123 0.0030666667 -0.00038888888
-0.020482734 0.0030666667 -0.00038888888
-0.038522571 -0.0046000001 -0.0035000001
0.017851925 0.0023000001 -0.0066111111
-0.044911683 0.0046000001 -0.0027222221
-0.00093957491 -0.0046000001 -0.0050555556
-0.027623503 -0.00038333333 -0.0066111111
-0.017476093 -0.0042166668 -0.0066111111
0.0016912349 -0.0030666667 0.0015555555
-0.015972774 -0.0038333333 -0.0066111111
-0.023865202 0.0046000001 -0.0066111111
0.041153383 0.0046000001 -0.003111111
-0.031381804 0.0046000001 -0.00038888888
-0.044160023 0.00345 -0.00038888888
-0.012966134 -0.0030666667 -0.0066111111
-0.014093624 -0.0038333333 -0.0066111111
-0.013341964 0.0046000001 -0.003111111
0.041905042 0.00038333333 -0.00038888888
0.0054495344 0.0046000001 -0.0058333334
0.045663342 -0.0030666667 -0.00038888888
-0.037395082 -0.0046000001 -0.0027222221
0.038146742 -0.0023000001 -0.0066111111
-0.024616864 -0.0030666667 0.0011666666
0.0084561743 -0.0046000001 -0.0058333334
0.029126823 -0.0046000001 -0.0050555556
0.032509293 0.0030666667 -0.00038888888
-0.014093624 -0.0046000001 -0.0042777779
-0.046415001 -0.00038333333 -0.003888889
-0.017476093 0.0046000001 -0.003888889
0.024616864 -0.0030666667 -0.0066111111
-0.046415001 -0.0015333333 -0.00038888888
0.023113543 -0.0046000001 -0.003111111
-0.0043220446 -0.0046000001 -0.0035000001
0.0043220446 -0.0046000001 -0.0050555556
0.012214474 -0.0046000001 -0.0042777779
-0.04340836 0.00345 -0.00038888888
0.015596944 -0.00076666666 -0.00038888888
-0.039274231 0.0046000001 -0.0050555556
0.046415001 0.0038333333 -0.006222222
0.04378419 0.0026833334 -0.00038888888
-0.0035703848 0.0042166668 -0.00038888888
-0.035515934 -0.0023000001 -0.00038888888
0.012590304 -0.0046000001 -0.0015555555
0.024616864 -0.0030666667 0.00038888888
-0.035891764 0.0046000001 -0.0046666665
0.045663342 -0.0023000001 -0.00038888888
0.025744352 -0.0019166666 -0.0066111111
0.032885123 -0.0046000001 -0.003111111
-0.0058253645 -0.0042166668 -0.00038888888
0.020482734 -0.0046000001 -0.0042777779
-0.042656701 0.0042166668 -0.0066111111
0.024992693 0 -0.00038888888
0.026871843 0.00038333333 -0.0066111111
-0.0028187248 0.00345 -0.00038888888
-0.0062011946 -0.0046000001 -0.0019444445
0.042656701 -0.0046000001 -0.003888889
-0.0095836641 0 -0.00038888888
-0.021234393 0.0038333333 -0.00038888888
0.033260953 -0.0038333333 -0.0066111111
-0.025744352 0.0026833334 -0.0066111111
0.027247673 0.0015333333 -0.0066111111
0.030630143 -0.0046000001 -0.0019444445
0.014845284 -0.00038333333 -0.0066111111
0.042280871 0.0023000001 -0.0066111111
-0.0095836641 0.0046000001 -0.0046666665
-0.04378419 -0.0023000001 -0.0066111111
-0.028375164 -0.0026833334 -0.00038888888
0.0028187248 0.00115 -0.0066111111
0.040401723 -0.0046000001 -0.0054444443
0.04378419 -0.0030666667 8.6736174e-19
-0.021234393 0.0046000001 -0.003888889
0.045663342 0.0046000001 -0.0011666666
0.011462814 0.0019166666 -0.0066111111
0.016348604 0.0030666667 -0.0066111111
-0.010711154 -0.0046000001 -0.0023333333
-0.031005973 0.0046000001 -0.0019444445
0.021610223 -0.0046000001 -0.0027222221
-0.029126823 0.0046000001 -0.0027222221
-0.0058253645 -0.0046000001 -0.00077777775
-0.046039172 0.00115 -0.0058333334
0.027247673 0.0030666667 -0.00038888888
-0.011086985 0.0046000001 -0.0042777779
-0.043032531 0.0046000001 -0.0066111111
0.042280871 0.0046000001 -0.00077777775
0.012590304 -0.00115 -0.00038888888
-0.011462814 -0.0046000001 -0.0058333334
-0.027247673 0.0023000001 -0.00038888888
0.034764271 -0.0038333333 -0.00038888888
-0.017476093 -0.0030666667 8.6736174e-19
-0.0077045145 -0.00115 -0.0066111111
-0.012966134 0.0046000001 -0.00077777775
-0.034388442 0.0046000001 -0.003111111
0.012214474 -0.0015333333 -0.00038888888
0.0028187248 0.0015333333 -0.0066111111
-0.032885123 -0.0042166668 -0.0066111111
0.015221114 0.00038333333 -0.00038888888
-0.037019253 0.0046000001 -0.0019444445
0.034012612 -0.0046000001 -0.0050555556
0.046415001 0.0026833334 -0.0035000001
-0.011462814 0.00345 -0.0066111111
0.014093624 -0.0023000001 -0.00038888888
0.0088320039 0.0030666667 -0.00038888888
0.0062011946 -0.00345 8.6736174e-19
-0.012214474 0.0046000001 -0.00077777775
-0.0020670649 -0.0026833334 -0.00038888888
0.035140101 -0.0023000001 -0.0066111111
0.03965006 0.0046000001 -0.0011666666
-0.028750993 -0.0042166668 -0.00038888888
