# .PCD v0.7 - Point Cloud Data file format
VERSION 0.7
FIELDS x y z
SIZE 4 4 4
TYPE F F F
COUNT 1 1 1
WIDTH 1184
HEIGHT 1
VIEWPOINT 0 0 0 1 0 0 0
POINTS 1184
DATA ascii
-0.025231527 0.0031914893 -8.163265e-05
-0.0070443349 0.00089361705 -8.163265e-05
0.014216749 -0.0021702128 -8.163265e-05
-0.014985221 0.0060000001 -0.0016122449
-0.025231527 -0.0054893615 -0.0011020409
0.024975369 -0.0049787234 -0.0018673469
0.0029458129 -0.0037021276 0.00017346939
0.024206897 -0.0044680852 -0.00033673469
-0.0029458129 -0.00063829788 -0.0085000005
0.024975369 -0.00063829788 -0.0082448982
0.01191133 -0.0060000001 -0.00084693875
0.025231527 0.0049787234 -0.00033673469
0.0019211823 0.0060000001 -0.0049285716
-0.024719212 -0.0029361702 -0.0082448982
-0.006275862 -0.00038297873 -0.0085000005
-0.0075566503 0.0060000001 -0.0079897959
-0.023950739 -0.0060000001 -0.0039081634
0.025231527 -0.0031914893 -0.0041632652
-0.0108867 -0.0060000001 -0.0039081634
-0.020364532 -0.0014042553 -0.0082448982
0.024975369 -0.0049787234 -0.0044183675
0.014729064 0.00038297873 -0.0082448982
-0.019852217 0.0060000001 -0.0072244899
0.0078128083 -0.0060000001 -0.00059183675
-0.00217734 0.0060000001 -0.0036530611
0.014472906 0.0060000001 -0.0039081634
-0.012167487 0.0031914893 -0.0082448982
-0.016778326 -0.00089361705 -8.163265e-05
0.021133006 0.0021702128 -8.163265e-05
0.020876847 -0.0052340426 -0.0082448982
-0.00012807881 0.0049787234 -0.0082448982
0.0052512316 0.0031914893 -8.163265e-05
-0.0075566503 -0.00038297873 -8.163265e-05
0.017290641 -0.0039574467 -0.0082448982
0.024975369 -0.0037021276 -0.0074795918
-0.0067881774 -0.0060000001 -0.0031428572
-0.0093497541 -0.0060000001 -0.0039081634
-0.0026896552 -0.0060000001 -0.0013571428
0.0008965517 -0.0057446808 -0.0036530611
-0.016009852 -0.0060000001 -0.0077346941
0.012935961 0.0060000001 -0.0018673469
0.0026896552 0.00038297873 -8.163265e-05
-0.018059114 -0.0026808511 -8.163265e-05
0.022157636 -0.0039574467 -0.0082448982
0.021901477 0.0054893615 -8.163265e-05
-0.00217734 0.0060000001 -0.0049285716
-0.010374384 0.0060000001 -0.0077346941
0.01191133 -0.0060000001 -0.002122449
-0.0032019704 0.0031914893 -8.163265e-05
0.013448276 0.0060000001 -0.0049285716
-0.006275862 -0.0057446808 -0.0082448982
-0.011399015 0.0060000001 -0.0031428572
-0.018059114 0.0060000001 -0.0062040817
0.0083251232 -0.0047234041 -0.0082448982
0.0078128083 0.0060000001 -0.0044183675
0.019596059 -0.0037021276 -8.163265e-05
-0.014985221 -0.0014042553 -8.163265e-05
-0.0067881774 -0.0060000001 -0.0016122449
-0.021389162 -0.0060000001 -0.0074795918
-0.00064039411 -0.0024255319 -8.163265e-05
-0.018827586 -0.0060000001 -0.0031428572
0.023438424 -0.0060000001 -0.002122449
-0.0029458129 0.00012765957 -0.0085000005
-0.0049950741 0.0060000001 -0.0051836735
-0.0067881774 -0.0021702128 -0.0082448982
0.0052512316 -0.00063829788 -0.0082448982
-0.0108867 0.0037021276 -0.0082448982
-0.0008965517 0.0060000001 -0.0049285716
-0.019596059 0.0054893615 -0.0082448982
-0.024463054 0.0060000001 -0.0054387753
0.017034482 -0.0060000001 -0.0031428572
0.022669951 -0.0011489362 -8.163265e-05
0.020620689 0.0060000001 -0.0039081634
0.019339902 -0.0029361702 -8.163265e-05
-0.0049950741 -0.0054893615 -0.0082448982
-0.024463054 -0.0060000001 -0.0011020409
0.013704433 -0.0044680852 -0.0082448982
0.022926109 -0.0060000001 -0.0077346941
0.0019211823 -0.004212766 -8.163265e-05
0.0019211823 -0.0060000001 -0.0018673469
-0.0049950741 -0.0060000001 -0.0016122449
0.0039704433 0.00038297873 -0.0085000005
0.0024334975 0.0021702128 -0.0082448982
-0.0093497541 0.00089361705 -8.163265e-05
0.025743842 -0.0014042553 -0.0077346941
0.0088374382 -0.0060000001 -0.0077346941
0.017290641 -0.0060000001 -0.0074795918
0.0026896552 0.0029361702 -8.163265e-05
-0.0011527094 -0.0049787234 -0.0082448982
0.019083744 -0.0037021276 -8.163265e-05
0.025743842 -0.0011489362 -0.0054387753
-0.012679803 -0.0044680852 0.0029795917
-0.0034581281 -0.0060000001 -0.0018673469
0.021645321 -0.0054893615 -0.0082448982
-0.009862069 0.0019148936 -8.163265e-05
0.0080689657 -0.0052340426 -8.163265e-05
-0.0037142858 -0.0031914893 -0.0082448982
0.025743842 0.004212766 -0.002122449
0.022926109 -0.004212766 0.0014489796
0.011655172 0.0060000001 -0.0067142858
0.023950739 -0.0060000001 -0.0028877552
0.0096059116 0.0060000001 -0.0041632652
-0.017034482 0.0034468086 -8.163265e-05
0.0032019704 -0.0060000001 -0.0018673469
0.026000001 0.0047234041 -0.0082448982
-0.0065320199 0.0021702128 -0.0082448982
0.021645321 0.0060000001 -0.00033673469
-0.0029458129 0.0037021276 -0.0082448982
0.00012807881 0.0060000001 -0.0074795918
0.025743842 0.004212766 -0.0069693876
-0.026000001 0.0037021276 -0.002377551
-0.020364532 -0.0060000001 -0.0028877552
-0.024975369 -0.00012765957 -0.0082448982
-0.018827586 -0.0044680852 -8.163265e-05
-0.021645321 0.0057446808 -0.0082448982
-0.0042266012 0.0060000001 -0.0069693876
0.0055073891 -0.0054893615 -0.0082448982
0.011399015 0.0060000001 -0.0011020409
0.013704433 0.0039574467 -8.163265e-05
-0.0055073891 0.0039574467 -8.163265e-05
0.0026896552 -0.0060000001 -0.0033979593
-0.020364532 -0.00012765957 -8.163265e-05
-0.0039704433 -0.0034468086 -8.163265e-05
0.021645321 0.0060000001 -0.0069693876
0.0073004928 -0.00089361705 -8.163265e-05
0.018059114 -0.0060000001 -0.0079897959
-0.021389162 0.0060000001 -0.0062040817
0.023182265 -0.0034468086 -0.0079897959
-0.025743842 0.0019148936 -0.0011020409
-0.020364532 0.0039574467 -0.0082448982
0.0065320199 0.00089361705 -0.0085000005
-0.0026896552 -0.00089361705 -0.0085000005
0.020620689 -0.0019148936 -0.0082448982
-0.0029458129 -0.004212766 0.0014489796
0.006275862 0.0024255319 -0.0082448982
-0.0008965517 -0.0039574467 -0.0082448982
0.0073004928 0.0031914893 -0.0082448982
-0.012167487 0.0057446808 -0.0082448982
-0.0024334975 0.0060000001 -0.0056938776
-0.025487686 -0.00089361705 -0.0011020409
-0.025231527 0.0057446808 -0.0077346941
0.0083251232 0.0052340426 -0.0082448982
0.018571429 -0.00089361705 -0.0082448982
-0.0039704433 0.0057446808 -0.0082448982
-0.025231527 -0.004212766 -0.0044183675
0.016522167 -0.0026808511 -8.163265e-05
0.025487686 0.0019148936 -0.0016122449
-0.001408867 0.0060000001 -0.0069693876
0.0060197045 -0.0060000001 -0.0049285716
-0.011142857 0.0054893615 -0.0082448982
0.012679803 -0.0057446808 -0.0082448982
0.010374384 0.0060000001 -0.0011020409
0.023438424 0.0060000001 -0.0072244899
-0.022157636 -0.0060000001 -0.0044183675
0.022926109 -0.0039574467 0.0024693878
0.0024334975 -0.0034468086 0.0022142858
-0.022926109 0.0049787234 -0.0082448982
0.0075566503 0.0014042553 -0.0085000005
-0.012423646 -0.0060000001 -0.0016122449
-0.016778326 0.0060000001 -0.0028877552
0.0034581281 -0.0060000001 -0.0082448982
0.024975369 -0.0054893615 -0.0028877552
0.014216749 0.00012765957 -0.0082448982
0.0060197045 -0.0047234041 -0.0082448982
0.0093497541 0.00012765957 -8.163265e-05
0.013448276 0.0039574467 -0.0082448982
-0.026000001 0.0044680852 -0.002377551
0.0047389162 -0.0052340426 -8.163265e-05
0.011399015 0.00089361705 -8.163265e-05
0.019083744 0.0060000001 -0.0067142858
0.015241379 0.0060000001 -0.0064591835
0.012935961 -0.0039574467 0.0024693878
-0.0047389162 0.0060000001 -0.0064591835
-0.0093497541 0.0047234041 -8.163265e-05
0.0039704433 -0.00089361705 -0.0082448982
-0.014729064 -0.0011489362 -0.0082448982
-0.0085812807 0.0060000001 -0.0062040817
-0.023182265 -0.0060000001 -0.0072244899
0.00217734 0.0060000001 -0.0077346941
-0.00012807881 -0.0057446808 -0.0033979593
0.024719212 -0.0031914893 -0.0079897959
0.0042266012 0.0060000001 -0.0016122449
0.011399015 -0.0057446808 -8.163265e-05
0.014472906 0.0060000001 -0.0064591835
-0.025231527 -0.0049787234 -0.002377551
0.0008965517 0.0060000001 -0.00059183675
-0.01191133 0.0044680852 -8.163265e-05
0.021133006 0.0060000001 -0.0018673469
-0.025743842 0.00089361705 -0.0046734693
0.0016650247 0.0054893615 -8.163265e-05
-0.023182265 0.0024255319 -8.163265e-05
0.0055073891 0.0060000001 -0.0016122449
-0.0019211823 -0.0060000001 -0.0062040817
0.0093497541 -0.0060000001 -0.0074795918
0.023182265 0.0039574467 -8.163265e-05
-0.00064039411 -0.00012765957 -0.0085000005
0.005763547 0.0021702128 -0.0082448982
-0.0083251232 0.0060000001 -0.0049285716
0.013192118 0.0037021276 -8.163265e-05
-0.0090935957 0.0019148936 -8.163265e-05
-0.0039704433 0.0060000001 -0.0028877552
-0.01191133 -0.00089361705 -0.0082448982
0.025487686 0.0014042553 -0.0028877552
-0.009862069 -0.0054893615 -0.0082448982
0.0011527094 0.0019148936 -8.163265e-05
-0.025743842 0.00012765957 -0.00084693875
0.0016650247 0.0060000001 -0.0074795918
-0.022669951 -0.0060000001 -0.0046734693
0.0078128083 -0.004212766 0.0017040817
0.0039704433 0.0037021276 -0.0082448982
0.0090935957 0.0024255319 -8.163265e-05
-0.0065320199 -0.0060000001 -0.0031428572
0.011142857 -0.0060000001 -0.0056938776
0.015753694 -0.0060000001 -0.0041632652
0.0060197045 -0.0016595745 -0.0082448982
0.023438424 -0.0060000001 -0.0072244899
-0.022157636 -0.0060000001 -0.0013571428
-0.01191133 -0.0047234041 -8.163265e-05
0.0042266012 -0.0037021276 -8.163265e-05
-0.019596059 0.00012765957 -0.0082448982
0.011655172 0.0060000001 -0.0018673469
0.012423646 -0.0052340426 -8.163265e-05
0.022157636 0.00012765957 -0.0082448982
0.022669951 -0.0054893615 -0.0082448982
-0.010630541 -0.0049787234 -0.0082448982
-0.014216749 0.0029361702 -0.0082448982
-0.025231527 -0.0039574467 -0.0039081634
0.0067881774 -0.00089361705 -0.0082448982
-0.012935961 -0.0039574467 0.0011938775
0.0070443349 0.0034468086 -0.0082448982
0.00012807881 0.0060000001 -0.0064591835
-0.017034482 -0.004212766 0.0022142858
0.0070443349 -0.004212766 0.0019591837
-0.012167487 0.0060000001 -0.0056938776
0.0083251232 -0.0021702128 -0.0082448982
-0.017546797 0.0031914893 -8.163265e-05
0.025487686 0.0016595745 -0.0059489794
-0.0034581281 -0.0044680852 -0.0082448982
-0.025743842 0.00063829788 -0.0077346941
-0.025231527 0.0057446808 -0.00033673469
0.0108867 -0.0060000001 -0.0049285716
-0.025231527 -0.0044680852 -0.00059183675
0.013192118 0.0037021276 -0.0082448982
-0.0078128083 -0.0014042553 -8.163265e-05
-0.018315271 0.00063829788 -8.163265e-05
-0.0049950741 0.0060000001 -0.0064591835
0.0065320199 0.0060000001 -0.0041632652
-0.0093497541 0.0060000001 -0.0067142858
-0.02369458 -0.0011489362 -0.0082448982
0.0080689657 0.0026808511 -8.163265e-05
0.010118227 -0.0060000001 -0.0074795918
0.014216749 0.0039574467 -0.0082448982
-0.017290641 0.0037021276 -8.163265e-05
0.023438424 0.0037021276 -8.163265e-05
0.0093497541 -0.0060000001 -0.0041632652
0.018059114 -0.0060000001 -0.0033979593
0.017546797 -0.00038297873 -8.163265e-05
-0.025231527 0.0034468086 -8.163265e-05
-0.005763547 -0.0034468086 -8.163265e-05
0.0096059116 0.0060000001 -0.0046734693
-0.013960592 0.0026808511 -8.163265e-05
0.0073004928 -0.0014042553 -8.163265e-05
0.0096059116 0.004212766 -0.0082448982
-0.0065320199 0.0054893615 -0.0082448982
0.0039704433 0.0011489362 -0.0085000005
0.013960592 0.0060000001 -0.0036530611
0.0060197045 -0.0044680852 -8.163265e-05
-0.0034581281 0.0060000001 -0.0028877552
0.019339902 -0.0047234041 -8.163265e-05
-0.017802956 0.0054893615 -0.00033673469
-0.012679803 -0.0060000001 -8.163265e-05
-0.025743842 0.00038297873 -0.00059183675
0.021133006 -0.0060000001 -0.0054387753
-0.0108867 -0.0057446808 -0.0082448982
-0.019596059 -0.0014042553 -8.163265e-05
0.010118227 -0.0044680852 -0.0082448982
-0.014472906 -0.0039574467 -0.0082448982
-0.0024334975 -0.0060000001 -0.0044183675
-0.018315271 0.0029361702 -0.0082448982
0.016266011 0.0026808511 -8.163265e-05
-0.0042266012 0.00038297873 -8.163265e-05
0.020620689 -0.0016595745 -8.163265e-05
-0.017290641 -0.0044680852 0.0019591837
-0.005763547 0.0031914893 -8.163265e-05
0.025743842 0.0034468086 -0.0082448982
-0.015241379 0.0031914893 -0.0082448982
0.0067881774 0.0060000001 -0.0074795918
-0.0090935957 0.0060000001 -0.0067142858
0.0067881774 0.0060000001 -0.0082448982
0.009862069 -0.0060000001 -0.0033979593
0.010118227 0.0019148936 -8.163265e-05
0.017034482 -0.0021702128 -8.163265e-05
0.015241379 -0.0039574467 -0.0082448982
-0.009862069 -0.0044680852 -0.0082448982
-0.0034581281 -0.0024255319 -8.163265e-05
0.016266011 0.0060000001 -0.0028877552
0.022669951 -0.0031914893 -0.0082448982
0.001408867 -0.00038297873 -8.163265e-05
-0.0096059116 0.0060000001 -0.0044183675
-0.016266011 -0.00038297873 -0.0082448982
-0.022413794 -0.0019148936 -8.163265e-05
0.022157636 -0.0037021276 0.0029795917
0.0049950741 0.0060000001 -0.0028877552
-0.0032019704 -0.0060000001 -0.002122449
-0.018315271 -0.0060000001 -0.0062040817
-0.0019211823 -0.00063829788 -8.163265e-05
0.018571429 0.00012765957 -8.163265e-05
-0.013192118 0.0060000001 -0.00059183675
-0.024206897 -0.0060000001 -0.0064591835
-0.00217734 -0.0034468086 0.0014489796
-0.006275862 -0.0060000001 -0.0044183675
0.020364532 0.0060000001 -0.002122449
0.009862069 0.0039574467 -0.0082448982
0.0016650247 -0.0031914893 -0.0082448982
-0.0047389162 -0.0052340426 -0.0082448982
-0.017546797 -0.0060000001 -0.0067142858
-0.024975369 -0.0019148936 -8.163265e-05
-0.023438424 0.0060000001 -0.0067142858
-0.023950739 0.0024255319 -0.0082448982
0.00217734 -0.0037021276 0.0027244899
0.020108374 -0.0060000001 -0.0054387753
0.025743842 0.0037021276 -0.0033979593
0.020876847 -0.0060000001 -0.00084693875
0.00217734 -0.0021702128 -8.163265e-05
-0.0075566503 -0.0060000001 -0.0041632652
-0.014729064 -0.0060000001 -0.0039081634
0.0075566503 0.0044680852 -8.163265e-05
0.017546797 -0.0057446808 -0.00033673469
0.00064039411 0.0037021276 -8.163265e-05
0.019339902 -0.0024255319 -0.0082448982
0.02369458 0.0060000001 -0.0064591835
0.024463054 0.0060000001 -0.002377551
-0.023182265 0.0021702128 -8.163265e-05
0.025487686 0.0014042553 -0.0026326531
-0.0055073891 -0.00063829788 -0.0085000005
0.015497537 -0.0014042553 -0.0082448982
-0.012679803 0.0060000001 -0.0013571428
-0.0070443349 0.00089361705 -0.0082448982
0.013192118 -0.0060000001 -0.0062040817
0.0096059116 0.00038297873 -8.163265e-05
-0.015497537 -0.0060000001 -0.0079897959
-0.0088374382 0.0060000001 -0.0069693876
0.022669951 -0.0047234041 -0.0082448982
-0.022669951 -0.0060000001 -0.0062040817
-0.014729064 0.0060000001 -0.002377551
0.021389162 -0.0039574467 -0.0082448982
-0.025487686 -0.0021702128 -0.0026326531
-0.0085812807 -0.0011489362 -8.163265e-05
-0.025231527 0.0034468086 -0.0082448982
0.0096059116 0.0060000001 -0.00033673469
-0.0075566503 0.0060000001 -0.00033673469
0.0047389162 -0.0060000001 -0.0016122449
0.019596059 -0.0019148936 -8.163265e-05
0.018571429 0.00063829788 -8.163265e-05
0.012679803 -0.00063829788 -8.163265e-05
0.011655172 -0.004212766 -8.163265e-05
-0.0049950741 0.0060000001 -0.0026326531
0.019852217 0.0060000001 -0.0011020409
-0.022413794 -0.0034468086 -0.0082448982
-0.014216749 0.0021702128 -8.163265e-05
0.018315271 0.0011489362 -0.00033673469
0.0029458129 -0.0039574467 0.00093877548
-0.017546797 0.0060000001 -0.002377551
0.0049950741 -0.0047234041 -0.0082448982
-0.019339902 0.0016595745 -0.0082448982
0.0016650247 0.0037021276 -8.163265e-05
-0.0075566503 -0.0060000001 -0.0056938776
-0.020876847 -0.0029361702 -0.0082448982
-0.017546797 -0.0044680852 0.0011938775
0.014985221 -0.0031914893 -0.0082448982
0.016522167 0.0021702128 -8.163265e-05
0.0016650247 0.0060000001 -0.002122449
0.00217734 -0.0052340426 -0.0082448982
-0.0070443349 -0.0029361702 -8.163265e-05
-0.022669951 -0.0060000001 -0.002122449
-0.017034482 0.0052340426 -0.00033673469
-0.016778326 0.00038297873 -0.0082448982
-0.0047389162 0.0060000001 -0.0031428572
0.012679803 0.0060000001 -0.0028877552
-0.017034482 -0.0037021276 0.0027244899
0.0029458129 -0.0037021276 0.0017040817
0.0042266012 0.0029361702 -8.163265e-05
0.012423646 -0.0060000001 -0.0011020409
0.0078128083 -0.0039574467 0.0027244899
0.025487686 0.0019148936 -0.00059183675
0.0008965517 -0.0024255319 -0.0082448982
-0.02369458 0.0014042553 -0.0082448982
-0.013960592 -0.0021702128 -8.163265e-05
-0.024206897 0.00038297873 -0.0082448982
-0.0070443349 0.0060000001 -0.00084693875
0.0039704433 -0.0037021276 -0.0082448982
0.022157636 -0.0016595745 -8.163265e-05
0.0065320199 0.0057446808 -0.0082448982
-0.026000001 0.0031914893 -0.0077346941
-0.025231527 -0.0039574467 -0.0054387753
0.014216749 -0.0031914893 -8.163265e-05
-0.020108374 0.0011489362 -0.0082448982
0.00217734 0.0060000001 -0.0079897959
0.0078128083 -0.0021702128 -0.0082448982
-0.013704433 0.0034468086 -0.0082448982
0.022157636 0.0060000001 -0.00033673469
-0.013448276 -0.0021702128 -8.163265e-05
0.00217734 0.0060000001 -0.0056938776
-0.015497537 -0.0060000001 -0.0026326531
0.0055073891 -0.0060000001 -0.0054387753
-0.0019211823 -0.0057446808 -8.163265e-05
-0.0034581281 0.0057446808 -8.163265e-05
-0.0039704433 -0.0060000001 -0.0046734693
0.013704433 -0.0054893615 -0.0082448982
-0.016522167 -0.0060000001 -0.0072244899
-0.0075566503 -0.0016595745 -8.163265e-05
0.013448276 -0.0060000001 -0.00059183675
-0.0070443349 -0.0060000001 -0.0011020409
-0.0008965517 0.0060000001 -0.0016122449
-0.021645321 0.0026808511 -8.163265e-05
-0.0093497541 -0.0060000001 -0.0051836735
-0.014729064 -0.0060000001 -0.002122449
0.018059114 -0.0029361702 -0.0082448982
-0.013704433 -0.0047234041 -8.163265e-05
0.0024334975 -0.00038297873 -8.163265e-05
0.023438424 0.0060000001 -0.0059489794
-0.013448276 -0.0060000001 -0.0051836735
0.02369458 0.0024255319 -8.163265e-05
0.017802956 0.0060000001 -0.002122449
0.0070443349 -0.0029361702 -0.0082448982
-0.013192118 -0.0047234041 -8.163265e-05
-0.022413794 0.0060000001 -0.0079897959
0.0078128083 -0.004212766 0.0024693878
0.011655172 0.0016595745 -8.163265e-05
0.019083744 0.0044680852 -0.0082448982
0.025487686 0.0021702128 -0.0011020409
-0.019596059 0.0060000001 -0.0011020409
0.0039704433 -0.0060000001 -8.163265e-05
0.0042266012 -0.0034468086 -0.0082448982
-0.01191133 0.0060000001 -0.0082448982
0.0108867 -0.0060000001 -0.0077346941
-0.0067881774 -0.0016595745 -8.163265e-05
0.00012807881 -0.0057446808 -0.0059489794
0.025743842 0.0054893615 -0.002377551
0.024975369 -0.0054893615 -0.002377551
0.022669951 0.0060000001 -0.0011020409
0.011655172 -0.0052340426 -8.163265e-05
-0.017034482 -0.0060000001 -0.0028877552
0.0075566503 -0.0044680852 -0.0082448982
-0.011142857 -0.0037021276 -8.163265e-05
-0.024463054 -0.0060000001 -0.0067142858
0.020620689 0.0060000001 -0.0031428572
0.009862069 -0.0052340426 -8.163265e-05
-0.0055073891 0.0060000001 -0.0039081634
0.017546797 -0.004212766 -0.0082448982
0.017290641 -0.00063829788 -0.0082448982
-0.0078128083 -0.0060000001 -0.0039081634
-0.025231527 -0.004212766 -0.00059183675
0.00217734 0.0037021276 -0.0082448982
-0.022413794 0.0037021276 -8.163265e-05
-0.011655172 -0.0044680852 -8.163265e-05
0.00064039411 -0.0057446808 -0.0062040817
0.0080689657 -0.0029361702 -0.0082448982
-0.018315271 0.0060000001 -0.0018673469
0.023438424 0.0029361702 -0.0082448982
-0.005763547 0.0021702128 -8.163265e-05
-0.012935961 -0.0026808511 -8.163265e-05
0.025487686 -0.00012765957 -0.0039081634
0.0055073891 -0.0060000001 -0.0079897959
0.0055073891 -0.0026808511 -0.0082448982
0.0055073891 0.0060000001 -0.0067142858
0.025743842 0.0044680852 -0.0041632652
0.0085812807 0.0060000001 -0.0056938776
-0.0042266012 0.0034468086 -8.163265e-05
-0.011399015 -0.0047234041 -8.163265e-05
0.015497537 -0.0039574467 -8.163265e-05
0.020108374 0.0019148936 -8.163265e-05
0.024975369 -0.0060000001 -0.00033673469
0.024206897 -0.0060000001 -0.002377551
0.0039704433 0.0060000001 -0.00059183675
0.0090935957 0.0060000001 -0.0082448982
0.0073004928 -0.0034468086 0.0017040817
-0.0065320199 -0.0037021276 -0.0082448982
-0.020364532 0.0024255319 -0.0082448982
0.022669951 0.0060000001 -0.0067142858
-0.0037142858 0.0029361702 -0.0082448982
-0.0080689657 -0.0044680852 -8.163265e-05
0.021133006 0.0060000001 -0.0074795918
0.013192118 0.0060000001 -0.0067142858
-0.010374384 -0.0060000001 -0.0044183675
0.0011527094 -0.0047234041 -8.163265e-05
0.0070443349 -0.0037021276 0.0029795917
0.019852217 -0.0052340426 -0.00033673469
0.012679803 -0.0060000001 -0.0077346941
-0.013192118 -0.0060000001 -0.0082448982
0.013960592 0.0014042553 -8.163265e-05
-0.025743842 -0.0031914893 -0.00033673469
-0.0055073891 0.0021702128 -0.0082448982
-0.019596059 0.0060000001 -0.0059489794
-0.020108374 0.0060000001 -0.0079897959
-0.016778326 0.0060000001 -0.0031428572
-0.010118227 -0.0060000001 -0.0077346941
0.0047389162 -0.0060000001 -0.0028877552
-0.0055073891 -0.00012765957 -0.0085000005
0.01191133 -0.0026808511 -0.0082448982
0.0026896552 -0.0047234041 -8.163265e-05
0.022669951 -0.0037021276 0.0022142858
0.015497537 0.0060000001 -0.0011020409
-0.025231527 -0.004212766 -8.163265e-05
-0.0096059116 -0.0060000001 -0.00059183675
-0.025231527 -0.0052340426 -0.002122449
-0.020620689 0.0060000001 -0.0041632652
0.00038423645 0.0026808511 -8.163265e-05
0.012167487 -0.0034468086 -0.0082448982
0.023182265 -0.0060000001 -0.0013571428
0.018315271 0.0060000001 -0.0064591835
-0.025231527 -0.0049787234 -0.0077346941
0.0055073891 0.0060000001 -0.002122449
0.013192118 -0.00012765957 -8.163265e-05
-0.012167487 -0.004212766 -0.0082448982
-0.025231527 -0.0057446808 -0.0026326531
0.017290641 -0.0054893615 -0.0082448982
0.001408867 0.0060000001 -0.0036530611
0.0026896552 0.0060000001 -0.0059489794
-0.0044827587 0.0037021276 -0.0082448982
-0.024463054 0.0039574467 -8.163265e-05
0.0011527094 0.0060000001 -0.0077346941
0.019339902 0.0024255319 -8.163265e-05
-0.017546797 -0.0049787234 -0.0082448982
0.0055073891 0.0039574467 -8.163265e-05
-0.016009852 -0.00063829788 -0.0082448982
-0.0073004928 0.0060000001 -0.00084693875
0.0039704433 0.0014042553 -0.0085000005
0.0093497541 0.0060000001 -0.0033979593
-0.013704433 -0.0060000001 -0.0039081634
-0.013960592 -0.0044680852 -8.163265e-05
-0.024975369 0.0060000001 -0.0044183675
-0.0034581281 0.0049787234 -0.0082448982
0.0044827587 -0.0060000001 -0.0056938776
-0.019852217 -0.0060000001 -0.0016122449
0.024975369 -0.0052340426 -0.0013571428
-0.0026896552 -0.0060000001 -0.0054387753
0.01191133 0.0021702128 -8.163265e-05
-0.012679803 -0.0054893615 -8.163265e-05
0.022157636 0.0021702128 -8.163265e-05
-0.019596059 -0.0060000001 -0.002377551
0.012935961 -0.0037021276 0.0019591837
-0.0042266012 -0.00063829788 -0.0085000005
0.0073004928 -0.0029361702 -0.0082448982
0.0024334975 -0.0060000001 -0.002122449
-0.025487686 -0.0021702128 -0.0031428572
-0.019339902 -0.0054893615 -0.0082448982
-0.011655172 0.0052340426 -0.00033673469
-0.022926109 0.0026808511 -8.163265e-05
0.0096059116 0.0060000001 -0.00059183675
0.020108374 -0.0021702128 -0.0082448982
0.025487686 0.0021702128 -0.0018673469
-0.025231527 -0.0057446808 -0.0062040817
0.009862069 -0.0044680852 -0.0082448982
-0.019083744 -0.0029361702 -8.163265e-05
0.0029458129 -0.0060000001 -0.0056938776
0.020876847 0.0054893615 -8.163265e-05
-0.017546797 0.00038297873 -8.163265e-05
-0.006275862 -0.0060000001 -0.0013571428
0.020620689 0.0016595745 -0.0085000005
0.012423646 0.0060000001 -0.0079897959
-0.012167487 0.0060000001 -0.0011020409
0.013192118 0.0031914893 -8.163265e-05
-0.0034581281 -0.0037021276 -0.0082448982
0.022413794 -0.0037021276 -0.0082448982
0.0034581281 0.0060000001 -0.0077346941
0.024719212 -0.0037021276 -0.0079897959
-0.017546797 0.0054893615 -0.00033673469
0.0052512316 0.00089361705 -8.163265e-05
0.022926109 -0.0039574467 0.00042857142
0.015497537 0.00038297873 -0.0085000005
-0.00038423645 0.0031914893 -0.0082448982
0.018571429 -0.0031914893 -8.163265e-05
0.022157636 -0.0037021276 0.0011938775
0.012167487 0.0016595745 -8.163265e-05
-0.026000001 0.0037021276 -0.0044183675
-0.015753694 0.0052340426 -0.0082448982
-0.019339902 -0.0034468086 -0.0085000005
-0.0078128083 -0.0039574467 0.00017346939
0.010118227 0.00038297873 -8.163265e-05
-0.015753694 -0.0054893615 -8.163265e-05
-0.013704433 -0.0052340426 -8.163265e-05
-0.013448276 0.0060000001 -0.0028877552
-0.0034581281 0.0049787234 -8.163265e-05
-0.009862069 0.0054893615 -0.0082448982
0.025231527 0.0031914893 -8.163265e-05
-0.020364532 0.0060000001 -0.0056938776
-0.0085812807 -0.0060000001 -0.0077346941
-0.0034581281 -0.004212766 -8.163265e-05
-0.0034581281 -0.0060000001 -0.0039081634
-0.0065320199 0.0052340426 -8.163265e-05
0.0065320199 0.0060000001 -0.0077346941
-0.018315271 0.0011489362 -8.163265e-05
-0.00064039411 0.0029361702 -8.163265e-05
-0.0008965517 0.0014042553 -8.163265e-05
0.0049950741 -0.0060000001 -0.0072244899
-0.026000001 0.0039574467 -0.00033673469
0.022413794 0.0057446808 -8.163265e-05
-0.026000001 0.0054893615 -0.0028877552
0.0044827587 -0.0060000001 -0.0072244899
0.020876847 -0.0021702128 -8.163265e-05
0.023438424 -0.00089361705 -8.163265e-05
-0.025231527 -0.0034468086 -0.0033979593
0.011142857 0.0016595745 -0.0085000005
0.025487686 0.0060000001 -0.002377551
0.0034581281 -0.0037021276 -8.163265e-05
0.024975369 -0.0049787234 -0.0062040817
-0.024975369 0.0060000001 -0.0031428572
0.015753694 0.0060000001 -0.0054387753
-0.026000001 0.0029361702 -0.0031428572
0.015497537 -0.0060000001 -0.0069693876
0.0075566503 -0.0034468086 0.0029795917
-0.015753694 -0.0016595745 -0.0085000005
-0.014216749 -0.0011489362 -8.163265e-05
-0.019596059 0.0060000001 -0.00033673469
-0.026000001 0.004212766 -0.0062040817
-0.0011527094 -0.0060000001 -0.0072244899
0.00038423645 0.0060000001 -0.0077346941
0.020364532 -0.0039574467 -0.0082448982
-0.0052512316 0.0060000001 -0.0036530611
-0.013960592 0.00012765957 -0.0082448982
-0.019596059 -0.0060000001 -0.0036530611
0.012167487 0.0026808511 -0.0082448982
0.018827586 0.00012765957 -8.163265e-05
-0.016266011 0.0060000001 -0.002122449
0.019083744 -0.0057446808 -0.00033673469
-0.0016650247 0.0060000001 -0.002122449
0.0065320199 -0.0026808511 -0.0082448982
0.014472906 -0.0060000001 -0.0039081634
0.020876847 0.0016595745 -8.163265e-05
0.015497537 -0.0060000001 -0.00033673469
0.024206897 0.0060000001 -0.0046734693
0.019596059 -0.0029361702 -0.0082448982
0.012167487 -0.0037021276 0.00017346939
0.016778326 -0.0060000001 -0.0077346941
-0.0080689657 0.0037021276 -8.163265e-05
-0.023182265 -0.0060000001 -0.0059489794
0.0024334975 -0.004212766 0.0034897958
-0.026000001 0.0031914893 -0.0036530611
-0.016522167 0.0039574467 -0.0082448982
-0.0037142858 -0.00063829788 -8.163265e-05
0.0080689657 0.0060000001 -0.0079897959
-0.014729064 -0.00038297873 -0.0082448982
0.011655172 0.0057446808 -8.163265e-05
0.019339902 -0.0034468086 -0.0082448982
-0.015497537 -0.0054893615 -8.163265e-05
0.023182265 0.0060000001 -0.0074795918
-0.0034581281 0.00038297873 -0.0085000005
-0.022926109 0.00063829788 -8.163265e-05
0.022926109 0.0024255319 -8.163265e-05
-0.0060197045 0.00012765957 -0.0082448982
0.017802956 0.0057446808 -0.0082448982
-0.017802956 -0.0037021276 0.0027244899
0.017546797 0.0037021276 -0.0082448982
-0.017290641 -0.0049787234 -0.0082448982
0.015753694 -0.0060000001 -0.0064591835
0.022413794 -0.00089361705 -0.0082448982
-0.0078128083 -0.0060000001 -0.0028877552
0.023950739 0.00038297873 -8.163265e-05
-0.018059114 0.0011489362 -8.163265e-05
-0.006275862 0.0060000001 -0.0033979593
-0.012167487 -0.00038297873 -8.163265e-05
-0.025231527 -0.0039574467 -0.0033979593
-0.019852217 0.0016595745 -0.0082448982
-0.021389162 -0.0037021276 -0.0082448982
-0.0073004928 -0.0060000001 -0.0018673469
0.0065320199 -0.0019148936 -8.163265e-05
-0.001408867 0.0060000001 -0.0059489794
0.0055073891 -0.0054893615 -8.163265e-05
-0.0096059116 -0.0060000001 -0.0049285716
0.011655172 0.0014042553 -0.0085000005
-0.0088374382 -0.0060000001 -0.0044183675
0.025487686 0.00063829788 -0.0074795918
-0.021901477 -0.0052340426 -0.0082448982
-0.0055073891 0.0060000001 -0.002377551
0.015497537 0.0054893615 -0.0082448982
0.011399015 0.0060000001 -0.0041632652
-0.0026896552 -0.0060000001 -0.0018673469
0.017290641 -0.0024255319 -8.163265e-05
0.022413794 0.0060000001 -0.002377551
-0.0034581281 -0.0060000001 -0.002122449
0.015241379 -0.0019148936 -8.163265e-05
-0.023438424 -0.0052340426 -8.163265e-05
-0.024975369 -0.0021702128 -8.163265e-05
-0.005763547 0.0060000001 -0.0018673469
-0.013448276 0.004212766 -0.0082448982
-0.0108867 -0.0060000001 -0.0077346941
0.0075566503 0.0054893615 -0.0082448982
-0.020364532 -0.0047234041 -0.0082448982
0.012167487 -0.00089361705 -8.163265e-05
-0.0075566503 0.0016595745 -8.163265e-05
-0.022157636 -0.00038297873 -0.0082448982
-0.010630541 -0.0060000001 -0.0069693876
-0.0067881774 -0.00012765957 -0.0082448982
-0.013704433 -0.0060000001 -0.00059183675
-0.0049950741 0.0060000001 -0.002377551
-0.019339902 -0.0060000001 -0.0059489794
0.025487686 -0.0031914893 -0.00033673469
0.0052512316 0.0060000001 -0.0079897959
-0.0032019704 0.0060000001 -0.0044183675
-0.015497537 0.0016595745 -8.163265e-05
0.024975369 -0.0039574467 -0.0018673469
-0.023950739 -0.0060000001 -0.0046734693
0.0011527094 -0.0060000001 -0.0077346941
-0.0008965517 -0.0019148936 -8.163265e-05
-0.0078128083 -0.0037021276 0.0019591837
0.0075566503 0.0060000001 -0.002377551
0.00038423645 0.0060000001 -0.0051836735
-0.022926109 -0.004212766 0.00093877548
0.025487686 0.00038297873 -0.0049285716
0.005763547 0.00089361705 -0.0085000005
-0.013704433 0.00012765957 -0.0082448982
0.019339902 -0.0060000001 -0.0079897959
-0.0065320199 -0.0011489362 -8.163265e-05
0.012935961 -0.0060000001 -0.0039081634
0.0070443349 -0.0034468086 -0.0082448982
-0.014472906 -0.0060000001 -0.0067142858
-0.010118227 0.0060000001 -0.0082448982
-0.012167487 0.0029361702 -0.0082448982
-0.0080689657 -0.004212766 -0.0082448982
-0.011655172 -0.0060000001 -0.0056938776
0.025231527 -0.0034468086 -0.0056938776
-0.022926109 -0.0024255319 -0.0082448982
-0.021901477 -0.0060000001 -0.0026326531
-0.017034482 0.0014042553 -0.0082448982
-0.0047389162 0.0060000001 -0.00033673469
0.0078128083 -0.0060000001 -0.002122449
0.018059114 0.0011489362 -0.0085000005
0.017034482 -0.00063829788 -8.163265e-05
-0.014729064 -0.0047234041 -0.0082448982
-0.0039704433 0.0049787234 -0.0082448982
0.001408867 0.00012765957 -8.163265e-05
-0.021389162 0.0049787234 -0.0082448982
0.022669951 0.0034468086 -0.0082448982
-0.021133006 -0.0060000001 -0.002122449
-0.00064039411 0.0060000001 -0.0046734693
-0.0047389162 0.0060000001 -0.0036530611
-0.014729064 -0.0039574467 -8.163265e-05
-0.019083744 0.0060000001 -0.0016122449
-0.019339902 0.0060000001 -0.0079897959
0.021133006 0.0060000001 -0.0028877552
0.010374384 -0.0060000001 -0.0067142858
-0.020876847 0.0047234041 -8.163265e-05
0.015241379 0.00089361705 -0.0085000005
0.0085812807 -0.0052340426 -0.0082448982
-0.006275862 -0.0060000001 -0.0018673469
-0.018571429 -0.0031914893 -0.0082448982
-0.016009852 -0.0060000001 -0.0018673469
0.018315271 0.00012765957 -8.163265e-05
0.024975369 -0.0057446808 -0.0031428572
0.020108374 0.0060000001 -0.0033979593
-0.010630541 -0.0060000001 -0.0051836735
-0.014216749 -0.0016595745 -8.163265e-05
-0.011655172 -0.0029361702 -8.163265e-05
0.017034482 -0.0037021276 0.0014489796
0.017034482 -0.0057446808 -0.00033673469
0.025743842 0.0037021276 -0.0072244899
-0.025231527 -0.0016595745 -8.163265e-05
-0.013704433 0.0060000001 -0.002377551
-0.0039704433 -0.00063829788 -8.163265e-05
0.017546797 -0.0044680852 0.00017346939
0.00217734 -0.00063829788 -8.163265e-05
-0.0055073891 -0.0060000001 -0.0018673469
-0.011399015 -0.0026808511 -8.163265e-05
-0.010374384 0.0039574467 -8.163265e-05
0.0042266012 0.0060000001 -0.0056938776
-0.0073004928 -0.00089361705 -8.163265e-05
-0.015497537 -0.0049787234 -0.0082448982
0.0026896552 -0.0044680852 0.0014489796
0.011399015 -0.0060000001 -0.0062040817
-0.022413794 0.0044680852 -0.0082448982
0.00038423645 0.00038297873 -8.163265e-05
0.015753694 0.004212766 -8.163265e-05
0.0011527094 -0.0011489362 -0.0085000005
0.017034482 -0.0037021276 0.00093877548
-0.013704433 -0.0049787234 -0.0082448982
0.024463054 -0.0060000001 -0.0054387753
0.016778326 -0.0014042553 -0.0082448982
0.025743842 0.0054893615 -0.0056938776
-0.0039704433 -0.0019148936 -8.163265e-05
-0.012167487 -0.0034468086 0.00068367348
-0.017034482 -0.0060000001 -0.002377551
-0.0039704433 0.0026808511 -8.163265e-05
-0.013448276 -0.0060000001 -0.0018673469
0.021133006 0.0039574467 -0.0082448982
-0.0070443349 -0.0037021276 0.00068367348
0.0049950741 -0.0060000001 -0.00084693875
-0.020876847 0.0021702128 -8.163265e-05
-0.0067881774 0.004212766 -0.0082448982
0.025743842 0.0029361702 -0.0028877552
-0.020620689 0.0060000001 -0.0051836735
-0.006275862 -0.0047234041 -8.163265e-05
0.018571429 0.0014042553 -0.0085000005
0.021645321 -0.004212766 -0.0082448982
-0.016778326 0.0060000001 -0.0074795918
-0.018059114 -0.0060000001 -0.002122449
-0.020108374 -0.0060000001 -0.0064591835
0.0026896552 0.0060000001 -0.00059183675
-0.024975369 0.0029361702 -0.0082448982
0.0052512316 -0.0060000001 -0.0033979593
-0.0024334975 -0.0054893615 -0.0082448982
-0.00217734 0.0011489362 -0.0082448982
-0.01191133 -0.0049787234 -0.0082448982
-0.022669951 -0.0016595745 -0.0082448982
0.02369458 0.00012765957 -8.163265e-05
-0.014729064 0.0060000001 -0.00084693875
0.0032019704 -0.0019148936 -8.163265e-05
-0.0008965517 -0.0044680852 -0.0082448982
0.019083744 0.0039574467 -8.163265e-05
-0.023950739 0.0026808511 -8.163265e-05
0.00012807881 0.0060000001 -0.0051836735
-0.016778326 -0.0060000001 -0.002377551
0.014985221 0.0029361702 -0.0085000005
-0.021389162 0.0026808511 -8.163265e-05
-0.025743842 0.00038297873 -0.0031428572
-0.00012807881 -0.0047234041 -0.0082448982
0.00012807881 -0.0044680852 -8.163265e-05
0.018827586 0.0060000001 -8.163265e-05
0.016778326 -0.0034468086 -0.0082448982
0.0039704433 0.0019148936 -8.163265e-05
0.025743842 0.0034468086 -0.0049285716
-0.020876847 -0.0060000001 -0.0013571428
-0.020364532 0.0060000001 -0.002377551
-0.023950739 -0.0031914893 -0.0082448982
0.019083744 0.0060000001 -0.00033673469
-0.013192118 0.0024255319 -8.163265e-05
-0.0016650247 -0.00038297873 -0.0085000005
-0.025487686 -0.0016595745 -8.163265e-05
-0.011142857 0.0034468086 -8.163265e-05
-0.025231527 -0.0049787234 -0.0016122449
-0.012679803 -0.0060000001 -0.0062040817
-0.020108374 0.0060000001 -0.0054387753
0.01191133 0.0060000001 -0.0028877552
0.0085812807 -0.0039574467 -8.163265e-05
-0.020620689 -0.0014042553 -8.163265e-05
0.0047389162 0.0060000001 -0.00033673469
0.025231527 -0.0026808511 -0.0056938776
-0.012935961 -0.0060000001 -0.0067142858
0.0096059116 0.0019148936 -8.163265e-05
0.00038423645 -0.0057446808 -0.0018673469
0.0073004928 0.0049787234 -0.0082448982
0.014216749 0.0060000001 -0.0079897959
0.014472906 -0.0024255319 -8.163265e-05
0.0044827587 0.0037021276 -0.0082448982
-0.0108867 0.0039574467 -8.163265e-05
-0.024975369 -0.00063829788 -8.163265e-05
0.012167487 -0.004212766 0.0014489796
0.0042266012 0.0014042553 -8.163265e-05
0.0037142858 -0.0060000001 -0.0049285716
-0.0044827587 0.0060000001 -0.0059489794
-0.021901477 0.0060000001 -0.00059183675
0.010118227 0.0021702128 -8.163265e-05
-0.013192118 -0.0044680852 -0.0082448982
0.016778326 0.0060000001 -0.002377551
0.021645321 -0.0052340426 -0.00033673469
0.0078128083 -0.0034468086 -0.0082448982
-0.015497537 -0.00063829788 -8.163265e-05
-0.022157636 -0.0060000001 -0.0049285716
0.0085812807 -0.0060000001 -0.0033979593
-0.010630541 0.0060000001 -0.0067142858
0.0078128083 0.00089361705 -0.0085000005
0.017546797 -0.004212766 0.0034897958
-0.025487686 -0.0011489362 -0.0031428572
-0.0093497541 0.0060000001 -0.0041632652
-0.010118227 -0.0011489362 -8.163265e-05
-0.015753694 0.0060000001 -0.002122449
0.020364532 0.0060000001 -8.163265e-05
0.014216749 -0.0060000001 -0.00033673469
-0.012679803 -0.0019148936 -8.163265e-05
0.0090935957 0.0047234041 -0.0082448982
-0.025743842 0.0021702128 -0.0064591835
-0.021389162 0.0060000001 -0.00033673469
-0.015241379 -0.0044680852 -8.163265e-05
0.0090935957 -0.0060000001 -0.00033673469
-0.016778326 0.0060000001 -0.00084693875
-0.0047389162 0.004212766 -0.0082448982
0.009862069 0.0060000001 -0.0064591835
-0.0108867 -0.00089361705 -8.163265e-05
0.0060197045 -0.0044680852 -0.0082448982
0.025231527 -0.0026808511 -0.0051836735
-0.021645321 0.0060000001 -0.0016122449
-0.011399015 -0.0014042553 -0.0085000005
0.00217734 -0.0039574467 0.00042857142
-0.023438424 -0.0060000001 -0.0059489794
0.025743842 0.0034468086 -0.0056938776
0.022926109 -0.0037021276 0.0017040817
-0.026000001 0.0049787234 -0.002122449
0.001408867 0.0047234041 -0.0082448982
0.0085812807 -0.0060000001 -0.0064591835
0.025487686 0.00038297873 -0.002377551
-0.015497537 -0.0060000001 -0.0056938776
-0.020876847 -0.00063829788 -8.163265e-05
0.024206897 0.00038297873 -8.163265e-05
-0.016522167 -0.0052340426 -0.0082448982
0.024975369 0.0060000001 -0.0039081634
0.021133006 0.0060000001 -0.0079897959
-0.00038423645 -0.0019148936 -0.0082448982
0.016522167 0.0054893615 -0.0082448982
-0.025231527 -0.0054893615 -0.0039081634
0.021901477 0.0060000001 -0.0082448982
-0.015241379 0.0052340426 -0.00033673469
-0.0039704433 0.0060000001 -0.0051836735
-0.013448276 0.0060000001 -0.0072244899
0.013704433 0.0060000001 -0.0013571428
0.001408867 0.0060000001 -0.0018673469
-0.015241379 -0.00063829788 -0.0082448982
-0.019083744 0.0044680852 -8.163265e-05
0.0070443349 0.0016595745 -0.0085000005
-0.0052512316 -0.0060000001 -0.00059183675
0.020620689 0.0016595745 -8.163265e-05
-0.010630541 -0.0039574467 -0.0082448982
0.016522167 0.0019148936 -8.163265e-05
-0.025231527 -0.0039574467 -0.00084693875
-0.014472906 -0.0060000001 -0.0036530611
-0.0085812807 0.00089361705 -8.163265e-05
-0.0029458129 0.0026808511 -8.163265e-05
0.0042266012 -0.0060000001 -0.0036530611
-0.010374384 0.0039574467 -0.0082448982
0.0042266012 -0.00012765957 -0.0085000005
0.022157636 -0.004212766 -0.0082448982
-0.019852217 -0.0054893615 -0.0082448982
0.018059114 -0.0054893615 -0.00033673469
0.025487686 -0.00063829788 -0.0018673469
0.018315271 0.0060000001 -0.0018673469
0.016778326 0.004212766 -8.163265e-05
0.020876847 -0.0054893615 -0.00033673469
-0.0039704433 0.0060000001 -0.0026326531
0.01191133 0.0047234041 -0.0082448982
-0.0083251232 0.00063829788 -8.163265e-05
0.025231527 0.0060000001 -0.0051836735
-0.022413794 0.0060000001 -0.0082448982
-0.0108867 -0.0060000001 -0.00084693875
-0.0024334975 -0.0060000001 -0.0069693876
-0.0032019704 0.0019148936 -0.0082448982
0.005763547 -0.0026808511 -8.163265e-05
-0.0075566503 0.0026808511 -8.163265e-05
-0.017034482 -0.0060000001 -0.0079897959
0.0029458129 -0.0044680852 -0.0082448982
-0.00217734 -0.0060000001 -0.0082448982
0.0037142858 -0.0052340426 -0.0082448982
-0.012167487 -0.0029361702 -8.163265e-05
-0.013704433 0.0060000001 -0.00059183675
0.0075566503 0.0031914893 -0.0082448982
-0.017034482 -0.0039574467 0.0024693878
0.011655172 0.0019148936 -0.0085000005
0.0090935957 0.0049787234 -8.163265e-05
0.0090935957 0.0034468086 -0.0082448982
-0.009862069 -0.0060000001 -0.0067142858
0.0044827587 0.00038297873 -0.0085000005
0.025487686 0.0016595745 -0.0018673469
0.014985221 0.0060000001 -0.0026326531
0.0108867 0.0060000001 -0.0031428572
-0.017290641 -0.0011489362 -8.163265e-05
-0.012167487 -0.0060000001 -8.163265e-05
-0.014472906 0.0024255319 -0.0082448982
-0.017802956 0.0060000001 -0.00059183675
-0.0088374382 -0.00038297873 -0.0082448982
-0.0052512316 -0.0060000001 -0.0018673469
-0.025487686 -0.00063829788 -0.0011020409
0.023182265 -0.0034468086 -8.163265e-05
0.017290641 -0.0054893615 -0.00033673469
-0.0070443349 -0.0060000001 -0.0062040817
-0.025487686 0.0047234041 -0.0082448982
-0.0049950741 0.0047234041 -0.0082448982
0.012679803 0.0060000001 -0.0033979593
-0.0029458129 -0.0014042553 -0.0085000005
-0.025231527 -0.0060000001 -0.0039081634
-0.020876847 -0.00012765957 -0.0082448982
0.0055073891 -0.0047234041 -0.0082448982
0.022926109 -0.00089361705 -8.163265e-05
0.019083744 -0.0060000001 -0.0026326531
-0.013960592 -0.0060000001 -0.0077346941
-0.0080689657 -0.0060000001 -0.0077346941
0.024975369 -0.0054893615 -0.002122449
0.022669951 0.0057446808 -0.0082448982
-0.0037142858 -0.0060000001 -0.0079897959
0.015241379 -0.0011489362 -0.0082448982
0.020620689 -0.0060000001 -0.0054387753
0.016778326 -0.0016595745 -0.0082448982
0.015241379 -0.0044680852 -0.0082448982
-0.025743842 0.0014042553 -0.0074795918
0.005763547 0.0054893615 -0.0082448982
0.0055073891 -0.0024255319 -8.163265e-05
0.012423646 -0.0060000001 -0.00059183675
-0.00064039411 -0.0057446808 -0.0056938776
0.005763547 -0.00089361705 -8.163265e-05
0.019083744 0.0021702128 -8.163265e-05
0.022926109 0.0031914893 -8.163265e-05
0.020620689 0.0060000001 -0.0018673469
-0.0055073891 -0.00089361705 -8.163265e-05
0.0073004928 0.0057446808 -8.163265e-05
-0.025743842 0.0011489362 -0.0013571428
0.020620689 0.0060000001 -0.0079897959
0.015753694 0.0049787234 -0.0082448982
-0.009862069 -0.00038297873 -8.163265e-05
0.025743842 0.0031914893 -0.002377551
0.024206897 -0.00012765957 -0.0082448982
-0.022926109 -0.0060000001 -0.0016122449
-0.001408867 0.0060000001 -0.0026326531
-0.026000001 0.0054893615 -0.0077346941
0.0080689657 0.00063829788 -8.163265e-05
0.022157636 -0.0037021276 0.0019591837
0.016522167 -0.00063829788 -0.0082448982
-0.012679803 -0.0034468086 0.0014489796
-0.0067881774 -0.0047234041 -8.163265e-05
0.025231527 -0.0024255319 -0.0046734693
-0.017802956 -0.0039574467 0.0017040817
0.00012807881 0.0060000001 -0.0011020409
-0.022157636 0.0029361702 -8.163265e-05
0.005763547 -0.0029361702 -0.0082448982
0.02369458 0.0060000001 -0.0069693876
0.0052512316 -0.0047234041 -0.0082448982
-0.025487686 0.0014042553 -8.163265e-05
-0.00064039411 -0.0057446808 -0.0033979593
0.024719212 -0.0060000001 -0.00033673469
-0.016522167 0.0039574467 -8.163265e-05
-0.0042266012 0.0060000001 -0.00033673469
-0.022413794 0.00063829788 -8.163265e-05
-0.015241379 0.0060000001 -0.0041632652
-0.001408867 0.0057446808 -0.0082448982
0.010374384 0.00038297873 -8.163265e-05
-0.024463054 0.0057446808 -0.0082448982
-0.014985221 0.0060000001 -0.0067142858
-0.024463054 0.0060000001 -0.0074795918
0.0060197045 0.0057446808 -8.163265e-05
-0.0065320199 -0.0057446808 -0.0082448982
0.019852217 -0.0060000001 -0.0074795918
0.017802956 0.0060000001 -0.0031428572
0.005763547 0.0024255319 -0.0082448982
-0.0016650247 -0.0060000001 -0.0059489794
0.025743842 0.0037021276 -0.0031428572
-0.022669951 0.0060000001 -0.0059489794
-0.0019211823 -0.0060000001 -8.163265e-05
0.011399015 -0.004212766 -0.0082448982
-0.0078128083 -0.0060000001 -0.0062040817
-0.013960592 0.0060000001 -0.0028877552
0.016522167 -0.0044680852 -8.163265e-05
-0.006275862 0.0029361702 -0.0082448982
-0.0044827587 -0.0039574467 -8.163265e-05
0.025743842 0.0026808511 -0.0072244899
0.018571429 -0.0026808511 -0.0082448982
0.0029458129 0.0024255319 -8.163265e-05
0.013448276 -0.0060000001 -0.00033673469
0.018315271 0.0019148936 -0.0085000005
-0.025743842 0.0016595745 -0.0011020409
-0.025231527 0.0052340426 -0.0082448982
0.025487686 0.00063829788 -0.00033673469
-0.011399015 0.0021702128 -0.0082448982
0.005763547 -0.0057446808 -0.0082448982
0.025487686 0.00012765957 -0.00059183675
0.0108867 -0.0060000001 -0.0018673469
0.022413794 0.0039574467 -0.0082448982
-0.021901477 0.0060000001 -0.0064591835
-0.020108374 -0.0016595745 -8.163265e-05
0.020364532 0.0021702128 -8.163265e-05
-0.0016650247 -0.0029361702 -0.0082448982
0.0029458129 0.0060000001 -0.0018673469
0.014729064 0.0014042553 -8.163265e-05
0.023950739 0.0060000001 -0.0013571428
0.0078128083 -0.0029361702 -0.0082448982
-0.0070443349 0.0019148936 -8.163265e-05
-0.0034581281 0.0060000001 -0.0064591835
0.0065320199 -0.0060000001 -0.00059183675
-0.026000001 0.0054893615 -0.0026326531
0.0078128083 0.0047234041 -0.0082448982
-0.013704433 0.0060000001 -0.0026326531
-0.017802956 0.0060000001 -0.0067142858
-0.016778326 0.0060000001 -0.0039081634
-0.010374384 0.0060000001 -0.0049285716
0.010374384 0.004212766 -0.0082448982
0.022669951 -0.0057446808 -0.00033673469
0.012423646 0.0031914893 -0.0082448982
-0.021901477 -0.004212766 -8.163265e-05
-0.016266011 0.0060000001 -0.0036530611
0.023438424 -0.0060000001 -0.0013571428
0.024206897 -0.0060000001 -0.0049285716
-0.019339902 0.0047234041 -0.0082448982
-0.024719212 0.0060000001 -0.0074795918
-0.013448276 0.0060000001 -0.0051836735
0.021645321 -0.0021702128 -0.0082448982
-0.00064039411 -0.0021702128 -0.0082448982
-0.023950739 -0.0057446808 -0.0082448982
-0.012167487 -0.0024255319 -8.163265e-05
-0.015753694 -0.0054893615 -0.0082448982
0.0108867 -0.0029361702 -8.163265e-05
0.0047389162 0.0026808511 -0.0082448982
0.0108867 0.0060000001 -0.0026326531
-0.021645321 -0.0060000001 -0.0051836735
-0.0052512316 0.0060000001 -0.0062040817
0.00064039411 0.0031914893 -0.0082448982
-0.0008965517 -0.0057446808 -0.0018673469
0.025487686 0.00089361705 -0.0054387753
0.023182265 0.0054893615 -8.163265e-05
-0.024463054 0.0060000001 -0.002377551
0.025743842 0.0044680852 -0.0031428572
0.016009852 -0.0057446808 -0.00033673469
0.01191133 0.0052340426 -8.163265e-05
0.0029458129 -0.0016595745 -8.163265e-05
-0.017546797 -0.0034468086 0.0019591837
0.0016650247 -0.0060000001 -0.0082448982
-0.023950739 -0.0060000001 -0.0044183675
-0.017546797 0.00089361705 -0.0082448982
-0.018315271 -0.0019148936 -8.163265e-05
-0.0047389162 -0.0060000001 -0.0044183675
0.018571429 -0.0052340426 -0.0082448982
-0.0075566503 0.00063829788 -8.163265e-05
-0.019596059 0.004212766 -8.163265e-05
0.0083251232 0.0060000001 -0.002122449
-0.025487686 0.00038297873 -0.0082448982
0.0052512316 -0.0060000001 -0.002122449
-0.0070443349 -0.0060000001 -0.0046734693
0.022669951 -0.0060000001 -0.0059489794
-0.012935961 -0.0039574467 0.0019591837
-0.018315271 -0.0054893615 -0.0082448982
0.013192118 -0.00012765957 -0.0082448982
-0.00064039411 -0.0060000001 -0.0069693876
-0.024719212 -0.0021702128 -8.163265e-05
-0.014729064 0.0060000001 -0.0079897959
0.0008965517 0.0060000001 -0.0059489794
-0.0055073891 0.0060000001 -0.0054387753
0.010374384 -0.0047234041 -8.163265e-05
0.0029458129 -0.0060000001 -0.0013571428
0.024719212 0.0019148936 -0.0082448982
0.0096059116 -0.0060000001 -0.0039081634
0.022669951 -0.0060000001 -0.0062040817
0.025487686 0.0060000001 -0.0046734693
0.0039704433 -0.0060000001 -0.0013571428
0.0047389162 0.0039574467 -0.0082448982
-0.015497537 0.0060000001 -0.002122449
0.013704433 -0.0060000001 -0.0064591835
-0.025487686 -0.00089361705 -0.0041632652
-0.025231527 -0.0060000001 -0.0072244899
-0.013960592 -0.0060000001 -0.0051836735
0.012423646 0.0060000001 -0.0069693876
-0.0044827587 0.0052340426 -0.0082448982
0.005763547 0.0060000001 -0.0051836735
0.025743842 0.0049787234 -0.0049285716
0.013192118 0.00038297873 -8.163265e-05
0.00012807881 0.0037021276 -0.0082448982
-0.016522167 0.00012765957 -0.0082448982
0.0090935957 0.0060000001 -0.0039081634
-0.019852217 0.0011489362 -8.163265e-05
0.012679803 -0.0060000001 -0.0064591835
-0.020620689 0.0016595745 -0.0082448982
0.0080689657 0.0034468086 -8.163265e-05
0.013448276 0.00063829788 -8.163265e-05
0.013704433 0.0031914893 -8.163265e-05
0.0065320199 0.00063829788 -8.163265e-05
0.0034581281 -0.0049787234 -0.0082448982
0.0044827587 -0.0047234041 -8.163265e-05
0.015241379 -0.0034468086 -0.0082448982
0.018315271 0.0057446808 -0.0082448982
0.0075566503 0.0060000001 -0.00033673469
-0.026000001 0.0049787234 -0.00059183675
0.021901477 -0.0039574467 -8.163265e-05
-0.0067881774 0.0060000001 -0.0049285716
-0.013448276 0.0060000001 -0.0039081634
0.0044827587 -0.0060000001 -0.0028877552
-0.014985221 0.0060000001 -0.00033673469
-0.014729064 0.00089361705 -8.163265e-05
0.0060197045 -0.0060000001 -0.0059489794
0.0065320199 -0.0060000001 -0.0046734693
-0.0032019704 0.0052340426 -8.163265e-05
-0.0047389162 -0.0026808511 -0.0085000005
0.0049950741 -0.0014042553 -0.0082448982
-0.0034581281 -0.0060000001 -0.0069693876
-0.021645321 -0.0039574467 -8.163265e-05
0.024975369 0.0060000001 -0.0041632652
0.025743842 0.0029361702 -0.0082448982
0.0096059116 -0.0060000001 -0.0079897959
-0.022413794 0.0060000001 -0.0054387753
-0.0096059116 0.0060000001 -0.0026326531
0.012679803 -0.0060000001 -0.0033979593
-0.0070443349 -0.004212766 0.0011938775
0.0085812807 -0.0026808511 -8.163265e-05
-0.022413794 -0.0060000001 -0.0059489794
0.00064039411 -0.0060000001 -0.0077346941
0.013448276 0.0060000001 -0.002377551
-0.0078128083 0.0060000001 -0.00084693875
-0.009862069 0.0060000001 -0.0067142858
0.0008965517 0.0060000001 -0.0033979593
0.012167487 0.0049787234 -8.163265e-05
-0.025743842 0.0021702128 -0.0018673469
0.0096059116 -0.0044680852 -8.163265e-05
