# .PCD v0.7 - Point Cloud Data file format
VERSION 0.7
FIELDS x y z
SIZE 4 4 4
TYPE F F F
COUNT 1 1 1
WIDTH 1236
HEIGHT 1
VIEWPOINT 0 0 0 1 0 0 0
POINTS 1236
DATA ascii
-0.018764926 0.0046166666 -0.022591578
0.007985075 -0.0058210143 -0.026163157
-0.0035932835 -0.007025362 -0.000368421
0.011977612 -0.0086311596 -0.028941052
-0.0047910446 0.011441304 -0.016242104
-0.011578358 -0.010638406 -0.014257894
-0.024753731 -0.009032608 -0.014654736
0.0087835817 0.0018065217 -0.025766315
0.024354478 -0.0014050724 -0.023782104
-0.017167911 0.005018116 -0.021401051
-0.019164179 -0.009032608 -0.025369473
0.026350746 0.003813768 -0.018226314
0.016768657 0.01385 -0.012273683
0.017167911 -0.011039855 -0.0067178942
-0.0023955223 0.0062224637 -0.022591578
0.025951492 -0.0046166666 -0.01544842
0.024753731 0.010638406 -0.0051305261
-0.013574627 -0.011842754 -0.020210525
0.025951492 0.0034123186 -0.0011621051
-0.0031940299 -0.010638406 -0.032115787
-0.026350746 0.0078282608 -0.01544842
0.022757463 0.0034123186 -0.000368421
-0.00079850748 -0.009032608 -0.01346421
0.017966418 -0.011441304 -0.015845262
0.022358209 -0.0078282608 -0.024575789
0.0099813435 -0.0062224637 -0.000368421
-0.026350746 0.0022079709 -0.020210525
-0.00039925374 -0.0098355068 -0.025369473
-0.00039925374 -0.012645652 -0.022591578
0.0099813435 -0.01385 -0.031322103
0 0.0010036231 -0.000368421
-0.0035932835 -0.0094340574 -0.012273683
0.024354478 -0.0030108695 -0.000368421
-0.016369402 0.003813768 -0.023385262
-0.00079850748 0.0026094201 -0.022591578
0.025951492 0.0046166666 -0.0039399997
-0.0011977612 0.0042152172 -0.025766315
0.014772388 -0.003813768 0.00082210527
0.0099813435 0.010236956 -0.00076526304
-0.019164179 -0.011842754 -0.031718947
-0.0099813435 0.01385 -0.01148
-0.021958955 -0.0046166666 -0.023782104
0.016768657 -0.00020072464 -0.024575789
-0.0039925375 0.0054195649 -0.024972631
-0.011578358 0.0034123186 -0.000368421
-0.005988806 -0.0098355068 -0.0075115785
0.0039925375 0.007025362 -0.018226314
-0.007985075 -0.013047101 -0.019019999
0.025152985 -0.012244202 -0.023782104
-0.026350746 0.0058210143 -0.018623156
0.0027947761 -0.012645652 -0.021004209
0.0023955223 0.009032608 -0.017035788
0.021958955 -0.0094340574 -0.030528421
0.0027947761 -0.013047101 -0.023782104
-0.025951492 -0.003813768 -0.019019999
-0.024354478 -0.011039855 -0.024575789
-0.018365672 0.013047101 -0.010686316
-0.025552239 0.0086311596 -0.017035788
0.025951492 0.0034123186 -0.01743263
-0.025552239 0.005018116 -0.020210525
0.015171641 -0.005018116 0.0016157895
-0.00039925374 -0.011039855 -0.000368421
-0.025951492 -0.0078282608 -0.02298842
0.016369402 -0.012244202 -0.019416841
0.019563433 -0.0098355068 -0.031322103
0.025951492 0.0062224637 -0.018226314
-0.0031940299 0.009032608 -0.0098926313
-0.0075858207 0.009032608 -0.000368421
-0.019164179 0.0046166666 -0.023782104
0.0047910446 -0.0094340574 -0.0027494736
-0.022757463 -0.0026094201 -0.023385262
0.01597015 -0.0082297102 -0.000368421
-0.025552239 -0.0010036231 -0.0015589473
0.0031940299 -0.0082297102 -0.02854421
-0.021160448 -0.011039855 -0.025369473
-0.0063880598 -0.0098355068 -0.004733684
-0.0051902984 -0.011842754 -0.033306316
0.0071865669 0.00060217391 -0.025766315
0.010779851 0.0094340574 -0.000368421
-0.02355597 0.011842754 -0.0055273683
0.0043917908 -0.0094340574 -0.0087021049
0.01597015 0.0058210143 -0.020607367
-0.015171641 -0.011039855 -0.0011621051
-0.025552239 0.003813768 -0.024575789
-0.018365672 0.011039855 -0.0019557893
-0.019563433 -0.005018116 -0.024575789
0.025152985 0.0066239131 -0.0079084206
0.001597015 0.009032608 -0.0071147364
-0.025152985 0.0062224637 -0.0027494736
0.023156716 0.010638406 -0.016242104
-0.017966418 -0.0094340574 -0.030131578
-0.0019962688 0.0042152172 -0.025766315
-0.026350746 0.00060217391 -0.02298842
0 0.0018065217 -0.025766315
-0.023156716 -0.0074268114 -0.025369473
0.0047910446 -0.0062224637 -0.026956841
-0.025152985 0.0054195649 -0.0035431576
0.0055895522 -0.0082297102 -0.000368421
0.012376865 0.010638406 -0.016242104
0.0019962688 0.011039855 -0.016242104
0.019563433 -0.012645652 -0.021797894
0.018365672 -0.0014050724 -0.024178946
0.0023955223 -0.00020072464 -0.024972631
-0.025951492 0.0034123186 -0.01544842
0.021559702 -0.011441304 -0.023782104
-0.019164179 0.011441304 -0.0055273683
-0.026350746 0.0026094201 -0.019813683
0.007985075 -0.0094340574 -0.000368421
-0.014772388 0.013047101 -0.010289473
0.019164179 -0.01385 -0.031718947
0.013973881 -0.0086311596 -0.000368421
-0.00039925374 0.0018065217 -0.025766315
-0.00039925374 -0.009032608 -0.0071147364
-0.016369402 0.0030108695 -0.000368421
-0.025951492 -0.010236956 -0.021401051
0.011578358 -0.0094340574 -0.027750526
0.025951492 0.0026094201 -0.0079084206
-0.025152985 0.0054195649 -0.0059242104
0.0039925375 -0.0066239131 -0.026956841
0.014772388 0.012244202 -0.000368421
-0.011578358 0.010236956 -0.0031463157
-0.025951492 0.003813768 -0.0079084206
-0.007985075 0.0094340574 -0.0075115785
-0.019563433 0.0066239131 -0.019416841
-0.0051902984 0.007025362 -0.023782104
0 -0.01344855 -0.026559999
-0.0039925375 -0.0094340574 -0.013861052
-0.025951492 0.0046166666 -0.022591578
-0.0099813435 -0.013047101 -0.023385262
-0.0075858207 -0.012244202 -0.017035788
-0.017167911 0.013047101 -0.010289473
-0.01597015 -0.011039855 -0.016242104
0.023156716 0.012244202 -0.0094957892
-0.024354478 -0.010236956 -0.000368421
-0.0031940299 -0.010236956 -0.028147368
-0.0031940299 0.009032608 -0.0083052628
0.011977612 -0.0078282608 -0.029337894
0.0055895522 -0.007025362 -0.025369473
-0.020761194 -0.011842754 -0.0019557893
-0.0043917908 -0.0094340574 -0.030925263
0.01277612 -0.0054195649 -0.000368421
0.0027947761 0.007025362 -0.018226314
-0.0031940299 0.00020072464 -0.000368421
0.010380597 0.011039855 -0.016242104
-0.024753731 0.003813768 -0.024575789
-0.0095820893 -0.005018116 -0.000368421
0.025552239 0.0046166666 -0.0083052628
0.00079850748 0.0026094201 -0.026163157
0.005988806 0.013047101 -0.0094957892
-0.011578358 -0.010638406 -0.01346421
-0.017567163 -0.0082297102 -0.000368421
-0.025552239 -0.005018116 -0.0071147364
0.0063880598 0.00060217391 -0.000368421
-0.02675 0.0026094201 -0.024575789
-0.010779851 -0.010236956 -0.026956841
0.00079850748 0.0034123186 -0.021797894
0.014373134 -0.010638406 -0.0067178942
0.020761194 -0.011842754 -0.0055273683
0.025951492 -0.003813768 -0.0039399997
-0.0019962688 0.0086311596 -0.0087021049
0.018764926 -0.011441304 -0.015051578
0.024753731 0.010236956 -0.0015589473
0.025951492 0.012645652 -0.012273683
-0.0031940299 -0.0098355068 -0.027750526
0.00079850748 0.0098355068 -0.000368421
0.025552239 0.0034123186 -0.020210525
-0.0051902984 -0.0026094201 -0.024972631
-0.013175373 -0.0074268114 -0.024972631
0.022358209 -0.011842754 -0.0067178942
-0.017567163 -0.012645652 -0.020607367
-0.013175373 -0.013047101 -0.024972631
0.010380597 0.011842754 -0.015845262
0.0011977612 -0.01344855 -0.01743263
-0.017567163 -0.011441304 -0.015051578
0.013175373 -0.010638406 -0.0043368419
-0.021160448 -0.012645652 -0.025369473
-0.0095820893 -0.0014050724 -0.000368421
0.0055895522 0.01385 -0.01346421
0.025951492 0.0030108695 -0.0039399997
-0.025152985 0.007025362 -0.000368421
0.020361939 -0.011842754 -0.0063210521
-0.024753731 -0.011842754 -0.021797894
-0.023955224 -0.011441304 -0.000368421
0.013973881 -0.009032608 -0.031322103
0.0043917908 -0.0094340574 -0.01743263
-0.019563433 -0.0062224637 -0.026163157
-0.0071865669 0.0042152172 -0.021004209
0.024354478 -0.003813768 -0.000368421
0.016768657 -0.010236956 -0.000368421
-0.017567163 0.012645652 -0.013861052
-0.0091828359 -0.010236956 -0.032909472
0.010779851 -0.012244202 -0.030925263
0.001597015 -0.01385 -0.029337894
-0.017167911 -0.011441304 -0.000368421
-0.0019962688 -0.0094340574 -0.013067367
0.025951492 -0.0018065217 -0.009098947
-0.02355597 0.00060217391 -0.024972631
0.022757463 0.0026094201 -0.026163157
-0.0075858207 -0.01385 -0.028941052
-0.021160448 0.011842754 -0.000368421
0.0023955223 0.0086311596 -0.000368421
0.025552239 0.0010036231 -0.0059242104
-0.012376865 0.010236956 -0.0075115785
0.025552239 -0.011842754 -0.023782104
-0.007985075 0.011441304 -0.016242104
-0.024753731 -0.0082297102 -0.016242104
0.0027947761 -0.0074268114 -0.000368421
0.018365672 -0.0082297102 -0.027750526
0.0043917908 -0.0094340574 -0.011876842
-0.021160448 -0.0082297102 -0.000368421
-0.0063880598 -0.011441304 -0.01743263
-0.01597015 -0.0026094201 -0.023782104
-0.023156716 0.0078282608 0.0012189473
-0.022358209 -0.0078282608 -0.028941052
-0.01597015 0.0034123186 -0.026163157
0.020761194 -0.012244202 -0.032909472
-0.010380597 -0.01344855 -0.028147368
-0.0043917908 0.0058210143 -0.02298842
0.025152985 -0.0066239131 -0.0055273683
0.025951492 0.0010036231 -0.019019999
0.024354478 0.013047101 -0.012273683
-0.023156716 0.0082297102 0.0024094735
-0.016369402 0.0042152172 -0.02298842
-0.0063880598 0.0094340574 -0.017035788
-0.024753731 -0.011441304 -0.0059242104
0.024753731 -0.0098355068 -0.030131578
0.022358209 -0.012645652 -0.026956841
-0.013574627 -0.0078282608 -0.029734736
0.0083843283 0.0098355068 -0.0011621051
-0.0075858207 -0.010236956 -0.032909472
-0.0071865669 -0.010236956 -0.013067367
0.0027947761 0.005018116 -0.000368421
-0.011578358 0.0054195649 -0.019416841
-0.0067873136 -0.012244202 -0.019416841
0.0067873136 0.0058210143 -0.024972631
0.024354478 -0.012244202 -0.023385262
-0.0039925375 0.0022079709 -0.025766315
-0.014772388 0.010638406 -0.0094957892
-0.024753731 0.011441304 -0.000368421
-0.0087835817 -0.0054195649 -0.024575789
0.024753731 0.010236956 -0.0059242104
-0.025152985 0.013047101 -0.012273683
-0.017567163 -0.0042152172 -0.024575789
0.0063880598 -0.0094340574 -0.0015589473
-0.014772388 -0.009032608 -0.032115787
0.026350746 0.0082297102 -0.013067367
0.019962687 0.0034123186 -0.023782104
0.0055895522 -0.01344855 -0.032115787
0.018365672 -0.011441304 -0.0067178942
-0.0039925375 -0.005018116 -0.024972631
-0.001597015 0.0030108695 -0.024178946
-0.02355597 -0.010638406 -0.032115787
0.025552239 -0.010638406 -0.028941052
-0.0055895522 -0.0066239131 -0.027750526
-0.024753731 0.010638406 -0.0098926313
0.012376865 0.0042152172 -0.02298842
-0.021958955 -0.013047101 -0.026956841
0.0043917908 -0.01344855 -0.018623156
-0.007985075 -0.013047101 -0.025369473
0.0031940299 -0.01344855 -0.017035788
0.019164179 0.0098355068 -0.000368421
0.013973881 0.0066239131 -0.019019999
-0.025552239 -0.00060217391 -0.012670525
-0.019962687 0.011441304 -0.0094957892
-0.024753731 -0.0078282608 -0.0023526314
-0.016768657 0.0062224637 -0.019416841
0.00079850748 -0.010638406 -0.024575789
-0.022358209 -0.012645652 -0.026559999
0.0031940299 -0.012244202 -0.01743263
0.015570896 -0.01385 -0.029337894
0.016369402 0.011039855 -0.016242104
-0.014373134 0.0066239131 -0.022591578
0.0067873136 -0.011441304 -0.01743263
-0.011578358 -0.011842754 -0.026956841
0.00039925374 0.007025362 -0.017829472
-0.0051902984 0.0094340574 -0.00076526304
-0.014373134 0.01385 -0.011876842
-0.0047910446 -0.010236956 -0.000368421
-0.00079850748 -0.009032608 -0.0035431576
0.0063880598 -0.009032608 -0.024972631
-0.0019962688 -0.01344855 -0.019019999
0.015570896 0.0082297102 -0.017829472
-0.025152985 0.011842754 -0.010686316
-0.0043917908 -0.011842754 -0.030131578
0.014772388 0.0078282608 -0.017829472
-0.012376865 0.0010036231 -0.024575789
0.021559702 -0.01344855 -0.030131578
-0.025552239 -0.0078282608 -0.026163157
-0.025951492 -0.005018116 -0.017829472
-0.0011977612 -0.0066239131 -0.025766315
-0.012376865 -0.0042152172 -0.025369473
-0.0091828359 -0.00020072464 -0.000368421
0.025552239 0.0018065217 -0.0051305261
-0.0099813435 0.0098355068 -0.0031463157
0.02675 0.0086311596 -0.017035788
-0.0063880598 0.00060217391 -0.026163157
-0.025951492 -0.0026094201 -0.010686316
-0.0055895522 0.0074268114 -0.023385262
-0.0087835817 0.007025362 -0.000368421
0.01597015 -0.011039855 -0.009098947
-0.025152985 0.005018116 -0.023385262
0.024354478 -0.012244202 -0.000368421
0.025552239 -0.0014050724 -0.013067367
0.001597015 -0.009032608 -0.0094957892
0.011578358 -0.01385 -0.026559999
-0.0031940299 0.01385 -0.010289473
-0.0063880598 -0.01385 -0.028941052
0.018365672 -0.0042152172 -0.023782104
0.017167911 0.013047101 -0.010289473
0.0031940299 -0.009032608 -0.01544842
-0.0083843283 -0.010638406 -0.032909472
0.026350746 0.0042152172 -0.024575789
0.0031940299 -0.012645652 -0.021401051
-0.0023955223 -0.0094340574 -0.011876842
0.011977612 0.011842754 -0.000368421
0.0071865669 0.0098355068 -0.009098947
-0.026350746 0.007025362 -0.011083158
0.025552239 -0.00020072464 -0.014654736
-0.019563433 0.0030108695 -0.000368421
0.007985075 -0.0074268114 -0.028147368
0.025552239 -0.010638406 -0.030925263
0.026350746 0.0082297102 -0.012670525
0.018764926 0.011441304 -0.0035431576
0.0027947761 -0.009032608 -0.0083052628
0.010779851 -0.011039855 -0.029734736
-0.019164179 -0.011842754 -0.01346421
0.025552239 -0.00060217391 -0.013067367
0.0095820893 0.007025362 -0.022194736
0.014373134 0.012645652 -0.0098926313
-0.019563433 0.011441304 -0.009098947
0.011179104 0.0094340574 -0.000368421
0.01277612 0.003813768 -0.025766315
0.0071865669 0.0062224637 -0.024178946
0.025951492 -0.0030108695 -0.0094957892
0.015570896 0.0086311596 -0.017829472
0.018365672 -0.0094340574 -0.030528421
0.0071865669 -0.012645652 -0.019813683
-0.0063880598 -0.0098355068 -0.015845262
-0.022757463 -0.0066239131 -0.024972631
0 -0.0078282608 -0.025369473
0.014772388 0.0046166666 -0.022591578
-0.0031940299 0.009032608 -0.0051305261
0.0071865669 0.0078282608 0.0016157895
-0.025951492 0.0046166666 -0.012670525
0.0063880598 0.0042152172 -0.021004209
0.025552239 -0.011039855 -0.030528421
-0.011977612 -0.01344855 -0.029337894
-0.018764926 -0.011441304 -0.0031463157
-0.0023955223 0.0086311596 -0.004733684
0.019563433 -0.011441304 -0.0015589473
-0.025552239 0.005018116 -0.00076526304
0.001597015 -0.0054195649 -0.000368421
-0.017167911 0.0030108695 -0.025766315
0.0099813435 0.00060217391 -0.000368421
0.0083843283 -0.0034123186 -0.025369473
-0.018365672 0.01385 -0.01148
0.023156716 -0.012645652 -0.024575789
0.0071865669 0.00020072464 -0.000368421
0.025552239 -0.0010036231 -0.0098926313
0.016768657 -0.011039855 -0.014654736
-0.0083843283 0.0022079709 -0.024178946
-0.024753731 0.0074268114 -0.0067178942
-0.013175373 -0.010638406 -0.0059242104
-0.025552239 -0.0010036231 -0.004733684
0.020361939 -0.011842754 -0.0071147364
0.011977612 -0.003813768 -0.000368421
0.022358209 -0.012645652 -0.025766315
-0.025951492 0.0034123186 -0.011083158
-0.023955224 -0.012244202 -0.00076526304
-0.0043917908 -0.0098355068 -0.030528421
0.0039925375 -0.0094340574 -0.00076526304
-0.0075858207 0.003813768 -0.021797894
-0.0039925375 -0.011441304 -0.01743263
-0.011578358 -0.010638406 -0.01743263
0.019962687 -0.0086311596 -0.030528421
0.0039925375 -0.0062224637 -0.026559999
0.012376865 -0.012645652 -0.019019999
0.014373134 -0.00020072464 -0.000368421
-0.0011977612 0.0030108695 -0.000368421
-0.011977612 -0.010638406 -0.012670525
-0.014772388 -0.0046166666 0.0024094735
-0.025552239 -0.0010036231 -0.023385262
-0.014772388 0.0082297102 -0.000368421
-0.021559702 0.0086311596 -0.017035788
0.026350746 0.0074268114 -0.000368421
0.013574627 -0.0098355068 -0.000368421
-0.01277612 0.01385 -0.012670525
0.0099813435 0.010236956 -0.0083052628
0 0.009032608 -0.0098926313
-0.0047910446 -0.01385 -0.02854421
-0.0047910446 -0.012244202 -0.01743263
-0.0063880598 -0.0026094201 -0.025369473
0.014772388 -0.0074268114 -0.024972631
-0.0031940299 -0.012645652 -0.020210525
-0.011977612 -0.01385 -0.029337894
0.019563433 -0.013047101 -0.025766315
0.017567163 0.0018065217 -0.024575789
-0.013175373 -0.010638406 -0.014654736
0.025152985 -0.0066239131 -0.0035431576
-0.024753731 0.010236956 -0.0031463157
-0.015570896 0.0078282608 -0.01743263
0.0035932835 0.0010036231 -0.000368421
-0.0063880598 -0.0098355068 -0.024972631
-0.02355597 0.01344855 -0.01148
0.025951492 -0.007025362 -0.023782104
-0.019164179 0.0066239131 -0.019416841
-0.007985075 -0.0010036231 -0.025766315
0.0011977612 -0.009032608 -0.012670525
-0.005988806 0.0010036231 -0.025369473
0 -0.0086311596 -0.030528421
-0.016768657 0.011039855 -0.0059242104
-0.025552239 0.005018116 -0.0079084206
-0.025951492 -0.0026094201 -0.0043368419
-0.0019962688 -0.0078282608 -0.029337894
-0.017966418 -0.00020072464 -0.023782104
-0.011977612 -0.011039855 -0.02854421
-0.0011977612 -0.011441304 -0.01743263
-0.007985075 -0.011441304 -0.01743263
0.025951492 0.0026094201 -0.021797894
-0.015570896 0.005018116 -0.021401051
-0.025152985 -0.0058210143 -0.0051305261
0.025951492 -0.005018116 -0.011876842
-0.0051902984 0.0054195649 -0.000368421
-0.014772388 -0.011039855 -0.01148
0.017167911 -0.007025362 -0.02854421
-0.007985075 0.005018116 -0.019416841
-0.015171641 -0.003813768 0.0028063157
-0.024354478 -0.012244202 -0.023385262
-0.022757463 -0.011441304 -0.018226314
0.016768657 -0.011039855 -0.0023526314
-0.025152985 -0.0058210143 -0.0035431576
-0.018764926 -0.0042152172 -0.023385262
0.013175373 0.0034123186 -0.026163157
0.025552239 -0.00020072464 -0.010289473
0.0047910446 -0.0098355068 -0.032115787
-0.025552239 0.0010036231 -0.014257894
0.001597015 0.0042152172 -0.020607367
0.018365672 -0.0082297102 -0.026956841
-0.0043917908 0.0062224637 -0.000368421
-0.025152985 -0.0054195649 -0.016242104
0.012376865 -0.011842754 -0.01743263
-0.021160448 0.0014050724 -0.025766315
0.017966418 -0.012645652 -0.027750526
-0.021160448 -0.011842754 -0.024178946
0.025552239 0.0014050724 -0.0079084206
0.021958955 0.005018116 -0.024575789
-0.010779851 -0.0062224637 -0.026163157
0.010779851 -0.010236956 -0.030131578
-0.026350746 0.0014050724 -0.020607367
-0.025552239 0.00060217391 -0.0087021049
0.0047910446 -0.0094340574 -0.0079084206
0.0011977612 -0.009032608 -0.011083158
-0.0031940299 -0.011039855 -0.030528421
0.018764926 0.012645652 -0.013861052
-0.015570896 -0.0042152172 0.0020126316
-0.020361939 -0.01344855 -0.028941052
-0.0031940299 -0.0054195649 -0.025369473
0.024753731 0.010236956 -0.0083052628
-0.007985075 0.0078282608 0.0012189473
0.013973881 0.0054195649 -0.024972631
0.025951492 0.0066239131 -0.018226314
0.0075858207 -0.0030108695 -0.000368421
0.019164179 -0.0074268114 -0.026559999
0.025152985 0.0054195649 -0.018623156
0.019563433 -0.011441304 -0.000368421
0.021559702 -0.011842754 -0.0079084206
0.024753731 -0.0098355068 -0.0035431576
-0.018365672 -0.011441304 -0.0079084206
-0.016369402 -0.0010036231 -0.000368421
-0.014772388 -0.011039855 -0.0094957892
-0.0035932835 0.0078282608 -0.021797894
-0.025552239 -0.009032608 -0.024972631
0.0099813435 0.01385 -0.01148
0.01277612 0.010638406 -0.0094957892
0.00079850748 -0.0078282608 -0.024575789
0.010779851 -0.010638406 -0.030925263
0.015570896 0.00060217391 -0.025766315
0.0043917908 -0.0094340574 -0.017829472
0.0099813435 0.0046166666 -0.023385262
0.005988806 0.010638406 -0.010289473
-0.016369402 -0.013047101 -0.022194736
0.013973881 -0.012645652 -0.017035788
-0.011977612 -0.0094340574 -0.030131578
-0.011977612 0.0078282608 -0.000368421
0.005988806 0.0066239131 -0.018623156
0.021958955 -0.012244202 -0.032512631
0.0043917908 0.0018065217 -0.025369473
0.021160448 0.0098355068 -0.017035788
-0.025152985 0.0054195649 -0.009098947
0.0051902984 -0.003813768 -0.000368421
-0.010380597 0.007025362 -0.000368421
0.011179104 -0.010236956 -0.01544842
0.015570896 -0.0026094201 -0.023782104
-0.0083843283 0.0062224637 -0.02298842
-0.022757463 -0.00060217391 -0.000368421
-0.019962687 -0.011842754 -0.0019557893
-0.017567163 0.0034123186 -0.023782104
0.025951492 -0.003813768 -0.012670525
-0.020361939 0.0030108695 -0.025369473
0.0031940299 -0.010638406 -0.029337894
-0.0067873136 -0.0098355068 -0.0051305261
-0.022757463 0.012645652 -0.0098926313
-0.019164179 -0.011842754 -0.016242104
-0.026350746 0.0022079709 -0.019416841
-0.001597015 -0.009032608 -0.004733684
0.026350746 0.009032608 -0.015051578
0.001597015 -0.013047101 -0.032512631
0.0011977612 0.010638406 -0.000368421
0.013973881 -0.01385 -0.026956841
0.018365672 0.0022079709 -0.024178946
-0.0075858207 0.0078282608 0.00042526319
0.00039925374 -0.0086311596 -0.024178946
-0.013574627 0.010236956 -0.0059242104
-0.019962687 -0.0022079709 -0.023782104
0.005988806 0.0098355068 -0.0011621051
0.019164179 0.0074268114 -0.000368421
0.0099813435 0.012244202 -0.01544842
0.0083843283 -0.01344855 -0.032115787
0.015171641 0.0054195649 -0.021401051
0.0099813435 -0.0042152172 -0.025369473
-0.012376865 -0.013047101 -0.01743263
-0.022757463 -0.012645652 -0.02854421
0.0031940299 -0.009032608 -0.000368421
-0.025552239 -0.0018065217 -0.014257894
0.021559702 -0.011842754 -0.015845262
0.017966418 -0.00020072464 -0.024575789
-0.001597015 0.005018116 -0.025369473
0.019563433 -0.0034123186 -0.000368421
-0.019164179 0.0046166666 -0.000368421
0.020761194 0.012645652 -0.0098926313
0.025552239 -0.00060217391 -0.00076526304
-0.019164179 -0.012645652 -0.030925263
0.020761194 -0.0098355068 -0.031322103
0.024354478 0.011842754 -0.0055273683
0.018764926 -0.0046166666 -0.000368421
0.013574627 -0.01385 -0.031322103
0.0023955223 -0.009032608 -0.0094957892
-0.0023955223 -0.0082297102 -0.030131578
-0.017167911 0.0058210143 -0.02298842
0.025552239 -0.0010036231 -0.0094957892
0.017567163 0.0062224637 -0.020210525
0.0091828359 0.010236956 -0.0079084206
-0.026350746 0.003813768 -0.024972631
-0.0095820893 -0.0098355068 -0.032512631
-0.011977612 -0.0094340574 -0.031718947
0.021559702 -0.011842754 -0.0023526314
0.0031940299 0.012645652 -0.000368421
-0.0051902984 -0.0010036231 -0.024575789
0.00039925374 -0.0086311596 -0.0075115785
0.024753731 -0.010638406 -0.0094957892
-0.013175373 0.010236956 -0.004733684
-0.011977612 -0.0098355068 -0.030131578
0.013175373 -0.01385 -0.031322103
-0.011179104 -0.013047101 -0.021004209
-0.0051902984 0.00060217391 -0.024972631
0.025951492 -0.0042152172 -0.011876842
-0.025152985 -0.0054195649 -0.000368421
-0.013175373 -0.013047101 -0.024178946
0.021160448 0.0058210143 -0.02298842
-0.020361939 0.0098355068 -0.000368421
0.0011977612 -0.0066239131 -0.027353683
0.01597015 -0.011441304 -0.033306316
0.019563433 -0.011842754 -0.032512631
0.015570896 -0.007025362 -0.025766315
-0.0031940299 -0.0058210143 -0.025766315
0.024354478 -0.011039855 -0.012273683
0.026350746 0.0042152172 -0.023782104
0.025951492 -0.0066239131 -0.019416841
-0.025552239 -0.0098355068 -0.019416841
-0.015570896 0.010236956 -0.016638946
-0.020361939 -0.0074268114 -0.027750526
0.0035932835 0.0046166666 -0.023385262
0.017966418 -0.007025362 -0.027353683
-0.0055895522 -0.0098355068 -0.016242104
0.018365672 -0.010638406 -0.026956841
0.0039925375 0.0042152172 -0.000368421
-0.013574627 0.012645652 -0.0098926313
0.023156716 0.01344855 -0.01148
0.00039925374 0.010236956 -0.016638946
0.0095820893 -0.003813768 -0.000368421
-0.010380597 -0.010638406 -0.0098926313
0.0083843283 -0.0098355068 -0.015051578
-0.010779851 -0.010638406 -0.031322103
-0.00039925374 -0.01344855 -0.017035788
0.011977612 0.01385 -0.012670525
-0.0063880598 -0.0098355068 -0.0055273683
-0.0067873136 0.013047101 -0.015051578
-0.0011977612 0.005018116 -0.023385262
0.019563433 -0.011842754 -0.009098947
0.01277612 -0.0066239131 -0.027750526
-0.023955224 0.011842754 -0.0039399997
-0.025152985 0.0066239131 -0.010686316
-0.00039925374 -0.0054195649 -0.025369473
0.025951492 0.003813768 -0.0071147364
0.023955224 -0.0082297102 -0.025369473
-0.015171641 0.0094340574 -0.017035788
-0.0043917908 -0.011039855 -0.030528421
-0.0031940299 -0.007025362 -0.027750526
0.025152985 0.0058210143 -0.022194736
0.017966418 -0.013047101 -0.02298842
0.0043917908 0.01385 -0.010289473
0.017567163 -0.01385 -0.029734736
-0.0071865669 -0.01385 -0.030131578
-0.011977612 0.007025362 -0.000368421
0.0095820893 -0.009032608 -0.000368421
-0.025552239 -0.0046166666 -0.022591578
0.011977612 -0.009032608 -0.027750526
0.025552239 -0.0066239131 -0.023385262
0.015171641 -0.0086311596 -0.030528421
0.022358209 -0.010236956 -0.024972631
-0.0047910446 0.01385 -0.011876842
-0.025951492 -0.0046166666 -0.0019557893
0.024753731 -0.011441304 -0.0079084206
0.025951492 -0.003813768 -0.000368421
-0.013574627 0.0058210143 -0.019416841
0.016768657 0.011039855 -0.0087021049
0.017567163 -0.0094340574 -0.000368421
0.014772388 0.012244202 -0.01544842
-0.025552239 -0.012645652 -0.029337894
0.0091828359 -0.0098355068 -0.0035431576
0.0091828359 -0.005018116 -0.000368421
-0.02355597 -0.0026094201 -0.023385262
-0.0099813435 -0.010638406 -0.0094957892
-0.015171641 0.003813768 -0.026163157
0.025552239 -0.0018065217 -0.0067178942
0.011179104 0.0082297102 -0.000368421
-0.0031940299 0.0074268114 -0.022591578
-0.024753731 0.0098355068 -0.010289473
-0.025951492 -0.003813768 -0.0039399997
0.024753731 0.007025362 -0.0059242104
0.018365672 -0.011039855 -0.026956841
0.011977612 -0.010638406 -0.030925263
-0.025552239 0.0046166666 -0.000368421
0.0043917908 -0.0058210143 -0.026163157
-0.025152985 -0.0058210143 -0.015845262
0.014373134 -0.01385 -0.028147368
0.024753731 -0.011441304 -0.0098926313
0.0043917908 0.0026094201 -0.025369473
0.00039925374 -0.005018116 -0.024575789
0.0087835817 -0.0030108695 -0.026163157
0.007985075 -0.0098355068 -0.0031463157
-0.021559702 0.011441304 -0.0075115785
-0.013973881 0.0054195649 -0.019813683
0.0051902984 -0.012244202 -0.01743263
0.00039925374 -0.0082297102 -0.000368421
-0.019164179 0.0066239131 -0.019019999
-0.024354478 -0.011842754 -0.0027494736
0.025152985 0.0014050724 -0.024575789
-0.019962687 -0.007025362 -0.028147368
-0.0043917908 0.0026094201 -0.025369473
0.022358209 -0.011842754 -0.015845262
0.017167911 -0.007025362 -0.000368421
0.0051902984 0.01385 -0.013067367
0.0063880598 -0.0022079709 -0.025369473
-0.001597015 0.0074268114 -0.000368421
0.0027947761 0.011039855 -0.010289473
0.025152985 -0.0054195649 -0.0039399997
-0.019164179 0.012244202 -0.014654736
-0.014772388 -0.01385 -0.028941052
-0.011977612 0.00060217391 -0.025369473
-0.0011977612 -0.010638406 -0.017829472
-0.024354478 -0.012244202 -0.010686316
0.0063880598 0.005018116 -0.023385262
-0.017567163 -0.013047101 -0.026163157
0.0027947761 -0.0010036231 -0.000368421
0.0023955223 0.0010036231 -0.000368421
0.025152985 0.0082297102 -0.01743263
-0.0011977612 -0.009032608 -0.01346421
0.021559702 0.007025362 -0.019416841
-0.017567163 0.0046166666 -0.023782104
0.017167911 -0.0094340574 -0.032115787
0.013175373 0.005018116 -0.021004209
-0.014373134 0.0062224637 -0.018623156
0.017966418 -0.012645652 -0.026163157
0.014772388 0.0058210143 -0.020210525
0.0019962688 0.0066239131 -0.000368421
0.0035932835 -0.0014050724 -0.025766315
-0.023955224 -0.0074268114 -0.028147368
0.013574627 -0.010638406 -0.017035788
0.025951492 0.0082297102 -0.01743263
-0.0031940299 -0.0094340574 -0.010289473
0.0099813435 0.003813768 -0.023385262
-0.017167911 -0.012244202 -0.000368421
-0.0067873136 -0.0098355068 -0.016242104
-0.0023955223 0.0042152172 -0.019813683
-0.011977612 -0.009032608 -0.029734736
-0.021958955 0.011842754 -0.0011621051
-0.015171641 -0.013047101 -0.021004209
-0.01597015 0.0086311596 -0.000368421
0.016768657 -0.011039855 -0.0063210521
0.018764926 0.01344855 -0.012273683
-0.0031940299 0.012244202 -0.000368421
-0.001597015 0.012244202 -0.015845262
0.021958955 -0.012645652 -0.023385262
0.012376865 0.010638406 -0.0011621051
0.0063880598 0.010236956 -0.016638946
-0.0023955223 0.013047101 -0.01544842
-0.021160448 -0.009032608 -0.024972631
0.025552239 0.0030108695 -0.011876842
0.0055895522 -0.010638406 -0.033306316
-0.0075858207 -0.0018065217 -0.000368421
0.011179104 0.0022079709 -0.000368421
-0.0091828359 0.0078282608 -0.000368421
-0.023156716 -0.009032608 -0.000368421
-0.014373134 -0.010236956 -0.032909472
0.026350746 -0.0074268114 -0.022591578
-0.010779851 -0.010638406 -0.01148
-0.0075858207 -0.0098355068 -0.0043368419
-0.0031940299 0.011039855 -0.000368421
-0.024753731 0.0078282608 -0.018226314
0.0019962688 -0.01385 -0.027353683
-0.015171641 0.010638406 -0.0019557893
0.005988806 -0.01344855 -0.019019999
-0.0075858207 -0.00020072464 -0.026163157
0.0027947761 0.0078282608 -0.000368421
0.0027947761 -0.0034123186 -0.024972631
0.020761194 -0.0078282608 -0.025369473
-0.023955224 -0.012244202 -0.022194736
-0.018764926 -0.011842754 -0.010289473
0.01277612 0.010638406 -0.0019557893
0.007985075 0.0086311596 -0.01743263
-0.024354478 -0.0058210143 -0.000368421
0.022757463 -0.0062224637 -0.025369473
0.0099813435 0.0078282608 -0.000368421
0.023156716 -0.01344855 -0.031322103
0 -0.01385 -0.029337894
0.025552239 -0.0054195649 -0.010686316
-0.025152985 -0.0058210143 -0.016242104
0.011179104 0.010236956 -0.0011621051
-0.015570896 0.010638406 -0.0031463157
0.0031940299 -0.009032608 -0.028147368
0.0063880598 0.0026094201 -0.000368421
0.017567163 0.0042152172 -0.000368421
-0.0055895522 0.007025362 -0.022194736
-0.0067873136 -0.0074268114 -0.028147368
-0.013574627 -0.0062224637 -0.026956841
0.024753731 -0.0074268114 -0.0039399997
0.0095820893 -0.011842754 -0.01743263
0.023955224 -0.013047101 -0.030925263
-0.013175373 0.0034123186 -0.000368421
0.013574627 -0.0082297102 -0.030131578
0.0095820893 0.010236956 -0.0039399997
0.020361939 0.011842754 -0.000368421
-0.0099813435 -0.010236956 -0.0067178942
-0.017567163 -0.011842754 -0.033306316
0.001597015 -0.0022079709 -0.025369473
-0.0047910446 0.0030108695 -0.022194736
-0.019164179 -0.011842754 -0.031322103
0.016369402 0.0046166666 -0.02298842
0.024354478 -0.0010036231 -0.000368421
0.0043917908 -0.0094340574 -0.030131578
0.0031940299 -0.009032608 -0.0035431576
0 -0.0018065217 -0.000368421
-0.025951492 -0.010236956 -0.018623156
-0.025552239 -0.011842754 -0.026956841
0.022757463 -0.0086311596 -0.029337894
-0.007985075 0.0010036231 -0.025766315
-0.018764926 0.003813768 -0.026163157
-0.025951492 0.003813768 -0.01346421
-0.0043917908 -0.0034123186 -0.025369473
0.023156716 -0.012244202 -0.0035431576
0.0087835817 0.0010036231 -0.000368421
0.019962687 -0.011842754 -0.01148
-0.011578358 0.0042152172 -0.000368421
-0.0039925375 0.009032608 -0.0067178942
-0.016369402 0.00020072464 -0.024575789
-0.0071865669 0.0078282608 0.0032031578
-0.011977612 -0.010638406 -0.030925263
-0.020761194 0.0030108695 -0.000368421
0.021559702 0.01385 -0.01148
-0.0095820893 -0.012244202 -0.032909472
0.0031940299 -0.0094340574 -0.02854421
-0.010380597 0.010236956 -0.00076526304
-0.0023955223 0.0078282608 -0.021797894
0.019563433 -0.0086311596 -0.030528421
0.00039925374 0.01344855 -0.014257894
0.025152985 0.0062224637 -0.0071147364
0.0055895522 -0.01344855 -0.017829472
-0.007985075 0.0086311596 0.0024094735
-0.025951492 0.0026094201 -0.0098926313
-0.022358209 0.005018116 -0.024178946
0.021160448 0.013047101 -0.013067367
-0.0043917908 -0.0030108695 -0.025369473
0.0071865669 0.010236956 -0.0098926313
-0.0095820893 0.010236956 -0.000368421
-0.026350746 -0.0086311596 -0.019019999
-0.007985075 -0.013047101 -0.024178946
0.0087835817 -0.0042152172 -0.000368421
-0.014772388 -0.0058210143 -0.026559999
-0.025552239 -0.011039855 -0.029337894
-0.001597015 0.0058210143 -0.02298842
0.013574627 -0.0082297102 -0.000368421
0.011977612 -0.01385 -0.028147368
0.023156716 -0.012645652 -0.01743263
0.0055895522 -0.010638406 -0.017829472
-0.026350746 0.0094340574 -0.016242104
0.025951492 0.003813768 -0.025369473
-0.018365672 0.012645652 -0.0098926313
0.011179104 -0.010638406 -0.017829472
-0.024753731 -0.009032608 -0.0051305261
0.0023955223 -0.009032608 -0.0083052628
0.0083843283 -0.01344855 -0.024972631
-0.0051902984 0.009032608 -0.0027494736
0.025951492 0.0034123186 -0.0043368419
-0.0023955223 0.0086311596 -0.0035431576
-0.011977612 0.0062224637 -0.018226314
0.02355597 -0.011842754 -0.017829472
-0.0031940299 -0.010638406 -0.029734736
0.0091828359 0.003813768 -0.02298842
0.015570896 0.0054195649 -0.021401051
-0.0027947761 0.0058210143 -0.000368421
-0.017567163 0.0082297102 -0.01743263
0.00039925374 -0.012645652 -0.022194736
-0.0043917908 0.009032608 -0.0015589473
-0.0051902984 0.009032608 -0.0051305261
-0.0011977612 -0.0010036231 -0.026163157
-0.026350746 0.009032608 -0.011083158
0.013973881 -0.0010036231 -0.000368421
0.0083843283 -0.013047101 -0.022591578
-0.026350746 -0.0046166666 -0.022194736
0.005988806 -0.009032608 -0.031322103
-0.020761194 -0.0014050724 -0.000368421
0.025152985 -0.012645652 -0.028147368
-0.025152985 -0.0054195649 -0.014257894
-0.025951492 -0.0034123186 -0.013067367
-0.016768657 0.012244202 -0.015051578
-0.010779851 -0.011842754 -0.026956841
-0.0055895522 0.0018065217 -0.024178946
0.024354478 0.012645652 -0.013067367
-0.016369402 0.00060217391 -0.025766315
0.017167911 -0.0014050724 -0.024575789
-0.024753731 0.0074268114 -0.00076526304
0.0047910446 0.01385 -0.013067367
-0.0051902984 -0.0098355068 -0.0094957892
0.026350746 0.0034123186 -0.019019999
0.0043917908 -0.01344855 -0.024972631
-0.0055895522 -0.013047101 -0.019019999
0.01277612 -0.010236956 -0.032512631
-0.01597015 -0.012244202 -0.017035788
-0.021958955 0.0066239131 -0.019813683
0 0.005018116 -0.023385262
0.024354478 0.012244202 -0.0035431576
0.0067873136 -0.01344855 -0.019813683
0.025951492 0.0046166666 -0.01544842
-0.0091828359 0.003813768 -0.023782104
0.0027947761 0.0030108695 -0.024178946
0.010779851 0.0058210143 -0.023782104
-0.0095820893 0.0098355068 -0.0063210521
0.025552239 0.010236956 -0.016242104
-0.0083843283 -0.0098355068 -0.0043368419
-0.0039925375 0.01385 -0.012670525
-0.021958955 -0.012244202 -0.016242104
0.02355597 0.012244202 -0.0087021049
0.0031940299 -0.010638406 -0.028941052
-0.015570896 0.010638406 -0.00076526304
0.019563433 -0.013047101 -0.032115787
-0.010779851 -0.012244202 -0.030528421
-0.018365672 -0.010638406 -0.031322103
0.011977612 -0.010638406 -0.010686316
-0.025951492 -0.003813768 -0.0019557893
0.013574627 -0.0066239131 -0.000368421
-0.0051902984 -0.00020072464 -0.026163157
0.0011977612 0.0034123186 -0.021797894
-0.0011977612 -0.01344855 -0.025766315
-0.025951492 0.005018116 -0.011083158
-0.026350746 0.0078282608 -0.015051578
0.024354478 -0.0078282608 -0.025369473
-0.013574627 -0.01344855 -0.023385262
0.011578358 -0.013047101 -0.02298842
0.02355597 0.0054195649 -0.000368421
0.0039925375 -0.010236956 -0.027353683
0.019962687 -0.011441304 -0.013861052
0.0075858207 -0.01385 -0.030925263
0.022358209 0.0042152172 -0.000368421
0.025951492 -0.00060217391 -0.021004209
0.005988806 0.0058210143 -0.024972631
0.0067873136 -0.0098355068 -0.00076526304
-0.015570896 0.0010036231 -0.025766315
0 -0.0098355068 -0.031322103
-0.021160448 0.011441304 -0.0071147364
-0.014772388 -0.0026094201 -0.024178946
-0.0051902984 -0.0086311596 -0.000368421
-0.022757463 -0.011842754 -0.020607367
-0.016768657 0.010236956 -0.016638946
0.014772388 -0.0082297102 -0.024575789
-0.0019962688 -0.0030108695 -0.000368421
0.021559702 -0.0078282608 -0.025369473
-0.022358209 0.0094340574 -0.000368421
-0.0011977612 0.0058210143 -0.024972631
-0.01597015 -0.011039855 -0.01544842
-0.019563433 -0.013047101 -0.023782104
-0.010380597 -0.0086311596 -0.030528421
0.024753731 0.0074268114 -0.018226314
-0.0055895522 -0.0062224637 -0.000368421
0.018365672 -0.011842754 -0.029337894
0.025951492 -0.0034123186 -0.020210525
-0.021559702 -0.011842754 -0.0059242104
-0.0055895522 -0.01385 -0.029337894
-0.018764926 0.0042152172 -0.000368421
-0.025552239 -0.012645652 -0.025369473
-0.0023955223 -0.00060217391 -0.026163157
0.013973881 -0.010638406 -0.013861052
-0.021160448 -0.0078282608 -0.024575789
-0.0063880598 -0.01344855 -0.017035788
-0.011977612 0.010236956 -0.0094957892
-0.0027947761 0.0022079709 -0.024575789
-0.011179104 0.00020072464 -0.024972631
0.013175373 -0.005018116 -0.024178946
0.0071865669 -0.01344855 -0.025369473
0.022757463 0.0054195649 -0.02298842
-0.017966418 -0.0018065217 -0.000368421
0.024753731 -0.0086311596 -0.013067367
0.014772388 -0.0046166666 0.00042526319
-0.024354478 -0.011842754 -0.0094957892
-0.0075858207 -0.0062224637 -0.026956841
-0.0055895522 -0.013047101 -0.022194736
0.025152985 -0.0082297102 -0.017035788
0.0031940299 0.0066239131 -0.024575789
-0.017567163 -0.009032608 -0.000368421
-0.010779851 0.0098355068 -0.0031463157
0.024354478 0.012244202 -0.01346421
-0.025951492 -0.0014050724 -0.019416841
-0.007985075 0.00060217391 -0.000368421
-0.0075858207 -0.003813768 -0.000368421
0.0067873136 -0.012244202 -0.024972631
0.011977612 -0.0086311596 -0.000368421
-0.018764926 0.00060217391 -0.000368421
0.0023955223 0.0042152172 -0.023782104
0.0063880598 0.007025362 -0.022591578
0.025951492 -0.0046166666 -0.013861052
-0.0075858207 -0.010236956 -0.012273683
-0.020761194 -0.003813768 -0.02298842
-0.01597015 -0.0062224637 -0.025766315
0.0087835817 -0.01344855 -0.024972631
0.024753731 -0.0082297102 -0.01148
-0.025152985 -0.0066239131 -0.0083052628
-0.025552239 -0.0078282608 -0.026559999
0.021160448 0.012244202 -0.014257894
0.025951492 0.0054195649 -0.011876842
0.0027947761 -0.01385 -0.027353683
0.015570896 0.011039855 -0.0039399997
0.017966418 0.009032608 -0.000368421
0.0023955223 0.009032608 -0.0023526314
0.014772388 0.0054195649 -0.024972631
-0.025152985 -0.0062224637 -0.004733684
-0.019962687 -0.0066239131 -0.028147368
-0.025552239 0.0022079709 -0.023385262
-0.007985075 0.0046166666 -0.000368421
0.025152985 0.005018116 -0.0094957892
-0.0095820893 0.0054195649 -0.019416841
0.024354478 -0.0074268114 -0.025369473
-0.0063880598 -0.0030108695 -0.024972631
-0.023156716 0.0034123186 -0.026163157
-0.0063880598 -0.0098355068 -0.013067367
-0.017966418 -0.0010036231 -0.000368421
-0.021559702 0.01344855 -0.012273683
0.011578358 -0.01344855 -0.026956841
0.011578358 0.010638406 -0.0015589473
0.014772388 0.011039855 -0.0023526314
-0.0055895522 0.0026094201 -0.02298842
-0.025951492 0.0014050724 -0.018623156
0.0083843283 -0.007025362 -0.027750526
0.020361939 0.012645652 -0.013861052
0.0051902984 -0.0094340574 -0.01148
-0.014772388 0.0046166666 -0.025766315
0.00039925374 0.01344855 -0.010686316
0.011977612 0.00020072464 -0.000368421
0.021160448 0.011842754 -0.0035431576
0.012376865 0.0046166666 -0.000368421
0.007985075 -0.01344855 -0.026163157
0.015171641 -0.0094340574 -0.031718947
0.0023955223 -0.011039855 -0.017829472
0.0083843283 -0.01385 -0.031718947
0.0023955223 0.005018116 -0.025369473
-0.023156716 0.011842754 -0.0027494736
0.0035932835 0.0042152172 -0.020607367
-0.022358209 -0.00060217391 -0.000368421
-0.021160448 -0.007025362 -0.028147368
-0.0027947761 0.0078282608 -0.000368421
-0.011977612 -0.013047101 -0.029734736
-0.007985075 0.013047101 -0.015051578
0.011179104 0.013047101 -0.014654736
-0.021559702 0.00060217391 -0.025369473
-0.025552239 -0.00060217391 -0.0083052628
0.005988806 0.005018116 -0.023385262
0.019563433 0.0086311596 -0.01743263
-0.0027947761 -0.013047101 -0.017035788
-0.0087835817 0.0058210143 -0.02298842
-0.016768657 -0.0086311596 -0.030528421
-0.0011977612 0.0086311596 -0.0083052628
-0.026350746 -0.0074268114 -0.019813683
0.02355597 -0.00060217391 -0.024178946
-0.00079850748 0.0022079709 -0.023782104
-0.023156716 -0.0082297102 -0.025766315
-0.013175373 -0.0094340574 -0.032115787
0.025552239 -0.009032608 -0.027353683
-0.01597015 0.013047101 -0.010289473
0.020761194 -0.013047101 -0.027750526
-0.025152985 0.0074268114 -0.01743263
-0.025552239 -0.005018116 -0.01544842
0.0055895522 0.0046166666 -0.020210525
-0.007985075 -0.009032608 -0.024972631
0.01277612 -0.010638406 -0.016638946
-0.0071865669 -0.013047101 -0.023385262
0.0011977612 0.005018116 -0.019019999
-0.013973881 -0.0086311596 -0.025369473
-0.0055895522 -0.013047101 -0.023385262
0.013973881 0.003813768 -0.026163157
-0.0031940299 -0.0054195649 -0.000368421
0.013973881 0.0054195649 -0.024178946
-0.016768657 -0.0030108695 -0.023782104
0 -0.011441304 -0.032512631
-0.020761194 0.0062224637 -0.000368421
0.012376865 -0.0082297102 -0.028941052
-0.0023955223 0.0030108695 -0.025766315
0.017567163 -0.0078282608 -0.000368421
-0.011179104 0.010236956 -0.0027494736
0.0039925375 0.0046166666 -0.025766315
0.02355597 -0.012244202 -0.0027494736
-0.016768657 -0.0066239131 -0.028147368
-0.022358209 -0.0010036231 -0.000368421
-0.025552239 -0.010236956 -0.030131578
-0.025951492 -0.003813768 -0.01148
-0.026350746 0.0046166666 -0.023385262
0.001597015 -0.0054195649 -0.024575789
-0.013973881 -0.012244202 -0.019813683
-0.0019962688 -0.0098355068 -0.032512631
0.011179104 0.010236956 -0.016638946
-0.022757463 -0.010638406 -0.032512631
0.017966418 0.0062224637 -0.000368421
-0.025951492 0.0018065217 -0.017829472
-0.02355597 -0.012244202 -0.0063210521
-0.013973881 0.005018116 -0.023385262
-0.0087835817 -0.012244202 -0.019813683
0.0031940299 0.0086311596 -0.017035788
-0.024753731 0.0034123186 -0.023782104
0.015570896 -0.011441304 -0.01743263
-0.012376865 0.009032608 -0.017035788
-0.0047910446 -0.010638406 -0.032909472
-0.016768657 -0.0042152172 -0.024972631
-0.025951492 -0.00020072464 -0.023385262
0 -0.0086311596 -0.004733684
-0.021559702 -0.011039855 -0.025369473
-0.025552239 0.0034123186 -0.024575789
-0.025552239 -0.011441304 -0.027750526
-0.015171641 -0.0046166666 0.00042526319
0.00079850748 0.012244202 -0.015845262
0.001597015 -0.009032608 -0.0083052628
-0.014772388 0.0030108695 -0.026163157
0.021160448 -0.010638406 -0.000368421
0.024753731 0.009032608 -0.0071147364
0.0071865669 0.0098355068 -0.0043368419
-0.019164179 0.0078282608 -0.000368421
0.0051902984 -0.00060217391 -0.000368421
0.0083843283 0.012645652 -0.01544842
-0.017567163 -0.013047101 -0.025369473
0.0087835817 -0.0082297102 -0.030131578
-0.025951492 -0.0098355068 -0.028147368
-0.014772388 0.010638406 -0.0075115785
-0.025951492 0.0042152172 -0.016638946
0.021559702 0.011842754 -0.0015589473
-0.0083843283 0.0062224637 -0.024178946
0.026350746 0.0094340574 -0.016242104
0.0043917908 -0.012244202 -0.028941052
-0.0063880598 0.0078282608 -0.000368421
-0.010380597 -0.010236956 -0.015845262
-0.025951492 0.0030108695 -0.02298842
-0.0031940299 0.0022079709 -0.000368421
0.024753731 0.0026094201 -0.024575789
0.015171641 0.011039855 -0.0039399997
-0.0095820893 0.0022079709 -0.000368421
0.017167911 -0.011441304 -0.017035788
0.020761194 0.011842754 -0.0059242104
0.007985075 -0.01385 -0.026559999
-0.00079850748 -0.009032608 -0.0055273683
0.020761194 -0.012645652 -0.025369473
-0.024354478 0.012645652 -0.012670525
-0.0095820893 -0.009032608 -0.031718947
-0.014373134 -0.011039855 -0.0031463157
0.025951492 -0.0046166666 -0.009098947
-0.0099813435 0.003813768 -0.000368421
0.00039925374 -0.01344855 -0.024972631
0.025951492 -0.0086311596 -0.023782104
-0.0055895522 0.0014050724 -0.025369473
0 -0.009032608 -0.00076526304
-0.021958955 -0.011842754 -0.0087021049
0.024753731 0.010236956 -0.0063210521
-0.0023955223 -0.0094340574 -0.015845262
-0.019164179 0.0010036231 -0.024972631
-0.013175373 0.0094340574 -0.000368421
-0.010380597 -0.01385 -0.030131578
-0.023156716 0.0066239131 -0.000368421
-0.011977612 -0.013047101 -0.022194736
-0.025552239 0.00060217391 -0.0039399997
0.024753731 -0.0086311596 -0.014654736
0 -0.012645652 -0.022194736
-0.0075858207 -0.011842754 -0.01743263
-0.014373134 -0.0026094201 -0.024178946
0.019563433 0.0066239131 -0.019813683
-0.0027947761 0.007025362 -0.022194736
-0.026350746 0.0066239131 -0.011876842
-0.013574627 0.007025362 -0.017829472
-0.020761194 0.0062224637 -0.020210525
0.021559702 0.007025362 -0.000368421
-0.014373134 -0.009032608 -0.025369473
-0.013973881 -0.013047101 -0.016638946
0.019962687 0.01385 -0.01148
0.0087835817 -0.01385 -0.026956841
-0.019164179 -0.011039855 -0.030925263
-0.019563433 -0.0098355068 -0.031322103
-0.021958955 0.0062224637 -0.020210525
-0.022358209 -0.0086311596 -0.024178946
0.005988806 0.0034123186 -0.024178946
0.0083843283 0.0066239131 -0.02298842
0.007985075 -0.0098355068 -0.011876842
-0.010779851 -0.010236956 -0.0027494736
0.022757463 -0.012645652 -0.024575789
-0.024354478 0.0018065217 -0.025766315
0.024354478 0.0082297102 -0.018226314
0.014373134 0.012645652 -0.014654736
-0.024753731 0.0098355068 -0.0059242104
0.021559702 0.005018116 -0.000368421
-0.013574627 0.010638406 -0.0094957892
-0.018365672 -0.0010036231 -0.000368421
0.019563433 -0.011441304 -0.0027494736
-0.013175373 -0.007025362 -0.025369473
0.025951492 -0.003813768 -0.016638946
0.022358209 -0.011842754 -0.0079084206
-0.00079850748 -0.005018116 -0.024575789
-0.019164179 -0.012645652 -0.027353683
-0.023955224 -0.0086311596 -0.029337894
-0.001597015 0.0086311596 -0.0087021049
0.021559702 -0.013047101 -0.027750526
0.025951492 0.0094340574 -0.010686316
0.0051902984 0.011441304 -0.0098926313
0.025951492 -0.0022079709 -0.013067367
0.016369402 0.0014050724 -0.000368421
0.010779851 -0.010236956 -0.026559999
0.007985075 -0.0098355068 -0.0071147364
-0.0031940299 -0.0094340574 -0.030131578
-0.011179104 -0.010236956 -0.0087021049
-0.014373134 0.0078282608 -0.000368421
0.0039925375 0.0094340574 -0.0023526314
0.025951492 0.0022079709 -0.019813683
-0.0031940299 -0.012645652 -0.030925263
0.0095820893 -0.009032608 -0.031718947
-0.024354478 0.00060217391 -0.000368421
0.0067873136 0.011441304 -0.0098926313
0.010380597 -0.01385 -0.028941052
0.00039925374 -0.01344855 -0.025766315
-0.025552239 -0.005018116 -0.0055273683
0.015171641 -0.0014050724 -0.024575789
-0.001597015 -0.012645652 -0.021797894
-0.025951492 0.011441304 -0.014654736
-0.017966418 -0.0026094201 -0.023782104
0.0063880598 -0.0086311596 -0.024575789
-0.017567163 0.013047101 -0.010289473
0.015171641 0.011039855 -0.0087021049
0.0011977612 -0.013047101 -0.02298842
0.0075858207 -0.013047101 -0.022194736
-0.024753731 0.0082297102 -0.0087021049
0.014373134 0.012244202 -0.0098926313
0.010779851 0.0078282608 -0.000368421
0.020761194 0.011842754 -0.0015589473
-0.015171641 0.010638406 -0.016638946
-0.010779851 -0.011039855 -0.032909472
0.0051902984 0.005018116 -0.025369473
0.024753731 0.009032608 -0.0027494736
-0.026350746 0.0030108695 -0.026163157
-0.021160448 -0.0010036231 -0.024178946
-0.022358209 -0.012244202 -0.01346421
-0.0047910446 -0.0098355068 -0.014257894
0.025152985 0.0066239131 -0.0051305261
0.007985075 -0.003813768 -0.000368421
0.01597015 0.005018116 -0.024575789
-0.023955224 -0.0074268114 -0.024972631
-0.0067873136 0.0094340574 -0.004733684
-0.016768657 -0.01344855 -0.02298842
-0.023156716 -0.012645652 -0.026163157
0.0043917908 -0.00020072464 -0.025369473
0.026350746 0.010236956 -0.010686316
0.021160448 -0.0062224637 -0.000368421
-0.023156716 -0.0042152172 -0.000368421
0.025152985 0.0054195649 -0.011083158
0.0087835817 -0.0098355068 -0.004733684
0.007985075 0.011039855 -0.0098926313
-0.0011977612 0.01385 -0.01148
-0.017567163 0.011039855 -0.0063210521
0.0023955223 0.0058210143 -0.018623156
0.0087835817 0.013047101 -0.015051578
0.010380597 0.00060217391 -0.024972631
0.013574627 -0.00020072464 -0.024575789
0.0055895522 -0.012645652 -0.032512631
-0.0063880598 0.01385 -0.012670525
0.0051902984 -0.0026094201 -0.024972631
0.0087835817 0.0066239131 -0.022591578
-0.0063880598 -0.0058210143 -0.024972631
-0.0047910446 -0.009032608 -0.000368421
-0.025152985 -0.0054195649 -0.0019557893
-0.010380597 0.011039855 -0.010289473
0.014373134 0.0022079709 -0.000368421
0.016369402 -0.012645652 -0.017829472
-0.019164179 -0.010638406 -0.030528421
0.00079850748 -0.009032608 -0.000368421
-0.025152985 -0.0062224637 -0.014257894
-0.0083843283 0.011441304 -0.010289473
-0.018365672 -0.013047101 -0.032115787
0.011179104 -0.010236956 -0.010686316
-0.024753731 -0.010236956 -0.0031463157
-0.0083843283 -0.01385 -0.029337894
0.015171641 0.0054195649 -0.02298842
-0.011977612 -0.012645652 -0.030528421
0.014772388 0.01385 -0.01148
0.0099813435 -0.01385 -0.026956841
0 -0.0066239131 -0.026956841
-0.011578358 0.0066239131 -0.018226314
-0.012376865 0.010236956 -0.0055273683
-0.0075858207 -0.009032608 -0.024178946
0.011179104 0.012645652 -0.015051578
-0.0087835817 0.0054195649 -0.02298842
0.012376865 -0.010638406 -0.014654736
-0.017966418 0.0026094201 -0.024178946
0.0083843283 -0.0098355068 -0.01544842
0.025152985 0.0058210143 -0.010289473
0.0075858207 -0.0062224637 -0.026559999
-0.018365672 0.0058210143 -0.000368421
0.0047910446 -0.0094340574 -0.017829472
0.011977612 -0.011441304 -0.029734736
0.010779851 0.0030108695 -0.000368421
-0.015171641 -0.0086311596 -0.025369473
0.0091828359 -0.0054195649 -0.025369473
-0.0083843283 -0.007025362 -0.02854421
-0.0031940299 0.0022079709 -0.023385262
0.016768657 0.011039855 -0.0035431576
0.025951492 -0.0094340574 -0.022194736
0.0087835817 0.010236956 -0.00076526304
