# .PCD v0.7 - Point Cloud Data file format
VERSION 0.7
FIELDS x y z
SIZE 4 4 4
TYPE F F F
COUNT 1 1 1
WIDTH 1203
HEIGHT 1
VIEWPOINT 0 0 0 1 0 0 0
POINTS 1203
DATA ascii
-0.0021872222 -0.00021166667 -0.0050687743
0.0005644444 0.00127 -0.0015461936
-7.055555e-05 0.00028222223 -0.0063369032
-0.0002822222 7.0555558e-05 -0.0064778067
0 0.00127 -0.0018984517
-0.0038099999 0.00042333335 -0.0018984517
-0.0027516666 0.00070555555 -0.0024620646
0.0028222222 0 -0.007464129
0.0005644444 0.00127 -0.00084167742
0.0002822222 -0.00028222223 -0.0037301937
-0.0034572221 -0.0011994444 -0.0012643872
0.00049388886 0.00014111112 -6.6709705e-05
0.00070555555 -0.00127 -0.00034851616
-0.0032455556 0.0011288889 -0.002039355
0.0028222222 -7.0555558e-05 -0.0058437418
0.0026105554 -0.00021166667 0.0017650323
-0.00098777772 0.00127 -0.00084167742
0.0015522222 -7.0555558e-05 -0.0025325161
-0.0035983333 0.00098777784 -0.00063032261
0.00042333332 -0.00127 -0.002039355
0.0026105554 -0.00021166667 -0.0042938064
-0.0023988888 -0.000635 -0.00027806454
0.002681111 0.00035277777 -0.0025325161
0.0029633332 -0.0011994444 -0.0023916129
-0.0038099999 -7.0555558e-05 -0.00055987097
-0.00077611109 0.00084666669 -0.0025325161
-0.0038099999 0.00035277777 -0.002039355
-0.0027516666 -0.00028222223 -0.0069709676
0.0034572221 -0.0010583333 -0.0013348388
0.0028927778 -0.0010583333 -0.0023916129
-0.0026105554 0.00021166667 -0.0069709676
-0.0001411111 0.00028222223 0.0017650323
0.00254 0.00127 -0.0021098065
-0.0023988888 -0.00021166667 0.0020468386
0.0023283332 0.00091722223 -6.6709705e-05
0.00084666663 -0.0010583333 -6.6709705e-05
0.0001411111 -0.00028222223 -0.0076754838
0.0026105554 -0.00127 -0.0022507098
-0.0023283332 0.00127 -0.00063032261
0.0037394443 -0.00049388892 -0.00027806454
0.0023283332 -0.00014111112 -0.0048574195
0.0028222222 7.0555558e-05 -0.0062664519
-0.0019755554 -0.00127 -0.0023916129
0.0028927778 0.00028222223 -0.0061960001
0 -0.00028222223 -0.003096129
-0.0028222222 0 -0.0068300646
-0.0002822222 7.0555558e-05 0.0017650323
-0.00084666663 0.00127 -0.00013716132
-0.0002822222 0.00021166667 -0.0033074839
0.0027516666 -7.0555558e-05 -0.006548258
-0.00077611109 0.00127 -0.00084167742
0.00021166666 0.00127 -0.0016870968
0.0024694444 0.00028222223 0.0013423226
-0.003175 -0.00127 -0.00034851616
-0.0028222222 -0.00021166667 -0.0053505809
0.0017638889 0.00127 -0.0024620646
-0.0030338888 0.00014111112 -0.0024620646
0.002681111 0.00127 -0.0019689032
-0.0001411111 0.00028222223 0.0014127742
7.055555e-05 0.00028222223 -0.0057028388
0.0032455556 0.00098777784 -6.6709705e-05
0.0037394443 0.00091722223 -0.00098258071
-0.0019755554 -0.00127 -0.0018280001
0.0013405555 0.00014111112 -0.0025325161
0.0002822222 0.00056444446 -0.0025325161
0.0028222222 0.00127 -0.0016870968
-0.0016933333 0.00056444446 -0.0024620646
0.00070555555 -0.00127 -0.0015461936
0.0002822222 -0.00014111112 -0.0045051612
0.0005644444 7.0555558e-05 -0.0025325161
-0.0038099999 0.00042333335 -0.00027806454
-0.0026105554 -0.00127 -0.00041896777
0.0034572221 -0.0011288889 -0.0014052903
-0.00021166666 0.00127 -0.00063032261
0.000635 -0.00049388892 -0.00027806454
-0.0022577776 -0.00021166667 -0.0062664519
0.0014816666 0.00127 -0.0024620646
-0.0037394443 -0.00084666669 -0.00034851616
0.00070555555 -0.00042333335 -0.00020761293
-0.0034572221 0.00049388892 -0.0024620646
-0.0022577776 -0.00014111112 -0.0033779356
0.0026105554 -0.00127 -0.0013348388
0.001905 0.00084666669 -0.00020761293
-0.00070555555 0.00127 -0.0011234839
-0.0034572221 -0.00084666669 -0.00013716132
-7.055555e-05 0.00028222223 -0.0037301937
-0.0034572221 0.0010583333 -0.002039355
0.00035277777 -0.00127 -0.00084167742
-0.0023988888 0.00028222223 -0.0030256775
-0.0036688887 -0.0010583333 -0.00055987097
-0.0021872222 -0.00084666669 -0.00020761293
-0.0010583333 -0.00014111112 -0.0025325161
-0.0033161109 -0.00021166667 -6.6709705e-05
0.00021166666 0.00028222223 -0.0034483871
0 0.00021166667 -0.0081686452
0.0030338888 -0.00028222223 -0.0024620646
0.00077611109 7.0555558e-05 -0.0025325161
0.0002822222 0 0.0014832258
0.0022577776 0.00127 -0.0011939355
-0.0028222222 0 -0.0070414194
-0.001905 -0.00014111112 -0.0024620646
-0.0028222222 -7.0555558e-05 -0.0069709676
-0.0023283332 0.00014111112 -0.005491484
-0.0038099999 -0.000635 -0.0007007742
-0.0005644444 -0.00056444446 -0.0025325161
-0.0032455556 -0.00127 -0.0019689032
0.00254 -0.00021166667 -0.0060550966
-0.0035983333 -0.00070555555 -0.00027806454
-0.0031044444 -0.00127 -0.002039355
-0.00084666663 -0.00035277777 -6.6709705e-05
0.0026105554 -0.00021166667 0.00014464514
0.00049388886 -0.00077611109 -0.00027806454
0.000635 0.00028222223 -6.6709705e-05
-0.0023283332 -0.00056444446 -0.00027806454
-7.055555e-05 0 0.0022581934
-0.0028222222 7.0555558e-05 0.0013423226
-0.00084666663 0.00127 -0.0017575484
0.002046111 0.00127 -0.00013716132
-0.0017638889 -0.0010583333 -0.00013716132
0 -0.00127 -0.0023916129
-0.001905 -0.000635 -0.00027806454
0.0019755554 -0.00098777784 -0.00013716132
-0.0017638889 0.00127 -0.00077122584
0.00254 -0.00035277777 -0.0024620646
0.002681111 0.00035277777 -0.0073936777
0.0011994444 -0.00127 -0.00041896777
-0.0028222222 0.00014111112 -0.0026029679
-0.00254 0.00084666669 -6.6709705e-05
0.0032455556 0.000635 -0.0023916129
0.0024694444 -0.00021166667 -0.0044347099
0.002046111 0.00077611109 -0.00027806454
0.0017638889 0.00127 -0.0011234839
0.002681111 -0.00014111112 -0.0028847742
0.0002822222 0.00127 -0.0023211613
-0.0002822222 -0.00127 -0.0022507098
-0.0002822222 0.00028222223 0.0017650323
0.0002822222 -0.00021166667 0.0014127742
-0.0014816666 -0.00084666669 -0.00013716132
-0.0023283332 0.00127 -0.00091212906
0.0022577776 -0.00127 -0.00098258071
-0.0027516666 0 -0.0075345808
-0.0023283332 -0.00021166667 -0.0079572909
-7.055555e-05 -0.00028222223 0.0008491613
0.0026105554 0.00035277777 -0.0057732905
0.0005644444 -0.00127 -0.00034851616
0.0033866665 -0.000635 -0.00027806454
-0.0024694444 0.00127 -0.0015461936
-0.0001411111 0.00028222223 -0.0044347099
0.0028927778 0.00021166667 0.0014832258
0.0038099999 0 -0.0018280001
0.0011288888 0.00091722223 -0.0024620646
0.002681111 -0.00014111112 -0.0049278708
-0.0033866665 -0.0011994444 -0.0012643872
0.000635 0.00091722223 -0.0025325161
0.0027516666 0.00028222223 -0.003096129
0.0037394443 -0.00077611109 -0.0023916129
-0.0038099999 -0.00021166667 -0.001475742
-0.0021872222 -0.00042333335 -6.6709705e-05
-0.0011994444 0.00077611109 -0.0025325161
-0.0019755554 -7.0555558e-05 -6.6709705e-05
-0.0038099999 0.00056444446 -0.001475742
-0.00254 0.00021166667 -0.007323226
-0.00091722218 0.00127 -0.0012643872
0.0014816666 0.00127 -0.00091212906
0.0023283332 0.00021166667 -0.0076050325
0.00042333332 0.000635 -0.00027806454
0.00070555555 -0.00127 -0.0013348388
0.0026105554 -0.00084666669 -0.00013716132
0.0011288888 0.00127 -0.0023916129
-0.0038099999 -0.000635 -0.0016166453
-0.0001411111 -0.00028222223 0.0018354838
7.055555e-05 -0.00028222223 -0.0072527742
-0.00254 -0.00127 -0.00098258071
-0.0028222222 -7.0555558e-05 -0.0048574195
-0.0018344444 0.0011994444 -0.0023916129
0.003175 0.00127 -0.00041896777
-0.0027516666 0.00021166667 -0.0028847742
0.0002822222 -0.00014111112 0.0008491613
0 0.00028222223 -0.0048574195
0.0002822222 -0.00021166667 -0.0059141936
0.002681111 0.00127 -0.0014052903
0.0030338888 -0.0011994444 -0.0011939355
0.002681111 0.00035277777 0.00042645159
0.0035277777 0.00035277777 -6.6709705e-05
0.0002822222 -0.00014111112 -0.0040120003
-0.00127 -0.00127 -0.0018984517
-0.0023988888 0.00028222223 0.00056735484
-0.0011288888 -0.000635 -0.0025325161
0 -0.00028222223 -0.0047869678
-0.0019755554 -0.00127 -0.00063032261
-0.0015522222 0.00127 -0.0018280001
0.0016933333 0.0010583333 -0.00013716132
0.0016227778 0.00056444446 -0.0024620646
0.0022577776 0.0010583333 -0.0024620646
0.00084666663 -0.00127 -0.0007007742
-0.0016933333 0.00077611109 -0.00027806454
0.0031044444 0.00127 -0.00077122584
0.0022577776 0.00021166667 -0.0049278708
-0.0002822222 -0.00021166667 -0.0061960001
0.002046111 -0.0010583333 -0.00013716132
-0.0038099999 0.00014111112 -0.0018984517
0.0033866665 -0.00056444446 -0.0024620646
0.0028222222 0 -0.0069709676
-0.0035277777 -0.00084666669 -0.00013716132
0.0015522222 0.000635 -0.00027806454
-0.00254 0.00021166667 -0.0031665808
-0.00042333332 -0.0011994444 -0.0025325161
-0.0017638889 -0.00056444446 -0.0024620646
-0.00042333332 -0.00084666669 -0.00013716132
-0.0027516666 -0.00028222223 -0.0073936777
0.0011994444 0.00127 -0.0011234839
0.0017638889 -0.00042333335 -0.0024620646
0.0031044444 -0.00091722223 -0.00013716132
-0.001905 0.00127 -0.00091212906
0.0033161109 0 -6.6709705e-05
-0.0034572221 0.000635 -0.00027806454
0.002681111 0.00035277777 -0.0075345808
-0.002046111 -0.00127 -0.0024620646
0.001905 0.0011288889 -0.00013716132
0.0031044444 -0.0011994444 -0.0021098065
0.00127 0.00127 -0.00034851616
-0.0028222222 -0.00014111112 0.0016945807
-0.00021166666 0 0.0022581934
0.002681111 -0.00127 -0.00027806454
0.0011994444 -0.00021166667 -6.6709705e-05
-0.0027516666 0.00014111112 -0.002743871
0.0034572221 -0.00042333335 -0.00013716132
-0.0029633332 -0.0011288889 -0.0024620646
0.0034572221 0.0011994444 -0.00084167742
0.0023283332 0.0011288889 -0.0023916129
-0.0002822222 0.00014111112 0.0008491613
0.0026105554 -0.00014111112 -0.0033779356
-0.0011994444 0.00127 -0.0019689032
-0.0002822222 0.00028222223 -0.0042233551
-0.0024694444 0.00021166667 0.00099006447
0.0023283332 -7.0555558e-05 0.00035599997
0.0023283332 0.00028222223 -0.0032370323
-0.0038099999 0.00014111112 -0.00063032261
-0.00035277777 0.00028222223 -0.0025325161
0.0037394443 0.00098777784 -0.0023211613
0.00098777772 0.00127 -0.0018280001
-0.000635 -0.00127 -0.00063032261
0.0021166666 -0.00127 -0.00041896777
-0.0023283332 7.0555558e-05 -0.004575613
0.0024694444 0.00127 -0.0018984517
-0.0037394443 -0.00098777784 -0.0016166453
0.00021166666 -0.00042333335 -0.0025325161
-0.0035983333 -0.0011288889 -6.6709705e-05
0.00021166666 0.00127 -0.00055987097
0.0037394443 0.00077611109 -0.0007007742
0.0014111111 -0.00127 -0.00063032261
0.0002822222 0.00014111112 -0.0040824516
-0.0021166666 -0.00042333335 -6.6709705e-05
-0.00084666663 -0.00127 -0.00098258071
-0.0029633332 -0.0010583333 -6.6709705e-05
0.0002822222 0.00014111112 0.00070825807
0.00084666663 -0.00084666669 -0.00013716132
-0.002046111 0.00127 -0.0013348388
0.0022577776 0.00021166667 0.001624129
0.0014816666 0.00070555555 -0.0024620646
0.002681111 -0.00042333335 -0.00027806454
-0.00084666663 0.000635 -0.00027806454
-0.0023988888 -0.00035277777 0.0014127742
-0.0024694444 -0.00035277777 -0.0040824516
-0.0027516666 0.00021166667 -0.0042233551
0.0023283332 -0.00014111112 -0.0066187098
-0.0021166666 0.00056444446 -0.0024620646
0.0019755554 -0.00127 -0.0016166453
-0.00254 -0.00035277777 -0.007323226
0.00091722218 0.00056444446 -0.0025325161
0.00091722218 -0.00127 -0.00063032261
0.00021166666 -0.00028222223 -0.0034483871
-0.0038099999 0.00028222223 -0.0014052903
0.0033866665 0.0011994444 -0.0022507098
-0.0028222222 -0.00021166667 0.00099006447
0.003175 -0.00098777784 -0.00013716132
0.0038099999 -0.00049388892 -0.0016166453
0.0038099999 0.00028222223 -0.0016166453
0.00098777772 -0.00021166667 -6.6709705e-05
0.0035983333 -0.00070555555 -0.0023916129
0.0038099999 -0.00028222223 -0.0022507098
-0.0002822222 0.00014111112 -0.0068300646
-0.0002822222 7.0555558e-05 0.0008491613
-0.00127 0.00127 -0.0012643872
0.0028222222 0.00028222223 -0.0045051612
0.0014816666 0.00042333335 -0.0024620646
-0.0032455556 -0.00127 -0.0023211613
0.0038099999 -0.000635 -0.002180258
-0.0014111111 -0.00127 -0.0011939355
-0.00254 -0.0011994444 -0.0024620646
-0.0021166666 -0.00056444446 -0.0024620646
0.0022577776 0.00070555555 -0.00027806454
-0.0023283332 7.0555558e-05 -0.0066187098
0.0038099999 0.000635 -0.0011939355
-0.0021166666 0.00070555555 -0.0024620646
0.0024694444 0.00021166667 0.0019059355
-0.0015522222 0 -0.0024620646
-0.0002822222 0.00014111112 -0.0052801291
0.00098777772 7.0555558e-05 -0.0025325161
0.0016933333 -0.00127 -0.001475742
-0.0023283332 -0.00035277777 -0.0026734194
-0.0011994444 -0.00127 -0.002039355
-0.0014816666 0.00042333335 -0.00013716132
0.00254 0.00035277777 -0.0049278708
-0.0023283332 0.00084666669 -6.6709705e-05
-0.0016227778 -0.00127 -0.001475742
0.0002822222 -0.00028222223 -0.0069709676
-0.0028222222 0.00127 -0.0012643872
-0.0037394443 -0.00084666669 -0.00055987097
-0.0017638889 0 -6.6709705e-05
0.0033161109 -0.0011288889 -0.00077122584
-0.0021166666 0.00021166667 -0.0024620646
-0.0028222222 0.00014111112 -0.006407355
0.0027516666 -0.00014111112 0.0015536774
0.00254 -0.00021166667 -0.0035892904
-7.055555e-05 -0.00028222223 -0.006548258
0.00084666663 -0.00127 -0.00020761293
-0.0019755554 0.00127 -0.0022507098
-0.0018344444 -0.00127 -0.0017575484
-0.0023283332 0.00077611109 -0.00027806454
-0.00091722218 -0.00127 -0.0018984517
-0.001905 0.00035277777 -0.0024620646
0.0028222222 0.00042333335 -0.0024620646
-0.0022577776 -0.00035277777 -0.0026029679
-7.055555e-05 -0.0010583333 -6.6709705e-05
0.00254 0.00091722223 -6.6709705e-05
-0.0024694444 0.00127 -0.0012643872
-0.00098777772 -0.00042333335 -6.6709705e-05
0.0027516666 -7.0555558e-05 -0.0061255484
0.0038099999 -0.00014111112 -0.0023916129
0.0023283332 -0.00049388892 -0.00027806454
0.0002822222 -0.00021166667 -0.0066187098
0.000635 0.00021166667 -0.0025325161
0.0037394443 0.00070555555 -0.001475742
0.0022577776 -0.00049388892 -0.0024620646
-0.0001411111 0.00127 -0.0013348388
-0.0001411111 0.00127 -0.0022507098
0.00254 -0.00127 -0.0016166453
0.00127 0.00127 -0.0018984517
-0.00042333332 -0.00127 -0.00091212906
0.0038099999 -0.00049388892 -0.0017575484
-0.0038099999 -0.00035277777 -0.0023916129
0.0028927778 -0.0011994444 -0.0011234839
-0.0014111111 -7.0555558e-05 -0.0024620646
0.0037394443 -0.00021166667 -0.0024620646
-0.0038099999 0.000635 -0.0007007742
0.0038099999 -0.00049388892 -0.0013348388
0.0037394443 0.00070555555 -0.002039355
-0.0026105554 -0.00035277777 -0.0046460647
0.001905 0.00091722223 -0.0023916129
0.0022577776 7.0555558e-05 -0.005632387
0.00254 -0.00021166667 -0.0052801291
-0.003175 0.00042333335 -0.00020761293
-0.00021166666 -0.00028222223 -0.0061255484
-0.0002822222 -0.00021166667 -0.0073936777
-0.0034572221 -0.00077611109 -0.0024620646
0.0026105554 -0.0010583333 -0.00013716132
-7.055555e-05 -0.00084666669 -0.0025325161
0.0023283332 -0.00014111112 -0.0053505809
0.0002822222 -0.00014111112 -0.0033779356
-0.0028222222 0 0.0013423226
7.055555e-05 0.00127 -0.0016870968
-0.0028222222 -0.00021166667 -0.0059141936
-0.001905 0.0011994444 -0.00013716132
0.0002822222 -7.0555558e-05 -0.0029552258
-0.00098777772 -7.0555558e-05 -0.0025325161
-0.0036688887 -0.00042333335 -0.00020761293
0.0027516666 -0.00049388892 -0.00027806454
0.0002822222 0 -0.0042233551
0.0035983333 0.0011288889 -0.0007007742
0.0026105554 -0.00021166667 -0.0059141936
-0.0028222222 -7.0555558e-05 0.0014127742
-0.0038099999 0.000635 -0.00091212906
7.055555e-05 -0.00028222223 -0.0068300646
-0.0028222222 0 -0.0057028388
-0.0015522222 -0.00056444446 -0.0024620646
-0.0002822222 0.00021166667 -0.004575613
-0.0038099999 0.00021166667 -0.00048941938
-0.0001411111 0.00028222223 -0.0026734194
-0.0022577776 -0.00014111112 0.0012718709
0.0038099999 -0.00021166667 -0.00020761293
0.0014111111 -0.00127 -0.002039355
0.0023283332 -0.00084666669 -0.0024620646
0.0002822222 0.00028222223 -0.0025325161
0.0032455556 -0.0011288889 -0.00020761293
0.0017638889 0.00021166667 -6.6709705e-05
0.0033161109 -0.0011288889 -0.0013348388
0.003175 0.00028222223 -6.6709705e-05
-0.0001411111 0.00028222223 0.00063780643
-0.0002822222 0.00014111112 -0.0053505809
0.0026105554 0.00035277777 0.0011309678
0.0032455556 -0.0011288889 -0.0018984517
-0.002046111 0.00035277777 -0.00013716132
-0.0016227778 7.0555558e-05 -0.0024620646
0.0033866665 0.0011994444 -0.0023916129
0.0038099999 -7.0555558e-05 -0.0021098065
-0.0002822222 -7.0555558e-05 -0.0066187098
-0.0029633332 -0.00028222223 -0.0024620646
-0.0021872222 0.00042333335 -0.0024620646
-0.0024694444 -0.00035277777 -0.0038710968
-0.0031044444 -0.00084666669 -0.00020761293
-0.0002822222 -0.00127 -0.00098258071
0.0028222222 -7.0555558e-05 -0.006407355
0 0.00028222223 0.00056735484
-0.00127 -0.00021166667 -6.6709705e-05
0.00021166666 0.00028222223 -0.0035188387
0.0021872222 -0.00127 -0.0019689032
-0.0002822222 -0.00021166667 0.0019059355
0.00084666663 -0.00127 -0.00077122584
0.0016933333 0.0011288889 -0.0023916129
0.0022577776 0.00014111112 -0.0061255484
-0.0027516666 7.0555558e-05 -0.0077459356
0.0037394443 0.00098777784 -0.0015461936
-0.0002822222 0.00028222223 -0.0061255484
-0.0002822222 0 -0.0052096774
0.0013405555 0.0011288889 -0.0023916129
0.00042333332 -0.00091722223 -6.6709705e-05
-0.0022577776 0.00035277777 -0.0024620646
-0.0027516666 0.00021166667 0.0010605161
0.0034572221 0.0011994444 -0.0018280001
-0.0022577776 -0.0010583333 -0.0024620646
0.00021166666 -0.00028222223 -0.0035188387
0.0024694444 -0.00021166667 -0.0047869678
7.055555e-05 0 0.0021877419
-0.002046111 0.00127 -0.002180258
-0.0027516666 -0.00028222223 0.0012014194
-0.0034572221 -0.0011994444 -0.0011234839
-0.0023283332 -0.00035277777 0.0017650323
0.00021166666 -0.00127 -0.00077122584
-0.0026105554 0.00028222223 -0.00013716132
-0.00077611109 0.00127 -0.00027806454
0.002046111 -0.00127 -0.00041896777
-0.003175 0.0011994444 -0.00077122584
-0.0002822222 0 -0.007323226
0.002046111 -0.0011994444 -0.00013716132
0.000635 0.00098777784 -0.0025325161
-0.0028222222 7.0555558e-05 -0.0049983226
-0.0028222222 0.00077611109 -0.0024620646
-0.0019755554 -0.00127 -0.0007007742
-0.0016933333 -0.0010583333 -0.0024620646
0.0037394443 -0.00070555555 -0.0014052903
0.0024694444 -0.0010583333 -0.00013716132
0.002681111 -0.00021166667 -0.0031665808
0.00070555555 0.00127 -0.00034851616
0.00127 -0.00127 -0.0011234839
-0.0023283332 0.00021166667 -0.0062664519
-0.0023283332 -0.00127 -0.002039355
0.002681111 0.00035277777 -0.004575613
-0.0024694444 -0.00035277777 -0.0047869678
0.0037394443 0.00084666669 -0.0018280001
0.0029633332 -0.00028222223 -0.00020761293
0.0002822222 -0.00014111112 -0.0066891615
0.0002822222 0.00021166667 -0.005491484
0.00021166666 -0.00028222223 -0.0059846453
0.0027516666 -0.00014111112 -0.0069709676
0.0023988888 0.00021166667 -0.0078868391
-0.0023988888 -0.00035277777 -0.0039415485
-0.0022577776 -7.0555558e-05 -0.0050687743
-0.002046111 0.00084666669 -0.00020761293
-0.001905 -0.00127 -0.0016166453
0.0023283332 -0.00014111112 -0.0031665808
-0.0023283332 0.00127 -0.0019689032
-0.0022577776 -0.00028222223 0.0010605161
0.0016933333 7.0555558e-05 -0.0024620646
-0.0023283332 0.00014111112 -0.0026029679
-0.0028222222 -0.00021166667 -0.0067596128
0.0014816666 0.00028222223 -0.0024620646
-0.0021166666 -0.00127 -0.0022507098
-0.001905 -0.00127 -0.002039355
-0.0028222222 -7.0555558e-05 -0.0057028388
-0.0026105554 0.00021166667 0.00063780643
-0.0014816666 0.00127 -0.00063032261
0.0014816666 0.0011994444 -0.0024620646
-0.0038099999 7.0555558e-05 -0.0017575484
-0.0027516666 -0.00028222223 -0.0069005163
-0.0027516666 0.00021166667 -0.0059846453
-0.0023988888 -7.0555558e-05 0.0021877419
0.00084666663 -0.0011994444 -0.00013716132
0.0022577776 0.00021166667 -0.0040120003
-0.002046111 0.00127 -0.00048941938
0.0016933333 0.00021166667 -6.6709705e-05
-0.00021166666 0.00028222223 -0.0035892904
-0.0029633332 -0.00127 -0.00091212906
-7.055555e-05 -0.00127 -0.0018984517
-0.0037394443 -0.00070555555 -0.0016870968
0.0023283332 -0.00127 -0.00063032261
0.0002822222 -0.00014111112 -0.0077459356
-0.00035277777 -0.0011994444 -0.0025325161
-0.0011994444 -0.000635 -0.0025325161
7.055555e-05 -0.00028222223 -0.0067596128
-0.0028222222 -0.00014111112 -0.003096129
-0.0028222222 -0.00014111112 0.0004969032
-0.0035277777 -0.0011288889 -0.0016870968
0.00084666663 -0.00098777784 -6.6709705e-05
-0.0038099999 0.00021166667 -0.0017575484
-0.002046111 7.0555558e-05 -6.6709705e-05
-0.0005644444 -0.00028222223 -6.6709705e-05
-0.0023283332 0.00014111112 -0.004575613
0.0028222222 0.00021166667 0.00035599997
0.0021166666 0.00127 -0.00048941938
0.00035277777 0.00127 -0.00084167742
0 0.00035277777 -0.0026734194
0.0037394443 0.00077611109 -0.0016870968
-0.00049388886 -0.0011288889 -6.6709705e-05
-0.0023283332 0.00021166667 -0.0053505809
-0.0005644444 0.00127 -0.0016166453
-0.0017638889 0.00098777784 -0.0024620646
-0.0035277777 -0.0011288889 -0.0018280001
0.0023988888 0.00028222223 -0.003659742
0.0023283332 -7.0555558e-05 -0.0054210322
0.0013405555 -0.00042333335 -0.00013716132
0.0033161109 0.00127 -0.0017575484
0 -0.00028222223 -0.0057028388
-0.0016933333 0.00127 -0.0018280001
0.002681111 0.000635 -0.00027806454
-0.0023283332 0.00021166667 0.00070825807
-0.0002822222 0 -0.0028847742
0.0005644444 0.00127 -0.002180258
-0.00021166666 -0.00028222223 -0.0071823224
-0.0028222222 0 -0.0057732905
0.0028222222 7.0555558e-05 -0.0049278708
-0.0022577776 -0.00014111112 -0.0057028388
0.0027516666 0.00014111112 0.0017650323
0.0032455556 0.00084666669 -0.00013716132
-0.001905 0.00127 -0.00013716132
0.002681111 0.00035277777 -0.0071118711
-0.0038099999 -0.00056444446 -0.00027806454
0.0023283332 0.00028222223 0.0016945807
-0.000635 -0.00127 -0.0016166453
-0.0023283332 -0.00021166667 0.0021877419
-0.0023283332 -0.00028222223 0.0008491613
0.003175 -0.0011994444 -0.0021098065
0.0023988888 0.00028222223 -0.0028847742
0.0034572221 -0.0011288889 -0.0021098065
0.0018344444 -0.00077611109 -0.0024620646
0.0001411111 0.00028222223 -0.0040824516
-0.00091722218 0.00127 -0.00034851616
0.001905 0.00021166667 -6.6709705e-05
-0.0033161109 -0.0011994444 -0.00077122584
0.0035983333 0.00098777784 -6.6709705e-05
0.0002822222 7.0555558e-05 -0.0049983226
0.00077611109 0.00127 -0.0016870968
0.0002822222 0.00021166667 -0.003659742
0.001905 0.00127 -0.0012643872
0.0023988888 -0.000635 -0.00027806454
0.0002822222 -0.00127 -0.0012643872
-0.0002822222 -0.00021166667 -0.0035188387
-0.0001411111 -0.00028222223 -0.0054210322
-0.00021166666 0.00028222223 -0.0042233551
0.00254 0.00127 -0.00077122584
0.0023283332 -7.0555558e-05 -0.0058437418
0.002681111 -0.00021166667 -0.0044347099
-0.0017638889 -0.00127 -0.0012643872
0.0030338888 0.0011994444 -0.00020761293
0.0024694444 -0.00127 -0.00098258071
0.0032455556 -0.00056444446 -0.00027806454
0.0023283332 -0.00070555555 -0.0024620646
-0.0018344444 0.00127 -0.0018280001
0.0021166666 0.00127 -0.0015461936
-0.0021872222 -0.00021166667 -0.0037301937
0.0037394443 0.00077611109 -0.0014052903
0.0023988888 -0.00049388892 -0.00027806454
-0.0021872222 -0.00021166667 7.4193529e-05
-0.0021872222 -0.00021166667 -0.004716516
-0.0030338888 0.00049388892 -0.0024620646
0.0005644444 -0.00127 -0.00027806454
0.0017638889 0.00127 -0.0011939355
0.0023988888 0.00021166667 -0.0080277417
0.00049388886 -0.00042333335 -0.00020761293
-0.0013405555 -0.0010583333 -0.0024620646
-0.0028222222 7.0555558e-05 0.0012718709
-0.0038099999 -0.00056444446 -0.0012643872
-0.0022577776 -0.00028222223 -0.007323226
0.0017638889 -0.00056444446 -0.00027806454
-0.00070555555 0.00077611109 -0.0025325161
7.055555e-05 -0.00127 -0.0018280001
-0.0001411111 -0.00028222223 -0.0046460647
0.0021166666 0.0011994444 -0.00013716132
0.0002822222 0.00014111112 -0.0044347099
-0.00254 -0.00035277777 -0.0068300646
-0.000635 -0.00127 -0.00048941938
0.0038099999 0.00028222223 -0.001475742
0.00042333332 0.00127 -0.0010530323
-0.00091722218 -0.00127 -0.002180258
0.0034572221 -0.0010583333 -0.0012643872
0.0033161109 -7.0555558e-05 -6.6709705e-05
-0.00070555555 0 -6.6709705e-05
-0.0028222222 0.00014111112 -0.0040120003
-0.002046111 -7.0555558e-05 -6.6709705e-05
-0.00021166666 -0.00127 -0.00020761293
-0.0027516666 0.00127 -0.002180258
-0.0018344444 0.00127 -0.0015461936
0.0022577776 0.00021166667 0.0010605161
0.0038099999 -0.00014111112 -0.00041896777
0.0002822222 0.00014111112 0.0015536774
0.0038099999 0.00056444446 -0.001475742
0.0002822222 0.00021166667 -0.0054210322
-0.00070555555 -0.00127 -0.0017575484
-0.0038099999 0.00021166667 -0.0014052903
0.0023988888 0.00028222223 -0.0033779356
-0.00049388886 0.00084666669 -0.0025325161
-0.0002822222 0.00021166667 -0.0076754838
-0.0014816666 -0.00084666669 -0.0024620646
-0.0022577776 -0.00028222223 -0.0057732905
0.0002822222 -0.00021166667 0.00091961288
0 -0.00028222223 -0.0076754838
-0.0002822222 0.00014111112 -0.0057732905
0.0014816666 0.00127 -0.0012643872
0 0.00049388892 -0.0025325161
0.0031044444 0.00070555555 -0.0023916129
0.0037394443 0.00028222223 -6.6709705e-05
0.0038099999 0.00028222223 -0.0023916129
-0.0037394443 0.000635 -0.0023916129
0.0022577776 0.00127 -0.00013716132
7.055555e-05 -0.00028222223 -0.0031665808
0.0038099999 -0.00014111112 -0.001475742
-0.00254 0.00028222223 -0.00013716132
-0.0018344444 -0.000635 -0.00027806454
-0.0037394443 7.0555558e-05 -0.00013716132
-0.002681111 0.00098777784 -0.0023916129
0.0033866665 -0.0011288889 -0.002180258
0.0011288888 7.0555558e-05 -0.0025325161
-0.00254 0.00127 -0.00084167742
-0.0001411111 -0.00127 -0.002039355
-0.0028222222 -0.00014111112 0.00056735484
-0.0011288888 0.00127 -0.002039355
-0.0023283332 0.00014111112 -0.0069005163
-0.0013405555 0.00098777784 -6.6709705e-05
0.0026105554 -0.00035277777 -0.00027806454
-0.00049388886 -0.000635 -0.00027806454
0.0037394443 0.00098777784 -0.00027806454
-0.0001411111 -0.00028222223 0.00063780643
0.0030338888 0.00127 -0.0011234839
-0.00254 0.00127 -0.0007007742
-0.0027516666 0.00021166667 -0.0075345808
-0.0022577776 0 -0.0031665808
-0.0001411111 -0.00028222223 -0.0037301937
0.0030338888 -0.00049388892 -0.0024620646
-7.055555e-05 0.00028222223 0.0017650323
0.0027516666 0.00084666669 -0.00013716132
-0.0032455556 -0.00042333335 -0.00013716132
-0.0027516666 -0.00021166667 -0.0076050325
-0.0016227778 -0.00127 -0.0016870968
-0.00021166666 0.00127 -0.00041896777
0.0014111111 0.00127 -0.002180258
0.0015522222 -0.00127 -0.0014052903
0.0023283332 -7.0555558e-05 -0.0028847742
-0.0002822222 -0.00021166667 -0.0061255484
-7.055555e-05 0.00028222223 -0.0059846453
0.0033866665 -0.0011288889 -0.00027806454
0.00254 0.00127 -0.0017575484
-0.0032455556 0.00049388892 -0.0024620646
-0.00091722218 0.00084666669 -0.0025325161
0.0019755554 -0.00127 -0.0011939355
-0.0019755554 0.00127 -0.001475742
-0.00084666663 0.00070555555 -0.0025325161
-0.002046111 -0.00127 -6.6709705e-05
-0.002681111 0.00127 -0.0023916129
-0.0019755554 0.00127 -0.00048941938
-0.0022577776 -0.00127 -0.00041896777
-0.0024694444 0.00127 -0.0016166453
0.0021166666 -0.00127 -0.0014052903
0.0011288888 0.0011994444 -6.6709705e-05
-0.0021872222 -0.00021166667 -0.006548258
0.0038099999 0.00042333335 -0.00013716132
-0.0038099999 0.00028222223 -0.0013348388
-0.0028927778 0.00091722223 -0.00013716132
0.00021166666 0.00028222223 -0.0032370323
0.00077611109 -0.00127 -0.0011939355
-0.0022577776 -0.00014111112 -0.0066891615
0.0021872222 7.0555558e-05 7.4193529e-05
0.0010583333 -0.00014111112 -0.0025325161
0.0027516666 -7.0555558e-05 -0.0048574195
-0.0001411111 0.00028222223 0.0012718709
-0.0038099999 -0.00049388892 -0.00077122584
-0.00098777772 0.00127 -0.0016166453
0.0029633332 0.00028222223 -0.0024620646
0.00077611109 0.00077611109 -0.00027806454
-0.00254 -0.00127 -0.00034851616
-0.00021166666 -0.00127 -0.00091212906
0.0028222222 0.00049388892 -0.0023916129
0.00021166666 -0.0010583333 -6.6709705e-05
0.0038099999 0.000635 -0.002039355
-0.0023283332 0.00014111112 -0.004716516
-0.00042333332 -0.00127 -0.0024620646
0.0032455556 0.00127 -0.0018984517
0.0028222222 7.0555558e-05 -0.007323226
-0.0021872222 -0.00028222223 -0.0026029679
-0.0031044444 -0.0010583333 -6.6709705e-05
-0.0031044444 0.00056444446 -0.00027806454
0.0022577776 7.0555558e-05 -0.0067596128
-0.00035277777 -0.00056444446 -0.00027806454
-0.00254 0.00021166667 3.7419122e-06
0.002681111 0.00127 -0.0016166453
0.0019755554 0.000635 -0.0024620646
-0.00127 0.00127 -0.00048941938
-0.00035277777 -7.0555558e-05 -0.0025325161
-7.055555e-05 0 0.0021877419
0.0035277777 -0.0010583333 -0.0021098065
0.0024694444 0.00028222223 -0.0058437418
-0.0037394443 -0.00084666669 -0.0018984517
0.0027516666 -0.00014111112 0.0014127742
-0.0002822222 7.0555558e-05 -0.0052096774
-0.002681111 0.00127 -0.00063032261
0.0030338888 -7.0555558e-05 -0.0025325161
-0.00042333332 -0.00127 -0.0023211613
-0.0038099999 0.00035277777 -0.0007007742
0.002046111 0.00084666669 -0.00013716132
0.00127 -0.00127 -0.00077122584
0.00084666663 0.00127 -0.00048941938
-0.0032455556 0 -6.6709705e-05
0.00070555555 0.00098777784 -0.0025325161
-0.0022577776 -0.00127 -0.0023211613
0.00049388886 0.00084666669 -0.00020761293
0.0038099999 -0.00056444446 -0.0018280001
-0.0001411111 0.00021166667 0.0021877419
-7.055555e-05 0.00127 -0.002039355
7.055555e-05 -0.00028222223 0.0010605161
-0.0027516666 -0.00028222223 0.00077870965
-0.0023283332 -0.00127 -0.00027806454
-0.0016933333 -0.00127 -0.0016870968
-0.0011288888 -0.00042333335 -0.00013716132
0.0035277777 0.00084666669 -0.00013716132
0.00127 -0.0010583333 -6.6709705e-05
-0.0023988888 0.00127 -0.0016166453
0.0036688887 -0.00098777784 -0.00020761293
-0.00127 0.00028222223 -0.0025325161
-7.055555e-05 -0.00014111112 -0.0080277417
0.00049388886 -0.00042333335 -6.6709705e-05
-0.00021166666 -0.00028222223 -0.0057028388
-7.055555e-05 -0.00127 -0.0016870968
7.055555e-05 -0.00091722223 -6.6709705e-05
0.00091722218 0.00127 -0.00077122584
-7.055555e-05 -0.00021166667 -0.0077459356
0.00254 0.00035277777 -0.0062664519
-0.0001411111 -0.00028222223 -0.0077459356
-0.0028222222 -7.0555558e-05 0.00077870965
0.0023283332 0.00028222223 -0.0043642581
-0.0027516666 -0.00021166667 0.0020468386
0.00254 0.00049388892 -0.0024620646
-0.0022577776 -7.0555558e-05 -0.003096129
0.0024694444 0.00028222223 -0.0075345808
0.0037394443 0.00098777784 -0.00041896777
-0.0038099999 -0.00021166667 -0.0016166453
-0.0014816666 -0.0010583333 -0.00013716132
0.00091722218 0.00127 -0.0023211613
-0.002681111 -0.00035277777 0.0012014194
0.0002822222 -0.00021166667 0.00014464514
0.0028222222 0.00014111112 -0.0038006452
-0.0033161109 -0.00077611109 -0.0024620646
0.002681111 0.00091722223 -6.6709705e-05
-0.001905 0.00091722223 -0.0024620646
0.0005644444 -0.00098777784 -6.6709705e-05
-0.0038099999 0.000635 -0.0013348388
-0.0028927778 0.0010583333 -0.00013716132
-0.0002822222 0.00127 -0.0014052903
-0.0002822222 -0.00014111112 -0.007323226
0.00127 -0.00014111112 -6.6709705e-05
7.055555e-05 0.0010583333 -0.0025325161
-0.0030338888 -0.00014111112 -6.6709705e-05
-0.000635 0.00056444446 -0.00027806454
0.0023988888 0.00028222223 -0.004575613
-0.0021872222 -0.00127 -0.0023916129
0.0002822222 -0.00014111112 -0.0039415485
0.0015522222 -0.00127 -0.00063032261
-0.0035983333 -0.00077611109 -0.00027806454
0.0026105554 -0.00021166667 -0.0063369032
0.00021166666 0.00028222223 0.00091961288
-0.001905 0.00127 -0.0014052903
0.0037394443 0.00077611109 -0.0023211613
0 -0.00028222223 3.7419122e-06
0.0030338888 -0.00035277777 -6.6709705e-05
-0.0032455556 0.0011288889 -0.00055987097
-0.000635 -0.00127 -0.00084167742
0.00042333332 0.00077611109 -0.00027806454
0.0028927778 0.00021166667 -0.005491484
0.00254 0.00127 -0.00027806454
-0.0014111111 -0.00127 -0.0016870968
-7.055555e-05 0.00028222223 0.00077870965
0.0024694444 0.00028222223 0.00063780643
0.0002822222 -0.00014111112 -0.006407355
0.002681111 -0.00021166667 -0.0071823224
0.0022577776 7.0555558e-05 -0.0066187098
0.0024694444 0.00127 -0.00041896777
-0.0023283332 0.00127 -0.001475742
0.00077611109 0.00127 -0.00063032261
0.0002822222 -0.00014111112 -0.0051392261
0.0023283332 0 -0.0059846453
-0.00021166666 0.00028222223 0.0018354838
-0.0026105554 -0.00035277777 -0.0060550966
-0.002681111 0.00021166667 3.7419122e-06
0.00035277777 -0.00056444446 -0.0025325161
-0.002681111 -0.00127 -0.0019689032
-0.0021166666 -0.000635 -0.00027806454
-0.0037394443 -0.00077611109 -0.00048941938
-0.0023988888 -0.00028222223 0.001624129
0.0002822222 7.0555558e-05 0.00063780643
0.0037394443 0.00098777784 -0.00084167742
-0.00098777772 0.00014111112 -0.0025325161
0.0021872222 0.00127 -0.00077122584
0.0033866665 0.00091722223 -6.6709705e-05
-7.055555e-05 -0.00021166667 0.0023990967
0.0010583333 -0.00070555555 -0.00027806454
-0.0038099999 0 -6.6709705e-05
0.0002822222 -7.0555558e-05 0.00014464514
0.0028222222 0.00077611109 -0.00027806454
0.0027516666 0.00028222223 0.0011309678
0.0015522222 0.00127 -0.0023916129
0.0018344444 -0.00077611109 -0.00027806454
-0.0022577776 -0.00028222223 0.00042645159
-0.0029633332 0.0011994444 -0.0018984517
0.0023283332 0.00127 -0.0018984517
-0.0034572221 0.00098777784 -0.00013716132
0 0.00028222223 -0.0057028388
-0.0010583333 0.00127 -0.0014052903
-0.0021872222 0.00049388892 -0.0024620646
0.002681111 0.00127 -0.00084167742
-7.055555e-05 -0.00049388892 -0.00027806454
-0.0017638889 -0.00021166667 -0.0024620646
0.0028222222 0.00028222223 -0.005632387
-0.0023988888 0.00028222223 -0.0035188387
-0.0023283332 7.0555558e-05 -0.0044347099
-0.0023283332 7.0555558e-05 -0.004716516
-0.0013405555 0.00077611109 -0.00027806454
7.055555e-05 0.00127 -0.00013716132
-0.0038099999 -7.0555558e-05 -0.00034851616
-0.0031044444 0.0011994444 -0.00091212906
-0.0030338888 -0.00127 -0.001475742
-0.0024694444 -0.00028222223 0.0018354838
-0.0016933333 0.000635 -0.00027806454
7.055555e-05 0.00028222223 -0.0053505809
0.0038099999 -0.00028222223 -0.00020761293
-0.0028927778 -0.0010583333 -0.0024620646
0.002681111 0.00035277777 -0.0059846453
-0.0031044444 -0.00049388892 -0.0024620646
-0.0038099999 -0.00035277777 -0.0015461936
0.0023988888 0.0010583333 -6.6709705e-05
-0.0031044444 7.0555558e-05 -6.6709705e-05
0.0028222222 0.00028222223 -0.0062664519
-0.0016933333 -0.00127 -0.0022507098
-0.0022577776 -7.0555558e-05 -0.0033779356
0.0038099999 0.00042333335 -0.00020761293
0.0028222222 0.00021166667 0.00063780643
-0.0024694444 -0.00035277777 -0.0066187098
0.00070555555 -0.00127 -0.00048941938
0.0023283332 -0.00021166667 -0.0046460647
0.0002822222 -0.00028222223 0.0010605161
-0.00254 -0.00035277777 -0.0064778067
-0.0021872222 0.00021166667 -6.6709705e-05
0 0.00056444446 -0.0025325161
-0.0029633332 0.0011994444 -0.00027806454
7.055555e-05 0.00028222223 0.0015536774
-7.055555e-05 0.00021166667 -0.0078163873
-0.0022577776 -0.00028222223 -0.0070414194
0.0001411111 -0.00028222223 0.0015536774
-0.0038099999 0.00056444446 -0.0016870968
-0.0030338888 0.0011994444 -0.0010530323
-0.0038099999 0.00049388892 -0.0011939355
0.00254 -0.00127 -0.0017575484
0.0023283332 -0.00014111112 0.0015536774
0.001905 -0.00084666669 -0.00020761293
-0.0018344444 0.00127 -0.00098258071
-0.0024694444 -0.0011288889 -6.6709705e-05
0.0023283332 -0.00021166667 -0.0041529033
0.00127 -0.00049388892 -0.0025325161
-0.00049388886 0.00127 -0.00091212906
-0.0023988888 -0.00035277777 -0.0067596128
0.0005644444 -0.00084666669 -0.00013716132
-0.0001411111 -0.00070555555 -0.0025325161
0.001905 0.00127 -0.0016166453
0.0001411111 -0.00021166667 0.0019763871
0.0031044444 -0.00077611109 -0.0023916129
0.0033866665 -0.0011288889 -0.0014052903
-0.0002822222 0.00014111112 -0.0031665808
0.0035277777 0.0011994444 -0.0023211613
0.0021872222 -0.00127 -0.00013716132
0.0002822222 7.0555558e-05 -0.0033779356
0.0028222222 -0.0011288889 -0.0023916129
0.0014111111 0.00077611109 -0.0024620646
0.0017638889 0.00084666669 -0.0024620646
-0.00070555555 -0.00127 -0.0011234839
-0.0032455556 0.00042333335 -6.6709705e-05
0.0029633332 -0.0011994444 -0.00055987097
0.0005644444 -0.00077611109 -0.0025325161
-0.002681111 0.00021166667 0.00056735484
0.0015522222 -0.00127 -0.00084167742
-0.0035277777 -0.0010583333 -0.0023916129
0.0027516666 -0.00014111112 -0.0031665808
0.0019755554 -0.00127 -0.00048941938
7.055555e-05 -0.00028222223 -0.0044347099
0.00098777772 -0.00042333335 -0.0025325161
-0.0002822222 -0.00021166667 -0.0031665808
0.0033866665 0.00042333335 -0.00013716132
0.0002822222 0.00014111112 7.4193529e-05
-0.00042333332 0.00127 -0.00084167742
0.00091722218 0.00127 -0.00063032261
-0.0021872222 0.00084666669 -0.00020761293
0.0038099999 0.00014111112 -0.00034851616
0.0018344444 0.00127 -0.00084167742
0.00254 -0.00021166667 -0.0066187098
0.0022577776 0.00028222223 -0.007464129
-0.0033161109 0.0011288889 -0.0011234839
-0.0018344444 -0.00127 -0.0018280001
-0.0023988888 0.00028222223 0.0014832258
-0.0028222222 -0.00127 -0.0022507098
0.0001411111 0.00127 -0.00013716132
-0.0015522222 -0.00127 -0.0010530323
0.0024694444 0.00028222223 -0.0071823224
-0.0022577776 -0.00028222223 -0.0028143227
0.0034572221 -0.0010583333 -0.00098258071
-0.00077611109 -0.00127 -0.0011234839
-0.002681111 0.00056444446 -0.0024620646
0.0001411111 -0.00042333335 -0.00020761293
0.0038099999 -0.00021166667 -0.00091212906
0.00084666663 0.00021166667 -0.0025325161
-0.0002822222 0.00028222223 -0.0047869678
0.002681111 -0.00014111112 -0.0060550966
-0.0035277777 -0.00014111112 -0.0024620646
0.0002822222 0 -0.0033074839
0.0022577776 -0.00042333335 -0.00027806454
0.0028927778 0.0010583333 -0.0023916129
-0.0011288888 -0.00127 -0.00084167742
0.0002822222 0.00014111112 3.7419122e-06
-0.0023283332 0.00014111112 -0.007323226
-0.0038099999 7.0555558e-05 -0.00027806454
-0.0024694444 0.00021166667 -0.0066891615
0.00070555555 0.00028222223 -0.0025325161
0.0037394443 -0.00091722223 -0.0014052903
0.002681111 0.00035277777 -0.0057732905
0.002681111 0.00035277777 0.00091961288
-0.0005644444 0.0011994444 -6.6709705e-05
0.0031044444 -0.00021166667 -0.0024620646
-0.0024694444 0.00021166667 -0.0076754838
0.0028222222 0.00014111112 -0.005632387
0.00021166666 -0.00021166667 0.0021172904
-0.0014816666 -0.00127 -0.0011234839
0.00254 -0.00021166667 -0.0031665808
-0.0021872222 0.00028222223 -0.0024620646
-0.0014816666 -0.00127 -0.0023211613
0.0028222222 0.00077611109 -0.0023916129
-0.0026105554 -0.00042333335 -0.00020761293
-0.0033161109 0.00042333335 -0.0024620646
-0.0035983333 -0.00084666669 -0.00013716132
0.00091722218 0.00035277777 -0.0025325161
0.00021166666 0 0.0020468386
0.00084666663 0.00035277777 -6.6709705e-05
-0.0033866665 -0.0011994444 -0.0017575484
0.0022577776 -7.0555558e-05 -0.0025325161
-7.055555e-05 -7.0555558e-05 0.0023990967
-0.0021872222 -0.000635 -0.00027806454
-0.0035983333 -0.0011288889 -0.00055987097
-0.0037394443 -0.00084666669 -0.00013716132
-0.0019755554 0.00127 -0.0023211613
-0.0038099999 -0.00014111112 -0.00098258071
0.002046111 0.00127 -0.0023916129
0.0011994444 0.00127 -0.00098258071
0.0037394443 -0.00070555555 -0.0011939355
0.00077611109 0.00127 -0.00091212906
-0.0029633332 0.00084666669 -0.00013716132
-0.00042333332 0.00042333335 -0.0025325161
-0.0032455556 -0.00127 -0.00048941938
-0.0001411111 -0.00127 -0.0023916129
0.001905 0.0011994444 -6.6709705e-05
-0.0021166666 -0.00084666669 -0.00013716132
0.0030338888 0.00056444446 -0.0023916129
0.0023283332 -0.00021166667 -0.005632387
0.0035277777 0.0011288889 -0.00055987097
-0.0019755554 -0.00127 -0.0014052903
0.0023283332 7.0555558e-05 0.0019763871
-0.00127 0.00127 -0.00027806454
-0.0026105554 0.00021166667 -0.0049278708
0.0027516666 0.00127 -0.0014052903
-0.0023988888 0.00127 -0.00077122584
0.00021166666 0.00084666669 -0.0025325161
0.0013405555 -0.0011288889 -0.0023916129
-0.00254 -0.00035277777 -0.0053505809
0.00042333332 0.00035277777 -6.6709705e-05
0.0037394443 0.00084666669 -0.0011234839
0.0038099999 0.00042333335 -0.0011939355
0.002681111 -0.00014111112 -0.0046460647
0.0026105554 -0.00021166667 -0.0028847742
-0.0024694444 -0.00035277777 0.0011309678
0.0002822222 0.00084666669 -0.0025325161
0.0037394443 0.00084666669 -0.0014052903
-0.0023988888 -0.00035277777 -0.0054210322
-0.0019755554 -0.00127 -0.002039355
-0.0011994444 0.00127 -0.002039355
-0.00254 -0.00028222223 0.0019059355
-0.0028222222 -0.00127 -0.00013716132
-0.002046111 -0.00035277777 -6.6709705e-05
0.0037394443 0.00056444446 -0.00027806454
0.0023988888 -0.00014111112 -0.0042938064
0.0038099999 0.00014111112 -0.00077122584
-0.0023283332 0.00014111112 -0.0049278708
0.0026105554 -0.00021166667 -0.0066187098
0.0028222222 0.00014111112 -0.0055619357
-0.00070555555 -0.00091722223 -0.00013716132
-0.002046111 -0.00049388892 -0.00027806454
-0.00254 -0.00035277777 -0.0047869678
0.0014111111 0.00127 -0.0021098065
-0.00021166666 0.00127 -0.001475742
-0.002046111 -0.000635 -0.0024620646
0.001905 -0.00021166667 -6.6709705e-05
0.0002822222 -0.00127 -0.00091212906
-0.00127 0.00028222223 -6.6709705e-05
-0.00254 0.00127 -0.0019689032
-0.0001411111 0.00056444446 -0.0025325161
0.0021166666 -0.00127 -0.0016166453
0.0016933333 0.00127 -0.00020761293
-0.0028222222 -0.00084666669 -6.6709705e-05
0.0035277777 0.00098777784 -0.0023916129
0.0036688887 0.0010583333 -0.0019689032
-0.0011994444 0.00127 -0.0011234839
0.0036688887 -0.00098777784 -0.0017575484
0.0001411111 0.00028222223 -0.0035892904
0.0028222222 7.0555558e-05 0.0013423226
-0.0010583333 -0.00098777784 -0.0025325161
-0.0002822222 -0.00127 -0.00013716132
-0.0010583333 -0.00098777784 -0.00013716132
-0.0033866665 -0.0011994444 -6.6709705e-05
-7.055555e-05 0.00028222223 0.00091961288
0.00127 0.00077611109 -0.0024620646
-0.0018344444 -7.0555558e-05 -0.0025325161
0.0013405555 -0.00127 -0.0018984517
-0.0038099999 0.000635 -0.0011939355
0.0032455556 -0.00021166667 -0.0024620646
-0.0021872222 -0.00127 -0.0018984517
-0.00021166666 -0.00070555555 -0.0025325161
0.0019755554 0.00084666669 -0.00020761293
0.0024694444 -0.00049388892 -0.00027806454
0.0014111111 0.0011288889 -0.0023916129
0.0035277777 0.00098777784 -6.6709705e-05
0.00127 0.00127 -0.0015461936
-0.0028222222 -0.00028222223 -0.0029552258
-0.0016933333 0 -6.6709705e-05
-0.00049388886 0.00042333335 -6.6709705e-05
-0.0028222222 0 -0.0043642581
0.0037394443 0.00077611109 -0.00034851616
-0.0028222222 7.0555558e-05 0.00035599997
-0.0002822222 -7.0555558e-05 -0.0043642581
0.002046111 0.00127 -0.0010530323
-0.0002822222 0.00014111112 -0.002743871
-0.002681111 -0.00028222223 -0.004575613
0.0031044444 0.00127 -0.00034851616
0.0016227778 0.00127 -0.0010530323
-0.0010583333 -0.00084666669 -0.0025325161
0.0021872222 0.00070555555 -0.0024620646
0.00254 0.00035277777 -0.0057732905
-0.0028222222 7.0555558e-05 -0.0026734194
0.0028222222 -7.0555558e-05 -0.0069005163
0.0002822222 -7.0555558e-05 0.00028554836
0.0026105554 -0.00028222223 -0.00020761293
-0.00049388886 -0.00028222223 -0.0025325161
0.0001411111 0.00127 -0.0016870968
-0.0038099999 -0.00035277777 -0.00098258071
0.0021872222 -0.00127 -0.0023211613
0.0016227778 0.00028222223 -6.6709705e-05
0.0005644444 0.00127 -0.00077122584
0.0002822222 0.00014111112 -0.0028143227
0.0002822222 0.00021166667 0.0004969032
0.003175 0.00042333335 -0.00020761293
-0.002046111 0.00077611109 -0.0024620646
0.0023283332 0.00028222223 -0.0049983226
-0.0038099999 -0.00056444446 -0.00091212906
-0.0019755554 -0.00127 -0.0021098065
0.0005644444 -0.00127 -0.0016870968
-0.0028222222 0.00070555555 -0.00027806454
0.0023283332 -0.00014111112 -0.0057028388
-0.0022577776 -7.0555558e-05 0.0017650323
-0.0028222222 -0.00014111112 -0.007323226
0.0026105554 0.00127 -0.0018984517
-0.001905 -0.00091722223 -0.0024620646
0.0027516666 -7.0555558e-05 -0.0030256775
0.0002822222 0 -0.0063369032
-0.0002822222 -0.00014111112 0.0008491613
-0.0011994444 -0.00127 -0.0010530323
-0.0026105554 -0.0011994444 -0.0024620646
0.0018344444 -0.00035277777 -0.00013716132
-0.0018344444 0.00127 -0.002039355
-0.0027516666 0.00014111112 -0.0037301937
0.00035277777 0.0011994444 -0.0024620646
7.055555e-05 7.0555558e-05 0.0023990967
-0.0023283332 -0.00035277777 -0.0061960001
0 0.00028222223 -0.005491484
0.00042333332 0.00084666669 -0.0025325161
-0.0023283332 -0.00035277777 0.0018354838
-0.0038099999 0.00042333335 -0.0012643872
-0.00254 0.00127 -0.0013348388
-0.0023283332 0.00021166667 0.00021509675
0.0028222222 0 0.00063780643
0.0028927778 0.00021166667 -0.0039415485
-0.0013405555 0.00127 -0.00077122584
-0.0038099999 -0.000635 -0.0015461936
0.0017638889 0.00127 -0.00077122584
-0.00254 0.00021166667 -0.0049983226
0.0011994444 -0.00070555555 -0.00027806454
0.0022577776 -0.00021166667 -0.0024620646
-0.0037394443 -0.00070555555 -0.00091212906
0.0038099999 -0.00021166667 -0.0023211613
0.000635 0.0011994444 -0.0023916129
0.0021166666 0.00127 -0.002039355
-0.0018344444 -0.00127 -0.00034851616
0.0038099999 -0.00042333335 -0.00020761293
-0.0016227778 0.00127 -0.00013716132
0.0027516666 0.00035277777 -0.0025325161
0 0.00077611109 -0.0025325161
0.00042333332 0.00098777784 -6.6709705e-05
0.0028927778 0.00021166667 0.00070825807
0.0018344444 0.00098777784 -0.0023916129
-0.0002822222 -7.0555558e-05 0.00042645159
0.0002822222 -0.00028222223 -0.0049278708
0.0038099999 0.00035277777 -0.00084167742
0.0028222222 0.00021166667 -0.0054210322
0.00254 -0.00028222223 -0.00013716132
0.0016933333 0.00127 -0.0022507098
0.0037394443 0.00091722223 -0.00027806454
0.0011994444 0.00127 -0.0018280001
0.002046111 -0.00127 -0.0022507098
0.001905 0.00127 -0.0023211613
-0.0038099999 0.00035277777 -0.00048941938
0.0026105554 0.00028222223 -0.0076754838
-0.0028222222 0.00035277777 -0.0024620646
0.0002822222 0.00014111112 -0.0066187098
-0.0038099999 0.00049388892 -0.0017575484
0.0034572221 0.00070555555 -0.0023916129
-0.0021872222 0.00084666669 -6.6709705e-05
0.0038099999 0.000635 -0.00098258071
0.002681111 0 0.0021172904
0.0028222222 0.00014111112 -0.0051392261
0.00035277777 0.00070555555 -0.0025325161
-0.0023988888 0.0011994444 -0.0023916129
-0.00077611109 -0.00127 -0.0019689032
-0.0031044444 0.00042333335 -6.6709705e-05
-0.0015522222 -0.00127 -0.00091212906
0.0011994444 -0.00014111112 -0.0025325161
-0.00077611109 0.00127 -0.002180258
-0.0034572221 -0.000635 -0.0024620646
-0.0014816666 -0.00127 -0.0011939355
-0.0035983333 -0.00070555555 -0.0024620646
-0.0001411111 -0.00127 -0.00098258071
-0.0005644444 -0.00077611109 -0.0025325161
-0.0001411111 -0.00127 -0.0018984517
-0.0002822222 -7.0555558e-05 -0.0033074839
0.0029633332 -0.0011994444 -0.0014052903
7.055555e-05 0.00028222223 -0.0034483871
-0.0013405555 0.00084666669 -0.00020761293
0.0018344444 0.00084666669 -0.00013716132
-0.00077611109 -0.00084666669 -0.00013716132
-0.0024694444 0.00091722223 -0.0024620646
-0.0010583333 0.00127 -0.00098258071
0.0027516666 0.00028222223 -0.0060550966
0.0022577776 7.0555558e-05 0.00077870965
-0.0002822222 0.00028222223 -0.0035188387
-0.0022577776 -0.00014111112 -0.003096129
-0.0016227778 0.00028222223 -0.0024620646
-0.00254 -0.00035277777 -0.006407355
-0.0038099999 0.00056444446 -0.002180258
-0.0016933333 0.00049388892 -0.00027806454
-0.0002822222 -0.00042333335 -0.00013716132
-0.0037394443 -0.00091722223 -0.0016166453
0.0038099999 -0.000635 -0.0016870968
0.0029633332 0.00127 -0.0022507098
-0.0038099999 0.00042333335 -0.00034851616
0.0002822222 0.00021166667 0.0014127742
0.0038099999 -7.0555558e-05 -0.00034851616
0.0038099999 0.00056444446 -0.0016166453
0.0024694444 0.00028222223 -0.0057732905
-0.0032455556 0.00084666669 -0.00020761293
0.0024694444 -0.00127 -0.0016870968
0.0002822222 0.00014111112 -0.0041529033
-0.0038099999 0.00014111112 -0.0014052903
0.0029633332 0.00014111112 -0.0025325161
-0.0034572221 0.00056444446 -0.0024620646
-0.0024694444 0.0011288889 -0.0023916129
-0.0023988888 -0.00035277777 -0.0075345808
-0.0001411111 0.00028222223 -0.0045051612
-0.00091722218 -0.00127 -0.0024620646
-0.0024694444 -0.00084666669 -0.00020761293
-0.00042333332 0.00127 -0.0022507098
0.0002822222 0.00035277777 -6.6709705e-05
0.0019755554 -0.0010583333 -0.00013716132
-0.0023988888 -0.00049388892 -0.00027806454
0.0037394443 -7.0555558e-05 -0.0024620646
-0.0027516666 0.00021166667 -0.0069005163
0.0023283332 0 -0.0057028388
-0.0026105554 -0.00035277777 -0.0029552258
-0.0001411111 -7.0555558e-05 -0.0080277417
-0.0016933333 -0.00127 -0.0012643872
0.00254 -0.00056444446 -0.0024620646
0.0013405555 0.00127 -0.00063032261
0.000635 0.00091722223 -0.00013716132
-0.0014111111 0.00127 -0.0018984517
0.0023283332 0.00028222223 -0.0044347099
0.002681111 -0.0011288889 -0.0023916129
-0.0015522222 -0.00049388892 -0.00027806454
-0.0017638889 -0.00014111112 -6.6709705e-05
0.0028222222 7.0555558e-05 -0.0026734194
0.0028927778 0.00127 -0.0014052903
0.0014111111 -0.00127 -0.0022507098
-0.0022577776 -0.00014111112 -0.0052801291
-0.0011994444 7.0555558e-05 -6.6709705e-05
-0.0018344444 0 -6.6709705e-05
-0.0028222222 0.00021166667 -6.6709705e-05
