# .PCD v0.7 - Point Cloud Data file format
VERSION 0.7
FIELDS x y z
SIZE 4 4 4
TYPE F F F
COUNT 1 1 1
WIDTH 1457
HEIGHT 1
VIEWPOINT 0 0 0 1 0 0 0
POINTS 1457
DATA ascii
0.0219 0 -0.0029200001
0.0219 0.000635 -0.00049333338
0.0015 -0.0003175 -0.0050433334
0.0276 0.0003175 -0.00019000002
-0.0165 -0.0003175 -0.0065600001
-0.024 -0.00127 -0.00049333338
-0.0114 -0.00127 -0.0011
0.003 -0.0003175 -0.00019000002
-0.0129 -0.00127 -0.0023133333
-0.024 0 -0.0035266667
-0.0114 -0.0003175 -0.0050433334
-0.021600001 -0.00127 -0.0023133333
0.037799999 -0.000635 -0.0020099999
-0.018300001 -0.00127 -0.0023133333
0.0114 0 0.00041666665
0.0114 0.0003175 -0.00019000002
0.0228 -0.000635 -0.00049333338
0.0087000001 0.000635 -0.00049333338
0.016799999 0 -0.0074700001
-0.00060000003 0.00095249998 -0.0023133333
0.0162 0.000635 -0.0023133333
0.0066 0.0003175 -0.0041333335
0.0063 0.00127 -0.0023133333
0.024 0.0003175 0.0019333333
-0.0165 0 -0.0068633333
-0.0038999999 0.0003175 -0.006256667
0.0015 0.0003175 -0.0068633333
0.0288 -0.00127 -0.00019000002
0.021600001 -0.0003175 -0.0035266667
0.0074999998 -0.00127 -0.0017066667
0.024599999 -0.00127 -0.00049333338
0.0126 -0.00127 -0.00019000002
-0.022500001 0.00095249998 -0.00019000002
-0.020400001 0.000635 -0.0023133333
-0.035100002 -0.00127 -0.00049333338
-0.0081000002 0.0003175 -0.0023133333
0.003 0.00127 -0.00049333338
0.0038999999 0.0003175 -0.0026166667
0.0189 0.0003175 -0.00019000002
0.023700001 0 -0.00019000002
-0.034200002 0.00127 -0.00079666672
-0.0012000001 -0.00127 -0.0014033334
0.036899999 0.0003175 -0.0032233333
0.0297 -0.000635 -0.00019000002
0.031800002 -0.0003175 0.00163
-0.029999999 -0.00095249998 -0.0023133333
0.0141 -0.0003175 -0.0038300001
0.021299999 0 -0.006256667
0.028200001 0.00095249998 -0.00019000002
-0.00060000003 0.0003175 -0.00019000002
0.0057000001 -0.000635 -0.0023133333
0.0189 0.00127 -0.0011
0.035399999 -0.00127 -0.0023133333
-0.0207 -0.00127 -0.0023133333
0.022500001 -0.00127 -0.0017066667
0.0231 -0.00127 -0.0017066667
0.029999999 -0.00127 -0.00019000002
0.0165 -0.0003175 -0.0074700001
-0.0135 -0.00127 -0.0020099999
0.0198 -0.00127 -0.0017066667
0.0083999997 0.0003175 -0.00019000002
-0.027899999 -0.00127 -0.0023133333
-0.026699999 0.0003175 -0.0041333335
0.031800002 0.00127 -0.00049333338
0 0.0003175 -0.00019000002
0.032699998 -0.00095249998 -0.00019000002
-0.021600001 -0.0003175 0.00163
0.021299999 0 -0.0044366666
0.0035999999 0 0.0019333333
-0.035100002 -0.00127 -0.0017066667
-0.00089999998 0.000635 -0.0023133333
-0.017100001 0.000635 -0.0023133333
0.0024000001 -0.0003175 -0.00019000002
0.0108 -0.00127 -0.0020099999
-0.021600001 -0.0003175 -0.0068633333
0.0207 -0.000635 -0.00049333338
0.0063 0 -0.0038300001
0.0035999999 -0.00127 -0.0023133333
-0.021299999 0 0.00072000001
-0.0297 -0.00127 -0.00049333338
-0.0035999999 -0.0003175 -0.0026166667
-0.025800001 -0.00127 -0.0011
-0.026699999 0 -0.0071666669
0.026699999 0 -0.0053466666
-0.025800001 -0.0003175 -0.0023133333
0.0138 0 -0.0056500002
-0.0089999996 -0.0003175 0.00041666665
-0.00030000001 0.0003175 -0.0023133333
-0.0165 0 -0.0026166667
0.036600001 0 -0.0071666669
0.023399999 -0.000635 -0.0023133333
-0.0033 -0.00127 -0.00049333338
-0.021 0.00095249998 -0.0023133333
0.017999999 -0.00127 -0.00019000002
0.0024000001 0.00127 -0.0011
-0.0189 0.00127 -0.0020099999
0.022500001 -0.00095249998 -0.00019000002
0.0038999999 0.0003175 0.00072000001
-0.0153 0.0003175 -0.0023133333
0.0038999999 0 0.00041666665
-0.0228 0.00095249998 -0.00019000002
0.017100001 -0.0003175 -0.00019000002
0.033300001 0.00127 -0.00019000002
-0.0231 0 -0.00019000002
0.003 0.00127 -0.00079666672
0.0020999999 -0.00127 -0.0023133333
-0.0071999999 0 -0.0023133333
0.024 -0.0003175 -0.0044366666
-0.0144 -0.00127 -0.0011
0.0057000001 0.000635 -0.00049333338
-0.0048000002 0.00095249998 -0.00019000002
-0.0231 0.0003175 -0.0023133333
0.027000001 0.00127 -0.0023133333
0.0261 0.00127 -0.00079666672
0.0033 0.00127 -0.0020099999
0.0243 -0.00127 -0.0020099999
-0.0012000001 0 -0.0044366666
0.021299999 0 -0.0059533333
0.0087000001 0.000635 -0.0023133333
-0.0015 -0.00127 -0.0017066667
-0.024599999 -0.00127 -0.0023133333
0.034200002 0.0003175 0.00011333331
0.0111 -0.0003175 -0.00019000002
-0.0098999999 -0.00127 -0.0023133333
-0.0129 0 -0.0023133333
0.0089999996 -0.00095249998 -0.0023133333
0.0165 0.0003175 -0.0074700001
0.0012000001 -0.0003175 -0.006256667
0.0012000001 0 -0.0041333335
0.0063 0 -0.006256667
0.024900001 -0.00127 -0.00019000002
0.0038999999 -0.0003175 -0.0050433334
0.0012000001 0 0.0013266667
-0.0038999999 0 -0.0047400002
0.0087000001 0 0.00163
0.0207 -0.00095249998 -0.0023133333
-0.0165 -0.0003175 -0.0032233333
-0.0264 0 -0.0029200001
-0.0309 0.00127 -0.00019000002
-0.0114 0.000635 -0.0023133333
-0.019200001 0.0003175 -0.0035266667
-0.033 0.000635 -0.00019000002
-0.034200002 0.000635 -0.0023133333
-0.0012000001 0.0003175 0.0013266667
-0.035999998 0.00127 -0.00079666672
-0.0074999998 0 -0.0023133333
0.023700001 -0.0003175 -0.00019000002
0.031500001 0 -0.0038300001
-0.021299999 0 0.00163
0.036899999 0.0003175 -0.006256667
-0.0096000005 -0.00127 -0.0014033334
-0.0063 0.00127 -0.0020099999
-0.032099999 -0.000635 -0.0023133333
0.024900001 -0.00127 -0.00049333338
-0.017100001 -0.000635 -0.00049333338
-0.0261 0 -0.0023133333
-0.0015 0 -0.0035266667
-0.022500001 0.00127 -0.00049333338
0.0038999999 0.00095249998 -0.00019000002
-0.033300001 -0.00127 -0.0011
-0.0087000001 0.00127 -0.00049333338
0.0306 -0.0003175 -0.0023133333
-0.034499999 0 -0.0026166667
-0.0089999996 0 -0.0077733332
0.0306 0.00095249998 -0.0023133333
-0.037799999 -0.000635 -0.00019000002
-0.0089999996 0.000635 -0.00049333338
-0.021 0.0003175 -0.00019000002
0.0038999999 -0.0003175 -0.0029200001
0.00060000003 0 -0.0023133333
0.0261 -0.00127 -0.00019000002
-0.0038999999 0 0.0013266667
-0.0165 -0.0003175 -0.0041333335
0.0066 0.0003175 0.0013266667
0.035399999 -0.0003175 -0.00019000002
0.019200001 0.0003175 -0.0035266667
-0.0114 0.00127 -0.0017066667
0.00089999998 0.00095249998 -0.0023133333
-0.032400001 -0.00127 -0.00079666672
0.0147 -0.00127 -0.0023133333
0.024 0 0.00041666665
0.0243 0.000635 -0.00049333338
-0.0162 -0.0003175 -0.0023133333
0.0093 0.00127 -0.0014033334
-0.017999999 -0.00127 -0.00019000002
-0.023399999 -0.00127 -0.00019000002
0.0066 -0.00095249998 -0.0023133333
-0.031199999 -0.00127 -0.00079666672
-0.0222 0.00127 -0.0014033334
-0.0063 0.0003175 -0.0032233333
0.0273 0.00127 -0.00019000002
-0.0153 -0.000635 -0.00049333338
0.0141 -0.0003175 0.0013266667
-0.00030000001 0.00127 -0.0017066667
-0.037799999 -0.0003175 -0.00079666672
-0.0141 0.0003175 -0.0068633333
-0.024900001 -0.00095249998 -0.0023133333
0.026699999 0.00127 -0.00079666672
0.017100001 0.00127 -0.00049333338
-0.0066 -0.0003175 0.0010233333
0.034200002 -0.0003175 -0.00019000002
-0.0189 0.0003175 0.00011333331
0.0165 -0.0003175 -0.0047400002
-0.0066 -0.0003175 -0.0047400002
-0.0096000005 0 -0.00019000002
-0.0294 -0.00127 -0.00079666672
0.0105 -0.00127 -0.00079666672
0.0018 0.0003175 -0.0023133333
-0.0189 -0.0003175 -0.0038300001
-0.0024000001 -0.00095249998 -0.0023133333
0.0141 -0.0003175 0.00011333331
-0.0066 -0.0003175 -0.0026166667
0.031199999 -0.00095249998 -0.00019000002
0.020400001 0.000635 -0.00049333338
0.026699999 -0.0003175 -0.0026166667
0.0153 -0.00127 -0.0011
-0.015 0.00095249998 -0.00019000002
-0.031500001 0.00127 -0.00019000002
0.0243 -0.00127 -0.00019000002
-0.00030000001 -0.00127 -0.0017066667
-0.0012000001 0 -0.0065600001
0.016799999 -0.00127 -0.0011
0.0087000001 0.00127 -0.00019000002
0.018300001 -0.00127 -0.00019000002
-0.026699999 0.0003175 -0.006256667
0.0363 -0.00127 -0.0023133333
0.028200001 -0.00127 -0.0017066667
-0.0035999999 0 0.0013266667
0.0198 0.0003175 -0.00019000002
-0.012 -0.0003175 -0.0023133333
0.0273 -0.00127 -0.0020099999
-0.0207 0.00127 -0.0011
0.024 -0.00127 -0.00019000002
-0.0228 0.00127 -0.0023133333
0.003 0.0003175 -0.0023133333
0.0018 -0.00127 -0.0011
0.029100001 0 -0.0059533333
-0.0144 0.00127 -0.0020099999
0.0144 0.00095249998 -0.00019000002
0.0018 -0.00127 -0.00049333338
0.0060000001 0.000635 -0.0023133333
-0.0231 -0.00127 -0.00019000002
-0.0198 -0.00127 -0.00049333338
0.0372 -0.00127 -0.0023133333
0.036600001 0 0.0013266667
-0.00060000003 0.00127 -0.00079666672
-0.00060000003 0.00127 -0.00049333338
0.021299999 0.00095249998 -0.00019000002
-0.021600001 -0.0003175 -0.0071666669
-0.0294 0 -0.0068633333
0.0309 -0.00095249998 -0.0023133333
0.023700001 -0.00127 -0.00079666672
0.0063 -0.0003175 0.0019333333
0.033 0 -0.0023133333
-0.0054000001 -0.00127 -0.00079666672
-0.0063 -0.0003175 -0.0074700001
0.0063 0.0003175 -0.0068633333
-0.0108 -0.00127 -0.00079666672
-0.0264 -0.00095249998 -0.0023133333
-0.036600001 0 -0.0047400002
0.033300001 0.00127 -0.0020099999
-0.019200001 -0.0003175 -0.0041333335
-0.029100001 0 -0.0026166667
-0.0033 -0.00127 -0.0011
0.0087000001 0 -0.0032233333
0.0228 -0.00127 -0.0017066667
0.0012000001 -0.00127 -0.0020099999
-0.021 0.000635 -0.0023133333
0.0114 0.0003175 -0.0047400002
0.0153 -0.00127 -0.0020099999
0.032400001 0.00127 -0.0011
0.0156 0.00127 -0.0011
-0.0068999999 0.0003175 -0.0023133333
-0.0033 0.0003175 -0.00019000002
-0.0038999999 0.00127 -0.0011
-0.0074999998 0.000635 -0.00049333338
0.0089999996 0.000635 -0.0023133333
0.0228 0.00127 -0.0014033334
0.0207 0.00095249998 -0.0023133333
-0.0077999998 0.00127 -0.00049333338
0.0096000005 -0.00127 -0.00019000002
0.0087000001 0.0003175 0.00072000001
-0.015900001 -0.000635 -0.00049333338
-0.0024000001 -0.00127 -0.0011
-0.0144 0.0003175 -0.0023133333
-0.0294 0 -0.0026166667
0.0093 0 -0.0023133333
-0.0123 -0.00127 -0.0011
0.0147 -0.00127 -0.00079666672
0.00089999998 -0.00127 -0.0011
0.0372 0.00127 -0.00049333338
0.0114 -0.00127 -0.0023133333
-0.029999999 0 -0.00019000002
-0.030300001 0.000635 -0.00019000002
0.0117 0.00127 -0.00019000002
-0.0195 0.00127 -0.0014033334
-0.031199999 0.000635 -0.0023133333
0.0093 -0.00127 -0.00019000002
-0.036600001 -0.0003175 -0.0071666669
0.032400001 0 -0.00019000002
0.0024000001 -0.00095249998 -0.0023133333
-0.0162 -0.00127 -0.0017066667
-0.037799999 0 -0.0011
-0.0141 -0.0003175 0.00072000001
-0.0243 0 0.0022366666
-0.0102 0.00127 -0.0011
0.036899999 0 -0.0080766669
0.0038999999 -0.0003175 -0.0041333335
-0.0153 0.0003175 -0.00019000002
-0.036600001 0.00095249998 -0.0020099999
-0.021600001 0 0.0013266667
0.037799999 -0.00095249998 -0.00049333338
0.0077999998 0.00127 -0.00079666672
-0.033599999 0.000635 -0.00019000002
-0.0020999999 -0.00127 -0.00079666672
0.0363 0 -0.0023133333
0.0156 -0.000635 -0.00049333338
0.036600001 -0.0003175 -0.00019000002
0.021299999 -0.000635 -0.0023133333
0.0012000001 0.0003175 0.00041666665
-0.0038999999 0 -0.0059533333
-0.0243 0 -0.0029200001
0.0339 0.00095249998 -0.0023133333
-0.0114 -0.0003175 -0.0068633333
0.032099999 -0.00127 -0.0017066667
-0.0273 -0.00127 -0.0020099999
-0.0102 0.0003175 -0.00019000002
-0.029100001 -0.00127 -0.0020099999
-0.031500001 0.00127 -0.00049333338
0.031500001 0 -0.0074700001
0.0038999999 0.0003175 -0.006256667
0.0015 -0.0003175 -0.0029200001
-0.0048000002 -0.00127 -0.00049333338
0.034499999 -0.000635 -0.0023133333
-0.0138 -0.0003175 -0.0065600001
-0.0038999999 0.00095249998 -0.0023133333
-0.024 0 -0.0059533333
-0.029100001 0.0003175 0.00011333331
-0.0111 0.00127 -0.0023133333
-0.0105 0.00127 -0.00079666672
-0.031500001 0 -0.0041333335
0.0081000002 0.00127 -0.0014033334
-0.0288 -0.00127 -0.00019000002
-0.0012000001 0 -0.006256667
0.035399999 -0.00127 -0.00079666672
-0.029999999 0.00127 -0.0014033334
-0.036899999 0 -0.0041333335
-0.0243 -0.0003175 -0.0044366666
-0.017100001 0.000635 -0.00049333338
0.036600001 0 -0.0074700001
-0.0068999999 0 -0.00019000002
0.0054000001 0.000635 -0.0023133333
0.021299999 0.00127 -0.0017066667
-0.00089999998 0.00127 -0.0017066667
-0.0138 0 -0.0071666669
0.0219 -0.00127 -0.00079666672
0.00089999998 0.000635 -0.00049333338
-0.036600001 0.00095249998 -0.0023133333
-0.023700001 -0.00127 -0.0011
0.0012000001 -0.00095249998 -0.0023133333
0.036600001 0.00095249998 -0.0023133333
0.0306 -0.00127 -0.0017066667
-0.031199999 0.00127 -0.0017066667
0.0038999999 0.0003175 -0.0068633333
-0.0243 0 -0.0080766669
-0.0098999999 0.000635 -0.0023133333
-0.0102 -0.000635 -0.00049333338
-0.0074999998 -0.000635 -0.0023133333
0.0035999999 0 -0.0068633333
-0.020099999 -0.00127 -0.00079666672
-0.0012000001 -0.0003175 -0.0077733332
0.0066 0.0003175 -0.0053466666
0.0071999999 -0.000635 -0.0023133333
-0.0060000001 -0.00127 -0.0017066667
-0.0138 0.0003175 0.00011333331
0.0015 -0.000635 -0.00049333338
-0.024900001 -0.00127 -0.0020099999
-0.012 -0.00127 -0.0017066667
0.0012000001 -0.0003175 -0.0032233333
0.0068999999 0.00127 -0.00049333338
0.00089999998 -0.00095249998 -0.0023133333
-0.0051000002 -0.00127 -0.0014033334
0.0089999996 -0.0003175 0.00072000001
0.024 -0.0003175 -0.0041333335
0.0177 -0.0003175 -0.00019000002
-0.0138 0.00127 -0.00019000002
-0.012 0.00127 -0.0023133333
-0.023399999 0.00127 -0.00019000002
0.0228 0 -0.00019000002
-0.029100001 0 -0.0074700001
-0.026699999 -0.0003175 -0.0065600001
-0.0189 0 0.0019333333
-0.033300001 0 -0.0023133333
0.023399999 0.00127 -0.0023133333
0.0264 -0.000635 -0.0023133333
-0.0089999996 -0.0003175 -0.0056500002
-0.0105 -0.00127 -0.0020099999
0.0051000002 -0.00127 -0.00049333338
-0.0165 0.00095249998 -0.00019000002
-0.0306 0.0003175 -0.0023133333
-0.021600001 -0.00127 -0.0011
0.034499999 0 -0.0077733332
-0.0177 0.00127 -0.0023133333
0.0081000002 -0.00095249998 -0.00019000002
-0.036899999 0 0.00163
0.0288 -0.00127 -0.00049333338
-0.0114 -0.0003175 -0.0056500002
-0.0038999999 -0.000635 -0.00049333338
0.0222 0.00127 -0.0011
0.0015 -0.00127 -0.00049333338
-0.0153 0.00127 -0.0023133333
-0.029100001 -0.000635 -0.00019000002
0.0219 0 -0.0041333335
-0.019200001 0 -0.0074700001
-0.0288 -0.00127 -0.0011
-0.0063 -0.0003175 -0.0041333335
0.033300001 0.00127 -0.0011
0.0108 0.0003175 -0.0023133333
0.0081000002 -0.00127 -0.0014033334
-0.0027000001 -0.00095249998 -0.0023133333
-0.0165 0.0003175 -0.00019000002
-0.021600001 -0.0003175 -0.0029200001
0.027000001 0.000635 -0.0023133333
-0.015 -0.00127 -0.0011
-0.0372 -0.00127 -0.0017066667
0.023700001 -0.00095249998 -0.0023133333
-0.029100001 0 -0.0032233333
-0.024 -0.0003175 0.0013266667
0.0114 -0.0003175 -0.0026166667
0.0024000001 0.00127 -0.0014033334
0.0339 0.00127 -0.0023133333
0.0123 -0.00127 -0.0023133333
-0.020400001 0.0003175 -0.0023133333
0.0198 -0.00127 -0.00079666672
0.029999999 -0.0003175 -0.00019000002
0.029100001 0 0.0013266667
0.020400001 0.00127 -0.00019000002
0.0041999999 0.000635 -0.0023133333
0.0189 0.0003175 0.00163
-0.035100002 -0.00127 -0.00079666672
-0.0162 0.00127 -0.0023133333
-0.021600001 -0.00127 -0.0020099999
0.035700001 0.000635 -0.00019000002
-0.021 0.00127 -0.00079666672
0.024900001 0.00095249998 -0.00019000002
0.0033 -0.00127 -0.00079666672
0.0098999999 0.00127 -0.0023133333
-0.0174 -0.0003175 -0.0023133333
0.0207 -0.00127 -0.00079666672
0.0102 0.00127 -0.0020099999
0.029999999 0.0003175 -0.0023133333
-0.0273 0 -0.0023133333
-0.0114 -0.00127 -0.0014033334
-0.0060000001 0.00127 -0.0014033334
-0.0012000001 0.0003175 -0.0071666669
-0.0261 -0.0003175 -0.0023133333
-0.026699999 0.0003175 0.00041666665
-0.024599999 0 -0.0023133333
-0.00089999998 0 -0.00019000002
-0.0162 0.00127 -0.00019000002
-0.017100001 0.00127 -0.0011
0.0054000001 0 -0.0023133333
0.0105 0.00127 -0.00019000002
0.0243 -0.0003175 -0.0056500002
-0.037799999 0.0003175 -0.00019000002
0.017100001 0.00127 -0.0014033334
-0.0231 0.00127 -0.00079666672
0.027000001 0.00127 -0.00049333338
-0.0162 -0.00127 -0.00079666672
-0.0108 0.00095249998 -0.00019000002
0.026699999 0 -0.0038300001
0.0098999999 0.00095249998 -0.00019000002
0.0114 0.00127 -0.00019000002
0.0038999999 0 0.0022366666
0.0198 0.00127 -0.0014033334
0.0111 0.0003175 -0.00019000002
0.0219 -0.00127 -0.0011
0.00089999998 -0.00127 -0.0023133333
0.0372 -0.00127 -0.00079666672
0.0096000005 0.00127 -0.00019000002
-0.0024000001 -0.00127 -0.00049333338
-0.0015 0.0003175 -0.006256667
0.0066 0.0003175 -0.00019000002
-0.0297 -0.00095249998 -0.00019000002
0.0261 0.00095249998 -0.00019000002
0.0018 -0.00095249998 -0.0023133333
0.0114 -0.0003175 -0.0056500002
0.0038999999 -0.0003175 -0.0032233333
0.0135 0.00127 -0.0023133333
0.0138 0 0.00163
-0.021299999 0 -0.0050433334
0.0038999999 0.0003175 0.00163
0.0035999999 0.0003175 -0.0029200001
-0.0038999999 0 -0.0080766669
0.023399999 -0.00127 -0.0014033334
-0.0035999999 -0.0003175 -0.0044366666
0.0035999999 0.0003175 0.00011333331
-0.033599999 0 -0.0023133333
0.0012000001 0.0003175 -0.0026166667
0.0087000001 0 -0.0059533333
-0.0177 -0.00127 -0.0014033334
0.0261 0.00127 -0.00049333338
0.0038999999 0.0003175 -0.0074700001
0.036899999 -0.00127 -0.0014033334
-0.037500001 0.000635 -0.0023133333
0.034200002 0.00127 -0.00049333338
-0.024 0.0003175 -0.0047400002
-0.020099999 -0.000635 -0.00049333338
-0.027899999 0.000635 -0.00049333338
-0.032099999 -0.00127 -0.0017066667
-0.027899999 -0.00127 -0.00049333338
0.032699998 0.000635 -0.0023133333
0.0222 0 -0.00019000002
0.0141 0 0.0019333333
0.0243 0 -0.0041333335
0.0123 0.00127 -0.0020099999
-0.0186 -0.00127 -0.0020099999
0.0048000002 0.00127 -0.0014033334
-0.0033 0.00127 -0.0020099999
0.037799999 -0.000635 -0.0014033334
-0.029100001 0.00127 -0.00079666672
0.031500001 -0.000635 -0.0023133333
0.021 0.00127 -0.0011
-0.0093 0.000635 -0.00049333338
-0.0165 0.0003175 -0.0056500002
0.0174 -0.00127 -0.00079666672
-0.0018 0.00127 -0.0014033334
0.0096000005 0.00127 -0.00079666672
-0.0083999997 0.00127 -0.00079666672
-0.0285 -0.000635 -0.0023133333
-0.0264 -0.00127 -0.0011
-0.0096000005 -0.0003175 -0.0023133333
-0.00060000003 0.00127 -0.0014033334
0.031199999 0.00095249998 -0.00019000002
-0.0012000001 -0.0003175 -0.0029200001
0.012 -0.00127 -0.00049333338
0.023700001 0.00127 -0.0014033334
0.036899999 0 -0.0059533333
-0.0066 0.000635 -0.0023133333
-0.036899999 0.00095249998 -0.00079666672
0.021299999 0.00127 -0.00079666672
0.0138 -0.0003175 -0.0053466666
0.0138 -0.0003175 -0.0044366666
0.0083999997 0.00127 -0.0011
-0.034499999 0.00127 -0.00049333338
0.033 0.000635 -0.00019000002
0.032099999 -0.00095249998 -0.0023133333
0.026699999 -0.0003175 -0.0047400002
-0.019200001 0.00127 -0.00019000002
0.00060000003 0.00127 -0.0023133333
-0.0165 -0.00127 -0.0023133333
0.023700001 -0.00127 -0.0014033334
0.0189 -0.00127 -0.0011
-0.031199999 0 -0.00019000002
0.018300001 0.00127 -0.0014033334
0.0102 0 -0.00019000002
0.0165 0.0003175 -0.0056500002
-0.0219 0.00127 -0.0023133333
0.0297 0.00127 -0.0011
-0.036600001 -0.0003175 -0.006256667
0.0219 0.00127 -0.0011
-0.024 -0.0003175 -0.0032233333
0.0243 0.00095249998 -0.0023133333
-0.036899999 0 0.00041666665
0.015 0 -0.00019000002
-0.0186 -0.0003175 -0.0023133333
-0.021600001 0 -0.0053466666
-0.032099999 -0.00127 -0.0020099999
-0.036600001 0 -0.0071666669
-0.0141 -0.0003175 -0.006256667
-0.0066 -0.0003175 -0.00019000002
-0.015 0.000635 -0.0023133333
-0.035700001 0.0003175 -0.00019000002
0.0198 0.00095249998 -0.0023133333
-0.0189 -0.00127 -0.0020099999
0.0141 0 0.0022366666
-0.0141 -0.00127 -0.0023133333
0.0015 0.0003175 -0.0026166667
0.0264 0.00127 -0.0011
-0.0087000001 0.0003175 -0.006256667
-0.0114 -0.0003175 -0.0041333335
-0.0077999998 0.00095249998 -0.0023133333
0.0189 0 0.0010233333
0.022500001 0.0003175 -0.0023133333
0.0074999998 0.00127 -0.00079666672
0.0126 -0.00127 -0.00049333338
0.0288 -0.00127 -0.0017066667
0.0222 -0.00127 -0.0020099999
0.0012000001 -0.0003175 -0.0053466666
0.037799999 -0.000635 -0.0011
0.0066 -0.00127 -0.0017066667
0.034499999 0.0003175 -0.00019000002
0.00030000001 -0.00095249998 -0.00019000002
0.0252 0.00127 -0.0023133333
0.0102 0.00127 -0.0023133333
-0.0198 0.00127 -0.0017066667
0.0138 0 -0.0071666669
0.028200001 0.000635 -0.00049333338
-0.0219 -0.00127 -0.00049333338
0.00089999998 -0.00127 -0.00079666672
0.0089999996 0 -0.0026166667
-0.034200002 -0.0003175 -0.0035266667
0.0057000001 -0.00127 -0.0014033334
-0.0339 -0.00127 -0.0011
-0.0309 0.00127 -0.0023133333
0.0012000001 0.0003175 -0.0032233333
0.0264 0 0.00041666665
-0.0294 0 -0.0050433334
0.0015 -0.0003175 -0.00019000002
0.0105 0.00095249998 -0.0023133333
0.0363 -0.000635 -0.00049333338
-0.0339 0.00095249998 -0.00019000002
-0.033 0.00095249998 -0.00019000002
-0.0087000001 0.0003175 -0.0053466666
0.0111 -0.000635 -0.0023133333
-0.0153 -0.00127 -0.0020099999
-0.0186 0.000635 -0.00049333338
-0.0087000001 0.00127 -0.0023133333
0.0222 -0.00127 -0.00079666672
-0.035100002 -0.00095249998 -0.00019000002
-0.0252 0.00127 -0.0023133333
-0.0189 -0.0003175 -0.0041333335
-0.015 -0.00095249998 -0.00019000002
-0.0156 -0.00127 -0.0014033334
0.0132 0 -0.0023133333
0.0048000002 0.00127 -0.0017066667
-0.031800002 0 -0.006256667
-0.028200001 0.00127 -0.0011
-0.033599999 0.0003175 -0.0023133333
0.0138 0.0003175 -0.0026166667
0.0141 0 -0.0047400002
0.0264 0 -0.0071666669
-0.0297 0 -0.0023133333
0.0015 0.00127 -0.00049333338
-0.0231 0.00127 -0.00049333338
0.0297 0.000635 -0.0023133333
0.0066 0.0003175 -0.0038300001
-0.024599999 0.00095249998 -0.00019000002
-0.017100001 0.00127 -0.00049333338
-0.032400001 -0.00127 -0.0020099999
0.035700001 0.00095249998 -0.00019000002
0.0165 0.00127 -0.0011
0.034200002 0.00095249998 -0.0023133333
0.0309 0.000635 -0.00019000002
-0.0255 0 -0.00019000002
-0.0195 -0.000635 -0.00049333338
0.0063 -0.0003175 -0.0029200001
0.0231 0 -0.00019000002
0.021 -0.0003175 -0.00019000002
-0.033599999 0.00127 -0.00049333338
0.0102 0 -0.0023133333
-0.0093 0.00095249998 -0.00019000002
0.0156 0.00127 -0.0017066667
0.0132 -0.00127 -0.0011
0.0063 0.0003175 0.0013266667
0.0165 0 0.00041666665
0.036899999 0 0.0019333333
-0.0105 0 -0.0023133333
0.0033 0.0003175 -0.00019000002
0.027000001 0.00127 -0.0020099999
-0.0348 0.000635 -0.0023133333
0.015 -0.0003175 -0.0023133333
-0.032400001 0.00127 -0.0011
-0.034200002 -0.0003175 0.00041666665
0.0141 0 -0.0065600001
-0.0372 -0.00095249998 -0.0023133333
0.024 -0.0003175 -0.0059533333
0.026699999 -0.0003175 -0.0068633333
-0.0165 -0.00127 -0.0017066667
-0.0252 0.00127 -0.00079666672
0.0035999999 0.0003175 -0.0047400002
0.0093 0.00127 -0.00019000002
-0.0288 0.000635 -0.0023133333
-0.037799999 0.0003175 -0.0020099999
0.024 0.00127 -0.0011
0.031500001 0.00127 -0.0023133333
-0.0129 -0.00127 -0.00079666672
0.0051000002 -0.00127 -0.00019000002
-0.0044999998 -0.000635 -0.0023133333
0.003 0.00095249998 -0.0023133333
-0.012 -0.00127 -0.00049333338
0.0098999999 -0.000635 -0.00049333338
-0.0041999999 0.00127 -0.0020099999
-0.0198 -0.00127 -0.0014033334
0.0038999999 0.00127 -0.00079666672
0.0207 -0.000635 -0.0023133333
-0.0068999999 -0.000635 -0.00049333338
0.028200001 0.00127 -0.0023133333
0.020099999 0.00095249998 -0.00019000002
-0.0129 0.00095249998 -0.00019000002
0.0102 0.0003175 -0.0023133333
0.0231 -0.00127 -0.0023133333
0.019200001 0.0003175 -0.0053466666
0.024599999 0 -0.00019000002
-0.035399999 0.000635 -0.0023133333
0.032099999 0 -0.0059533333
0.0035999999 -0.000635 -0.00049333338
-0.0147 0.00127 -0.00049333338
0.0156 0.00127 -0.00079666672
-0.0261 -0.00127 -0.0020099999
-0.0087000001 0 -0.0071666669
0.0294 -0.00127 -0.00019000002
-0.0219 0.00127 -0.0014033334
-0.016799999 -0.00127 -0.0023133333
-0.0063 0.00127 -0.00049333338
-0.0138 -0.0003175 0.00011333331
0.0048000002 0 -0.0023133333
-0.0306 -0.0003175 -0.00019000002
-0.0089999996 0.0003175 -0.0041333335
-0.037500001 0.000635 -0.00049333338
-0.0105 -0.00127 -0.00049333338
-0.0111 0.000635 -0.00049333338
0.0174 -0.00127 -0.0011
-0.0033 -0.000635 -0.0023133333
-0.0038999999 0.00095249998 -0.00019000002
-0.035999998 0.00127 -0.0011
-0.031800002 -0.000635 -0.00019000002
-0.0255 -0.00095249998 -0.0023133333
-0.031199999 -0.00127 -0.0023133333
0.031800002 0.0003175 -0.0026166667
-0.034200002 0 0.0022366666
-0.0015 -0.0003175 0.00011333331
0.0198 -0.00127 -0.0023133333
-0.0048000002 -0.00127 -0.0020099999
0.019200001 -0.0003175 -0.0056500002
-0.0038999999 -0.00127 -0.0020099999
0.0105 -0.000635 -0.0023133333
-0.0035999999 0 0.00163
0.034200002 -0.0003175 -0.006256667
0.0228 -0.0003175 -0.00019000002
-0.0261 -0.00127 -0.00019000002
0.022500001 -0.00095249998 -0.0023133333
-0.028200001 0.00127 -0.00019000002
0.015 0 -0.0023133333
-0.0038999999 -0.0003175 -0.0041333335
0.017100001 0.00095249998 -0.00019000002
0.0264 0.0003175 -0.0023133333
0.016799999 0 -0.0065600001
0.0255 -0.00127 -0.0017066667
0.0063 -0.00127 -0.0014033334
-0.0027000001 -0.000635 -0.00049333338
0.0015 0.00127 -0.0014033334
0.0207 0.000635 -0.00049333338
-0.023399999 -0.000635 -0.0023133333
-0.031500001 0 -0.0044366666
0.0198 -0.00127 -0.0020099999
0.0231 -0.000635 -0.00049333338
-0.0141 0.0003175 -0.0026166667
-0.024599999 0.00095249998 -0.0023133333
0.0129 0.00127 -0.0020099999
-0.0020999999 -0.000635 -0.0023133333
0.034200002 0.0003175 -0.0035266667
0.0038999999 -0.00127 -0.0017066667
0.0138 -0.00127 -0.0017066667
0.0108 -0.00095249998 -0.00019000002
-0.0132 0.00095249998 -0.0023133333
-0.024599999 0.000635 -0.0023133333
0.0222 -0.00127 -0.0023133333
0.0012000001 0 -0.0032233333
-0.020400001 0 -0.00019000002
0.024 0.0003175 -0.006256667
-0.0105 -0.00095249998 -0.00019000002
-0.0141 0.0003175 -0.0053466666
0.0111 0.00127 -0.0017066667
0.0189 -0.00095249998 -0.0023133333
-0.0243 0.0003175 -0.0071666669
0.0147 0 -0.0023133333
-0.016799999 0 -0.0068633333
-0.0077999998 0.00127 -0.0023133333
0.0063 0 -0.0059533333
-0.0348 -0.000635 -0.00019000002
0.0195 -0.00127 -0.0020099999
-0.0089999996 0 -0.006256667
0.036899999 0.0003175 -0.0059533333
0.015900001 0.00127 -0.0023133333
0.0261 -0.0003175 -0.0023133333
0.0074999998 -0.000635 -0.0023133333
0.0177 0.000635 -0.0023133333
-0.0071999999 0.00127 -0.0017066667
-0.0018 0.0003175 -0.00019000002
0.037799999 0 -0.00079666672
-0.0123 -0.00127 -0.0014033334
-0.032099999 -0.0003175 -0.0023133333
-0.0087000001 0.0003175 -0.0065600001
-0.037500001 0.00095249998 -0.0017066667
-0.036899999 0 -0.0056500002
-0.0141 0 -0.0038300001
0.0012000001 0 -0.0038300001
0.0077999998 -0.00127 -0.0014033334
-0.0153 -0.0003175 -0.0023133333
0.0264 0.00127 -0.0017066667
0.028200001 -0.00127 -0.0020099999
-0.017999999 0 -0.00019000002
0.0018 -0.000635 -0.0023133333
0.0132 -0.0003175 -0.00019000002
0.037500001 -0.00095249998 -0.0017066667
0.018300001 -0.00127 -0.00079666672
0.0138 0.0003175 0.00163
0.0276 -0.00127 -0.0023133333
-0.0035999999 0 0.00072000001
0.037500001 -0.000635 -0.00049333338
0.020400001 0.00127 -0.0014033334
-0.0060000001 0.00127 -0.00049333338
0.026699999 0 -0.0047400002
0.0138 0 -0.0038300001
0.0165 0.0003175 0.00011333331
0.0063 -0.0003175 -0.006256667
-0.034200002 0 -0.0074700001
0.017100001 -0.00095249998 -0.00019000002
0.0102 -0.00127 -0.0011
-0.0285 0.00095249998 -0.0023133333
0.030300001 -0.00127 -0.0011
0.0207 0.00127 -0.0023133333
0.029999999 0.00095249998 -0.00019000002
0.015 0.000635 -0.00049333338
-0.0063 -0.0003175 -0.006256667
0.032099999 0.000635 -0.00019000002
-0.0087000001 -0.0003175 -0.0074700001
0.035100002 -0.00127 -0.0017066667
-0.0089999996 -0.0003175 -0.0038300001
-0.0276 -0.00127 -0.0017066667
0.0038999999 0.00127 -0.00049333338
0.031199999 -0.0003175 -0.0023133333
-0.0015 0 -0.0047400002
0.0060000001 -0.000635 -0.0023133333
0.021299999 0 0.00041666665
-0.0087000001 0.00127 -0.00079666672
0.032400001 0 -0.0023133333
-0.0033 0.000635 -0.0023133333
-0.0018 -0.00127 -0.0017066667
0.0219 0.00127 -0.0014033334
-0.0141 0 0.00041666665
0.0074999998 0.00095249998 -0.0023133333
-0.0231 -0.00127 -0.0020099999
-0.020099999 -0.00127 -0.0011
0.0165 0.00127 -0.00049333338
-0.0087000001 -0.0003175 -0.0056500002
0.024 0.00127 -0.00019000002
-0.0098999999 0.00127 -0.00019000002
-0.034499999 0 0.0013266667
-0.026699999 -0.0003175 -0.0032233333
0.0243 0 0.00072000001
-0.032400001 0.0003175 -0.0023133333
-0.0132 -0.00127 -0.0023133333
-0.0089999996 -0.00127 -0.0014033334
0.0096000005 0.0003175 -0.0023133333
-0.016799999 0 -0.0026166667
-0.0083999997 0.000635 -0.00049333338
-0.026699999 -0.0003175 0.00011333331
-0.031800002 0 -0.0032233333
0.0048000002 0.00127 -0.0020099999
-0.003 -0.0003175 -0.00019000002
-0.0035999999 -0.0003175 -0.0059533333
0.0162 -0.00127 -0.00079666672
-0.0165 -0.00127 -0.0020099999
-0.017999999 0.00127 -0.0011
-0.0117 0 -0.0047400002
-0.0195 -0.00127 -0.00019000002
-0.0038999999 -0.00095249998 -0.00019000002
0.0162 -0.00095249998 -0.00019000002
0.0138 -0.000635 -0.0023133333
-0.024 -0.00095249998 -0.00019000002
-0.024900001 0.00127 -0.0011
0.0273 0.0003175 -0.00019000002
0.0111 0.00127 -0.00049333338
0.0138 0.0003175 0.00072000001
0.0054000001 -0.00095249998 -0.0023133333
-0.015900001 -0.00127 -0.0023133333
0.0276 0.00095249998 -0.00019000002
0.0012000001 -0.0003175 -0.0047400002
-0.012 -0.00127 -0.0011
0.0035999999 -0.00127 -0.0020099999
-0.0063 -0.0003175 -0.0044366666
0.0231 0.000635 -0.00049333338
0.029999999 0 -0.0023133333
0.024599999 -0.0003175 -0.0023133333
-0.0294 -0.0003175 0.00011333331
0.036899999 0 -0.0044366666
-0.0027000001 0.000635 -0.00049333338
0.0141 0.00095249998 -0.00019000002
-0.0048000002 0.00127 -0.0020099999
0.0063 0.0003175 -0.0065600001
-0.0012000001 -0.0003175 -0.0032233333
0.0057000001 -0.000635 -0.00049333338
-0.0071999999 0.00127 -0.00079666672
-0.0174 0 -0.0023133333
-0.0129 -0.000635 -0.0023133333
0.0255 0.00127 -0.00019000002
0.029999999 -0.00127 -0.0017066667
-0.015 -0.00127 -0.00079666672
-0.0105 0.0003175 -0.00019000002
0.0141 0 0.00041666665
-0.027899999 -0.0003175 -0.00019000002
-0.0060000001 0.00127 -0.00019000002
-0.021600001 0 -0.0035266667
0.017100001 -0.00127 -0.0017066667
0.024900001 -0.00095249998 -0.00019000002
-0.030300001 0.00127 -0.0017066667
0.0087000001 0.0003175 -0.006256667
0.021600001 -0.00127 -0.00019000002
-0.0285 0 -0.0023133333
0.0126 0.00127 -0.0014033334
-0.015 -0.00127 -0.0017066667
-0.0228 0.00127 -0.0014033334
0.00030000001 0.00095249998 -0.0023133333
0.0077999998 0.00127 -0.0023133333
0.0162 0.00127 -0.00049333338
-0.0087000001 0.0003175 0.00011333331
0.0141 0.00127 -0.0011
0.020099999 0 -0.0023133333
-0.0186 0.00127 -0.00079666672
-0.0255 0.00095249998 -0.00019000002
-0.034499999 0 -0.0041333335
-0.0309 -0.00127 -0.0020099999
-0.0294 0 0.00072000001
-0.029999999 -0.0003175 -0.00019000002
-0.0093 -0.00127 -0.0011
0.019200001 -0.0003175 0.00163
-0.015 0.00127 -0.0014033334
-0.024900001 -0.00127 -0.00019000002
0.0297 0.00127 -0.0017066667
0.026699999 0.0003175 -0.00019000002
-0.0038999999 0.0003175 -0.0047400002
-0.0114 0.0003175 -0.0065600001
-0.020400001 0.00095249998 -0.00019000002
0.0141 0 -0.0077733332
-0.0102 0.00095249998 -0.0023133333
-0.031800002 0.0003175 0.0013266667
0.0219 -0.000635 -0.00049333338
-0.031199999 0.00127 -0.00019000002
0.034200002 -0.0003175 -0.0059533333
-0.0189 0 -0.0074700001
0.0156 -0.00127 -0.0023133333
0.0035999999 0 -0.0059533333
-0.029100001 0 0.00011333331
0.016799999 0.00095249998 -0.00019000002
-0.0057000001 0.0003175 -0.00019000002
-0.0219 0.00095249998 -0.00019000002
0.033599999 0.0003175 -0.00019000002
0.0063 0.0003175 -0.0038300001
-0.029999999 -0.00127 -0.0020099999
-0.0117 0 -0.0026166667
0.030300001 0.0003175 -0.00019000002
-0.037500001 -0.00127 -0.00079666672
-0.0165 0.0003175 -0.0035266667
0.036899999 0 0.0013266667
-0.0102 0.00127 -0.0020099999
0.0261 0.00127 -0.0011
-0.0020999999 0.00127 -0.0023133333
-0.0035999999 0 -0.0053466666
-0.034200002 0 -0.0065600001
0.0089999996 0 0.0010233333
0.0041999999 0.00095249998 -0.0023133333
0.019200001 -0.00095249998 -0.0023133333
0.031800002 0.0003175 0.00072000001
-0.0153 0.00127 -0.00079666672
0.0108 -0.00127 -0.0017066667
0.018300001 -0.00127 -0.0017066667
0.021299999 0.000635 -0.00049333338
0.0038999999 0 -0.0026166667
0.00030000001 0.00095249998 -0.00019000002
0.032699998 -0.000635 -0.00019000002
-0.00060000003 0.00127 -0.0017066667
0.026699999 -0.000635 -0.0023133333
-0.0012000001 -0.0003175 0.00011333331
0.019200001 0 0.0013266667
-0.0048000002 -0.00127 -0.0017066667
-0.036600001 0 -0.0056500002
-0.032400001 -0.00127 -0.00019000002
0.0015 -0.00127 -0.00019000002
0.016799999 0.00127 -0.0011
0.0081000002 -0.00095249998 -0.0023133333
-0.0015 0 -0.0026166667
0.023399999 -0.00095249998 -0.00019000002
-0.037500001 -0.00127 -0.0011
-0.0063 -0.00127 -0.00079666672
-0.00089999998 -0.000635 -0.00049333338
-0.0294 0 -0.0041333335
-0.0138 0 0.0013266667
-0.0228 -0.00095249998 -0.0023133333
0.0261 -0.0003175 -0.00019000002
-0.034499999 0 -0.0038300001
-0.024 0.0003175 -0.0068633333
-0.0096000005 0.000635 -0.00049333338
0.035100002 0.00127 -0.0017066667
0.0057000001 0.00127 -0.0014033334
0.035399999 0.00127 -0.0011
0.0105 -0.00127 -0.00049333338
0.018300001 0.00127 -0.0023133333
-0.029100001 0 -0.0077733332
-0.0129 -0.00127 -0.0011
0.0051000002 0.00127 -0.0017066667
-0.0363 -0.00095249998 -0.00019000002
-0.0219 -0.00095249998 -0.0023133333
-0.0222 0.00127 -0.00019000002
-0.0141 -0.00127 -0.0017066667
-0.0273 0.00095249998 -0.00019000002
0.029100001 0 -0.0044366666
-0.0087000001 -0.0003175 0.00072000001
0.00089999998 -0.00127 -0.00049333338
-0.019200001 0 -0.0026166667
0.0153 0.00127 -0.00049333338
0.0024000001 -0.00127 -0.0014033334
-0.0117 -0.000635 -0.0023133333
-0.019200001 -0.0003175 0.0013266667
-0.0243 -0.0003175 -0.0068633333
0.019200001 0.0003175 -0.0026166667
0.0096000005 0.000635 -0.00049333338
-0.035999998 -0.00127 -0.0011
-0.024 0 0.0019333333
0.0189 0 0.0019333333
-0.028200001 0.00127 -0.0023133333
0.029100001 0.00127 -0.0020099999
-0.0114 -0.0003175 0.0010233333
0.0288 -0.00127 -0.0011
-0.023399999 0.00127 -0.0017066667
0.0294 0 0.00011333331
0.0114 -0.0003175 -0.0053466666
0.0294 0.00127 -0.0023133333
0.0177 -0.00127 -0.00079666672
0.0068999999 0.00127 -0.0023133333
-0.0044999998 0 -0.0023133333
0.037799999 0.000635 -0.00019000002
0.0012000001 0.00095249998 -0.00019000002
-0.0165 -0.00127 -0.00079666672
-0.024599999 0.00127 -0.00019000002
0.0114 0 -0.0071666669
-0.0038999999 0.00127 -0.00079666672
-0.0098999999 0.00127 -0.0020099999
0.0306 0.00127 -0.0014033334
0.0219 0.000635 -0.0023133333
-0.0297 -0.00127 -0.0017066667
0.0288 0.00095249998 -0.0023133333
0.032400001 0.00127 -0.0023133333
-0.0141 0 -0.006256667
0.029100001 0.00127 -0.0023133333
0.0063 0.0003175 -0.00019000002
0.0089999996 -0.0003175 -0.0071666669
0.033599999 0.000635 -0.00019000002
0.0285 0.0003175 -0.0023133333
0.018300001 0 -0.0023133333
0.0189 0 -0.0068633333
0.0098999999 -0.00127 -0.00049333338
0.0141 -0.0003175 -0.006256667
-0.0138 0 -0.0059533333
0.0114 0 -0.0074700001
-0.036899999 -0.0003175 0.0013266667
0.022500001 -0.00127 -0.0020099999
0.0096000005 -0.0003175 -0.0023133333
0.0117 -0.00127 -0.00079666672
0.0222 -0.000635 -0.0023133333
0.0156 0.00095249998 -0.00019000002
0.0294 -0.00127 -0.00079666672
-0.0294 -0.00127 -0.00019000002
0.035999998 -0.00127 -0.0020099999
0.034499999 0 0.00163
0.0015 0.0003175 -0.00019000002
-0.0083999997 -0.000635 -0.0023133333
-0.0035999999 0.00127 -0.00049333338
-0.035399999 -0.00127 -0.0017066667
-0.0288 -0.00127 -0.0023133333
-0.031500001 -0.000635 -0.00019000002
0.0147 -0.00095249998 -0.00019000002
0.0177 -0.000635 -0.00049333338
-0.0117 -0.0003175 -0.0023133333
-0.0306 -0.000635 -0.0023133333
0.0066 -0.000635 -0.0023133333
0.0153 0.00127 -0.00019000002
-0.0219 0.00127 -0.0017066667
-0.0083999997 -0.00095249998 -0.0023133333
0.0189 0 -0.006256667
-0.0264 0.00127 -0.0017066667
-0.0077999998 0.00127 -0.0014033334
-0.036899999 0.0003175 -0.00019000002
-0.0081000002 0.00127 -0.0014033334
-0.0018 -0.00095249998 -0.00019000002
0.019200001 0.0003175 0.0013266667
0.0189 0 -0.0032233333
-0.034200002 0.000635 -0.00019000002
-0.0138 0.0003175 -0.0044366666
0.034200002 -0.00095249998 -0.0023133333
-0.0051000002 0.000635 -0.0023133333
0.023399999 -0.00127 -0.0020099999
-0.0114 0.0003175 -0.0041333335
-0.0153 -0.00095249998 -0.0023133333
0.021600001 -0.0003175 -0.0038300001
0.0063 -0.0003175 -0.0050433334
-0.0165 -0.0003175 -0.0029200001
0.0027000001 -0.00127 -0.00079666672
-0.015 0.00127 -0.0023133333
-0.034200002 -0.0003175 -0.0071666669
-0.0348 -0.000635 -0.0023133333
0.0189 0 -0.0071666669
-0.019200001 -0.0003175 -0.0050433334
-0.018300001 0 -0.00019000002
-0.019200001 0 -0.0065600001
0.0348 -0.00127 -0.0023133333
0.0038999999 -0.0003175 0.00072000001
0.0068999999 -0.00095249998 -0.0023133333
-0.036600001 0.00095249998 -0.00049333338
0.0089999996 0 -0.0071666669
-0.024 0.000635 -0.0023133333
-0.0015 0.0003175 -0.0047400002
-0.0038999999 -0.00095249998 -0.0023133333
-0.024599999 -0.00127 -0.0020099999
-0.0264 0.0003175 -0.0023133333
0.0186 0.0003175 -0.0023133333
0.0038999999 0.0003175 -0.0053466666
0.0063 0.00095249998 -0.00019000002
0.0243 0.00127 -0.0020099999
-0.027899999 0.00095249998 -0.00019000002
0.031800002 0.0003175 -0.0056500002
0.0051000002 0 -0.00019000002
0.0015 0 -0.0065600001
0.019200001 0.0003175 -0.0032233333
0.0363 -0.00095249998 -0.00049333338
-0.033 0 -0.00019000002
-0.030300001 -0.00095249998 -0.0023133333
-0.0033 0.00127 -0.00049333338
0.0108 -0.000635 -0.00049333338
-0.021299999 0.00127 -0.00019000002
-0.031500001 -0.0003175 -0.0023133333
0.0089999996 0.0003175 -0.0050433334
-0.0111 -0.00127 -0.00019000002
0.027000001 0.0003175 -0.0023133333
-0.031500001 0.000635 -0.0023133333
-0.019200001 -0.0003175 0.00041666665
-0.033300001 -0.00095249998 -0.0023133333
0.037500001 0.00095249998 -0.0017066667
-0.0231 -0.00095249998 -0.00019000002
-0.0141 0 -0.0056500002
-0.0063 -0.0003175 0.00041666665
0.0015 0 -0.0068633333
0.0129 0.000635 -0.0023133333
0.0285 0 -0.00019000002
0.0063 -0.00127 -0.0023133333
-0.0144 -0.0003175 -0.0023133333
-0.031800002 0.0003175 -0.0035266667
-0.0126 0.00127 -0.0014033334
0.0126 0.00127 -0.00049333338
-0.0138 -0.0003175 -0.0056500002
-0.00089999998 0.00127 -0.0023133333
0.0381 0.000635 -0.0014033334
-0.0063 0.00127 -0.0023133333
-0.0057000001 -0.00127 -0.0014033334
0.029100001 0 -0.0041333335
-0.0132 0.00127 -0.0020099999
0.026699999 0.00127 -0.00049333338
-0.0219 -0.00127 -0.0011
0.021600001 0.00127 -0.0014033334
-0.024 0.0003175 -0.0074700001
-0.019200001 -0.0003175 -0.0068633333
0.031199999 -0.00127 -0.0014033334
0.023399999 0.00095249998 -0.0023133333
-0.0264 0.00127 -0.0020099999
0.003 -0.00095249998 -0.00019000002
-0.0348 -0.00127 -0.0011
0.0222 0 -0.0023133333
-0.024599999 0.0003175 -0.0023133333
0.0207 -0.00127 -0.0020099999
-0.037799999 -0.0003175 -0.0017066667
0.0108 -0.0003175 -0.00019000002
0.029100001 0.00095249998 -0.00019000002
-0.037500001 -0.000635 -0.00019000002
-0.0138 -0.0003175 -0.0071666669
0.034200002 0.0003175 -0.0050433334
-0.0066 -0.0003175 -0.0065600001
-0.0071999999 -0.00127 -0.00019000002
-0.0024000001 -0.000635 -0.0023133333
0.012 0.00127 -0.0020099999
0.020099999 0.00095249998 -0.0023133333
-0.0273 -0.00095249998 -0.00019000002
-0.0087000001 0.000635 -0.0023133333
-0.035999998 0.00127 -0.0023133333
-0.0060000001 0.00095249998 -0.0023133333
-0.036600001 -0.0003175 -0.0065600001
-0.0105 -0.0003175 -0.0023133333
-0.0114 -0.0003175 -0.006256667
-0.0156 0.0003175 -0.0023133333
-0.021299999 0 -0.0056500002
-0.018300001 0.000635 -0.0023133333
-0.0339 0.0003175 -0.00019000002
0.0114 -0.00127 -0.0017066667
0.0147 0.00127 -0.00019000002
0.020400001 -0.000635 -0.0023133333
0.00060000003 -0.00127 -0.00079666672
-0.035399999 -0.0003175 -0.0023133333
-0.0243 0.0003175 -0.0047400002
0.019200001 0.00127 -0.0014033334
-0.019200001 -0.0003175 0.0019333333
0.00030000001 -0.00127 -0.0011
-0.0114 0.0003175 -0.0032233333
-0.0165 -0.0003175 0.00163
-0.0063 0 -0.0032233333
-0.0071999999 -0.00127 -0.0017066667
-0.0339 -0.00127 -0.00079666672
0.021 0.00127 -0.0020099999
-0.021 0.00127 -0.0020099999
-0.0038999999 0.0003175 -0.0038300001
-0.0066 0 -0.0050433334
-0.0132 -0.00127 -0.00079666672
-0.036600001 -0.0003175 0.0013266667
-0.0041999999 0.00127 -0.00079666672
-0.0189 0.00127 -0.0011
0.035999998 0.00127 -0.0017066667
-0.0063 0.00127 -0.00019000002
0.0057000001 0.00127 -0.0020099999
0.0111 -0.00127 -0.0014033334
0.017999999 0 -0.00019000002
0.00060000003 0.00095249998 -0.0023133333
0.0117 0.00127 -0.0020099999
0.023399999 0.000635 -0.00049333338
-0.0035999999 -0.0003175 -0.0050433334
0.024599999 0.00095249998 -0.0023133333
0.035100002 0 -0.0023133333
-0.021299999 -0.0003175 -0.0023133333
-0.015 0.00127 -0.0020099999
-0.028200001 -0.00127 -0.0014033334
0.0033 0.00127 -0.0023133333
0.0165 0.00127 -0.0017066667
0.033599999 0 -0.0023133333
-0.0012000001 0.0003175 0.00011333331
0.0089999996 0.0003175 -0.0026166667
0.0089999996 0.0003175 -0.0041333335
-0.031199999 -0.00127 -0.0020099999
0.0228 -0.00127 -0.0011
0.034200002 0.00127 -0.00079666672
-0.0098999999 -0.00095249998 -0.0023133333
0.0020999999 -0.00095249998 -0.0023133333
0.029999999 -0.0003175 -0.0023133333
0.021 -0.00095249998 -0.00019000002
0.0060000001 -0.00095249998 -0.00019000002
0.0063 0.0003175 0.00163
0.0048000002 0.00095249998 -0.00019000002
-0.0174 -0.00127 -0.0023133333
-0.019200001 0 -0.0047400002
0.0189 -0.0003175 -0.0065600001
0.026699999 -0.0003175 -0.0059533333
-0.0077999998 0.00127 -0.00079666672
-0.030300001 0.00127 -0.0020099999
0.0165 -0.00127 -0.00049333338
0.0207 0.00127 -0.00049333338
0.0038999999 0.0003175 -0.0047400002
-0.0087000001 0.0003175 -0.00019000002
-0.021600001 0 -0.0077733332
0.0339 0.0003175 -0.00019000002
0.024599999 0.00127 -0.0017066667
-0.0186 0.00127 -0.00019000002
-0.0141 -0.00095249998 -0.0023133333
-0.036899999 0.0003175 -0.0023133333
0.0288 0.00127 -0.00019000002
0.021600001 -0.0003175 -0.0029200001
-0.024 0 0.00163
0.021299999 0.00127 -0.0014033334
0.032699998 -0.00127 -0.0014033334
-0.036600001 0 -0.0035266667
-0.033 0.00127 -0.00049333338
-0.0015 0 -0.0059533333
0.0147 -0.00127 -0.00019000002
0.030300001 -0.0003175 -0.0023133333
0.020400001 0.0003175 -0.0023133333
-0.022500001 0 -0.0023133333
-0.0012000001 0.00127 -0.0014033334
0.024599999 0.00127 -0.00079666672
-0.0063 0.0003175 -0.0059533333
-0.0174 -0.00127 -0.00049333338
-0.021299999 -0.00127 -0.00079666672
0.0038999999 -0.00095249998 -0.00019000002
0.025800001 0.00095249998 -0.0023133333
-0.0012000001 -0.0003175 0.00072000001
-0.0165 0.00127 -0.00079666672
0.023399999 0.00127 -0.00079666672
-0.0243 0.00127 -0.0011
-0.0261 -0.00127 -0.0014033334
-0.0189 -0.0003175 -0.0032233333
-0.0141 0.0003175 -0.00019000002
0.036899999 0.0003175 0.00011333331
0.0129 -0.00127 -0.00019000002
0.026699999 0 -0.0056500002
-0.0012000001 0.0003175 0.00041666665
0.0219 0 -0.0053466666
0.037500001 -0.00095249998 -0.0020099999
-0.0111 -0.0003175 -0.00019000002
0.019200001 0 -0.0047400002
-0.0020999999 -0.00127 -0.00049333338
0.0108 -0.00127 -0.0023133333
0.024 0.00127 -0.0014033334
-0.0087000001 0.0003175 0.00041666665
0.0071999999 -0.0003175 -0.00019000002
0.019200001 0.0003175 0.00041666665
-0.0231 0.00095249998 -0.0023133333
0.0273 -0.000635 -0.00049333338
0.0089999996 0.0003175 -0.006256667
-0.037500001 -0.00127 -0.00049333338
-0.0189 -0.0003175 -0.0068633333
-0.0273 -0.00127 -0.00079666672
0.0018 -0.00127 -0.0017066667
-0.020400001 0.00095249998 -0.0023133333
0.0144 0.00127 -0.0014033334
0.0165 0 -0.0056500002
-0.0051000002 -0.00127 -0.0020099999
0.0066 0.00095249998 -0.0023133333
0.0219 0 -0.0074700001
0.017999999 -0.0003175 -0.00019000002
-0.0309 0.00127 -0.00049333338
-0.0114 -0.0003175 0.0013266667
0.0057000001 0.00127 -0.00049333338
0.036899999 0.0003175 -0.0035266667
-0.0051000002 -0.00095249998 -0.0023133333
0.0063 0 -0.0077733332
-0.025800001 -0.00127 -0.00079666672
-0.0015 -0.0003175 -0.0029200001
0.0264 0 -0.0032233333
-0.00030000001 0 -0.00019000002
0.0027000001 0.00127 -0.0023133333
0.027000001 -0.00127 -0.0017066667
-0.00030000001 -0.00127 -0.00079666672
0.0083999997 -0.0003175 -0.00019000002
0.034200002 -0.00127 -0.0011
0.0309 -0.00127 -0.0011
-0.0165 -0.0003175 0.00072000001
0.0273 -0.00127 -0.0023133333
0.0038999999 -0.0003175 -0.0047400002
-0.0135 0 -0.0023133333
0.0231 0.00127 -0.00079666672
-0.021299999 0 0.00041666665
-0.037799999 0.000635 -0.0017066667
-0.031800002 -0.00095249998 -0.00019000002
-0.0074999998 0.000635 -0.0023133333
0.0015 0 -0.0032233333
0.019200001 0 0.00072000001
0.0114 -0.00127 -0.0014033334
0.0038999999 0.0003175 -0.0071666669
0.0111 0.00127 -0.0020099999
-0.0098999999 0.00127 -0.0017066667
-0.0207 -0.00095249998 -0.00019000002
-0.0141 0 -0.0041333335
-0.0012000001 0 -0.0077733332
0.0252 -0.00127 -0.0023133333
0.0252 -0.000635 -0.0023133333
0.0174 -0.00127 -0.0020099999
0.0339 0.00127 -0.0020099999
0.0038999999 0 0.00163
0.0108 0.00127 -0.0023133333
0.029999999 0.00095249998 -0.0023133333
0.027000001 0 -0.0023133333
-0.0114 -0.0003175 -0.0044366666
0.0255 0.00127 -0.0014033334
0.0189 -0.00127 -0.00019000002
-0.0276 0.000635 -0.0023133333
0.034200002 0.00127 -0.00019000002
-0.0057000001 -0.00095249998 -0.00019000002
0.019200001 -0.0003175 -0.0068633333
0.022500001 -0.0003175 -0.0023133333
0.032099999 0.00127 -0.00049333338
-0.0063 0 -0.0074700001
0.003 -0.00127 -0.0020099999
-0.036600001 -0.0003175 -0.0068633333
-0.0033 -0.0003175 -0.00019000002
-0.0165 0 -0.0065600001
0.0087000001 -0.00127 -0.0020099999
-0.0288 0 -0.0023133333
0.0243 0.0003175 0.0010233333
0.017999999 0.000635 -0.0023133333
0.019200001 0.0003175 -0.0029200001
0.0015 -0.000635 -0.0023133333
-0.0189 -0.0003175 -0.0074700001
0.022500001 0.00127 -0.00049333338
0.0089999996 -0.0003175 -0.0044366666
0.0041999999 -0.00127 -0.0014033334
-0.023399999 -0.000635 -0.00049333338
0.0261 0.00095249998 -0.0023133333
0.0038999999 0 -0.0068633333
-0.035100002 0.00095249998 -0.00019000002
0.0041999999 0.00127 -0.00049333338
0.0165 -0.0003175 -0.0035266667
-0.0063 0.0003175 0.00011333331
-0.0198 -0.000635 -0.00049333338
-0.0038999999 -0.0003175 -0.0071666669
0.033 -0.00095249998 -0.0023133333
0.0057000001 0.000635 -0.0023133333
0.0018 -0.0003175 -0.0023133333
-0.0102 0.00127 -0.0017066667
0.003 -0.00095249998 -0.0023133333
0.036899999 0 -0.0074700001
-0.029100001 -0.00127 -0.00019000002
-0.0252 0.00127 -0.00019000002
-0.024 0.0003175 -0.0056500002
0.033599999 0.00127 -0.0023133333
0.036899999 -0.000635 -0.0023133333
-0.021600001 0.0003175 -0.0074700001
-0.0207 0 -0.00019000002
-0.003 -0.00127 -0.0023133333
0.0018 0.00095249998 -0.00019000002
0.0071999999 0.00095249998 -0.0023133333
0.0165 0 0.0022366666
-0.0156 0.00095249998 -0.00019000002
0.0033 -0.0003175 -0.0023133333
0.035100002 0.00095249998 -0.00019000002
0.0060000001 0.00127 -0.0011
0.035700001 0.0003175 -0.0023133333
0.0141 -0.0003175 -0.0026166667
0.0033 0.00127 -0.00019000002
0.035700001 -0.00127 -0.0020099999
0.0060000001 -0.00127 -0.0023133333
0.031199999 -0.00127 -0.0020099999
0.0074999998 0 -0.00019000002
0.0222 0.000635 -0.0023133333
0.0035999999 0.0003175 -0.0032233333
-0.0083999997 0.00127 -0.0014033334
0.0087000001 -0.0003175 0.0010233333
-0.0108 0.00127 -0.0017066667
-0.033 0.0003175 -0.00019000002
-0.020099999 -0.00127 -0.0020099999
-0.0015 0.0003175 -0.0041333335
0.0252 -0.000635 -0.00049333338
-0.0147 -0.00127 -0.0011
-0.0093 -0.00127 -0.0020099999
-0.0038999999 -0.0003175 0.0013266667
0.024 0 -0.0065600001
0.0071999999 0.0003175 -0.00019000002
0.0093 -0.00127 -0.0011
0.024900001 0.0003175 -0.0023133333
0.0165 0 -0.0080766669
0.0063 -0.0003175 0.0010233333
0.0089999996 -0.0003175 -0.0065600001
0.0027000001 0.000635 -0.00049333338
-0.0081000002 0.00127 -0.00019000002
0.033 -0.00127 -0.0020099999
-0.035999998 -0.0003175 -0.0023133333
-0.0063 -0.0003175 -0.0032233333
0.0141 0.000635 -0.0023133333
-0.0261 -0.00127 -0.0017066667
0.035700001 -0.00127 -0.0011
0.0297 0.00127 -0.0023133333
0.0096000005 0.00127 -0.00049333338
-0.0041999999 -0.00127 -0.0014033334
-0.0177 -0.00095249998 -0.0023133333
0.031800002 0.0003175 -0.0065600001
0.029999999 0.00127 -0.00049333338
-0.0156 -0.00127 -0.0023133333
-0.032099999 0.00127 -0.0014033334
-0.0156 0.000635 -0.00049333338
-0.037799999 -0.000635 -0.0014033334
0.0339 0.00127 -0.00079666672
-0.031800002 0.0003175 0.0010233333
-0.017999999 0 -0.0023133333
0.0068999999 -0.00127 -0.0011
-0.029100001 0 -0.0068633333
0.021299999 0 -0.0065600001
0.023399999 0.00127 -0.00049333338
-0.0195 0.00127 -0.0017066667
-0.0294 0 -0.0077733332
-0.027000001 0 -0.00019000002
-0.0243 0.0003175 -0.0050433334
0.031500001 0 0.0010233333
0.027899999 0.00127 -0.00079666672
