# .PCD v0.7 - Point Cloud Data file format
VERSION 0.7
FIELDS x y z
SIZE 4 4 4
TYPE F F F
COUNT 1 1 1
WIDTH 1225
HEIGHT 1
VIEWPOINT 0 0 0 1 0 0 0
POINTS 1225
DATA ascii
0.020420963 0.00011545455 -0.00526
-0.0039056486 -0.00034636364 -0.00013428574
0.013502385 0.00034636364 -0.00013428574
-0.015511004 -0.0010390909 -0.0023628571
-0.013279205 0.00057727273 -0.0023628571
-0.011270585 -0.00127 -0.0016942858
-0.022429582 -0.00127 -0.0012485714
-0.017742803 0.00127 -0.00080285716
0.025107739 0.00011545455 0.0014257142
0.02287594 -0.00034636364 -0.0050371429
0.0063606277 -0.00011545455 -0.0023628571
-0.0074765272 -0.00127 -0.00080285716
-0.023099121 -0.00011545455 -0.0068200002
0.017296443 -0.00127 -0.00058000005
0.0052447282 -0.00034636364 -0.0025857142
0.0023433892 -0.00127 -0.0019171429
0.019528242 -0.00034636364 -0.00013428574
-0.013056025 -0.00127 -0.0012485714
-0.017296443 -0.00011545455 -0.00013428574
-0.011047406 -0.00011545455 -0.00013428574
-0.011716945 0.00034636364 -0.0023628571
-0.0023433892 -0.00057727273 -0.0023628571
-0.010154686 0.00011545455 -0.0039228573
0.017965984 -0.00034636364 0.00098000001
0.002566569 -0.00034636364 -0.0039228573
0.02533092 0.00127 -0.00058000005
-0.019305063 -0.00127 -0.00080285716
0.02421502 -0.00127 -0.0014714287
0.02577728 0.00011545455 -0.00013428574
-0.012386485 0.00057727273 -0.0023628571
0.0079228869 -0.00011545455 -0.0023628571
-0.0056910878 -0.00127 -0.0014714287
-0.011493766 -0.00127 -0.00058000005
0.016180543 -0.00034636364 -0.00013428574
0.013056025 -0.0010390909 -0.00013428574
-0.023322301 0.00127 -0.00058000005
0.015511004 0.00011545455 0.0014257142
0.011716945 -0.00127 -0.00080285716
0.015064645 0.00034636364 -0.0039228573
-0.026446819 -0.0010390909 -0.00058000005
-0.0023433892 -0.00057727273 -0.00035714288
0.002566569 0.00057727273 -0.0025857142
-0.0255541 -0.00011545455 -0.0068200002
-0.0014506695 -0.0010390909 -0.00013428574
-0.017742803 0.00034636364 -0.0050371429
-0.017519623 0.00127 -0.00013428574
-0.020420963 -0.00034636364 -0.0025857142
0.024661381 -0.00127 -0.00035714288
0.020867322 0.00011545455 -0.00013428574
0.013948745 -0.00127 -0.00058000005
-0.017742803 -0.00011545455 -0.0048142858
0.020644141 -0.00127 -0.00013428574
0.0097083263 0.00127 -0.0016942858
-0.0074765272 0.00034636364 0.00075714284
-0.0063606277 0.00080818182 -0.0023628571
0.014618284 -0.00034636364 -0.0023628571
-0.0036824686 0.00127 -0.00214
0.0021202092 0.00034636364 -0.00013428574
-0.015734185 0.00127 -0.0023628571
-0.0023433892 0.00127 -0.00035714288
-0.0047983681 0.00127 -0.0023628571
-0.011940125 0.00127 -0.0019171429
-0.0027897488 -0.00127 -0.00035714288
-0.010154686 0.00034636364 -0.0057057142
-0.015511004 0.00011545455 -0.0074885716
0.023099121 -0.00127 -0.00214
-0.0081460671 -0.00127 -0.00035714288
-0.025107739 0.00011545455 -0.0050371429
-0.0085924268 0.0010390909 -0.0023628571
-0.010601046 0.00011545455 -0.00013428574
0.016180543 -0.00127 -0.00214
0.002566569 0.00034636364 -0.0050371429
-0.02577728 0.00127 -0.0014714287
-0.010154686 -0.00127 -0.0016942858
-0.0083692465 0.00127 -0.00013428574
-0.0039056486 0.0010390909 -0.0023628571
0.0083692465 0.00127 -0.0010257143
-0.0023433892 0.00011545455 -0.0074885716
-0.017742803 -0.00034636364 -0.00526
-0.015287824 -0.00034636364 -0.0070428574
-0.020644141 -0.00127 -0.00080285716
0.0027897488 0.00011545455 -0.0032542858
-0.0034592887 0.0010390909 -0.00013428574
0.014395105 -0.00057727273 -0.0023628571
0.023099121 0.00011545455 -0.0028085716
0.015064645 0.00034636364 -0.0034771429
-0.016626904 -0.00080818182 -0.0023628571
-0.023099121 -0.00127 -0.0014714287
0.0052447282 0.00011545455 -0.0072657145
0.023322301 -0.00127 -0.0010257143
-0.019751422 0.00057727273 -0.00035714288
0.023322301 -0.00127 -0.00058000005
-0.0092619667 -0.00127 -0.0010257143
0.014395105 -0.00127 -0.0016942858
-0.024438201 -0.00011545455 -0.00013428574
0.016403724 0.00127 -0.00058000005
0.0090387864 0.00034636364 -0.0023628571
-0.017519623 -0.00011545455 -0.0037
-0.02667 0.00011545455 -0.0012485714
-0.0014506695 0.00127 -0.00035714288
0.015064645 0.00011545455 -0.0043685716
0.02287594 -0.00011545455 -0.0079342863
0.010154686 -0.00034636364 -0.0057057142
-0.02533092 0.00011545455 -0.0079342863
0.022652762 0.00011545455 0.0018714286
0.020644141 -0.00127 -0.0023628571
-0.0070301672 0.00080818182 -0.0023628571
-0.0085924268 -0.00034636364 -0.00013428574
-0.020420963 -0.00034636364 0.00031142856
0.0045751883 0.00127 -0.0019171429
0.014395105 0.00127 -0.0012485714
0.0052447282 -0.00034636364 -0.0057057142
-0.00011158996 -0.00034636364 -0.0065971431
0.0255541 0.00011545455 0.0012028571
-0.0050215479 0.00034636364 -0.0028085716
-0.010377866 0.00011545455 0.00098000001
-0.011940125 0.00034636364 -0.0023628571
-0.00011158996 -0.00034636364 -0.0057057142
0.026446819 0.00057727273 -0.0016942858
0.010154686 0.00034636364 0.00031142856
0.017965984 -0.00011545455 -0.0039228573
-0.0065838075 0.00127 -0.0014714287
0.0076997071 -0.00034636364 -0.00013428574
-0.005467908 -0.00127 -0.0014714287
0.013725565 0.00127 -0.00214
0.013725565 -0.00011545455 -0.00013428574
-0.012832845 -0.00011545455 -0.0045914287
-0.002566569 0.00034636364 -0.0059285713
-0.026000461 0.00127 -0.0014714287
0.025107739 0.00011545455 0.0016485715
0.018635523 -0.00057727273 -0.00035714288
0.016180543 0.00127 -0.00013428574
0.011940125 -0.00127 -0.0023628571
0.0036824686 0.00011545455 -0.0023628571
-0.0076997071 0.00057727273 -0.00035714288
0.022429582 -0.00080818182 -0.0023628571
-0.0074765272 0.00034636364 0.00031142856
-0.02667 0.00034636364 -0.00013428574
-0.012609665 0.00034636364 -0.00526
-0.00011158996 0.00034636364 -0.0048142858
-0.0056910878 0.00127 -0.0019171429
-0.0076997071 -0.00127 -0.0012485714
0.021983221 -0.00127 -0.0014714287
0.018412342 0.00034636364 -0.00013428574
0.019081883 0.00127 -0.0012485714
0.026000461 0.00034636364 -0.00013428574
0.02667 -0.00011545455 -0.00035714288
-0.012609665 -0.00127 -0.00013428574
0.019528242 0.00080818182 -0.00013428574
0.0023433892 -0.00011545455 -0.0039228573
0.020867322 -0.00127 -0.0010257143
-0.0059142676 -0.0010390909 -0.0023628571
0.024884561 -0.00011545455 -0.00013428574
-0.02399184 -0.00127 -0.00013428574
0.0052447282 0.00011545455 -0.0032542858
-0.011940125 -0.00127 -0.0023628571
0.017965984 -0.00011545455 -0.00526
-0.00011158996 0.00034636364 0.00031142856
0.0007811297 0.00011545455 -0.00013428574
0.009485146 -0.00127 -0.00035714288
-0.017742803 0.00057727273 -0.00035714288
-0.02287594 -0.00127 -0.0016942858
0.0065838075 0.00127 -0.0019171429
0.022429582 0.00057727273 -0.00035714288
0.0052447282 0.00080818182 -0.00013428574
-0.0079228869 0.00127 -0.00058000005
0.0010043096 0.00127 -0.00035714288
-0.023099121 0.00011545455 0.0012028571
0.0010043096 0.00127 -0.0014714287
0.00055794977 -0.00127 -0.0019171429
0.024884561 -0.00127 -0.0014714287
0.0081460671 0.00127 -0.0010257143
-0.026223641 -0.0010390909 -0.0016942858
0.015957365 0.00127 -0.0016942858
-0.0023433892 0.00011545455 -0.0025857142
0.023099121 -0.00011545455 -0.0059285713
-0.012609665 0.00011545455 -0.0025857142
-0.015287824 -0.00034636364 -0.0074885716
-0.0050215479 0.00011545455 -0.0061514284
-0.011716945 -0.00127 -0.00013428574
0.012609665 -0.00011545455 -0.0068200002
0.0076997071 -0.00011545455 0.00031142856
-0.014395105 -0.00034636364 -0.0023628571
0.0065838075 -0.00127 -0.0016942858
0.011047406 -0.00011545455 -0.00013428574
0.0007811297 -0.00127 -0.00035714288
-0.0079228869 0.00080818182 -0.0023628571
-0.012386485 0.00127 -0.00058000005
0.017073264 0.00011545455 -0.0023628571
0.00011158996 0.00127 -0.00013428574
-0.0012274896 -0.00034636364 -0.0023628571
0.0076997071 0.00011545455 0.0018714286
0.017519623 -0.00011545455 -0.0037
0.023768662 -0.00127 -0.00214
-0.0016738494 0.00127 -0.00214
0.0047983681 0.0010390909 -0.00013428574
0.00011158996 -0.00034636364 -0.0065971431
0.0076997071 -0.00011545455 -0.0054828571
0.022206401 -0.00127 -0.0019171429
-0.0021202092 0.00034636364 -0.0023628571
0.017296443 0.00127 -0.00214
-0.011270585 -0.00127 -0.00080285716
0.012832845 0.00034636364 -0.0054828571
0.023099121 0.00057727273 -0.00035714288
0.0050215479 -0.00011545455 0.0018714286
0.0076997071 -0.0010390909 -0.00013428574
0.019081883 -0.00080818182 -0.0023628571
-0.011270585 0.00034636364 -0.00013428574
-0.0043520085 0.00127 -0.00080285716
-0.0092619667 -0.00034636364 -0.00013428574
-0.0074765272 0.00011545455 -0.0072657145
-0.010601046 0.00127 -0.0023628571
-0.0085924268 -0.00127 -0.00214
-0.0052447282 0.0010390909 -0.00013428574
0.0052447282 0.00127 -0.00058000005
0.012609665 -0.00011545455 -0.00526
0.017742803 0.00011545455 -0.0034771429
-0.0079228869 -0.00127 -0.00080285716
-0.0018970292 0.00080818182 -0.0023628571
0.0052447282 0.00127 -0.0023628571
-0.019751422 -0.00127 -0.0010257143
0.017965984 -0.00034636364 0.00075714284
-0.02667 -0.00011545455 -0.00058000005
0.0076997071 -0.00034636364 -0.0037
0.026223641 -0.00080818182 -0.0023628571
0.017965984 -0.00011545455 -0.0050371429
0.0074765272 -0.00011545455 -0.0037
-0.021983221 -0.00080818182 -0.0023628571
-0.0052447282 -0.00011545455 -0.0050371429
0.012832845 -0.00034636364 0.0012028571
-0.0074765272 0.00011545455 -0.0048142858
-0.012609665 0.00034636364 -0.0050371429
0.026446819 0.0010390909 -0.00080285716
0.0023433892 0.00034636364 -0.0045914287
-0.0027897488 0.00127 -0.00214
0.02577728 0.00127 -0.0014714287
-0.012609665 0.00034636364 -0.0039228573
0.012609665 -0.00011545455 -0.0079342863
0.026446819 -0.00080818182 -0.0019171429
-0.019528242 -0.00127 -0.00058000005
-0.023099121 0.00011545455 0.0014257142
-0.023322301 -0.0010390909 -0.0023628571
0.010824226 -0.00080818182 -0.0023628571
0.023099121 0.00127 -0.0012485714
0.010154686 0.00034636364 -0.0039228573
0.010154686 -0.00034636364 -0.00013428574
-0.0050215479 -0.00011545455 -0.0079342863
-0.019751422 0.00127 -0.0012485714
0.0036824686 -0.00127 -0.00013428574
-0.020420963 -0.00080818182 -0.00013428574
-0.0023433892 -0.00034636364 -0.00013428574
0.00011158996 0.00034636364 0.00075714284
-0.00033476987 -0.00011545455 -0.0023628571
0.0074765272 -0.00080818182 -0.00013428574
-0.0255541 -0.00011545455 -0.0045914287
0.010377866 0.00127 -0.0023628571
0.0030129289 -0.00127 -0.0016942858
-0.023099121 0.00011545455 0.00098000001
0.012832845 0.00011545455 0.00053428567
0.021313682 -0.00080818182 -0.00013428574
0.014841464 0.0010390909 -0.0023628571
0.016403724 -0.00080818182 -0.00013428574
0.019751422 0.00127 -0.0012485714
0.0010043096 -0.00127 -0.0014714287
-0.020197783 -0.00011545455 -0.0045914287
-0.015287824 -0.00127 -0.0019171429
-0.0052447282 -0.00011545455 -0.0059285713
0.0052447282 0.00034636364 -0.0074885716
-0.0079228869 0.00127 -0.0019171429
-0.00011158996 -0.00034636364 0.00098000001
-0.021760041 0.00127 -0.00058000005
-0.013948745 -0.00127 -0.0016942858
-0.014171924 -0.00127 -0.00035714288
0.02287594 -0.00034636364 8.8571403e-05
0.014618284 0.00127 -0.0012485714
0.017519623 -0.00057727273 -0.00035714288
-0.021090502 0.00127 -0.00035714288
-0.016403724 0.0010390909 -0.0023628571
0.015064645 -0.00127 -0.00080285716
0.0099315066 0.00011545455 0.0012028571
0.012832845 0.00034636364 0.0018714286
0.011047406 -0.00057727273 -0.00035714288
-0.024661381 -0.00034636364 -0.0023628571
0.010154686 0.00034636364 -0.006374286
-0.014395105 0.00127 -0.0023628571
0.020197783 -0.00034636364 0.00098000001
-0.02667 -0.00011545455 -0.00080285716
-0.023322301 0.00080818182 -0.00013428574
0.012386485 -0.00127 -0.0016942858
-0.013056025 0.00011545455 -0.0023628571
0.015064645 -0.0010390909 -0.00013428574
-0.0079228869 -0.00011545455 -0.0048142858
-0.023099121 -0.00011545455 -0.0048142858
-0.0010043096 -0.00127 -0.0014714287
0.019751422 -0.00080818182 -0.0023628571
0.0027897488 -0.00080818182 -0.0023628571
0.02287594 0.00034636364 -0.0048142858
-0.00011158996 0.00034636364 0.00075714284
0.018412342 -0.00127 -0.00013428574
0.0099315066 0.00127 -0.0012485714
0.026446819 0.0010390909 -0.00013428574
0.013279205 0.00057727273 -0.00035714288
0.013948745 -0.00034636364 -0.00013428574
-0.023099121 0.00127 -0.0019171429
0.00011158996 0.00011545455 -0.0037
-0.023322301 -0.00127 -0.00214
-0.0012274896 -0.00127 -0.00013428574
0.0074765272 -0.00011545455 -0.0065971431
-0.002566569 0.00034636364 -0.0054828571
0.022652762 -0.00011545455 0.0014257142
-0.017742803 0.00034636364 -0.0054828571
0.0041288286 -0.00057727273 -0.00035714288
-0.016403724 0.0010390909 -0.00013428574
0.0045751883 0.00127 -0.00035714288
0.026223641 -0.0010390909 -0.00035714288
-0.015064645 -0.00011545455 -0.0059285713
0.02533092 0.00080818182 -0.00013428574
0.011493766 0.00127 -0.0019171429
0.026446819 0.00057727273 -0.00035714288
-0.019751422 0.0010390909 -0.0023628571
-0.009485146 -0.00127 -0.00058000005
-0.0083692465 -0.00127 -0.0010257143
-0.021313682 0.00080818182 -0.0023628571
0.020197783 -0.00011545455 -0.0045914287
0.016626904 0.00127 -0.00035714288
-0.015064645 -0.00011545455 -0.0025857142
0.0023433892 0.00011545455 -0.0037
0.0045751883 -0.00057727273 -0.00035714288
-0.026223641 0.0010390909 -0.00013428574
0.02287594 -0.00011545455 0.0020942858
0.011270585 0.00127 -0.0010257143
0.0027897488 -0.00127 -0.00035714288
-0.002566569 -0.00034636364 -0.00013428574
-0.02533092 -0.00011545455 -0.0030314287
0.0097083263 0.00057727273 -0.0023628571
-0.02533092 -0.00127 -0.00080285716
-0.00055794977 0.00127 -0.0019171429
-0.022652762 0.00011545455 0.0016485715
0.0099315066 -0.0010390909 -0.0023628571
0.024884561 -0.00127 -0.00214
0.013948745 0.00127 -0.00080285716
0.010377866 -0.00011545455 -0.0028085716
0.0036824686 -0.00127 -0.00035714288
-0.013725565 -0.00080818182 -0.00013428574
0.0079228869 0.00127 -0.0010257143
0.005467908 0.00127 -0.0016942858
-0.017742803 -0.00034636364 -0.0068200002
0.0023433892 0.00034636364 -0.0068200002
-0.002566569 -0.00034636364 0.0020942858
0.016180543 0.00034636364 -0.00013428574
-0.0034592887 0.00127 -0.00080285716
-0.023099121 -0.00034636364 -0.00013428574
-0.0072533474 0.00034636364 -0.0023628571
-0.017742803 -0.00034636364 -0.00013428574
0.02287594 -0.00057727273 -0.00035714288
-0.0092619667 0.00034636364 -0.0023628571
0.013948745 0.00127 -0.0023628571
0.0052447282 0.00011545455 0.00098000001
-0.014395105 0.00011545455 -0.0023628571
-0.02533092 0.00127 -0.0014714287
-0.011716945 0.00127 -0.00080285716
-0.016850084 -0.00127 -0.00035714288
0.025107739 -0.00127 -0.00214
-0.020867322 -0.00080818182 -0.00013428574
0.026446819 0.0010390909 -0.0019171429
-0.015957365 0.00011545455 -0.00013428574
0.012609665 -0.00011545455 -0.0077114287
-0.014171924 0.00011545455 -0.0023628571
0.012609665 0.00011545455 -0.0034771429
0.026446819 -0.00034636364 -0.00035714288
0.0023433892 0.00011545455 -0.0072657145
-0.0034592887 -0.00057727273 -0.00035714288
-0.015511004 0.00011545455 8.8571403e-05
0.0076997071 0.00034636364 -0.006374286
0.012163306 0.00011545455 -0.00013428574
-0.013056025 -0.00127 -0.0016942858
0.013502385 0.00127 -0.00013428574
-0.00011158996 -0.00127 -0.0012485714
0.018635523 0.00127 -0.0010257143
0.014841464 -0.0010390909 -0.00013428574
-0.021760041 0.00127 -0.0019171429
-0.023099121 0.00080818182 -0.0023628571
-0.014171924 0.00127 -0.00058000005
-0.022652762 0.00011545455 -0.0065971431
-0.0050215479 -0.00011545455 -0.0059285713
-0.024661381 0.00127 -0.0016942858
-0.02533092 -0.00011545455 -0.0057057142
-0.0052447282 -0.00034636364 -0.0043685716
0.023099121 0.00080818182 -0.0023628571
-0.025107739 0.00127 -0.00035714288
0.024661381 0.00080818182 -0.00013428574
0.012609665 0.00127 -0.00058000005
0.012832845 -0.00127 -0.0010257143
0.021090502 -0.00080818182 -0.00013428574
-0.022652762 -0.00011545455 -0.0054828571
0.0036824686 -0.00011545455 -0.00013428574
-0.0076997071 -0.00034636364 -0.0068200002
-0.02287594 -0.00011545455 -0.0059285713
0.012609665 0.00034636364 0.0014257142
-0.023545481 -0.00127 -0.00058000005
0.013056025 -0.00127 -0.00013428574
0.0074765272 0.00034636364 -0.0072657145
-0.023768662 0.00127 -0.00058000005
0.017742803 -0.00034636364 -0.0065971431
0.0039056486 0.00127 -0.0010257143
0.021536862 0.0010390909 -0.00013428574
-0.0052447282 -0.00057727273 -0.00035714288
0.013725565 0.00011545455 -0.0023628571
0.021090502 0.00057727273 -0.0023628571
0.015064645 0.00080818182 -0.00013428574
-0.026223641 -0.0010390909 -0.00214
0.020197783 0.00011545455 -0.0070428574
0.022652762 -0.00127 -0.00013428574
0.024884561 0.00034636364 -0.00013428574
0.0047983681 0.00011545455 -0.0061514284
-0.017073264 -0.00127 -0.0012485714
-0.0023433892 0.00011545455 -0.0065971431
0.012609665 0.00011545455 -0.0041457145
-0.0079228869 0.00057727273 -0.00035714288
-0.020420963 -0.00011545455 -0.0077114287
-0.0068069873 0.00127 -0.00214
-0.0012274896 0.00127 -0.00035714288
0.0061374474 -0.00127 -0.0012485714
0.018189164 0.00011545455 -0.00013428574
0.0070301672 0.00127 -0.00058000005
-0.009485146 0.00127 -0.0010257143
0.012609665 -0.00034636364 -0.0025857142
0.0032361087 -0.00011545455 -0.00013428574
0.012832845 0.00011545455 -0.0028085716
0.015064645 0.00011545455 -0.0054828571
0.0072533474 -0.00127 -0.0019171429
-0.016180543 0.00080818182 -0.00013428574
0.0074765272 0.00080818182 -0.0023628571
0.0090387864 0.00057727273 -0.00035714288
0.019528242 -0.00080818182 -0.00013428574
0.0047983681 -0.00127 -0.0010257143
0.011716945 -0.00011545455 -0.0023628571
0.017965984 -0.0010390909 -0.0023628571
0.015064645 -0.00034636364 -0.0057057142
0.013502385 -0.00057727273 -0.0023628571
-0.0074765272 -0.00034636364 -0.0030314287
-0.017742803 -0.00127 -0.0016942858
-0.0079228869 -0.00011545455 -0.0039228573
-0.015287824 0.00034636364 -0.0057057142
0.0027897488 0.00011545455 -0.006374286
-0.015287824 0.00034636364 -0.00013428574
-0.0045751883 0.00127 -0.00214
0.0023433892 0.00011545455 0.00053428567
-0.017519623 0.0010390909 -0.0023628571
0.002566569 0.00034636364 -0.006374286
-0.019081883 0.00080818182 -0.00013428574
0.0068069873 0.00127 -0.0023628571
-0.011270585 -0.00080818182 -0.0023628571
-0.013948745 0.00057727273 -0.0023628571
0.016626904 0.00057727273 -0.0023628571
0.0036824686 -0.00127 -0.0016942858
-0.0018970292 -0.00057727273 -0.00035714288
-0.013279205 0.00127 -0.00080285716
-0.015511004 0.00127 -0.0014714287
0.020420963 -0.00011545455 -0.0057057142
-0.025107739 0.00011545455 -0.0045914287
0.010377866 0.00127 -0.00214
0.026446819 -0.00057727273 -0.0012485714
0.018412342 -0.0010390909 -0.00013428574
-0.014841464 -0.00080818182 -0.00013428574
0.015511004 -0.00034636364 -0.0023628571
0.02287594 -0.00034636364 -0.0048142858
-0.0045751883 -0.00034636364 -0.0023628571
-0.0074765272 0.00034636364 -0.0039228573
0.015287824 -0.00057727273 -0.0023628571
-0.026000461 -0.00127 -0.00035714288
-0.011716945 0.00080818182 -0.00013428574
-0.0074765272 0.00011545455 -0.0077114287
0.015287824 0.00057727273 -0.0023628571
-0.022652762 0.00011545455 -0.006374286
0.005467908 0.00011545455 -0.0023628571
-0.02421502 0.00011545455 -0.00013428574
0.0076997071 -0.00034636364 -0.0057057142
-0.016180543 -0.00080818182 -0.0023628571
0.010824226 0.0010390909 -0.0023628571
-0.0030129289 0.00127 -0.00080285716
-0.012832845 -0.00034636364 0.00053428567
-0.0050215479 -0.00034636364 -0.0045914287
0.010601046 -0.00080818182 -0.00013428574
-0.017519623 0.00127 -0.0016942858
0.0063606277 -0.00034636364 -0.00013428574
-0.018189164 -0.00127 -0.00013428574
-0.015511004 -0.00011545455 -0.0045914287
0.014841464 0.00057727273 -0.00035714288
-0.012832845 -0.00034636364 -0.0034771429
-0.0061374474 -0.00011545455 -0.0023628571
0.0018970292 0.00127 -0.00035714288
0.012163306 0.00127 -0.00080285716
0.026446819 -0.00080818182 -0.00013428574
0.010377866 -0.00057727273 -0.0023628571
0.021760041 -0.00127 -0.00035714288
0.023099121 -0.00127 -0.0010257143
0.0021202092 -0.00127 -0.00013428574
-0.018189164 -0.00127 -0.00214
0.0050215479 -0.00011545455 -0.0037
-0.015511004 0.00127 -0.00013428574
-0.02667 0.00011545455 -0.00058000005
0.00011158996 0.00034636364 0.0012028571
0.015287824 -0.00034636364 0.0016485715
-0.020420963 -0.00127 -0.0016942858
-0.0074765272 -0.0010390909 -0.0023628571
0.02577728 0.00127 -0.0023628571
-0.013056025 -0.00127 -0.0014714287
0.0050215479 -0.00034636364 -0.0061514284
-0.018189164 0.00127 -0.0012485714
-0.0052447282 0.00034636364 -0.0045914287
-0.0039056486 -0.00127 -0.00035714288
-0.012832845 0.00011545455 0.00031142856
-0.020420963 0.00011545455 -0.0034771429
0.024661381 -0.00080818182 -0.00013428574
-0.018189164 -0.00127 -0.0012485714
-0.0023433892 0.00080818182 -0.00013428574
-0.015064645 0.00127 -0.00214
0.0088156071 -0.00127 -0.0014714287
-0.013725565 -0.00011545455 -0.0023628571
0.02287594 0.00080818182 -0.0023628571
0.0079228869 0.00127 -0.0023628571
0.017965984 -0.00011545455 -0.0061514284
0.02533092 -0.00127 -0.0023628571
0.0027897488 -0.00127 -0.0014714287
-0.0076997071 0.00011545455 0.0023171429
0.0039056486 -0.00127 -0.00013428574
-0.00011158996 0.00080818182 -0.0023628571
0.014395105 -0.00127 -0.0010257143
0.0052447282 0.00057727273 -0.00035714288
-0.002566569 0.0010390909 -0.0023628571
-0.02533092 -0.00034636364 8.8571403e-05
0.0074765272 -0.00057727273 -0.0023628571
0.015511004 0.00011545455 -0.0028085716
-0.015511004 0.00127 -0.0019171429
-0.015064645 0.00011545455 0.00075714284
-0.010154686 0.00034636364 -0.0043685716
0.0052447282 0.00034636364 -0.0028085716
0.017965984 -0.00034636364 0.0014257142
0.018635523 -0.0010390909 -0.00013428574
0.022652762 0.00127 -0.00035714288
0.011270585 -0.00127 -0.0019171429
0.0032361087 -0.00034636364 -0.0023628571
0.02287594 0.00034636364 8.8571403e-05
0.015511004 -0.00011545455 -0.0028085716
-0.02533092 -0.00011545455 0.00053428567
-0.0034592887 -0.00127 -0.0019171429
-0.013725565 -0.00127 -0.0014714287
-0.02667 0.00011545455 -0.0016942858
0.012609665 0.00011545455 -0.0074885716
-0.0079228869 -0.0010390909 -0.0023628571
0.015734185 0.00127 -0.0014714287
-0.015287824 0.00011545455 0.0020942858
0.017519623 0.0010390909 -0.0023628571
0.02287594 0.00034636364 -0.0054828571
0.0027897488 0.00011545455 8.8571403e-05
-0.024438201 -0.00127 -0.0010257143
-0.0047983681 0.00011545455 -0.0070428574
0.026000461 -0.00127 -0.00080285716
0.02667 0.00011545455 -0.00214
-0.017742803 0.00127 -0.00058000005
0.016626904 -0.00127 -0.0019171429
0.015511004 0.00011545455 -0.0068200002
-0.016403724 -0.00127 -0.0012485714
0.026000461 -0.00127 -0.00214
-0.010824226 0.0010390909 -0.00013428574
0.012609665 -0.00127 -0.00058000005
-0.02421502 0.00080818182 -0.00013428574
-0.0050215479 0.00034636364 0.00098000001
0.015064645 0.00034636364 -0.0043685716
-0.015287824 0.00034636364 0.0012028571
-0.017073264 0.0010390909 -0.0023628571
0.0014506695 -0.00034636364 -0.0023628571
0.0059142676 -0.00127 -0.00080285716
0.020867322 -0.00127 -0.00214
-0.0030129289 0.00127 -0.0014714287
-0.016403724 -0.00127 -0.00080285716
-0.0030129289 0.00127 -0.0023628571
0.017296443 -0.00011545455 -0.0023628571
0.0074765272 0.00034636364 0.0016485715
0.021313682 -0.00127 -0.00058000005
0.0052447282 -0.00034636364 -0.0034771429
0.021313682 0.00127 -0.0023628571
0.014841464 0.00127 -0.00214
0.00011158996 0.00034636364 -0.0032542858
0.02533092 -0.00057727273 -0.00035714288
0.015957365 0.0010390909 -0.0023628571
0.015064645 0.00034636364 -0.00526
0.017965984 -0.00034636364 -0.0041457145
-0.019751422 -0.00127 -0.00013428574
-0.0072533474 0.00057727273 -0.0023628571
0.012609665 0.00034636364 -0.0041457145
0.011940125 -0.00127 -0.0014714287
0.0016738494 -0.00127 -0.00214
-0.021536862 0.00057727273 -0.0023628571
-0.015064645 -0.00011545455 -0.0028085716
-0.02667 0.00034636364 -0.0023628571
0.0018970292 -0.00127 -0.0014714287
0.020197783 -0.00080818182 -0.00013428574
0.020420963 -0.00127 -0.00013428574
0.020867322 -0.00011545455 -0.0023628571
-0.023545481 -0.00127 -0.00080285716
0.023099121 -0.00011545455 0.00098000001
-0.00011158996 -0.00034636364 -0.006374286
-0.0045751883 0.00011545455 -0.0023628571
0.0027897488 -0.00127 -0.00080285716
-0.0083692465 -0.00127 -0.0023628571
-0.018189164 0.00011545455 -0.0023628571
0.015957365 -0.00127 -0.00058000005
0.019305063 -0.00127 -0.00035714288
-0.016626904 0.00127 -0.00013428574
0.0027897488 -0.00011545455 0.0018714286
-0.012609665 0.00034636364 -0.0061514284
0.026000461 -0.00011545455 -0.00013428574
-0.0076997071 -0.00011545455 0.0018714286
-0.017965984 0.00011545455 0.00053428567
-0.0007811297 -0.00127 -0.0014714287
-0.0255541 -0.00011545455 0.0018714286
-0.013279205 0.00127 -0.00035714288
0.0027897488 -0.00127 -0.00058000005
-0.010154686 -0.00034636364 -0.0059285713
-0.009485146 -0.00127 -0.00035714288
0.00011158996 -0.00127 -0.00080285716
-0.022206401 0.0010390909 -0.0023628571
-0.020420963 0.00011545455 0.00098000001
-0.011047406 0.00127 -0.00214
0.005467908 -0.00080818182 -0.0023628571
-0.0032361087 -0.00080818182 -0.00013428574
0.020420963 -0.00127 -0.0014714287
0.012386485 0.00127 -0.0012485714
0.02667 0.00011545455 -0.0012485714
0.00011158996 0.00080818182 -0.00013428574
-0.0016738494 0.00127 -0.0016942858
-0.012832845 0.00127 -0.00035714288
-0.018858703 0.00034636364 -0.0023628571
-0.0068069873 0.00034636364 -0.0023628571
0.002566569 0.00034636364 8.8571403e-05
-0.00011158996 -0.00034636364 -0.0028085716
-0.0034592887 0.00127 -0.0019171429
-0.019974602 -0.00034636364 -0.0023628571
0.014395105 -0.00034636364 -0.0023628571
0.025107739 0.00127 -0.00058000005
0.0085924268 -0.00080818182 -0.00013428574
0.002566569 -0.00034636364 -0.0041457145
-0.025107739 -0.0010390909 -0.00013428574
-0.02399184 0.00057727273 -0.00035714288
-0.0036824686 0.00011545455 -0.00013428574
0.0065838075 0.00127 -0.00013428574
0.012609665 0.00011545455 -0.0032542858
0.013725565 -0.00127 -0.00013428574
0.02533092 0.00011545455 -0.0039228573
-0.0068069873 -0.0010390909 -0.00013428574
0.014171924 -0.00127 -0.0012485714
-0.014171924 -0.00127 -0.00058000005
0.018635523 0.00127 -0.00214
0.0027897488 -0.00011545455 0.00053428567
-0.0088156071 0.00127 -0.0023628571
0.019528242 -0.00034636364 -0.0023628571
0.0039056486 -0.00127 -0.00058000005
-0.022652762 0.00127 -0.00035714288
-0.017965984 -0.00011545455 -0.00526
-0.015957365 0.00127 -0.00080285716
-0.012832845 -0.00034636364 0.0016485715
0.022652762 -0.00011545455 0.0012028571
0.0050215479 0.00034636364 0.0014257142
0.0050215479 -0.00057727273 -0.00035714288
-0.0097083263 -0.00057727273 -0.0023628571
0.023099121 -0.00011545455 -0.006374286
0.010154686 0.00034636364 -0.0043685716
-0.0076997071 0.00034636364 -0.0070428574
0.013725565 0.00080818182 -0.0023628571
-0.002566569 0.00034636364 0.0014257142
0.0068069873 -0.00127 -0.0012485714
0.02577728 0.00127 -0.0019171429
-0.018189164 -0.00127 -0.0014714287
-0.0032361087 0.00127 -0.00080285716
0.023322301 -0.00127 -0.0019171429
-0.0047983681 -0.00011545455 0.0012028571
0.00055794977 0.00011545455 -0.00013428574
0.017965984 0.00127 -0.0010257143
-0.013056025 -0.00011545455 -0.00013428574
-0.0034592887 0.0010390909 -0.0023628571
-0.018412342 -0.00034636364 -0.0023628571
-0.020197783 0.00034636364 -0.00013428574
0.012609665 -0.00127 -0.00080285716
-0.019751422 0.00127 -0.00058000005
0.02667 0.00034636364 -0.0014714287
-0.019528242 0.00127 -0.0019171429
0.0088156071 -0.00127 -0.00214
-0.020197783 -0.00011545455 0.0012028571
-0.015064645 0.00127 -0.00058000005
0.010824226 0.00057727273 -0.00035714288
0.016403724 0.00127 -0.0012485714
-0.012609665 -0.00080818182 -0.0023628571
0.023099121 -0.00011545455 0.00075714284
-0.011270585 0.0010390909 -0.0023628571
0.0076997071 0.00127 -0.00035714288
-0.0079228869 0.00011545455 -0.0032542858
0.0036824686 0.00127 -0.00013428574
-0.018189164 -0.00127 -0.0019171429
-0.017965984 -0.00011545455 -0.0057057142
-0.020197783 -0.00011545455 -0.00526
-0.016626904 -0.00127 -0.0016942858
-0.02533092 -0.00011545455 -0.0077114287
0.0074765272 -0.00080818182 -0.0023628571
0.019751422 0.00127 -0.00214
-0.012609665 0.00034636364 0.00053428567
-0.012386485 0.0010390909 -0.00013428574
-0.023322301 0.00127 -0.0014714287
-0.0012274896 -0.00127 -0.0012485714
0.014618284 -0.00127 -0.00080285716
0.0050215479 0.00034636364 -0.0030314287
0.020420963 -0.00034636364 -0.00013428574
-0.00011158996 0.00127 -0.0016942858
-0.0074765272 0.00034636364 -0.0059285713
0.020197783 0.00011545455 -0.0079342863
-0.0063606277 0.0010390909 -0.00013428574
-0.022429582 -0.00034636364 -0.00013428574
-0.0027897488 0.00011545455 -0.0059285713
0.023322301 0.00127 -0.0016942858
-0.019305063 0.00127 -0.00013428574
0.020197783 -0.00011545455 -0.0065971431
-0.0255541 0.00011545455 -0.0028085716
-0.012609665 0.00127 -0.0014714287
-0.0079228869 -0.00011545455 0.00098000001
0.021313682 0.00127 -0.0012485714
-0.0068069873 -0.00127 -0.0014714287
-0.012609665 0.00011545455 0.00053428567
0.024438201 0.00127 -0.0016942858
-0.0083692465 -0.00127 -0.00080285716
-0.011270585 -0.0010390909 -0.00013428574
-0.002566569 -0.00011545455 -0.0079342863
0.002566569 -0.00011545455 0.0020942858
-0.010377866 0.00011545455 0.0012028571
0.0007811297 0.00127 -0.00013428574
0.023545481 0.00127 -0.00080285716
0.005467908 0.0010390909 -0.00013428574
0.015287824 -0.00011545455 -0.0079342863
0.00033476987 -0.00011545455 -0.0070428574
-0.02287594 -0.00011545455 -0.0077114287
-0.020420963 0.00011545455 -0.0072657145
-0.017519623 -0.0010390909 -0.0023628571
-0.020420963 -0.00034636364 0.00053428567
-0.0065838075 0.00127 -0.00080285716
-0.00033476987 -0.00057727273 -0.0023628571
0.0079228869 0.00011545455 8.8571403e-05
-0.02533092 -0.00011545455 -0.0039228573
-0.011716945 0.0010390909 -0.0023628571
0.0036824686 0.00011545455 -0.00013428574
-0.02421502 -0.00080818182 -0.0023628571
-0.023099121 -0.00127 -0.00013428574
0.018412342 0.0010390909 -0.0023628571
-0.0052447282 0.00034636364 0.00075714284
-0.013725565 -0.00034636364 -0.0023628571
-0.011493766 0.0010390909 -0.0023628571
-0.024661381 -0.00057727273 -0.0023628571
0.0047983681 0.00011545455 -0.0030314287
0.026446819 -0.00057727273 -0.00035714288
0.016403724 0.00034636364 -0.00013428574
-0.0074765272 -0.00034636364 0.00098000001
0.015511004 -0.00127 -0.0019171429
0.015064645 -0.00011545455 -0.0032542858
-0.0007811297 -0.00011545455 -0.00013428574
0.0032361087 -0.00080818182 -0.00013428574
0.012163306 -0.00127 -0.0012485714
0.0255541 0.00127 -0.00214
0.02421502 -0.00127 -0.00080285716
0.014171924 0.00057727273 -0.0023628571
0.02577728 0.00057727273 -0.0023628571
-0.016626904 -0.0010390909 -0.0023628571
0.013948745 0.00127 -0.00013428574
-0.016403724 -0.0010390909 -0.0023628571
0.017742803 0.00011545455 -0.0059285713
0.00011158996 -0.00034636364 -0.0039228573
0.0052447282 -0.00127 -0.0019171429
0.014618284 -0.00057727273 -0.0023628571
0.016403724 0.00080818182 -0.0023628571
0.0032361087 -0.00127 -0.00035714288
0.012609665 -0.00011545455 0.00075714284
0.025107739 0.00127 -0.0012485714
0.0061374474 0.00127 -0.00214
-0.0045751883 -0.00034636364 -0.00013428574
0.012832845 -0.00034636364 0.00075714284
-0.0083692465 0.00127 -0.0019171429
0.0050215479 -0.00011545455 -0.006374286
0.017965984 -0.00034636364 0.00031142856
-0.011940125 -0.00127 -0.00013428574
0.018189164 -0.00080818182 -0.00013428574
0.0255541 0.00127 -0.0023628571
0.025107739 0.00127 -0.00080285716
0.011493766 -0.00034636364 -0.0023628571
0.021983221 0.00127 -0.0014714287
0.015064645 -0.00034636364 -0.0034771429
0.0088156071 -0.00127 -0.0019171429
0.015064645 0.00011545455 -0.0037
-0.023545481 -0.00034636364 -0.00013428574
-0.010377866 0.00080818182 -0.00013428574
-0.022652762 0.00011545455 0.0014257142
-0.018412342 0.00127 -0.00214
0.015064645 0.00011545455 0.00053428567
-0.015287824 -0.00127 -0.0012485714
-0.019528242 -0.00127 -0.0012485714
-0.0255541 -0.00034636364 -0.0025857142
-0.002566569 0.00127 -0.00080285716
0.0007811297 -0.00127 -0.00013428574
-0.0023433892 -0.00011545455 -0.0025857142
-0.018635523 0.00127 -0.0023628571
-0.015511004 0.00011545455 -0.0070428574
-0.0099315066 -0.00011545455 0.00075714284
0.005467908 -0.00034636364 -0.00013428574
-0.0052447282 0.00011545455 0.00098000001
0.015511004 -0.00011545455 0.0018714286
-0.015957365 -0.00127 -0.00058000005
-0.02421502 -0.00127 -0.0016942858
-0.02287594 -0.00011545455 -0.0034771429
-0.0079228869 0.00011545455 -0.0048142858
0.02287594 -0.00034636364 -0.0074885716
-0.020420963 -0.00034636364 -0.0043685716
-0.011270585 -0.00011545455 -0.00013428574
-0.0076997071 0.00011545455 -0.006374286
-0.021536862 0.00057727273 -0.00035714288
0.016626904 -0.00127 -0.00035714288
0.025107739 0.00127 -0.0014714287
-0.018635523 0.00127 -0.00214
-0.0056910878 -0.00034636364 -0.00013428574
0.015287824 -0.00034636364 -0.0043685716
0.021313682 0.00011545455 -0.0023628571
-0.02667 0.00011545455 -0.0010257143
-0.021090502 -0.00080818182 -0.00013428574
-0.019751422 -0.00127 -0.0023628571
0.011493766 0.00127 -0.0012485714
-0.0023433892 0.00127 -0.0012485714
-0.011493766 -0.00057727273 -0.0023628571
0.02533092 0.00127 -0.0010257143
-0.0030129289 0.00057727273 -0.00035714288
0.00055794977 -0.0010390909 -0.00013428574
-0.0039056486 0.00080818182 -0.0023628571
-0.010377866 0.00011545455 -0.0072657145
0.019974602 -0.00127 -0.0019171429
-0.02287594 -0.00011545455 -0.0030314287
-0.0056910878 -0.00011545455 -0.0023628571
0.00011158996 0.0010390909 -0.0023628571
0.002566569 -0.00034636364 8.8571403e-05
-0.015287824 0.00127 -0.0016942858
-0.02421502 -0.00127 -0.0014714287
0.0079228869 0.00034636364 -0.00013428574
0.019751422 -0.0010390909 -0.0023628571
0.0052447282 0.00034636364 -0.0043685716
-0.011270585 -0.00057727273 -0.0023628571
-0.017965984 0.00011545455 -0.0037
-0.0032361087 0.00080818182 -0.00013428574
0.002566569 0.00034636364 -0.0037
-0.010154686 -0.00034636364 -0.0039228573
-0.0052447282 0.00034636364 -0.0074885716
0.022206401 0.00127 -0.0014714287
-0.010154686 -0.0010390909 -0.00013428574
0.025107739 -0.00080818182 -0.00013428574
-0.017519623 0.00127 -0.0023628571
0.0027897488 0.0010390909 -0.00013428574
-0.0039056486 0.00011545455 -0.0023628571
0.0056910878 -0.00127 -0.0019171429
-0.00011158996 -0.00011545455 0.0016485715
-0.012163306 -0.00127 -0.00035714288
0.026446819 0.00080818182 -0.0012485714
-0.0099315066 0.0010390909 -0.0023628571
0.024661381 0.00127 -0.00035714288
-0.0074765272 -0.00034636364 -0.0074885716
0.018858703 0.00011545455 -0.00013428574
-0.0050215479 0.00034636364 -0.0050371429
0.017742803 -0.00011545455 -0.0045914287
-0.010154686 0.00011545455 0.0014257142
0.0047983681 0.00011545455 -0.0059285713
0.012832845 -0.00011545455 0.0012028571
0.020867322 0.00127 -0.0010257143
-0.0052447282 -0.00034636364 -0.0065971431
-0.015957365 0.00127 -0.0016942858
-0.010377866 -0.00011545455 -0.0037
-0.0059142676 -0.00127 -0.00214
0.0030129289 0.00127 -0.0023628571
0.0023433892 0.00127 -0.0016942858
0.0041288286 -0.00127 -0.00058000005
0.015734185 0.00057727273 -0.0023628571
-0.0034592887 0.00034636364 -0.00013428574
-0.017073264 0.00127 -0.00080285716
-0.0085924268 -0.00080818182 -0.0023628571
-0.026446819 -0.00080818182 -0.00035714288
0.0050215479 -0.00034636364 -0.0074885716
0.021760041 -0.00127 -0.0014714287
-0.020420963 0.00127 -0.00080285716
-0.021760041 0.00127 -0.0016942858
-0.024661381 0.00127 -0.0010257143
0.02421502 -0.00034636364 -0.0023628571
0.0068069873 -0.00127 -0.0016942858
0.014171924 -0.00127 -0.00035714288
0.012832845 0.00011545455 -0.0077114287
0.0052447282 -0.00034636364 0.00075714284
-0.02287594 -0.00011545455 -0.0065971431
0.0076997071 0.00034636364 0.00031142856
-0.02287594 0.00011545455 -0.0028085716
0.010154686 0.00127 -0.0019171429
0.02421502 -0.00127 -0.00214
0.0007811297 -0.0010390909 -0.0023628571
0.0074765272 0.00011545455 0.00053428567
-0.005467908 0.00034636364 -0.00013428574
0.0018970292 0.00057727273 -0.00035714288
0.0099315066 -0.00034636364 -0.00013428574
-0.020867322 0.00127 -0.0023628571
-0.0014506695 -0.00034636364 -0.0023628571
0.026000461 0.00034636364 -0.0023628571
0.0014506695 0.00127 -0.0019171429
-0.0076997071 0.00127 -0.00214
-0.0027897488 -0.00011545455 -0.0054828571
-0.00033476987 0.00011545455 -0.00526
-0.017965984 0.00011545455 -0.0065971431
-0.012832845 0.00034636364 -0.0059285713
0.012609665 -0.0010390909 -0.0023628571
0.0255541 0.00011545455 -0.0048142858
0.019305063 0.00034636364 -0.00013428574
-0.013948745 0.00127 -0.00013428574
-0.018858703 0.00127 -0.0016942858
0.0088156071 0.00127 -0.0012485714
0.0074765272 -0.00034636364 8.8571403e-05
-0.020420963 -0.00034636364 0.00098000001
0.0023433892 0.00034636364 -0.0030314287
0.0045751883 -0.0010390909 -0.00013428574
-0.0088156071 0.0010390909 -0.0023628571
-0.013279205 -0.00127 -0.00035714288
-0.020420963 -0.00011545455 -0.0068200002
-0.0050215479 -0.00034636364 0.0014257142
0.016403724 -0.00080818182 -0.0023628571
0.0079228869 0.00127 -0.0014714287
-0.010377866 -0.00011545455 -0.00526
-0.025107739 0.00011545455 -0.0057057142
-0.0047983681 -0.00011545455 -0.0050371429
-0.0050215479 0.00011545455 -0.0045914287
-0.0255541 0.00011545455 -0.0039228573
-0.015511004 -0.00011545455 8.8571403e-05
0.015064645 0.00011545455 -0.0032542858
-0.021536862 0.0010390909 -0.00013428574
-0.019305063 -0.00034636364 -0.0023628571
-0.019305063 0.00034636364 -0.0023628571
-0.024661381 -0.0010390909 -0.00013428574
0.0063606277 0.00127 -0.0016942858
-0.013725565 -0.00034636364 -0.00013428574
0.020197783 -0.00127 -0.00058000005
0.002566569 0.00034636364 -0.00013428574
0.020644141 -0.00011545455 -0.0023628571
-0.0007811297 0.00127 -0.0019171429
0.0097083263 -0.00080818182 -0.00013428574
-0.0050215479 0.00034636364 -0.0061514284
-0.023322301 0.00034636364 -0.00013428574
-0.018635523 -0.00057727273 -0.0023628571
0.0010043096 -0.00127 -0.0019171429
0.012609665 -0.00011545455 -0.0050371429
-0.015287824 -0.00034636364 0.00031142856
-0.017519623 -0.00034636364 -0.0025857142
-0.0039056486 0.00127 -0.0016942858
-0.0016738494 0.00127 -0.0014714287
-0.011047406 -0.00127 -0.0016942858
0.018189164 0.00127 -0.0010257143
-0.022429582 -0.00080818182 -0.0023628571
0.018858703 0.00080818182 -0.0023628571
-0.0088156071 -0.00057727273 -0.00035714288
0.013502385 -0.0010390909 -0.00013428574
-0.0043520085 0.00034636364 -0.0023628571
-0.017965984 0.00011545455 -0.0043685716
0.023768662 -0.00127 -0.0010257143
0.013725565 0.00127 -0.0023628571
-0.017519623 0.00127 -0.0012485714
0.0045751883 -0.00127 -0.0016942858
0.023545481 0.00127 -0.0012485714
-0.0099315066 -0.00127 -0.00035714288
-0.017742803 0.0010390909 -0.0023628571
-0.015287824 0.00127 -0.00214
0.021536862 -0.00034636364 -0.00013428574
0.022429582 -0.00127 -0.0010257143
-0.0068069873 0.00127 -0.0016942858
0.0027897488 0.00011545455 0.0018714286
0.015064645 -0.00011545455 -0.0077114287
0.017742803 0.00011545455 0.0023171429
-0.011047406 0.00057727273 -0.00035714288
-0.023768662 0.00127 -0.00080285716
-0.0052447282 0.00034636364 0.00053428567
-0.0023433892 0.00011545455 -0.0048142858
-0.013725565 -0.00057727273 -0.0023628571
0.0074765272 0.00034636364 -0.0041457145
-0.015957365 0.0010390909 -0.00013428574
0.017742803 0.00011545455 -0.0070428574
-0.02421502 0.00127 -0.0014714287
0.0032361087 0.00127 -0.0010257143
0.016850084 -0.00127 -0.00058000005
0.0255541 0.00011545455 -0.0072657145
0.0047983681 0.00127 -0.00058000005
0.014395105 -0.00011545455 -0.00013428574
0.0074765272 0.00034636364 -0.0025857142
-0.0039056486 0.00034636364 -0.0023628571
-0.0050215479 -0.00011545455 -0.0065971431
0.011716945 0.00127 -0.00035714288
-0.016403724 0.00127 -0.0010257143
-0.015287824 -0.00034636364 -0.00526
0.02287594 -0.00127 -0.00058000005
-0.0070301672 -0.00127 -0.0019171429
-0.012386485 -0.00127 -0.0019171429
0.0045751883 0.00034636364 -0.00013428574
0.011940125 -0.00057727273 -0.00035714288
0.011270585 0.00127 -0.0012485714
-0.021090502 -0.00127 -0.0010257143
0.019751422 0.00127 -0.00058000005
-0.025107739 0.00011545455 0.00098000001
-0.010377866 -0.00011545455 0.0012028571
-0.018189164 0.0010390909 -0.00013428574
0.0018970292 -0.00127 -0.0016942858
-0.0099315066 -0.00011545455 8.8571403e-05
-0.0018970292 0.00127 -0.00058000005
0.011270585 -0.00011545455 -0.0023628571
0.017742803 0.00011545455 -0.0041457145
-0.017965984 0.00011545455 -0.0045914287
0.023099121 -0.00057727273 -0.0023628571
0.015734185 0.00011545455 -0.0023628571
0.015064645 0.00034636364 0.0016485715
-0.018635523 -0.00127 -0.0012485714
-0.002566569 -0.00034636364 8.8571403e-05
-0.0050215479 -0.00034636364 -0.0057057142
0.022652762 -0.00011545455 -0.0061514284
0.015287824 -0.00034636364 -0.0045914287
-0.011493766 -0.00057727273 -0.00035714288
-0.0063606277 -0.00057727273 -0.0023628571
-0.012832845 0.00034636364 -0.0028085716
0.010377866 0.00011545455 -0.0037
-0.017742803 -0.00034636364 -0.0045914287
0.0083692465 0.00127 -0.00058000005
0.011493766 -0.00034636364 -0.00013428574
0.022652762 -0.00011545455 0.0018714286
-0.0045751883 0.00034636364 -0.0023628571
-0.013725565 -0.00127 -0.0016942858
0.019081883 -0.00127 -0.0010257143
0.010601046 0.00080818182 -0.00013428574
-0.021760041 0.00057727273 -0.0023628571
-0.0050215479 0.00034636364 -0.0032542858
0.0023433892 -0.00011545455 -0.006374286
-0.015957365 -0.00127 -0.0023628571
0.0092619667 -0.00127 -0.00080285716
0.014841464 0.00127 -0.0010257143
-0.022206401 -0.0010390909 -0.0023628571
-0.020420963 -0.00057727273 -0.0023628571
0.015287824 -0.00034636364 -0.0025857142
-0.021313682 -0.00057727273 -0.00035714288
-0.015511004 0.00011545455 -0.00526
-0.018412342 -0.0010390909 -0.00013428574
-0.00033476987 0.00127 -0.0014714287
-0.0099315066 -0.00011545455 -0.006374286
-0.00055794977 -0.00011545455 -0.00013428574
0.0047983681 0.00080818182 -0.00013428574
0.026223641 -0.0010390909 -0.0023628571
0.0076997071 -0.00034636364 -0.0074885716
-0.015287824 0.00127 -0.00080285716
-0.016403724 -0.00011545455 -0.0023628571
0.019974602 -0.00034636364 -0.00013428574
0.026000461 -0.00127 -0.0014714287
0.012832845 0.00011545455 -0.0048142858
-0.013725565 0.00127 -0.0016942858
-0.017965984 -0.00011545455 -0.0028085716
-0.010377866 -0.00127 -0.00035714288
-0.019974602 0.00127 -0.0014714287
-0.010377866 -0.00011545455 -0.0065971431
0.022652762 0.00011545455 -0.0043685716
-0.0085924268 -0.00080818182 -0.00013428574
0.012609665 -0.00011545455 -0.0037
0.02533092 -0.00011545455 -0.0030314287
0.0039056486 0.0010390909 -0.00013428574
0.019751422 0.00127 -0.0010257143
-0.014618284 -0.00034636364 -0.0023628571
0.0076997071 -0.00034636364 8.8571403e-05
0.014841464 -0.00127 -0.0023628571
0.0007811297 -0.0010390909 -0.00013428574
-0.020644141 0.00034636364 -0.00013428574
0.019528242 0.00127 -0.0010257143
-0.020867322 -0.00127 -0.00214
-0.026000461 -0.00127 -0.0012485714
-0.012609665 -0.00011545455 -0.0050371429
0.010154686 -0.00034636364 -0.0065971431
0.019305063 0.00127 -0.0010257143
-0.025107739 -0.00127 -0.00013428574
0.023768662 -0.00080818182 -0.00013428574
-0.0045751883 0.00127 -0.0023628571
0.02287594 0.00011545455 0.0023171429
-0.017965984 -0.00011545455 0.0014257142
0.02287594 0.00034636364 -0.0057057142
-0.0061374474 0.00127 -0.0012485714
-0.0063606277 -0.00011545455 -0.00013428574
-0.00033476987 0.00127 -0.0023628571
-0.0027897488 -0.00011545455 0.0012028571
-0.0065838075 -0.00127 -0.00080285716
-0.0056910878 0.00057727273 -0.0023628571
0.023099121 -0.00127 -0.00013428574
-0.011047406 -0.00127 -0.0019171429
-0.018412342 0.00011545455 -0.00013428574
-0.011047406 -0.00127 -0.0023628571
0.016626904 0.00127 -0.00080285716
-0.0023433892 0.00011545455 -0.0059285713
-0.015064645 -0.00034636364 -0.0061514284
0.021983221 -0.00011545455 -0.0023628571
0.00011158996 0.00011545455 -0.0045914287
-0.0070301672 0.00127 -0.0016942858
-0.0032361087 -0.0010390909 -0.0023628571
0.014171924 0.00127 -0.0019171429
-0.026223641 0.0010390909 -0.0010257143
0.023322301 0.00011545455 -0.0023628571
0.0255541 0.00011545455 -0.0025857142
-0.023768662 -0.00127 -0.00214
0.012609665 0.00034636364 -0.0025857142
-0.023099121 0.00011545455 -0.0059285713
0.0068069873 0.00127 -0.0012485714
-0.012832845 0.00011545455 -0.0043685716
-0.0021202092 -0.00080818182 -0.0023628571
-0.0018970292 -0.00057727273 -0.0023628571
0.017296443 0.00011545455 -0.0023628571
0.0045751883 0.00080818182 -0.0023628571
0.025107739 -0.00011545455 0.0014257142
-0.0039056486 -0.00127 -0.0014714287
-0.023099121 0.00127 -0.0016942858
0.019974602 -0.00127 -0.00013428574
0.0063606277 0.00057727273 -0.0023628571
0.0056910878 0.00127 -0.0019171429
-0.0050215479 0.00011545455 -0.00526
-0.0255541 0.00011545455 -0.0074885716
-0.017965984 -0.00034636364 -0.0023628571
0.00011158996 -0.00034636364 -0.0028085716
0.020420963 0.00034636364 -0.006374286
-0.015064645 0.00011545455 -0.006374286
0.02577728 -0.0010390909 -0.0023628571
0.012832845 0.00011545455 0.0012028571
-0.0052447282 0.00011545455 -0.0028085716
-0.010824226 0.00127 -0.0014714287
0.0041288286 -0.00127 -0.0014714287
-0.026223641 -0.0010390909 -0.00013428574
-0.0023433892 -0.00127 -0.00035714288
-0.0052447282 0.00011545455 -0.0034771429
0.0255541 0.00127 -0.00035714288
-0.0061374474 -0.00127 -0.0019171429
-0.02577728 -0.00127 -0.0010257143
0.011940125 0.00011545455 -0.00013428574
0.02421502 0.00080818182 -0.0023628571
0.011716945 0.0010390909 -0.00013428574
0.014171924 -0.00127 -0.00058000005
0.00011158996 -0.00011545455 0.0018714286
0.021760041 0.00057727273 -0.00035714288
-0.015511004 -0.00011545455 -0.00526
-0.0092619667 0.00080818182 -0.00013428574
-0.010154686 -0.00034636364 -0.0030314287
-0.0097083263 0.00011545455 -0.0023628571
-0.0052447282 0.00034636364 -0.0070428574
0.00055794977 -0.00057727273 -0.0023628571
-0.012609665 0.00034636364 -0.0072657145
-0.02577728 -0.00011545455 -0.00013428574
0.02399184 -0.00011545455 -0.00013428574
0.017519623 0.00011545455 8.8571403e-05
-0.0023433892 0.00011545455 -0.0034771429
-0.013279205 0.00080818182 -0.0023628571
-0.0023433892 -0.0010390909 -0.00013428574
0.013279205 0.00080818182 -0.00013428574
-0.024438201 0.00127 -0.00058000005
-0.02287594 0.00127 -0.00214
0.023768662 0.00127 -0.00214
0.012832845 0.00034636364 -0.00526
0.00011158996 0.00034636364 -0.0077114287
-0.016180543 0.00127 -0.0019171429
-0.013948745 -0.00127 -0.00013428574
0.0052447282 -0.00127 -0.00058000005
-0.017965984 0.00011545455 -0.0028085716
-0.0010043096 0.00127 -0.0019171429
0.0099315066 0.00011545455 0.0020942858
0.013056025 0.00127 -0.0016942858
0.017073264 0.0010390909 -0.00013428574
-0.024884561 0.00127 -0.00058000005
0.015064645 0.00080818182 -0.0023628571
-0.0012274896 -0.00080818182 -0.0023628571
-0.0076997071 -0.00034636364 0.0012028571
-0.00033476987 0.00080818182 -0.0023628571
0.012832845 0.00011545455 -0.0072657145
0.020197783 0.00080818182 -0.00013428574
-0.0047983681 0.00011545455 -0.0057057142
-0.026446819 -0.00080818182 -0.00058000005
-0.021313682 0.00080818182 -0.00013428574
0.022652762 0.00011545455 -0.0028085716
-0.00033476987 0.00034636364 -0.00013428574
0.0036824686 -0.00034636364 -0.00013428574
0.0085924268 -0.00127 -0.0014714287
0.012386485 0.00057727273 -0.00035714288
0.010154686 0.00080818182 -0.0023628571
0.0043520085 -0.00127 -0.0012485714
-0.022652762 0.00011545455 -0.00526
-0.0099315066 -0.00011545455 -0.0032542858
0.0036824686 -0.00127 -0.00058000005
0.0043520085 0.00057727273 -0.0023628571
0.0063606277 0.00127 -0.0010257143
0.012832845 0.00034636364 -0.0028085716
-0.018635523 0.00127 -0.00058000005
-0.014395105 -0.00011545455 -0.0023628571
0.024438201 -0.00011545455 -0.00013428574
0.0047983681 -0.00011545455 -0.00013428574
0.0039056486 0.00127 -0.00035714288
-0.0076997071 0.00034636364 0.00098000001
-0.00033476987 0.00011545455 -0.0034771429
-0.0023433892 0.00011545455 -0.0068200002
0.009485146 0.00127 -0.00013428574
-0.0097083263 -0.0010390909 -0.00013428574
-0.0016738494 0.00127 -0.00035714288
0.021536862 -0.00057727273 -0.00035714288
0.017965984 0.00011545455 0.00075714284
-0.020867322 -0.00034636364 -0.0023628571
-0.0072533474 0.00127 -0.0012485714
-0.012832845 -0.00034636364 0.00098000001
-0.018189164 0.00127 -0.00058000005
-0.016180543 0.00127 -0.0010257143
0.010154686 -0.00034636364 -0.0072657145
0.0079228869 0.00011545455 -0.0030314287
0.02533092 0.00011545455 -0.0041457145
-0.018635523 -0.00127 -0.00058000005
-0.0059142676 0.00057727273 -0.00035714288
0.020644141 0.00127 -0.0019171429
0.018635523 -0.00127 -0.0016942858
0.02287594 0.00034636364 0.0018714286
0.010601046 0.00011545455 -0.0023628571
-0.012386485 -0.00127 -0.00013428574
