# .PCD v0.7 - Point Cloud Data file format
VERSION 0.7
FIELDS x y z
SIZE 4 4 4
TYPE F F F
COUNT 1 1 1
WIDTH 1130
HEIGHT 1
VIEWPOINT 0 0 0 1 0 0 0
POINTS 1130
DATA ascii
-0.0011595652 -0.00084862078 -0.00052034884
0.00020246377 0.00073793111 -0.00019069767
-0.00127 3.6896556e-05 -0.00074011629
-9.2028982e-05 -0.00014758622 -7.5581397e-06
-0.0006810145 0.00011068967 0.0014575581
0.00049695652 -0.00011068967 -0.001252907
-0.00127 0.00055344834 -0.00041046512
-0.00046014492 7.3793111e-05 0.001494186
0.0012331884 0.00011068967 -0.00088662788
0.00086507248 -0.00047965522 -0.00092325581
-0.00090188405 -0.00059034489 -0.00026395349
-0.0006810145 0.0010331036 -0.00088662788
0.00046014492 0.00036896556 -0.0010331395
0.00071782607 0.0010331036 -0.00070348836
0.00046014492 0.00055344834 -0.00026395349
-0.00057057972 0.00092241389 -0.00092325581
-0.0006810145 -0.00022137933 -0.0012895348
0.00042333335 0.00073793111 -0.00015406977
0.00046014492 0.00022137933 -0.0034139536
-0.00023927537 0 -0.00092325581
-0.00046014492 -0.00022137933 -0.0010697674
-0.00053376809 -0.0010331036 -0.00059360464
0.0006073913 -0.000332069 -0.00092325581
-1.8405797e-05 -0.0010331036 -0.00088662788
-0.0010491305 -0.00055344834 -0.00026395349
0.00064420293 0.00022137933 -0.0031575582
0.00020246377 0.00018448278 -0.00092325581
-0.00086507248 -7.3793111e-05 -0.0010331395
0.00079144927 0 -0.0033773256
-0.0007546377 -0.00022137933 -0.0033406976
9.2028982e-05 -0.00062724145 -0.00026395349
-0.00079144927 0 0.00072499999
-0.0006810145 -0.00022137933 -0.0032308139
0.00064420293 0.00022137933 -0.0027180233
-0.00057057972 0 -0.0037069768
-0.0011595652 -0.00088551734 -0.00059360464
-0.00097550725 -0.0010331036 -0.00070348836
0.00097550725 0.000332069 -0.00011744186
-0.00079144927 -0.00011068967 0.0020069766
0.00042333335 0.00018448278 0.0001755814
0.0011963769 0.00018448278 -0.00092325581
-0.0006073913 -0.00022137933 0.0013843023
0.00049695652 -0.00011068967 -0.0029011627
0.0006810145 0.00022137933 -0.0011063954
0.00079144927 -7.3793111e-05 -0.0011430233
-0.00049695652 -0.00022137933 -0.0025715115
0.00082826085 -0.00059034489 -0.00015406977
5.5217391e-05 0.00073793111 -0.00088662788
-0.001085942 -0.0010331036 -0.00052034884
-0.00046014492 -0.00011068967 0.0011645348
0.00038652174 0.00073793111 -0.00019069767
0.00057057972 0.00022137933 -0.0029377907
-0.00079144927 -0.00014758622 -0.0011430233
0.0011963769 -0.00092241389 -0.00015406977
-0.00079144927 -7.3793111e-05 -0.0019854652
-0.0010123189 -0.0010331036 -0.00019069767
0.00038652174 0.00059034489 -0.00026395349
0.00038652174 -0.00062724145 -0.00092325581
0.0007546377 0.00022137933 -0.0027546512
-0.00012884058 -0.00073793111 -0.00011744186
0.0006810145 0.00022137933 -0.0026447675
-0.00042333335 7.3793111e-05 -0.0010331395
-0.00042333335 -0.00029517245 -7.5581397e-06
-0.0006073913 -0.00055344834 -0.00026395349
0.00079144927 0 2.9069768e-05
0.00042333335 0.00018448278 0.00054186047
0.0011963769 -0.00081172423 -8.0813952e-05
-0.0006073913 0.00011068967 0.0014209303
-0.0007546377 -0.00018448278 -0.0025348838
0.00031289854 -0.000996207 -0.00070348836
-0.0007546377 -0.00022137933 -0.0021319767
0.0007546377 -0.0010331036 -0.00022732558
-9.2028982e-05 -0.00059034489 -0.00088662788
0.00016565218 0.00025827589 -0.00019069767
-0.0006810145 0.00062724145 -0.00015406977
0.0007546377 -7.3793111e-05 -7.5581397e-06
0.00057057972 -0.00011068967 0.0016040697
-0.00046014492 -0.00014758622 0.0013476744
-0.0010491305 -0.00040586211 -0.00019069767
9.2028982e-05 0.0010331036 -0.00052034884
0.00127 -0.00073793111 -0.00059360464
0.00049695652 0.00022137933 -0.0033040699
0.00079144927 7.3793111e-05 -0.0021319767
-0.00020246377 -0.00070103456 -0.00092325581
0.0010123189 -0.00073793111 -7.5581397e-06
0.00079144927 0.00018448278 -0.002791279
-0.0007546377 0.00044275867 -0.00092325581
0.00057057972 -0.00011068967 -0.0015093023
-5.5217391e-05 -0.00055344834 -0.00088662788
-0.00082826085 7.3793111e-05 -4.4186047e-05
0.0010491305 0.00011068967 -7.5581397e-06
-0.00049695652 -3.6896556e-05 -0.0020220929
-0.00038652174 -0.00011068967 -0.0035238373
-0.00093869568 7.3793111e-05 -4.4186047e-05
0.00093869568 0.000996207 -4.4186047e-05
-1.8405797e-05 -0.00022137933 -0.00092325581
-0.00127 -7.3793111e-05 -0.00033720929
-0.00079144927 -0.00011068967 -0.0010697674
0.00038652174 7.3793111e-05 0.0010180232
0.00127 -0.00070103456 -0.00081337208
-0.00086507248 -0.0010331036 -0.00048372094
0.00042333335 -0.00055344834 -0.00026395349
9.2028982e-05 -0.00025827589 -0.00092325581
-0.00049695652 0.00014758622 -0.0011063954
0.0006810145 -0.00011068967 -0.0036703488
-0.0006073913 0.00011068967 -0.0030476744
-0.00079144927 -7.3793111e-05 0.0014209303
0.00046014492 0.00022137933 0.0015674419
0.00079144927 0.00014758622 0.0019703489
0.00031289854 0.0010331036 -0.00088662788
-0.00097550725 0.00088551734 -0.00088662788
0.00031289854 -0.00022137933 -0.00022732558
0.00071782607 0.00022137933 0.00098139537
0.00057057972 0.00040586211 -0.0010331395
0.00057057972 -0.00051655178 -0.00092325581
-0.00079144927 0.00022137933 -0.00019069767
0.0006810145 -0.00011068967 0.001530814
-0.0011227536 -0.000996207 -0.00070348836
0.00046014492 0.00025827589 -0.00011744186
0.0010491305 -0.00095931045 -0.00055697677
-0.00079144927 -0.00014758622 -0.0020587209
0.00053376809 0.00022137933 -4.4186047e-05
-0.0006073913 -0.00022137933 0.0017505814
0.00079144927 0.00018448278 -0.0034872093
0.00057057972 0.00022137933 -7.5581397e-06
-0.0007546377 7.3793111e-05 -0.0023151163
-0.00049695652 -0.00022137933 -0.0011430233
0.00093869568 -0.000996207 -0.00026395349
-0.00082826085 0.0010331036 -0.00077674421
-0.00053376809 -0.00022137933 -0.0027546512
-0.00064420293 -0.000332069 -8.0813952e-05
-0.00127 -0.00025827589 -0.00019069767
0.0007546377 0.00022137933 0.0010912791
-5.5217391e-05 -0.000332069 -0.00092325581
0.00127 0.00044275867 -0.00041046512
0.00082826085 0.000996207 -7.5581397e-06
0.00097550725 0.00036896556 -0.00092325581
0.0010123189 -0.00092241389 -0.00066686049
-9.2028982e-05 -0.0010331036 -0.00044709301
0.0006810145 0.00022137933 -0.0029377907
-0.00034971014 -0.00081172423 -0.00011744186
-0.00046014492 -7.3793111e-05 -0.0030843024
0.00079144927 0.00047965522 -0.00099651166
-0.00127 0.000664138 -0.00011744186
0.00038652174 0.00044275867 -0.00092325581
-0.0010123189 0.00088551734 -4.4186047e-05
-0.0011227536 -0.000996207 -0.00041046512
-0.0012331884 0.00084862078 -0.00044709301
0.00079144927 -3.6896556e-05 0.0014575581
0.00079144927 0 0.0016773256
-0.00071782607 0.00095931045 -0.00088662788
-0.00053376809 0.00014758622 -0.001619186
-0.0006073913 0.00081172423 -7.5581397e-06
0.00079144927 0.00011068967 -0.0024250001
0.00053376809 -7.3793111e-05 -0.003597093
-0.00049695652 -0.00088551734 -7.5581397e-06
-0.00071782607 0.00092241389 -7.5581397e-06
-0.00023927537 -0.000332069 -0.00026395349
-0.00049695652 0.00011068967 0.0010180232
-0.00038652174 -7.3793111e-05 -0.0021319767
0.00031289854 0.00044275867 -0.00092325581
-0.00042333335 -0.00011068967 0.00039534885
-0.00127 0.00055344834 -0.00081337208
-0.00127 0.00062724145 -0.00030058139
0.00079144927 0 -0.0025715115
0.0011595652 0.00088551734 -0.00015406977
-0.00093869568 -0.000996207 -8.0813952e-05
0.00046014492 -3.6896556e-05 0.00032209302
-0.00057057972 0.00077482767 -0.00092325581
0.0007546377 7.3793111e-05 -0.0036703488
-0.00027608697 0.0010331036 -0.00044709301
-0.0006810145 0.00011068967 -0.0026447675
0.0011963769 0.00077482767 -0.00048372094
0.0012331884 0.00070103456 -0.00066686049
-1.8405797e-05 -0.00059034489 -0.00088662788
0.00038652174 7.3793111e-05 -0.0022418604
-0.00016565218 0.00055344834 -0.00088662788
-0.00097550725 0.00022137933 -0.00088662788
0.0012331884 0.00044275867 -0.00092325581
-0.0010123189 -0.00051655178 -0.00092325581
-0.00082826085 -0.00047965522 -0.00095988374
-0.00023927537 0.00011068967 -7.5581397e-06
-0.00086507248 0.0010331036 -0.00041046512
-0.00079144927 -7.3793111e-05 -0.0025348838
0.001085942 0.00077482767 -0.00011744186
-0.0007546377 7.3793111e-05 -0.0011063954
-0.0010123189 -0.00044275867 -0.00092325581
-0.00079144927 -0.00011068967 -0.0035604651
0.00079144927 0.00014758622 0.001127907
0.00057057972 -0.0010331036 -0.00015406977
0.00064420293 -0.00095931045 -0.00077674421
-0.00057057972 0.00084862078 -7.5581397e-06
5.5217391e-05 0.00081172423 -0.00011744186
0.00057057972 -0.00011068967 0.00072499999
0.00046014492 0.00022137933 0.00032209302
-0.00071782607 -0.00022137933 0.0018604652
-1.8405797e-05 0.00081172423 -0.00088662788
-0.00057057972 -0.00022137933 -0.0012162791
-0.00097550725 -0.00047965522 -0.00092325581
0.0006810145 -0.00011068967 -0.0014360466
0.00053376809 -0.00011068967 0.0016773256
-0.0010123189 -0.0010331036 -0.00070348836
0.00079144927 0.00014758622 -0.0027180233
-5.5217391e-05 0.00062724145 -0.00088662788
0.00057057972 -0.000332069 -0.00026395349
-5.5217391e-05 -0.0010331036 -4.4186047e-05
0.00027608697 -0.00070103456 -0.00015406977
0.00079144927 0.00018448278 -0.002827907
0.0011595652 0.000664138 -0.00088662788
0.0006073913 0.00088551734 -0.00011744186
0.00064420293 -0.00070103456 -0.00092325581
-0.0010123189 -0.00092241389 -0.00088662788
0.00049695652 -0.00011068967 0.0002122093
-0.00049695652 -0.00018448278 0.0014209303
-0.00079144927 -3.6896556e-05 -0.0022052326
-0.00023927537 -0.00025827589 -4.4186047e-05
-0.00049695652 7.3793111e-05 -0.0030476744
0.0010491305 0.00073793111 -0.00011744186
0.00038652174 7.3793111e-05 0.0018238372
0.0006810145 -0.00011068967 -0.0019488372
-0.00090188405 -0.0010331036 -0.00019069767
0.00064420293 -0.00011068967 -0.0033040699
0.00042333335 0 0.00076162792
-0.00049695652 -0.00018448278 -0.0023883721
0.001085942 -0.00092241389 -0.00088662788
1.8405797e-05 0.0010331036 -7.5581397e-06
-0.00057057972 0.00011068967 0.0019337209
0.0010123189 -0.00081172423 -0.00092325581
0.00049695652 -0.0010331036 -0.00041046512
0.00079144927 -3.6896556e-05 -0.0025348838
-0.00049695652 -0.00022137933 -0.002791279
-0.0011963769 -0.00081172423 -0.00030058139
-0.0006810145 0.00011068967 -0.0032674419
0.00038652174 0.00014758622 0.0017139534
0.0006810145 -7.3793111e-05 -0.0036703488
-0.00049695652 0 -0.0023883721
0.00064420293 -0.00011068967 -0.0018023256
0.00071782607 -7.3793111e-05 -0.0029011627
-0.001085942 -0.00081172423 -0.00092325581
0.0010491305 0.0010331036 -0.00019069767
0.0006810145 0.0010331036 -0.00019069767
0.00020246377 -0.00095931045 -7.5581397e-06
-0.00064420293 -0.00022137933 -0.0029011627
0.00127 -0.00040586211 -0.00085000001
0.00079144927 0.00018448278 -0.0024616278
0.00042333335 0.00047965522 -0.00095988374
0.00082826085 -0.000332069 -0.00026395349
0.0006810145 0.00022137933 0.0017505814
0.0007546377 0.00022137933 -0.0017290697
0.00016565218 0.00092241389 -7.5581397e-06
0.0007546377 0.00062724145 -0.00026395349
0.00079144927 0.00062724145 -0.00092325581
-0.00027608697 0.00018448278 -4.4186047e-05
-1.8405797e-05 0.000996207 -7.5581397e-06
-0.0011595652 0.00084862078 -8.0813952e-05
0.00038652174 7.3793111e-05 -0.0021686046
0.00046014492 0.00022137933 -0.0023883721
0.00042333335 0.00022137933 -0.0013994186
0.00127 -0.00029517245 -0.00037383722
-0.00079144927 0.0010331036 -0.00066686049
-0.0011963769 -0.00018448278 -7.5581397e-06
0.00097550725 -0.00055344834 -0.00011744186
-0.0006073913 0.00011068967 -0.0022784884
0.0010491305 -0.00077482767 -7.5581397e-06
-0.00127 -0.00059034489 -0.00037383722
0.00012884058 0.0010331036 -0.00077674421
0.00127 -0.00051655178 -0.00059360464
0.00079144927 0.00011068967 -0.0018023256
0.00042333335 -7.3793111e-05 -0.0016924419
-0.00057057972 -0.0010331036 -7.5581397e-06
0.00046014492 3.6896556e-05 -0.0024250001
-0.0006810145 0.00011068967 0.00076162792
-0.00053376809 0.00014758622 -0.0011430233
-0.00127 0.00081172423 -0.00088662788
-0.00057057972 0.00011068967 0.0010546512
0.00049695652 0.00022137933 0.00010232558
0.00038652174 3.6896556e-05 -0.0032674419
-0.0010491305 -0.00081172423 -0.00011744186
-0.00082826085 0.00095931045 -0.00011744186
-0.00086507248 0.0010331036 -0.00077674421
0.00031289854 0.00073793111 -0.00019069767
-0.00057057972 -0.00022137933 0.001530814
0.00057057972 0.0010331036 -0.00077674421
0.00079144927 0 0.00079825579
0.00031289854 -0.000664138 -0.00022732558
0.00057057972 -0.00036896556 -0.00026395349
-0.0006810145 -0.00014758622 -0.0035604651
-0.00079144927 -7.3793111e-05 -0.0032308139
-0.00071782607 7.3793111e-05 0.0013110465
-0.00082826085 -0.00088551734 -0.00011744186
-5.5217391e-05 -0.0010331036 -0.00019069767
-0.00038652174 -7.3793111e-05 -0.0015825582
0.00042333335 -7.3793111e-05 -0.0020587209
0.0010123189 -0.00040586211 -0.00026395349
0.00064420293 -0.00011068967 -0.0033773256
0.00049695652 0.00022137933 0.00046860464
-0.00086507248 -0.00062724145 -0.00092325581
0.00097550725 0.00070103456 -0.00088662788
5.5217391e-05 -0.0010331036 -0.00066686049
-0.0011227536 0.00092241389 -0.00041046512
0.00057057972 -3.6896556e-05 0.0020069766
-0.0011595652 0.00047965522 -0.00088662788
0.00049695652 -0.00070103456 -0.00092325581
0.00079144927 -3.6896556e-05 0.0016040697
-0.00090188405 -0.00047965522 -0.00026395349
-0.00027608697 0 -0.00099651166
0.00020246377 3.6896556e-05 -0.00092325581
-0.00049695652 3.6896556e-05 -0.0024616278
-0.00090188405 7.3793111e-05 -4.4186047e-05
0.00012884058 -0.00092241389 -0.00092325581
-0.0006073913 -0.00022137933 0.0015674419
0.00127 7.3793111e-05 -0.00085000001
0.00127 0.00025827589 -0.00026395349
-0.00079144927 -0.00011068967 -0.0029011627
0.00049695652 -0.00011068967 0.0013843023
-0.00079144927 -0.00011068967 -0.0031941861
0.0011595652 0.00084862078 -0.00063023256
0.00086507248 -0.00059034489 -0.00011744186
9.2028982e-05 -0.0010331036 -0.00059360464
-0.0007546377 -0.00073793111 -0.00019069767
0.00127 0.00029517245 -0.00077674421
0.00042333335 0.0010331036 -0.00037383722
-0.0007546377 -0.0010331036 -0.00011744186
0.0007546377 -7.3793111e-05 0.00043197675
-0.00020246377 0.00088551734 -0.00088662788
-0.00079144927 -0.00011068967 0.0019337209
0.00086507248 -0.000664138 -0.00092325581
0.00064420293 0.00022137933 0.00087151164
-0.00027608697 0.00036896556 -0.00092325581
0.00064420293 0.00022137933 0.0018238372
-5.5217391e-05 -0.00018448278 -7.5581397e-06
-9.2028982e-05 0.000664138 -0.00026395349
-0.00042333335 0.0010331036 -0.00070348836
0.00071782607 -0.00044275867 -0.00092325581
0.0006073913 3.6896556e-05 0.0021168604
0.0011963769 0.00073793111 -0.00019069767
-0.0006810145 0.00011068967 -0.0031575582
0.00049695652 -0.00011068967 0.00043197675
0.00042333335 -0.00070103456 -0.00092325581
-0.00127 -7.3793111e-05 -0.00022732558
0.00127 0.00025827589 -0.00081337208
1.8405797e-05 0.0010331036 -0.00044709301
0.00038652174 3.6896556e-05 -0.0014360466
-0.0006810145 0.00011068967 0.00046860464
-0.00090188405 -7.3793111e-05 -0.00099651166
-0.00079144927 -0.00014758622 0.0012011628
0.00086507248 -0.00051655178 -0.00026395349
-0.00053376809 0.00011068967 -0.0022784884
0.00086507248 -0.00011068967 -0.00011744186
0.00049695652 -0.00011068967 0.00032209302
0.00049695652 0.00022137933 0.0011645348
-0.00038652174 0.00051655178 -0.00092325581
0.00038652174 0.00040586211 -0.00099651166
9.2028982e-05 0.00018448278 -7.5581397e-06
0.00127 -0.00051655178 -0.00022732558
-0.00057057972 -0.00022137933 -0.0027546512
0.00064420293 -0.0010331036 -0.00052034884
0.00053376809 -0.00011068967 -0.0015093023
-0.00049695652 -0.0010331036 -8.0813952e-05
-0.0011227536 -0.000996207 -0.00066686049
0.00012884058 -0.000664138 -0.00026395349
0.00079144927 3.6896556e-05 -0.0018389535
-0.00031289854 0.00073793111 -0.00088662788
0.0007546377 0.00092241389 -0.00088662788
0.00038652174 0.00011068967 -0.0033040699
0.00127 3.6896556e-05 -0.00063023256
-0.00097550725 0.000332069 -0.00026395349
-0.00057057972 -0.00022137933 0.0017505814
-0.00127 0.00077482767 -0.00070348836
0.0007546377 -7.3793111e-05 -0.0033406976
0.00049695652 -0.00059034489 -0.00092325581
0.00079144927 -0.00059034489 -0.00022732558
0.00079144927 0.00014758622 0.00043197675
0.00027608697 -0.00044275867 -0.00092325581
-0.00093869568 -0.00011068967 -7.5581397e-06
-0.00071782607 7.3793111e-05 -0.0019122093
-0.00038652174 0.0010331036 -0.00063023256
0.00079144927 -7.3793111e-05 -0.0036703488
0.00064420293 0.00018448278 -0.0037802325
-0.0006073913 -0.00022137933 0.00072499999
0.00127 -0.00018448278 -0.00066686049
0.00038652174 -0.00047965522 -0.00026395349
0.00064420293 -0.00011068967 -0.0019488372
-0.00057057972 0.00011068967 -0.0031209302
0.0011595652 0.00088551734 -0.00085000001
-0.00016565218 -0.00088551734 -7.5581397e-06
0.00064420293 0.000664138 -0.0010331395
-0.0006073913 -0.0010331036 -0.00052034884
9.2028982e-05 0.00059034489 -0.00026395349
-0.00012884058 -0.00025827589 -0.00015406977
-0.00057057972 -0.0010331036 -0.00066686049
-0.00064420293 0.00022137933 -0.00011744186
-0.00034971014 -0.0010331036 -0.00055697677
-0.00090188405 -0.000332069 -0.00092325581
0.00042333335 -7.3793111e-05 -0.0015825582
0.00038652174 -0.0010331036 -0.00037383722
-0.00034971014 -0.00014758622 -0.0010331395
0.0012331884 -0.00014758622 -0.00011744186
-0.0007546377 -0.00022137933 -0.0017290697
0.00027608697 -7.3793111e-05 -0.00092325581
0.00064420293 0.00055344834 -0.00026395349
0.00016565218 -0.0010331036 -0.00066686049
0.00086507248 0.0010331036 -0.00041046512
-0.00053376809 -0.00022137933 0.0017139534
-0.00012884058 -0.00022137933 -0.00092325581
-0.00027608697 -0.0010331036 -0.00077674421
0.00064420293 0.00022137933 -0.0022052326
-0.00049695652 -0.00029517245 -0.00022732558
0.00057057972 0.00022137933 -0.0034139536
0.00053376809 -0.00062724145 -0.00092325581
-0.00016565218 0.0010331036 -0.00033720929
-0.0006810145 0.00011068967 -0.0022784884
0.0011963769 -0.000664138 -0.00011744186
0.00038652174 -0.00022137933 -0.00015406977
-0.00064420293 -0.00022137933 0.0012377907
0.0006810145 0.00022137933 0.001530814
0.0012331884 0.00070103456 -0.00074011629
0.00053376809 0.00014758622 0.0020069766
-0.00079144927 -0.00011068967 -0.0012162791
0.00127 0.00014758622 -0.00059360464
0.00016565218 -0.00047965522 -0.00092325581
-0.00079144927 -0.00011068967 -0.0018023256
0.0007546377 -7.3793111e-05 0.00028546512
1.8405797e-05 0.00081172423 -0.00011744186
0.00079144927 0.00014758622 -0.0013261628
0.0006810145 -0.00011068967 0.00065174419
0.0011595652 -0.00084862078 -0.00041046512
0.00079144927 0 0.00035872092
0.00086507248 0.00040586211 -0.00092325581
0.00053376809 0.00092241389 -4.4186047e-05
0.00027608697 -0.00029517245 -0.00092325581
0.00064420293 0.00022137933 -0.002827907
-0.00027608697 -0.00070103456 -0.00088662788
-0.00053376809 0 0.0020436046
0.00020246377 -0.00081172423 -0.00092325581
-0.00023927537 0.0010331036 -8.0813952e-05
-0.0006073913 -0.0010331036 -0.00011744186
0.001085942 0.00051655178 -0.00092325581
-0.00042333335 -0.00011068967 -0.0015459303
-0.00079144927 0 -0.0020953489
5.5217391e-05 -3.6896556e-05 -0.00092325581
-0.0007546377 -0.00022137933 -0.0016924419
0.00020246377 -0.00059034489 -0.00026395349
0.0011963769 0.00062724145 -0.00026395349
-0.00086507248 0.0010331036 -0.00063023256
-0.00023927537 -0.0010331036 -0.00026395349
0.00097550725 0.0010331036 -0.00088662788
0.00016565218 -0.00070103456 -0.00019069767
0.00127 0.00055344834 -0.00052034884
0.0011963769 0.00081172423 -0.00070348836
0.00034971014 -0.00070103456 -0.00092325581
-0.00016565218 -0.0010331036 -0.00059360464
-0.00079144927 0 -0.002864535
0.00023927537 0.00055344834 -0.00026395349
0.00071782607 -0.00081172423 -0.00092325581
0.00038652174 3.6896556e-05 0.00083488371
0.00082826085 0.0010331036 -0.00052034884
-0.00071782607 -0.00022137933 0.00013895349
0.0006810145 0.00022137933 0.0014209303
0.0010123189 -0.00095931045 -0.00088662788
-0.0010123189 3.6896556e-05 -7.5581397e-06
-0.00034971014 0.00011068967 -0.00099651166
-0.00079144927 7.3793111e-05 0.0011645348
-0.00079144927 -3.6896556e-05 0.0011645348
0.00079144927 0.00011068967 -0.0030476744
-0.0007546377 0.00051655178 -0.00092325581
0.00038652174 -0.000996207 -0.00070348836
-0.00057057972 7.3793111e-05 0.0020436046
-0.0012331884 0.00025827589 -0.00026395349
0.00086507248 -0.00088551734 -0.00088662788
0.00079144927 -7.3793111e-05 0.00079825579
0.0006810145 -0.00011068967 -0.0022052326
0.00020246377 0.0010331036 -0.00033720929
0.00038652174 0.00014758622 -0.0017290697
0.00046014492 0.00014758622 -0.002827907
0.00090188405 -0.00084862078 -7.5581397e-06
-0.00071782607 0.00014758622 -0.0010331395
-0.00049695652 0.00011068967 0.00076162792
-0.00079144927 0 0.0013110465
-0.00042333335 -0.00011068967 -0.0016924419
0.0007546377 0.00022137933 0.00013895349
0.0011963769 -0.00081172423 -0.00088662788
-0.00086507248 0.0010331036 -0.00033720929
-0.00097550725 0.000996207 -0.00077674421
0.00127 -0.00047965522 -0.00037383722
-0.00016565218 -0.00073793111 -0.00019069767
9.2028982e-05 0.0010331036 -0.00077674421
-0.00079144927 -0.00018448278 0.0002122093
0.00023927537 -0.0010331036 -0.00048372094
0.00057057972 0.00022137933 0.0016406977
0.00071782607 -7.3793111e-05 0.0020069766
-0.00071782607 7.3793111e-05 -0.0026447675
-0.00064420293 -0.00018448278 0.0019337209
0.00057057972 -0.00011068967 -0.0018389535
-0.00053376809 0.00077482767 -8.0813952e-05
0.00057057972 0.00022137933 -0.0035604651
0.00064420293 -0.00011068967 -0.0023883721
-0.00057057972 0.0010331036 -0.00044709301
-0.00031289854 -0.0010331036 -0.00052034884
0.0011227536 -0.00092241389 -0.00055697677
-0.0011595652 0.00084862078 -0.00030058139
-0.001085942 0.00070103456 -8.0813952e-05
-0.0007546377 -0.00022137933 -0.0034872093
-0.0006810145 -0.00022137933 0.0016040697
-0.0007546377 7.3793111e-05 0.00050523254
0.00093869568 0.00070103456 -0.00015406977
0.0012331884 -0.00084862078 -0.00070348836
-0.00082826085 -0.00051655178 -0.0010331395
0.00057057972 0.00022137933 -0.0034872093
0.00079144927 0.00018448278 0.00035872092
-0.00071782607 -0.00081172423 -0.00092325581
0.00079144927 -0.00062724145 -0.00092325581
-0.00079144927 0 -0.0026081395
0.00038652174 0.00011068967 0.00090813951
-0.00046014492 -0.00014758622 -0.0027546512
-0.00016565218 -0.0010331036 -8.0813952e-05
5.5217391e-05 0.00055344834 -0.00026395349
0.00082826085 0.0010331036 -0.00055697677
-0.00079144927 -3.6896556e-05 -0.0027546512
0.00046014492 0.00022137933 -0.0027546512
-9.2028982e-05 -0.00092241389 -0.00088662788
-1.8405797e-05 0.00022137933 -8.0813952e-05
0.00057057972 -0.00011068967 0.0013110465
-0.00031289854 0.00047965522 -0.00088662788
0.00127 -0.00062724145 -0.00088662788
0.00093869568 0.0010331036 -0.00088662788
-0.00071782607 0.0010331036 -0.00088662788
0.0010123189 0.0010331036 -0.00030058139
-0.00038652174 -3.6896556e-05 -0.0035604651
0.0012331884 -0.00084862078 -0.00030058139
0.0006810145 -0.00011068967 -0.0034139536
-0.001085942 -0.00073793111 -0.00088662788
-0.00042333335 0.0010331036 -0.00052034884
-0.00071782607 -0.0010331036 -0.00055697677
0.00049695652 -0.00077482767 -4.4186047e-05
-0.0006810145 0.00011068967 0.00083488371
-0.0011595652 -0.00088551734 -0.00066686049
-0.00079144927 0 -0.0024250001
0.00046014492 -3.6896556e-05 0.00087151164
0.00053376809 0.00022137933 0.00050523254
-0.0012331884 0.00040586211 -0.00088662788
0.00064420293 0.0010331036 -7.5581397e-06
-0.0010491305 -0.0010331036 -0.00063023256
-0.00064420293 0.00011068967 -0.0021686046
-0.00082826085 -0.00059034489 -0.0010331395
0.00046014492 0.00022137933 -0.0015459303
-0.0011595652 0.00051655178 -0.00015406977
0.00093869568 0.00040586211 -0.00092325581
0.00031289854 -0.00011068967 -0.00092325581
0.0011963769 0.00022137933 -4.4186047e-05
0.00031289854 -0.00044275867 -0.00092325581
-0.00034971014 0.00062724145 -0.00026395349
0.00071782607 0.00022137933 -0.002791279
-0.00049695652 -0.00022137933 0.001494186
-0.00071782607 7.3793111e-05 -0.003633721
0.00090188405 -0.000996207 -0.00011744186
0.0007546377 0.00022137933 -0.0023883721
0.0012331884 -0.00011068967 -0.00088662788
-0.00023927537 0.0010331036 -0.00026395349
0.00031289854 0.00095931045 -0.00088662788
0.00127 -0.00022137933 -0.00055697677
-0.00079144927 -0.00018448278 0.00043197675
-0.00127 -0.000332069 -0.00088662788
0.00027608697 -0.000996207 -4.4186047e-05
0.00082826085 -3.6896556e-05 0.00010232558
-0.00057057972 -0.00011068967 0.0021168604
0.00053376809 0 0.0020436046
-0.00057057972 0.00011068967 -0.003633721
0.0010491305 -0.00088551734 -0.00074011629
-0.00079144927 3.6896556e-05 -0.0019122093
0.001085942 0.00070103456 -0.00088662788
-0.00079144927 -0.000664138 -0.00026395349
0.0007546377 0.00022137933 -0.0026813953
0.00071782607 -0.00040586211 -0.00092325581
-0.00038652174 -7.3793111e-05 0.00065174419
0.0006073913 -0.00011068967 -0.0024982558
-0.00071782607 7.3793111e-05 -0.0015459303
0.00042333335 -7.3793111e-05 -0.0029744187
-0.00082826085 0.000664138 -0.00011744186
-0.00031289854 -0.0010331036 -0.00085000001
-0.00127 0.00047965522 -0.00059360464
-0.0006810145 -0.00022137933 -0.0031575582
-0.00046014492 0 0.0010180232
0.00071782607 -7.3793111e-05 -0.0015459303
-0.00071782607 0.00040586211 -0.00026395349
0.00049695652 -0.00025827589 -0.00026395349
0.00082826085 -0.00095931045 -0.00066686049
0.00042333335 0.0010331036 -0.00011744186
-0.0012331884 -0.00070103456 -0.00077674421
0.00042333335 -0.0010331036 -0.00059360464
0.00079144927 0.00018448278 -0.0015459303
-0.0011963769 0.00055344834 -0.00088662788
0.00016565218 -0.00070103456 -0.00022732558
-0.00023927537 0.000332069 -0.00092325581
0.00079144927 0.00018448278 -0.0014360466
0.0011963769 0.00081172423 -0.00055697677
-0.00127 0.00073793111 -7.5581397e-06
0.0012331884 -0.00084862078 -0.00055697677
-0.00064420293 -0.00011068967 0.0020069766
0.00090188405 -0.00011068967 -0.00092325581
-0.00046014492 -0.00014758622 0.00028546512
-0.00079144927 -0.00011068967 0.00090813951
-0.00082826085 -0.00051655178 -0.00099651166
0.0006810145 0.00062724145 -0.0010331395
0.0007546377 0.00022137933 -0.0024616278
0.00093869568 -0.00051655178 -0.00026395349
0.00046014492 0.00022137933 -0.0015093023
0.00071782607 -7.3793111e-05 0.0020436046
0.00057057972 -0.00011068967 -0.002827907
-0.00046014492 7.3793111e-05 0.0016406977
0.00031289854 -3.6896556e-05 -7.5581397e-06
-0.0006073913 0.00051655178 -0.00026395349
-0.0006073913 0.00011068967 0.0017139534
0.00079144927 0.00011068967 0.0013476744
0.00071782607 -7.3793111e-05 -0.0018389535
0.00049695652 3.6896556e-05 -0.0032308139
1.8405797e-05 -0.00092241389 -7.5581397e-06
-0.00079144927 3.6896556e-05 0.00010232558
0.00053376809 0.00022137933 -0.0032308139
-0.00127 -3.6896556e-05 -0.00041046512
0.00023927537 0.0010331036 -4.4186047e-05
-0.0006810145 -0.00022137933 -0.001619186
-0.00031289854 -0.00047965522 -0.00092325581
-0.00057057972 -0.00022137933 0.0010180232
0.00079144927 0.00014758622 -0.003633721
0.00127 -0.00055344834 -0.00048372094
-0.00020246377 -0.0010331036 -0.00030058139
-0.00049695652 -0.00018448278 0.00032209302
0.00093869568 -0.000996207 -0.00044709301
-0.00097550725 -0.00022137933 -0.00092325581
-0.00031289854 -0.00073793111 -0.00019069767
0.00071782607 0.00022137933 -0.0031941861
0.0011595652 -0.00084862078 -0.00044709301
-0.001085942 0.00040586211 -0.00088662788
0.00127 0.00051655178 -0.00030058139
-0.00016565218 0.0010331036 -0.00081337208
-0.00093869568 0.000996207 -0.00088662788
0.00082826085 0.00022137933 -7.5581397e-06
-0.00034971014 -0.00051655178 -0.00092325581
-0.0006073913 -0.0010331036 -0.00041046512
0.0007546377 0.00022137933 -0.0033773256
0.0006073913 -0.00011068967 -0.0032674419
0.0006810145 -0.00011068967 0.00068837212
-0.00031289854 -0.00025827589 -4.4186047e-05
0.0011227536 -0.00044275867 -0.00026395349
-0.00046014492 0.00092241389 -0.00088662788
-0.0012331884 0 -7.5581397e-06
0.00090188405 0.00073793111 -0.00011744186
0.00046014492 -3.6896556e-05 -0.0018389535
0.0007546377 0.00022137933 0.00050523254
-0.00057057972 0.00011068967 0.00090813951
0.00057057972 -0.00011068967 -0.0017656977
0.00064420293 0.00022137933 -0.0017290697
0.00097550725 0.00025827589 -0.00092325581
-0.0011227536 3.6896556e-05 -4.4186047e-05
0.00127 -0.00055344834 -0.00044709301
0.001085942 -0.00081172423 -0.00088662788
0.00031289854 0.0010331036 -0.00066686049
0.00016565218 -0.00088551734 -0.00092325581
0.00127 0.00029517245 -0.00011744186
-0.0011227536 3.6896556e-05 -7.5581397e-06
-0.00057057972 -0.00022137933 0.00094476744
0.00127 0 -0.00077674421
0.0006810145 0.00022137933 0.00094476744
9.2028982e-05 -0.0010331036 -0.00019069767
-0.00093869568 -0.00047965522 -0.00092325581
-0.00127 0.00070103456 -0.00088662788
0.00034971014 -0.0010331036 -0.00015406977
-0.0006810145 -0.00018448278 0.0019337209
0.0007546377 -7.3793111e-05 -0.0023883721
0.00079144927 7.3793111e-05 -0.0023151163
-0.00042333335 0 -0.0033773256
-0.00079144927 -0.00014758622 -0.0019854652
0.00038652174 0.00011068967 0.00050523254
0.0010491305 -0.00014758622 -0.00088662788
5.5217391e-05 -0.00029517245 -0.00092325581
0.0007546377 0.00022137933 0.0018238372
0.00086507248 0.00036896556 -0.00015406977
-0.00086507248 -0.00029517245 -7.5581397e-06
-0.0007546377 7.3793111e-05 0.0012011628
0.0011227536 -0.00073793111 -8.0813952e-05
0.00046014492 -0.0010331036 -0.00030058139
0.00046014492 -0.00022137933 -0.00095988374
-0.0006810145 0.00011068967 0.00090813951
-0.00127 0.00040586211 -0.00030058139
0.00046014492 -0.00047965522 -0.00026395349
-0.0010123189 0.000664138 -0.00088662788
-0.00082826085 -0.00059034489 -0.00095988374
-0.0011595652 -0.00084862078 -0.00030058139
-0.00079144927 7.3793111e-05 -0.0011796511
0.00046014492 -3.6896556e-05 0.0013476744
0.00027608697 -0.00088551734 -0.00092325581
-0.0006073913 0.00095931045 -7.5581397e-06
-0.00127 -0.00029517245 -0.00085000001
-0.0012331884 -0.000664138 -0.00052034884
-0.00016565218 -0.00025827589 -0.00019069767
0.00057057972 -0.00011068967 -0.002864535
0.0007546377 0.00022137933 0.0013476744
-0.00097550725 -0.0010331036 -0.00037383722
0.00057057972 -0.00011068967 -0.0030476744
0.00031289854 -0.00025827589 -0.00092325581
0.0007546377 -0.00047965522 -0.00026395349
-0.00049695652 -0.00018448278 -0.0022784884
0.00038652174 0.00014758622 -0.0023151163
0.00027608697 0.00025827589 -0.00019069767
-0.00079144927 -7.3793111e-05 -0.0023883721
-0.0010491305 -0.00051655178 -0.00026395349
1.8405797e-05 -0.00047965522 -0.00092325581
-0.00053376809 -0.0010331036 -4.4186047e-05
0.0011963769 0.00077482767 -0.00066686049
-9.2028982e-05 -0.00022137933 -8.0813952e-05
-0.00064420293 -0.0010331036 -0.00085000001
0.00127 0.000332069 -0.00070348836
0.00049695652 0.00022137933 0.00068837212
0.00038652174 3.6896556e-05 -0.0020220929
0.00090188405 -0.00088551734 -0.00088662788
-0.00079144927 -0.00018448278 -0.002791279
-0.00064420293 -0.00022137933 -0.0034872093
-0.00038652174 -7.3793111e-05 0.00076162792
-0.0010491305 0.00022137933 -0.00011744186
0.00042333335 -7.3793111e-05 -0.0027546512
-0.001085942 0.00051655178 -0.00026395349
0.0006810145 0.00022137933 -0.0035238373
0.00042333335 0.00018448278 -0.0017656977
-0.0011595652 -0.00092241389 -0.00070348836
-0.00016565218 -0.00084862078 -4.4186047e-05
0.00079144927 0.00018448278 -0.0022784884
-0.00079144927 0 -0.0017290697
0.00012884058 -0.0010331036 -0.00033720929
0.00127 -0.00044275867 -0.00088662788
0.00079144927 0.00018448278 0.0013476744
-0.00064420293 0.00011068967 0.0017139534
-0.00038652174 0.00044275867 -0.00026395349
-0.0010123189 -0.000332069 -8.0813952e-05
-0.0011595652 0.00084862078 -0.00066686049
0.0011595652 0.000332069 -0.00011744186
0.00031289854 0.00088551734 -8.0813952e-05
-0.00012884058 -0.00029517245 -0.00092325581
0.00079144927 3.6896556e-05 -0.002827907
0.00038652174 -0.00062724145 -0.00026395349
0.00049695652 -0.00011068967 -0.0011430233
0.001085942 -0.00073793111 -7.5581397e-06
0.00086507248 0.00044275867 -0.00092325581
0.00016565218 0.00095931045 -0.00088662788
-0.00023927537 -0.00047965522 -0.00088662788
0.0006810145 0.00022137933 0.0014575581
-0.00082826085 0.00059034489 -0.00015406977
0.00079144927 7.3793111e-05 0.00083488371
-0.0006810145 0.00088551734 -7.5581397e-06
-0.00090188405 0.00047965522 -0.00026395349
-0.00057057972 -0.00025827589 -7.5581397e-06
-0.0010123189 -0.0010331036 -0.00022732558
0.00034971014 0.0010331036 -0.00026395349
-0.0006810145 0.00011068967 0.0014209303
-0.00127 0 -7.5581397e-06
0.00090188405 0.0010331036 -0.00030058139
-5.5217391e-05 0.00055344834 -0.00026395349
0.00034971014 0.00047965522 -0.00026395349
0.00127 0.00011068967 -0.00044709301
-0.00127 0.00018448278 -0.00044709301
-0.0010491305 -0.000332069 -4.4186047e-05
-0.00127 0.00077482767 -0.00022732558
0.00012884058 0.00073793111 -0.00019069767
-0.0011227536 0.00077482767 -7.5581397e-06
-0.00053376809 -0.00022137933 0.00035872092
-0.00079144927 0.00059034489 -0.00019069767
-0.0010491305 -0.00040586211 -0.00022732558
-0.00079144927 3.6896556e-05 -0.0021686046
0.0011963769 0.00070103456 -0.00015406977
-0.00090188405 -0.0010331036 -0.00048372094
0.0011227536 -0.00092241389 -0.00015406977
0.0007546377 -7.3793111e-05 -0.0035604651
-0.00042333335 -7.3793111e-05 -0.002864535
-0.00079144927 -0.00014758622 -0.0022418604
0.00038652174 0.00014758622 0.00043197675
0.00038652174 0.00014758622 -0.0024250001
-0.0012331884 -0.00070103456 -0.00066686049
0.0006073913 -0.00011068967 0.0010180232
-0.00127 -0.00062724145 -0.00070348836
-0.0006073913 0.00011068967 -0.0017656977
0.00057057972 -0.00062724145 -0.00019069767
0.00079144927 7.3793111e-05 -0.003633721
-0.00086507248 -0.00040586211 -0.00095988374
-0.0011227536 0.00011068967 -0.00088662788
5.5217391e-05 -0.000996207 -0.00092325581
0.00046014492 0.00088551734 -0.00011744186
-0.0011595652 0.00088551734 -0.00037383722
-0.00057057972 -0.0010331036 -0.00059360464
0.00012884058 0.00044275867 -0.00026395349
-0.00053376809 0.00011068967 0.0012011628
-0.0006073913 -0.00022137933 0.0018238372
-0.0011227536 -0.00095931045 -0.00022732558
-0.00038652174 -0.00011068967 -0.0033773256
0.00071782607 -7.3793111e-05 -0.0011796511
-0.0007546377 0.00022137933 -0.00022732558
-9.2028982e-05 0.00044275867 -0.00026395349
-0.00079144927 7.3793111e-05 -0.002827907
0.00082826085 7.3793111e-05 -0.0010331395
0.00023927537 0.0010331036 -0.00030058139
-0.00046014492 -0.00014758622 0.00087151164
-0.00071782607 7.3793111e-05 -0.0030843024
0.00064420293 -0.00011068967 -0.0032674419
0.00079144927 0.00014758622 -0.0017290697
0.00046014492 -3.6896556e-05 -0.0033406976
-0.00038652174 -7.3793111e-05 0.0013110465
0.00027608697 0.00059034489 -0.00092325581
-0.00093869568 0.00070103456 -7.5581397e-06
-9.2028982e-05 -0.0010331036 -0.00022732558
-0.00027608697 0.0010331036 -0.00077674421
-0.00027608697 -0.00044275867 -0.00026395349
-9.2028982e-05 0.0010331036 -0.00085000001
0.0007546377 0.0010331036 -0.00030058139
0.00042333335 0.00018448278 0.0010912791
-0.00034971014 -0.0010331036 -0.00048372094
-0.00027608697 0.000664138 -0.00019069767
0.00031289854 0.00022137933 -4.4186047e-05
-0.00082826085 -0.00095931045 -0.00092325581
0.00020246377 -0.0010331036 -0.00063023256
0.00127 -0.00044275867 -0.00070348836
-0.00046014492 7.3793111e-05 -0.0034505813
-0.00097550725 -0.00073793111 -0.00092325581
-0.0007546377 -0.00018448278 -0.0015825582
0.0012331884 -0.00062724145 -0.00011744186
0.00057057972 -0.00011068967 -0.0022052326
0.00038652174 0.00011068967 0.0012011628
-0.00079144927 -0.00018448278 0.0019337209
0.00053376809 0.000664138 -0.00099651166
0.00049695652 -0.00011068967 0.001530814
-0.00079144927 -0.00018448278 0.0018238372
5.5217391e-05 -0.00047965522 -0.00026395349
0.00049695652 0.00022137933 -0.0019122093
-0.00064420293 -0.00022137933 0.00090813951
-0.00079144927 3.6896556e-05 0.0010546512
0.00090188405 -0.00095931045 -0.00081337208
-0.00046014492 3.6896556e-05 -0.0017290697
-5.5217391e-05 -0.00077482767 -0.00088662788
0.00038652174 0.00022137933 -7.5581397e-06
-0.00097550725 0.00029517245 -0.00026395349
-0.00053376809 -0.00022137933 -0.0030476744
0.00071782607 -0.000332069 -0.00092325581
-0.00012884058 -0.00051655178 -0.00092325581
-0.00038652174 -7.3793111e-05 0.0018238372
0.00016565218 -0.000664138 -0.00026395349
-0.00034971014 -0.00040586211 -0.0010331395
0.00097550725 7.3793111e-05 -0.00092325581
-0.00079144927 -0.0010331036 -0.00066686049
-0.0007546377 -0.0010331036 -0.00052034884
-0.00127 -0.00025827589 -0.00055697677
-0.00064420293 -0.00022137933 -0.0027180233
-0.00049695652 0.00014758622 0.00079825579
-0.00079144927 7.3793111e-05 -0.0029011627
0.00079144927 0.00018448278 0.0017505814
0.0011227536 0.000996207 -0.00081337208
-0.00049695652 0.0010331036 -0.00081337208
0.0012331884 -0.00051655178 -0.00015406977
-0.0007546377 7.3793111e-05 -0.0011430233
-0.0012331884 -0.000664138 -0.00041046512
-0.00097550725 0.000996207 -0.00063023256
-0.0011963769 0.00062724145 -0.00088662788
-0.00042333335 0.0010331036 -0.00077674421
0.0012331884 -0.00047965522 -0.00026395349
-0.00042333335 0.00092241389 -0.00088662788
-0.00057057972 -0.00029517245 -7.5581397e-06
0.00038652174 0.00011068967 6.5697677e-05
-0.00079144927 -0.00011068967 0.0018604652
-0.00127 -0.00059034489 -0.00059360464
0.00071782607 0.00022137933 0.0016040697
0.00064420293 0.0010331036 -0.00033720929
-0.00046014492 0.00084862078 -7.5581397e-06
-0.00023927537 -0.00029517245 -0.0010331395
-0.00127 0.00055344834 -0.00088662788
-0.00038652174 -3.6896556e-05 -0.0033773256
0.00038652174 0 0.00010232558
-0.0007546377 -0.00073793111 -0.0010331395
0.00038652174 0 -0.0030843024
0.00049695652 -0.0010331036 -0.00066686049
-0.0006810145 0.00029517245 -0.00026395349
-0.00071782607 -0.00022137933 -0.0027546512
0.0006810145 -0.00011068967 -0.002864535
-0.00053376809 0.00011068967 0.001127907
0.0006810145 -0.00011068967 -0.0012895348
0.00064420293 -0.00055344834 -0.00026395349
-0.00053376809 0.00011068967 -0.001252907
-0.00079144927 -0.00011068967 -0.002791279
0.0006073913 0.000332069 -0.0010331395
0.00057057972 -7.3793111e-05 0.0019337209
-0.00031289854 0.00029517245 -0.00092325581
0.00038652174 0.00014758622 -0.0022784884
0.00097550725 -3.6896556e-05 -0.00092325581
-0.00046014492 0.00092241389 -7.5581397e-06
0.0011595652 0.00022137933 -4.4186047e-05
5.5217391e-05 -0.00018448278 -7.5581397e-06
0.00034971014 0.000332069 -0.00026395349
0.0010491305 -0.00095931045 -0.00022732558
-0.00053376809 0.00014758622 0.00083488371
0.00042333335 0.00018448278 0.0012377907
0.00127 -0.00036896556 -0.00088662788
0.00079144927 0.00011068967 0.00032209302
-0.00079144927 3.6896556e-05 0.0012744186
0.00057057972 -0.00062724145 -0.00022732558
-5.5217391e-05 -0.0010331036 -0.00085000001
-0.00082826085 -0.00073793111 -0.00011744186
1.8405797e-05 -0.0010331036 -0.00048372094
0.0006073913 -0.00011068967 -0.0034872093
-5.5217391e-05 -0.00025827589 -0.00026395349
-0.0011595652 -0.00092241389 -0.00026395349
0.0006810145 -0.00077482767 -7.5581397e-06
0.00127 -0.00022137933 -0.00033720929
-0.00086507248 -0.00047965522 -0.00092325581
-0.00042333335 -3.6896556e-05 0.0012744186
-0.00057057972 -3.6896556e-05 0.0021901163
0.00082826085 -0.00062724145 -0.00011744186
-0.0010123189 -0.00036896556 -0.00011744186
0.00053376809 -0.00011068967 0.0014575581
-1.8405797e-05 -3.6896556e-05 -7.5581397e-06
-0.00049695652 -0.00018448278 0.00098139537
-0.00079144927 -3.6896556e-05 -0.0034872093
0.001085942 0.00044275867 -0.00092325581
-0.00127 0.00025827589 -0.00033720929
-0.00049695652 7.3793111e-05 -0.0022052326
-0.00031289854 0.00044275867 -0.00092325581
-0.0006810145 -0.00022137933 -0.0029377907
0.0006073913 0.00022137933 -4.4186047e-05
-0.0007546377 7.3793111e-05 -0.0017290697
-0.00020246377 -0.00022137933 -7.5581397e-06
-0.00057057972 -0.00022137933 -0.0034872093
-0.00046014492 3.6896556e-05 -0.001252907
0.00079144927 3.6896556e-05 -0.0023883721
-0.00079144927 7.3793111e-05 0.00061511627
0.00027608697 0.00084862078 -0.00088662788
-0.00031289854 -0.00084862078 -7.5581397e-06
5.5217391e-05 -0.00051655178 -0.00092325581
0.00071782607 -0.00025827589 -0.0010331395
0.00053376809 0.00014758622 -0.0036703488
-0.00079144927 3.6896556e-05 -0.0034139536
0.00034971014 -0.00059034489 -0.00092325581
-0.00038652174 0.00025827589 -0.00026395349
-0.00016565218 -0.00025827589 -0.00011744186
0.0012331884 -0.00084862078 -0.00015406977
0.00127 -0.000664138 -0.00085000001
0.00042333335 0.00018448278 -0.0034872093
-0.0010491305 0.00055344834 -0.00011744186
-0.0011227536 -0.000996207 -0.00088662788
0.00090188405 -0.00092241389 -0.00011744186
0.00012884058 0.00073793111 -0.00011744186
0.00038652174 0.00062724145 -0.00092325581
-0.00079144927 -0.00018448278 -0.0011063954
0.00079144927 7.3793111e-05 0.0002488372
0.00071782607 -3.6896556e-05 0.0020436046
-0.00049695652 -0.0010331036 -0.00033720929
-0.00046014492 3.6896556e-05 0.0013110465
0.00127 -0.00011068967 -0.00033720929
-0.0006810145 -0.0010331036 -0.00044709301
-0.00049695652 0.00011068967 -0.0030110464
-0.00064420293 0.00051655178 -0.00026395349
-0.001085942 0.00084862078 -7.5581397e-06
0.00079144927 -0.00014758622 -0.00011744186
-0.00023927537 3.6896556e-05 -0.00092325581
-0.00079144927 7.3793111e-05 0.00068837212
0.00127 -0.00025827589 -0.00055697677
-0.00127 0.00022137933 -0.00052034884
0.00042333335 0.00018448278 0.0017139534
0.00071782607 0.00022137933 -0.0029744187
0.0006810145 -0.00011068967 -0.0013261628
-0.00031289854 0.00022137933 -0.00011744186
0.00079144927 7.3793111e-05 -0.0011063954
0.00079144927 3.6896556e-05 0.0010546512
0.00071782607 0.00022137933 -0.0029011627
-0.00027608697 0.00022137933 -0.00011744186
0.00038652174 7.3793111e-05 0.00098139537
-0.00079144927 -0.00014758622 0.0001755814
9.2028982e-05 0.00014758622 -0.00092325581
9.2028982e-05 0.000332069 -0.00026395349
-0.0010491305 -0.00081172423 -0.00092325581
0.00016565218 3.6896556e-05 -7.5581397e-06
0.00079144927 -3.6896556e-05 -0.0030110464
0.00049695652 0.00022137933 -0.0011063954
0.0006073913 0.00022137933 -0.0013994186
-0.0007546377 0.0010331036 -0.00033720929
-0.0010491305 0.00073793111 -0.00088662788
-0.00082826085 -0.00029517245 -7.5581397e-06
-0.00079144927 -0.00022137933 -7.5581397e-06
-0.00097550725 0.00095931045 -0.00011744186
0.00057057972 0.00018448278 -0.0036703488
0.00027608697 0.00081172423 -0.00011744186
-0.0007546377 7.3793111e-05 -4.4186047e-05
-0.00049695652 -0.0010331036 -0.00019069767
0.0012331884 0.00070103456 -0.00085000001
0.0006073913 -0.00011068967 -0.002791279
0.00071782607 -7.3793111e-05 0.001127907
-0.00071782607 0.00022137933 -0.0010331395
-0.00016565218 -0.00055344834 -0.00092325581
0.00093869568 0.0010331036 -0.00052034884
-0.00023927537 -0.00070103456 -0.00026395349
0.00127 0.00047965522 -0.00052034884
0.001085942 -0.00092241389 -0.00011744186
-0.00023927537 0.00070103456 -0.00088662788
0.00064420293 -0.00036896556 -0.00026395349
-0.0012331884 0.00077482767 -8.0813952e-05
0.00038652174 3.6896556e-05 -0.0021686046
0.00012884058 -0.0010331036 -0.00011744186
-0.00031289854 -0.000996207 -7.5581397e-06
-0.00127 -0.00055344834 -0.00044709301
0.00049695652 0.00055344834 -0.0010331395
-0.00038652174 -0.00011068967 -0.001655814
-0.0007546377 -0.00022137933 0.00061511627
-0.0012331884 -0.00044275867 -0.00011744186
0.00127 -0.00018448278 -0.00011744186
0.0011595652 -0.00084862078 -0.00030058139
0.0006810145 0.00040586211 -0.00026395349
-0.00038652174 -0.00011068967 0.00039534885
0.00079144927 -0.0010331036 -0.00055697677
-9.2028982e-05 0.00018448278 -7.5581397e-06
-0.0006810145 -0.0010331036 -4.4186047e-05
0.0006073913 0.00022137933 -0.0019854652
0.00086507248 0.00070103456 -0.00019069767
-0.001085942 0.00092241389 -0.00070348836
-0.00020246377 0.000332069 -0.00026395349
0.00064420293 -0.00011068967 0.0010180232
-0.00053376809 -0.00022137933 -0.0015825582
0.00071782607 -7.3793111e-05 -0.0021319767
-0.0006810145 0.00073793111 -7.5581397e-06
-9.2028982e-05 -0.00025827589 -0.00019069767
-0.00031289854 0.00088551734 -0.00088662788
0.00127 -0.00077482767 -0.00022732558
0.0011963769 -0.00092241389 -0.00011744186
-0.00093869568 7.3793111e-05 -8.0813952e-05
1.8405797e-05 -0.0010331036 -0.00085000001
0.00049695652 0.00022137933 0.0012377907
-0.00046014492 0.00014758622 -0.0010331395
-0.00016565218 0.0010331036 -0.00055697677
-0.00090188405 0.000996207 -0.00066686049
0.00020246377 -0.00018448278 -4.4186047e-05
-0.00027608697 0.00018448278 -8.0813952e-05
-0.00079144927 7.3793111e-05 0.0019337209
-0.00046014492 -0.00011068967 0.0010546512
0.0007546377 0.00011068967 0.0020436046
0.00042333335 0.00018448278 -0.0023151163
0.00053376809 0.00022137933 -0.0029011627
-0.0006810145 0.0010331036 -0.00048372094
-1.8405797e-05 0.0010331036 -7.5581397e-06
-5.5217391e-05 -0.00014758622 -0.00092325581
0.00071782607 0.00022137933 0.00039534885
-0.0006810145 -0.00022137933 0.00090813951
0.00082826085 -0.00040586211 -0.00092325581
-0.00046014492 -0.00011068967 0.0012011628
0.00049695652 3.6896556e-05 -0.0025348838
0.0006810145 -0.00011068967 -0.0020220929
0.00079144927 0.00011068967 0.0015674419
0.00042333335 0 -0.0034872093
0.00082826085 -0.00051655178 -0.00092325581
0.00079144927 0.00014758622 -0.0025348838
0.00027608697 0.00036896556 -0.00092325581
0.00046014492 -0.00011068967 0.0014209303
-0.00079144927 7.3793111e-05 0.00076162792
-0.0006073913 -7.3793111e-05 -0.0038534885
-0.0011227536 -0.00040586211 -0.00022732558
-0.00031289854 -0.00036896556 -0.0010331395
0.0012331884 -0.00070103456 -0.00088662788
0.00079144927 7.3793111e-05 -0.002864535
0.001085942 0.00025827589 -0.00092325581
-0.00127 0.00029517245 -0.00081337208
-0.00016565218 -0.00018448278 -0.00092325581
-0.00031289854 0.00011068967 -0.00092325581
-0.00064420293 -0.00022137933 -0.0019122093
-0.0006810145 -0.00055344834 -0.00026395349
-0.00027608697 0.000332069 -0.00092325581
0.0006073913 0.00022137933 0.0019337209
-0.0006073913 0.0010331036 -0.00011744186
-0.00053376809 0.00011068967 -0.0023151163
-0.00127 -0.00036896556 -0.00088662788
0.0011595652 -0.00051655178 -0.00022732558
0.0006810145 0.00022137933 -0.002864535
-0.0011595652 0.00084862078 -0.00063023256
0.00057057972 -0.00044275867 -0.00026395349
0.00057057972 0.00073793111 -0.00019069767
-5.5217391e-05 0.00025827589 -0.00026395349
-0.00097550725 -0.00084862078 -0.00092325581
0.0011963769 0.00070103456 -0.00088662788
-0.00027608697 -0.00095931045 -0.00088662788
0.0006810145 0.00022137933 -0.0017656977
-0.00086507248 0.00025827589 -0.00088662788
-0.0006810145 -0.00022137933 0.0014209303
-0.00064420293 0.00047965522 -0.00026395349
-0.00046014492 7.3793111e-05 0.00054186047
1.8405797e-05 0.00088551734 -0.00088662788
0.00079144927 -3.6896556e-05 -0.0022052326
0.00049695652 0.00022137933 -0.0020220929
-0.00057057972 -0.00022137933 -0.0029744187
0.0010123189 0.0010331036 -0.00037383722
0.0010123189 0.0010331036 -0.00074011629
-0.00053376809 -0.00092241389 -7.5581397e-06
-0.0012331884 -0.000664138 -0.00077674421
0.00012884058 -3.6896556e-05 -7.5581397e-06
0.00046014492 0.00022137933 0.00039534885
0.00079144927 -3.6896556e-05 0.0010180232
-0.0007546377 -0.00092241389 -7.5581397e-06
0.00127 -0.00077482767 -0.00070348836
0.00057057972 0.000996207 -7.5581397e-06
-0.00042333335 -3.6896556e-05 -0.0020953489
-0.00127 -0.00047965522 -0.00026395349
1.8405797e-05 -0.00055344834 -0.00026395349
-0.00064420293 0.00022137933 -0.00015406977
0.00038652174 -0.0010331036 -0.00063023256
-0.00053376809 0.00014758622 -7.5581397e-06
0.00071782607 0.00022137933 -0.0026447675
-0.00079144927 -3.6896556e-05 -0.0018023256
-0.0011963769 0.00084862078 -0.00070348836
0.00042333335 -0.000996207 -4.4186047e-05
0.00053376809 -0.00011068967 -0.0027546512
-0.00071782607 -0.00018448278 -0.0035604651
-0.0006810145 -3.6896556e-05 0.0021168604
0.0010491305 -0.00047965522 -0.00092325581
-0.00079144927 -0.00047965522 -0.00026395349
0.00064420293 -0.00011068967 -0.0012162791
-0.00038652174 -3.6896556e-05 0.00046860464
0.00034971014 0.00014758622 -0.0010331395
-0.00049695652 -3.6896556e-05 -0.0029744187
0.00097550725 -0.00018448278 -0.00088662788
-1.8405797e-05 0.00092241389 -7.5581397e-06
0.00071782607 -0.00011068967 -0.0011430233
-0.00127 0.00062724145 -0.00048372094
-0.00086507248 -0.00022137933 -7.5581397e-06
0.00012884058 -0.00018448278 -7.5581397e-06
0.00127 7.3793111e-05 -0.00015406977
0.00093869568 0.00055344834 -0.00026395349
-5.5217391e-05 -0.00044275867 -0.00092325581
-0.0006810145 -0.00081172423 -0.00092325581
-0.00042333335 -0.00011068967 0.00068837212
0.00042333335 7.3793111e-05 -0.0031209302
