# .PCD v0.7 - Point Cloud Data file format
VERSION 0.7
FIELDS x y z
SIZE 4 4 4
TYPE F F F
COUNT 1 1 1
WIDTH 1179
HEIGHT 1
VIEWPOINT 0 0 0 1 0 0 0
POINTS 1179
DATA ascii
-0.015448508 0.0015555555 -0.0083081964
-0.016585821 0.0035000001 -0.0050475411
0.0069186566 -0.0033055556 -0.0040885247
-0.0063499999 -0.0035000001 -0.0033213114
-0.01905 0.0023333333 -0.00025245902
-0.0023694031 0.00019444444 -0.0083081964
-0.01905 0.0029166667 -0.0010196721
-0.01810224 -0.0027222221 -0.0075409836
0.0076768659 -0.0035000001 -0.0025540984
-0.0057813432 -0.0035000001 -0.0040885247
-0.01905 -0.0021388889 -0.0050475411
0.017723134 0.0035000001 -0.0075409836
0.0090037314 -0.0035000001 -0.0050475411
-0.010330597 0.0019444445 0.00070655736
0.0046440298 0.0033055556 -6.0655737e-05
0.015258956 -0.003111111 -0.0037049181
0.0035067166 0.0035000001 -0.0012114755
0.0035067166 0.0025277778 -0.0083081964
0.0086246273 -0.0033055556 -0.0019786886
0.0072977613 -0.0035000001 -0.0075409836
0.007866418 -0.00077777775 0.0012819673
0.010141045 0.0035000001 -0.0035131148
0.018860448 -0.0023333333 -0.002937705
-0.018481344 -0.00077777775 -6.0655737e-05
0.018670896 0.0035000001 -0.0014032787
-0.0023694031 0.0035000001 -0.0077327867
0.0074873138 0.0013611111 -6.0655737e-05
-0.01146791 0.003111111 -0.0081163934
0.010141045 0.0035000001 -0.0067737703
0.0042649256 0.0035000001 -0.0065819672
0.0029380599 -0.0035000001 -0.0017868852
-0.016964925 -0.00097222225 -0.0083081964
-0.0025589552 0.0019444445 0.00070655736
-0.01905 0.0017500001 -0.00044426229
0.0031276119 -0.00038888888 -0.0083081964
0.0097619407 0.0011666666 -6.0655737e-05
0.0082455222 4.3368087e-19 -0.0083081964
0.0035067166 -0.0035000001 -0.0017868852
-0.017723134 -0.0027222221 -0.0017868852
-0.01905 0.0019444445 -0.0054311478
0.018860448 -0.00097222225 -0.0065819672
-0.01734403 0.00038888888 -0.0083081964
-0.00085298507 -0.0013611111 -6.0655737e-05
-0.0061604478 0.0035000001 -0.0052393442
0.014500747 -0.0021388889 -0.0081163934
0.0099514928 -0.00077777775 0.0028163935
-0.0082455222 -0.0029166667 -6.0655737e-05
0.0036962687 0.0035000001 -0.0077327867
-0.0035067166 -0.0019444445 -6.0655737e-05
0.016017165 -0.0029166667 -0.0054311478
0.0093828356 0.0035000001 -0.0048557376
0.00028432836 -0.0035000001 -0.0058147539
-0.0076768659 -0.0035000001 -0.0017868852
-0.018291792 0.00038888888 -0.0083081964
-0.018860448 -0.00077777775 -0.0042803278
0.0044544777 -0.0027222221 -6.0655737e-05
0.0033171643 -0.0013611111 -0.0083081964
0.0016111941 -0.0035000001 -0.0069655739
0.014690299 -0.0019444445 -0.00025245902
-0.010520149 -0.0035000001 -0.0073491805
0.011657463 0.0017500001 -0.0083081964
-0.0023694031 0.0035000001 -0.0019786886
0.0069186566 -0.0033055556 -0.001595082
-0.017912688 -0.0027222221 -0.0058147539
-0.0088141793 0.0033055556 -0.0081163934
0.018860448 0.0033055556 -0.0021704917
-0.003885821 0.0035000001 -0.0069655739
-0.0093828356 0.0035000001 -0.001595082
-0.0057813432 0.0035000001 -0.0040885247
0.015069404 0.0015555555 0.00070655736
-0.0014216418 0.00077777775 -6.0655737e-05
0.0027485075 -0.00097222225 0.0012819673
-0.016206717 0.0027222221 -0.00025245902
-0.014500747 0.00038888888 -0.0083081964
-0.0016111941 0.00038888888 -6.0655737e-05
0.0033171643 0.0035000001 -0.0046639345
-0.012794777 -0.00077777775 0.00089836068
-0.00085298507 0.00097222225 -0.0083081964
0.0040753731 -0.0029166667 -6.0655737e-05
-0.0088141793 -0.0035000001 -0.0021704917
-0.0091932835 0.0025277778 -0.0083081964
-0.0016111941 -0.0035000001 -0.0040885247
0.010899254 0.00038888888 -0.0083081964
-0.007866418 0.0011666666 -0.0083081964
0.0055917911 -0.00038888888 -6.0655737e-05
-9.4776122e-05 -0.00058333331 0.00051475409
0.0023694031 -0.00097222225 0.0020491802
0.0074873138 -0.0035000001 -0.0063901641
-0.01905 0.0017500001 -0.0035131148
0.00028432836 -0.00019444444 -0.0083081964
-0.018860448 0.00038888888 -0.0027459017
0.0010425374 4.3368087e-19 -6.0655737e-05
-0.0019902985 0.0035000001 -0.007157377
-0.0076768659 -0.0035000001 -0.001595082
-0.01393209 -0.0025277778 -0.0083081964
0.010709702 -0.0035000001 -0.0033213114
-0.0082455222 0.0035000001 -0.0035131148
0.013363433 -0.0033055556 -0.0044721314
0.018670896 0.00058333331 -0.0083081964
0.018670896 -0.00038888888 -0.0083081964
0.01905 0.00058333331 -0.0069655739
-0.013742537 -0.0033055556 -0.0050475411
-0.0059708958 -0.00077777775 -6.0655737e-05
-0.0014216418 -0.0029166667 -0.0083081964
0.018291792 -0.0011666666 -0.00025245902
0.01905 0.0021388889 -0.0069655739
-0.01810224 -0.00058333331 -6.0655737e-05
-0.016775373 0.0035000001 -0.0058147539
-0.0065395525 -0.0019444445 -0.0083081964
0.014879851 0.0011666666 -0.0083081964
-0.010899254 0.0035000001 -0.0073491805
0.0069186566 -0.0011666666 -0.0083081964
0.0036962687 0.0027222221 -0.0083081964
-0.013173881 0.0035000001 -0.0050475411
0.015827613 0.0019444445 -6.0655737e-05
0.016396269 0.0023333333 -0.0083081964
0.017533582 -0.0017500001 -0.00025245902
-0.0029380599 0.0035000001 -0.0046639345
0.013173881 -0.0033055556 -0.001595082
0.00028432836 -0.00077777775 0.0028163935
-9.4776122e-05 -0.00097222225 0.00013114754
-0.01393209 0.0035000001 -0.0058147539
0.005402239 0.00077777775 -0.0083081964
0.0072977613 0.0035000001 -0.0060065575
0.015448508 -0.0017500001 -0.00025245902
0.0042649256 0.0035000001 -0.0077327867
-0.014311194 0.0035000001 -0.0040885247
-0.0088141793 0.0021388889 -6.0655737e-05
-0.0046440298 0.0035000001 -0.0012114755
0.0095723886 0.003111111 -6.0655737e-05
0.011847015 0.0015555555 -6.0655737e-05
0.01905 0.0011666666 -0.0033213114
0.0084350752 0.0035000001 -0.001595082
0.012984329 -0.0011666666 -6.0655737e-05
0.0010425374 0.0035000001 -0.0040885247
-0.013742537 0.0017500001 -6.0655737e-05
-0.0091932835 0.0035000001 -0.0031295081
-0.016396269 -0.0029166667 -0.0025540984
0.010520149 0.0035000001 -0.0040885247
0.007866418 0.00097222225 -0.0083081964
0.014879851 0.0035000001 -0.0083081964
-0.0035067166 0.0035000001 -0.00025245902
0.017154478 -0.0027222221 -0.0042803278
-0.014500747 -0.0017500001 -0.0083081964
-0.0012320896 0.0011666666 -6.0655737e-05
-0.017723134 -0.0011666666 -0.00025245902
-0.0063499999 0.0035000001 -0.0017868852
-0.010330597 -0.0017500001 -0.0083081964
-0.0031276119 0.0035000001 -0.0060065575
0.014500747 -0.00077777775 -6.0655737e-05
0.013552985 -0.0019444445 -0.0081163934
0.0021798508 -0.00097222225 -0.0083081964
-0.01905 0.0015555555 -0.0037049181
0.0035067166 -0.0035000001 -0.0079245903
0.0080559701 0.0035000001 -0.0033213114
-0.0044544777 4.3368087e-19 -0.0083081964
0.0040753731 0.0019444445 -0.0083081964
-0.01905 0.0025277778 -0.0025540984
0.0072977613 0.0033055556 -6.0655737e-05
0.0088141793 0.0035000001 -0.0061983606
-0.015069404 0.0029166667 -0.00025245902
0.0093828356 -0.0035000001 -0.0010196721
-0.007866418 0.00097222225 -6.0655737e-05
0.01905 -0.00038888888 -0.0040885247
0.0035067166 -0.0035000001 -0.0067737703
-0.012984329 0.0023333333 -6.0655737e-05
0.015638061 0.0035000001 -0.0027459017
-0.014311194 0.0027222221 -0.00025245902
0.015827613 -0.0029166667 -0.0021704917
-0.016206717 0.00038888888 -6.0655737e-05
0.0093828356 0.0035000001 -0.0046639345
0.0048335823 0.00019444444 -6.0655737e-05
0.0031276119 -0.0017500001 -6.0655737e-05
-0.01905 -0.0015555555 -0.0033213114
-0.00066343287 0.0021388889 -6.0655737e-05
-0.0012320896 0.0035000001 -0.002937705
-0.0069186566 -0.00077777775 -6.0655737e-05
-0.010899254 -0.0035000001 -0.0012114755
-0.0061604478 0.0035000001 -0.0025540984
0.0061604478 0.0035000001 -0.0050475411
0.016585821 0.0035000001 -0.0035131148
0.0019902985 -0.0033055556 -0.0079245903
0.014311194 0.0035000001 -0.00063606555
0.0095723886 -0.0029166667 -0.0081163934
-0.0091932835 -0.0035000001 -0.0044721314
-0.015258956 0.0035000001 -0.0023622951
0.0046440298 0.0015555555 -0.0083081964
0.0097619407 -0.003111111 -0.0081163934
-0.0088141793 0.0019444445 -6.0655737e-05
-0.0012320896 -0.0035000001 -0.0075409836
-0.0072977613 -0.0035000001 -0.0017868852
-0.0090037314 -0.0035000001 -0.0065819672
0.014121642 0.0035000001 -0.0069655739
-0.0050231344 0.0015555555 0.00070655736
-0.007866418 -0.00097222225 0.00013114754
-0.018670896 0.0027222221 -0.0081163934
0.0099514928 0.0035000001 -0.0061983606
-0.012415672 -0.0033055556 -0.0023622951
0.0084350752 -0.0033055556 -0.0044721314
0.0059708958 -0.00019444444 -6.0655737e-05
-0.003885821 0.0035000001 -0.0031295081
-0.00028432836 -0.0035000001 -0.0027459017
-0.016775373 -0.0029166667 -0.00044426229
-0.010899254 0.0035000001 -0.0010196721
-0.0095723886 0.0035000001 -0.0054311478
-0.0010425374 0.0035000001 -0.00044426229
-0.0095723886 0.0021388889 -0.0083081964
-0.017723134 -0.0027222221 -0.007157377
-0.0099514928 0.0035000001 -0.0019786886
0.0023694031 -0.00077777775 0.0010901639
-0.01905 0.0011666666 -0.0044721314
-0.018860448 -0.00038888888 -0.0058147539
0.0067291046 0.0021388889 -0.0083081964
0.016775373 -0.00097222225 -0.00025245902
0.015258956 0.0035000001 -0.0040885247
-0.01810224 -0.00097222225 -0.00025245902
0.0065395525 -0.0033055556 -0.0019786886
-0.012794777 0.0035000001 -0.0046639345
0.0042649256 0.0035000001 -0.0019786886
9.4776122e-05 -0.00097222225 0.0012819673
-0.0016111941 -0.00019444444 -0.0083081964
0.0067291046 -0.0035000001 -0.0014032787
0.00028432836 0.0035000001 -0.0027459017
0.00066343287 -0.0035000001 -0.0017868852
0.0019902985 0.0035000001 -0.0042803278
-0.0044544777 0.0023333333 -6.0655737e-05
-0.018860448 0.00097222225 -0.0056229508
0.0057813432 -0.0035000001 -0.002937705
0.016775373 0.0035000001 -0.0063901641
0.01146791 0.0035000001 -0.0037049181
0.0088141793 0.0035000001 -0.001595082
-0.0027485075 0.0035000001 -0.0065819672
0.010330597 0.0035000001 -0.0035131148
0.012415672 0.00077777775 -0.0083081964
0.018860448 0.003111111 -0.0035131148
-0.0061604478 -0.0035000001 -0.0054311478
-0.015069404 0.0035000001 -0.0038967214
-0.012794777 -0.0033055556 -0.0061983606
-0.0059708958 -0.0035000001 -0.0038967214
0.0084350752 0.00019444444 -0.0083081964
-0.010520149 0.0015555555 -6.0655737e-05
0.0099514928 0.0035000001 -0.001595082
-0.007866418 0.0035000001 -6.0655737e-05
-0.014690299 0.0035000001 -0.0014032787
0.0036962687 0.0035000001 -0.0054311478
0.011847015 -0.0023333333 -0.0081163934
-0.010709702 0.0035000001 -0.0038967214
-0.0050231344 0.0035000001 -0.0069655739
0.0018007463 0.0035000001 -0.0048557376
-0.0076768659 -0.0035000001 -0.0063901641
-0.00047388062 -0.0019444445 -6.0655737e-05
0.0052126865 0.0035000001 -0.0060065575
-0.01905 0.0015555555 -0.0017868852
0.012984329 0.0023333333 -0.0083081964
0.0059708958 0.0035000001 -0.0025540984
0.015258956 -0.00077777775 0.00089836068
-0.01905 0.0015555555 -0.0056229508
-0.012605224 -0.0033055556 -0.00063606555
0.014121642 -0.0033055556 -0.0077327867
-0.01905 -0.0021388889 -0.0021704917
0.010141045 -0.00058333331 0.00013114754
-0.017154478 -0.00077777775 -0.0083081964
0.012036568 4.3368087e-19 -0.0083081964
-0.01905 -0.0021388889 -0.0044721314
0.0048335823 -0.0033055556 -0.0019786886
-0.010899254 0.0011666666 -6.0655737e-05
-0.01905 -0.0015555555 -0.0014032787
-0.012794777 -0.003111111 -0.0079245903
0.010709702 -0.0035000001 -0.00063606555
-0.0074873138 0.0017500001 0.0014737705
-0.018481344 0.0035000001 -0.00082786888
-0.00066343287 -0.0035000001 -0.0046639345
-0.015069404 0.0035000001 -0.0048557376
-0.01222612 0.0035000001 -0.0027459017
-0.0021798508 -0.0035000001 -0.0081163934
-0.012415672 0.0035000001 -0.0023622951
-0.0059708958 -0.0035000001 -0.0075409836
0.01905 0.00019444444 -0.0065819672
-0.011657463 0.0035000001 -0.0050475411
0.017154478 -0.00097222225 -0.00025245902
-0.016396269 -0.0029166667 -0.0073491805
0.0069186566 0.0019444445 -0.0083081964
-0.0033171643 -0.0035000001 -0.0044721314
-0.0042649256 0.0035000001 -0.00025245902
-0.0071082092 -0.0035000001 -0.0069655739
0.0088141793 0.0015555555 -6.0655737e-05
0.0010425374 0.003111111 -6.0655737e-05
-0.0082455222 0.0029166667 -0.0083081964
0.0031276119 -0.0035000001 -0.0075409836
0.0027485075 -0.0033055556 -0.0058147539
0.0035067166 -0.0033055556 -0.007157377
-0.01905 0.0023333333 -0.0046639345
-0.0018007463 -0.00077777775 -6.0655737e-05
-0.0048335823 -0.0035000001 -0.0060065575
-0.007866418 -0.0019444445 -0.0083081964
-0.015638061 -0.003111111 -0.0031295081
-0.014121642 0.0035000001 -0.0048557376
0.0023694031 0.0027222221 -0.0083081964
0.0042649256 -0.0033055556 -0.0061983606
-0.018670896 0.003111111 -0.0058147539
-0.0099514928 0.0035000001 -0.0012114755
-0.014311194 0.0035000001 -0.0010196721
-0.0072977613 -0.0033055556 -0.0081163934
-0.010330597 -0.0035000001 -0.0010196721
-0.017912688 0.0035000001 -0.0060065575
-0.0012320896 0.00038888888 -0.0083081964
0.0067291046 0.0035000001 -0.0075409836
-0.0095723886 -0.003111111 -0.0081163934
0.014121642 -0.0033055556 -0.0040885247
0.016396269 -0.0029166667 -0.0017868852
-0.013742537 0.0035000001 -0.001595082
0.01810224 -0.0025277778 -0.0056229508
-0.012415672 -0.00077777775 0.0012819673
0.0055917911 -0.0035000001 -0.0038967214
-0.016206717 -0.003111111 -0.0077327867
0.010141045 -0.00097222225 0.0014737705
0.010141045 0.0019444445 0.001857377
-0.0090037314 0.00019444444 -6.0655737e-05
-0.01222612 -0.0033055556 -0.0038967214
-0.01393209 -0.0033055556 -0.0050475411
-0.01810224 -0.0025277778 -0.0083081964
0.0035067166 0.00038888888 -0.0083081964
-0.0072977613 -0.0027222221 -0.0081163934
-0.0061604478 0.0035000001 -0.0033213114
0.0014216418 0.00058333331 -0.0083081964
0.016396269 -0.0029166667 -0.001595082
-0.013552985 -0.0033055556 -0.007157377
-0.015827613 0.0035000001 -0.0019786886
-0.0065395525 0.0035000001 -0.0073491805
-0.014311194 -0.00077777775 -0.0083081964
-0.01734403 0.0027222221 -0.0083081964
0.0050231344 -0.0033055556 -0.0058147539
0.003885821 -0.0035000001 -0.0025540984
-0.0055917911 0.0035000001 -0.0050475411
-0.0027485075 -0.0035000001 -0.0021704917
0.0012320896 -0.0035000001 -0.0056229508
0.0014216418 0.0035000001 -0.0046639345
-0.0067291046 0.0019444445 -6.0655737e-05
-0.0074873138 -0.0035000001 -0.0014032787
0.0025589552 -0.0033055556 -0.002937705
0.0061604478 0.0035000001 -0.0058147539
0.01810224 0.0025277778 -0.0083081964
0.0099514928 -0.0023333333 -0.0081163934
-0.007866418 -0.0035000001 -0.0061983606
-0.0086246273 0.0015555555 -6.0655737e-05
0.016775373 0.0035000001 -0.0012114755
0.0076768659 -0.0033055556 -0.0081163934
-0.012794777 -0.00077777775 0.0020491802
-0.01393209 0.0035000001 -0.0040885247
-0.0052126865 -0.0033055556 -0.0081163934
-0.014311194 0.0017500001 -0.0083081964
0.0033171643 0.00038888888 -0.0083081964
0.0065395525 -0.00058333331 -0.0083081964
0.01146791 -0.0035000001 -0.0038967214
-0.0091932835 0.0035000001 -0.00025245902
-0.017533582 0.0011666666 -0.0083081964
0.011657463 0.0035000001 -0.0061983606
0.00066343287 -0.0035000001 -0.0037049181
0.018291792 -0.0017500001 -0.0081163934
0.0036962687 -0.00019444444 -0.0083081964
-0.0023694031 -0.0035000001 -0.0012114755
-0.016585821 -0.0029166667 -0.0014032787
0.0090037314 -0.0033055556 -0.0037049181
0.0042649256 -0.0035000001 -0.0014032787
0.016206717 -0.0027222221 -0.0077327867
-0.0069186566 0.00097222225 -0.0083081964
-0.0031276119 0.0025277778 -0.0083081964
0.011657463 -0.0033055556 -0.0037049181
-0.018481344 -0.00038888888 -0.0083081964
-0.0042649256 4.3368087e-19 -0.0083081964
-0.01905 -0.0017500001 -0.0056229508
-0.010709702 0.0035000001 -0.0058147539
0.0042649256 -0.0035000001 -0.0021704917
-0.0025589552 0.0017500001 0.0010901639
0.01905 0.00038888888 -0.0023622951
-0.0021798508 -0.0029166667 -0.0083081964
0.01905 0.00019444444 -0.0083081964
-0.00085298507 0.0035000001 -0.00025245902
-0.0014216418 -0.0035000001 -0.0023622951
0.015258956 -0.003111111 -0.0040885247
0.0029380599 -0.00077777775 -0.0083081964
0.0084350752 0.0035000001 -0.0046639345
0.0061604478 -0.0035000001 -0.0077327867
-0.011657463 0.0035000001 -0.0042803278
0.016206717 0.0035000001 -0.0044721314
-0.0019902985 0.00019444444 -6.0655737e-05
0.0029380599 -0.0027222221 -6.0655737e-05
0.0084350752 0.0035000001 -0.0081163934
0.0042649256 -0.0013611111 -0.0083081964
0.0048335823 0.00038888888 -0.0083081964
0.010520149 0.0035000001 -0.0027459017
-0.0084350752 0.0035000001 -0.0035131148
-0.0061604478 -0.0035000001 -0.002937705
0.0067291046 -0.0033055556 -0.0023622951
0.018481344 0.0029166667 -0.0083081964
0.017533582 -0.0027222221 -0.0048557376
0.0091932835 -0.0035000001 -0.002937705
-0.0027485075 0.0035000001 -0.0025540984
-0.0021798508 -0.0035000001 -0.001595082
-0.0018007463 -0.0025277778 -6.0655737e-05
0.0084350752 0.0035000001 -0.00044426229
-0.014500747 -0.0013611111 -0.0083081964
-0.0095723886 4.3368087e-19 -6.0655737e-05
0.0046440298 -0.0011666666 -6.0655737e-05
0.012415672 -0.0023333333 -0.00025245902
0.0099514928 0.0017500001 0.001857377
-0.010330597 -0.00058333331 0.00032295083
0.0071082092 0.0035000001 -0.0058147539
-0.003885821 0.0035000001 -0.002937705
-0.01905 0.003111111 -0.0021704917
0.017912688 0.0027222221 -6.0655737e-05
-0.017533582 -0.0025277778 -0.0083081964
-0.0033171643 0.0035000001 -0.0054311478
0.017533582 -0.0027222221 -0.0067737703
0.0029380599 -0.0021388889 -6.0655737e-05
-0.010899254 -0.0035000001 -0.0052393442
-0.0082455222 0.0035000001 -0.0019786886
0.018860448 0.0029166667 -0.0033213114
-0.018291792 0.0035000001 -0.0048557376
-0.017533582 -0.0027222221 -0.0056229508
0.0019902985 4.3368087e-19 -6.0655737e-05
-0.0055917911 -0.0035000001 -0.0046639345
-0.010899254 -0.0035000001 -0.0067737703
-0.0082455222 0.0021388889 -6.0655737e-05
0.0040753731 -0.0025277778 -0.0083081964
0.0033171643 0.0017500001 -0.0083081964
-0.003885821 0.0025277778 -6.0655737e-05
-0.010899254 -0.0035000001 -0.0046639345
-0.014690299 -0.0021388889 -0.0083081964
-0.0061604478 -0.0015555555 -6.0655737e-05
-0.015448508 -0.0023333333 -0.00025245902
-0.016964925 0.0015555555 -0.0083081964
-0.016964925 -0.0029166667 -0.0050475411
-0.0042649256 0.0035000001 -0.0073491805
0.011278358 -0.0023333333 -0.00025245902
-0.014879851 0.0035000001 -0.00044426229
-0.0052126865 -0.0035000001 -0.0058147539
0.0018007463 -0.0035000001 -0.00044426229
0.013363433 0.0035000001 -0.00082786888
0.0029380599 0.0035000001 -0.002937705
0.012415672 -0.00019444444 -6.0655737e-05
0.011088806 -0.0019444445 -0.0083081964
-0.007866418 0.0035000001 -0.0069655739
0.00066343287 -0.0035000001 -0.0019786886
0.015638061 0.0029166667 -6.0655737e-05
-0.0095723886 0.0027222221 -6.0655737e-05
0.014879851 -0.0021388889 -0.0081163934
9.4776122e-05 0.0035000001 -0.0035131148
-0.01734403 0.0035000001 -0.0054311478
-0.018860448 -0.00038888888 -0.0033213114
0.0048335823 0.003111111 -0.0083081964
0.0027485075 -0.00019444444 -0.0083081964
-0.010709702 -0.0035000001 -0.0014032787
0.01905 0.0021388889 -0.0054311478
0.0023694031 -0.0033055556 -0.0046639345
-0.016964925 -0.0029166667 -0.0075409836
0.018291792 -0.0023333333 -0.0077327867
-0.0084350752 0.0033055556 -0.0081163934
-0.0027485075 0.0035000001 -0.0017868852
-0.016964925 0.0027222221 -0.00025245902
0.0033171643 0.0035000001 -0.0042803278
0.015069404 0.0033055556 -0.0083081964
-0.018860448 -0.00019444444 -0.0067737703
0.012036568 -0.0033055556 -0.0077327867
-0.015448508 -0.00077777775 0.0012819673
0.0076768659 0.0015555555 0.0024327869
-0.0059708958 0.0035000001 -0.0081163934
-0.01146791 0.0035000001 -0.0014032787
0.00066343287 -0.0013611111 -6.0655737e-05
0.012605224 -0.0033055556 -0.0061983606
0.0099514928 -0.00058333331 -0.0083081964
-0.01393209 0.0035000001 -0.0061983606
-0.014500747 -0.0033055556 -0.0061983606
0.007866418 -0.00097222225 0.0024327869
0.012984329 -0.0033055556 -0.0038967214
-0.011657463 -0.0013611111 -6.0655737e-05
-0.011088806 -0.0035000001 -0.0054311478
-0.01905 -0.0017500001 -0.0033213114
-0.018860448 0.00038888888 -0.0021704917
0.0076768659 0.0019444445 0.00089836068
0.0095723886 -0.0033055556 -0.00025245902
-0.01905 0.003111111 -0.00044426229
-0.007866418 -0.00077777775 0.0026245902
-0.011657463 0.0035000001 -0.007157377
-0.0048335823 -0.00077777775 0.0010901639
0.013742537 -0.0011666666 -6.0655737e-05
0.0019902985 -0.00038888888 -0.0083081964
0.0084350752 -0.0035000001 -0.00025245902
-0.0088141793 -0.0023333333 -6.0655737e-05
-0.0057813432 -0.0035000001 -0.0042803278
-0.018860448 -0.00058333331 -0.0046639345
0.00085298507 -0.0035000001 -0.007157377
0.0052126865 -0.00058333331 0.0020491802
-0.0050231344 -0.0035000001 -0.0033213114
0.0046440298 -0.0035000001 -0.0065819672
-0.01905 -0.0017500001 -0.0042803278
-0.016396269 0.0021388889 -0.00025245902
-0.00028432836 0.0035000001 -0.00082786888
-0.0040753731 0.0035000001 -0.0052393442
0.015258956 -0.00019444444 -6.0655737e-05
0.010520149 0.00058333331 -6.0655737e-05
-0.013742537 -0.0033055556 -0.0038967214
-0.0036962687 0.0035000001 -0.0019786886
-9.4776122e-05 -0.003111111 -0.0083081964
-0.0059708958 0.0035000001 -6.0655737e-05
0.0093828356 0.0035000001 -0.007157377
-0.010141045 0.0035000001 -0.0046639345
-0.018860448 0.00097222225 -0.0060065575
-0.014879851 0.0011666666 -0.0083081964
0.010330597 -0.00077777775 0.0020491802
0.016206717 -0.0015555555 -0.0081163934
0.0069186566 0.0015555555 -0.0083081964
-0.0029380599 -0.0019444445 -6.0655737e-05
-0.0059708958 0.0035000001 -0.00063606555
-0.0052126865 0.0035000001 -0.0044721314
-0.01905 0.0021388889 -0.0027459017
-0.0027485075 -0.0035000001 -0.0033213114
-0.018481344 0.003111111 -0.00025245902
-0.0042649256 -0.0035000001 -0.0067737703
0.013173881 0.0035000001 -0.0021704917
0.014121642 -0.0033055556 -0.002937705
-0.015448508 0.0017500001 0.001857377
-0.0082455222 -0.0033055556 -0.00025245902
0.005402239 0.0035000001 -0.0050475411
0.00028432836 0.0033055556 -6.0655737e-05
-0.00085298507 0.0027222221 -6.0655737e-05
0.018860448 0.0027222221 -0.0083081964
0.0046440298 0.0035000001 -0.00063606555
-0.0033171643 0.0025277778 -6.0655737e-05
-0.010899254 -0.0035000001 -0.00044426229
-0.0099514928 0.0035000001 -0.0077327867
0.011088806 -0.0023333333 -0.00025245902
0.0019902985 -0.0021388889 -0.0083081964
0.0088141793 0.00019444444 -6.0655737e-05
-0.018860448 0.003111111 -0.007157377
-0.005402239 0.0035000001 -0.0017868852
0.0076768659 -0.00097222225 0.00070655736
0.014311194 0.0035000001 -0.0069655739
-0.0090037314 0.0035000001 -0.0017868852
-0.010899254 0.0035000001 -0.0058147539
-0.015258956 -0.00097222225 0.0020491802
-0.00066343287 0.0013611111 -6.0655737e-05
-0.0097619407 -0.00077777775 -0.0083081964
-0.0086246273 -0.0035000001 -0.0010196721
-0.00085298507 -0.0035000001 -0.0061983606
0.0048335823 0.0017500001 0.00070655736
-0.01905 -0.0013611111 -0.0040885247
-0.015258956 -0.0019444445 -0.00025245902
0.010141045 -0.00019444444 -0.0083081964
-0.00047388062 0.0017500001 -0.0083081964
-0.0021798508 -0.0035000001 -0.0056229508
0.0099514928 0.0019444445 0.00089836068
0.0091932835 -0.003111111 -0.0081163934
-0.015638061 -0.003111111 -0.0048557376
0.011657463 0.00058333331 -6.0655737e-05
0.0031276119 -0.0035000001 -0.0065819672
-0.0012320896 0.0011666666 -0.0083081964
0.00028432836 -0.00097222225 0.0014737705
-0.0057813432 -0.0025277778 -0.0083081964
-0.015827613 0.0021388889 -0.0083081964
0.00028432836 -0.00077777775 0.0014737705
-0.0046440298 -0.0035000001 -0.0038967214
0.007866418 -0.0033055556 -0.0058147539
0.0097619407 -0.0035000001 -0.0067737703
0.01393209 -0.0033055556 -0.002937705
-0.0063499999 0.0035000001 -0.00082786888
-0.01810224 -0.0019444445 -6.0655737e-05
-9.4776122e-05 0.0035000001 -0.0073491805
-0.0059708958 -0.0035000001 -0.0052393442
-0.011088806 0.0029166667 -6.0655737e-05
-0.0042649256 -0.0025277778 -0.0083081964
0.017912688 -0.0025277778 -0.0069655739
0.017912688 4.3368087e-19 -6.0655737e-05
0.015258956 0.00038888888 -0.0083081964
-0.0052126865 -0.00097222225 0.0028163935
0.0035067166 0.0035000001 -0.0044721314
-0.013742537 -0.0033055556 -0.00082786888
0.0084350752 0.0035000001 -0.0037049181
-0.0046440298 0.00058333331 -6.0655737e-05
0.01905 -0.0013611111 -0.0081163934
0.0010425374 -0.0035000001 -0.0065819672
0.0093828356 -0.0035000001 -0.0044721314
-0.018291792 -0.00038888888 -0.0083081964
0.0012320896 -0.0035000001 -0.0079245903
0.007866418 -0.00058333331 0.00013114754
-0.0025589552 0.0035000001 -0.0012114755
0.018291792 0.0019444445 -0.0083081964
0.01222612 0.00038888888 -6.0655737e-05
0.010141045 -0.00058333331 0.0026245902
-0.0072977613 -0.0035000001 -0.0010196721
0.005402239 0.0023333333 -6.0655737e-05
-0.018670896 0.003111111 -0.0023622951
0.0095723886 0.0035000001 -0.0056229508
-0.0093828356 -0.0033055556 -0.00025245902
0.010899254 0.0035000001 -0.00063606555
0.0052126865 -0.0035000001 -0.0025540984
0.00066343287 0.0035000001 -0.0067737703
0.017154478 -0.0025277778 -0.0010196721
-0.010899254 0.0035000001 -0.0079245903
-0.007866418 -0.0035000001 -0.0037049181
-0.003885821 0.0035000001 -0.0027459017
-0.01905 0.0013611111 -0.0073491805
-0.011847015 -0.0015555555 -0.0083081964
-0.0069186566 0.0021388889 -6.0655737e-05
0.0057813432 0.0035000001 -0.0044721314
0.011088806 0.00058333331 -6.0655737e-05
0.010141045 0.0035000001 -0.0023622951
0.0091932835 0.0035000001 -0.0067737703
0.0021798508 0.0035000001 -0.0042803278
-0.016396269 -0.0029166667 -6.0655737e-05
-0.01905 0.0019444445 -0.0035131148
-0.015827613 0.0025277778 -0.00025245902
0.003885821 0.0021388889 -6.0655737e-05
0.013173881 0.0035000001 -0.0063901641
-0.0044544777 0.0035000001 -0.0056229508
-0.00028432836 -0.0029166667 -0.0083081964
-0.018860448 -0.00038888888 -0.0021704917
-0.011088806 -0.0035000001 -0.0058147539
0.007866418 0.0011666666 -0.0083081964
-0.0088141793 0.00038888888 -6.0655737e-05
0.0055917911 0.00038888888 -6.0655737e-05
0.01734403 0.00019444444 -6.0655737e-05
0.0076768659 -0.00058333331 0.0016655738
0.0065395525 -0.0035000001 -0.0025540984
-0.0061604478 -0.0035000001 -0.0035131148
0.0027485075 -0.00058333331 0.0016655738
0.012415672 -0.0033055556 -0.0065819672
0.0074873138 -0.0035000001 -0.0056229508
-0.0069186566 0.0035000001 -0.0077327867
0.016206717 0.0033055556 -0.0083081964
-0.0093828356 -0.0011666666 -0.0083081964
0.013742537 0.00038888888 -6.0655737e-05
0.0097619407 0.0019444445 -6.0655737e-05
0.018860448 0.0033055556 -0.0010196721
0.013552985 -0.0017500001 -0.00025245902
-0.018860448 0.00077777775 -0.0067737703
-0.0091932835 0.0029166667 -0.0081163934
-0.012794777 0.0017500001 0.00089836068
0.012984329 -0.0033055556 -0.007157377
-0.00066343287 -0.0025277778 -6.0655737e-05
-0.016585821 -0.0019444445 -0.0083081964
-0.0061604478 0.0035000001 -0.0010196721
0.00047388062 -0.0035000001 -0.00063606555
-0.0082455222 -0.0035000001 -0.0050475411
0.015638061 -0.0021388889 -0.00025245902
-0.010520149 0.0011666666 -0.0083081964
-0.018481344 0.0019444445 -0.0083081964
0.0090037314 -0.00019444444 -6.0655737e-05
-0.017533582 -0.0017500001 -0.0083081964
-0.015069404 -0.003111111 -0.0027459017
-0.0059708958 -0.00038888888 -6.0655737e-05
0.0067291046 -0.0035000001 -0.0054311478
0.00028432836 -0.0035000001 -0.00063606555
-0.018481344 0.0033055556 -0.0065819672
0.0023694031 0.00097222225 -0.0083081964
0.01393209 0.0017500001 -0.0083081964
-0.0050231344 -0.0035000001 -0.0056229508
0.0076768659 0.0023333333 -6.0655737e-05
0.016017165 -0.0025277778 -0.0081163934
-0.011088806 -0.0033055556 -0.00025245902
-0.016964925 0.0025277778 -0.00025245902
0.0074873138 -0.00058333331 -0.0083081964
-0.014311194 0.0025277778 -0.0083081964
0.0050231344 0.00038888888 -6.0655737e-05
0.01810224 -0.0011666666 -0.00025245902
0.0035067166 0.0035000001 -0.0025540984
-0.010141045 -0.0035000001 -0.0058147539
-0.011657463 0.0035000001 -0.0048557376
0.00066343287 0.0029166667 -6.0655737e-05
-0.0052126865 0.0033055556 -6.0655737e-05
-0.012415672 0.0035000001 -0.0040885247
0.0042649256 0.0027222221 -0.0083081964
0.011278358 0.00038888888 -0.0083081964
0.0090037314 0.0025277778 -6.0655737e-05
0.00028432836 0.0035000001 -0.00025245902
-0.0074873138 0.0015555555 0.0026245902
0.0010425374 -0.0011666666 -6.0655737e-05
0.011847015 -0.0019444445 -0.0081163934
-0.01905 -0.0011666666 -0.0058147539
0.0084350752 0.0035000001 -0.0060065575
-0.018860448 0.003111111 -0.0054311478
0.013363433 -0.0011666666 -0.0083081964
0.0063499999 -0.0019444445 -0.0083081964
0.011088806 0.0013611111 -0.0083081964
-0.0071082092 0.00077777775 -0.0083081964
-0.0035067166 -0.0035000001 -0.0044721314
0.0019902985 -0.0035000001 -0.0063901641
0.0082455222 0.0035000001 -0.00063606555
0.00085298507 0.0033055556 -6.0655737e-05
0.0012320896 0.0035000001 -0.0035131148
-0.0059708958 -0.0035000001 -0.0044721314
-0.018860448 -0.00019444444 -0.0027459017
-0.016775373 -0.0011666666 -6.0655737e-05
-0.0074873138 0.0017500001 -0.0083081964
0.0031276119 -0.0029166667 -0.0083081964
0.01734403 -0.0017500001 -0.0081163934
0.0086246273 -0.0035000001 -0.0010196721
0.0018007463 0.0023333333 -6.0655737e-05
-0.0029380599 0.00077777775 -6.0655737e-05
-0.018860448 -0.00077777775 -0.0019786886
0.00047388062 -0.0035000001 -0.0035131148
-0.0031276119 -0.0035000001 -0.0027459017
0.014690299 0.0035000001 -6.0655737e-05
0.01905 4.3368087e-19 -0.0033213114
0.0061604478 0.0035000001 -0.0067737703
-0.014311194 0.0035000001 -0.0014032787
0.017533582 -0.0025277778 -0.0079245903
0.0042649256 -0.0035000001 -0.0052393442
-0.010709702 -0.00097222225 -0.0083081964
-0.0046440298 -0.0035000001 -0.002937705
-0.012984329 -0.00077777775 0.0022409835
9.4776122e-05 0.0019444445 -0.0083081964
-0.0027485075 -0.0035000001 -0.0050475411
0.0048335823 0.0019444445 0.00070655736
0.011657463 -0.0015555555 -0.0083081964
0.0012320896 0.0035000001 -0.0012114755
0.0050231344 0.0035000001 -0.0033213114
-0.015448508 -0.003111111 -0.0025540984
-0.0018007463 -0.00038888888 -6.0655737e-05
0.018860448 -0.0019444445 -0.00044426229
-0.0016111941 0.0035000001 -0.0081163934
0.0084350752 0.0027222221 -6.0655737e-05
0.018860448 -0.0011666666 -0.0048557376
0.0055917911 -0.0035000001 -0.0017868852
-0.01810224 0.0035000001 -0.0048557376
0.0055917911 0.0035000001 -0.0063901641
-0.014879851 0.0027222221 -0.00025245902
0.0071082092 -0.0035000001 -0.0056229508
-0.005402239 0.0035000001 -0.00063606555
-0.012984329 -0.0021388889 -0.0083081964
0.01905 0.0019444445 -0.0048557376
-0.0080559701 -0.00058333331 -6.0655737e-05
-0.017912688 0.0035000001 -0.0035131148
0.012036568 0.0035000001 -0.0037049181
0.015258956 -0.00097222225 0.001857377
0.0099514928 0.0035000001 -0.0012114755
-0.014500747 0.0035000001 -0.0048557376
0.0035067166 0.0013611111 -0.0083081964
0.00085298507 0.0017500001 -0.0083081964
-0.014690299 -0.0017500001 -0.0083081964
0.0021798508 -0.0033055556 -0.0083081964
0.00028432836 -0.0035000001 -0.0042803278
0.017533582 0.0023333333 -6.0655737e-05
-0.017533582 0.0027222221 -0.00025245902
0.0065395525 -0.00077777775 -0.0083081964
-0.012794777 -0.0033055556 -0.00063606555
0.018291792 0.0035000001 -0.0083081964
0.013173881 0.00038888888 -0.0083081964
0.0074873138 -0.0019444445 -0.0083081964
-0.010330597 0.0017500001 0.00089836068
-0.015638061 0.0035000001 -0.0010196721
-0.0014216418 -0.0035000001 -0.00025245902
-0.012984329 -0.0033055556 -0.0014032787
0.0069186566 0.0029166667 -6.0655737e-05
-0.0040753731 0.0035000001 -0.0021704917
-0.00066343287 0.0035000001 -0.0017868852
0.010330597 0.0017500001 0.00013114754
0.018860448 0.0029166667 -0.0056229508
-0.016396269 0.0035000001 -0.0063901641
0.014500747 0.0035000001 -0.00063606555
9.4776122e-05 0.0035000001 -0.0046639345
-0.012984329 0.003111111 -0.0081163934
0.0048335823 -0.00058333331 0.00013114754
-0.0057813432 0.0035000001 -0.0054311478
-0.0016111941 -0.0013611111 -0.0083081964
-0.0071082092 -0.0019444445 -6.0655737e-05
0.00085298507 -0.0019444445 -6.0655737e-05
-0.0021798508 -0.00077777775 0.00032295083
9.4776122e-05 -0.0035000001 -0.001595082
0.0086246273 -0.0033055556 -0.0065819672
0.0072977613 -0.0035000001 -0.0050475411
0.0074873138 -0.00077777775 0.0014737705
-0.01734403 0.0035000001 -0.0037049181
-0.0076768659 -0.00019444444 -0.0083081964
-0.0046440298 -0.00038888888 -6.0655737e-05
0.0035067166 -0.0035000001 -0.0031295081
-0.00066343287 -0.0035000001 -0.0023622951
-0.010330597 0.0019444445 0.0016655738
-0.0072977613 0.0035000001 -0.00063606555
-0.017533582 0.0035000001 -0.0021704917
-0.0029380599 -0.0035000001 -0.0054311478
0.01905 0.0023333333 -0.0033213114
0.0014216418 0.0035000001 -0.0010196721
0.017533582 0.0035000001 -0.00063606555
-0.010899254 -0.0035000001 -0.0010196721
0.01146791 -0.00077777775 -6.0655737e-05
-0.00066343287 0.0033055556 -0.0083081964
-0.0036962687 0.0035000001 -0.0054311478
9.4776122e-05 0.0035000001 -0.0063901641
0.017912688 0.0035000001 -0.00025245902
0.0027485075 0.00077777775 -0.0083081964
-0.0012320896 -0.0019444445 -0.0083081964
0.00047388062 0.0017500001 -0.0083081964
-0.0090037314 0.00077777775 -0.0083081964
0.0072977613 0.0035000001 -0.0017868852
0.011657463 -0.0033055556 -0.0077327867
0.0074873138 -0.00058333331 0.0014737705
-0.016206717 0.0035000001 -0.002937705
-0.0042649256 -0.0035000001 -0.0025540984
0.0080559701 -0.0035000001 -0.0063901641
-0.0052126865 0.0015555555 0.001857377
0.011657463 0.0035000001 -0.00082786888
0.01905 0.00019444444 -0.0027459017
-0.018860448 0.003111111 -0.0027459017
0.018860448 -0.0017500001 -0.00063606555
0.014121642 -0.0013611111 -0.0083081964
0.01905 0.00097222225 -0.0023622951
0.0014216418 0.0019444445 -6.0655737e-05
0.0025589552 0.0017500001 0.0020491802
-0.018670896 0.003111111 -0.0054311478
0.00066343287 -0.0035000001 -0.0012114755
-0.016017165 0.0035000001 -0.0067737703
-0.012794777 0.0035000001 -0.0014032787
-0.016206717 0.0035000001 -0.0048557376
0.011088806 0.0025277778 -6.0655737e-05
0.0080559701 0.0035000001 -0.0042803278
-0.0080559701 -0.0029166667 -0.0081163934
-0.014311194 0.0035000001 -0.0060065575
0.012984329 -0.0033055556 -0.0061983606
0.015258956 0.0021388889 -0.0083081964
-0.013742537 0.00077777775 -6.0655737e-05
0.011088806 0.0035000001 -0.0027459017
-0.013173881 0.0035000001 -0.0033213114
-0.0067291046 -0.0035000001 -0.0019786886
0.015069404 0.0017500001 0.001857377
0.012605224 -0.0033055556 -0.0019786886
0.012984329 -0.0033055556 -0.0073491805
-0.016017165 -0.003111111 -0.0067737703
-0.014121642 0.0035000001 -0.0017868852
0.011657463 0.0027222221 -6.0655737e-05
0.015638061 -0.003111111 -0.0056229508
0.017912688 -0.0025277778 -0.0054311478
-0.016585821 -0.00097222225 -6.0655737e-05
0.0023694031 0.0017500001 0.0020491802
-0.0069186566 0.00097222225 -6.0655737e-05
-0.0067291046 0.0035000001 -0.0063901641
0.0029380599 0.0023333333 -0.0083081964
-0.017912688 -0.0027222221 -0.0050475411
-9.4776122e-05 0.0015555555 0.0024327869
0.017154478 0.0035000001 -0.0014032787
-0.0042649256 -0.0013611111 -6.0655737e-05
0.015448508 -0.0015555555 -0.0081163934
0.0063499999 0.0035000001 -0.0069655739
-0.018670896 -0.0023333333 -0.0060065575
0.0090037314 0.0035000001 -0.0069655739
-0.0099514928 -0.0035000001 -0.0038967214
0.0095723886 -0.0035000001 -0.0025540984
-0.0093828356 0.00038888888 -6.0655737e-05
0.018860448 0.0033055556 -0.0033213114
-0.015258956 0.0035000001 -0.0033213114
-0.0088141793 0.0035000001 -0.0050475411
-0.015638061 0.00058333331 -0.0083081964
-0.01734403 -0.0027222221 -0.002937705
-0.0074873138 -0.00097222225 0.0020491802
0.010899254 0.0033055556 -0.0083081964
0.0050231344 0.00097222225 -6.0655737e-05
-0.0091932835 -0.0035000001 -0.0069655739
0.010899254 0.0035000001 -0.0027459017
-0.0042649256 0.0017500001 -6.0655737e-05
0.018291792 -0.0025277778 -0.0063901641
-0.014311194 0.0035000001 -0.0025540984
-0.0076768659 0.0035000001 -0.0075409836
-0.0048335823 -0.00019444444 -6.0655737e-05
-0.0088141793 0.0035000001 -0.0023622951
0.0084350752 -0.0021388889 -0.0083081964
0.00028432836 -0.0035000001 -0.0056229508
-0.0061604478 -0.003111111 -0.0081163934
0.011847015 -0.0015555555 -6.0655737e-05
-0.015258956 -0.00077777775 0.0010901639
-0.0082455222 0.0035000001 -0.0044721314
-0.018860448 -0.0023333333 -0.0031295081
0.0074873138 0.0027222221 -0.0083081964
-0.0035067166 -0.0021388889 -0.0083081964
-0.018860448 -0.00077777775 -0.0037049181
0.014690299 0.0021388889 -0.0083081964
0.017912688 0.0035000001 -0.0077327867
0.013552985 -0.0033055556 -0.0038967214
0.01905 0.00077777775 -0.0046639345
-0.012794777 -0.0033055556 -0.0052393442
0.013173881 -0.0025277778 -0.0081163934
0.015638061 0.0035000001 -0.0067737703
-0.018481344 0.0035000001 -0.0025540984
0.0014216418 -0.0035000001 -0.0058147539
0.0099514928 -0.00058333331 0.00070655736
0.0025589552 0.0035000001 -0.0019786886
0.015069404 -0.003111111 -0.0056229508
0.0084350752 -0.0035000001 -0.0038967214
-0.0012320896 -0.0035000001 -0.0031295081
-0.0050231344 -0.00097222225 0.0024327869
-0.0055917911 -0.0035000001 -0.001595082
0.016206717 0.0035000001 -0.0042803278
0.016585821 0.00058333331 -6.0655737e-05
0.0048335823 -0.0035000001 -0.0010196721
0.0036962687 0.0035000001 -0.0048557376
0.0010425374 0.0035000001 -0.0065819672
0.014121642 0.0021388889 -0.0083081964
0.0019902985 0.0035000001 -0.0061983606
-0.0025589552 -0.00058333331 0.0016655738
0.015069404 0.0027222221 -0.0083081964
0.0025589552 -0.0035000001 -0.0044721314
-0.0021798508 -0.0035000001 -0.0038967214
-0.016775373 0.0035000001 -0.0067737703
-0.0090037314 0.0033055556 -6.0655737e-05
0.0048335823 -0.0035000001 -0.0063901641
-0.014690299 0.0029166667 -0.0081163934
0.01905 0.0015555555 -0.0067737703
-0.013363433 0.0013611111 -0.0083081964
0.016396269 -0.00019444444 -0.0083081964
0.00047388062 -0.0035000001 -0.0044721314
0.0082455222 -0.00097222225 -0.0083081964
-0.015827613 -0.003111111 -0.0038967214
-0.00066343287 0.0035000001 -0.0033213114
0.0093828356 -0.0035000001 -0.0069655739
0.011088806 -0.0035000001 -0.0023622951
0.015638061 -0.0023333333 -0.0081163934
0.0082455222 0.0035000001 -0.0023622951
0.0025589552 0.0019444445 0.00070655736
-0.007866418 0.0035000001 -0.0033213114
-0.0067291046 -0.0011666666 -6.0655737e-05
0.011088806 -0.0035000001 -0.0027459017
0.003885821 -0.0033055556 -0.0061983606
0.012415672 0.0035000001 -0.0075409836
-0.018291792 -0.0015555555 -0.0083081964
0.0021798508 -0.0013611111 -0.0083081964
-0.016775373 0.0025277778 -0.0083081964
-0.0014216418 0.0029166667 -6.0655737e-05
0.01734403 0.0035000001 -0.0079245903
0.01146791 -0.0021388889 -0.0081163934
-0.018670896 0.0033055556 -0.00082786888
0.01905 0.00097222225 -0.0037049181
0.0072977613 0.0013611111 -0.0083081964
-0.00047388062 0.00058333331 -0.0083081964
0.0010425374 -0.0035000001 -0.0046639345
-0.0055917911 0.0035000001 -0.0038967214
-0.01905 0.0011666666 -0.0050475411
-0.012415672 0.0019444445 -0.0083081964
0.012036568 -0.0033055556 -0.0033213114
0.0080559701 -0.0035000001 -0.0042803278
0.0033171643 -0.0033055556 -0.0058147539
0.0044544777 -0.00077777775 -0.0083081964
-0.013552985 0.0035000001 -0.0060065575
-0.0069186566 -0.0013611111 -0.0083081964
-0.01905 -0.00058333331 -0.007157377
0.01905 0.0023333333 -0.0075409836
0.018670896 -0.0023333333 -0.0079245903
-0.00066343287 -0.0035000001 -0.0037049181
-0.0040753731 0.0035000001 -0.007157377
0.016775373 -0.0023333333 -0.0081163934
0.014311194 -0.0033055556 -0.0060065575
0.015827613 0.0035000001 -0.0083081964
0.0084350752 0.0019444445 -6.0655737e-05
-0.0061604478 -0.0035000001 -0.0048557376
-0.0063499999 0.0035000001 -0.0061983606
0.0088141793 0.0013611111 -6.0655737e-05
0.0099514928 0.00058333331 -6.0655737e-05
0.0044544777 0.0035000001 -0.0021704917
-0.017723134 -0.0011666666 -0.0083081964
0.0033171643 0.0035000001 -0.0050475411
-0.018860448 -0.00097222225 -0.0017868852
-0.012794777 -0.00058333331 0.0028163935
-0.011657463 -0.0025277778 -6.0655737e-05
0.010330597 0.0021388889 -6.0655737e-05
-0.010141045 0.0017500001 0.0022409835
-0.012415672 0.0029166667 -0.0081163934
0.017533582 0.0035000001 -0.00044426229
0.018860448 -0.0015555555 -0.0038967214
0.0025589552 0.0035000001 -0.0038967214
-0.011278358 -0.0035000001 -0.0058147539
-0.0025589552 -0.0035000001 -0.0052393442
-0.0014216418 0.0035000001 -0.0048557376
0.0021798508 0.003111111 -0.0083081964
0.017533582 -0.0027222221 -0.0027459017
-0.015069404 -0.0027222221 -0.0079245903
-0.01146791 -0.0035000001 -0.0027459017
-0.01905 -0.0021388889 -0.0075409836
-0.0033171643 -0.0035000001 -0.0075409836
-0.016017165 0.0025277778 -0.00025245902
-0.016017165 -0.00058333331 -0.0083081964
0.0099514928 0.0019444445 0.00051475409
-0.01905 -0.0017500001 -0.0079245903
0.0010425374 -0.0029166667 -0.0083081964
-0.00028432836 -0.0035000001 -0.002937705
0.0036962687 0.0035000001 -0.0027459017
-0.015069404 -0.0033055556 -0.0010196721
0.014311194 0.0035000001 -0.0038967214
-0.018291792 0.00058333331 -6.0655737e-05
-0.01905 0.0011666666 -0.0061983606
0.014879851 -0.0025277778 -0.0081163934
0.0090037314 0.00038888888 -6.0655737e-05
-0.0076768659 0.0017500001 0.0030081968
-0.0031276119 0.003111111 -6.0655737e-05
-0.0093828356 -0.0035000001 -0.0033213114
-0.014690299 0.00019444444 -6.0655737e-05
-0.0025589552 -0.00038888888 -6.0655737e-05
0.0023694031 0.0035000001 -0.0079245903
0.0050231344 -0.0019444445 -6.0655737e-05
0.0080559701 -0.00038888888 -0.0083081964
0.0072977613 -0.0023333333 -0.0081163934
0.018860448 -0.0011666666 -0.0025540984
0.0019902985 -0.0033055556 -0.0054311478
-0.0014216418 0.0035000001 -0.0035131148
0.005402239 0.0035000001 -0.0067737703
0.0029380599 0.0035000001 -0.0058147539
0.01734403 0.0035000001 -0.0017868852
0.017533582 -0.00077777775 -0.0083081964
-0.0033171643 -0.0035000001 -0.0038967214
0.003885821 0.0013611111 -6.0655737e-05
-0.0091932835 0.0035000001 -0.0040885247
-0.0091932835 0.0035000001 -0.0010196721
0.0071082092 0.0027222221 -6.0655737e-05
9.4776122e-05 -0.0017500001 -0.0083081964
0.0025589552 -0.0011666666 -0.0083081964
0.00066343287 0.0035000001 -0.0027459017
0.0057813432 0.0013611111 -0.0083081964
0.01734403 0.0011666666 -6.0655737e-05
-0.0042649256 -0.0019444445 -6.0655737e-05
0.013552985 0.0035000001 -0.0065819672
0.0088141793 0.0035000001 -0.0081163934
0.0097619407 0.00038888888 -6.0655737e-05
-0.013363433 -0.003111111 -0.0048557376
0.010520149 -0.0013611111 -6.0655737e-05
0.0031276119 0.0035000001 -0.0063901641
0.015827613 0.0035000001 -0.0038967214
-0.0074873138 -0.00058333331 0.0014737705
0.01905 0.0021388889 -0.0060065575
-0.0093828356 -0.00097222225 -0.0083081964
-0.0091932835 -0.0035000001 -0.0014032787
0.016206717 -0.0027222221 -0.00025245902
-0.0076768659 0.0035000001 -0.0081163934
-0.0067291046 0.0011666666 -0.0083081964
0.0084350752 0.0035000001 -0.0031295081
-0.01905 0.00097222225 -0.0079245903
0.011847015 0.00038888888 -0.0083081964
0.011278358 -0.0035000001 -0.0014032787
0.016775373 0.0035000001 -0.0014032787
-0.010141045 0.0015555555 0.0014737705
-0.005402239 -0.003111111 -0.0081163934
-0.013173881 0.0021388889 -0.0083081964
0.014311194 0.0035000001 -0.0048557376
0.0063499999 0.0035000001 -0.0038967214
0.0036962687 0.0035000001 -0.0023622951
0.0055917911 0.0027222221 -0.0083081964
0.01905 0.00097222225 -0.0012114755
0.0069186566 0.00077777775 -0.0083081964
0.0057813432 0.0035000001 -0.007157377
0.0072977613 -0.0033055556 -0.0037049181
0.00085298507 -0.0035000001 -0.0061983606
-0.014311194 0.0021388889 -0.0083081964
0.01905 0.0015555555 -0.0021704917
0.0086246273 -0.0035000001 -0.0033213114
-0.011088806 0.0029166667 -0.0081163934
-0.0095723886 0.0025277778 -6.0655737e-05
0.017723134 0.0035000001 -0.0017868852
0.012984329 0.0023333333 -6.0655737e-05
-0.0076768659 -0.0035000001 -0.0019786886
0.011657463 -0.0033055556 -0.0067737703
0.016775373 0.0029166667 -0.0083081964
-0.011657463 -0.0033055556 -0.0019786886
-0.0057813432 0.0035000001 -0.0019786886
0.013173881 0.0035000001 -0.0019786886
0.0057813432 0.0035000001 -0.0067737703
-0.0036962687 -0.0035000001 -0.0054311478
-0.011278358 -0.0035000001 -0.0079245903
-0.01734403 0.00019444444 -0.0083081964
0.0048335823 0.0035000001 -0.0069655739
-0.012794777 -0.0033055556 -0.0079245903
-0.0040753731 -0.00077777775 -0.0083081964
-0.018860448 0.00038888888 -0.0056229508
0.0086246273 -0.0025277778 -0.00025245902
0.012036568 -0.0033055556 -0.0023622951
0.013742537 -0.0033055556 -0.0052393442
-0.0052126865 0.0035000001 -0.0046639345
-0.0040753731 0.0015555555 -6.0655737e-05
-0.010520149 -0.0025277778 -0.0083081964
-0.010330597 -0.00058333331 0.0014737705
0.015638061 -0.0011666666 -0.0081163934
-0.0019902985 -0.0021388889 -6.0655737e-05
0.0048335823 0.0035000001 -0.0046639345
-0.0095723886 0.0035000001 -0.0023622951
-0.011088806 -0.0023333333 -6.0655737e-05
0.013742537 -0.00019444444 -0.0083081964
0.01734403 -0.00038888888 -0.0083081964
0.016964925 -0.0027222221 -0.0017868852
-0.011657463 0.0035000001 -0.0019786886
0.00028432836 -0.0021388889 -6.0655737e-05
-0.015827613 -0.003111111 -0.0050475411
0.012415672 0.0035000001 -0.0077327867
-0.01734403 -0.0011666666 -0.0083081964
0.010330597 0.0035000001 -0.0073491805
0.012794777 -0.00058333331 0.00070655736
-0.0031276119 0.0035000001 -0.0025540984
-0.011657463 0.0035000001 -0.0014032787
0.0021798508 -0.0033055556 -0.0019786886
0.018860448 0.00097222225 -6.0655737e-05
0.0084350752 -0.0033055556 -0.0065819672
0.014879851 -0.003111111 -0.0061983606
0.014121642 0.0035000001 -0.0040885247
0.016775373 -0.0021388889 -0.0081163934
-0.0027485075 -0.00058333331 0.0022409835
-0.018670896 -0.0021388889 -0.0083081964
0.01810224 -0.0025277778 -0.0063901641
-0.0040753731 0.0035000001 -0.0040885247
0.016964925 -0.00038888888 -6.0655737e-05
0.017533582 0.0029166667 -6.0655737e-05
0.01905 0.00077777775 -0.0042803278
-0.017533582 0.0035000001 -0.0012114755
-0.0084350752 0.0035000001 -0.0033213114
-0.016775373 -0.0017500001 -6.0655737e-05
-0.0093828356 -0.0035000001 -0.0054311478
0.0059708958 -0.0035000001 -0.0021704917
0.01810224 0.0035000001 -0.0010196721
0.0097619407 -0.0035000001 -0.0035131148
-0.014121642 0.003111111 -0.0081163934
0.01905 0.0017500001 -0.0031295081
-0.010330597 -0.00097222225 0.0014737705
0.0074873138 -0.0035000001 -0.0054311478
-0.014690299 -0.003111111 -0.0035131148
0.016396269 0.0035000001 -0.0079245903
0.0065395525 -0.0035000001 -0.0075409836
0.015258956 -0.003111111 -0.0063901641
-0.01905 0.0027222221 -0.0044721314
-0.018860448 0.00038888888 -0.001595082
-0.0088141793 0.0035000001 -0.0081163934
0.0069186566 0.0035000001 -0.0044721314
0.010330597 -0.0035000001 -0.0065819672
-0.0052126865 -0.00077777775 0.00013114754
-0.0042649256 -0.0035000001 -0.0063901641
0.0040753731 0.0015555555 -0.0083081964
-0.01810224 -0.0027222221 -0.0033213114
0.012605224 -0.00077777775 0.0020491802
-0.015448508 0.0035000001 -0.0061983606
0.010520149 0.0035000001 -6.0655737e-05
-0.010520149 0.0035000001 -0.0037049181
-0.0055917911 -0.0035000001 -0.0025540984
-0.0074873138 -0.0035000001 -0.0077327867
-0.012605224 0.0035000001 -0.0081163934
0.0027485075 -0.00058333331 0.0010901639
-0.005402239 0.00058333331 -6.0655737e-05
-0.0071082092 0.00019444444 -6.0655737e-05
-0.012605224 -0.00058333331 0.00089836068
0.0076768659 -0.0033055556 -0.0073491805
0.0099514928 -0.00058333331 0.001857377
0.0093828356 0.0035000001 -0.0069655739
0.016964925 -0.0027222221 -0.0050475411
0.0052126865 0.0015555555 0.00013114754
-0.0061604478 0.0013611111 -0.0083081964
-0.015258956 0.00038888888 -6.0655737e-05
-0.0084350752 -0.0035000001 -0.0023622951
-0.0061604478 -0.0011666666 -6.0655737e-05
0.0033171643 -0.0035000001 -0.0035131148
-0.0065395525 -0.0035000001 -0.0035131148
-0.0057813432 0.0035000001 -0.0056229508
0.010330597 0.0035000001 -0.0079245903
-0.016017165 -0.003111111 -0.0077327867
-0.0093828356 -0.0015555555 -0.0083081964
-0.015827613 0.003111111 -0.0081163934
0.011657463 0.0025277778 -6.0655737e-05
-0.010520149 -0.00038888888 -0.0083081964
-0.0074873138 0.0035000001 -0.0019786886
-0.015827613 0.0035000001 -0.0054311478
-0.012794777 0.0017500001 0.00051475409
0.0063499999 -0.0033055556 -0.0058147539
0.016017165 -0.0029166667 -0.0038967214
-0.011847015 -0.003111111 -0.0079245903
-0.018860448 0.00077777775 -0.0027459017
0.0093828356 -0.0027222221 -0.0081163934
0.0019902985 0.0035000001 -0.0017868852
0.0069186566 -0.0035000001 -0.0050475411
0.016396269 0.00097222225 -0.0083081964
0.013173881 0.003111111 -0.0083081964
-0.017723134 0.0027222221 -0.0083081964
-0.013173881 -0.0033055556 -0.0063901641
0.0082455222 -0.0025277778 -0.0081163934
-0.018291792 -0.0025277778 -0.0061983606
-0.0091932835 -0.00097222225 -6.0655737e-05
0.0057813432 0.0011666666 -0.0083081964
-0.018860448 0.003111111 -0.0050475411
0.01905 0.00019444444 -0.0063901641
0.0076768659 -0.0033055556 -0.0061983606
