# .PCD v0.7 - Point Cloud Data file format
VERSION 0.7
FIELDS x y z
SIZE 4 4 4
TYPE F F F
COUNT 1 1 1
WIDTH 1234
HEIGHT 1
VIEWPOINT 0 0 0 1 0 0 0
POINTS 1234
DATA ascii
-0.0028923077 0.00062499999 -0.0018323528
0.002276923 -0.001 -0.00041176466
0.0019692308 -0.00043750001 -4.1176438e-05
-0.0011692308 -0.00075000001 -4.1176438e-05
0.0038153846 0.00087500003 -0.0012147059
-0.00092307694 -0.001 -0.0012147059
0.0031999999 -6.2500003e-05 0.0018117647
0.0038769231 -0.00062499999 -0.0005970588
-0.0011692308 0.0001875 -0.0029441176
-0.0028307692 -0.001 -0.00065882347
0.0035076924 0.001 -0.00078235287
-0.0031384616 0.00012500001 0.0010705882
-0.0020307691 -6.2500003e-05 -0.0018941176
0.0035692307 -0.00081250002 -0.00028823526
-0.0022153845 -0.00056249998 -0.00016470585
0.0036307692 0.00081250002 -4.1176438e-05
0.0021538462 -0.001 -0.00078235287
-0.00067692308 0.001 -0.0014617647
-0.0031384616 -0.0001875 -0.0025735293
0.0024000001 0.00093749998 -0.0018941176
-0.0025846155 0.00093749998 -0.0012147059
0.0014769231 0.00012500001 -4.1176438e-05
0.0012923077 0.001 -0.0015235294
-0.0030769231 -0.001 -0.0014617647
0.0019692308 -0.001 -0.00078235287
-0.0013538462 -0.000375 -0.0019558822
0.0030153845 0.0001875 0.0011941177
-0.0011076923 0.0001875 0.0017500001
0.0012307692 0 -0.0026970587
-0.0039384617 0.00025000001 -0.00065882347
0.00073846156 -6.2500003e-05 2.0588268e-05
-0.0016615385 -0.00025000001 -4.1176438e-05
0.0040000002 0 -0.0011529411
0.0039384617 0.0006875 -0.00047352936
0.00098461541 -0.0001875 0.0023676471
-0.003753846 -0.0006875 -4.1176438e-05
0.0029538462 -0.00012500001 -0.0044882353
-0.0027076923 0.00056249998 -0.00028823526
-0.0013538462 -0.00093749998 -0.00016470585
0.0034461538 -0.00043750001 -4.1176438e-05
-0.0027076923 0.00093749998 -0.0015235294
-0.0027692309 0 0.0006382353
0.0029538462 -0.00012500001 0.0011941177
-0.00086153846 -0.0001875 0.0015647059
0.0003076923 -0.00075000001 -0.0019558822
0.003753846 -0.00050000002 -0.00028823526
-0.0030769231 -0.0001875 0.0023676471
-0.0023384616 -0.00025000001 -4.1176438e-05
0.0012307692 -6.2500003e-05 0.00070000003
0.00012307693 -0.00012500001 -4.1176438e-05
0.0032615385 0.00012500001 0.0019970587
-0.0010461538 -0.0001875 -0.00245
0.0019692308 -0.00050000002 -0.0019558822
-0.0030153845 0.0001875 -0.0041794116
0.0030153845 -0.00012500001 0.00026764709
-0.0027692309 0.00093749998 -0.00065882347
-0.0019692308 -0.00087500003 -4.1176438e-05
-0.00098461541 0.001 -0.0017088235
-0.00055384613 -0.00043750001 -4.1176438e-05
0.0025846155 -0.00087500003 -0.0018323528
0.0029538462 0.0001875 0.00026764709
-0.0029538462 -0.0001875 0.0024294117
0.0023384616 -0.001 -0.00034999996
-0.0029538462 0 -0.0051676468
0.0016 -0.00031249999 -4.1176438e-05
0.00092307694 0.00031249999 -0.00016470585
0.0039384617 0.0001875 -0.00047352936
-0.0016615385 0.00031249999 -0.00016470585
-0.00012307693 0.00075000001 -0.00010294114
-0.0019692308 -0.00062499999 -4.1176438e-05
0.0032615385 0.00012500001 0.00088529417
-0.0017230769 0.001 -0.0014617647
-0.0031384616 -0.0001875 0.00076176471
-0.0030153845 0 -0.0050441176
0.00098461541 -0.001 -0.0008441176
0.0030769231 -0.00012500001 -0.0027588236
0.0011076923 0.0001875 0.00076176471
-0.0039384617 0.00056249998 -0.00034999996
0.0039384617 6.2500003e-05 -0.0013382352
-0.0029538462 -0.0001875 -0.0022647057
-0.0031999999 -6.2500003e-05 -0.0025735293
0.00055384613 0.00062499999 -0.00022647055
0.0030153845 0.00031249999 -0.00022647055
0.00092307694 -0.00012500001 -0.0051676468
0.00086153846 0.0001875 -0.0030676469
-0.0038769231 0.0006875 -0.0011529411
-0.0029538462 -0.001 -0.00065882347
-0.00092307694 0.0001875 -0.0023882352
0.0028307692 0.00012500001 0.0023058823
-0.003323077 -0.001 -0.00065882347
-0.0015384615 -6.2500003e-05 -0.0019558822
-0.0011692308 -0.0001875 0.0010705882
-0.00024615385 0.0001875 -0.0019558822
-0.002276923 -0.001 -0.00096764701
-0.00012307693 -0.001 -0.00053529406
0.00079999998 -0.001 -0.0012147059
-0.0029538462 0.0001875 0.0019970587
0.0036923077 -0.00043750001 -0.0018323528
-0.00043076923 0.00031249999 -0.00022647055
0.0028307692 6.2500003e-05 0.00076176471
-0.0031384616 -0.00012500001 0.0024911764
-0.0012307692 0 -0.0046117646
-0.00098461541 0.0001875 0.0019970587
0.003753846 0.00093749998 -0.0013382352
6.1538463e-05 0.001 -0.00065882347
0.0019692308 -0.001 -0.0008441176
-0.00079999998 0.00043750001 -0.0019558822
-0.0012307692 0 0.0006382353
0.00049230771 0.001 -0.0017088235
0.0020923077 -0.00081250002 -0.0018323528
0.0012307692 -0.00062499999 -0.0019558822
0.0020307691 0.001 -0.00090588233
-0.0028923077 0.00087500003 -0.0013382352
0.0025846155 0.00062499999 -0.0018941176
0.00092307694 0.001 -0.0011529411
-0.003323077 0.00087500003 -0.0012147059
-0.0031384616 0.00087500003 -0.00053529406
-0.0029538462 -0.0001875 -0.0021411765
0.0012923077 0.00050000002 -0.00028823526
-0.0012307692 6.2500003e-05 -0.0031911763
-0.0011076923 -0.001 -0.0014617647
-0.0040000002 -0.0001875 -0.0016470588
-0.0011692308 0.0001875 -0.0022647057
0.00067692308 -0.001 -0.0008441176
0.0010461538 -0.0001875 0.0005147059
-0.00024615385 -0.001 -0.0014617647
-0.0030769231 -0.0001875 0.00088529417
-0.0011692308 -0.001 -0.0018941176
-0.0039384617 -0.00062499999 -0.0005970588
0.00092307694 0.0001875 -0.0026970587
0.0019076923 0.00062499999 -0.0018941176
-0.0034461538 0.00043750001 -0.0018941176
0.0034461538 0.00062499999 -0.00016470585
-0.0010461538 0.0001875 -0.0047970586
0.0030769231 0.0001875 -0.0022647057
-0.0031999999 -0.0001875 -0.0022029411
0.0027692309 -0.00025000001 -0.0019558822
-0.0029538462 0.0001875 0.0021205882
-0.0036923077 0.00056249998 -0.00028823526
0.0012307692 -6.2500003e-05 -0.0045499997
0.0011692308 -0.0001875 -0.0038088234
0.0012307692 -6.2500003e-05 0.00088529417
0.0016615385 -0.00075000001 -0.00022647055
0.0021538462 0.00025000001 -0.0018941176
-0.0034461538 0.00012500001 -4.1176438e-05
-0.0016615385 0.00087500003 -0.0017705882
0.0030153845 0.001 -0.00096764701
-0.00067692308 -0.001 -0.0017705882
-0.00067692308 0.00093749998 -0.00022647055
-0.0038153846 -0.00087500003 -0.0012147059
0.00098461541 0.0001875 0.0021823531
0.0034461538 -0.0006875 -0.0018323528
0.0012307692 6.2500003e-05 0.00014411767
0.0027692309 0 -0.0020794116
0.0028923077 -6.2500003e-05 -0.0049205883
0.0039384617 -0.000375 -0.00053529406
0.0010461538 0.0001875 0.00076176471
-0.0031384616 0.00012500001 -0.0022029411
-0.0011692308 -0.00043750001 -4.1176438e-05
0.0027692309 0 -0.0022647057
0.0031384616 -0.00012500001 -0.0022029411
0.00073846156 0.00012500001 -0.0048588235
-0.0035692307 -0.001 -0.00028823526
-0.0011692308 -0.0001875 -0.0026352941
0.0034461538 0.001 -0.0012147059
-0.0022153845 -0.001 -0.0011529411
0.00055384613 -0.00050000002 -0.0019558822
-0.0010461538 0.0001875 -0.0039323526
0.0040000002 0.00012500001 -0.0011529411
-0.0039384617 0.000375 -0.0014617647
-0.0028923077 -0.0001875 0.0022441177
0.00098461541 0.00050000002 -0.00028823526
0.0014153846 0.001 -0.00096764701
-0.003753846 0.00031249999 -0.00022647055
0.0040000002 -0.00012500001 -0.0011529411
0.0033846153 -0.00093749998 -0.0018323528
0.00092307694 0.001 -0.00078235287
0.0039384617 0.00031249999 -0.001585294
-0.0003076923 0.00075000001 -0.00010294114
0.00092307694 0.00062499999 -0.0019558822
0.0024615384 0.0006875 -0.00016470585
-0.00086153846 0.00062499999 -0.00022647055
0.0030153845 -0.00012500001 -0.00245
0.00036923078 0.000375 -0.0019558822
-0.0035692307 -0.00050000002 -0.00016470585
0.0039384617 0.0006875 -0.0012147059
-0.0029538462 -0.001 -0.00090588233
-0.00073846156 0 -0.0020794116
0.00073846156 0.00062499999 -0.0019558822
-0.0027692309 -0.00012500001 0.00088529417
0.0020923077 0.00093749998 -4.1176438e-05
-0.0021538462 0.001 -0.00041176466
0.0030769231 -0.001 -0.0016470588
0.0028923077 0.001 -0.0012764705
-0.00086153846 0.001 -0.0008441176
0.00092307694 0.0001875 -0.0051058824
-0.0016615385 0.001 -0.0012764705
0.0026461538 0.0001875 -0.0018941176
-0.00067692308 -0.00012500001 -4.1176438e-05
0.0019692308 0 -4.1176438e-05
-0.0027692309 6.2500003e-05 0.0010705882
0.0012307692 0.0001875 -0.00245
-0.0010461538 0.0001875 -0.0025735293
0.0011076923 -0.0001875 -0.0035617647
-0.0028307692 0.00012500001 0.00070000003
0.00092307694 0.0001875 0.0024911764
0.0016615385 -0.001 -0.0010911764
0.0034461538 -0.00031249999 -4.1176438e-05
-0.0030769231 -0.0001875 -0.0049823527
0.00086153846 0.0001875 -0.0034382353
-0.00073846156 0 0.0005147059
-0.00024615385 -0.0006875 -4.1176438e-05
-0.0014769231 0.00050000002 -0.0019558822
-0.0012307692 -6.2500003e-05 -0.0026352941
0.0030153845 0.0001875 0.0004529412
0.0033846153 0.001 -0.00016470585
0.00067692308 -0.00093749998 -0.00010294114
0.00036923078 -0.001 -0.00096764701
0.00079999998 0.001 -0.0018323528
0.00073846156 0.0001875 8.235297e-05
0.0028307692 -0.00087500003 -0.0018323528
0.0010461538 0.00031249999 -0.0020794116
0.002276923 -6.2500003e-05 -0.0018941176
0.0023384616 0.001 -4.1176438e-05
-0.0031999999 -0.001 -0.00034999996
0.00024615385 0.001 -0.00016470585
0.0021538462 -0.0006875 -0.00010294114
-0.0011076923 -0.0001875 0.0023058823
0.0017230769 -0.00087500003 -0.00028823526
6.1538463e-05 0.001 -0.00078235287
0.0016615385 0.001 -0.00028823526
0.0039384617 0.00056249998 -0.0014617647
0.0006153846 -0.001 -0.00028823526
-0.0032615385 0.0006875 -0.00022647055
6.1538463e-05 -0.00062499999 -0.00010294114
0.0011692308 -0.0001875 0.0020588236
-0.0040000002 -6.2500003e-05 -0.0014
-0.0031999999 -0.00087500003 -0.0018941176
-0.0031999999 0 -0.0029441176
-0.00049230771 0.001 -0.0007205882
-0.0027076923 0.0006875 -0.00016470585
0.0016615385 -0.00087500003 -0.00028823526
-0.0017846153 -0.0001875 -4.1176438e-05
-0.00073846156 -0.0001875 -0.0038705883
-0.0039384617 -0.00043750001 -0.00016470585
-0.0024000001 -0.001 -0.0012764705
0.0039384617 0.00050000002 -0.00047352936
-0.00073846156 -0.00025000001 -0.0020794116
0.00092307694 0.0001875 -0.0044882353
0.00012307693 0.0006875 -0.0019558822
-0.0031999999 -0.00062499999 -0.00016470585
0.00049230771 0.00093749998 -0.00010294114
-0.0027692309 -0.00012500001 0.0006382353
-0.0006153846 -0.00025000001 -4.1176438e-05
-0.0031999999 -0.00012500001 8.235297e-05
-0.0012307692 6.2500003e-05 -0.0022029411
0.0036923077 -0.00043750001 -0.00028823526
0.00073846156 -6.2500003e-05 -0.002017647
0.00073846156 0.00012500001 -0.0032529412
-0.0031384616 -0.0001875 0.0021823531
-6.1538463e-05 0.001 -0.00090588233
0.0006153846 -6.2500003e-05 -4.1176438e-05
-0.00092307694 -0.001 -0.0010911764
-0.0010461538 -0.0001875 -0.0047352938
-0.00098461541 0.0001875 -0.0030058823
0.0032615385 0.00012500001 -0.0022647057
-0.00079999998 6.2500003e-05 -0.0041794116
0.0011692308 0.001 -0.00016470585
0.0027692309 0.00031249999 -0.00022647055
-0.00092307694 0.0001875 0.0005147059
0.00079999998 0.0001875 0.0023058823
-0.0018461539 -0.001 -0.0018941176
0.0010461538 -0.0001875 -0.0038705883
0.00086153846 -0.0001875 -0.0036235293
0.0017846153 0.00031249999 -0.00022647055
-0.0028307692 0.0001875 -0.0038088234
-0.0032615385 -0.001 -0.0013382352
0.0033846153 -0.00012500001 -0.0019558822
0.0038769231 -0.00062499999 -0.00034999996
-0.0033846153 -0.00012500001 -0.0019558822
-0.0031384616 -0.00031249999 -4.1176438e-05
-0.0024615384 -0.00025000001 -0.0019558822
0.0003076923 0.001 -0.0017705882
-0.0015384615 0.001 -0.0014617647
-0.0020307691 0.0006875 -0.0018941176
0.0014153846 -0.00012500001 -4.1176438e-05
0.0028923077 -0.00012500001 -0.00245
-0.0029538462 -0.0001875 -0.00245
0.002523077 0.00043750001 -0.00028823526
-0.0017230769 0.00056249998 -0.00028823526
-0.0020923077 -0.000375 -4.1176438e-05
0.0010461538 -0.001 -0.00090588233
-0.0027692309 -6.2500003e-05 -0.0045499997
-0.0016 -0.00093749998 -0.00016470585
0.0019692308 0.001 -0.0013382352
0.0027692309 -0.00056249998 -0.00016470585
-0.0024615384 -0.00093749998 -0.00010294114
0.00073846156 0.00012500001 0.0010088235
0.0029538462 0.00031249999 -0.002017647
-0.00018461539 -0.001 -0.00028823526
0.0034461538 6.2500003e-05 -0.0019558822
-0.0026461538 0.00062499999 -0.00022647055
0.00036923078 -0.001 -0.0010911764
-0.0027692309 -0.00012500001 -0.0036235293
-0.0006153846 0.001 -0.00028823526
0.0016 0.001 -0.00065882347
0.00079999998 0.0001875 -0.0041176472
-0.0035076924 0.00012500001 -0.0018941176
-0.0012307692 -6.2500003e-05 0.00014411767
0.0030153845 -0.00012500001 0.00094705884
-0.0016 -0.001 -0.00047352936
0.0016615385 0.00050000002 -0.0019558822
-0.0027692309 0 -0.0029441176
0.0036923077 0.00050000002 -0.00028823526
-0.00055384613 -0.001 -0.0017088235
0.00079999998 0 0.0021205882
0.0031384616 0.0001875 -0.00245
-0.0026461538 -0.00081250002 -0.0018941176
0.0010461538 -0.00025000001 -0.0020794116
0.0018461539 -0.00081250002 -0.0018323528
-0.0030153845 -0.001 -0.0014617647
-0.0033846153 0.0006875 -0.00028823526
0.0032615385 0.00012500001 -0.0041794116
0.0038153846 0.00093749998 -0.0016470588
0.00073846156 0.00012500001 0.0018117647
-0.0031384616 0.00012500001 0.00014411767
0.00055384613 -0.001 -0.00096764701
0.0038769231 0.00075000001 -4.1176438e-05
0.00079999998 -0.00012500001 -0.0041176472
0.00012307693 0.001 -0.0017088235
-0.0030153845 0.0001875 2.0588268e-05
0.0028307692 6.2500003e-05 0.0016264706
0.0029538462 0.00062499999 -0.00022647055
-0.00024615385 0.001 -0.00078235287
0.00024615385 0.00031249999 -0.00016470585
-0.0028923077 0.00031249999 -0.00022647055
0.0012307692 -0.00012500001 0.0022441177
0.0020923077 0.00087500003 -4.1176438e-05
-0.0014769231 -0.00025000001 -0.0019558822
0.0028923077 6.2500003e-05 -0.0050441176
-0.0023384616 -0.001 -0.0012764705
-0.0028307692 0.0001875 8.235297e-05
-0.0014153846 0.00025000001 -0.0019558822
-0.0033846153 0.00031249999 -0.0018941176
-0.0028307692 6.2500003e-05 -0.0049823527
-0.0011076923 -0.0001875 -0.0047970586
-0.0010461538 -0.001 -0.00096764701
0.0011692308 -0.0001875 -0.0031294117
-0.0012307692 -0.0001875 -0.0025117646
-0.0030153845 -0.001 -0.0015235294
0.0022153845 0.001 -0.00096764701
0.0040000002 6.2500003e-05 -4.1176438e-05
0.0012307692 -6.2500003e-05 0.0018735294
-0.00018461539 0.001 -0.0012147059
0.00079999998 -0.001 -0.0010911764
-0.00043076923 -0.00087500003 -4.1176438e-05
0.0035076924 -0.00087500003 -0.0010294117
0.00079999998 0 -0.0042411764
-0.0033846153 0.000375 -0.00028823526
-0.0012923077 0.0006875 -0.0019558822
-0.0018461539 0.00031249999 -0.00022647055
0.0011076923 -0.0006875 -4.1176438e-05
-0.00012307693 -0.00056249998 -0.0019558822
0.00092307694 -0.0006875 -0.0019558822
0.003323077 -0.0006875 -0.0018323528
0.0010461538 0.000375 -0.0019558822
-0.00079999998 -0.0001875 -0.0031294117
-0.00086153846 -0.001 -0.00053529406
-0.00073846156 -0.00012500001 -0.0051058824
-0.0003076923 -6.2500003e-05 -4.1176438e-05
0.0028307692 6.2500003e-05 -0.0025117646
0.00086153846 -0.0001875 -0.0025117646
0.00092307694 0.0001875 -0.00245
-0.0016615385 0.001 -0.00053529406
-0.0012923077 -0.0001875 -4.1176438e-05
-0.0030769231 0.0001875 0.0016882353
0.00086153846 6.2500003e-05 0.0024911764
-0.0027692309 -0.00075000001 -0.00010294114
6.1538463e-05 0.001 -0.0015235294
-0.0015384615 0.00050000002 -0.00028823526
-0.0012307692 -0.00012500001 0.00076176471
0.00079999998 0.001 -0.00041176466
0.002523077 0.001 -0.00053529406
0.0028307692 0.0006875 -0.0018941176
0.00024615385 0.00093749998 -4.1176438e-05
-0.003753846 0.00081250002 -0.0011529411
0.00092307694 0.0001875 -0.0030058823
-0.0028307692 -0.00043750001 -0.00010294114
-0.0035692307 -0.001 -0.00065882347
-0.0030769231 0.0001875 0.0010088235
-0.0012307692 0 0.0016264706
-0.0039384617 0.0001875 -0.0007205882
0.0027076923 0.00062499999 -0.00022647055
0.00073846156 0.00056249998 -0.0019558822
0.0018461539 0.00050000002 -0.00028823526
-0.0022153845 -0.001 -0.0017705882
0.0028307692 -0.00012500001 -0.0020794116
-0.0019076923 -0.00012500001 -0.0019558822
-0.0013538462 -0.001 -0.0018941176
-0.0012307692 0.000375 -0.00028823526
0.0027076923 0.00043750001 -0.0018941176
0.00024615385 0.00043750001 -0.00028823526
-0.0029538462 0.0001875 0.00094705884
0.00098461541 -0.0001875 -0.0030676469
0.0019076923 -0.0006875 -0.0018941176
0.00073846156 6.2500003e-05 0.0013176471
-0.0011692308 0.0001875 0.0017500001
-0.0027692309 -0.0001875 -0.0038705883
0.00079999998 -6.2500003e-05 0.0014411765
0.0012307692 0.0001875 0.0012558823
0 -0.001 -0.00022647055
-0.0028923077 0.0001875 -0.0025117646
0.0020307691 0.00093749998 -4.1176438e-05
-0.0031384616 0.00012500001 -0.0022647057
0.0012307692 0.0001875 0.0021205882
0.0030769231 -0.00093749998 -0.00028823526
-0.0012307692 6.2500003e-05 -0.0032529412
0.00098461541 -0.0001875 0.0004529412
-0.0039384617 0 -0.00028823526
-0.0027692309 -0.00012500001 0.0021823531
0.0016615385 0.00081250002 -4.1176438e-05
-0.0006153846 0.00062499999 -0.0019558822
0.002523077 -0.00025000001 -4.1176438e-05
-0.0024615384 -0.0006875 -0.00016470585
-0.0015384615 -0.001 -0.00053529406
0.00092307694 0.0001875 -0.0023882352
-0.0020307691 -0.001 -0.00047352936
-0.0028307692 0.00012500001 0.0004529412
0.00079999998 0.00056249998 -0.00028823526
-0.00079999998 0.00012500001 0.0014411765
-0.0010461538 0.001 -0.00053529406
0.0030153845 0.0001875 -0.0023264706
0.0003076923 6.2500003e-05 -0.0019558822
-0.0029538462 -0.001 -0.0010294117
-0.00098461541 -0.001 -0.00016470585
-0.0039384617 0.0001875 -0.00090588233
-0.0038769231 0.0006875 -0.0017088235
0.0036923077 -0.0001875 -4.1176438e-05
-0.0028923077 0 -0.0051058824
0.0033846153 0.00075000001 -4.1176438e-05
-0.0012307692 -6.2500003e-05 -0.0037470588
-0.0019076923 -0.00081250002 -0.0018941176
-0.00073846156 0 2.0588268e-05
-0.0014769231 0.00056249998 -0.00028823526
-0.0010461538 -0.00056249998 -0.00016470585
0.0031999999 -0.00025000001 -4.1176438e-05
-0.0039384617 -0.00056249998 -0.0018941176
-0.0032615385 -0.00093749998 -0.00016470585
0.00024615385 0.000375 -0.0019558822
0.0039384617 0.00062499999 -0.0014617647
0.0030769231 -0.00012500001 -0.0046117646
-0.0011692308 -0.001 -0.0014
0.00086153846 0.001 -0.0013382352
0.00079999998 -6.2500003e-05 0.001132353
-0.0033846153 0.00087500003 -0.00096764701
-0.0012307692 0.00012500001 -0.0027588236
0.0016 0.00056249998 -0.00028823526
-0.0016 6.2500003e-05 -4.1176438e-05
0.0038769231 0.00081250002 -0.00065882347
-0.0029538462 -0.00056249998 -0.0018941176
-0.0030153845 -0.0001875 0.0005147059
-0.00092307694 -0.0001875 -0.0022029411
0.0038153846 0.00087500003 -0.00016470585
0.0012307692 0.0001875 -0.0020794116
-0.0027692309 -6.2500003e-05 0.00082352944
0.0012923077 0.001 -0.0014
0.0028307692 -6.2500003e-05 -0.0049823527
0.0006153846 0.001 -0.00096764701
-0.0016 0.001 -0.00034999996
-0.0035076924 0.00087500003 -0.0011529411
0.0036307692 -0.00012500001 -0.0018941176
0.0030769231 -0.00012500001 -0.0044264705
0.00079999998 -6.2500003e-05 0.0022441177
0.00024615385 0 -0.0019558822
0.00079999998 0.0001875 -0.0036235293
-0.0025846155 -0.001 -0.001585294
-0.0026461538 -0.0001875 -4.1176438e-05
0.0011692308 0.00093749998 -0.0018323528
-0.0012307692 0.00012500001 -0.0028205882
0.0028307692 0.00056249998 -0.0018941176
0.0011076923 0.00031249999 -0.002017647
0.0038769231 0.00075000001 -0.0010294117
-0.0024615384 -0.00062499999 -4.1176438e-05
0.0031384616 0.0001875 0.00020588239
0.00079999998 -0.00012500001 -0.0029441176
0.0016 0.00081250002 -0.0018941176
-0.0010461538 -0.001 -0.0011529411
-0.0011692308 0.0001875 -0.0041176472
-0.00018461539 -0.00050000002 -0.00016470585
-0.0014153846 -0.001 -0.0011529411
-0.0011076923 -0.001 -0.00053529406
-0.0035692307 -0.001 -0.001585294
-0.0024615384 0 -0.0019558822
-0.0010461538 0.0001875 -0.0031911763
0.0017846153 0.00056249998 -0.0019558822
0.0033846153 0.00056249998 -0.00028823526
-0.0024000001 0.00012500001 -4.1176438e-05
-0.0012307692 0 -0.0044264705
0.0024000001 0.001 -0.0005970588
0.00073846156 0.00031249999 -0.00010294114
-0.0016 0.00025000001 -4.1176438e-05
0.0036307692 0.001 -0.00090588233
-0.00079999998 0.00012500001 -0.0021411765
-0.0020307691 -6.2500003e-05 -4.1176438e-05
0.00073846156 0.0001875 0.0021823531
-0.0032615385 -0.00093749998 -0.0018941176
-0.0028923077 0.0001875 0.0018117647
-0.0018461539 -0.00043750001 -0.0019558822
0.0012923077 -0.00087500003 -0.0018323528
0.0031384616 0.00031249999 -0.00010294114
-0.0040000002 6.2500003e-05 -0.0012764705
-0.0028923077 0.00087500003 -0.0018323528
0.0027692309 0.00062499999 -0.0018941176
0.0027076923 -0.001 -0.0015235294
-0.0010461538 -0.0001875 0.00014411767
0.0028307692 -6.2500003e-05 -0.0047352938
0.0027692309 0.001 -0.0014617647
-0.0028307692 0.00087500003 -0.00016470585
0.0032615385 -0.00093749998 -0.0010294117
0.00049230771 0.001 -0.00065882347
0.0018461539 0.001 -0.0010911764
0.00018461539 0.0001875 -4.1176438e-05
0.0028923077 0.0001875 -0.0045499997
-0.002276923 -0.00050000002 -0.00016470585
-0.0011692308 0.0001875 -0.0045499997
0.0030769231 -0.00012500001 -0.0021411765
-0.0011076923 0.0001875 -0.0047352938
0.0016 0.001 -0.0011529411
0.0024615384 0.00081250002 -4.1176438e-05
0.0010461538 0.0001875 -0.0023882352
-0.0011076923 0.001 -0.0015235294
0.0036307692 0.001 -0.0017705882
-0.0039384617 0.00031249999 -0.0017088235
-0.0029538462 0.0001875 0.00070000003
0.0029538462 0.001 -0.0008441176
6.1538463e-05 0.0001875 -4.1176438e-05
0.0036307692 -0.00075000001 -0.00078235287
0.0030769231 0.001 -0.0005970588
0.0019076923 -0.00012500001 -4.1176438e-05
0.0038769231 0.00025000001 -0.0018941176
-0.0024615384 -0.001 -0.00090588233
-0.0020923077 -0.001 -0.00096764701
0.0029538462 0.0001875 -0.003685294
0.0024000001 0.001 -0.00022647055
-0.0020307691 -0.00087500003 -0.00010294114
0.0039384617 -0.00031249999 -0.0017088235
0.0020923077 -0.00043750001 -0.0018941176
0.0011692308 -0.0001875 0.0021823531
-0.0020307691 0.001 -0.00028823526
-0.00036923078 -0.001 -0.00090588233
-0.0027692309 -0.0001875 -0.0033147058
6.1538463e-05 0.001 -0.0010911764
-0.00086153846 -0.00043750001 -0.00010294114
0.0030153845 0.001 -0.0017088235
-0.00098461541 -0.0006875 -4.1176438e-05
0.0019692308 -0.001 -0.0017088235
-0.0031384616 -0.0001875 0.0023676471
-0.0028307692 0.0001875 -0.0043029413
-0.0031384616 6.2500003e-05 0.0015647059
0.00098461541 0.001 -0.001585294
-0.0030153845 -0.000375 -4.1176438e-05
0.00079999998 0.0001875 0.001132353
-0.0012307692 0 0.00094705884
0.0003076923 -0.001 -0.00034999996
0.00079999998 0 -0.0028205882
0.0031384616 0.00056249998 -0.0018941176
0.00079999998 0 0.0006382353
-0.0011692308 -0.001 -0.0010294117
0.0028923077 -6.2500003e-05 -0.0036235293
-0.0031384616 -0.00062499999 -0.0018941176
-0.0030769231 0.00075000001 -0.00016470585
0.00079999998 -6.2500003e-05 0.0013176471
-0.0036923077 0.00031249999 -0.00016470585
0.0027692309 0.001 -0.0018323528
-0.00079999998 0 -0.0039941175
0.00073846156 0.001 -0.0010911764
0.00098461541 -0.0001875 -0.0033764704
0.0027692309 0 0.0004529412
-0.00086153846 -0.0001875 -0.0045499997
0.0027076923 -0.001 -0.0007205882
0.0024000001 -0.001 -0.0010294117
0.0031384616 -0.00012500001 0.00082352944
-0.0012923077 0.001 -0.0013382352
-0.0031384616 6.2500003e-05 -0.0038705883
-0.0038769231 -0.00081250002 -4.1176438e-05
0.0021538462 -0.001 -0.0017705882
-0.00043076923 0.00075000001 -0.00010294114
-0.0038153846 -0.00087500003 -0.0014
0.0017230769 0.001 -0.0015235294
-0.0022153845 -0.00012500001 -0.0019558822
-0.00079999998 0 -0.0049205883
-0.0039384617 -0.0001875 -0.0008441176
0.00067692308 -0.00093749998 -4.1176438e-05
0.0031384616 -0.001 -0.0012147059
0.00098461541 0.00093749998 -0.00010294114
0.00055384613 0.001 -0.0017088235
-0.0022153845 0.001 -0.00028823526
-0.0012307692 0.001 -0.0016470588
-0.00055384613 -0.001 -0.0012764705
-0.0030153845 0.000375 -0.0018941176
0.0033846153 -0.00093749998 -0.001585294
-0.00092307694 -0.0001875 -0.0042411764
0.00073846156 0.0001875 -0.0022647057
-0.002276923 0.00056249998 -0.0018941176
-0.0020923077 0.00056249998 -0.00028823526
0.0028923077 -0.00056249998 -0.00028823526
-0.00086153846 -0.0001875 -0.0038705883
0.0031384616 0.0001875 0.00070000003
0.0026461538 -0.00081250002 -0.00028823526
0.00079999998 0.0001875 -0.0040558823
0.0010461538 -0.00062499999 -0.0019558822
0.002276923 0.001 -0.00065882347
0.0032615385 -0.00093749998 -0.00041176466
0.00073846156 0.0001875 -0.0049823527
-0.0031384616 0.0001875 -0.0047970586
-0.0036307692 0.00087500003 -0.00096764701
-0.0011076923 -0.001 -0.0013382352
0.0031999999 -6.2500003e-05 -0.0046735294
0.0028307692 -6.2500003e-05 -0.00245
0.0024615384 0.001 -0.00034999996
0.0038153846 -0.000375 -0.00016470585
0.0018461539 -0.00012500001 -4.1176438e-05
0.0010461538 0.00093749998 -0.0018323528
0 -0.001 -0.0016470588
0.0011076923 0.0001875 -0.0040558823
-0.0014769231 -0.001 -0.00016470585
-0.0003076923 -0.00087500003 -4.1176438e-05
-0.003753846 0.0001875 -4.1176438e-05
-0.00049230771 -0.001 -0.00022647055
0.0016 0.001 -0.0012764705
-0.0014153846 0.001 -0.00047352936
0.0011076923 -0.0001875 -0.0031911763
-0.0026461538 0.00075000001 -0.0018323528
-0.00012307693 0.001 -0.0018323528
0.003753846 -0.00075000001 -0.00047352936
0.0016615385 -0.001 -0.0010294117
-0.0020923077 0.001 -0.0012764705
-0.0038153846 0.00043750001 -0.0017705882
0.0028307692 -0.001 -0.0015235294
0.00049230771 0.00093749998 -0.0018941176
0.00079999998 -6.2500003e-05 -0.0030676469
-0.0033846153 0.00031249999 -0.00022647055
-0.0039384617 0 -0.00016470585
-0.0033846153 0.00087500003 -0.0016470588
0.0013538462 -0.00081250002 -0.0018941176
0.0019076923 -0.001 -0.0013382352
-0.0012923077 -0.001 -0.0017705882
-0.0029538462 0.00050000002 -0.0018323528
-0.0012307692 6.2500003e-05 0.00094705884
-0.0010461538 0.0001875 -0.0036235293
0.0024000001 0.00075000001 -0.00010294114
-0.0031384616 0.00012500001 0.0016264706
0.0031384616 -6.2500003e-05 -0.0032529412
0.0015384615 0.00062499999 -0.0019558822
0.0003076923 -0.001 -0.0011529411
0.0035692307 -0.00081250002 -0.0012764705
-0.003323077 0 -0.0019558822
-0.0028923077 -6.2500003e-05 -0.0052294116
-0.00092307694 -0.0001875 0.0014411765
-0.0020923077 0.00087500003 -0.0018323528
-0.00018461539 -0.001 -0.0010911764
0.0028307692 -0.0006875 -0.00028823526
-0.0031384616 -0.001 -0.0008441176
-0.00012307693 -0.001 -0.0010911764
0.00098461541 0.0001875 0.0020588236
-0.00079999998 0.00087500003 -4.1176438e-05
-0.0039384617 0.00050000002 -0.00034999996
0.0019076923 -0.001 -0.00028823526
0.0029538462 -0.00031249999 -4.1176438e-05
0.0040000002 0.0001875 -0.00041176466
0.00036923078 0.001 -0.00034999996
-0.0027692309 -0.0001875 0.001132353
0.00086153846 -0.00043750001 -0.0019558822
-0.0027692309 -0.00012500001 -0.0030058823
0.0003076923 0.001 -0.00016470585
0.0017230769 6.2500003e-05 -4.1176438e-05
0.0012307692 0.0001875 0.0016264706
0.0020923077 -0.001 -0.00041176466
0.0022153845 -0.00062499999 -4.1176438e-05
-0.0012307692 6.2500003e-05 0.0014411765
-0.00092307694 0.0001875 0.0020588236
-0.0014153846 0.00031249999 -0.00016470585
0.00067692308 -0.001 -0.00047352936
0.0019692308 -0.001 -0.0010294117
0.0011692308 -0.0001875 0.00094705884
0.0020923077 -0.001 -0.00096764701
-0.0003076923 0.00025000001 -0.0019558822
0.0016615385 0.00075000001 -0.00010294114
-0.0035692307 0.00050000002 -0.0017705882
0.0028307692 0.0001875 0.0020588236
-0.0039384617 -0.00025000001 -0.00028823526
0.00079999998 -0.00087500003 -0.00016470585
-0.00079999998 6.2500003e-05 -0.0031294117
-0.0033846153 0.00043750001 -0.00028823526
0.00092307694 -0.001 -0.001585294
0.0011692308 -0.0001875 -0.0047970586
0.00092307694 -0.00050000002 -0.00016470585
0.00024615385 -0.001 -0.0010911764
0.00098461541 -0.001 -0.00078235287
0.0031999999 0.001 -0.0014617647
-0.0028307692 0.00081250002 -0.00016470585
0.0031384616 -6.2500003e-05 -0.0031294117
-0.00079999998 0 -0.0050441176
0.0028923077 -0.001 -0.0017705882
0.0003076923 0.001 -0.0013382352
-0.002276923 0.001 -0.0008441176
-0.0012923077 0.000375 -0.0019558822
0.0035076924 0.00062499999 -0.0018941176
-0.00049230771 -0.001 -0.0008441176
-0.00012307693 -0.00093749998 -0.0019558822
0.0030769231 0.0001875 0.00070000003
0.0010461538 -0.0001875 -0.0033764704
-0.0016615385 -0.001 -0.0012764705
0.0016615385 -0.0001875 -4.1176438e-05
0.0033846153 -0.00056249998 -0.00028823526
0.0038769231 -0.00056249998 -0.0008441176
0.0035076924 -0.00087500003 -0.0018323528
-0.0012307692 -6.2500003e-05 0.0016264706
-0.00073846156 -0.00012500001 0.00039117649
0.0038769231 -0.00056249998 -0.0010911764
0.0032615385 0.00031249999 -0.0019558822
0.0032615385 0.0001875 0.0018117647
0.00098461541 0.0001875 -0.0051058824
0.0023384616 -6.2500003e-05 -0.0018941176
0.0014153846 0.00087500003 -0.0018941176
-0.0020307691 0.00081250002 -0.00016470585
0.0036923077 0.00093749998 -0.00041176466
-0.00043076923 0.0001875 -4.1176438e-05
0.0033846153 -0.00093749998 -0.0011529411
-0.0018461539 -0.00056249998 -0.0018941176
0.0028923077 0.001 -0.001585294
0.0023384616 -0.001 -0.00028823526
-0.0027692309 0.00075000001 -0.00016470585
0.00067692308 -0.00087500003 -4.1176438e-05
-0.0038769231 0.00043750001 -0.0017705882
-0.00086153846 0.0001875 -0.0040558823
-0.0038769231 -0.00081250002 -0.0014617647
0.0028923077 6.2500003e-05 -0.0051058824
-0.0030769231 0.00012500001 0.0018735294
-0.0036923077 0.00081250002 -0.001585294
0.0038769231 -0.00056249998 -0.00078235287
-0.0012307692 0 -0.0038088234
0.00049230771 0.00025000001 -0.0019558822
0.0030153845 0.001 -0.0008441176
-0.0029538462 -0.001 -0.00041176466
0.0003076923 0.00031249999 -0.00022647055
-0.00049230771 -0.00025000001 -0.0019558822
-0.00079999998 -6.2500003e-05 0.0023676471
0.0039384617 0.0006875 -0.0016470588
0.0028923077 0.0001875 0.0022441177
-0.0028923077 0.0001875 0.0006382353
0 0.001 -0.001585294
0.0029538462 0.0001875 -0.0029441176
0.0035076924 -0.00093749998 -0.0013382352
0.00086153846 0.0001875 -0.0043029413
0.0014769231 0.00081250002 -4.1176438e-05
0.0012307692 6.2500003e-05 -0.0044264705
-0.0019692308 -0.00087500003 -0.0018941176
-0.00073846156 -0.001 -0.0017088235
-0.0028307692 -0.00031249999 -0.0019558822
-0.0027692309 -0.00012500001 -0.0047970586
0.0030769231 0.0001875 2.0588268e-05
0.0016615385 -0.001 -0.0012764705
-0.00098461541 0.0001875 -0.0032529412
0.00043076923 0.001 -0.0007205882
-0.0039384617 0.00043750001 -0.00034999996
-0.0039384617 -0.00062499999 -0.00034999996
0.00098461541 0.001 -0.0014
0.0039384617 0.00056249998 -0.001585294
0.0032615385 0.001 -0.00090588233
-0.0029538462 0.00087500003 -0.0007205882
0.0016 0.001 -0.00047352936
-0.0031384616 -0.0001875 -0.0049205883
0.0010461538 0.001 -0.0010294117
0.0017846153 -0.00050000002 -0.0019558822
-0.00024615385 -0.001 -0.0011529411
-0.0031384616 6.2500003e-05 0.00094705884
0.0032615385 0.00075000001 -0.0018941176
0.0012307692 -0.001 -0.00053529406
0.00092307694 0.0001875 0.0010088235
0.0003076923 -0.00093749998 -4.1176438e-05
-0.00086153846 0.001 -0.001585294
-0.0031999999 0 -0.0026352941
0.0027692309 -0.00081250002 -0.00028823526
-0.00079999998 6.2500003e-05 0.00039117649
0.0034461538 0.0001875 -4.1176438e-05
0.0030769231 -0.00012500001 0.00088529417
0.00018461539 0.00025000001 -4.1176438e-05
-0.0016615385 0.001 -0.001585294
-0.0027692309 6.2500003e-05 -0.0025735293
0.0027076923 -0.001 -0.00034999996
-0.00079999998 -0.0001875 0.0015029412
0.0035076924 0 -4.1176438e-05
0.0016 0.00031249999 -0.0019558822
-0.0027692309 -0.001 -0.00016470585
-0.0017846153 0.00087500003 -0.00022647055
0.0012307692 0 -0.0049205883
-0.0019692308 0 -4.1176438e-05
0.0039384617 0.0006875 -0.0018941176
0.0028307692 -0.00025000001 -4.1176438e-05
-0.0030153845 -0.00043750001 -0.00010294114
-0.0027692309 -0.0001875 -0.0026970587
0.0030769231 0.00056249998 -0.0018941176
-0.0030769231 -0.0001875 8.235297e-05
0.0028307692 0.0001875 0.0015647059
-0.0003076923 0.00056249998 -0.00028823526
0.00073846156 -0.00081250002 -0.0019558822
-6.1538463e-05 0.00081250002 -4.1176438e-05
0.0032615385 0.00012500001 -0.0032529412
0.0033846153 -0.00012500001 -4.1176438e-05
0.00098461541 -0.0001875 0.0013794118
-0.0035692307 0.00087500003 -0.0017705882
-0.0027692309 0 -0.0030676469
-0.0038769231 -0.0006875 -0.0014617647
-0.0039384617 0.00012500001 -0.00022647055
0.0019692308 0.001 -0.00053529406
-0.0031999999 0 -0.0041176472
0.00092307694 -0.00087500003 -0.00010294114
-0.0027076923 -0.0001875 -0.0022647057
0.0010461538 -0.0001875 -0.0031294117
0.0022153845 0.0006875 -0.0018941176
-0.0039384617 0.00031249999 -0.00016470585
-0.0029538462 6.2500003e-05 -0.0050441176
-0.0035692307 0.00075000001 -0.0017705882
0.0024615384 0.001 -0.0007205882
-0.0020307691 -0.001 -0.0014
0.0035076924 0.001 -0.00041176466
-0.0030153845 -0.00087500003 -4.1176438e-05
-0.0022153845 0.001 -0.00047352936
0.00073846156 -0.00056249998 -0.00016470585
0.0035076924 -0.00087500003 -0.0013382352
-0.0017846153 -6.2500003e-05 -4.1176438e-05
0.0011076923 0.0001875 0.0014411765
-0.00079999998 0.0001875 2.0588268e-05
-0.002523077 0.00087500003 -0.0017705882
0.0023384616 0.00031249999 -4.1176438e-05
-0.0010461538 -0.0001875 0.0018735294
-0.0031384616 -0.0001875 -0.0038705883
-0.0035076924 -0.00031249999 -4.1176438e-05
0.0040000002 0.00012500001 -0.00016470585
0.00092307694 0.0001875 0.00070000003
-0.0031999999 -0.0001875 0.00076176471
0.00079999998 0 0.0013794118
0.0038769231 0.00081250002 -0.0011529411
0.0036923077 0.00031249999 -0.00010294114
0.00073846156 0.0001875 0.0018117647
-0.0027076923 0.00087500003 -0.0018323528
-0.0033846153 0.00087500003 -0.00041176466
-0.0003076923 0.000375 -0.00028823526
0.00067692308 -0.00075000001 -0.0019558822
-0.0033846153 0.00087500003 -0.0017705882
-0.00098461541 0.0001875 0.0011941177
-0.00079999998 0.00012500001 -0.00245
0.0033846153 0.00043750001 -0.0018941176
0.00086153846 0.0001875 -0.0039941175
-0.0012307692 -6.2500003e-05 0.0016882353
0.0017230769 -0.001 -0.0014
0.00079999998 -6.2500003e-05 -0.0047970586
-0.00036923078 -0.001 -0.00065882347
0.00086153846 0.001 -0.0010294117
0.0010461538 0.0001875 0.0018735294
0.0031999999 0 0.00088529417
0.0012307692 -0.001 -0.00065882347
-0.0012307692 -0.0001875 -0.0029441176
0.0029538462 -0.0001875 0.0016264706
0.0019076923 -0.00075000001 -0.0018323528
0.0017846153 -0.00081250002 -0.0018323528
0.0016615385 0.001 -0.00096764701
-0.00086153846 0.001 -0.00065882347
-0.0028307692 -0.0001875 -0.0025735293
0.00086153846 0.0001875 0.0011941177
-0.0040000002 -6.2500003e-05 -0.0017088235
0.0029538462 -0.0001875 0.00039117649
0.0031384616 -0.00012500001 0.0006382353
0.0010461538 -0.001 -0.0010911764
-0.0028923077 -0.0001875 0.0004529412
0.0019076923 0.0001875 -4.1176438e-05
0.0039384617 -0.000375 -0.0015235294
0.0030153845 0.00081250002 -4.1176438e-05
-0.0036307692 0.00087500003 -0.001585294
0.00079999998 0.00087500003 -4.1176438e-05
0.0038153846 -0.0006875 -0.00096764701
0.0014769231 0.00025000001 -4.1176438e-05
0.00092307694 -0.0001875 -0.0021411765
0.0024615384 -0.00025000001 -0.0018941176
-0.0028923077 -0.0001875 0.00039117649
-0.0024000001 0.001 -0.0012764705
0 0.001 -0.00034999996
0.0014153846 0.00075000001 -0.00010294114
0.00098461541 -0.0001875 0.0016882353
-0.0034461538 -0.00062499999 -0.0018941176
0.0006153846 -0.00093749998 -0.00022647055
-0.0019076923 0.00043750001 -0.0019558822
-0.0034461538 -0.00043750001 -0.00010294114
0.0038153846 0.00087500003 -0.0010294117
-0.0033846153 0.00087500003 -0.00065882347
-0.0020307691 0 -0.0019558822
-0.00092307694 0.001 -0.00090588233
0.0024615384 -0.00081250002 -0.00028823526
-0.0039384617 -0.00062499999 -0.0010911764
-0.00092307694 0.001 -0.0010911764
0.0011076923 -0.00056249998 -0.00016470585
-0.0011692308 0.0001875 0.0013794118
0.0014769231 0.00043750001 -0.0019558822
0.0017230769 0.00012500001 -4.1176438e-05
0.0031999999 -0.0001875 -0.0019558822
0.0026461538 0.00056249998 -0.00028823526
-0.0039384617 0.00062499999 -0.0012764705
0.002276923 0.001 -0.00096764701
0.0020923077 -0.001 -0.0016470588
-0.0028307692 -0.0001875 -0.0044264705
0.0011692308 -0.00056249998 -0.0019558822
-0.00098461541 0.0001875 -0.0030676469
-0.00012307693 -0.000375 -4.1176438e-05
-0.0034461538 -0.00031249999 -0.0018941176
0 -0.001 -0.0007205882
-0.0039384617 -0.00056249998 -0.00053529406
-0.0011692308 -0.0001875 0.0004529412
-0.0022153845 0.001 -0.0012147059
0.0024000001 -0.00025000001 -4.1176438e-05
0.0012307692 -0.00012500001 -0.0040558823
0.0010461538 -0.0001875 0.0004529412
0.0031999999 0.00043750001 -0.0018941176
0.0019692308 -0.001 -0.00090588233
-0.0029538462 -0.0001875 -0.0046117646
-0.0011692308 0.0001875 0.001132353
-0.0038153846 -0.00087500003 -0.00034999996
-0.0028923077 -0.0001875 0.00088529417
-0.00098461541 -0.00043750001 -0.00010294114
-0.002276923 0.00031249999 -0.0019558822
-0.0025846155 0.00031249999 -0.00022647055
-0.0014769231 -0.001 -0.0011529411
0.0011692308 0.0001875 0.00032941179
0.0031999999 0.00043750001 -0.00028823526
-0.0028923077 -0.001 -0.0010911764
0.00036923078 0.001 -0.00078235287
-0.00086153846 -0.0001875 0.0021823531
0.00043076923 0.00025000001 -4.1176438e-05
-0.003753846 -0.00050000002 -0.0018941176
6.1538463e-05 0.00093749998 -0.0018323528
0.0031999999 6.2500003e-05 -0.0022029411
-0.0039384617 6.2500003e-05 -0.00034999996
-0.0022153845 0.00012500001 -4.1176438e-05
0.0012307692 0.0001875 0.00020588239
-0.00073846156 -0.00012500001 -0.0025117646
0 -0.001 -0.0017705882
-0.00067692308 0.0001875 -0.0019558822
0.0017846153 0.00087500003 -0.0018941176
-0.00086153846 0.000375 -0.0019558822
0.0006153846 0.00043750001 -0.0019558822
0.0010461538 0.0006875 -0.00016470585
-0.003753846 -0.00062499999 -0.0018941176
0.00086153846 0.001 -0.00022647055
-0.0039384617 -0.00062499999 -0.0007205882
0.0024000001 0.001 -0.0014617647
-0.0003076923 0.00056249998 -0.0019558822
-0.0027692309 -0.00012500001 -0.0033764704
-0.0014769231 -0.001 -0.0005970588
-0.0012307692 6.2500003e-05 0.0017500001
0.0022153845 -0.001 -0.0005970588
-0.0035692307 0.00043750001 -0.00028823526
0.0018461539 -0.00062499999 -0.0018941176
-0.0017230769 -0.001 -0.0018941176
-0.00086153846 -0.0001875 0.0022441177
-0.0038769231 -0.00075000001 -0.0010294117
0.0028923077 0.0001875 0.0018117647
-0.0026461538 0.0006875 -0.0018323528
-0.00018461539 0.001 -0.0011529411
0.0036923077 -0.00075000001 -0.00047352936
-0.0033846153 0.00087500003 -0.0015235294
-0.0039384617 -0.00056249998 -0.00096764701
0.00073846156 0.00012500001 -0.0023882352
0.00086153846 -0.0001875 0.0004529412
0.0017846153 -0.001 -0.00078235287
0.0031999999 0.0001875 -0.0021411765
-0.0012307692 -0.00012500001 -0.003685294
0.0039384617 0.0006875 -0.0005970588
0.0040000002 0.0001875 -0.0014617647
-0.0010461538 0.0001875 -0.0050441176
0.0029538462 -0.0001875 0.0015647059
0.0013538462 -0.001 -0.0011529411
0.0031384616 -0.00012500001 0.00070000003
-0.0012923077 0.001 -0.0014
-0.0018461539 -0.00043750001 -4.1176438e-05
-0.0017230769 0.001 -0.0016470588
0.0031999999 -0.00025000001 -0.0019558822
-0.0016615385 0.00062499999 -0.00022647055
0.0031999999 0 -0.0047352938
-0.00079999998 0.00012500001 0.0021205882
0.00073846156 -0.00093749998 -0.00010294114
-0.0014153846 0.00075000001 -0.00010294114
0.00024615385 0.001 -0.00034999996
0.0012307692 0 0.00020588239
-0.0017846153 0.0006875 -0.00016470585
-0.0011076923 -0.001 -0.00047352936
-0.00086153846 0.00056249998 -0.0019558822
0.0035692307 0.00031249999 -0.00010294114
-0.00079999998 0.00025000001 -4.1176438e-05
0.0016 -0.001 -0.00065882347
-0.00049230771 -6.2500003e-05 -0.0019558822
-0.0027076923 0.0001875 -4.1176438e-05
0.00073846156 0.00012500001 -0.0041176472
-0.0032615385 0.00062499999 -0.00022647055
0.00079999998 0.00025000001 -0.0020794116
0.00024615385 0.00025000001 -4.1176438e-05
0.0011076923 -0.0001875 -0.0026970587
-0.0016615385 0.00075000001 -4.1176438e-05
0.00073846156 -0.000375 -0.0019558822
0.0015384615 -0.0006875 -4.1176438e-05
-0.0011692308 0.00087500003 -0.00016470585
0.00024615385 -0.001 -0.00041176466
0.0012307692 -6.2500003e-05 -0.0043647056
0.0029538462 -0.00093749998 -0.0018323528
0.0012307692 -0.00043750001 -0.00010294114
0.0012923077 0.001 -0.0007205882
0.0010461538 -0.001 -0.0017705882
-0.0011076923 0.001 -0.0012147059
0.00086153846 -0.00043750001 -4.1176438e-05
0.0028307692 -6.2500003e-05 0.0016264706
0.0017846153 -0.00012500001 -4.1176438e-05
6.1538463e-05 -0.0001875 -0.0019558822
0.0032615385 -0.00093749998 -0.00034999996
0.0023384616 -0.001 -0.0005970588
0.0006153846 -0.00087500003 -4.1176438e-05
0.0032615385 0.001 -0.0015235294
-0.0039384617 0.000375 -0.0017088235
0.0011076923 0.001 -0.001585294
-0.0038769231 0.00075000001 -0.0016470588
0 6.2500003e-05 -4.1176438e-05
0.002523077 -0.00050000002 -0.0018941176
-0.0030769231 0.0001875 -0.0047352938
0.0016 0.00075000001 -0.00010294114
0.0011076923 0.00081250002 -0.0019558822
0.003753846 0.00031249999 -0.0018941176
0.0020923077 0.001 -0.00010294114
0.0026461538 -0.001 -0.0010294117
-0.0035692307 -0.001 -0.0010294117
0.0012307692 0.0001875 -0.0037470588
0.0029538462 -0.001 -0.0016470588
0.0031384616 0.0001875 -0.0030058823
-0.0032615385 0.0006875 -0.0017705882
-0.0014769231 0.001 -0.0015235294
-0.0028923077 -0.001 -0.0007205882
0.0024615384 -0.00075000001 -0.00028823526
0.0029538462 -0.0001875 0.0017500001
-0.0039384617 0.00050000002 -0.0012147059
0.0035076924 -0.00093749998 -0.0017705882
-0.0014153846 0.001 -0.0014
-0.0025846155 -0.0006875 -0.0018941176
0.0029538462 0.0001875 0.00057647063
0.0027076923 0.00031249999 -0.0018941176
-0.0038769231 -0.00081250002 -0.0018323528
0.00012307693 -6.2500003e-05 -4.1176438e-05
0.0027692309 6.2500003e-05 0.00014411767
0.0011692308 0.00087500003 -0.0018941176
-0.0017230769 -0.001 -0.0014617647
-0.0017846153 -0.0001875 -0.0019558822
-0.0030769231 0.0001875 0.00020588239
0.0011076923 -0.0001875 0.001132353
-0.0028307692 -0.0001875 -0.0031911763
6.1538463e-05 0.001 -0.001585294
-0.0031999999 -0.0001875 0.0013794118
0.0031999999 0.0001875 0.00014411767
0.00079999998 0.0001875 0.0022441177
-0.00043076923 -0.00025000001 -0.0019558822
0.0028307692 -6.2500003e-05 -0.0022647057
-0.0012307692 0.00012500001 0.00032941179
-0.0017230769 -0.001 -0.00090588233
-0.0012307692 0.00031249999 -4.1176438e-05
0.0019692308 6.2500003e-05 -0.0018941176
-0.0024615384 -0.001 -0.0018941176
-0.0014153846 -0.00093749998 -0.00016470585
-0.00073846156 -6.2500003e-05 -0.0036235293
-0.0039384617 -0.00043750001 -0.0007205882
0.0038769231 0.00043750001 -0.00028823526
-0.00098461541 -0.0001875 0.00082352944
0.0039384617 -0.00043750001 -0.0016470588
-0.0024615384 -0.00012500001 -0.0019558822
0.0026461538 -0.00087500003 -0.0018323528
0.0012307692 -0.00012500001 0.00070000003
-0.00073846156 -0.001 -0.0012147059
-0.0030153845 -0.0001875 0.0010088235
-0.0016 0.001 -0.00053529406
0.0013538462 -0.00075000001 -4.1176438e-05
-0.0016615385 -0.000375 -0.0019558822
0.0028923077 -6.2500003e-05 -0.0048588235
-0.00079999998 -0.0001875 -0.0039323526
0.00092307694 -0.0001875 -0.0034382353
0.00073846156 -0.001 -0.0007205882
-0.0032615385 0.0006875 -0.00016470585
0.0029538462 -0.0001875 -0.0038705883
-0.0028307692 0.00087500003 -0.0007205882
-0.0021538462 -0.00025000001 -4.1176438e-05
0.00092307694 0.0001875 -0.0048588235
0.0014769231 0.001 -0.0013382352
0.0015384615 -0.00093749998 -0.00028823526
0.0025846155 0.00043750001 -0.00028823526
0.002523077 -0.001 -0.00065882347
0.0040000002 -0.00012500001 -0.0016470588
0.0040000002 -0.0001875 -0.0017088235
-0.0006153846 0.00062499999 -0.00016470585
-0.0030769231 -0.0001875 -0.0031294117
-0.0011076923 0.001 -0.0014
-6.1538463e-05 0.00093749998 -4.1176438e-05
0.00073846156 -0.0001875 -0.0019558822
-0.0029538462 0.00062499999 -0.0017705882
-0.0027692309 -6.2500003e-05 -0.003685294
0.0003076923 -0.000375 -0.0019558822
-0.0011076923 0.0001875 -0.0043647056
-0.00073846156 -6.2500003e-05 0.0018735294
0.0038769231 6.2500003e-05 -0.0018941176
0.0012307692 0.0001875 -0.0021411765
-0.0039384617 -0.00043750001 -0.00041176466
-0.0021538462 0.001 -0.00028823526
-0.00086153846 6.2500003e-05 0.0023676471
-0.00079999998 -0.0001875 8.235297e-05
0.0010461538 0.00087500003 -0.0018941176
0.0012307692 -0.001 -0.0007205882
-0.00098461541 0.00062499999 -0.00016470585
-0.0030769231 -0.00012500001 -0.0052294116
0.0032615385 0.00050000002 -0.0018941176
-0.0013538462 0.00050000002 -0.00028823526
0.002276923 -0.00056249998 -0.0018941176
0.00079999998 -0.00012500001 -0.0034382353
0.0038769231 -0.00062499999 -0.00090588233
-0.0015384615 0.001 -0.00065882347
0.00086153846 -0.0001875 0.00014411767
0.0032615385 0.00081250002 -4.1176438e-05
-0.0019076923 0.00050000002 -0.0018941176
0.0017846153 -0.001 -0.00041176466
0.0012307692 0.0001875 0.0004529412
-0.0012307692 0 -0.0020794116
-0.00086153846 -0.00075000001 -0.0019558822
0.0028307692 -6.2500003e-05 -0.0044882353
-0.0030769231 -0.0001875 -0.00245
-0.0012307692 -0.0001875 -0.0027588236
0.0012307692 6.2500003e-05 -0.0040558823
-0.0038153846 -0.00012500001 -4.1176438e-05
0.00079999998 0.0001875 0.0010088235
-0.0027692309 0 -0.0022029411
0.003753846 0.00093749998 -0.001585294
-0.0038153846 0.00025000001 -0.0018941176
0.0016615385 0.001 -0.0012764705
0.00086153846 -0.0001875 -0.0044264705
0.00079999998 0 0.0010705882
0.00073846156 0 8.235297e-05
0.00067692308 -0.0006875 -0.0019558822
-0.0031999999 0 -0.0046117646
0.0031999999 6.2500003e-05 -0.0036235293
-0.0027076923 0.00012500001 -4.1176438e-05
-0.00079999998 -0.00075000001 -4.1176438e-05
-0.0014769231 -0.00043750001 -4.1176438e-05
0.0016 0.00087500003 -4.1176438e-05
0.0028923077 0.0001875 2.0588268e-05
0.0031999999 -6.2500003e-05 0.0011941177
-0.0028923077 -0.001 -0.00028823526
-0.0012307692 0.001 -0.0005970588
-0.0027692309 -6.2500003e-05 -0.0038705883
0.0011692308 0.0001875 0.0022441177
-0.0036307692 0.00087500003 -0.00078235287
0.0036923077 0.00093749998 -0.0015235294
0.0039384617 0.00025000001 -0.0013382352
-0.0015384615 0.001 -0.00041176466
-0.0031384616 6.2500003e-05 -0.0028205882
0.0016615385 -0.001 -0.0017088235
-0.00098461541 -0.00031249999 -0.0020794116
0.0003076923 -6.2500003e-05 -0.0019558822
0.00092307694 -0.0001875 -0.0025117646
0.0011692308 0.00050000002 -0.00028823526
0.0019076923 -0.00087500003 -0.00028823526
0.00079999998 -0.00012500001 -0.0034999999
0.0011692308 -0.0001875 2.0588268e-05
0.0014769231 -0.001 -0.0018323528
0.002523077 -0.001 -0.00096764701
-0.0029538462 -0.0001875 -0.0047970586
0.0028307692 -0.001 -0.00096764701
0.0026461538 0.00031249999 -4.1176438e-05
0.0015384615 0.00043750001 -0.0019558822
0.0020923077 0.001 -0.0014617647
-0.0012307692 -0.0001875 0.0015029412
-0.0017230769 -0.000375 -0.0019558822
0.0012923077 0 -0.0019558822
0.0030153845 -0.00012500001 -0.0037470588
-0.003753846 0.00025000001 -4.1176438e-05
-0.0026461538 0 -4.1176438e-05
-0.0031999999 -0.0001875 -0.0025117646
0.0012307692 6.2500003e-05 -0.0023882352
0.0028307692 0 0.0018735294
-0.0031384616 0.0001875 2.0588268e-05
0.0038769231 0.00031249999 -0.00016470585
0.0028307692 0.00012500001 -0.0023264706
0.0031999999 6.2500003e-05 0.0014411765
0.00098461541 0.00031249999 -4.1176438e-05
-0.0012307692 -0.001 -0.0005970588
0.0028307692 0.0001875 0.0014411765
0.00086153846 -0.0001875 -0.0026352941
-0.0039384617 0.00025000001 -0.0018323528
-0.0039384617 -0.00012500001 -0.00022647055
-0.00079999998 0.00012500001 -0.0036235293
-0.0030769231 -0.0001875 -0.0032529412
0 0.0006875 -0.00016470585
-0.0034461538 -0.00075000001 -0.0018941176
-0.0011692308 -0.0001875 0.0015647059
0.0029538462 0 -0.0051058824
0 0.00087500003 -0.0019558822
0.0012923077 -0.001 -0.0013382352
-0.0022153845 0.001 -0.0017088235
-0.0003076923 0.00050000002 -0.00028823526
0.00079999998 -0.00012500001 -0.0040558823
0.0033846153 -0.00093749998 -0.00065882347
-0.00012307693 0.0001875 -0.0019558822
-0.0038769231 -0.00081250002 -0.00041176466
-0.00079999998 -0.001 -0.00034999996
-0.0027692309 0 8.235297e-05
0.0033846153 0.001 -0.0014
-0.0020307691 0.001 -0.0012147059
0.0020923077 0.001 -0.0013382352
-0.00079999998 0.001 -0.00041176466
-0.0012307692 -0.001 -0.0012147059
0.0012307692 0.00012500001 0.00014411767
-0.0034461538 -0.00093749998 -0.00016470585
-0.00036923078 0.001 -0.00090588233
-0.0028307692 0.0001875 -0.0047970586
-0.0017846153 -0.00043750001 -0.0019558822
-0.0022153845 -0.001 -0.0005970588
0.0028307692 6.2500003e-05 0.0016882353
-0.0017846153 0.00025000001 -4.1176438e-05
-0.0038153846 -0.00087500003 -0.0017705882
-0.0039384617 0.0001875 -0.0010294117
-0.0013538462 -0.001 -0.0014
-0.0023384616 -0.001 -0.0017705882
-0.0029538462 0.00087500003 -0.00096764701
-0.00018461539 0.001 -0.00041176466
-0.0017846153 -0.000375 -4.1176438e-05
