# .PCD v0.7 - Point Cloud Data file format
VERSION 0.7
FIELDS x y z
SIZE 4 4 4
TYPE F F F
COUNT 1 1 1
WIDTH 1358
HEIGHT 1
VIEWPOINT 0 0 0 1 0 0 0
POINTS 1358
DATA ascii
0.021692913 0 -0.0018666666
-0.015755905 -0.001 -0.00046666662
0.02192126 0 0.0020999999
0.0015984252 -0.00075000001 -0.0002333333
0.010047244 -0.001 -0.00046666662
-0.013244094 -0.001 -0.0016333333
-0.023976378 0 0.0018666667
-0.01803937 0 0.0014000001
-0.018267717 -0.001 -0.00046666662
0.0038818899 0.001 -0.0009333333
-0.01096063 0.00050000002 -0.0002333333
-0.0082204724 0.001 -0.0018666666
-0.025346456 -0.00025000001 -0.0018666666
-0.0066220472 0.001 -0.00046666662
-0.028543307 -0.001 -0.0009333333
-0.014157481 -0.00075000001 -0.0002333333
-0.0013700788 0 -0.0018666666
0.0041102362 -0.001 -0.0002333333
-0.015299212 -0.001 -0.00046666662
-0.02192126 0.00025000001 -0.0027999999
-0.0041102362 -0.00025000001 -0.0023333333
-0.017125985 0.001 -0.0002333333
0.0041102362 -0.00075000001 -0.0018666666
-0.01803937 0 -0.0032666666
0.023291338 0 -0.0018666666
0.019637795 -0.00025000001 -0.0002333333
0.0059370077 0.00025000001 -0.0051333332
-0.0038818899 -0.001 -0.0002333333
0.017811023 -0.00025000001 -0.0018666666
0.023291338 0.00025000001 -0.0002333333
0.0073070866 0.00050000002 -0.0018666666
0.022377953 -0.001 -0.0002333333
0.013929134 0.001 -0.0014
0.012330709 -0.001 -0.0011666666
0.0093622049 -0.001 -0.0014
-0.019181103 0 -0.0018666666
-0.0073070866 0 -0.0002333333
0.007992126 -0.00025000001 -0.0034999999
0.00068503938 -0.00075000001 -0.0018666666
0.0041102362 0.00025000001 -0.0020999999
-0.0027401575 0.00050000002 -0.0018666666
0.0082204724 0.001 -0.0016333333
-0.028771654 0.00050000002 -0.0014
-0.025346456 0.00025000001 -0.0018666666
0.025346456 0.001 -0.00069999998
-0.010047244 0 -0.0037333332
-0.028086614 0 -0.0037333332
-0.00022834646 0.001 -0.0011666666
-0.024204724 0.001 -0.0009333333
0.01484252 0.00025000001 -0.0018666666
-0.017125985 -0.00075000001 -0.0002333333
-0.0052519683 0.001 -0.0009333333
-0.026259843 -0.00050000002 -0.0018666666
0.0077637797 0.00025000001 -0.0018666666
-0.0063937008 0.00075000001 -0.0018666666
0 0.00025000001 0.0014000001
0.0029685039 0.00025000001 -0.0002333333
-0.02123622 -0.00050000002 -0.0002333333
-0.023748031 0.00050000002 -0.0018666666
0.00022834646 0 -0.0051333332
0.016440945 -0.001 -0.0018666666
-0.025574803 -0.00025000001 -0.0018666666
0.015299212 0.001 -0.0018666666
0.011874015 0.001 -0.0009333333
-0.0057086614 0.001 -0.0002333333
-0.013929134 0 -0.0039666668
0.0077637797 -0.001 -0.00069999998
0.017811023 0 -0.0041999999
-0.024204724 0 -0.0030333332
0.022606298 0.001 -0.0009333333
0.0018267717 0 -0.0041999999
0.020094488 0.00025000001 -0.0044333334
0.013700787 -0.001 -0.0014
-0.022149606 0.00025000001 0.00023333337
-0.02192126 0.00025000001 0.0016333334
0.020094488 -0.00025000001 -0.0049000001
0.015984252 0.00025000001 0.0011666667
0.011417323 0.00050000002 -0.0018666666
-0.0082204724 -0.001 -0.0018666666
0.023976378 -0.001 -0.0016333333
0.024204724 -0.001 -0.00069999998
-0.023291338 -0.00025000001 -0.0018666666
-0.0034251967 0.00075000001 -0.0002333333
0.027401574 0 -0.0018666666
0.012102362 -0.00025000001 0.0020999999
-0.017811023 0 -0.0037333332
-0.011188976 0.00075000001 -0.0002333333
0.023062993 -0.001 -0.0018666666
0.019637795 0.001 -0.0011666666
0.026488189 0.00050000002 -0.0002333333
0.017811023 0 0.0018666667
0.023062993 0 -0.0002333333
-0.024204724 0 -0.0049000001
0.027858268 0.001 -0.0011666666
0.028314961 0.001 -0.0018666666
-0.01484252 -0.00050000002 -0.0018666666
0.018267717 -0.001 -0.0002333333
0.014614173 0.001 -0.00069999998
-0.014157481 -0.00025000001 -0.0020999999
-0.0057086614 0.00025000001 -0.0018666666
0.0018267717 0 0.0011666667
0.020322835 -0.00050000002 -0.0018666666
0.0061653545 -0.00025000001 -0.0020999999
0.022377953 -0.001 -0.0018666666
0.025346456 0 -0.0002333333
0.028086614 0.00075000001 -0.0018666666
0.0089055113 0.001 -0.0002333333
0.013929134 -0.00025000001 0.00023333337
-0.026716536 -0.001 -0.0002333333
-0.0066220472 0.001 -0.00069999998
0.0020551181 0 -0.0030333332
-0.0036535433 -0.001 -0.0016333333
-0.022149606 0.001 -0.0009333333
-0.020094488 0 0.00046666671
-0.0098188976 0 -0.0037333332
0.02192126 -0.00025000001 0.0020999999
0.01096063 0.001 -0.0002333333
-0.00022834646 0.00025000001 0.00023333337
-0.023976378 -0.00025000001 -0.0018666666
0.010047244 0.00075000001 -0.0018666666
0.0089055113 0.001 -0.0014
0.026031496 -0.00025000001 0.0016333334
0.00022834646 -0.001 -0.00069999998
0.007992126 0.00025000001 -0.0034999999
-0.022149606 0 -0.0027999999
0.0029685039 -0.001 -0.0016333333
-0.017811023 0.00025000001 -0.0018666666
-0.0068503935 0.001 -0.0016333333
0.013929134 0 0.00093333336
-0.0034251967 0.00025000001 -0.0018666666
0.0075354329 -0.001 -0.0002333333
0.0061653545 0 0.0018666667
-0.021692913 -0.00050000002 -0.0002333333
-0.0020551181 -0.00025000001 -0.0025666666
-0.0093622049 -0.001 -0.00069999998
-0.0047952756 0.001 -0.00069999998
-0.023748031 0.001 -0.0014
-0.012330709 0.001 -0.00046666662
0.016440945 0.001 -0.0002333333
-0.024204724 0 -0.0046666665
-0.011188976 -0.001 -0.0018666666
0.020779528 -0.001 -0.0011666666
0.013015748 0 -0.0018666666
0.020094488 0 0.0018666667
-0.01872441 -0.001 -0.0014
0.027858268 0 -0.0027999999
0.012330709 -0.001 -0.0002333333
-0.0020551181 0 -0.0041999999
-0.026031496 0.001 -0.0016333333
-0.015755905 -0.001 -0.0016333333
0.021007873 -0.00050000002 -0.0002333333
0.0082204724 0.00050000002 -0.0018666666
-0.01096063 0.001 -0.00046666662
0.013015748 -0.00050000002 -0.0002333333
0.019866142 0 0.0016333334
0.019637795 -0.001 -0.0018666666
-0.01803937 0 0.0018666667
-0.023519685 0.001 -0.00069999998
-0.019866142 0 -0.0023333333
0.020094488 0 0.0023333333
-0.0091338586 0.001 -0.00069999998
0.016897637 0.001 -0.0009333333
0.021692913 -0.00025000001 -0.0018666666
0.0045669293 0.001 -0.00046666662
0.01803937 0.001 -0.0002333333
0.0059370077 -0.00050000002 -0.0002333333
0.019637795 0.00075000001 -0.0018666666
-0.010047244 0.00025000001 -0.0044333334
-0.026716536 -0.00075000001 -0.0018666666
0.0038818899 0 -0.0046666665
0.017811023 0.00025000001 -0.0018666666
-0.016669292 0.00025000001 -0.0002333333
-0.015070866 -0.00050000002 -0.0018666666
-0.023976378 -0.00050000002 -0.0002333333
0.0041102362 0.00025000001 0.0020999999
0.02123622 -0.00025000001 -0.0018666666
-0.010047244 0.00025000001 -0.0032666666
-0.019866142 0.001 -0.0014
0.014385827 -0.001 -0.00069999998
0.013472441 -0.00025000001 -0.0002333333
0.018267717 0.001 -0.0018666666
0.00045669291 0.00050000002 -0.0018666666
0 -0.00025000001 -0.0034999999
0.025346456 0.001 -0.0016333333
0.00022834646 -0.00025000001 -0.0049000001
0.011874015 -0.00075000001 -0.0018666666
-0.024889763 -0.001 -0.00046666662
0.0098188976 0.001 -0.0009333333
-0.017811023 0.001 -0.0016333333
0.025803149 0 0.0018666667
-0.0020551181 -0.00025000001 -0.0023333333
0.0038818899 0.00025000001 3.3333333e-11
0.022149606 0.001 -0.00069999998
-0.0063937008 0.001 -0.0002333333
0.0098188976 -0.001 -0.00069999998
-0.0054803151 -0.00050000002 -0.0018666666
0.0084488187 -0.00075000001 -0.0018666666
-0.026031496 -0.00025000001 -0.0034999999
0 0.00075000001 -0.0018666666
-0.010503937 -0.001 -0.0011666666
-0.01803937 0.00025000001 -0.0030333332
-0.011417323 -0.001 -0.0014
0.0018267717 0.001 -0.0014
-0.014385827 0.001 -0.0014
0.02055118 -0.001 -0.00046666662
-0.01484252 -0.00075000001 -0.0002333333
0.00091338583 -0.001 -0.0016333333
-0.021464568 0.001 -0.0014
-0.0082204724 0.001 -0.0009333333
-0.020094488 0.001 -0.0002333333
-0.022834646 -0.001 -0.00046666662
-0.0034251967 0.001 -0.0009333333
0.013929134 0 -0.0046666665
0.025346456 -0.001 -0.0016333333
-0.020094488 -0.00050000002 -0.0018666666
-0.014157481 -0.00025000001 0.0014000001
-0.016897637 -0.001 -0.0009333333
0.028314961 -0.00075000001 -0.0011666666
-0.01484252 0.00075000001 -0.0002333333
0.013472441 0.001 -0.0011666666
0.026031496 0 -0.0032666666
-0.0059370077 0 0.0016333334
-0.012787402 -0.001 -0.0016333333
-0.017811023 0.00075000001 -0.0002333333
-0.013472441 0 -0.0018666666
-0.028771654 -0.00025000001 -0.0014
0.0054803151 -0.001 -0.0011666666
-0.026031496 -0.00025000001 0.00046666671
0.0041102362 -0.00025000001 -0.0018666666
-0.027401574 -0.001 -0.0011666666
0.012102362 0 -0.0020999999
0.025574803 -0.001 -0.00069999998
0.018496063 0.00025000001 -0.0002333333
0.0077637797 -0.00025000001 -0.0018666666
0.024661418 0.001 -0.0002333333
-0.0018267717 0 -0.0020999999
-0.027401574 -0.001 -0.00046666662
0.0059370077 0.00075000001 -0.0018666666
0.014385827 -0.001 -0.0018666666
0.020094488 0.00025000001 -0.0023333333
0.01735433 0.00050000002 -0.0002333333
-0.0075354329 0.00075000001 -0.0018666666
-0.024433071 0.00050000002 -0.0002333333
-0.015070866 -0.001 -0.0018666666
0.016212599 0.00050000002 -0.0018666666
-0.0057086614 0.00025000001 -0.0002333333
0.0015984252 0.00075000001 -0.0002333333
-0.025346456 0.00075000001 -0.0002333333
-0.023291338 -0.00075000001 -0.0018666666
0.007992126 0 0.00070000003
0.013929134 -0.001 -0.00069999998
-0.012787402 -0.00025000001 -0.0002333333
0.007992126 -0.00025000001 0.0023333333
-0.019866142 -0.001 -0.0016333333
0.0098188976 0 3.3333333e-11
-0.005023622 -0.00050000002 -0.0002333333
0.007992126 0 -0.0023333333
0.025803149 0.00025000001 -0.0018666666
-0.024889763 -0.001 -0.0011666666
0.014385827 -0.00050000002 -0.0002333333
0.025574803 -0.00050000002 -0.0018666666
-0.018267717 -0.001 -0.0014
-0.025803149 0 0.00023333337
-0.0041102362 0 -0.0032666666
0.01735433 -0.001 -0.00046666662
0.015527559 -0.00075000001 -0.0018666666
-0.0091338586 -0.001 -0.0009333333
0.028999999 0.00050000002 -0.00046666662
-0.013929134 0 -0.0020999999
-0.0057086614 -0.00050000002 -0.0018666666
-0.013700787 0.001 -0.00069999998
-0.0059370077 0 -0.0032666666
0.023748031 -0.001 -0.0014
0.02192126 0 -0.0046666665
-0.0029685039 -0.001 -0.0016333333
0.007992126 0.00025000001 -0.0046666665
0.0091338586 -0.00075000001 -0.0002333333
-0.0082204724 -0.001 -0.0002333333
0.011874015 0.001 -0.00046666662
0.0052519683 -0.00075000001 -0.0002333333
0.0011417323 -0.001 -0.0009333333
0.0077637797 0.001 -0.0009333333
0.01803937 0 0.00070000003
-0.0098188976 -0.001 -0.0014
-0.017125985 -0.001 -0.0009333333
-0.0070787403 0.001 -0.0018666666
0.028086614 -0.00025000001 -0.0002333333
-0.020094488 0.00025000001 0.0018666667
0.022149606 -0.00025000001 0.00023333337
0.028543307 0.001 -0.0016333333
-0.0045669293 -0.001 -0.0018666666
-0.013244094 0.001 -0.00069999998
-0.028771654 -0.00075000001 -0.0002333333
-0.018952755 -0.001 -0.0009333333
-0.025803149 0.001 -0.0011666666
-0.0034251967 -0.00050000002 -0.0018666666
-0.012102362 0.00025000001 -0.0025666666
-0.023062993 0 -0.0002333333
0.019181103 0.001 -0.0018666666
0.018267717 0 -0.0025666666
-0.010503937 -0.00050000002 -0.0018666666
-0.024204724 0 0.00070000003
-0.010503937 0.00075000001 -0.0002333333
-0.025574803 0.001 -0.00069999998
0.0034251967 0.001 -0.00069999998
-0.018496063 -0.001 -0.0011666666
-0.01735433 -0.00025000001 -0.0002333333
-0.011188976 0.001 -0.0014
-0.023976378 -0.001 -0.0009333333
0.025803149 0.001 -0.0002333333
0.022149606 0 -0.0034999999
0.020779528 -0.001 -0.0016333333
0.018496063 -0.001 -0.00046666662
-0.0052519683 0.001 -0.00046666662
0.026031496 0 0.0016333334
-0.014157481 0.001 -0.0011666666
-0.012330709 0.00075000001 -0.0002333333
-0.027173229 0.00075000001 -0.0002333333
-0.0066220472 0.001 -0.0014
-0.0029685039 -0.001 -0.0009333333
0.023519685 0.001 -0.0011666666
-0.015984252 -0.00025000001 -0.0023333333
-0.013700787 0.001 -0.0018666666
0.016212599 -0.001 -0.00069999998
-0.012330709 0.001 -0.0011666666
0.025118111 -0.00050000002 -0.0018666666
-0.013929134 0.00025000001 -0.0046666665
0.020094488 -0.00025000001 -0.0044333334
0.024433071 -0.001 -0.00069999998
-0.0020551181 0.00075000001 -0.0018666666
-0.012787402 0.00050000002 -0.0002333333
-0.026259843 0.00025000001 -0.0018666666
0.0070787403 -0.001 -0.0011666666
0.017582677 -0.00075000001 -0.0018666666
-0.024889763 -0.00075000001 -0.0018666666
-0.025118111 0 -0.0002333333
-0.028086614 0 0.0020999999
0.022149606 0 3.3333333e-11
0.01803937 0.00025000001 0.0020999999
0.018952755 0 -0.0002333333
-0.0084488187 -0.001 -0.0011666666
-0.010047244 0 -0.0049000001
-0.017811023 0.001 -0.0009333333
-0.026031496 -0.00025000001 0.00070000003
-0.014614173 -0.001 -0.0014
0.023976378 0 0.00046666671
-0.016212599 -0.001 -0.00069999998
-0.010732284 -0.00075000001 -0.0018666666
-0.0036535433 -0.00025000001 -0.0002333333
-0.0057086614 -0.001 -0.00069999998
-0.02055118 -0.001 -0.0011666666
-0.015527559 0.001 -0.00046666662
0.026031496 0.001 -0.0016333333
0.024204724 0 0.0016333334
0.0068503935 -0.001 -0.0011666666
0.015984252 -0.001 -0.00046666662
0.0027401575 0.001 -0.0016333333
-0.013472441 0.00025000001 -0.0018666666
0.01872441 0.00075000001 -0.0018666666
-0.022377953 -0.00025000001 -0.0018666666
-0.015299212 -0.001 -0.0014
-0.024204724 -0.00075000001 -0.0018666666
-0.022834646 0.001 -0.0009333333
0.0041102362 0.00025000001 0.00046666671
0.0015984252 -0.001 -0.00046666662
0.0077637797 0.001 -0.0018666666
0.01735433 0 -0.0002333333
0.027858268 0.001 -0.0002333333
0.0091338586 0 -0.0002333333
-0.0061653545 0 -0.0027999999
-0.0013700788 0.001 -0.0014
0.020322835 -0.001 -0.0002333333
-0.00068503938 0.001 -0.00046666662
0 0.00025000001 -0.0049000001
-0.013015748 0.001 -0.00046666662
0.027173229 -0.00050000002 -0.0002333333
0.018267717 0.001 -0.0011666666
0.025574803 0.001 -0.00046666662
0.0075354329 -0.001 -0.0018666666
0.028086614 0 -0.0046666665
-0.02123622 0.001 -0.0014
-0.013700787 0.00075000001 -0.0018666666
0.02192126 0 0.00093333336
0.013700787 -0.00075000001 -0.0002333333
0.012102362 -0.00025000001 0.0018666667
-0.023976378 0 0.00023333337
-0.0020551181 -0.001 -0.0009333333
0.02123622 0.00075000001 -0.0018666666
-0.00022834646 -0.001 -0.00069999998
0.015984252 0.00025000001 0.0014000001
0.0095905513 -0.00075000001 -0.0018666666
-0.0045669293 -0.00075000001 -0.0018666666
-0.019866142 -0.00075000001 -0.0018666666
0.0041102362 0 0.0014000001
-0.0027401575 0.001 -0.0018666666
0.00022834646 0 0.0020999999
0.0061653545 0 0.0011666667
-0.019637795 -0.00050000002 -0.0002333333
0.018952755 -0.00025000001 -0.0002333333
-0.0073070866 -0.00075000001 -0.0018666666
0.015070866 -0.001 -0.0018666666
-0.016897637 -0.00050000002 -0.0002333333
0.002511811 0.00050000002 -0.0018666666
-0.013929134 0.00025000001 -0.0025666666
0.015070866 -0.001 -0.0016333333
0.012559055 -0.00075000001 -0.0002333333
-0.017582677 0.00075000001 -0.0002333333
0.010503937 -0.001 -0.0002333333
0.013700787 0.001 -0.0002333333
-0.012330709 0.001 -0.0018666666
0.027401574 0.001 -0.00046666662
0.026031496 0.00025000001 0.0020999999
-0.011874015 -0.001 -0.0016333333
0.0043385825 0.00050000002 -0.0018666666
-0.02192126 -0.001 -0.0014
0.022834646 0.001 -0.0016333333
-0.012102362 0 -0.0030333332
0.021692913 0 -0.0002333333
-0.011874015 0.00025000001 -0.0002333333
0.014157481 -0.00050000002 -0.0018666666
0.0047952756 -0.00075000001 -0.0002333333
0.026488189 -0.001 -0.0009333333
0.022149606 0 -0.0032666666
0.01872441 0.001 -0.0009333333
0.028999999 0.00025000001 -0.0002333333
0.017811023 0 -0.0044333334
0.010047244 0 -0.0046666665
0.027629921 0 -0.0018666666
0.026944881 0.00075000001 -0.0002333333
0.028771654 -0.00075000001 -0.0011666666
0.002511811 -0.00025000001 -0.0018666666
0.014385827 0.001 -0.0002333333
-0.0038818899 -0.00025000001 -0.0025666666
-0.022834646 -0.00050000002 -0.0018666666
0.010503937 -0.00025000001 -0.0018666666
0.0098188976 0 0.0011666667
0.016212599 0.00050000002 -0.0002333333
-0.014614173 0.001 -0.0002333333
-0.022606298 0 -0.0002333333
0.013929134 0 0.0014000001
0.0015984252 0.001 -0.00046666662
0.007992126 0.00025000001 0.0014000001
0.014157481 0.00025000001 0.0020999999
-0.022149606 -0.00025000001 -0.0002333333
-0.020094488 0.001 -0.0018666666
0.018952755 0.001 -0.00046666662
-0.019866142 0 0.00046666671
0.00091338583 0.001 -0.0018666666
-0.01735433 0.001 -0.0002333333
0.013244094 0.00050000002 -0.0002333333
-0.0045669293 0.00050000002 -0.0002333333
0.026031496 -0.00025000001 0.0020999999
0.024204724 0 -0.0034999999
-0.01735433 0.00050000002 -0.0002333333
-0.0020551181 -0.00025000001 3.3333333e-11
-0.0020551181 -0.00025000001 -0.0032666666
-0.0084488187 0.001 -0.0018666666
0.011417323 -0.00075000001 -0.0002333333
-0.01803937 -0.001 -0.0009333333
0.0084488187 0 -0.0018666666
-0.01735433 -0.001 -0.00069999998
0.0015984252 0.00050000002 -0.0018666666
-0.024889763 0.001 -0.00046666662
-0.028771654 -0.00050000002 -0.0018666666
-0.0063937008 0 -0.0018666666
-0.024433071 -0.001 -0.00069999998
0.013472441 0.00050000002 -0.0002333333
0.024889763 0.00075000001 -0.0002333333
-0.02192126 0 -0.0046666665
-0.0047952756 -0.00075000001 -0.0002333333
-0.0054803151 -0.001 -0.0011666666
-0.0020551181 0 -0.0037333332
0.012787402 -0.00050000002 -0.0002333333
-0.01735433 -0.001 -0.0016333333
-0.016212599 0 -0.0020999999
-0.022149606 0 0.0016333334
-0.021007873 -0.001 -0.0018666666
-0.0031968504 -0.00025000001 -0.0002333333
-0.020322835 0.001 -0.00046666662
0.002511811 -0.00075000001 -0.0018666666
-0.018496063 0.00075000001 -0.0002333333
0.024661418 0.001 -0.0018666666
-0.016212599 -0.00075000001 -0.0018666666
0.0057086614 0.001 -0.0002333333
-0.027858268 0.00075000001 -0.0016333333
0.023062993 0 -0.0018666666
-0.027173229 0.00050000002 -0.0018666666
0.0082204724 0.001 -0.00069999998
0.0022834647 0 -0.0002333333
0.00022834646 0 0.00093333336
0.013472441 0.00075000001 -0.0018666666
-0.01803937 0 3.3333333e-11
-0.01803937 0.00025000001 3.3333333e-11
-0.0084488187 -0.001 -0.00046666662
-0.023748031 -0.001 -0.0014
0.026259843 0.001 -0.0018666666
-0.023976378 0.001 -0.0009333333
-0.016897637 0.00050000002 -0.0018666666
-0.012787402 -0.001 -0.00046666662
-0.0052519683 0.00050000002 -0.0018666666
-0.014385827 -0.00075000001 -0.0018666666
-0.015984252 0.00025000001 -0.0037333332
0.024204724 0 0.0020999999
0.025803149 -0.001 -0.0016333333
0.021007873 -0.00075000001 -0.0018666666
0.023976378 0 0.0018666667
0.013472441 0.00025000001 -0.0002333333
0.0018267717 -0.00075000001 -0.0018666666
0.012330709 0.00050000002 -0.0018666666
-0.015984252 -0.001 -0.0018666666
0.023519685 -0.001 -0.0002333333
0.013244094 0.001 -0.0009333333
-0.022834646 -0.00025000001 -0.0002333333
0.017125985 0 -0.0002333333
-0.019866142 0 0.0020999999
0.0059370077 0 0.0014000001
0.00068503938 0.001 -0.00046666662
0.011874015 0.00025000001 -0.0044333334
-0.028086614 0.00050000002 -0.0018666666
-0.0095905513 -0.00075000001 -0.0002333333
-0.016669292 0.00025000001 -0.0018666666
0.015984252 0.001 -0.0002333333
0.0093622049 -0.00050000002 -0.0002333333
-0.010047244 -0.001 -0.0018666666
0.014385827 -0.00025000001 -0.0018666666
0.01027559 -0.001 -0.0014
-0.028771654 0.00075000001 -0.00046666662
0.012330709 0.001 -0.00069999998
-0.024661418 -0.00075000001 -0.0002333333
-0.010503937 0.00075000001 -0.0018666666
0.015527559 0.001 -0.0002333333
-0.01484252 -0.00050000002 -0.0002333333
-0.01484252 0.00075000001 -0.0018666666
-0.018952755 0.001 -0.0018666666
-0.00022834646 -0.00050000002 -0.0002333333
0.002511811 -0.00050000002 -0.0018666666
-0.018952755 0.001 -0.0014
-0.019181103 -0.00050000002 -0.0002333333
-0.015299212 -0.00075000001 -0.0018666666
0.011417323 -0.001 -0.0014
-0.011645669 0.001 -0.0011666666
-0.02192126 0.001 -0.0014
0.0034251967 -0.00050000002 -0.0018666666
0.013929134 -0.00025000001 -0.0027999999
-0.0034251967 0.00050000002 -0.0002333333
0.021464568 -0.001 -0.0018666666
0.011188976 0 -0.0002333333
-0.012102362 0.001 -0.0011666666
0.002511811 0.001 -0.0009333333
-0.015984252 -0.00025000001 0.00023333337
0.01484252 -0.001 -0.00046666662
0.007992126 0.00075000001 -0.0018666666
-0.021692913 -0.001 -0.0016333333
-0.027401574 -0.001 -0.0009333333
0.018267717 0 0.0016333334
0.0061653545 0 -0.0039666668
-0.0027401575 -0.001 -0.0002333333
-0.017125985 0 -0.0018666666
-0.0011417323 -0.00050000002 -0.0002333333
0.028543307 0.001 -0.0009333333
0.02192126 0.001 -0.0011666666
0.012102362 0.00025000001 0.00093333336
0.026944881 -0.00050000002 -0.0018666666
-0.015755905 0.001 -0.0009333333
-0.024661418 -0.001 -0.0002333333
-0.01096063 0.001 -0.0011666666
0.0011417323 0.001 -0.0002333333
-0.007992126 0 -0.0020999999
-0.013015748 -0.00050000002 -0.0002333333
0.018952755 0.00025000001 -0.0002333333
0.024889763 -0.00050000002 -0.0018666666
0.01027559 0 -0.0025666666
-0.024661418 0.001 -0.00046666662
0.023291338 -0.001 -0.0002333333
0.014614173 0 -0.0002333333
-0.022149606 0 0.0014000001
-0.023976378 -0.00025000001 0.0018666667
-0.027629921 0.00075000001 -0.00046666662
0.022149606 -0.001 -0.00046666662
-0.0061653545 0 -0.0032666666
-0.0027401575 -0.00075000001 -0.0018666666
0.00091338583 0.001 -0.0016333333
0.016440945 0.00075000001 -0.0002333333
0.024204724 0 -0.0044333334
0.0013700788 0.00075000001 -0.0018666666
0.01096063 -0.001 -0.0016333333
-0.019866142 -0.00025000001 3.3333333e-11
-0.020094488 0 -0.0032666666
-0.020094488 -0.00075000001 -0.0018666666
0.015070866 -0.001 -0.00046666662
0.025346456 -0.00050000002 -0.0002333333
0.014157481 0 0.00023333337
-0.024661418 0.001 -0.0016333333
0.021692913 0.001 -0.0014
0.0041102362 0.00025000001 -0.0044333334
-0.024661418 0.00025000001 -0.0018666666
0.010732284 0.00075000001 -0.0018666666
0.0045669293 0.00050000002 -0.0018666666
-0.0018267717 -0.00075000001 -0.0002333333
0.016669292 0.00025000001 -0.0002333333
0.02055118 0.001 -0.0014
-0.019181103 0.001 -0.0009333333
0.0059370077 0 -0.0049000001
0.02192126 -0.00050000002 -0.0002333333
-0.0020551181 0 0.0023333333
0.005023622 0.00050000002 -0.0018666666
-0.022149606 0.00025000001 0.0014000001
-0.013929134 0.00025000001 0.0014000001
-0.019866142 0.00025000001 -0.0023333333
-0.028086614 0 0.00070000003
0.028086614 0 0.0020999999
-0.023291338 0.00050000002 -0.0018666666
0.019637795 -0.001 -0.0009333333
-0.026716536 0.00075000001 -0.0018666666
-0.0089055113 0 -0.0002333333
-0.0059370077 0.00025000001 -0.0037333332
-0.0073070866 -0.00075000001 -0.0002333333
-0.011188976 -0.001 -0.0014
0.018267717 0 3.3333333e-11
-0.0061653545 0 0.00046666671
0.013929134 0 -0.0051333332
-0.011417323 0.00050000002 -0.0018666666
0.013929134 0.00025000001 0.0016333334
-0.002511811 0.001 -0.00046666662
-0.017811023 0 -0.0027999999
0.0027401575 -0.001 -0.0011666666
0.020322835 0.001 -0.0014
-0.019866142 0 -0.0032666666
-0.0084488187 0.001 -0.00069999998
-0.00045669291 -0.00075000001 -0.0018666666
-0.0041102362 -0.00050000002 -0.0018666666
0.0068503935 0.00025000001 -0.0018666666
-0.013244094 0.001 -0.00046666662
-0.0061653545 0.001 -0.00069999998
0.011874015 0 -0.0030333332
0.02192126 0.001 -0.0002333333
-0.01027559 -0.001 -0.0002333333
0.0036535433 0.00075000001 -0.0018666666
-0.002511811 -0.00025000001 -0.0002333333
0.026031496 0.00025000001 -0.0023333333
0.018267717 0 0.0018666667
-0.007992126 0.00050000002 -0.0002333333
-0.0093622049 0.001 -0.00069999998
-0.012330709 -0.001 -0.0014
0.028086614 0 -0.0027999999
0.024204724 0 0.0014000001
-0.019866142 0 0.00070000003
-0.026031496 -0.001 -0.0009333333
-0.024661418 0 -0.0018666666
0.0091338586 -0.001 -0.0018666666
-0.0052519683 -0.001 -0.0016333333
0.0036535433 -0.001 -0.0011666666
0.019866142 0 -0.0051333332
0.007992126 0 -0.0044333334
-0.0011417323 0.00075000001 -0.0002333333
-0.015070866 -0.00025000001 -0.0018666666
0.019181103 0.00050000002 -0.0018666666
0.019409448 -0.001 -0.00069999998
-0.022377953 0.001 -0.0014
0.0018267717 0.00025000001 0.00023333337
-0.0054803151 -0.001 -0.00046666662
0.0093622049 0.00025000001 -0.0018666666
0.007992126 0.00025000001 -0.0032666666
0.02055118 0 -0.0002333333
-0.015984252 0.00025000001 0.00093333336
0.023062993 0.001 -0.00069999998
-0.00045669291 -0.001 -0.0018666666
0.0020551181 0.001 -0.0018666666
-0.013244094 0.001 -0.0014
-0.018496063 0.001 -0.00069999998
-0.013929134 0 -0.0034999999
-0.005023622 -0.00050000002 -0.0018666666
0.025346456 0.00025000001 -0.0002333333
-0.01096063 -0.00025000001 -0.0002333333
0.02055118 0.001 -0.0016333333
-0.01027559 0.001 -0.00046666662
0.02192126 -0.00025000001 0.00023333337
-0.017125985 -0.001 -0.0018666666
-0.024661418 0.00075000001 -0.0002333333
0.0059370077 0.00025000001 0.00070000003
0.00091338583 0.001 -0.0009333333
-0.018267717 -0.00025000001 -0.0018666666
0 0.00025000001 0.0018666667
0.0041102362 0 3.3333333e-11
0.0036535433 0.001 -0.0002333333
0.012102362 0.001 -0.0018666666
0.0031968504 0.001 -0.0011666666
-0.023519685 0.001 -0.0016333333
0.017582677 0.001 -0.0014
0.019409448 0.001 -0.00069999998
-0.0041102362 0 -0.0030333332
0.019409448 -0.00025000001 -0.0002333333
0.013929134 -0.00025000001 -0.0039666668
0.0038818899 -0.001 -0.0018666666
0.013700787 0.00025000001 -0.0002333333
0.019866142 -0.001 -0.0018666666
0 0.00025000001 -0.0046666665
0.0075354329 0.00075000001 -0.0002333333
-0.013929134 -0.00025000001 -0.0039666668
0.011417323 0.001 -0.0011666666
-0.0045669293 0.001 -0.0009333333
0.015984252 0 -0.0025666666
0.0059370077 -0.00025000001 -0.0044333334
0.010732284 -0.00050000002 -0.0002333333
-0.0057086614 0 3.3333333e-11
0.017125985 0.001 -0.00069999998
0.002511811 0.00025000001 -0.0002333333
-0.0020551181 0 -0.0039666668
-0.023748031 0 -0.0018666666
-0.02192126 0 -0.0023333333
0.028314961 0.00050000002 -0.0002333333
-0.026259843 -0.00025000001 -0.0002333333
-0.0018267717 -0.001 -0.0016333333
-0.0043385825 -0.00025000001 -0.0002333333
-0.027401574 -0.00025000001 -0.0002333333
-0.007992126 0.001 -0.0002333333
0.027173229 -0.001 -0.00069999998
0.0034251967 -0.00075000001 -0.0002333333
-0.00022834646 -0.001 -0.0018666666
-0.01096063 -0.00050000002 -0.0018666666
0.013929134 -0.001 -0.0011666666
-0.023291338 0.001 -0.00046666662
-0.015527559 -0.00025000001 -0.0018666666
0.0038818899 0 0.0016333334
-0.013929134 -0.001 -0.0014
0.017125985 -0.001 -0.00046666662
-0.0091338586 0.001 -0.0018666666
-0.018496063 -0.001 -0.00046666662
-0.0020551181 -0.001 -0.0011666666
0.013015748 0.001 -0.0018666666
0.0066220472 0.001 -0.0016333333
0.0063937008 0.00050000002 -0.0018666666
0.00091338583 0 -0.0002333333
-0.010503937 0.001 -0.0014
0.0011417323 -0.00075000001 -0.0018666666
0.0091338586 -0.00050000002 -0.0018666666
0.014614173 0.001 -0.0011666666
-0.011417323 0.001 -0.0018666666
-0.005023622 0.00025000001 -0.0018666666
-0.019637795 -0.001 -0.0002333333
-0.025803149 0 0.0018666667
-0.00022834646 0.00025000001 -0.0049000001
-0.012102362 0 -0.0027999999
0.011188976 -0.001 -0.00046666662
0.019866142 -0.001 -0.0014
0.0038818899 0 0.0018666667
-0.020094488 -0.00025000001 0.00046666671
0.0059370077 0 0.00070000003
0.0059370077 0 0.0023333333
-0.021007873 0.00025000001 -0.0018666666
-0.015527559 -0.001 -0.0014
-0.027401574 0.00075000001 -0.0011666666
0.015070866 0.001 -0.0002333333
0.0018267717 0.001 -0.0018666666
0.0059370077 0 0.0020999999
-0.011645669 0.00025000001 -0.0002333333
-0.010047244 0.00025000001 3.3333333e-11
-0.013700787 -0.00050000002 -0.0018666666
0.002511811 -0.001 -0.0014
-0.007992126 -0.00075000001 -0.0002333333
-0.010732284 -0.00050000002 -0.0002333333
0.007992126 0 0.00046666671
-0.015299212 0.00025000001 -0.0018666666
-0.018952755 0.001 -0.0009333333
0.012330709 0.001 -0.0011666666
-0.025803149 0.00025000001 -0.0020999999
-0.023976378 0 0.0020999999
-0.018267717 0.001 -0.00046666662
-0.022834646 0.001 -0.0011666666
0.007992126 -0.00025000001 0.00093333336
0.015984252 0 -0.0030333332
0.012102362 0 0.0018666667
-0.027858268 0.00050000002 -0.0018666666
-0.0052519683 -0.00025000001 -0.0018666666
-0.027173229 -0.00075000001 -0.0002333333
0.026031496 -0.00025000001 0.00070000003
0.012102362 -0.00025000001 0.00093333336
0.0057086614 0.00050000002 -0.0018666666
0.0061653545 0 -0.0023333333
-0.002511811 0 -0.0002333333
-0.026716536 0.001 -0.00069999998
0.019866142 0.00050000002 -0.0018666666
0.02192126 0 -0.0051333332
0.0020551181 0 -0.0049000001
0.022377953 -0.00025000001 -0.0018666666
-0.019181103 -0.001 -0.0018666666
0.0011417323 0.001 -0.0018666666
0.0057086614 0.00075000001 -0.0002333333
0.025803149 0 0.0016333334
0.007992126 0 -0.0032666666
0.0020551181 0.00025000001 -0.0049000001
0.022149606 0.001 -0.0016333333
-0.026488189 0 -0.0018666666
0.011417323 0.00050000002 -0.0002333333
-0.0038818899 0.00075000001 -0.0002333333
-0.0063937008 -0.001 -0.0002333333
-0.00091338583 0.001 -0.00046666662
0.019409448 -0.001 -0.00046666662
-0.019409448 0 -0.0002333333
0.005023622 0.001 -0.0011666666
0.023976378 0 0.00093333336
-0.013472441 -0.001 -0.00069999998
-0.013015748 0.001 -0.0002333333
-0.0063937008 0.00050000002 -0.0018666666
-0.02192126 0.00025000001 -0.0030333332
0.015070866 0 -0.0018666666
-0.016440945 -0.00025000001 -0.0002333333
-0.0089055113 0.00025000001 -0.0002333333
0.010503937 -0.00075000001 -0.0002333333
0.0052519683 0.001 -0.00069999998
-0.015984252 0.001 -0.0002333333
0.01484252 -0.001 -0.0002333333
0.0020551181 0 -0.0039666668
-0.023062993 0.00025000001 -0.0018666666
0.013700787 -0.001 -0.00069999998
0.0059370077 0 0.00023333337
-0.023062993 -0.001 -0.00046666662
0.01027559 -0.001 -0.0018666666
0.00022834646 0.001 -0.0009333333
-0.0018267717 0 -0.0034999999
-0.0061653545 0 -0.0025666666
0.01096063 0.001 -0.0014
0.022377953 0.00075000001 -0.0018666666
0.025118111 -0.00075000001 -0.0018666666
-0.0043385825 0.00075000001 -0.0002333333
-0.015527559 0.001 -0.0011666666
-0.0066220472 -0.001 -0.00069999998
-0.020322835 -0.00075000001 -0.0018666666
-0.010047244 0.00025000001 0.0016333334
-0.019866142 -0.00025000001 0.00046666671
-0.022377953 -0.00075000001 -0.0018666666
0.00091338583 0.00025000001 -0.0002333333
0.018267717 0 0.0014000001
-0.022606298 -0.00025000001 -0.0018666666
-0.010503937 -0.001 -0.0009333333
-0.028314961 0.00025000001 -0.0002333333
-0.011645669 -0.00025000001 -0.0018666666
0.01803937 0.001 -0.0018666666
0.0034251967 -0.00075000001 -0.0018666666
-0.019637795 -0.00050000002 -0.0018666666
-0.010047244 0.00025000001 0.0018666667
-0.0011417323 -0.001 -0.0018666666
-0.017125985 -0.001 -0.00069999998
0.019866142 0 0.0018666667
-0.0036535433 -0.001 -0.00046666662
-0.011417323 0 -0.0002333333
-0.014385827 0.001 -0.0016333333
-0.027401574 0.00075000001 -0.0018666666
-0.01803937 -0.00050000002 -0.0018666666
0.010503937 0.00075000001 -0.0018666666
0.0013700788 -0.001 -0.0009333333
-0.015070866 0.001 -0.0014
-0.0041102362 0.001 -0.0016333333
-0.005023622 -0.001 -0.0016333333
0.0084488187 -0.001 -0.0011666666
0.020779528 -0.001 -0.0002333333
0.015984252 0 0.0020999999
0.013929134 0.00075000001 -0.0018666666
0.015755905 -0.001 -0.00069999998
-0.013929134 0 -0.0023333333
0.0018267717 0.001 -0.00069999998
-0.011874015 0.001 -0.0014
0.015299212 -0.001 -0.0018666666
-0.00091338583 0.001 -0.0002333333
0.021692913 -0.001 -0.0009333333
0.0057086614 0.001 -0.0011666666
0.019181103 0.001 -0.00046666662
0.0073070866 -0.001 -0.00046666662
-0.028543307 0.00050000002 -0.0018666666
0.026716536 0.001 -0.0016333333
-0.01803937 0 -0.0030333332
0.0073070866 0.00025000001 -0.0002333333
0.012102362 -0.00025000001 -0.0032666666
0.0066220472 -0.001 -0.00069999998
0.021692913 -0.001 -0.0011666666
-0.017811023 0 0.00023333337
-0.0013700788 -0.001 -0.0016333333
-0.026031496 -0.001 -0.0002333333
-0.010047244 -0.00025000001 -0.0030333332
-0.022149606 0 0.0020999999
-0.012102362 0 0.00023333337
-0.027858268 -0.00025000001 -0.0018666666
0.025118111 0.00075000001 -0.0002333333
-0.02055118 0 -0.0018666666
-0.026031496 -0.00025000001 -0.0037333332
-0.021464568 -0.001 -0.00046666662
-0.015070866 -0.001 -0.0016333333
0.017582677 0.00025000001 -0.0018666666
-0.020779528 -0.00025000001 -0.0002333333
0.0038818899 0.001 -0.0014
0.014157481 0 -0.0046666665
0.013929134 0.001 -0.0009333333
-0.011874015 0.001 -0.0002333333
-0.00022834646 0.00050000002 -0.0002333333
0.021692913 0.00075000001 -0.0018666666
0.01027559 -0.001 -0.00069999998
0.016212599 -0.001 -0.00046666662
-0.014157481 0 -0.0039666668
-0.012330709 0.001 -0.0009333333
-0.013700787 0.00075000001 -0.0002333333
-0.015070866 -0.001 -0.00069999998
0.026716536 0.001 -0.0011666666
0.012330709 0.001 -0.0014
0.014385827 0.00050000002 -0.0018666666
0.0034251967 0.00025000001 -0.0018666666
0.011874015 -0.00075000001 -0.0002333333
-0.01027559 -0.00075000001 -0.0018666666
-0.0029685039 -0.00075000001 -0.0002333333
0.01803937 0 0.0011666667
0.0061653545 0.001 -0.00069999998
0.01735433 0.00050000002 -0.0018666666
0.0020551181 0 -0.0025666666
0.0038818899 0.00075000001 -0.0002333333
0.020094488 -0.00025000001 0.0016333334
0.0015984252 -0.001 -0.0014
0.0027401575 -0.001 -0.00069999998
-0.0077637797 0 3.3333333e-11
-0.020094488 0 0.0023333333
-0.01803937 0.00075000001 -0.0018666666
0.0045669293 0.001 -0.0011666666
0.019181103 0.001 -0.0002333333
0.0020551181 0 -0.0044333334
-0.025803149 0 0.0020999999
-0.0015984252 0.00050000002 -0.0018666666
0.028086614 0 -0.0034999999
-0.02192126 0 -0.0037333332
-0.01803937 0.00050000002 -0.0002333333
-0.027629921 -0.00050000002 -0.0002333333
-0.0020551181 0 -0.0027999999
-0.015984252 0 0.0016333334
-0.026031496 0.00050000002 -0.00046666662
0.0068503935 0 -0.0018666666
-0.0082204724 -0.001 -0.0011666666
-0.00068503938 0.001 -0.0009333333
0.022149606 0.001 -0.0002333333
-0.0043385825 0.00050000002 -0.0002333333
-0.0038818899 0 -0.0039666668
0.018496063 0.001 -0.0002333333
0.015299212 0.00025000001 -0.0002333333
0.0034251967 0.001 -0.0014
-0.00068503938 -0.00025000001 -0.0018666666
0.00068503938 -0.001 -0.00046666662
-0.0082204724 0.001 -0.0014
-0.022149606 0.00075000001 -0.0002333333
-0.016212599 0.00025000001 3.3333333e-11
-0.007992126 0.00025000001 -0.0046666665
-0.0077637797 0.001 -0.0011666666
-0.01803937 0.001 -0.0009333333
-0.025346456 -0.001 -0.0018666666
-0.025803149 0 -0.0027999999
0.0084488187 0.00025000001 -0.0018666666
-0.0070787403 -0.001 -0.0018666666
0.023748031 0.001 -0.0016333333
0.0015984252 -0.001 -0.0009333333
0.0070787403 0.001 -0.0002333333
0.0077637797 0.001 -0.00069999998
-0.021692913 -0.001 -0.00069999998
-0.025574803 0.00050000002 -0.0018666666
-0.0047952756 -0.001 -0.0016333333
-0.005023622 -0.001 -0.0009333333
0.028999999 -0.00025000001 -0.0002333333
0.010503937 0.00050000002 -0.0002333333
0.017811023 -0.00075000001 -0.0018666666
-0.016212599 0.001 -0.00069999998
-0.00045669291 -0.001 -0.0016333333
0.023976378 -0.00025000001 0.0023333333
-0.0068503935 -0.001 -0.00069999998
0.01027559 0.001 -0.0011666666
-0.016212599 0 -0.0041999999
0.022834646 0.001 -0.0011666666
0.0061653545 0.001 -0.00046666662
-0.0022834647 0.00050000002 -0.0018666666
0.01803937 -0.00075000001 -0.0018666666
0.014157481 -0.001 -0.0011666666
0.015299212 0.001 -0.0011666666
-0.013015748 0.00050000002 -0.0002333333
0.023748031 0 0.0018666667
0.02055118 -0.001 -0.0009333333
-0.018267717 0.00075000001 -0.0002333333
0.023291338 0.00025000001 -0.0018666666
0.018952755 0.00050000002 -0.0018666666
-0.005023622 -0.001 -0.0014
-0.019409448 -0.00025000001 -0.0018666666
0.02123622 -0.001 -0.0002333333
0.02192126 0.001 -0.0018666666
-0.02192126 -0.001 -0.00069999998
-0.012102362 -0.00025000001 -0.0030333332
0.023062993 0.001 -0.0002333333
-0.023976378 0 -0.0041999999
-0.012330709 -0.00025000001 -0.0018666666
-0.023291338 -0.00050000002 -0.0002333333
-0.019866142 0.00050000002 -0.0018666666
0.012102362 0 0.0011666667
-0.028771654 -0.00050000002 -0.0016333333
0.024433071 -0.00075000001 -0.0018666666
-0.0041102362 0 -0.0049000001
0.011188976 0.001 -0.00046666662
-0.019637795 -0.00025000001 -0.0002333333
0.01027559 0.00025000001 -0.0002333333
0.026031496 0.001 -0.0011666666
0.028771654 0.00075000001 -0.0016333333
-0.0098188976 0 -0.0039666668
-0.015527559 0.001 -0.0009333333
0.02123622 -0.001 -0.00046666662
0.016440945 0.001 -0.0014
-0.023291338 0 -0.0018666666
0.0043385825 0.00025000001 -0.0018666666
-0.007992126 -0.001 -0.0002333333
-0.025803149 -0.001 -0.0018666666
-0.021464568 -0.001 -0.0016333333
-0.018952755 0.00025000001 -0.0002333333
0.010503937 -0.001 -0.00069999998
0.0020551181 0.00025000001 -0.0020999999
0.0029685039 0 -0.0002333333
-0.0082204724 0 -0.0018666666
0.022834646 0.001 -0.0014
0.015755905 0.001 -0.00069999998
0.017811023 0 0.0011666667
0.01027559 -0.001 -0.00046666662
0.0066220472 0.001 -0.00046666662
0.0091338586 -0.001 -0.0009333333
0.0020551181 0.001 -0.0014
0.026031496 -0.00025000001 -0.0027999999
0.0063937008 0.00075000001 -0.0018666666
-0.013929134 -0.00025000001 0.00070000003
0.02192126 -0.00025000001 -0.0023333333
-0.023976378 0 0.00070000003
0.020094488 -0.00025000001 -0.0023333333
0.016669292 0.00050000002 -0.0018666666
0.023519685 0.001 -0.0018666666
-0.0082204724 -0.00025000001 -0.0018666666
0.028999999 0.00025000001 -0.0011666666
0.020322835 -0.001 -0.0018666666
0.0038818899 0.001 -0.0016333333
0.011417323 -0.001 -0.0018666666
0.0018267717 0.00025000001 0.0018666667
-0.0070787403 -0.00075000001 -0.0002333333
-0.0041102362 0.001 -0.0011666666
0.0098188976 0 -0.0032666666
-0.016440945 0.001 -0.0016333333
0.023976378 0 -0.0044333334
-0.0043385825 0.001 -0.0016333333
-0.023748031 -0.001 -0.0011666666
0.0020551181 0.00025000001 0.0014000001
-0.028086614 -0.00025000001 -0.0018666666
-0.020322835 0.001 -0.0009333333
0.0052519683 0.001 -0.0014
-0.026031496 0 0.0023333333
0.01803937 -0.001 -0.0002333333
0.027173229 0.001 -0.0016333333
0.019637795 0 -0.0002333333
-0.0020551181 0.001 -0.0002333333
-0.021007873 0.00050000002 -0.0002333333
0.00022834646 -0.00025000001 -0.0030333332
0.022149606 -0.001 -0.0002333333
-0.00045669291 -0.00050000002 -0.0018666666
-0.022606298 -0.00025000001 -0.0002333333
0.028771654 -0.00075000001 -0.0016333333
0.026944881 -0.00075000001 -0.0002333333
-0.023976378 0.00025000001 0.0016333334
-0.0045669293 -0.001 -0.0011666666
0.0034251967 -0.00025000001 -0.0018666666
-0.01803937 0 -0.0025666666
0.016212599 -0.001 -0.0009333333
-0.01096063 0.00050000002 -0.0018666666
0.007992126 -0.00025000001 3.3333333e-11
0.020094488 -0.001 -0.00069999998
0.019866142 0.001 -0.0016333333
-0.024889763 -0.001 -0.0018666666
-0.005023622 0.00050000002 -0.0018666666
0.0031968504 -0.001 -0.0002333333
0.023748031 0.00075000001 -0.0018666666
-0.019637795 0.001 -0.0002333333
0.018952755 -0.001 -0.0016333333
0.014614173 -0.001 -0.00046666662
0.024661418 -0.001 -0.0011666666
0.0095905513 -0.001 -0.00046666662
0.022834646 0.001 -0.0002333333
-0.0057086614 -0.00025000001 -0.0018666666
-0.0031968504 0.001 -0.0002333333
-0.025803149 0 -0.0044333334
0.021464568 0.00025000001 -0.0018666666
0.016897637 0 -0.0002333333
0 -0.00075000001 -0.0002333333
0.023291338 -0.001 -0.0009333333
0.022606298 -0.00075000001 -0.0002333333
0.019181103 0.00025000001 -0.0018666666
-0.014385827 0.001 -0.00069999998
0.017811023 0.001 -0.00069999998
0.015527559 -0.001 -0.0002333333
0.012102362 0 0.0023333333
-0.012102362 -0.00025000001 -0.0032666666
0.011874015 0.001 -0.0014
0.0015984252 -0.001 -0.00069999998
-0.028314961 -0.001 -0.00069999998
-0.00022834646 -0.001 -0.0009333333
0.016897637 0.00050000002 -0.0002333333
0.0093622049 0 -0.0002333333
-0.00022834646 0.001 -0.0014
-0.0089055113 -0.001 -0.00069999998
-0.014385827 0.001 -0.00046666662
-0.0020551181 0 0.0016333334
0.022377953 -0.001 -0.0009333333
0.026944881 0.001 -0.0002333333
-0.026259843 -0.001 -0.0018666666
-0.022149606 0 -0.0041999999
0.024889763 0.001 -0.0018666666
0.027629921 0.001 -0.0002333333
0.013472441 -0.00075000001 -0.0002333333
0.0095905513 0.001 -0.0011666666
0.013929134 0 0.0016333334
0.026031496 -0.00050000002 -0.0002333333
0.012102362 -0.00025000001 -0.0020999999
0.0029685039 0.00075000001 -0.0018666666
0.022606298 0.001 -0.0011666666
-0.02055118 -0.00050000002 -0.0002333333
0.013472441 0.00075000001 -0.0002333333
-0.013929134 -0.00050000002 -0.0018666666
0.00068503938 -0.001 -0.0009333333
-0.028086614 0 0.0018666667
-0.012787402 0.001 -0.00069999998
-0.019181103 -0.001 -0.0002333333
0.0063937008 -0.001 -0.0009333333
0.00068503938 0.001 -0.0018666666
0.019637795 -0.001 -0.0002333333
-0.011645669 -0.00050000002 -0.0018666666
0.022834646 -0.00075000001 -0.0002333333
-0.025803149 0 -0.0020999999
-0.00022834646 0 -0.0023333333
-0.005023622 0.00075000001 -0.0018666666
-0.0059370077 0.001 -0.0018666666
-0.028543307 0.00025000001 -0.0002333333
0.026031496 0 3.3333333e-11
0.0066220472 -0.001 -0.0009333333
-0.011188976 0.001 -0.0016333333
0.011874015 0 -0.0044333334
0.010047244 0 -0.0051333332
0.023291338 0.001 -0.00046666662
-0.026488189 0.001 -0.0016333333
0.027173229 0.001 -0.0011666666
0.027858268 0.00025000001 0.00046666671
-0.014385827 0.001 -0.0011666666
0.024204724 -0.001 -0.0009333333
-0.0073070866 0.00050000002 -0.0002333333
0.017811023 0.001 -0.0016333333
0.01803937 0 -0.0030333332
-0.00045669291 -0.001 -0.00069999998
-0.00068503938 -0.001 -0.00046666662
-0.019409448 0.00025000001 -0.0018666666
0.010732284 0.00025000001 -0.0002333333
-0.01803937 0.00025000001 0.00070000003
0.022377953 0.001 -0.0002333333
0.012787402 -0.001 -0.0014
0.013700787 0.001 -0.0016333333
-0.015984252 0.00075000001 -0.0002333333
-0.0013700788 -0.001 -0.00046666662
0.0013700788 0.00075000001 -0.0002333333
0.026716536 0.001 -0.00069999998
0.023519685 -0.001 -0.0009333333
-0.022149606 0.00050000002 -0.0002333333
0.026944881 0.001 -0.0009333333
0.0036535433 -0.00075000001 -0.0018666666
-0.02192126 0.00025000001 3.3333333e-11
0.0061653545 0 -0.0044333334
0.0029685039 0.001 -0.00069999998
-0.016212599 0.001 -0.0016333333
0.025574803 -0.001 -0.0011666666
0.026031496 -0.00025000001 -0.0034999999
-0.0029685039 -0.001 -0.0011666666
-0.0084488187 0.001 -0.0011666666
0.023291338 -0.001 -0.00069999998
0.012559055 0.001 -0.0014
0.015984252 0.001 -0.0016333333
-0.026031496 0.00025000001 -0.0023333333
0.028771654 -0.00075000001 -0.0009333333
0.0038818899 -0.001 -0.0002333333
-0.019866142 0 -0.0020999999
-0.012787402 -0.00025000001 -0.0018666666
0.021464568 0.001 -0.0014
-0.01872441 -0.001 -0.00069999998
-0.0038818899 0 0.0018666667
-0.023519685 -0.001 -0.0009333333
0.0057086614 -0.001 -0.0018666666
-0.0038818899 0 -0.0041999999
0.01027559 0 -0.0041999999
-0.013929134 0 0.00046666671
-0.026031496 -0.00025000001 0.0020999999
0.026031496 0.00025000001 -0.0034999999
-0.012787402 -0.001 -0.0011666666
0.013015748 -0.00075000001 -0.0002333333
-0.0073070866 0.001 -0.0014
-0.026944881 0 -0.0018666666
0.0063937008 -0.001 -0.0016333333
0.0047952756 -0.00050000002 -0.0002333333
0.027401574 -0.00025000001 -0.0018666666
0.021464568 0.00025000001 -0.0002333333
0.0093622049 -0.00050000002 -0.0018666666
0.005023622 0.00075000001 -0.0002333333
-0.012787402 0 -0.0018666666
-0.012102362 0.00025000001 0.0016333334
-0.01803937 -0.00050000002 -0.0002333333
-0.011874015 -0.00025000001 -0.0039666668
-0.0059370077 0 -0.0041999999
-0.020094488 -0.00050000002 -0.0002333333
0.016897637 -0.00050000002 -0.0018666666
0.012559055 0.001 -0.0011666666
-0.0075354329 -0.001 -0.0009333333
0.0095905513 0.00050000002 -0.0002333333
-0.022606298 -0.001 -0.0018666666
-0.016669292 -0.00050000002 -0.0018666666
0.026031496 0.00025000001 -0.0037333332
0.027858268 -0.00075000001 -0.0009333333
0.00045669291 0 -0.0018666666
0.026031496 -0.00075000001 -0.0002333333
-0.0082204724 -0.001 -0.0016333333
-0.026031496 0 -0.0023333333
-0.0041102362 -0.00025000001 3.3333333e-11
-0.00091338583 0.001 -0.0018666666
0.020322835 0 -0.0002333333
-0.026031496 -0.001 -0.00069999998
0.00091338583 0.001 -0.0014
-0.010047244 -0.00025000001 -0.0027999999
0.012102362 0.00075000001 -0.0002333333
-0.00022834646 0 0.0020999999
0.011874015 0.00025000001 0.0018666667
0.0022834647 0.001 -0.00046666662
-0.026031496 0.00025000001 -0.0037333332
-0.016212599 0 -0.0044333334
-0.0047952756 0.001 -0.0011666666
0.011188976 0.00050000002 -0.0002333333
0.023976378 -0.00025000001 0.0016333334
0.017125985 -0.001 -0.0011666666
0.002511811 -0.001 -0.0016333333
-0.015984252 0 3.3333333e-11
0.0089055113 -0.00075000001 -0.0018666666
0.013015748 0.001 -0.0002333333
0.022149606 -0.00025000001 -0.0030333332
0.021464568 0.00075000001 -0.0002333333
0.012102362 0 0.00023333337
0.013929134 0.00025000001 3.3333333e-11
-0.0034251967 0 -0.0002333333
0.020094488 -0.00050000002 -0.0018666666
-0.023519685 -0.00025000001 -0.0002333333
0.022834646 -0.001 -0.0011666666
-0.019409448 0.00050000002 -0.0018666666
0.013929134 0.001 -0.0011666666
-0.0038818899 0 0.00070000003
0.025346456 -0.00050000002 -0.0018666666
0.025574803 0.00075000001 -0.0002333333
0.024204724 0 0.00023333337
0.02192126 0.00025000001 -0.0002333333
-0.010503937 -0.001 -0.0014
-0.02192126 0.00025000001 0.0014000001
0.028543307 0.00025000001 -0.0018666666
-0.008677165 0.00025000001 -0.0018666666
-0.023976378 0.00025000001 0.0018666667
-0.0095905513 -0.00025000001 -0.0002333333
0.02123622 -0.00050000002 -0.0002333333
0.023976378 0 -0.0032666666
-0.015299212 -0.001 -0.00069999998
-0.0059370077 0.001 -0.0016333333
-0.01096063 -0.00075000001 -0.0002333333
-0.016212599 0 0.0014000001
0.028999999 0 -0.0011666666
0.012102362 0 -0.0041999999
-0.025118111 0.00025000001 -0.0002333333
0.016897637 0.001 -0.0016333333
0.025803149 0 -0.0044333334
-0.0061653545 -0.00050000002 -0.0002333333
0.00022834646 -0.001 -0.00046666662
0.026031496 -0.00050000002 -0.0018666666
0.028314961 0.001 -0.00069999998
0.011188976 0.001 -0.0011666666
-0.014157481 0 0.0023333333
-0.012330709 0 -0.0002333333
0.022149606 -0.001 -0.0011666666
-0.013929134 -0.00025000001 -0.0030333332
0.011188976 -0.001 -0.00069999998
-0.011874015 0 -0.0041999999
-0.02123622 -0.001 -0.0014
0 0.00025000001 0.00046666671
0.016212599 -0.00025000001 -0.0018666666
0.0043385825 -0.00050000002 -0.0018666666
0.0063937008 -0.00075000001 -0.0002333333
-0.011645669 -0.001 -0.00046666662
-0.024889763 -0.00050000002 -0.0018666666
-0.025118111 0.00075000001 -0.0018666666
-0.0047952756 -0.00050000002 -0.0002333333
-0.013700787 0.001 -0.00046666662
-0.013929134 0.001 -0.00069999998
0.024433071 0.001 -0.0002333333
0.010732284 0.001 -0.0018666666
0.02192126 -0.00025000001 -0.0030333332
-0.028771654 -0.00025000001 -0.0011666666
-0.0052519683 0 -0.0002333333
0.00045669291 0.001 -0.0011666666
-0.0020551181 0.00075000001 -0.0002333333
0 -0.00025000001 -0.0030333332
-0.02192126 0.00025000001 -0.0044333334
-0.0075354329 0.00050000002 -0.0002333333
-0.016212599 0 0.00046666671
-0.028543307 -0.001 -0.0018666666
0.024433071 -0.001 -0.0011666666
-0.0041102362 -0.00025000001 -0.0032666666
0.015984252 0.00050000002 -0.0002333333
0 0.00025000001 0.0020999999
-0.028086614 -0.001 -0.00046666662
0.021692913 0.00050000002 -0.0002333333
0.0057086614 0.00075000001 -0.0018666666
-0.014385827 0.00025000001 -0.0002333333
0.027173229 -0.00025000001 -0.0018666666
0.015527559 0.001 -0.00069999998
0.028086614 0 0.0014000001
0.02055118 -0.001 -0.00069999998
0.01803937 -0.00025000001 -0.0027999999
0.00022834646 0.001 -0.0018666666
-0.014157481 -0.001 -0.0016333333
0.0059370077 0 -0.0046666665
-0.0059370077 0 0.0023333333
0.0054803151 -0.001 -0.0009333333
0.00022834646 0.00025000001 0.0011666667
-0.0059370077 0 0.00046666671
-0.013015748 0.00025000001 -0.0018666666
0.028771654 0 -0.0018666666
-0.021464568 -0.00050000002 -0.0002333333
-0.011645669 0.001 -0.0018666666
0.013700787 -0.001 -0.0016333333
-0.00045669291 0.001 -0.0011666666
-0.0063937008 -0.001 -0.0011666666
-0.028086614 0 -0.0030333332
-0.010503937 0.001 -0.0009333333
-0.015299212 0.00025000001 -0.0002333333
-0.028086614 0.00075000001 -0.0009333333
-0.015984252 0.00025000001 0.00070000003
-0.023976378 0 0.0023333333
-0.0034251967 0.001 -0.00046666662
0.023291338 0.001 -0.0016333333
0.01484252 -0.001 -0.00069999998
-0.028543307 -0.001 -0.00069999998
-0.021692913 0.001 -0.0002333333
-0.01803937 0 0.00070000003
-0.00068503938 -0.001 -0.0002333333
-0.015755905 0.00075000001 -0.0018666666
-0.0059370077 0 -0.0030333332
-0.027858268 0 0.0018666667
-0.024661418 -0.001 -0.0016333333
-0.02123622 0.001 -0.0009333333
-0.015984252 0.00025000001 0.0014000001
0.0038818899 0 0.00046666671
-0.00045669291 -0.001 -0.0002333333
-0.0020551181 0 -0.0051333332
-0.025346456 0.00025000001 -0.0002333333
0.0052519683 0.001 -0.0018666666
0.0077637797 0.00050000002 -0.0018666666
-0.0020551181 -0.00025000001 0.0018666667
-0.00091338583 -0.00050000002 -0.0002333333
-0.01027559 0.001 -0.0011666666
0.0018267717 0.001 -0.0009333333
