# .PCD v0.7 - Point Cloud Data file format
VERSION 0.7
FIELDS x y z
SIZE 4 4 4
TYPE F F F
COUNT 1 1 1
WIDTH 1148
HEIGHT 1
VIEWPOINT 0 0 0 1 0 0 0
POINTS 1148
DATA ascii
0 0.002616355 -0.00096896553
0.00094776123 -0.0032823363 -0.0023086206
0.0020850745 0.0048997193 -0.0014474138
0.0036962687 -0.0048045791 -0.0003948276
-0.00018955224 -0.0048997193 0.0011362069
-0.0018955225 -0.00042813082 -0.0015431035
-0.0046440298 0.00090383174 -0.00096896553
0.0012320896 0.00033299063 -0.00096896553
0.0041701491 0.0046142987 -0.0014474138
0.0014216418 0.0025212148 -0.0015431035
0.0037910449 0.0025212148 -0.00096896553
0.0045492537 -0.0013795326 -1.2068966e-05
0.005307463 -0.0029017755 -0.0022129309
0.00028432836 0.001569813 -0.00096896553
0.0061604478 -0.0031871961 -0.00087327586
-0.005307463 0.0045191585 -0.0013517241
-0.0030328359 -0.0032823363 -0.0003948276
-0.0021798508 0.0016649532 -0.00096896553
-0.0012320896 -0.0013795326 -0.00020344827
0.0036962687 -0.0022357942 -0.0024043103
0.00094776123 0.0032823363 -0.0015431035
-0.0019902985 -0.0032823363 -0.0022129309
-0.00066343287 -0.0048997193 -1.2068966e-05
-0.0019902985 0.00014271027 -0.00096896553
-0.00037910449 -0.002140654 -0.0024043103
-0.0035067166 -0.0032823363 -0.0023086206
-0.0043597016 0.00052327098 -0.0015431035
0.0030328359 -0.0030920559 -0.0022129309
0.0012320896 -0.00023785046 -0.0015431035
-0.0016111941 -0.0049948595 -0.0010646551
0.00066343287 0.0013795326 -0.0015431035
-0.0049283584 -0.0032823363 -0.00058620691
0.0050231344 0.0027114952 -0.0015431035
-0.0022746269 0.0027114952 -0.0014474138
0.0017059701 -0.00042813082 -0.0015431035
0.0041701491 0.0037580372 -0.0014474138
-0.0036962687 0.00033299063 -0.00096896553
0.0015164179 0.0011892522 -0.0015431035
-0.0057813432 -0.0022357942 -0.0023086206
-0.00037910449 0.00042813082 -0.0015431035
0.005307463 -0.0047094389 -0.0012560345
0.0061604478 -0.0027114952 -0.0022129309
-0.00066343287 -0.00071355136 -0.00058620691
-0.0015164179 0.003662897 -0.0015431035
-0.0028432836 0.0012843924 -0.00096896553
-0.0054970151 0.0039483174 -0.0011603448
-0.0021798508 0.002616355 -0.0015431035
0.0063499999 -0.0027114952 -0.001925862
0.0063499999 -0.0020455138 -0.0003948276
0.0034119403 -0.00090383174 -0.0024043103
0.0056865672 0.0011892522 -0.00096896553
-0.0034119403 -0.0039483174 -0.0015431035
0.00028432836 -0.0045191585 0.0016146551
-0.0050231344 -0.0050899996 0.0013275862
-0.00056865672 0.0043288781 -0.0014474138
0.0044544777 -0.0039483174 -0.0014474138
-0.0025589552 0.0011892522 -0.00096896553
-0.0035067166 0.0029017755 -0.0015431035
0.0031276119 -0.0041385978 -0.00096896553
0.0024641792 -0.0032823363 -1.2068966e-05
0.0043597016 -0.0034726167 -0.0015431035
0.005402239 -0.0031871961 -0.00077758619
-0.0027485075 -0.0024260746 -1.2068966e-05
0 0.00099897187 -0.00096896553
-0.0012320896 0.0027114952 -0.0015431035
-0.0050231344 0.00023785046 -0.00096896553
0.0017059701 -0.0042337379 -0.00087327586
0.0018955225 0.00023785046 -0.0015431035
0.00094776123 0.0028066353 -0.00096896553
0.0049283584 -0.0044240183 0.00065775862
-0.00075820897 0.0027114952 -0.00096896553
-0.0034119403 0.0017600934 -0.0015431035
-0.0016111941 -0.0033774765 -0.0020215518
-0.0022746269 -0.0049948595 0.00065775862
0.0018955225 0.0047094389 -0.0014474138
-0.005307463 -0.0029017755 -1.2068966e-05
0.0056865672 -0.00080869155 -0.0003948276
-0.0010425373 0.00033299063 -0.0015431035
-0.0035067166 -0.0022357942 -1.2068966e-05
-0.0014216418 0.0016649532 -0.0015431035
0.00075820897 0.0025212148 -0.0015431035
0.00094776123 -0.0018552336 -0.0024043103
-0.0049283584 -0.0025212148 -0.0024043103
0.0020850745 -0.00071355136 -0.00058620691
-0.00028432836 -0.0048997193 0.0020931035
0.0022746269 0.0016649532 -0.0015431035
0.0035067166 -0.00061841117 -0.0017344827
-0.0062552239 -0.0025212148 -0.0012560345
0.0036962687 -0.002140654 -0.0024043103
-0.0033171643 0.0019503738 -0.0015431035
0.0046440298 -0.0048997193 -0.00096896553
9.4776122e-05 0.0029969157 -0.00096896553
-0.0034119403 -0.0017600934 -1.2068966e-05
0.0029380599 -0.00080869155 -1.2068966e-05
0.0015164179 0.00052327098 -0.00096896553
-0.0034119403 -0.0023309344 -1.2068966e-05
0.0052126865 -0.0032823363 -0.0003948276
0.0035067166 0.0037580372 -0.0014474138
-0.0018955225 0.0045191585 -0.0014474138
-0.0041701491 -0.0040434576 -0.0014474138
0.0013268657 0.001569813 -0.00096896553
0.0026537315 0.0040434576 -0.00096896553
-0.0054970151 -0.00052327098 -0.0015431035
-0.0046440298 -0.0020455138 -0.0024043103
0.0032223882 -0.0050899996 -0.00029913793
-0.0013268657 0.0016649532 -0.00096896553
-0.0026537315 -0.0044240183 0.0010405172
-0.0048335823 0.0046142987 -0.0010646551
0.0023694029 -0.0048997193 0.00065775862
0.0033171643 -0.0032823363 -0.0022129309
-0.00066343287 0.00071355136 -0.00096896553
0.0055917911 -0.0029969157 -0.0022129309
0.0052126865 -0.00071355136 -0.00049051724
0.0051179104 -0.0030920559 -1.2068966e-05
-0.0040753731 -0.00033299063 -0.00096896553
-0.0055917911 -0.0044240183 -0.00020344827
-0.0029380599 -0.001569813 -1.2068966e-05
0.0042649256 0.0035677569 -0.0014474138
0.00066343287 -0.0048997193 -0.0012560345
0.0020850745 0.0020455138 -0.00096896553
-0.0011373134 0.0017600934 -0.00096896553
0.0058761197 -0.00080869155 -0.00049051724
-0.0034119403 0.0016649532 -0.00096896553
-0.0036962687 0.0020455138 -0.0015431035
0.0028432836 -0.0048045791 0.00046637931
0.0030328359 0.0019503738 -0.0015431035
0.0033171643 0.00080869155 -0.00096896553
-0.00066343287 -0.0040434576 -0.00096896553
0.0019902985 -0.0042337379 -0.00087327586
0.0059708958 0.001569813 -0.0011603448
0.00066343287 -0.0043288781 -0.00058620691
0.0055917911 -0.0030920559 -0.00049051724
0.0017059701 0.0031871961 -0.00096896553
-0.0017059701 0.0050899996 -0.0012560345
0.00037910449 -0.0033774765 -0.00096896553
0.0045492537 0.0050899996 -0.0012560345
0.0011373134 0.0029017755 -0.00096896553
0.0043597016 0.00052327098 -0.00096896553
0.0043597016 0.0049948595 -0.00096896553
-0.0054970151 0.0013795326 -0.00096896553
-9.4776122e-05 0.00099897187 -0.00096896553
0.0031276119 4.7570091e-05 -0.0015431035
-0.0017059701 0.0045191585 -0.00096896553
0.0040753731 -0.0010941121 -0.00020344827
0.0041701491 0.00061841117 -0.0014474138
-0.0048335823 4.7570091e-05 -0.00096896553
0.0059708958 -0.0037580372 -0.0013517241
-0.00056865672 0.0018552336 -0.00096896553
0.003885821 -0.00080869155 -0.0024043103
-0.0014216418 0.0011892522 -0.0015431035
0.00028432836 0.0019503738 -0.00096896553
0.0041701491 0.0014746728 -0.00096896553
-0.0011373134 -0.0033774765 -0.0015431035
-0.0021798508 -0.00071355136 -0.00029913793
0.0024641792 -0.0032823363 -0.00029913793
0.0029380599 -0.0030920559 -1.2068966e-05
-0.0052126865 -0.0038531774 -0.00096896553
0.005402239 0.0035677569 -0.0014474138
0.0013268657 0.0019503738 -0.00096896553
0.0062552239 -0.0023309344 -0.00020344827
-0.0054970151 -0.0031871961 -0.0022129309
0.0051179104 -0.0032823363 -0.00010775862
-0.0058761197 -0.003662897 -0.00096896553
-0.0045492537 0.0038531774 -0.0014474138
0.0051179104 -0.0029969157 -0.00049051724
0.0028432836 -0.0011892522 -1.2068966e-05
0.003980597 0.0035677569 -0.0014474138
0.0024641792 -0.0032823363 -0.00058620691
-0.00037910449 -0.0043288781 -0.00077758619
0.0017059701 -0.0043288781 -0.0014474138
-0.00056865672 0.00080869155 -0.0015431035
0.00028432836 0.0041385978 -0.00096896553
0.0017059701 0.0033774765 -0.00096896553
-0.0025589552 -0.00033299063 -0.0015431035
0.005307463 -0.0047094389 0.00017931034
-0.00075820897 -0.0035677569 -0.0015431035
0.0051179104 -0.0012843924 -1.2068966e-05
-0.0018955225 0.0047094389 -0.0014474138
-0.00094776123 0.0016649532 -0.00096896553
0.0014216418 -0.0042337379 -0.00087327586
-0.00028432836 -0.0048045791 0.0019974138
0.0051179104 -0.0032823363 -0.00087327586
0.00094776123 -0.0048045791 -1.2068966e-05
0 0.0024260746 -0.0015431035
0.0056865672 0.00061841117 -0.0014474138
-9.4776122e-05 -0.0050899996 0.0021887932
-0.0062552239 -0.0023309344 -0.0010646551
0.0052126865 0.0029969157 -0.00096896553
-0.0027485075 -0.0047094389 0.0026672413
-0.0042649256 -0.0048045791 -0.0013517241
0.00075820897 0.0044240183 -0.00096896553
-0.0037910449 -0.0030920559 -1.2068966e-05
-0.0051179104 -0.00090383174 -0.00020344827
0.0049283584 -0.0031871961 -0.0021172413
0.0051179104 0.0035677569 -0.00096896553
-0.0011373134 0.00042813082 -0.00096896553
0.0052126865 0.0045191585 -0.00096896553
-0.005402239 -0.0048997193 -0.00068189658
0.0042649256 -0.0030920559 -0.00010775862
0.0022746269 0.0048045791 -0.00096896553
-0.0016111941 0.001569813 -0.00096896553
-0.0044544777 -0.0028066353 -1.2068966e-05
-0.0056865672 0.00033299063 -0.0015431035
0.0036962687 -0.00042813082 -0.0015431035
-0.0026537315 -0.0049948595 -0.0011603448
0.0036962687 -0.0049948595 -0.00096896553
-0.0062552239 -0.0016649532 -0.0015431035
-0.0055917911 0.0019503738 -0.0015431035
0.005307463 0.00042813082 -0.00096896553
0.0055917911 -0.0014746728 -1.2068966e-05
-0.0026537315 4.7570091e-05 -0.0015431035
0.0046440298 0.0028066353 -0.00096896553
-0.0032223882 -0.00071355136 -0.0018301724
0.0012320896 -0.0032823363 -0.0016387932
0.0020850745 0.0023309344 -0.00096896553
0.005402239 -0.0042337379 -0.00087327586
0.0023694029 -0.0039483174 -0.00096896553
0.0048335823 0.0020455138 -0.0014474138
0.0036962687 0.0025212148 -0.0015431035
0.0045492537 -0.0049948595 -1.2068966e-05
0.0061604478 -0.00071355136 -0.0016387932
-0.0028432836 -0.0017600934 -0.0024043103
0.0023694029 0.0033774765 -0.00096896553
0.0029380599 0.0023309344 -0.00096896553
0.0049283584 -0.0045191585 0.0023801725
-0.0060656718 -0.0019503738 -0.0022129309
-0.00018955224 -0.0033774765 -0.0020215518
-0.0041701491 -0.0040434576 -0.00096896553
-0.0016111941 -0.0011892522 -0.0024043103
-0.0013268657 -0.003662897 -0.0015431035
0.0026537315 0.0019503738 -0.00096896553
-0.0023694029 -0.0017600934 -1.2068966e-05
-0.0042649256 -0.0032823363 -0.0022129309
-0.0015164179 -0.0050899996 -0.00077758619
0.0062552239 -0.00080869155 -0.00087327586
-0.0060656718 -0.0029969157 -0.0022129309
0.0041701491 -0.0048045791 -0.0011603448
-0.0033171643 -0.00071355136 -0.0022129309
-0.00037910449 0.00014271027 -0.00096896553
0.0016111941 0.0022357942 -0.0014474138
0.0016111941 -0.002616355 -0.0023086206
-0.00085298507 -0.0050899996 -1.2068966e-05
-0.0030328359 0.0018552336 -0.0015431035
-0.0013268657 0.0030920559 -0.0015431035
-0.0015164179 -0.0014746728 -1.2068966e-05
0.0012320896 -0.0043288781 -0.00049051724
0.00094776123 -0.00071355136 -0.0021172413
0.0032223882 0.0016649532 -0.00096896553
0.0028432836 -0.0048997193 0.00094482757
0.0019902985 -0.0025212148 -0.0023086206
-0.0027485075 -0.0031871961 -0.00068189658
0.0054970151 -0.00080869155 -0.00068189658
0.0062552239 -0.0031871961 -0.00068189658
-0.0047388058 0.0045191585 -0.0010646551
0.0042649256 0.003662897 -0.0014474138
0.0057813432 0.0024260746 -0.0013517241
0.00066343287 -0.0032823363 -0.0022129309
0.0044544777 -0.0033774765 -0.00096896553
0.00028432836 0.0038531774 -0.00096896553
0.0033171643 -0.0034726167 -0.0015431035
0.0042649256 0.00052327098 -0.00096896553
-0.0047388058 -0.002616355 -0.0024043103
-0.00075820897 0.00014271027 -0.00096896553
0.00075820897 -0.0031871961 -0.00010775862
-0.0014216418 -0.00071355136 -0.00068189658
-0.0055917911 -0.0017600934 -0.0023086206
0.0060656718 0.00090383174 -0.0010646551
0.0054970151 0.00071355136 -0.00096896553
-0.0023694029 0.0011892522 -0.0015431035
-0.0014216418 -0.0035677569 -0.0015431035
0.0049283584 -0.00071355136 -0.0022129309
0.0032223882 -0.0047094389 -0.0013517241
-0.0062552239 -0.001569813 -0.00058620691
-0.0035067166 -0.00071355136 -0.0022129309
-0.0034119403 -0.0048997193 -0.00010775862
-0.0020850745 0.0029969157 -0.0014474138
-0.00075820897 0.00090383174 -0.0015431035
0.003885821 0.0044240183 -0.00096896553
0.0048335823 -0.0043288781 -0.00077758619
0.0031276119 0.00071355136 -0.00096896553
-0.0037910449 -0.0041385978 -0.0014474138
0.005402239 -0.0028066353 -0.0022129309
0.0055917911 -0.0023309344 -0.00010775862
0.0043597016 0.0028066353 -0.00096896553
-0.00085298507 -0.0033774765 -0.0023086206
-0.0017059701 -0.00061841117 -0.00087327586
-0.00075820897 -0.0042337379 -0.00087327586
0.0036962687 -0.0037580372 -0.0015431035
-0.0036014926 -0.0047094389 -0.00020344827
0.0020850745 -0.0012843924 -0.0024043103
0.0054970151 0.0041385978 -0.00096896553
-0.0050231344 -0.0050899996 0.0017103448
-0.0041701491 -0.002140654 -1.2068966e-05
0.0013268657 -0.0048997193 -0.00020344827
-0.0014216418 -4.7570091e-05 -0.0015431035
0.00028432836 -0.0028066353 -1.2068966e-05
0.0019902985 -0.0050899996 -0.00029913793
-0.0031276119 0.00061841117 -0.0015431035
0.0051179104 -0.0029017755 -0.0017344827
0.0051179104 0.0033774765 -0.00096896553
0.00018955224 0.0010941121 -0.00096896553
-0.0034119403 -0.00071355136 -0.0003948276
-0.0035067166 -0.002140654 -1.2068966e-05
-0.0056865672 -0.00014271027 -0.0015431035
-0.0037910449 0.0044240183 -0.00096896553
-0.003980597 -0.0032823363 -0.001925862
0.0029380599 0.0039483174 -0.00096896553
0.0056865672 -0.00099897187 -1.2068966e-05
-0.0014216418 -0.0031871961 -0.0018301724
0.0052126865 -0.00071355136 -0.00058620691
-0.005307463 -0.0032823363 -0.00020344827
0.0022746269 0.0038531774 -0.00096896553
-0.0010425373 0.0027114952 -0.0015431035
-0.0061604478 -0.001569813 -0.00029913793
-0.0023694029 -0.0013795326 -1.2068966e-05
-0.0048335823 0.0033774765 -0.0014474138
-0.0034119403 -0.00071355136 -0.00068189658
0.0019902985 -0.0020455138 -0.0024043103
0.0032223882 -0.0042337379 -0.0014474138
0.0025589552 -0.0050899996 0.00046637931
0.0059708958 -0.0012843924 -1.2068966e-05
0.0025589552 -0.0049948595 -0.0011603448
0.00028432836 -0.0048045791 0.0025715518
0.003980597 -0.0013795326 -0.00020344827
-0.0062552239 -0.0023309344 -0.0012560345
-0.0043597016 0.002616355 -0.0015431035
-0.0019902985 -0.0047094389 -0.0014474138
-0.0041701491 -0.0047094389 -1.2068966e-05
0.005307463 -0.0045191585 0.0020931035
-0.0022746269 -0.0048997193 0.0023801725
0.00056865672 -0.002140654 -1.2068966e-05
-0.005307463 -0.0048997193 0.0012318966
-0.0018007463 -0.0032823363 -0.0022129309
0.0049283584 -0.0045191585 0.00056206895
-0.0025589552 0.0043288781 -0.0014474138
-0.0059708958 -0.0031871961 -0.00068189658
0.0010425373 0.0046142987 -0.0014474138
-0.0036962687 0.00080869155 -0.00096896553
0.0010425373 0.0044240183 -0.0014474138
0.0048335823 -0.0048997193 -0.00096896553
-0.0044544777 -0.0034726167 -0.00096896553
0.0036014926 -0.0024260746 -0.0024043103
-0.0052126865 -0.0050899996 0.0012318966
0.0019902985 -0.00033299063 -0.00096896553
0.0026537315 -0.0017600934 -0.0024043103
0.0018007463 -0.0028066353 -0.0023086206
0.0048335823 -0.0048997193 0.0015189655
-0.0036014926 -0.00071355136 -0.0021172413
-0.005402239 -0.0024260746 -0.0024043103
-0.00028432836 0.0033774765 -0.00096896553
-0.005307463 0.0038531774 -0.0014474138
0.0051179104 -0.00071355136 -0.0003948276
0.0059708958 0.0017600934 -0.0013517241
-0.0047388058 -0.0045191585 -0.0014474138
0.0045492537 0.0017600934 -0.0015431035
-0.00037910449 -0.0043288781 -0.0014474138
-0.0032223882 -0.002140654 -0.0024043103
0.0015164179 -0.0027114952 -0.00020344827
0.0041701491 -0.0017600934 -0.0023086206
0.005307463 0.0028066353 -0.0014474138
-0.003885821 0.0032823363 -0.00096896553
-0.0042649256 -0.0029969157 -0.0024043103
0.0055917911 0.0013795326 -0.00096896553
-0.0057813432 0.00052327098 -0.0015431035
0.0020850745 -0.0032823363 -0.00077758619
0.003980597 -0.00090383174 -0.00020344827
0.0048335823 -0.0048045791 0.0013275862
-0.00047388062 -0.0032823363 -0.00096896553
0.0031276119 -0.0018552336 -0.0024043103
-0.0026537315 0.0032823363 -0.00096896553
0.0052126865 -0.0027114952 -1.2068966e-05
0.0026537315 -0.0049948595 0.0027629309
-0.0051179104 -0.0049948595 0.00046637931
-0.0017059701 0.001569813 -0.0015431035
-0.0036014926 -0.0043288781 -0.0014474138
0.0036962687 -0.0048045791 -0.00029913793
0.00037910449 -0.0014746728 -0.0024043103
0.0032223882 0.0035677569 -0.00096896553
0.0045492537 0.0045191585 -0.0014474138
0.0018955225 -0.0020455138 -0.0024043103
0.0020850745 -0.0032823363 -0.00049051724
0.0030328359 -0.0010941121 -0.0024043103
-0.0055917911 0.0032823363 -0.0010646551
0.00085298507 -0.0034726167 -0.0015431035
-0.00028432836 -0.0049948595 0.0021887932
-0.0024641792 -0.0050899996 0.0022844828
-0.0018007463 -0.0034726167 -0.0015431035
0.0060656718 0.0011892522 -0.0010646551
0.00028432836 -0.00071355136 -0.00029913793
0.0020850745 0.0029969157 -0.0015431035
0.0026537315 -0.0031871961 -0.0022129309
-0.0048335823 -0.0043288781 -0.00068189658
-0.00056865672 0.0041385978 -0.0015431035
0.0042649256 -0.0041385978 -0.00096896553
0.0036014926 0.0032823363 -0.0014474138
-0.00028432836 -0.002616355 -0.0024043103
-0.005402239 -0.0048997193 -0.00087327586
-0.0027485075 -0.00071355136 -0.00049051724
-0.005307463 0.00042813082 -0.00096896553
-0.003885821 0.0017600934 -0.00096896553
0.00066343287 -0.00071355136 -0.0021172413
0.0031276119 -0.0034726167 -0.0015431035
0.0052126865 -0.0037580372 -0.00096896553
-0.00066343287 0.00090383174 -0.0015431035
0.00028432836 0.0038531774 -0.0015431035
0.0022746269 -0.0042337379 -0.00087327586
-0.00085298507 -0.0034726167 -0.0015431035
0 -0.0050899996 -0.00020344827
-0.0047388058 0.0031871961 -0.0015431035
-0.0026537315 -0.00071355136 -0.00077758619
0.0042649256 -0.0016649532 -0.00010775862
-0.0045492537 -0.00071355136 -0.00077758619
0.0050231344 -0.0033774765 -0.0015431035
0.005307463 -0.0048997193 -0.00049051724
-0.0021798508 0.0018552336 -0.0015431035
-0.0032223882 -0.0029969157 -1.2068966e-05
0.0045492537 -0.0042337379 -0.00087327586
0.0027485075 0.0037580372 -0.00096896553
-0.00028432836 -0.0048045791 0.0023801725
-0.0037910449 0.0040434576 -0.00096896553
-0.0022746269 -0.0049948595 -0.0011603448
0.0063499999 -0.0024260746 -0.0020215518
0.0031276119 0.00080869155 -0.00096896553
0.0019902985 4.7570091e-05 -0.0015431035
-0.0021798508 0.0023309344 -0.00096896553
-0.0032223882 -0.002140654 -1.2068966e-05
0.0061604478 -0.0029017755 -0.0020215518
0.0051179104 0.00042813082 -0.00096896553
-0.0011373134 0.0029969157 -0.0015431035
0.0036014926 -0.0016649532 -1.2068966e-05
-0.0029380599 0.0013795326 -0.0015431035
-0.0049283584 0.00090383174 -0.00096896553
-0.0051179104 -0.0018552336 -1.2068966e-05
-0.0050231344 -0.0033774765 -0.0015431035
0.0035067166 0.0045191585 -0.00096896553
0.0031276119 -0.00071355136 -0.00020344827
-0.0032223882 0.0024260746 -0.00096896553
-0.003980597 0.00052327098 -0.0015431035
-0.0028432836 -0.0022357942 -0.0024043103
0.0054970151 0.0039483174 -0.0011603448
0.0049283584 -0.0044240183 -0.00020344827
0.0022746269 -0.0049948595 -0.0010646551
-0.003885821 -0.0048045791 -0.00010775862
-0.0029380599 -0.00071355136 -0.0020215518
-0.0017059701 0.00042813082 -0.0015431035
0.00094776123 0.00061841117 -0.0015431035
0.005307463 -0.001569813 -0.0024043103
-0.0037910449 0.0028066353 -0.00096896553
0.0020850745 0.0041385978 -0.00096896553
-0.0044544777 -0.0032823363 -0.0003948276
-0.0036962687 -0.0023309344 -0.00020344827
0.0012320896 -0.00061841117 -0.0016387932
-0.0052126865 -4.7570091e-05 -0.00096896553
0.0049283584 -0.0049948595 0.0019017241
-0.0024641792 -0.0044240183 0.00075344829
0.0049283584 0.00014271027 -0.0015431035
-0.00085298507 -0.0017600934 -1.2068966e-05
0.0050231344 -0.0011892522 -1.2068966e-05
-0.0036014926 0.0022357942 -0.0015431035
-0.005307463 -0.0048045791 8.3620689e-05
0.0013268657 0.0045191585 -0.0014474138
-0.0030328359 -0.0032823363 -0.0021172413
0.0040753731 -0.00023785046 -0.0015431035
0.0028432836 0.0049948595 -0.0014474138
9.4776122e-05 -0.0029969157 -1.2068966e-05
-0.0048335823 -0.0049948595 -0.00068189658
-0.00037910449 -0.0048045791 -0.0013517241
0.00018955224 0.0013795326 -0.0015431035
0.00094776123 -0.0024260746 -1.2068966e-05
-0.0042649256 0.00090383174 -0.0015431035
-0.0015164179 -0.0050899996 -0.00049051724
-0.0037910449 0.0011892522 -0.00096896553
-0.0027485075 -0.0046142987 -0.0014474138
-0.00075820897 0.0028066353 -0.00096896553
-0.00075820897 -0.00033299063 -0.00096896553
0.0052126865 0.00023785046 -0.0014474138
-0.0041701491 -0.00071355136 -0.0017344827
-0.005307463 -0.0016649532 -0.0023086206
0.0010425373 0.00033299063 -0.0015431035
-0.0042649256 -0.0031871961 -0.00077758619
-0.0034119403 0.0028066353 -0.00096896553
-0.00066343287 -0.00023785046 -0.00096896553
0.003980597 0.00052327098 -0.0015431035
-0.0021798508 0.0017600934 -0.0015431035
0.0010425373 -0.0028066353 -1.2068966e-05
0.0016111941 -0.0016649532 -1.2068966e-05
-0.00056865672 -0.0038531774 -0.00096896553
-0.0011373134 -0.0011892522 -0.0024043103
9.4776122e-05 -0.00071355136 -0.00020344827
-0.0049283584 -0.0031871961 -0.0024043103
-0.0050231344 -0.0043288781 -0.00020344827
-0.00047388062 -0.00071355136 -0.0018301724
-0.0042649256 0.0018552336 -0.00096896553
0.0033171643 -0.00090383174 -0.0024043103
-0.0024641792 -0.0032823363 -0.00049051724
0.0012320896 -0.0043288781 -0.0014474138
-0.0020850745 0.00014271027 -0.0015431035
0.0018007463 -0.0014746728 -0.0024043103
0.0018007463 -0.00099897187 -0.0024043103
0.0029380599 -0.0043288781 -0.00068189658
0.0042649256 -0.0043288781 -0.0003948276
0.0043597016 0.0012843924 -0.0014474138
0.0022746269 0.0020455138 -0.0014474138
-0.0025589552 0.0045191585 -0.0014474138
0.0051179104 -0.0049948595 -0.0003948276
-0.0036962687 -0.0050899996 -0.00077758619
0.0027485075 -0.00071355136 -0.0018301724
0.0017059701 -0.0020455138 -0.0024043103
0.0026537315 -0.0018552336 -0.0024043103
0.003885821 0.0019503738 -0.0015431035
-0.0011373134 -0.00042813082 -0.0015431035
0.0060656718 -0.0030920559 -0.00077758619
0.0042649256 -0.0014746728 -1.2068966e-05
-0.00094776123 -0.0040434576 -0.0015431035
0.0045492537 -0.0037580372 -0.0014474138
9.4776122e-05 -0.0033774765 -0.00096896553
-0.0056865672 0.0018552336 -0.00096896553
-0.0031276119 -4.7570091e-05 -0.00096896553
0.0023694029 0.001569813 -0.0015431035
-0.0043597016 0.0025212148 -0.00096896553
-0.0034119403 0.0017600934 -0.00096896553
0.00056865672 -0.0047094389 -1.2068966e-05
0.0052126865 0.00042813082 -0.00096896553
0.0048335823 -0.00071355136 -0.0023086206
0.00085298507 -0.0043288781 -0.0014474138
0.0048335823 -0.0020455138 -1.2068966e-05
0.0031276119 0.0023309344 -0.0015431035
0.0051179104 0.0029017755 -0.0014474138
-0.0055917911 -0.002616355 -1.2068966e-05
-0.0044544777 0.0013795326 -0.0015431035
0.0022746269 -0.0029017755 -0.0023086206
0.0049283584 -0.0031871961 -0.0022129309
0.0049283584 0.0016649532 -0.00096896553
-0.0041701491 -0.0031871961 -0.0024043103
-0.003980597 0.0013795326 -0.0015431035
0.0045492537 -0.0038531774 -0.00096896553
0.0063499999 -0.0018552336 -0.0011603448
-0.0027485075 -0.0044240183 0.00075344829
0.0055917911 0.0016649532 -0.0014474138
0.0029380599 0.0034726167 -0.00096896553
-0.0018955225 0.00080869155 -0.0015431035
0.0057813432 -0.00080869155 -1.2068966e-05
-0.0018955225 0.0031871961 -0.0014474138
0.0052126865 -0.0042337379 -0.0013517241
-0.003980597 -0.003662897 -0.0015431035
-0.0057813432 -0.00042813082 -0.00096896553
-0.00018955224 -0.0038531774 -0.00096896553
-0.0032223882 0.0039483174 -0.0014474138
-0.0050231344 -0.0032823363 -0.0024043103
-0.0010425373 -0.0019503738 -1.2068966e-05
-0.0045492537 -0.00014271027 -0.00096896553
-0.005402239 0.0042337379 -0.0012560345
-0.0045492537 0.0019503738 -0.00096896553
0.0020850745 0.0012843924 -0.0015431035
0.0061604478 -0.0018552336 -0.0023086206
-0.0047388058 -0.0047094389 0.0019974138
0.0018007463 0.00014271027 -0.00096896553
-0.0060656718 0.00061841117 -0.00096896553
-0.00066343287 -0.00042813082 -0.00096896553
-0.0058761197 0.0014746728 -0.0014474138
-0.0023694029 -0.0049948595 0.0026672413
-0.00056865672 0.0020455138 -0.0015431035
0.0030328359 0.0017600934 -0.0014474138
0.0054970151 -0.00080869155 -0.0023086206
0.0018007463 -0.0016649532 -0.0024043103
0.0035067166 0.0025212148 -0.00096896553
0.0048335823 -0.0029017755 -1.2068966e-05
0.00056865672 -0.0040434576 -0.0015431035
0.0035067166 -0.00042813082 -0.00096896553
0.0021798508 -0.0023309344 -1.2068966e-05
0.0040753731 0.0011892522 -0.0014474138
0.0041701491 -0.00071355136 -0.0024043103
0.0043597016 0.0012843924 -0.00096896553
-0.00094776123 -0.003662897 -0.00096896553
-0.0051179104 0.0020455138 -0.0015431035
0.0043597016 0.0014746728 -0.00096896553
-0.00085298507 -0.0033774765 -0.0015431035
-0.0041701491 -0.00052327098 -0.00096896553
-0.0013268657 0.00090383174 -0.0015431035
-0.0018955225 0.0014746728 -0.00096896553
0.005307463 -0.0031871961 -0.00058620691
-0.0047388058 -0.0043288781 -0.00020344827
0.00028432836 -0.0050899996 -0.00068189658
-0.0027485075 -0.002616355 -1.2068966e-05
-0.0020850745 0.0010941121 -0.00096896553
0.0029380599 -0.0048045791 8.3620689e-05
0.0032223882 0.00080869155 -0.00096896553
0.0018007463 0.0020455138 -0.00096896553
-0.00028432836 -0.0031871961 -0.0018301724
0.0048335823 -0.0047094389 0.0011362069
0.0041701491 0.0024260746 -0.0015431035
0.0054970151 0.002616355 -0.0014474138
0.0030328359 -0.0012843924 -1.2068966e-05
0.0047388058 0.00090383174 -0.00096896553
-0.0054970151 0.0037580372 -0.0012560345
-0.0018955225 -0.0050899996 -0.00087327586
-0.0022746269 -0.0046142987 0.0022844828
-0.00085298507 -0.0039483174 -0.0015431035
-0.0023694029 -0.0043288781 -0.00020344827
-0.005402239 0.0017600934 -0.00096896553
0.0042649256 0.0032823363 -0.0014474138
0.0058761197 0.0011892522 -0.00096896553
-0.003980597 -0.00080869155 -0.00020344827
-0.0059708958 -0.0033774765 -0.00029913793
-0.0018007463 -0.0045191585 -0.0014474138
0.0035067166 -0.00071355136 -0.0020215518
0.0025589552 -0.0023309344 -0.0024043103
0.0029380599 -0.00071355136 -0.00077758619
0.0057813432 -0.0037580372 -0.00096896553
0.0052126865 -0.0048997193 0.0019017241
-0.0060656718 -0.0029017755 -0.0018301724
-0.00037910449 0.002616355 -0.0015431035
0.0054970151 0.001569813 -0.0015431035
0.00018955224 -0.0033774765 -0.00096896553
0.0016111941 -0.00090383174 -1.2068966e-05
-0.0015164179 -0.00052327098 -0.00087327586
-0.0034119403 0.0046142987 -0.0014474138
9.4776122e-05 0.0031871961 -0.0015431035
-0.0011373134 0.0028066353 -0.00096896553
0.0051179104 -0.00071355136 -1.2068966e-05
0.0052126865 -0.00099897187 -0.0024043103
0.0029380599 -0.002616355 -0.0024043103
-9.4776122e-05 -0.00090383174 -1.2068966e-05
-0.00018955224 -0.0035677569 -0.0015431035
0.0027485075 0.002616355 -0.00096896553
-0.0015164179 0.00080869155 -0.0015431035
0.0037910449 0.0028066353 -0.0015431035
-0.0046440298 0.0034726167 -0.00096896553
-0.0018007463 -0.0031871961 -1.2068966e-05
0.00028432836 0.0050899996 -0.0012560345
-0.00075820897 -0.0016649532 -0.0024043103
-0.0042649256 0.0045191585 -0.0010646551
-0.0061604478 -0.0030920559 -0.0010646551
-0.0062552239 -0.00080869155 -0.00096896553
0.00085298507 -0.00071355136 -0.0003948276
-0.0040753731 -0.0033774765 -0.00029913793
0.0018007463 -0.00071355136 -0.0018301724
-0.005307463 -0.0048997193 8.3620689e-05
0.0060656718 -0.0028066353 -0.0020215518
-0.0025589552 -0.0050899996 0.00037068967
0.003885821 0.00033299063 -0.0015431035
0.00085298507 -0.0033774765 -0.00096896553
9.4776122e-05 0.0011892522 -0.00096896553
0.0020850745 0.0046142987 -0.0014474138
0.005402239 -0.0028066353 -1.2068966e-05
-0.0023694029 -0.0037580372 -0.00096896553
0.0062552239 -0.0028066353 -0.0020215518
9.4776122e-05 -0.0031871961 -0.0022129309
0.0052126865 -0.0017600934 -0.0024043103
0.0047388058 -0.0046142987 -1.2068966e-05
-0.0058761197 0.0010941121 -0.00096896553
0.0056865672 -0.0023309344 -0.00010775862
-0.0062552239 -0.0019503738 -0.00096896553
-0.0047388058 0.0043288781 -0.0014474138
0 0.00071355136 -0.00096896553
-0.0036014926 -0.0018552336 -0.00020344827
0.00066343287 0.003662897 -0.0015431035
0.0034119403 -0.0030920559 -0.0022129309
0.005402239 -0.00071355136 -0.00077758619
0.0031276119 -0.002140654 -0.0024043103
0.0063499999 -0.0022357942 -0.00068189658
0.0051179104 -0.0044240183 0.0018060345
-0.0011373134 0.0022357942 -0.00096896553
0.003980597 -0.0041385978 -0.00096896553
0.003980597 0.00080869155 -0.00096896553
-0.0012320896 0.0045191585 -0.0014474138
0.0054970151 -0.00033299063 -0.0015431035
0.0048335823 -0.0040434576 -0.0014474138
-0.0014216418 -0.0032823363 -0.00020344827
0.0043597016 0.0048045791 -0.00096896553
0.0036962687 -0.0035677569 -0.00096896553
-0.0050231344 -0.0050899996 0.0012318966
-0.0020850745 0.0034726167 -0.0014474138
-0.005307463 0.0012843924 -0.0015431035
-0.0014216418 0.0034726167 -0.00096896553
0.0047388058 4.7570091e-05 -0.0015431035
0.0037910449 0.0017600934 -0.0015431035
-0.0014216418 -0.003662897 -0.00096896553
0.0022746269 -0.0050899996 -0.00068189658
0.0034119403 -0.0048997193 -0.0011603448
-0.0052126865 0.0028066353 -0.0014474138
-0.0016111941 -0.0031871961 -0.0024043103
-0.0058761197 -0.0012843924 -0.00020344827
0.0054970151 -0.0031871961 -0.00058620691
0.0021798508 -0.0020455138 -0.0024043103
0.0036014926 -0.00061841117 -0.0017344827
-9.4776122e-05 0.0022357942 -0.0015431035
0.0035067166 0.0031871961 -0.00096896553
-0.0033171643 0.0044240183 -0.0014474138
0.0041701491 -0.0023309344 -0.00020344827
0.00028432836 0.0022357942 -0.00096896553
0.0046440298 0.00042813082 -0.0014474138
-0.0016111941 0.0048997193 -0.0014474138
0.00066343287 0.0017600934 -0.0015431035
0.005402239 4.7570091e-05 -0.00096896553
0.0014216418 0.0020455138 -0.00096896553
0.0010425373 -0.0043288781 -0.0014474138
-0.00085298507 -0.00033299063 -0.00096896553
0.0061604478 -0.0032823363 -0.00058620691
0.0035067166 -0.0048997193 -0.0012560345
0.0015164179 -0.00080869155 -0.00020344827
-0.0043597016 -0.0028066353 -0.0024043103
0.00094776123 0.00099897187 -0.0015431035
-0.0019902985 0.0025212148 -0.00096896553
-0.0033171643 0.0038531774 -0.0014474138
-0.0032223882 -0.0044240183 -1.2068966e-05
0.0018955225 -0.0025212148 -0.0023086206
0.0049283584 0.00080869155 -0.00096896553
0.0011373134 -0.0034726167 -0.00096896553
-0.0040753731 -0.0034726167 -0.00096896553
-0.0041701491 0.0030920559 -0.00096896553
-0.00085298507 0.0040434576 -0.00096896553
0.00037910449 -0.0032823363 -0.0023086206
-0.0022746269 -0.0047094389 0.0021887932
9.4776122e-05 -0.0050899996 0.00065775862
-0.005402239 -0.0035677569 -0.00096896553
0.0063499999 -0.0014746728 -0.0013517241
-0.0018007463 -0.0043288781 -0.00020344827
-0.0030328359 -0.0029017755 -0.0024043103
-0.0032223882 0.00071355136 -0.00096896553
-0.0034119403 -0.00052327098 -0.00087327586
-0.0041701491 -0.0047094389 -0.0014474138
0.0037910449 -0.00061841117 -0.0017344827
0.0054970151 -0.0029969157 -0.0020215518
-0.00028432836 0.0045191585 -0.0014474138
0.0050231344 -0.0043288781 -0.00058620691
-0.0061604478 -0.0022357942 -0.00029913793
0.0063499999 -0.0014746728 -0.0021172413
0.0055917911 0.0018552336 -0.00096896553
-0.0016111941 0.00099897187 -0.0015431035
-0.003885821 0.00080869155 -0.00096896553
0.003885821 0.0046142987 -0.00096896553
0.0028432836 -0.0032823363 -0.0003948276
0.0044544777 0.0031871961 -0.00096896553
-9.4776122e-05 -0.0041385978 -0.00087327586
0.0029380599 -0.0014746728 -0.0024043103
-0.003885821 -0.0010941121 -0.00020344827
0.0019902985 0.0049948595 -0.0014474138
-0.0048335823 -0.0045191585 0.0021887932
-0.0025589552 0.00042813082 -0.00096896553
0.0063499999 -0.001569813 -0.00096896553
0.0012320896 0.0030920559 -0.00096896553
0.0054970151 -0.0030920559 -0.00087327586
-0.00018955224 0.0013795326 -0.0015431035
-0.0029380599 0.00023785046 -0.0015431035
0.005307463 -0.0045191585 0.00065775862
0.0019902985 0.0023309344 -0.00096896553
0.0018007463 0.0028066353 -0.0015431035
0.0018955225 -0.0037580372 -0.0015431035
-0.0058761197 -0.0022357942 -0.0023086206
0.0028432836 -0.002140654 -1.2068966e-05
-0.0050231344 -0.0049948595 0.00075344829
-0.0028432836 -0.0045191585 0.0012318966
-0.0057813432 -0.0031871961 -0.0016387932
0.0029380599 -0.0045191585 -0.0013517241
-0.00094776123 -0.0046142987 -0.00010775862
0.0036014926 -0.00071355136 -0.00058620691
0.0021798508 0.001569813 -0.00096896553
0 -0.00071355136 -0.0023086206
-0.0036962687 0.00052327098 -0.0015431035
0.0044544777 0.0013795326 -0.00096896553
-0.0025589552 0.0022357942 -0.0015431035
0.0014216418 -0.0049948595 -0.0010646551
-0.0019902985 -0.002140654 -0.0024043103
0.0050231344 -0.0044240183 -0.00020344827
0.0031276119 0.003662897 -0.00096896553
0.0056865672 -0.0028066353 -0.00077758619
-0.0043597016 -0.00071355136 -0.0022129309
0.005307463 -0.0042337379 -0.0013517241
-0.00056865672 -0.0024260746 -0.0024043103
-0.003885821 0.0040434576 -0.0014474138
0.0020850745 -0.0045191585 -1.2068966e-05
-0.0035067166 0.00090383174 -0.0015431035
0.00066343287 0.0045191585 -0.00096896553
0.0037910449 -0.0049948595 -0.00029913793
0.0051179104 -0.0032823363 -1.2068966e-05
0.0060656718 -0.0032823363 -0.00068189658
0.0047388058 -0.0032823363 -0.0015431035
-0.0013268657 -0.0043288781 -0.0003948276
0.0055917911 0.0011892522 -0.0014474138
0.0033171643 0.0034726167 -0.0015431035
-0.0032223882 0.0020455138 -0.00096896553
0.0024641792 -0.00071355136 -0.0024043103
0.00085298507 -0.0042337379 -0.00077758619
0.0043597016 0.0050899996 -0.00096896553
0.0031276119 -0.00023785046 -0.00096896553
-0.0028432836 -0.0048045791 0.0012318966
-0.0036014926 -0.0032823363 -0.00096896553
-0.0055917911 0.0032823363 -0.0012560345
-0.0016111941 0.0013795326 -0.0015431035
0.0063499999 -0.0017600934 -0.0021172413
-0.0025589552 0.0048045791 -0.0014474138
0.0025589552 -0.0017600934 -0.0024043103
-0.0010425373 0.0029969157 -0.0015431035
-0.0054970151 -0.001569813 -0.00020344827
-0.0048335823 -0.00061841117 -0.00087327586
-0.005402239 -0.00042813082 -0.00096896553
-0.0012320896 0.0041385978 -0.0014474138
-0.0016111941 -0.00071355136 -0.00077758619
-0.0032223882 -0.0013795326 -0.0024043103
-0.005307463 -0.0048997193 0.0023801725
-0.00018955224 -0.0011892522 -0.0024043103
-0.0050231344 -0.0042337379 -0.00077758619
0.005307463 0.0016649532 -0.0015431035
-0.0037910449 0.0023309344 -0.00096896553
0.0056865672 -0.0045191585 -0.00087327586
-0.0011373134 -0.0029017755 -0.00020344827
0.0011373134 -0.0024260746 -0.00020344827
-0.0031276119 0.0031871961 -0.00096896553
-0.0022746269 -0.0047094389 0.0011362069
-0.0036014926 -0.002616355 -0.0023086206
0.0044544777 -0.003662897 -0.00096896553
0.0016111941 -0.0032823363 -0.00020344827
-0.0059708958 -0.0032823363 -0.0020215518
-0.0054970151 0.0032823363 -0.00096896553
-0.0012320896 -0.0049948595 -0.00096896553
0.0042649256 0.0022357942 -0.00096896553
-0.0046440298 0.0011892522 -0.00096896553
0.0049283584 -0.0029017755 -0.0017344827
-0.0030328359 0.0012843924 -0.00096896553
-0.0056865672 -0.0039483174 -0.0014474138
-0.0052126865 -0.0050899996 0.0021887932
0.0030328359 0.0049948595 -0.0014474138
-0.0033171643 0.0042337379 -0.00096896553
0.0037910449 0.0029969157 -0.0014474138
0.0023694029 -0.0049948595 0.00094482757
0.00028432836 -0.0048045791 0.00094482757
-0.0035067166 0.0047094389 -0.0014474138
0.0029380599 -0.0040434576 -0.00096896553
-0.00037910449 -0.0028066353 -0.0024043103
-0.00018955224 0.002140654 -0.00096896553
-0.0022746269 0.0011892522 -0.0015431035
9.4776122e-05 -0.0048045791 -0.0013517241
0.0037910449 0.001569813 -0.0014474138
0.0012320896 0.0042337379 -0.0015431035
0.0018955225 -0.00023785046 -0.00096896553
0.0022746269 -0.0048045791 -0.0012560345
-9.4776122e-05 -0.0050899996 -0.00087327586
0.0052126865 -0.00080869155 -0.0024043103
0.00056865672 -0.00099897187 -0.0024043103
0.0029380599 0.0028066353 -0.00096896553
-0.00028432836 -0.0047094389 0.0014232759
-0.0018007463 -0.0025212148 -0.0024043103
-0.0052126865 0.0027114952 -0.0015431035
-0.003980597 0.0028066353 -0.00096896553
0.0055917911 0.0014746728 -0.00096896553
-0.0025589552 -0.0050899996 -0.00020344827
0.003885821 -0.0043288781 -0.0013517241
0.0029380599 -0.0032823363 -0.00058620691
-0.0061604478 -0.0029017755 -0.0014474138
0.0059708958 -0.0028066353 -0.001925862
-0.0043597016 -0.0050899996 -0.0003948276
-0.0059708958 -0.0032823363 -0.00096896553
0.0055917911 -0.0038531774 -0.0014474138
0.0019902985 0.0031871961 -0.0015431035
-0.0028432836 -0.00071355136 -0.00058620691
0.00085298507 0.0046142987 -0.0014474138
0.00075820897 0.0013795326 -0.0015431035
0.0057813432 0.002616355 -0.0013517241
0.0023694029 -0.0017600934 -1.2068966e-05
0.0026537315 0.0035677569 -0.00096896553
-0.0062552239 -0.0011892522 -0.0018301724
0.0050231344 4.7570091e-05 -0.00096896553
0.0041701491 -0.0040434576 -0.0014474138
0.00085298507 -0.002140654 -0.0024043103
0.0045492537 -0.0011892522 -0.0024043103
0.0049283584 -0.0044240183 0.0015189655
-0.0059708958 0.001569813 -0.0010646551
-9.4776122e-05 -0.00080869155 -0.00010775862
0.00085298507 0.0010941121 -0.0015431035
-0.00056865672 -0.001569813 -0.0024043103
0.0022746269 -0.0022357942 -1.2068966e-05
0.0012320896 -0.00071355136 -0.0018301724
0.0060656718 -0.0010941121 -0.00010775862
-0.0022746269 -0.0050899996 0.0014232759
0.0036014926 -0.00014271027 -0.00096896553
0.0032223882 0.0011892522 -0.00096896553
-0.0027485075 -0.0048997193 0.00056206895
-0.0050231344 0.0019503738 -0.0015431035
0.0026537315 -0.0014746728 -1.2068966e-05
-0.0040753731 0.0048045791 -0.0010646551
0.0062552239 -0.0031871961 -0.0011603448
-0.0062552239 -0.0022357942 -0.0012560345
0.0025589552 0.0034726167 -0.0015431035
0.0063499999 -0.0011892522 -0.0018301724
-0.00094776123 -0.0047094389 -1.2068966e-05
0.0046440298 0.0041385978 -0.00096896553
0.0049283584 -0.0020455138 -0.0024043103
0.0052126865 -4.7570091e-05 -0.0015431035
0.0036962687 -0.0044240183 -0.00020344827
0.0061604478 -0.0019503738 -0.00020344827
-0.0054970151 -0.0013795326 -0.0023086206
0.00028432836 -0.0049948595 0.0017103448
0.00047388062 0.0024260746 -0.00096896553
0.00028432836 -0.0018552336 -0.0024043103
-0.0029380599 -0.00014271027 -0.0015431035
0.0043597016 0.0046142987 -0.00096896553
0.0016111941 0.002616355 -0.00096896553
0.0045492537 -0.0045191585 -0.00020344827
-0.0010425373 -0.0034726167 -0.00096896553
0.0047388058 -0.0049948595 -0.00049051724
0.0034119403 -0.00080869155 -0.0024043103
0.0057813432 -0.0020455138 -1.2068966e-05
0.0013268657 -0.0024260746 -0.00020344827
-0.0015164179 -0.0031871961 -0.00010775862
0.00094776123 -0.0038531774 -0.0015431035
-0.0052126865 -0.0050899996 -1.2068966e-05
0.0040753731 0.001569813 -0.00096896553
0.0027485075 -0.00042813082 -0.00096896553
0.00047388062 -0.0042337379 -0.00077758619
-0.0019902985 -0.00023785046 -0.0015431035
0.0059708958 -0.00014271027 -0.00096896553
0.0035067166 -0.0047094389 -1.2068966e-05
0.0018955225 0.00071355136 -0.00096896553
0.0050231344 -0.00071355136 -0.00049051724
-0.0047388058 0.0048997193 -0.0012560345
-0.0052126865 0.0018552336 -0.0015431035
0.0042649256 -0.0022357942 -1.2068966e-05
-0.0059708958 -0.0038531774 -0.00096896553
0.0025589552 0.0035677569 -0.00096896553
-0.0019902985 -0.00071355136 -0.00049051724
-0.0012320896 0.0033774765 -0.0015431035
-0.00056865672 -0.0012843924 -0.0024043103
-0.0025589552 -0.0048997193 0.0027629309
0.00018955224 -0.00071355136 -0.0018301724
-0.0050231344 -0.00080869155 -0.001925862
-0.0015164179 -0.0029017755 -0.0024043103
0.00018955224 -0.0044240183 0.0019017241
0.0056865672 -0.0028066353 -0.0022129309
-0.005307463 -0.0033774765 -0.00029913793
-0.0051179104 0.0033774765 -0.00096896553
0.0021798508 -0.0020455138 -1.2068966e-05
0.00018955224 -0.0013795326 -1.2068966e-05
-0.00066343287 -0.00071355136 -0.0024043103
-0.003980597 0.00014271027 -0.0015431035
0.0014216418 0.0035677569 -0.00096896553
-0.0035067166 -0.0032823363 -0.001925862
0.0037910449 4.7570091e-05 -0.0015431035
-0.0052126865 -0.0049948595 -0.00058620691
0.0057813432 0.002616355 -0.0012560345
-0.0026537315 0.0018552336 -0.0015431035
0.00037910449 4.7570091e-05 -0.0015431035
0.0062552239 -0.0028066353 -0.00077758619
0.0040753731 -0.0016649532 -0.0023086206
-0.00028432836 0.0049948595 -0.0014474138
0.0028432836 -0.0048045791 0.00094482757
-0.0059708958 -0.00080869155 -0.0018301724
0.0047388058 -0.0023309344 -1.2068966e-05
0.0013268657 -0.0032823363 -0.00068189658
-0.0029380599 -0.00071355136 -0.00077758619
0.0010425373 -0.0016649532 -1.2068966e-05
-0.0055917911 -0.0041385978 -0.00087327586
-0.0050231344 0.0010941121 -0.0015431035
0.0021798508 0.0027114952 -0.00096896553
-0.0041701491 -0.00071355136 -0.0018301724
0.0015164179 -0.0047094389 -0.00020344827
0.0058761197 -0.0012843924 -1.2068966e-05
0.0043597016 -0.0028066353 -0.00010775862
-0.0011373134 -4.7570091e-05 -0.00096896553
0.0051179104 0.0046142987 -0.00096896553
-0.0013268657 -0.0050899996 -0.00020344827
-0.0036014926 0.003662897 -0.0014474138
0.0026537315 -0.0048997193 0.0027629309
-0.00075820897 -0.0014746728 -0.0024043103
0.003885821 -0.0050899996 -0.00029913793
-0.00018955224 -0.0045191585 0.0020931035
0.0024641792 -0.0027114952 -1.2068966e-05
-0.0036962687 -0.0014746728 -0.0023086206
0.0028432836 -0.0048045791 0.0018060345
-0.00018955224 -0.0047094389 0.00056206895
0.0063499999 -0.0029017755 -0.0003948276
-0.0031276119 -0.0050899996 -0.0011603448
-0.0036962687 -0.0033774765 -0.00096896553
-0.0044544777 0.0010941121 -0.00096896553
0.0023694029 -0.0024260746 -0.0024043103
0.0025589552 -0.0011892522 -0.0024043103
-0.0012320896 -0.0033774765 -0.00029913793
-0.0018007463 -0.0032823363 -0.00010775862
0 4.7570091e-05 -0.00096896553
-0.00094776123 0.0034726167 -0.00096896553
0.0049283584 0.0038531774 -0.0014474138
-0.0034119403 0.0031871961 -0.0014474138
-0.0047388058 0.00080869155 -0.0015431035
0.00056865672 0.0044240183 -0.0014474138
-0.0030328359 -0.0032823363 -0.0015431035
-0.003885821 0.00023785046 -0.00096896553
-0.0033171643 0.0014746728 -0.00096896553
-0.0029380599 0.00023785046 -0.00096896553
-0.00037910449 0.0045191585 -0.00096896553
-0.003980597 -0.0018552336 -0.00020344827
-0.0047388058 -0.0031871961 -0.00077758619
0.0022746269 0.0022357942 -0.00096896553
-0.00028432836 -0.00071355136 -0.0024043103
0.0033171643 -0.0031871961 -0.0018301724
0.0052126865 -0.0019503738 -0.0024043103
0.0026537315 -0.0016649532 -1.2068966e-05
-0.0052126865 -0.0023309344 -0.0024043103
-0.0010425373 -0.0032823363 -0.001925862
0.0034119403 0.0016649532 -0.00096896553
9.4776122e-05 -0.001569813 -1.2068966e-05
0.0044544777 -0.0050899996 -0.00068189658
0.00047388062 -0.0044240183 -0.0014474138
-0.0016111941 -0.00071355136 -0.0018301724
-0.003980597 0.0041385978 -0.0014474138
0.0027485075 -0.0045191585 0.0011362069
0.0049283584 -0.0045191585 0.0018060345
-0.00018955224 0.0022357942 -0.0015431035
-0.0030328359 4.7570091e-05 -0.00096896553
0.0036014926 0.0048997193 -0.00096896553
0.0020850745 -0.0025212148 -1.2068966e-05
0.005402239 0.0013795326 -0.00096896553
0.0025589552 0.0027114952 -0.00096896553
0.0048335823 -0.0031871961 -0.0021172413
0.00047388062 -0.00071355136 -0.00010775862
0.0013268657 -0.0044240183 -0.0014474138
-0.0018007463 0.0029017755 -0.00096896553
-0.00056865672 0.001569813 -0.0015431035
-0.00056865672 0.0012843924 -0.00096896553
0.0062552239 -0.00099897187 -0.0020215518
0.0028432836 -0.0049948595 0.0018060345
-0.0036014926 -0.0038531774 -0.00096896553
0.0037910449 -0.0043288781 -0.00058620691
0.0017059701 -0.0022357942 -0.0024043103
-0.00056865672 -0.0043288781 -0.00058620691
0.0055917911 0.0014746728 -0.0015431035
0.0045492537 0.0031871961 -0.00096896553
-0.0029380599 -0.0024260746 -0.0024043103
-0.0033171643 0.0010941121 -0.00096896553
-0.0020850745 4.7570091e-05 -0.00096896553
0.0031276119 -0.0048997193 -0.0012560345
-0.0052126865 -0.0016649532 -1.2068966e-05
0.0018007463 -0.0032823363 -0.00068189658
-0.00028432836 -0.0032823363 -0.00049051724
-0.0017059701 -0.0044240183 -0.00077758619
0.0018007463 -0.00033299063 -0.00096896553
-0.0055917911 -0.0043288781 -0.0013517241
-0.0051179104 -0.0038531774 -0.00096896553
0.005307463 -0.0029017755 -0.0016387932
-0.0057813432 -0.0029969157 -0.0023086206
-0.0021798508 -0.0043288781 -0.00010775862
0.005402239 -0.001569813 -0.0024043103
-0.003980597 -0.00071355136 -0.00020344827
-0.0026537315 -0.0031871961 -0.00058620691
0.0035067166 -0.0050899996 -0.0003948276
0.0058761197 -0.0018552336 -1.2068966e-05
0.0057813432 -0.0029017755 -0.0022129309
0.0047388058 -0.0043288781 -0.0013517241
0.0036962687 -0.0049948595 -0.00029913793
-0.0026537315 -0.0029969157 -0.0024043103
0.0047388058 -0.0033774765 -0.0015431035
-0.0035067166 0.00052327098 -0.0015431035
-0.00018955224 0.0042337379 -0.0015431035
0.0024641792 -0.0043288781 0.00065775862
-0.0025589552 -0.0029017755 -1.2068966e-05
-0.0022746269 -0.0048045791 0.0014232759
0.0013268657 -0.0042337379 -0.00087327586
0.0018007463 0.0017600934 -0.00096896553
0.0049283584 -0.0016649532 -0.0024043103
0.0027485075 -0.0030920559 -1.2068966e-05
-0.0062552239 0.00033299063 -0.0010646551
-0.0035067166 0.00023785046 -0.0015431035
0.00066343287 0.003662897 -0.00096896553
0.0019902985 -0.0028066353 -1.2068966e-05
0.0024641792 0.00023785046 -0.0015431035
-0.0043597016 -0.0030920559 -0.001925862
-0.00094776123 -0.00071355136 -0.00049051724
-0.0031276119 0.00014271027 -0.00096896553
-0.0034119403 -0.0022357942 -0.0024043103
0.0055917911 -0.0012843924 -0.0024043103
0.0044544777 -0.00080869155 -1.2068966e-05
0.0023694029 0.00099897187 -0.0015431035
9.4776122e-05 -0.0038531774 -0.00096896553
0.0048335823 0.0013795326 -0.00096896553
-0.0026537315 -4.7570091e-05 -0.0015431035
-0.003885821 -0.0032823363 -0.001925862
-0.00085298507 0.0043288781 -0.00096896553
-0.0023694029 0.0027114952 -0.00096896553
-0.00047388062 0.0045191585 -0.0014474138
-0.00075820897 -0.0045191585 -0.00010775862
0.0058761197 0.0022357942 -0.0010646551
-0.0048335823 0.0017600934 -0.0015431035
0.0025589552 -0.0032823363 -0.00020344827
0.0016111941 -0.0040434576 -0.0015431035
-0.0042649256 -0.0050899996 -0.0010646551
0.0036962687 0.0012843924 -0.00096896553
0.0062552239 -0.00014271027 -0.0012560345
-0.0046440298 -0.0030920559 -0.0024043103
-0.0031276119 0.0028066353 -0.00096896553
0.0034119403 -0.00033299063 -0.0015431035
0.0046440298 0.0047094389 -0.00096896553
-0.0028432836 -0.0048045791 0.00056206895
-0.0054970151 0.0029017755 -0.0015431035
-0.0017059701 0.0043288781 -0.00096896553
0.0055917911 0.00033299063 -0.00096896553
0.0054970151 -0.0030920559 -0.00049051724
0.0015164179 -0.00071355136 -0.00049051724
-0.0046440298 -0.00071355136 -0.0018301724
0 0.0030920559 -0.00096896553
0.0018955225 -0.0014746728 -0.0024043103
-0.0061604478 0.00042813082 -0.00096896553
-0.0028432836 -0.0035677569 -0.0015431035
0.0027485075 0.0034726167 -0.0015431035
-0.0018007463 -0.00042813082 -0.0015431035
-0.0062552239 -0.00099897187 -0.0017344827
0.0037910449 -0.0050899996 -0.00068189658
-0.0027485075 -0.0038531774 -0.0015431035
-0.0048335823 -0.0037580372 -0.00096896553
-0.0025589552 -0.0032823363 -0.0024043103
-0.00085298507 0.0033774765 -0.0015431035
0.0014216418 0.003662897 -0.0015431035
0.0018955225 -0.0050899996 -0.00029913793
0.00037910449 0.0044240183 -0.0015431035
-0.0056865672 -0.0032823363 -0.0015431035
-0.0058761197 -0.0028066353 -1.2068966e-05
-0.0014216418 -0.00071355136 -0.0024043103
-0.0040753731 -0.00052327098 -0.00096896553
0.0035067166 -0.0043288781 -0.00049051724
-0.003980597 -0.00071355136 -0.0023086206
0.003980597 -0.0032823363 -0.0022129309
-0.00028432836 0.0041385978 -0.00096896553
0.0036014926 -0.0014746728 -0.0024043103
-0.0062552239 -0.0010941121 -0.00049051724
-0.0062552239 -0.002140654 -0.001925862
9.4776122e-05 0.0031871961 -0.00096896553
0.0049283584 -0.0049948595 0.0018060345
-0.0057813432 -0.0032823363 -0.0003948276
-0.0051179104 0.0028066353 -0.00096896553
-0.00075820897 0.0017600934 -0.00096896553
-0.0014216418 0.0012843924 -0.0015431035
0.0025589552 -0.0027114952 -0.0024043103
-0.0043597016 0.0010941121 -0.0015431035
0.0056865672 -0.0024260746 -0.0023086206
0.0016111941 0.0031871961 -0.0015431035
-0.0040753731 0.00080869155 -0.0015431035
-0.0052126865 -0.0050899996 -0.00010775862
-0.0034119403 -0.0031871961 -0.00077758619
0.00028432836 -0.0048997193 0.0010405172
-0.00094776123 -0.00090383174 -0.0024043103
0.0036962687 0.0013795326 -0.00096896553
-0.0042649256 0.0029969157 -0.0015431035
0.0024641792 -0.00042813082 -0.00096896553
-0.0049283584 -0.0045191585 0.0016146551
0.0018007463 0.0050899996 -0.00096896553
-0.0043597016 0.0039483174 -0.0014474138
0.00094776123 -0.00033299063 -0.00096896553
0.0018955225 0.0033774765 -0.0015431035
-0.0033171643 -0.0042337379 -0.0014474138
-0.0057813432 -0.0011892522 -0.0022129309
