# .PCD v0.7 - Point Cloud Data file format
VERSION 0.7
FIELDS x y z
SIZE 4 4 4
TYPE F F F
COUNT 1 1 1
WIDTH 1156
HEIGHT 1
VIEWPOINT 0 0 0 1 0 0 0
POINTS 1156
DATA ascii
0.0013727811 -0.0016190476 -0.0018772726
0.00080473372 0.00076190475 0.0021318181
0.0008994083 0.00076190475 -0.0037863636
-0.0025088757 0.0012380952 -0.00025454542
-0.0040236688 0.00019047619 -0.0018772726
-0.0019408284 -0.0015238095 -6.3636333e-05
-0.0056331363 -0.00057142857 -0.0018772726
0.0069585801 -0.00085714285 -0.0043590907
0.0008994083 -0.00085714285 -0.0039772727
0.0071479292 -0.0020000001 -0.0004454545
0.0032662721 -0.00095238094 0.00022272731
0.0075266273 -0.00019047619 -0.0004454545
-0.0031715976 -0.0011428571 -0.0027363636
0.0068639051 0.0012380952 -0.0037863636
0.0052544377 -0.00085714285 -0.00245
-0.0071479292 0.00095238094 0.00041363639
0.00080473372 0.0012380952 0.0020363636
-0.0056331363 0.0017142857 -6.3636333e-05
-0.0048757396 0.00095238094 0.00098636362
0.0056331363 0.00019047619 -0.0018772726
-0.0013727811 0.001047619 -6.3636333e-05
0.0032662721 0.00066666666 -0.00034999996
0.0041183433 -0.0011428571 -0.0018772726
0.0014674556 -0.00085714285 -6.3636333e-05
-0.0056331363 0.00095238094 -6.3636333e-05
-0.0024142012 -0.0020000001 -0.0013045454
0.0071479292 -0.001047619 -0.0037863636
0.0030769231 0.00076190475 -0.0038818181
0.0052544377 0.0020000001 -0.00063636358
0.0038343195 -0.00076190475 -0.0018772726
0.0026982247 0.0020000001 -0.0014
0.0029822486 -0.0011428571 -0.0042636362
-0.0080000004 0.00019047619 -0.0014954545
-0.0030769231 0.00028571428 -0.0019727272
0.00052071008 -0.0012380952 -6.3636333e-05
0.0044970415 0.0018095238 -6.3636333e-05
0.0008994083 -0.00095238094 -0.0046454542
-0.002887574 0.00076190475 -0.0025454545
-0.0067692306 -0.00028571428 -0.0019727272
-0.0008994083 0.0020000001 -0.00054090907
-0.0027928995 -0.0012380952 -0.0050272727
0.004781065 0.0012380952 0.00070000003
-0.0039289943 0.0020000001 -6.3636333e-05
0.0050650886 -0.00076190475 -0.0047409092
-0.0071479292 0.001047619 -0.0025454545
-0.0048757396 0.00076190475 -0.0044545452
0.0008994083 0.0012380952 -0.0039772727
-4.7337278e-05 -0.00095238094 -0.0018772726
-0.002887574 -0.00076190475 0.00060454546
-0.00099408289 -0.00076190475 -0.0050272727
0.00042603549 -0.00057142857 -0.0018772726
0.002887574 -0.00085714285 0.0016545454
0.0013727811 -0.0020000001 -6.3636333e-05
0.00071005919 0.0014285714 -0.0020681818
-0.0067692306 0.0015238095 -0.0017818181
0.0013727811 -0.00095238094 0.00079545454
0.00052071008 -0.00066666666 -0.00034999996
0.00071005919 0.00057142857 -0.0018772726
-0.0053491122 -0.0014285714 -0.0018772726
0.0013727811 0.001047619 -6.3636333e-05
-0.0008994083 -0.0018095238 -0.0018772726
-0.0031715976 -0.00085714285 0.0013681818
-0.002887574 0.00095238094 -0.0023545453
-0.0031715976 -0.00047619047 -0.0019727272
0.006295858 0.00076190475 -0.00015909088
0.0010887574 -0.0020000001 -0.00082727266
0.0034556212 0.0013333333 -0.00034999996
0.004591716 -0.0018095238 -0.0018772726
-0.00052071008 -0.0020000001 -0.00015909088
0.0044023669 -0.0017142857 -6.3636333e-05
-0.00042603549 -0.00095238094 -6.3636333e-05
-0.0023195266 -0.0015238095 -6.3636333e-05
-0.0016568047 0.0018095238 -6.3636333e-05
-0.0013727811 -0.00028571428 -0.00034999996
0.00042603549 0.0020000001 -0.00054090907
-0.0030769231 -0.00076190475 0.00041363639
-0.0068639051 -0.00076190475 0.00041363639
0.002887574 0.0012380952 -0.0033090909
-0.00033136093 -0.0017142857 -6.3636333e-05
0.0043076924 -0.00085714285 -0.0018772726
-0.0027928995 -0.00095238094 -0.0036909091
0.00014201184 -0.0017142857 -0.0018772726
0.0010887574 -0.0012380952 0.00031818185
-4.7337278e-05 -0.0013333333 -0.00015909088
0.0031715976 -0.00076190475 -0.0037863636
0.004591716 -0.0017142857 -0.0018772726
0.004781065 -0.00057142857 -0.00034999996
0.0057278108 -9.5238094e-05 -0.0018772726
0.002887574 0.00076190475 -0.0034999999
0.0033609467 0 -0.0019727272
0.0006153846 -0.0013333333 -0.00015909088
-0.00099408289 -0.0012380952 -0.0032136363
-0.0019408284 0.0015238095 -0.0018772726
0.0036449705 -0.00076190475 -6.3636333e-05
-0.0058224853 -0.0020000001 -0.0012090908
0.0068639051 0.00085714285 0.0024181819
-0.004781065 -0.00085714285 -0.0044545452
0.00080473372 -0.0020000001 -0.00025454542
-0.0011834319 -0.0011428571 0.0021318181
-0.0073372782 0.0019047619 -0.00025454542
0.0048757396 0.0012380952 0.0019409091
0.0048757396 0.001047619 0.0024181819
-0.0022248521 0.00076190475 -0.00025454542
-0.004781065 -0.0017142857 -0.0019727272
0.0024142012 -0.0020000001 -0.00092272722
0.0063905325 0.0015238095 -0.00015909088
0.0031715976 -0.001047619 0.0024181819
0.0080000004 0.00019047619 -0.00054090907
-0.0048757396 0.0017142857 -6.3636333e-05
0.0031715976 -0.00076190475 -0.0050272727
-0.00071005919 0.0020000001 -0.0015909091
-0.0030769231 -0.0012380952 0.00060454546
-0.0050650886 -0.00076190475 -0.0045499997
-0.0011834319 -0.00095238094 -0.0023545453
-0.0048757396 0.00085714285 -0.0051227272
0.0027928995 0.00076190475 0.00079545454
0.00033136093 -0.0020000001 -0.00063636358
-0.0036449705 -0.0020000001 -0.0017818181
-0.003739645 0.0015238095 -6.3636333e-05
-0.00071005919 -0.00085714285 0.0011772728
0.0052544377 -0.00085714285 0.00089090911
-0.0029822486 -0.0011428571 -0.0051227272
-0.0010887574 -0.00076190475 -0.0043590907
-0.0008994083 0.0012380952 -0.00025454542
-0.0031715976 -0.00076190475 -0.0046454542
0.0008994083 0.0012380952 -0.0037863636
0.0011834319 0.001047619 -0.0034045454
-0.0040236688 -0.00076190475 -0.00025454542
-0.00080473372 -0.00076190475 -0.0031181818
-0.0014674556 0.0020000001 -0.0012090908
0.0068639051 -0.001047619 3.1818214e-05
0.0071479292 -0.001047619 -0.0047409092
-0.003739645 -0.00038095238 -0.00034999996
0.0013727811 -9.5238094e-05 -0.00034999996
-0.0059171598 -9.5238094e-05 -0.0018772726
-0.0025088757 0.00057142857 -0.0018772726
0.0058224853 0.00019047619 -0.0018772726
0.003550296 0.0020000001 -0.0014954545
-0.00080473372 -0.00076190475 -0.0038818181
0.0015621302 -0.0020000001 -0.00034999996
-0.00023668639 -0.0015238095 -6.3636333e-05
0.0049704141 0.0011428571 -0.0052181818
0.0056331363 0.0013333333 -0.00034999996
0.0032662721 0.0020000001 -0.0011136363
0.0011834319 -0.001047619 0.0025136364
-0.006485207 0.0015238095 -0.00015909088
0.00023668639 -9.5238094e-05 -0.00034999996
0.0049704141 -0.0011428571 -0.0034045454
-0.0062011834 -0.00076190475 -6.3636333e-05
0.0080000004 0 -0.00082727266
0.0010887574 0.0012380952 0.0013681818
-0.0038343195 0.00076190475 -6.3636333e-05
0.0012781065 0.0011428571 -0.0019727272
0.0063905325 0.0020000001 -0.0004454545
0.004591716 0 -0.0020681818
0.0067692306 0.0011428571 0.00022272731
-0.0057278108 0.00076190475 -0.00015909088
-0.0067692306 -0.0020000001 -0.0014954545
-0.0077159763 -0.0019047619 -0.00073181815
0.0080000004 0.00076190475 -0.00015909088
0.0012781065 -0.00076190475 0.00089090911
-0.0052544377 -0.001047619 -0.0044545452
-0.0060118344 -0.00057142857 -0.00034999996
-0.00099408289 -0.0014285714 -0.00025454542
0.0023195266 -0.001047619 -0.0018772726
-0.0049704141 -0.00076190475 0.0023227273
0.0038343195 0.00076190475 -0.00015909088
0.0071479292 -0.00076190475 -0.0045499997
0.0025088757 0.00028571428 -0.00034999996
0.004591716 -9.5238094e-05 -0.0004454545
0.0071479292 -0.00095238094 0.0012727273
0.0039289943 0.0017142857 -0.0018772726
-0.0050650886 -0.0015238095 -0.0019727272
0.0013727811 -0.00095238094 -0.0030227271
0.00042603549 0.0011428571 -0.0018772726
0.0034556212 -0.00066666666 -0.00034999996
0.00071005919 0.0011428571 0.0019409091
0.0023195266 -0.0020000001 -0.0015909091
-0.0048757396 0.00076190475 -0.0021636363
0.0011834319 0.00095238094 -0.0044545452
0.0030769231 0.0020000001 -0.00073181815
-0.0012781065 0.00066666666 -0.00034999996
-0.0044023669 0.0020000001 -0.00054090907
0.0072426037 0.00095238094 -0.0040727272
0.002035503 -0.00076190475 -0.00025454542
-0.0008994083 0.00076190475 -0.0034045454
0.0048757396 0.0012380952 -0.0032136363
0.0059171598 -0.00085714285 -6.3636333e-05
-0.006295858 -0.0020000001 -0.0014
-0.0036449705 0.0020000001 -0.0014
0.0039289943 0.0011428571 -6.3636333e-05
-0.0036449705 0.0020000001 -0.0014954545
-0.0019408284 0.0013333333 -0.0018772726
0.0069585801 -0.001047619 -0.0023545453
-0.0066745561 0.0012380952 -0.00025454542
0.006295858 -0.0015238095 -0.00015909088
-0.0026035502 0.0020000001 -0.0015909091
0.0053491122 -0.00057142857 -0.0019727272
-0.0070532546 0.0011428571 0.0022272728
0.0046863905 -0.00057142857 -0.0019727272
-0.0029822486 0.001047619 -0.0034045454
0.0008994083 0.0012380952 -0.0022590908
0.0075266273 0.00047619047 -0.0018772726
0.0032662721 -0.0020000001 -0.0014954545
0.00033136093 -0.00066666666 -0.00034999996
-0.0049704141 0.0012380952 0.00012727275
0.0026982247 0.00028571428 -0.00034999996
-0.0027928995 -0.0011428571 -0.0046454542
0.0043076924 -0.0020000001 -0.00063636358
0.006485207 0.0020000001 -0.00025454542
-0.0030769231 0.00019047619 -0.00034999996
-0.0034556212 -0.0013333333 -0.0018772726
-0.0032662721 0.0011428571 0.0013681818
-0.002035503 0.0015238095 -0.0018772726
0.0011834319 -0.00076190475 0.0022272728
-0.0067692306 -0.001047619 0.0012727273
-0.00071005919 0.00057142857 -0.00034999996
0.0074319527 -0.0016190476 -0.0016863636
-0.0023195266 -0.00038095238 -0.00034999996
0.004781065 0.00085714285 -0.002640909
0.0067692306 0.0016190476 -6.3636333e-05
-0.0018461539 0.00047619047 -0.0018772726
0.0015621302 0.00047619047 -0.00034999996
-0.0067692306 -0.001047619 0.0011772728
0.0012781065 -9.5238094e-05 -0.0018772726
-0.0070532546 0.00076190475 0.0010818182
-0.0031715976 0.001047619 -0.0048363637
-0.0052544377 -0.00095238094 -0.0046454542
0.0044970415 -0.0014285714 -0.0018772726
-0.004781065 -0.00095238094 0.0014636364
0.0031715976 -0.001047619 0.00070000003
0.0022248521 -0.001047619 -0.0018772726
-0.00014201184 -0.0012380952 -6.3636333e-05
0.004781065 0.001047619 -0.0034999999
-0.0071479292 -0.0012380952 -0.0040727272
0.0021301776 -0.0011428571 -0.0018772726
-0.0046863905 -0.0011428571 -0.0019727272
0.0073372782 0.0018095238 -6.3636333e-05
0.0050650886 0.0012380952 0.00012727275
0.0013727811 -0.00095238094 -0.0042636362
-0.0013727811 0.00076190475 0.00022272731
-0.0010887574 -0.00085714285 -0.00245
0.00099408289 -0.00038095238 -0.0018772726
-0.0027928995 -0.0020000001 -0.0015909091
0.002887574 -0.001047619 -0.0040727272
-0.003550296 0.0012380952 -0.0018772726
0.0018461539 0.0020000001 -0.00063636358
-0.0032662721 -0.0020000001 -0.0010181818
-0.0068639051 0.00085714285 -0.0019727272
0.0070532546 0.00076190475 0.00060454546
-0.002887574 0.0020000001 -0.00082727266
-0.0024142012 -0.0011428571 -6.3636333e-05
-0.0012781065 0.0012380952 0.00060454546
-0.0048757396 0.00057142857 -0.0019727272
0.0031715976 -0.0012380952 -0.0033090909
-0.0030769231 -0.0019047619 -0.0018772726
0.0061065089 -0.0020000001 -0.0004454545
-0.004781065 -0.00085714285 -0.0049318182
0.0029822486 -0.00076190475 0.00089090911
-0.0058224853 0.0014285714 -0.0018772726
0.0008994083 -0.0020000001 -0.0014
0.0068639051 9.5238094e-05 -0.0019727272
-0.0026035502 0.0020000001 -0.0014
0.0080000004 -0.00095238094 -0.00063636358
-0.0050650886 0.00076190475 0.0015590909
-0.0068639051 0.0019047619 -0.0016863636
0.0010887574 -0.00076190475 0.0010818182
-0.0015621302 -0.00066666666 -0.0018772726
-0.0068639051 -0.0020000001 -0.00025454542
-0.00052071008 0.00038095238 -0.00034999996
-0.0048757396 0.001047619 -0.0047409092
0.0021301776 -0.0015238095 -6.3636333e-05
0.0038343195 0.0017142857 -0.0018772726
-0.0018461539 -0.0020000001 -0.00015909088
0.0068639051 0.001047619 -0.0031181818
0.0008994083 -0.00095238094 3.1818214e-05
0.002887574 -0.00095238094 -0.0031181818
-0.0027928995 -0.0011428571 0.0016545454
0.0048757396 -0.00076190475 -0.0034999999
0.0062011834 0.00047619047 -0.0018772726
0.0022248521 0.0020000001 -0.0014
0.0016568047 -0.0020000001 -0.0014
-0.0010887574 0.00066666666 -0.00034999996
-0.0008994083 0.00085714285 -0.0035954544
-0.00071005919 0.0013333333 -0.00034999996
0.0013727811 0 -0.0020681818
0.0038343195 0.0015238095 -0.0018772726
-0.0075266273 0.00038095238 -0.0018772726
0.0051597632 -0.00057142857 -0.0019727272
-0.0048757396 0.001047619 0.00031818185
0.0027928995 0.001047619 0.00098636362
-0.0044970415 -0.0012380952 -0.0019727272
0.0070532546 0.0019047619 -6.3636333e-05
0.00071005919 0.0012380952 -0.0036909091
0.0049704141 0.0012380952 0.00012727275
-0.0080000004 -0.00085714285 -0.0004454545
-0.004781065 -0.0017142857 -6.3636333e-05
0.0070532546 -0.0012380952 -0.0039772727
0.0012781065 0.0011428571 -0.0020681818
0.0048757396 -0.00076190475 -0.0031181818
-0.0048757396 0.0020000001 -0.00054090907
0.0013727811 0.00095238094 -6.3636333e-05
0.0058224853 -0.0015238095 -0.0018772726
0.0063905325 0.0020000001 -0.00082727266
-0.0070532546 0.0011428571 0.0019409091
0.0078106509 -0.00066666666 -0.00034999996
-0.0051597632 -0.00085714285 -0.0051227272
-0.00099408289 -0.001047619 -0.0054090908
-0.0010887574 -0.0019047619 -0.0018772726
0.0046863905 -0.0020000001 -0.0017818181
0.0071479292 0.0011428571 -0.0034045454
0.0065798815 -0.00038095238 -0.0019727272
0.0016568047 0.00038095238 -0.00034999996
0.0053491122 9.5238094e-05 -0.00034999996
0.0057278108 0.0020000001 -0.0018772726
-0.0080000004 -9.5238094e-05 -0.0017818181
-0.0052544377 -0.00076190475 0.0019409091
-0.00014201184 0.0020000001 -0.0012090908
0.0023195266 0.00066666666 -0.00034999996
0.0016568047 0.00028571428 -0.0018772726
0.0080000004 -0.00057142857 -0.00034999996
-0.0060118344 0.0020000001 -0.00025454542
0.0010887574 0.001047619 0.00060454546
0.00099408289 -0.00076190475 0.0017500001
-0.00080473372 -0.0012380952 -0.0022590908
0.0025088757 -0.0014285714 -0.00025454542
-0.0050650886 -0.00076190475 0.0016545454
-0.0038343195 0.0016190476 -0.0018772726
-0.0011834319 0.0012380952 -0.0028318181
0.0029822486 -0.0011428571 -0.0028318181
0.0052544377 0.0011428571 -0.0027363636
-0.0006153846 0.0020000001 -0.0014
-0.0078106509 0.00076190475 -0.00025454542
0.0041183433 0.0020000001 -0.0013045454
-0.0079053259 -0.0013333333 -0.00034999996
0.0010887574 -0.0012380952 0.00070000003
-0.00014201184 -9.5238094e-05 -0.00034999996
-0.0052544377 -0.001047619 -0.0030227271
-0.002887574 -0.00076190475 -6.3636333e-05
-0.0062011834 0.00028571428 -0.0018772726
-0.0073372782 0.0018095238 -0.0016863636
-0.0071479292 0.00095238094 -0.0034045454
-0.0048757396 0.0014285714 -0.00034999996
0.0008994083 0.00076190475 -0.0028318181
-0.0052544377 -0.0011428571 0.00079545454
0.006295858 0.0020000001 -0.00073181815
-0.0080000004 -0.00066666666 -0.00034999996
-0.004781065 -0.0011428571 0.0016545454
-0.0056331363 -0.0013333333 -0.00015909088
-0.00033136093 -0.00085714285 -6.3636333e-05
0.0031715976 0.00095238094 0.00050909095
0.0008994083 0.0020000001 -0.00073181815
0.0071479292 -0.00057142857 -0.0019727272
-0.0034556212 0.00019047619 -0.00034999996
0.0079053259 -0.0015238095 -0.0016863636
0.0010887574 -0.0012380952 0.0010818182
4.7337278e-05 -0.0019047619 -6.3636333e-05
-0.0049704141 0.0011428571 -0.0051227272
-0.0050650886 0.001047619 -0.0050272727
-0.0024142012 0.0017142857 -0.0018772726
0.0010887574 0.00028571428 -0.00034999996
0.0058224853 0.0020000001 -0.0012090908
0.0010887574 -0.0012380952 0.0016545454
-0.006485207 0.0011428571 -6.3636333e-05
-0.0072426037 -0.00085714285 0.0019409091
0.0048757396 0.00076190475 0.0019409091
-0.0074319527 0.0015238095 -0.00025454542
-0.0069585801 0.0017142857 -0.0016863636
0.0051597632 -0.001047619 -0.0038818181
-0.0030769231 -0.0020000001 -0.00073181815
-0.0022248521 0.0015238095 -0.00015909088
0.00071005919 0.0011428571 0.0012727273
0.0049704141 0.0017142857 -6.3636333e-05
-0.0068639051 -9.5238094e-05 -0.00034999996
-0.00099408289 -0.00076190475 -0.0051227272
0.0027928995 0.0012380952 0.0021318181
0.0062011834 0.0015238095 -0.0018772726
0.0014674556 0.00076190475 -6.3636333e-05
-0.00071005919 9.5238094e-05 -0.00034999996
0.0052544377 0.0012380952 -0.00015909088
-0.0054437872 0.0020000001 -0.0014954545
-0.0052544377 0.00095238094 0.0011772728
0.004781065 0.001047619 0.0015590909
-0.00042603549 0.0020000001 -0.00092272722
0.0054437872 0.0013333333 -0.00034999996
0.0008994083 -0.00095238094 -0.0049318182
-0.0048757396 0.001047619 -0.0023545453
-0.0049704141 0.0016190476 -0.0018772726
0.0051597632 -0.0011428571 -0.0046454542
-0.0070532546 0 -0.0019727272
-0.00099408289 0.0011428571 -0.0028318181
-0.00080473372 -0.00095238094 0.0017500001
-0.0054437872 -0.00095238094 -0.0018772726
-0.0059171598 -0.0020000001 -0.00025454542
-0.0011834319 -0.0020000001 -0.00063636358
-0.0053491122 0.0018095238 -6.3636333e-05
-0.0023195266 0.0020000001 -0.00054090907
0.0017514793 -0.00085714285 -6.3636333e-05
0.0071479292 0.00076190475 -0.0045499997
0.0010887574 0.0013333333 -0.00034999996
-0.0012781065 0.0012380952 0.0021318181
-0.002887574 0.00085714285 -0.0039772727
0.00071005919 0.00095238094 0.0019409091
0.0015621302 -0.0020000001 -0.0016863636
0.0080000004 -0.00047619047 -0.0016863636
-0.0039289943 -0.00047619047 -0.0018772726
-0.004591716 -0.00076190475 -0.00015909088
-0.0077159763 -0.00076190475 -6.3636333e-05
-0.00023668639 0.0015238095 -0.00025454542
0.0068639051 0.0011428571 0.0012727273
-0.0011834319 0.00076190475 0.00098636362
-0.0071479292 0.0011428571 0.0020363636
-0.0008994083 0.00076190475 0.0013681818
-0.0071479292 0.00095238094 0.00050909095
-4.7337278e-05 0.00057142857 -0.00034999996
-0.0016568047 0.0020000001 -0.0014
-0.0060118344 -0.0020000001 -0.00063636358
-0.0032662721 -0.0020000001 -0.00015909088
0.0046863905 0.0014285714 -0.00034999996
-0.0040236688 0.0011428571 -6.3636333e-05
-0.004781065 0.0012380952 -6.3636333e-05
0.0027928995 0.00057142857 -0.00034999996
-0.0067692306 0 -0.0019727272
-0.0008994083 -0.00076190475 -0.0030227271
0.0014674556 0.0020000001 -0.0015909091
-0.0029822486 0.0011428571 -0.0030227271
0.0060118344 -0.00076190475 -0.00025454542
-0.0016568047 -0.0017142857 -6.3636333e-05
-0.0079053259 -0.0016190476 -0.0015909091
0.003739645 0.00076190475 -0.0018772726
-0.002887574 -0.0012380952 0.0020363636
0.0067692306 0.00095238094 -0.0023545453
-0.004781065 -0.0012380952 0.00070000003
0.0052544377 0.0020000001 -0.0014
-0.0012781065 0.0011428571 -0.0025454545
0.0023195266 0.0018095238 -6.3636333e-05
0.00071005919 0.0013333333 -0.0020681818
-0.0048757396 0.00076190475 -0.0039772727
0.0051597632 0.00085714285 0.0010818182
0.0069585801 -0.0011428571 -0.0046454542
-0.0049704141 0.0012380952 0.0011772728
-0.006485207 -0.0020000001 -0.0015909091
0.0063905325 0.00057142857 -0.0018772726
0.0029822486 -0.0012380952 0.00060454546
0.0044023669 -0.0015238095 -0.00015909088
0.0006153846 0.0020000001 -0.00034999996
0.0051597632 0.00085714285 0.0015590909
0.0076213018 0.00047619047 -0.00034999996
-0.0016568047 -0.00057142857 -0.0018772726
-0.0031715976 0.00076190475 -0.0037863636
-0.002035503 -0.0014285714 -0.0018772726
-0.0068639051 -0.001047619 0.0023227273
-0.0054437872 0.00085714285 -0.0018772726
0.0026035502 0.0020000001 -0.00082727266
-0.004781065 -0.0012380952 0.0018454546
0.0014674556 -0.00038095238 -0.0018772726
-0.0039289943 -0.0020000001 -0.0014954545
-0.00099408289 0.0011428571 0.00031818185
0.0079053259 -0.0013333333 -0.0010181818
0.0021301776 0.0020000001 -0.0013045454
0.0008994083 -0.00085714285 0.00022272731
0.0042130179 -0.0019047619 -0.0017818181
0.0080000004 0.00076190475 -0.00054090907
-0.002887574 -0.00076190475 -0.0037863636
-0.0053491122 -0.00066666666 -0.00034999996
-0.0067692306 -0.00085714285 -0.0027363636
-0.0034556212 -0.0012380952 -0.0018772726
0.003739645 -0.0020000001 -0.0012090908
-0.0052544377 0.00076190475 0.00050909095
0.0039289943 -0.0020000001 -0.00034999996
-0.0014674556 0.0020000001 -0.0018772726
0.0075266273 -0.00076190475 -6.3636333e-05
-0.0048757396 0.0011428571 -0.00245
0.0071479292 0.0012380952 0.00098636362
-0.0053491122 0.00038095238 -0.00034999996
0.0068639051 -0.0015238095 -0.0017818181
4.7337278e-05 0.0015238095 -0.00025454542
0.0066745561 0.0019047619 -6.3636333e-05
-0.00071005919 0.00028571428 -0.0018772726
-0.00014201184 0.00095238094 -0.0018772726
-0.0050650886 -0.00095238094 0.0025136364
0.0052544377 -0.00085714285 0.0017500001
0.0069585801 -0.00085714285 0.00060454546
0.003550296 -0.0020000001 -0.0010181818
0.0071479292 0.00076190475 -0.0037863636
0.002035503 -0.00028571428 -0.0018772726
0.0011834319 -0.00076190475 0.0010818182
0.0071479292 0.0011428571 0.0020363636
-0.002035503 0.0012380952 -0.0018772726
0.0069585801 0.0018095238 -0.0018772726
-0.0017514793 0.0014285714 -0.0018772726
0.0011834319 -0.0012380952 0.00060454546
0.0080000004 -0.00095238094 -0.0014954545
4.7337278e-05 9.5238094e-05 -0.00034999996
-0.0062011834 -0.00038095238 -0.0018772726
-0.0014674556 0.0012380952 -0.00025454542
-0.0024142012 0.0012380952 -0.00015909088
-0.0066745561 0.0016190476 -0.0017818181
0.0008994083 -0.0017142857 -0.0018772726
0.0031715976 0.00028571428 -0.0004454545
-0.00099408289 -0.0020000001 -0.0018772726
-0.0051597632 -0.0012380952 -0.0043590907
0.0049704141 0.0012380952 0.0016545454
0.0063905325 0.00095238094 -0.0018772726
-0.0022248521 -0.0014285714 -0.00025454542
0.0051597632 -0.00076190475 0.00098636362
0.0038343195 -0.0014285714 -0.00025454542
0.002887574 -0.00038095238 -0.0019727272
-0.0018461539 -0.00057142857 -0.00034999996
-0.0006153846 0.00019047619 -0.00034999996
0.00052071008 0.00066666666 -0.00034999996
0.0010887574 0.0012380952 0.0021318181
0.00080473372 0.0011428571 0.0024181819
-0.0029822486 -0.0012380952 -0.0030227271
0.0010887574 -0.0020000001 -0.00025454542
0.0051597632 -0.0020000001 -0.00082727266
-0.0073372782 0.0014285714 -0.00034999996
-0.0010887574 0.0020000001 -0.00025454542
0.002887574 0.0016190476 -6.3636333e-05
-0.003550296 0.00066666666 -0.0018772726
-0.0008994083 0.00095238094 0.0017500001
-0.0008994083 -0.0011428571 -0.0053136363
-0.004591716 0.001047619 -6.3636333e-05
-0.00071005919 0.0020000001 -0.0011136363
0.0029822486 -0.00057142857 -0.0020681818
-0.002035503 -0.00038095238 -0.00034999996
0.0032662721 -0.00076190475 0.00098636362
0.00014201184 0.0012380952 -6.3636333e-05
-0.0066745561 9.5238094e-05 -0.00034999996
-0.0074319527 -0.0012380952 -6.3636333e-05
0.0016568047 0.0015238095 -0.00025454542
0.0008994083 -0.00095238094 -0.0023545453
-0.0059171598 -0.0016190476 -6.3636333e-05
-0.002887574 0.00076190475 -0.0046454542
-0.0023195266 0.00057142857 -0.00034999996
0.0010887574 0.00085714285 0.0012727273
-0.00033136093 0.0012380952 -0.0018772726
-0.0050650886 -0.0011428571 -0.0042636362
-0.0063905325 0.00095238094 -6.3636333e-05
-0.0069585801 0.0011428571 -0.0033090909
0.00099408289 -0.00076190475 -0.00245
0.00099408289 0.0018095238 -6.3636333e-05
0.0022248521 -0.0012380952 -0.0018772726
0.004591716 -0.00038095238 -0.0019727272
-0.0052544377 -0.00095238094 0.00098636362
-0.0068639051 -0.00076190475 -0.0046454542
0.00080473372 0.0020000001 -0.0010181818
0.0024142012 0.00019047619 -0.00034999996
0.0011834319 0.001047619 -0.0036909091
-0.0074319527 0.0019047619 -0.00073181815
0.0048757396 -0.00085714285 0.00022272731
-4.7337278e-05 0.0020000001 -0.00034999996
-0.0075266273 0.00085714285 -0.0018772726
-0.0057278108 -0.00076190475 -0.0018772726
0.004781065 0 -0.0004454545
-0.0062011834 0.0013333333 -0.0018772726
0.0012781065 -0.0011428571 -0.0030227271
-0.0068639051 0.0011428571 -0.0045499997
0.0068639051 0.0012380952 -0.0044545452
-0.0024142012 -0.00028571428 -0.00034999996
-0.0032662721 0.0020000001 -0.0016863636
0.0012781065 0.00076190475 -0.00015909088
0.0008994083 -0.001047619 0.00022272731
-0.0067692306 -0.0020000001 -0.0013045454
0.0026982247 0.00038095238 -0.00034999996
0.0006153846 0.00076190475 -0.0020681818
0.0042130179 -0.0013333333 -0.00015909088
0.0073372782 0.00019047619 -0.0019727272
0.0079053259 -0.00057142857 -0.0018772726
0.0051597632 0.0012380952 -6.3636333e-05
-0.0029822486 0.0012380952 -0.0040727272
0.003739645 0.0019047619 -6.3636333e-05
0.002887574 -0.00076190475 0.00060454546
-0.0066745561 -0.00095238094 -0.0040727272
0.0067692306 0.0019047619 -6.3636333e-05
0.0027928995 0.0011428571 -0.0037863636
0.0048757396 -0.00076190475 -0.0045499997
-0.0012781065 -0.0020000001 -0.0010181818
-0.0030769231 0.0020000001 -0.00092272722
0.0036449705 -0.00028571428 -0.0004454545
-0.0059171598 -0.00057142857 -0.0018772726
0.0055384617 -0.0020000001 -0.00025454542
0.0073372782 9.5238094e-05 -0.0019727272
0.0029822486 -0.00076190475 0.0022272728
0.0062011834 -0.0020000001 -0.00015909088
-0.0056331363 -0.0015238095 -6.3636333e-05
0.00080473372 0 -0.0018772726
-0.00099408289 -0.00076190475 0.00089090911
-0.0024142012 0.0020000001 -0.00034999996
-0.00052071008 -0.0020000001 -0.0018772726
-0.0017514793 0.00047619047 -0.0018772726
0.0073372782 0.00076190475 -0.00025454542
0.0068639051 0.00076190475 0.0022272728
-0.0006153846 0.00085714285 -6.3636333e-05
-4.7337278e-05 -0.00057142857 -0.00034999996
-0.0049704141 -0.00085714285 -0.0052181818
0.0050650886 0.0020000001 -0.0013045454
-0.0070532546 -0.00028571428 -0.00034999996
-0.0051597632 -0.00076190475 0.00089090911
-0.0038343195 0.0013333333 -0.0018772726
-0.0024142012 -0.00057142857 -0.0018772726
-0.0010887574 -9.5238094e-05 -0.0018772726
-0.006485207 -0.0018095238 -0.0018772726
-0.0042130179 -0.0020000001 -0.0013045454
-0.0018461539 -0.0018095238 -0.0018772726
-0.0080000004 -9.5238094e-05 -0.00073181815
-0.0010887574 0.00076190475 -0.0033090909
0.00099408289 -0.0011428571 -0.0032136363
0.0057278108 -0.0020000001 -0.0014
-0.002887574 0.00076190475 0.0022272728
-0.0080000004 -0.00076190475 -0.00073181815
-0.0031715976 0.0017142857 -6.3636333e-05
-0.0063905325 0.0016190476 -0.0018772726
0.0027928995 -0.00076190475 0.00012727275
-0.0070532546 -0.00076190475 0.0020363636
0.00042603549 -0.0020000001 -0.0004454545
0.0024142012 0.0012380952 -0.0018772726
-0.0063905325 0.0013333333 -0.00034999996
-0.00052071008 -0.00095238094 -0.0018772726
-0.0052544377 -0.0020000001 -0.0004454545
-0.0080000004 -0.00019047619 -0.0013045454
-0.0058224853 0.0018095238 -0.0017818181
-0.0030769231 -0.00095238094 -0.0034999999
0.0080000004 0.00066666666 -0.00054090907
-0.0056331363 -0.0012380952 -6.3636333e-05
-0.0050650886 0.0012380952 -0.0037863636
0.0008994083 -0.00085714285 -0.0020681818
-0.0050650886 -0.00085714285 0.0024181819
-0.0067692306 0.00028571428 -0.00034999996
-0.0065798815 -0.00066666666 -0.0019727272
0.0031715976 -0.00057142857 -0.0019727272
0.0036449705 0.00019047619 -0.0018772726
-0.0017514793 0.0020000001 -0.0014954545
-0.006485207 0.00076190475 -0.00015909088
-0.0049704141 0.0012380952 -0.0028318181
0.0032662721 -0.00076190475 -0.002640909
0.0014674556 -0.001047619 -0.0018772726
-0.00099408289 0.00076190475 -0.002640909
-0.0068639051 -0.0015238095 -0.00015909088
-0.0031715976 -0.00095238094 0.0021318181
-0.0051597632 -0.00095238094 0.0016545454
0.0070532546 -0.00076190475 -0.0020681818
0.00042603549 0.0018095238 -0.0018772726
-0.00033136093 -0.0015238095 -0.0018772726
-0.0016568047 0.00028571428 -0.0018772726
-0.004781065 -0.00076190475 0.00041363639
0.0059171598 -0.0020000001 -0.0014954545
0.0067692306 -0.0011428571 -0.0019727272
0.0011834319 0.0018095238 -0.0018772726
0.004781065 0.0011428571 -0.0037863636
0.0044970415 -9.5238094e-05 -0.0004454545
0.0010887574 0.00085714285 -0.0038818181
-0.0071479292 -0.0011428571 -0.0052181818
0.00023668639 -0.0020000001 -0.00073181815
-0.00023668639 -0.00057142857 -0.00034999996
0.0031715976 -0.0012380952 -0.0025454545
-0.0030769231 -0.0011428571 -0.0051227272
0.0072426037 0.0011428571 -0.0022590908
0.0070532546 0.0012380952 -0.0025454545
-0.0011834319 0.0012380952 -0.0030227271
-0.00080473372 -0.001047619 -0.0037863636
0.004591716 -0.0020000001 -0.00025454542
-0.003550296 0.0012380952 -0.00015909088
0.0017514793 0.0018095238 -0.0018772726
0.0069585801 -0.00095238094 -0.0039772727
0.002035503 -0.001047619 -0.0018772726
0.00099408289 -0.0020000001 -0.0013045454
0.0080000004 -0.00038095238 -0.0015909091
0.0026982247 -0.00066666666 -0.0018772726
-0.00099408289 -0.0011428571 0.0025136364
-0.0023195266 0.0014285714 -0.00034999996
0.00080473372 0.0012380952 0.00060454546
-0.0025088757 0.0020000001 -0.00092272722
0.004781065 0.0011428571 0.0011772728
0.00052071008 0.0011428571 -6.3636333e-05
-0.0023195266 0.0020000001 -0.0018772726
0.0069585801 -0.00038095238 -0.0019727272
0.0015621302 0.00057142857 -0.0018772726
0.0061065089 0.0020000001 -0.0010181818
0.0052544377 -0.00095238094 0.00022272731
0.0055384617 0.0019047619 -6.3636333e-05
0.0049704141 0.0012380952 -0.0045499997
-0.0072426037 -0.0011428571 0.00022272731
0.0013727811 -0.001047619 -6.3636333e-05
0.0030769231 -0.0020000001 -0.0004454545
-0.0027928995 -0.00095238094 -0.0034999999
0.0079053259 -0.00076190475 -0.00025454542
0.0031715976 -0.00076190475 -0.0036909091
0.0061065089 0.00047619047 -0.0018772726
0.00080473372 -0.00095238094 -6.3636333e-05
4.7337278e-05 0.0013333333 -0.00034999996
0.0034556212 -0.00076190475 -0.00015909088
0.0060118344 0.0015238095 -0.0018772726
0.0053491122 -0.00047619047 -0.00034999996
0.00052071008 0.0020000001 -0.0015909091
0.0011834319 0.0011428571 0.00022272731
-0.0019408284 0.0018095238 -0.0018772726
-0.0066745561 -0.00095238094 -0.0023545453
-0.0024142012 0.00066666666 -0.00034999996
0.002887574 0.0012380952 0.0023227273
0.00099408289 0.0020000001 -0.00092272722
0.0008994083 0.00076190475 -0.0049318182
-0.0056331363 -0.0020000001 -0.0015909091
0.004781065 0.0012380952 0.00050909095
-0.0055384617 0.0020000001 -0.0014954545
0.004781065 0.00095238094 0.0022272728
-0.0080000004 0.00076190475 -0.0004454545
-0.00099408289 0.0011428571 0.0015590909
-0.0040236688 0.0016190476 -0.0018772726
0.0056331363 0.00028571428 -0.0018772726
0.0051597632 0.00095238094 -0.0041681817
-0.0029822486 0.00076190475 0.00098636362
-0.0053491122 -9.5238094e-05 -0.0019727272
-0.006485207 0.00047619047 -0.00034999996
-0.0025088757 -0.0020000001 -6.3636333e-05
0.00071005919 0.001047619 0.00070000003
-0.0079053259 0.0015238095 -0.00092272722
0.0051597632 -0.0012380952 0.00070000003
-0.0066745561 -0.00047619047 -0.0019727272
-0.0068639051 0.00095238094 -0.0029272726
-0.0006153846 -0.00019047619 -0.0020681818
-0.004781065 0.001047619 3.1818214e-05
-0.0068639051 0.00038095238 -0.00034999996
0.0033609467 0.00076190475 -0.00025454542
-0.004781065 -0.00085714285 -0.0027363636
0.0055384617 -0.00076190475 -6.3636333e-05
0.0080000004 0.0011428571 -0.0012090908
0.0049704141 0.0020000001 -0.00025454542
0.0050650886 -0.00076190475 -0.0035954544
-0.0050650886 -0.00066666666 -0.0020681818
-0.0025088757 0.00047619047 -0.0018772726
-0.0025088757 0.00085714285 -0.0018772726
-0.0025088757 0.00019047619 -0.00034999996
-0.0053491122 0.0020000001 -0.00092272722
-0.0008994083 0.00076190475 0.0017500001
0.0025088757 -0.0011428571 -0.0018772726
0.0017514793 0.00057142857 -0.0018772726
-0.0080000004 0.0011428571 -0.00015909088
0.0044970415 0.0016190476 -0.0019727272
-0.0008994083 0.001047619 0.0016545454
0.0072426037 0.00095238094 -0.0023545453
-0.0079053259 -0.0016190476 -0.00034999996
0.0065798815 0.0017142857 -6.3636333e-05
-0.0080000004 0.00047619047 -0.0011136363
0.0068639051 0.0011428571 -0.0039772727
-0.0052544377 0.00085714285 -0.0032136363
-0.0017514793 -0.0020000001 -0.0018772726
-0.0023195266 0.0013333333 -0.00034999996
-0.0038343195 0.0012380952 -6.3636333e-05
0.0012781065 0.0015238095 -0.00025454542
0.0050650886 0.0012380952 -0.0036909091
0.0071479292 -0.001047619 0.00089090911
-0.0011834319 0.0012380952 -0.0036909091
-0.00071005919 0.001047619 -0.0018772726
0.0055384617 -0.00095238094 -0.0018772726
-0.0049704141 -0.0014285714 -0.00025454542
-0.0056331363 0.0020000001 -0.0010181818
0.00033136093 -0.00047619047 -0.0018772726
-0.0044970415 -0.00028571428 -0.00034999996
0.0076213018 -0.0014285714 -0.0017818181
-0.0029822486 0.0012380952 -0.0047409092
-0.0027928995 -0.00095238094 -0.0025454545
-0.0021301776 0.00085714285 -6.3636333e-05
0.0049704141 -0.00076190475 0.0011772728
-0.0016568047 0.00038095238 -0.0018772726
0.0073372782 0.0014285714 -0.00034999996
0.0040236688 -0.00057142857 -0.0018772726
-0.0050650886 0.0012380952 0.00012727275
-0.00080473372 -0.00076190475 -0.0042636362
-0.0008994083 -0.00066666666 -0.0020681818
-0.0077159763 -0.00095238094 -6.3636333e-05
0.0067692306 0.00085714285 0.0022272728
0.0012781065 -0.00085714285 -0.0035954544
0.0069585801 0.0012380952 0.00098636362
0.0050650886 -0.0020000001 -0.0013045454
0.0069585801 -0.00085714285 0.0023227273
0.0015621302 -0.00047619047 -0.00034999996
0.0051597632 0.00085714285 -0.0045499997
0.0040236688 -0.00057142857 -0.00034999996
0.0040236688 -0.0020000001 -0.00073181815
-0.0069585801 0.00095238094 -0.0047409092
-0.0069585801 -0.0020000001 -0.00082727266
-0.00071005919 -0.0011428571 -0.0027363636
0.0068639051 0.00076190475 -0.00025454542
-0.00080473372 0.00095238094 0.00060454546
0.0031715976 0.00085714285 0.0021318181
0.00080473372 0.0012380952 -0.0041681817
0.0072426037 0.0011428571 0.0021318181
-0.0036449705 0.0020000001 -0.0017818181
-0.0073372782 -0.00019047619 -0.0019727272
-0.00023668639 0.0020000001 -6.3636333e-05
-0.0049704141 -0.0012380952 -0.0037863636
-0.0063905325 -0.0020000001 -0.0016863636
0.0068639051 -0.0019047619 -0.00015909088
0.0031715976 -0.0020000001 -0.0004454545
0.0078106509 -0.0017142857 -0.0014
0.00071005919 0.0011428571 -0.0032136363
-0.0011834319 -0.001047619 0.00050909095
-0.0012781065 0.001047619 -0.0049318182
0.0052544377 -0.00095238094 0.0017500001
-0.0008994083 0.001047619 -0.0034045454
0.0048757396 0.0020000001 -0.00054090907
0.006295858 -0.00085714285 -0.0018772726
0.0049704141 -0.0011428571 -0.0042636362
-0.00014201184 -0.00076190475 -0.00015909088
0.0072426037 0.0020000001 -0.0013045454
0.0076213018 9.5238094e-05 -0.00034999996
-0.0071479292 0.0011428571 -0.0049318182
-0.0072426037 -0.001047619 0.00022272731
0.0038343195 -0.00076190475 -0.00015909088
0.0011834319 -0.00076190475 0.0013681818
-0.00080473372 -0.0015238095 -0.0019727272
-0.0050650886 -0.00076190475 -0.0025454545
-0.0080000004 -0.001047619 -0.00015909088
0.0052544377 -0.00076190475 -0.0030227271
-0.0032662721 0.00085714285 -0.0042636362
0.0071479292 0.00076190475 -0.002640909
-0.004781065 -0.00076190475 -0.0036909091
0.0012781065 -0.0011428571 0.00079545454
-0.0074319527 -0.00047619047 -0.00034999996
0.0080000004 0.0011428571 -0.0013045454
-0.004781065 -0.0012380952 -0.0041681817
0.0008994083 -0.00076190475 -0.0048363637
-0.00099408289 0.0011428571 -0.0050272727
-0.006485207 -0.0020000001 -0.00082727266
0.0008994083 -0.00085714285 -0.002640909
-0.0011834319 -0.0011428571 0.0012727273
0.0069585801 -0.00095238094 -0.0033090909
0.004781065 0.0011428571 -0.0029272726
0.0075266273 0.0017142857 -0.0018772726
0.0069585801 -0.0019047619 -0.00063636358
0.0072426037 -0.00076190475 -0.00245
0.0050650886 -0.00076190475 0.00089090911
-0.0010887574 0.0017142857 -0.0019727272
-0.0041183433 0.0016190476 -0.0018772726
-0.0043076924 0.0018095238 -0.0018772726
0.0032662721 -0.00095238094 -0.0048363637
-0.0011834319 -0.00095238094 0.0010818182
0.00042603549 -0.0020000001 -0.0010181818
-0.0053491122 -0.0020000001 -0.0004454545
0.002035503 -0.00019047619 -0.00034999996
-0.0076213018 0.00038095238 -0.00034999996
0.0051597632 0.00057142857 -0.00034999996
0.0050650886 0.00076190475 -0.0031181818
0.0039289943 0.00066666666 -0.0018772726
0.0071479292 -0.00076190475 -0.0030227271
-0.0026982247 -0.0011428571 0.00022272731
-0.006295858 -0.0017142857 -6.3636333e-05
-0.0030769231 -0.0011428571 0.00022272731
0.00071005919 0.00085714285 0.0019409091
-0.0031715976 0.00019047619 -0.0019727272
-0.0014674556 -0.00028571428 -0.00034999996
-0.0051597632 -0.00085714285 -0.0034045454
-0.0030769231 0.0011428571 0.0024181819
-0.0067692306 -0.0020000001 -0.0010181818
-0.0060118344 0.0014285714 -0.0018772726
-0.0006153846 0 -0.0020681818
0.002035503 -0.0013333333 -0.00015909088
0.0071479292 0.001047619 0.00079545454
0.0048757396 0.0017142857 -6.3636333e-05
-0.0071479292 -0.00076190475 -0.0021636363
-4.7337278e-05 -0.0020000001 -0.0013045454
-0.004781065 -0.001047619 0.0010818182
-0.002887574 -0.0013333333 -0.0021636363
0.0041183433 -0.0013333333 -6.3636333e-05
0.0061065089 0.0020000001 -0.00092272722
-0.0078106509 -0.00085714285 -6.3636333e-05
0.00099408289 -0.0020000001 -6.3636333e-05
0.006295858 -0.0014285714 -0.00034999996
-0.004591716 0.0020000001 -0.0018772726
-0.0011834319 -0.00095238094 -0.0036909091
-0.0030769231 0.00076190475 0.0015590909
-4.7337278e-05 -0.0020000001 -0.00063636358
-0.0070532546 -0.0012380952 0.0019409091
-0.0076213018 0 -0.0018772726
0.004591716 -0.0015238095 -0.00015909088
-0.0019408284 0.00076190475 -0.0018772726
-0.00099408289 0.0011428571 -0.0048363637
0.0049704141 -0.0011428571 -0.002640909
0.0027928995 0.0011428571 0.00098636362
0.0079053259 0.0011428571 -0.0018772726
0.0012781065 -0.0011428571 -0.0032136363
0.0026982247 -0.0019047619 -0.0018772726
0.0053491122 -0.00095238094 -6.3636333e-05
-0.0066745561 0.00066666666 -0.0018772726
-0.0048757396 0.0012380952 3.1818214e-05
-0.0018461539 0.0013333333 -0.0018772726
0.00099408289 0.00076190475 0.00079545454
-0.0018461539 0.0020000001 -0.00082727266
0.0071479292 -0.00095238094 0.0015590909
-0.0071479292 -0.00076190475 -0.0039772727
-0.003550296 9.5238094e-05 -0.0018772726
-0.004591716 0.0018095238 -0.0018772726
0.0012781065 -0.0011428571 0.00012727275
-0.0071479292 0.0015238095 -0.00015909088
-0.0072426037 -0.00095238094 -0.0042636362
-0.003739645 0.00038095238 -0.00034999996
-0.0042130179 0.0020000001 -0.0017818181
0.0024142012 0.0020000001 -0.0014954545
-0.0053491122 -0.00076190475 -6.3636333e-05
0.0054437872 0.00057142857 -0.00034999996
0.0066745561 0.0020000001 -0.00073181815
-0.0070532546 -0.0012380952 0.0010818182
0.0027928995 0.00076190475 0.00050909095
0.0056331363 0.0016190476 -0.0018772726
-0.0072426037 -0.00076190475 -0.00025454542
-0.0049704141 -0.00076190475 -0.0021636363
-0.0058224853 -0.0020000001 -0.0011136363
0.0031715976 0.00085714285 -0.00245
0.0016568047 0.0020000001 -0.0015909091
0.0008994083 0.0012380952 0.00060454546
0.002035503 -0.0019047619 -0.0018772726
0.0006153846 -0.00085714285 -6.3636333e-05
0.0049704141 -0.00076190475 -0.0049318182
0.006295858 -0.0013333333 -6.3636333e-05
0.00099408289 -0.0011428571 0.0018454546
-0.0068639051 0.00095238094 0.00079545454
0.0044970415 0.0017142857 -0.0019727272
-0.00080473372 -0.00095238094 0.00098636362
0.0011834319 0.0011428571 -0.0032136363
0.0031715976 -0.001047619 -0.0044545452
-0.003550296 -0.0011428571 -6.3636333e-05
0.0027928995 0.0011428571 -0.0040727272
0.0032662721 -0.00076190475 -0.0050272727
-0.0030769231 0.00019047619 -0.0019727272
-0.0015621302 -0.0014285714 -0.0018772726
-0.0056331363 0.0020000001 -0.00025454542
0.00099408289 0.00076190475 -0.0041681817
0.0070532546 -0.0012380952 0.0021318181
-0.0033609467 0.00095238094 0.00012727275
0.0060118344 -0.00047619047 -0.0018772726
0.0051597632 -0.0012380952 -0.0041681817
0.0008994083 0.0020000001 -6.3636333e-05
0.0051597632 -0.00095238094 0.0023227273
0.004781065 0.0011428571 0.00089090911
0.0024142012 -0.0019047619 -0.0018772726
0.0032662721 0.00076190475 -0.00025454542
-0.0043076924 -0.00085714285 -0.0018772726
-0.0052544377 0.00038095238 -0.00034999996
-0.0043076924 -0.00085714285 -6.3636333e-05
0.0048757396 -0.00076190475 -0.0039772727
-0.004781065 -0.00095238094 -0.0034999999
-0.00042603549 -0.001047619 -6.3636333e-05
-0.0019408284 -0.0013333333 -6.3636333e-05
-0.0071479292 -0.0012380952 -0.0046454542
0.0068639051 0.00076190475 -0.00015909088
-0.00042603549 0.0011428571 -6.3636333e-05
0.0040236688 0.00085714285 -0.0018772726
-0.0012781065 0.00076190475 0.00012727275
0.0054437872 0.0020000001 -0.0014954545
0.00023668639 -0.00047619047 -0.0018772726
0.0054437872 0.00095238094 -0.0018772726
0.00071005919 0.00085714285 -0.0031181818
-0.0052544377 0.00095238094 0.0014636364
-0.0030769231 -0.00076190475 0.0018454546
-0.004591716 -0.0020000001 -6.3636333e-05
-0.0069585801 -0.00038095238 -0.00034999996
0.0067692306 0.00057142857 -0.00034999996
0.0060118344 0.0016190476 -6.3636333e-05
0.0051597632 0.00028571428 -0.0019727272
0.0051597632 -0.001047619 -0.0029272726
-0.0029822486 9.5238094e-05 -0.0019727272
-0.00071005919 -0.00085714285 -0.0021636363
0.0025088757 0.0014285714 -0.0018772726
0.0052544377 -0.00095238094 -0.0023545453
-0.0080000004 -0.00038095238 -0.00034999996
0.004781065 0.001047619 -0.0027363636
-0.0013727811 0.00076190475 0.00031818185
0.0026982247 -0.0020000001 -0.00063636358
0.0061065089 -0.00019047619 -0.0018772726
-0.0008994083 0.0013333333 -0.0020681818
0.0015621302 0.0020000001 -0.0011136363
-0.0030769231 0.0012380952 -0.0048363637
-0.00080473372 0.0017142857 -6.3636333e-05
-0.0010887574 0.0012380952 -0.0021636363
-0.0069585801 0.001047619 -0.00245
-0.0043076924 -0.00076190475 -0.00015909088
0.0022248521 -0.0020000001 -0.00092272722
0.0038343195 -0.0020000001 -0.00015909088
0.0061065089 -0.00028571428 -0.0018772726
-0.0071479292 0.001047619 3.1818214e-05
-0.0010887574 -0.00076190475 0.0020363636
0.0052544377 -0.00076190475 -0.0043590907
-0.0032662721 0.00085714285 -0.0031181818
-0.0012781065 0.001047619 -0.0044545452
0.0051597632 0.0012380952 3.1818214e-05
0.0030769231 -0.00076190475 0.0018454546
-0.0014674556 0.00057142857 -0.0018772726
0.0052544377 -0.00076190475 -0.0040727272
-0.0042130179 0.00038095238 -0.00034999996
-0.0029822486 -0.0012380952 0.0013681818
-0.0052544377 -0.00095238094 0.00050909095
0.0079053259 -0.0012380952 -0.0015909091
4.7337278e-05 -0.0020000001 -0.0018772726
-0.0008994083 0.00085714285 -0.0033090909
-0.0044970415 9.5238094e-05 -0.0018772726
0.0012781065 -0.0020000001 -0.00082727266
-0.0011834319 -0.0011428571 -0.002640909
-0.0039289943 -0.0020000001 -0.00015909088
0.0052544377 -0.00085714285 -0.0023545453
-0.0050650886 -9.5238094e-05 -0.00034999996
0.0079053259 0.0016190476 -0.0014954545
-0.00071005919 0.0019047619 -6.3636333e-05
-0.0061065089 0.00085714285 -0.0018772726
0.0029822486 0.00076190475 0.0022272728
0.00080473372 0.00076190475 0.0012727273
0.002035503 0.0020000001 -0.0004454545
0.0008994083 -0.00095238094 0.0012727273
0.0051597632 -0.0011428571 -0.00245
-0.0077159763 -0.0019047619 -0.0013045454
-0.0075266273 0.00019047619 -0.00034999996
-0.0073372782 0.0018095238 -0.00015909088
-0.0071479292 0.00095238094 0.0022272728
0.0057278108 -0.00019047619 -0.0018772726
-0.0033609467 0.00095238094 3.1818214e-05
0.0080000004 0.00038095238 -0.0012090908
-0.0029822486 0.0011428571 -0.0041681817
0.0049704141 -0.001047619 -0.0046454542
0.00099408289 -0.0012380952 -0.002640909
0.0061065089 0.00076190475 -0.00015909088
0.0052544377 -0.00095238094 -0.0034999999
0.0017514793 0.0020000001 -0.0010181818
-0.0044970415 0.0020000001 -0.00092272722
0.0029822486 0.0020000001 -0.0010181818
0.0029822486 -0.00076190475 -0.0034045454
0.00099408289 -0.00028571428 -0.0018772726
-0.0051597632 0.0012380952 -0.0027363636
0.0011834319 -0.0012380952 0.00012727275
0.002887574 -0.001047619 -0.00245
-0.00099408289 -0.0012380952 0.0017500001
0.0075266273 0.0019047619 -0.00092272722
0.006485207 0.0011428571 -0.0018772726
-0.003550296 -0.00085714285 -6.3636333e-05
0.0049704141 0.00076190475 -0.0047409092
0.0068639051 0.001047619 0.0013681818
0.0053491122 0.0020000001 -0.0015909091
-0.0057278108 -0.0016190476 -0.0018772726
0.0036449705 -0.0019047619 -0.0018772726
0.006485207 0.0020000001 -0.0004454545
0.00014201184 0.0020000001 -0.0014954545
-0.0069585801 0.0020000001 -0.00015909088
0.002887574 -0.00085714285 -0.0048363637
-0.0008994083 0.0011428571 -0.0020681818
-0.0038343195 0.0019047619 -6.3636333e-05
-0.0068639051 -0.00076190475 0.0019409091
0.0057278108 0.00076190475 -0.00025454542
0.0039289943 -0.0015238095 -0.00015909088
-0.0051597632 -0.0012380952 -0.0038818181
-0.0067692306 -0.0011428571 0.0010818182
-0.0079053259 0.0015238095 -0.0011136363
0.0062011834 -0.0020000001 -0.00073181815
0.0027928995 -0.0020000001 -0.0016863636
0.004781065 0.00066666666 -0.00034999996
0.0026982247 -0.0013333333 -0.00015909088
-0.00071005919 -0.00085714285 0.00041363639
-0.0068639051 0.001047619 -0.0025454545
-0.0030769231 0.00095238094 0.0023227273
0.0068639051 0.001047619 -0.0032136363
0.0011834319 0.00076190475 -0.0020681818
-0.0014674556 0.0020000001 -0.0013045454
0.0031715976 -0.00076190475 0.0016545454
0.0075266273 9.5238094e-05 -0.0018772726
0.0029822486 0.00076190475 0.00041363639
-0.0049704141 0.0017142857 -0.0018772726
-0.0056331363 -0.0011428571 -6.3636333e-05
-0.003739645 0.00028571428 -0.00034999996
0.0049704141 -0.0014285714 -0.0019727272
-0.006295858 0.0019047619 -0.0016863636
0.0034556212 -0.00047619047 -0.00034999996
-0.004781065 -0.0011428571 -0.0030227271
-0.0052544377 0.00085714285 -0.0020681818
-0.004781065 0.0015238095 -6.3636333e-05
0.0056331363 0.0020000001 -0.0013045454
0.0039289943 0.0020000001 -0.00073181815
-0.002887574 0.0020000001 -0.0016863636
-0.0041183433 0.0011428571 -0.0018772726
0.0016568047 0.0012380952 -6.3636333e-05
-0.0057278108 -0.00066666666 -0.00034999996
-0.00080473372 0.00076190475 -0.00015909088
-0.0074319527 0.0016190476 -0.00015909088
-0.0039289943 0.00019047619 -0.0018772726
-0.0071479292 0.001047619 -0.0019727272
0.0065798815 -0.0020000001 -0.0004454545
0.0031715976 0.00085714285 0.00098636362
0.0067692306 0.00095238094 -0.0036909091
-0.0027928995 -0.00095238094 0.0012727273
-0.0071479292 0.00057142857 -0.00034999996
-0.0036449705 -0.0020000001 -0.00054090907
0.0010887574 0.0011428571 0.0022272728
-0.0080000004 0.00038095238 -0.00063636358
-0.0012781065 0.001047619 0.00070000003
0.0066745561 0.00076190475 -0.0019727272
-0.0049704141 -0.0012380952 0.0013681818
-0.0030769231 -0.0020000001 -0.0004454545
0.0041183433 -0.0020000001 -0.00063636358
0.0069585801 -0.001047619 -0.00245
-0.0043076924 -0.0020000001 -0.0015909091
-0.0018461539 -0.0014285714 -0.0018772726
0.00052071008 0.0018095238 -0.0018772726
-0.0014674556 -0.001047619 -0.0018772726
-0.0031715976 0.0012380952 -0.0049318182
-0.0051597632 -0.0012380952 0.0012727273
-0.0059171598 0.00028571428 -0.00034999996
0.0015621302 0.00095238094 -6.3636333e-05
0.0077159763 -0.00066666666 -0.0018772726
0.0012781065 -0.00076190475 3.1818214e-05
-0.0048757396 -0.00076190475 0.0023227273
-0.0050650886 0.0012380952 -0.0041681817
0.0031715976 0.0012380952 -0.0027363636
-0.0072426037 -0.001047619 0.0013681818
-0.0069585801 -0.0012380952 -0.0021636363
0.0031715976 0.00076190475 -0.00015909088
0.0061065089 0.00028571428 -0.0018772726
0.0048757396 -0.00085714285 0.00098636362
-0.0072426037 -0.0017142857 -6.3636333e-05
-0.0069585801 -0.0019047619 -6.3636333e-05
-0.0068639051 -0.0012380952 -0.0046454542
-4.7337278e-05 0.001047619 -0.0018772726
-0.00033136093 0.0019047619 -6.3636333e-05
0.0044023669 0.0013333333 -0.00034999996
-0.0011834319 0.00038095238 -0.00034999996
0.0071479292 0.00085714285 0.0013681818
0.004781065 0.0012380952 -6.3636333e-05
0.004781065 0.00095238094 0.0019409091
-0.0016568047 -0.0013333333 -0.0018772726
0.0049704141 -0.001047619 -0.0034045454
-0.00052071008 0 -0.00034999996
-0.0031715976 -0.0020000001 -0.0017818181
0.0056331363 0.0020000001 -0.0010181818
0.00099408289 -0.00076190475 -0.0022590908
0.00080473372 -0.0020000001 -6.3636333e-05
0.0052544377 -0.00076190475 0.00041363639
0.0016568047 0.0020000001 -0.00054090907
-0.0030769231 0.0012380952 0.00089090911
0.00099408289 0.00076190475 0.0015590909
0.0072426037 -0.00076190475 -0.002640909
0.0071479292 0.001047619 0.00060454546
0.0057278108 -0.0011428571 -6.3636333e-05
0.0068639051 0.001047619 -0.0044545452
-0.0041183433 -0.0015238095 -0.00015909088
-0.0017514793 -0.0020000001 -0.0014954545
0.0039289943 0.00038095238 -0.0018772726
-0.0051597632 -0.00085714285 -0.0037863636
-0.0054437872 -0.0018095238 -0.0018772726
-0.0072426037 -0.001047619 -0.0034045454
-0.0031715976 -0.001047619 -0.0050272727
0.0072426037 -0.001047619 0.0021318181
0.0075266273 0.0015238095 -0.00015909088
0.0058224853 0.0012380952 -6.3636333e-05
-0.00052071008 -0.0015238095 -6.3636333e-05
-0.0050650886 0.00076190475 0.00012727275
-0.0072426037 -0.00076190475 -0.0029272726
0.002887574 -0.0020000001 -0.00054090907
0.004781065 0.001047619 0.00041363639
-0.0070532546 0.0012380952 -0.00025454542
0.0011834319 -0.00076190475 0.00022272731
