# .PCD v0.7 - Point Cloud Data file format
VERSION 0.7
FIELDS x y z
SIZE 4 4 4
TYPE F F F
COUNT 1 1 1
WIDTH 1141
HEIGHT 1
VIEWPOINT 0 0 0 1 0 0 0
POINTS 1141
DATA ascii
-0.0012328767 -0.0017808219 -0.0019215685
0.0011232877 -0.0010136986 0.0026352941
-0.0009589041 -0.0012328767 -0.0044470588
0.0012876713 -0.0010684931 -0.0023058823
-0.00057534245 -0.0013972602 -0.00032941173
-0.0015616438 -0.0016712329 -0.00016470585
-0.0013972602 0.0018904109 -0.00071372546
-0.00090410956 -0.00090410956 -0.0047215684
-0.00090410956 -0.0010136986 -0.0053803921
-0.0013424658 0.0010136986 -0.002745098
0.0010136986 0.0012328767 0.0006039216
-0.0019452055 -0.0010136986 -0.00087843131
-0.00057534245 -0.0016712329 -0.00021960781
-0.00063013699 -0.0011780822 -0.0019764705
0.0018904109 0.0012328767 -0.0010980392
0.0010684931 0.0009589041 0.001427451
0.0010684931 0.0011232877 0.0022509804
0.0010684931 -0.00079452054 -0.0051058824
-0.00073972601 -0.0009589041 -0.0025803922
-0.0010684931 -0.00052054797 -0.0019215685
-8.2191778e-05 0.0018904109 -5.4901928e-05
-0.00073972601 -0.0010684931 -0.0025254902
-0.0012328767 -0.0014520548 -0.00038431369
0.00079452054 0.0011232877 0.0024705883
0.0011780822 0.0011780822 -0.0035686274
0.0013424658 -0.0009589041 0.00027450983
0.0011780822 0.0012328767 0.00010980395
-0.00090410956 -0.00090410956 -0.002690196
0.00073972601 0.00084931508 -0.002690196
0.00073972601 0.0017808219 -0.0019215685
-0.0012876713 0.0010684931 -0.0032392156
0.00057534245 -0.00035616438 -0.0019215685
0.0012876713 0.0016164384 -0.00016470585
-8.2191778e-05 -0.0013972602 -0.00038431369
-0.0011232877 0.0011780822 -0.0023607842
0.0017260273 -0.0018356164 -0.0015372549
0.00090410956 -0.00090410956 -0.0040078429
-0.0013972602 0.0018904109 -0.00060392154
-0.00079452054 -0.00090410956 -0.0030745098
0.0018904109 -0.00073972601 -0.00038431369
0.00063013699 0.0010136986 5.4901993e-05
0.0013424658 0.0020000001 -0.0010431372
-0.0018356164 -0.00019178083 -0.00038431369
-0.0019452055 -0.00024657534 -0.00082352938
-0.0020000001 0.0001369863 -0.0017019607
0.00090410956 0.0012328767 0.0012627451
0.0012328767 -0.0011232877 -0.004282353
-0.0009589041 0.0010684931 -0.0046117646
-0.00090410956 -0.0019452055 -0.0019215685
0.00079452054 -0.0018904109 -0.0019215685
0.00052054797 -0.00073972601 -0.00021960781
-0.0012328767 -0.00057534245 -0.0019215685
0.0010684931 -0.0019452055 -0.00076862739
-0.00041095889 0.0017808219 -5.4901928e-05
0.0019452055 0.0010136986 -0.00071372546
0.00073972601 0.00090410956 -0.0039529409
-0.00073972601 -0.0010136986 -0.0021960784
0.00090410956 -0.0009589041 -0.0029098038
-0.00035616438 0.00084931508 -0.0019215685
-0.00024657534 -0.0012328767 -5.4901928e-05
-0.0017260273 0.00052054797 -0.0019215685
-0.0010684931 0.0011232877 -0.0035137255
0.00041095889 0.0019452055 -0.00049411762
0.00090410956 0.0012328767 0.001372549
-0.0020000001 -0.00041095889 -0.00065882347
-0.00079452054 -0.0010684931 -0.0037333332
0.0011232877 0.0010136986 0.00043921571
-0.0011232877 -0.0010684931 0.00021960787
0.0011780822 -0.0011780822 0.00049411767
0.0011232877 0.0010684931 -0.0036235293
0.0016712329 -0.00063013699 -0.00038431369
-8.2191778e-05 -0.0018356164 -0.0019215685
-0.0020000001 0.00041095889 -0.0013176471
-0.0013424658 -0.0020000001 -0.00060392154
-0.0012328767 -0.0011232877 -0.0020313724
-0.0017260273 0.0018356164 -0.00054901955
-0.00090410956 -0.00090410956 -0.0031843137
-0.0013972602 0.00079452054 -0.00010980388
-0.0019452055 0.00046575343 -0.0011529411
-0.0013424658 0.0013972602 -0.0019215685
-0.00052054797 -0.0015616438 -0.00027450977
0.0012876713 -0.0010136986 0.0024156864
0.0010684931 0.0011780822 -0.0047764704
-0.0014520548 -0.0011232877 -0.0019215685
-0.00041095889 -0.00090410956 -5.4901928e-05
-0.00063013699 0.0019452055 -0.00038431369
0.00035616438 0.00068493153 -0.0019215685
-0.00084931508 -0.0011780822 -0.0049411762
-0.00079452054 -0.0011232877 -0.0025803922
-0.0012876713 0.0010136986 -0.0036784313
0.00019178083 0.0017260273 -0.0019215685
-0.0010684931 0.0010684931 0.0023058823
0.00090410956 -0.0019452055 -0.0015921568
-0.0009589041 0.00073972601 0.0021411765
0.0011780822 -8.2191778e-05 -0.00038431369
-0.0009589041 -0.00090410956 5.4901993e-05
-0.0015616438 0.0016712329 -0.0019215685
0.0012328767 -0.00079452054 -0.0050509805
0.00035616438 0.00079452054 -0.00016470585
-0.0014520548 0.0017260273 -0.0019215685
0.0019452055 -0.0011232877 -0.00098823523
-2.739726e-05 0.00057534245 -0.00038431369
-0.0010684931 -0.0009589041 0.00071372552
-0.00035616438 0.0011232877 -5.4901928e-05
0.0010684931 -0.0009589041 -0.0053803921
-0.0012876713 0.00084931508 -0.0043372549
0.0014520548 0.0013972602 -0.0019215685
0.0010684931 -0.0010684931 -0.0023058823
0.0011232877 -0.0009589041 0.0025803922
0.0009589041 -0.0011232877 0.001482353
-0.00024657534 -0.0012876713 -5.4901928e-05
-0.0014520548 0.0012328767 -0.00027450977
-0.0019452055 0.0010136986 -0.001372549
2.739726e-05 0.0019452055 -0.0016470588
0.00079452054 0.0012328767 0.0012627451
-0.0010684931 -0.0009589041 0.0021960784
0.0012876713 -0.00079452054 0.00054901966
-0.00019178083 0.0018904109 -0.0019215685
-0.00090410956 0.0009589041 0.0017019608
-0.0009589041 -0.00090410956 0.0021960784
-0.0018904109 -0.0011780822 -0.00087843131
0.00073972601 0.0010684931 0.0015921568
-0.0010684931 0.00084931508 0.0025254902
0.0010684931 0.0018356164 -5.4901928e-05
0.00084931508 0.00063013699 -0.00038431369
-0.0012328767 0.00073972601 0.00065882353
0.0010684931 0.0010684931 -0.0037333332
0.0009589041 -0.00073972601 0.0018117647
-0.0012876713 0.0011232877 0.0021411765
-0.00090410956 -0.0012328767 -0.0029647059
-0.00057534245 -0.0019452055 -0.00043921566
0.00052054797 0.0019452055 -0.00021960781
2.739726e-05 0.0017808219 -0.0019215685
-0.00063013699 -0.00035616438 -0.00038431369
0.0011780822 -0.00068493153 -0.0019215685
-0.0013424658 0.0010684931 -0.0041725491
-0.00035616438 0.00073972601 -0.0019215685
0.0018356164 0.00019178083 -0.00038431369
-0.0009589041 0.0010684931 -0.002690196
-0.0016712329 -0.0011780822 -0.0019215685
0.00063013699 0.00084931508 -5.4901928e-05
0.00024657534 0.0013972602 -0.0019215685
0.00084931508 0.00057534245 -0.00038431369
-0.0019452055 -2.739726e-05 -0.0011529411
0.00073972601 0.00084931508 -0.0032941175
-0.0020000001 -0.00052054797 -0.00043921566
-0.0012876713 0.00090410956 -0.0044470588
0.00090410956 -0.0010136986 -0.0038980392
-0.0010136986 -0.00090410956 -0.0050509805
-0.0011232877 -0.0010684931 -0.0030745098
-0.0012876713 0.0010136986 -0.0032392156
0.00084931508 -0.00073972601 -0.0040078429
-0.00041095889 0.00030136987 -0.00038431369
-0.00068493153 0.0012876713 -0.00021960781
8.2191778e-05 -0.00073972601 -0.00016470585
0.00073972601 0.0016164384 -0.0019215685
0.00090410956 0.00090410956 0.00027450983
0.0020000001 -0.00035616438 -0.0015921568
0.0013424658 -0.0009589041 0.0020313726
0.0011232877 0.0010136986 0.00038431375
0.0018904109 0.0011232877 -0.0017019607
-0.00019178083 0.00073972601 -0.00010980388
-0.0009589041 0.00073972601 -0.00021960781
-0.0014520548 -0.0020000001 -0.00071372546
0.00046575343 0.00057534245 -0.00038431369
0.0019452055 0.0009589041 -0.0014274509
-0.0013424658 0.0009589041 -0.0023607842
-0.0015068493 -0.0019452055 -0.00060392154
-0.0012876713 -0.0017260273 -0.0019215685
0.0009589041 -0.0014520548 -0.00038431369
-0.0010684931 0.00079452054 0.0023607842
-0.00090410956 0.00019178083 -0.0019215685
0.0010684931 0.0011232877 -0.0049960786
0.0011232877 0.00046575343 -0.0019215685
0.00035616438 -0.0015616438 -0.0019215685
-0.0010684931 -0.0014520548 -0.0019215685
0.00057534245 0.0009589041 -5.4901928e-05
-0.0010136986 -0.0012876713 -0.002745098
-0.0010136986 -0.00090410956 0.0022509804
0.00073972601 -0.0018356164 -5.4901928e-05
0.0010684931 -0.0011780822 5.4901993e-05
-0.00090410956 0.00084931508 0.0013176471
0.00073972601 0.0019452055 -0.00032941173
2.739726e-05 -0.00024657534 -0.00038431369
0.00084931508 -0.00073972601 -0.0020313724
-2.739726e-05 0.0017808219 -0.0019215685
0.0013424658 -0.0010684931 -0.0043372549
0.0009589041 0.0012328767 0.0017568627
-0.0012328767 -0.0019452055 -0.00016470585
0.00041095889 0.0019452055 -0.0010980392
0.0010136986 -0.0015616438 -0.00016470585
0.0013424658 -0.00079452054 0.00021960787
0.0012328767 -0.00079452054 -0.0047215684
-0.0016712329 -0.0011780822 -5.4901928e-05
0.0012328767 -0.00079452054 -0.0024156861
-0.00019178083 2.739726e-05 -0.0019215685
0.0015068493 -0.0017260273 -0.0018666666
0.0015068493 -0.0014520548 -0.00038431369
0.0012328767 0.0018904109 -0.0019215685
0.00052054797 0.0019452055 -0.0013176471
0.00068493153 0.0011780822 5.4901993e-05
0.0014520548 -0.0017260273 -0.0018666666
-0.00073972601 -0.0011232877 -0.0021411765
-0.00046575343 -0.0013424658 -5.4901928e-05
-0.00090410956 0.00084931508 0.0019215686
8.2191778e-05 -0.00079452054 -0.0019215685
0.0010136986 0.0012328767 0.0020862746
-0.0012328767 0.0011232877 0.0018666667
0.0011780822 0.0011232877 -0.0025254902
0.0012876713 -0.00090410956 0.0016470589
-0.0016712329 0.0010136986 -0.0019215685
0.0011232877 -2.739726e-05 -0.00038431369
-0.0014520548 -0.0020000001 -0.0017019607
-0.0012328767 0.00079452054 -0.0047215684
0.0020000001 0.00035616438 -0.00076862739
0.0017260273 0.0015616438 -0.0019215685
0.0013424658 0.0001369863 -0.00038431369
0.0011780822 -0.0011780822 0.0016470589
0.0009589041 -0.0011780822 0.00049411767
0.0018356164 0.0016164384 -0.001262745
-0.0018904109 0.0012876713 -5.4901928e-05
-0.00090410956 -0.00090410956 -0.0038431371
0.0016164384 -0.00090410956 -5.4901928e-05
0.00090410956 -0.00073972601 -0.0041176472
0.0010136986 0.0012328767 -0.0049411762
-8.2191778e-05 -0.0019452055 -0.00027450977
0.0009589041 -0.00073972601 3.3333333e-11
8.2191778e-05 0.00073972601 -0.00016470585
0.0013424658 -0.00073972601 -0.00027450977
-0.0019452055 -0.00035616438 -0.00082352938
0.00063013699 0.00079452054 -0.0019215685
-0.0009589041 -0.0019452055 -0.00060392154
-0.0020000001 -0.00057534245 -0.0013176471
-8.2191778e-05 -0.00073972601 -0.00010980388
-0.0017808219 0.0011780822 -0.00027450977
-0.00079452054 -0.00084931508 0.0012078432
0.00084931508 0.0012328767 -0.0035686274
-0.00084931508 -0.00090410956 -0.0020313724
-0.0010136986 0.0010684931 -0.0051058824
0.0018356164 0.0014520548 -0.0018117647
-0.0015616438 0.00084931508 -0.00010980388
-0.00084931508 -0.00090410956 0.001427451
-0.00068493153 -0.0009589041 0.00010980395
-0.0016164384 0.0016164384 -0.00016470585
-0.0010684931 -0.0009589041 0.0017019608
0.00079452054 0.00084931508 -0.0030196079
0.0011232877 -0.00073972601 -0.0024705881
0.00090410956 0.00090410956 -0.0030196079
0.0017808219 -0.0017260273 -0.00021960781
-0.00090410956 0.0009589041 0.00021960787
-2.739726e-05 -0.0019452055 -0.0010980392
-0.0010136986 0.00057534245 -0.0019215685
0.00090410956 -0.00063013699 -0.0019215685
-0.00090410956 -0.00090410956 0.0013176471
-0.00079452054 0.0011232877 -0.0020313724
-0.0009589041 -0.0012328767 -0.0034588235
-0.0010684931 -0.0012876713 -0.0045568626
0.00090410956 -0.00073972601 -0.0030196079
0.0011780822 0.0011780822 -0.004282353
-0.0019452055 0.0011780822 -0.0013176471
0.00090410956 -0.0010684931 0.00049411767
-0.0018356164 -0.0015616438 -0.0015372549
-0.0016712329 0.00090410956 -0.00032941173
0.0011780822 0.0011232877 -0.0036235293
-0.0009589041 -0.0010136986 0.0024705883
0.0010684931 -0.0011232877 -0.0025254902
0.0011232877 0.0009589041 0.00027450983
0.0020000001 -0.00073972601 -0.0017019607
-0.0016164384 -0.00046575343 -0.0019215685
0.0010684931 0.0009589041 0.00043921571
-0.00079452054 -0.00084931508 0.001427451
-0.00090410956 0.00084931508 -0.0049960786
8.2191778e-05 -0.0019452055 -0.00076862739
-0.00090410956 0.00090410956 0.00054901966
0.0018356164 -0.0013972602 -0.00016470585
-0.00079452054 -0.0019452055 -0.0015372549
-0.0011780822 0.0016164384 -0.0019215685
-0.00019178083 0.00024657534 -0.0019215685
-0.00079452054 -0.0010136986 0.0023607842
0.0009589041 -0.0011780822 -0.0046117646
0.0016164384 -0.0018356164 -0.0017019607
0.0011780822 0.00030136987 -0.00038431369
-0.00041095889 -0.0019452055 -0.0017019607
-0.00084931508 0.0015616438 -0.0019215685
-0.00079452054 -0.0009589041 0.0023058823
0.00073972601 0.0017808219 -5.4901928e-05
-0.00090410956 0.00073972601 -0.0046666665
-0.0020000001 -0.00046575343 -0.001372549
0.0020000001 -0.00035616438 -0.0009333333
-0.00079452054 -0.0010684931 -0.0034039214
0.0016712329 -0.0017260273 -0.00010980388
0.0020000001 -0.0012328767 -0.00043921566
0.00079452054 -0.00073972601 -0.0020862746
-0.00030136987 -0.0019452055 -0.001262745
-0.0019452055 -0.00079452054 -0.00076862739
-0.0012328767 -0.0015616438 -0.0019215685
0.0018904109 0.0012876713 -0.0009333333
0.00073972601 0.0010136986 -0.0051607843
-0.0018356164 0.0015616438 -0.0019215685
0.00073972601 -0.0010684931 -5.4901928e-05
-0.00079452054 -0.0010684931 -0.0040627448
0.0013424658 -0.0010684931 0.00032941179
-0.00090410956 0.0009589041 -0.004227451
-0.0012328767 0.0009589041 -0.0052156863
0.0020000001 -0.00084931508 -0.00043921566
-0.0009589041 0.0011232877 0.00049411767
0.0009589041 0.0012328767 -0.0023607842
0.0010684931 -0.0019452055 -0.00032941173
0.0013424658 -0.0010684931 -0.0032392156
0.0019452055 -0.0011232877 -0.0012078431
-0.0018356164 -0.0011232877 -0.0019215685
0.0014520548 0.0020000001 -0.0014274509
-0.0012876713 -0.0020000001 -0.00060392154
0.00041095889 0.00079452054 -0.0019215685
0.00046575343 -0.0019452055 -0.0016470588
-0.0011780822 -0.0011780822 0.00054901966
0.0019452055 -0.00084931508 -0.0009333333
-0.0013424658 0.0018904109 -0.0015372549
-8.2191778e-05 -0.0019452055 -0.00021960781
-0.0018904109 -0.0013424658 -0.00065882347
-0.0009589041 0.0017808219 -0.0019215685
-0.00084931508 0.00079452054 0.0012078432
-0.0010684931 0.0011232877 0.00043921571
2.739726e-05 -0.00063013699 -0.0019215685
-0.0011232877 0.00057534245 -0.00038431369
-0.00035616438 -8.2191778e-05 -0.00038431369
-0.0019452055 0.0010684931 -0.00021960781
-0.0009589041 8.2191778e-05 -0.0019215685
-0.0011780822 0.00073972601 0.0020862746
-0.0020000001 0.0001369863 -0.00043921566
0.0020000001 0.00063013699 -0.0013176471
0.00068493153 0.0020000001 -0.0015372549
0.0012328767 -0.0011232877 -0.0045019607
0.0015616438 -0.00068493153 -0.00038431369
-0.0010684931 -0.0009589041 -0.004227451
-0.0013424658 0.0012876713 -0.00038431369
0.00090410956 -0.00084931508 -0.0038980392
2.739726e-05 -0.0019452055 -0.00087843131
0.00068493153 -0.00084931508 -5.4901928e-05
0.00068493153 -0.0015616438 -0.00016470585
0.0020000001 -0.00035616438 -0.001262745
-0.0020000001 0.0013972602 -0.0018666666
-0.0019452055 -0.00041095889 -0.00076862739
0.0011780822 -0.00079452054 -0.0045019607
0.0020000001 -0.0012328767 -0.00038431369
0.00084931508 -0.00079452054 -0.0046666665
-0.0016164384 -0.00035616438 -0.00038431369
-0.0013424658 0.0014520548 -0.0019215685
-0.0013424658 0.0009589041 0.001427451
-0.00084931508 -0.0012328767 0.0010980392
0.00073972601 -0.00068493153 -0.00038431369
-0.0013424658 0.0012328767 -0.00027450977
-0.00090410956 -0.00090410956 -0.004282353
0.00041095889 -0.0015068493 -0.0019215685
-0.00079452054 -0.0009589041 -0.0046666665
0.00084931508 0.00090410956 -0.0029647059
0.00084931508 0.0010136986 -0.0053254901
-0.00090410956 0.0010136986 0.0006039216
0.00041095889 0.0019452055 -0.00010980388
0.0009589041 0.0012328767 -0.0047215684
-0.0011232877 -0.0011780822 0.0020313726
-0.00068493153 0.0001369863 -0.00038431369
-0.0018904109 -0.0011232877 -0.00087843131
0.00079452054 0.0010684931 -0.0029098038
-0.0019452055 0.0013424658 -0.0019215685
0.0020000001 -0.0009589041 -0.00038431369
0.00052054797 0.0015068493 -0.0019215685
0.00030136987 0.0013424658 -0.0019215685
0.0009589041 0.0012876713 0.00010980395
-0.0001369863 -0.00073972601 -0.00021960781
0.0010684931 -0.0010684931 -0.0024156861
-0.0011232877 -0.0011780822 -0.0040078429
-0.0012328767 0.0018904109 -0.00016470585
0.0009589041 0.0012328767 -0.0038980392
-0.0016712329 0.0018356164 -0.0009333333
0.0016712329 -0.0009589041 -0.0019215685
0.00057534245 -0.0013424658 -0.00032941173
-0.00084931508 -0.0012328767 0.00071372552
-0.00090410956 0.00041095889 -0.00038431369
0.0009589041 -0.00084931508 -0.0052705882
0.00079452054 0.00084931508 0.001427451
-0.00024657534 0.0011232877 -0.0019215685
-0.00019178083 0.0012328767 -5.4901928e-05
-0.00084931508 -0.0011780822 -0.0025803922
0.0011232877 0.0019452055 -0.00060392154
-0.0011780822 0.00073972601 -0.0040078429
0.00079452054 0.0010136986 -0.0052705882
0.00073972601 0.00090410956 -0.002690196
0.0017808219 -0.00035616438 -0.0019215685
-0.00035616438 0.0019452055 -5.4901928e-05
0.00068493153 -0.0019452055 -0.00087843131
0.00084931508 -0.0015616438 -0.00027450977
-0.0019452055 -0.00024657534 -0.0018117647
-0.0011232877 -0.0009589041 0.00087843137
0.00052054797 0.0016712329 -0.0019215685
0.0018356164 -0.0012328767 -0.00010980388
0.0017260273 0.0013972602 -0.00021960781
-0.0009589041 -0.0012876713 0.00021960787
0.00090410956 0.00090410956 -0.0035686274
-0.00046575343 0.00035616438 -0.00038431369
-0.0015616438 0.0018356164 -0.0010980392
-0.0013972602 8.2191778e-05 -0.00038431369
-0.00035616438 -0.00046575343 -0.00038431369
-0.00063013699 0.0012876713 -0.00027450977
0.00030136987 0.00079452054 -0.00021960781
8.2191778e-05 0.0019452055 -0.0009333333
0.0018904109 0.0013972602 -0.001262745
0.0010684931 0.0012328767 0.0013176471
-0.0012876713 0.00084931508 -0.0039529409
0.0010684931 0.0012328767 -0.0040627448
-0.0015068493 -0.00030136987 -0.0019215685
0.0010684931 -0.00073972601 0.00032941179
-0.0012876713 0.0011232877 0.0010431373
0.00063013699 -0.0011232877 -5.4901928e-05
0.00068493153 2.739726e-05 -0.00038431369
0.0018356164 0.0016164384 -0.00071372546
-0.00057534245 -0.00073972601 -0.00038431369
-0.0019452055 0.00024657534 -0.0011529411
-0.0019452055 0.00079452054 -0.0017568627
0.0009589041 -0.0019452055 -0.00016470585
-0.0019452055 -0.00019178083 -0.00076862739
0.00052054797 0.0019452055 -0.00082352938
-0.0012876713 0.0011232877 -0.0024705881
0.00084931508 0.0012328767 -0.0048862742
0.0010136986 -0.0015068493 -0.0019215685
0.00024657534 0.0018904109 -5.4901928e-05
0.00019178083 -0.00063013699 -0.0019215685
-0.0010684931 -0.00035616438 -0.00038431369
0.0011780822 -0.00079452054 -0.0037882351
0.0012876713 -0.00090410956 -0.0038431371
-0.00073972601 -0.0019452055 -0.0010431372
-0.0019452055 -0.00084931508 -0.001372549
-0.00030136987 0.0020000001 -0.0015372549
-0.0015616438 0.0018356164 -0.001372549
-0.00030136987 0.0012876713 -0.0019215685
-0.0009589041 0.00073972601 0.0013176471
0.00090410956 -0.00090410956 0.0019764707
0.0009589041 0.00090410956 -0.0024156861
0.00024657534 0.0009589041 -5.4901928e-05
0.00068493153 0.0017260273 -0.00010980388
-0.00068493153 0.0016164384 -0.0019215685
-0.00030136987 0.00063013699 -0.0019215685
0.0010136986 -0.00073972601 -0.0019764705
0.00024657534 -0.0019452055 -0.0015372549
0.0010684931 -0.0011232877 0.0017019608
0.0010684931 0.0009589041 -0.0051607843
-0.00079452054 -0.0010136986 -0.0031843137
0.00084931508 -0.0019452055 -0.0016470588
-0.0012876713 0.0011232877 0.001427451
0.00019178083 0.0015616438 -0.00032941173
-0.0016164384 -0.00041095889 -0.0019215685
-8.2191778e-05 0.0018356164 -5.4901928e-05
-0.0010136986 0.00063013699 -0.0019215685
0.0015068493 0.0017808219 -0.0019215685
0.0015616438 0.0018904109 -0.00010980388
0.00090410956 -0.0009589041 -0.0024156861
-0.0011780822 -0.0011232877 -0.0034588235
0.0011780822 0.0016164384 -0.0019215685
0.0015616438 0.0016712329 -0.00021960781
-0.00084931508 -0.0011780822 -0.0028549018
0.0014520548 -0.0017808219 -0.00016470585
-0.0010136986 0.0011232877 0.0022509804
0.0018904109 -0.0014520548 -0.00038431369
0.00090410956 0.0012328767 0.00032941179
-0.0011232877 -0.0009589041 -0.0029647059
0.00063013699 0.0012876713 -0.00032941173
0.00068493153 0.0012328767 -0.0020313724
-0.00090410956 0.00073972601 0.0012627451
-0.0019452055 0.0011232877 -0.0015921568
0.00073972601 -0.0013424658 -0.0019215685
-0.0010136986 0.0009589041 -0.0052156863
0.0018904109 0.0013424658 -0.001262745
-2.739726e-05 2.739726e-05 -0.00038431369
-0.0011232877 0.0017260273 -0.0019215685
0.00079452054 0.0010684931 -0.0037882351
-0.0015068493 0.0018356164 -0.00076862739
0.0014520548 0.0020000001 -0.00087843131
0.0017260273 -0.0011232877 -0.00010980388
-2.739726e-05 -0.0019452055 -0.00054901955
0.00052054797 -0.0013972602 -0.0019215685
-0.0011232877 -0.0013972602 -0.00010980388
0.00084931508 -0.0010684931 -0.0020862746
-0.00079452054 -0.0010684931 -0.0047764704
0.0012876713 0.00063013699 -0.00038431369
-0.00030136987 -0.0019452055 -0.0010980392
-0.0013424658 0.0010136986 -0.0049411762
0.0012328767 -0.0011232877 5.4901993e-05
0.00090410956 0.00090410956 -0.00032941173
0.0011780822 0.0011780822 0.0010980392
-0.0013424658 0.0010684931 0.00071372552
0.0012876713 -0.0017808219 -0.0018666666
-0.0016164384 -2.739726e-05 -0.0019215685
-0.00063013699 0.0012328767 -0.0019215685
0.0013424658 -0.00090410956 0.0015372549
0.00068493153 0.0019452055 -0.0011529411
-0.0016712329 -0.00052054797 -0.00038431369
-0.0018356164 -0.0016164384 -0.00098823523
-0.0009589041 0.0011780822 0.00049411767
0.00052054797 0.0010136986 -0.0019215685
2.739726e-05 -0.00057534245 -0.00038431369
-0.0010136986 -0.0012328767 0.00098823535
0.0015616438 -0.00035616438 -0.00038431369
-0.0001369863 -0.00052054797 -0.00038431369
-0.0019452055 2.739726e-05 -0.0018117647
-0.0011232877 -0.0009589041 -0.0036235293
-0.0013424658 -0.0020000001 -0.00032941173
0.0020000001 -8.2191778e-05 -0.00043921566
-0.0017260273 0.0013424658 -0.00021960781
-0.00079452054 -0.00084931508 0.0019764707
-0.00084931508 -0.00090410956 0.00032941179
0.00057534245 0.0013424658 -0.0019215685
0.0020000001 -0.0012876713 -0.0014823528
0.0001369863 0.0016712329 -0.00010980388
0.0012876713 -0.00084931508 -0.0039529409
-0.0010136986 -0.00090410956 -0.0023607842
0.00084931508 0.0011780822 -0.0040078429
-0.0001369863 -0.0019452055 -0.0015921568
-0.00035616438 0.0001369863 -0.0019215685
2.739726e-05 -0.0010136986 -5.4901928e-05
-0.0013972602 0.00046575343 -0.0019215685
0.0016164384 -0.00041095889 -0.00038431369
0.0020000001 -0.0013424658 -0.00010980388
0.0012876713 -0.00057534245 -0.0019215685
0.00073972601 0.0010136986 0.0019764707
-0.0001369863 0.0019452055 -0.00087843131
0.0001369863 0.0019452055 -0.00032941173
-0.00090410956 0.0019452055 -0.0010980392
-0.00073972601 0.0012876713 -0.00032941173
0.00073972601 0.0009589041 0.0017019608
-0.0011232877 0.0011780822 -0.0036235293
-0.00041095889 0.00073972601 -0.00016470585
-0.0016712329 0.0018356164 -0.00082352938
-0.0010136986 0.0015068493 -0.00038431369
-0.0010136986 -0.00090410956 -0.0044470588
2.739726e-05 0.0019452055 -0.00049411762
-0.0015616438 0.0009589041 -5.4901928e-05
0.0020000001 -0.0013424658 -0.00016470585
-0.00079452054 -0.0009589041 -0.0030745098
0.0010684931 0.0012328767 -0.0030745098
-0.0010684931 -0.0012876713 -0.0048313723
-0.0010684931 0.0019452055 -0.0016470588
-0.0019452055 -0.00079452054 -0.0012078431
-0.0011232877 0.00073972601 0.0019215686
-0.0014520548 0.0015068493 -0.0019215685
-0.0001369863 -0.00057534245 -0.0019215685
0.0012876713 0.0020000001 -0.0018117647
-0.00079452054 -0.0010684931 0.0020862746
0.00084931508 0.00090410956 0.00010980395
-0.00090410956 0.00063013699 -0.00038431369
0.0020000001 -0.00090410956 -0.00043921566
-0.00090410956 -0.00090410956 -0.0038980392
0.00068493153 -0.00073972601 -0.00032941173
0.0011232877 0.0015616438 -0.00016470585
0.0020000001 0.00073972601 -0.0014274509
-0.0012328767 -0.00024657534 -0.0019215685
0.0010136986 0.00090410956 -0.0024705881
-0.0001369863 -0.00068493153 -0.00038431369
0.0013972602 -0.00057534245 -0.0019215685
-0.0012876713 -0.0020000001 -0.00054901955
0.0012876713 0.0020000001 -0.0015372549
-0.00079452054 -0.0019452055 -0.001262745
-0.0011780822 -0.0011780822 -0.0046117646
-0.0019452055 2.739726e-05 -0.001262745
0.00084931508 0.00090410956 -0.0033490194
-0.0012328767 -0.0019452055 -0.00071372546
-0.00046575343 -0.0013972602 -0.0019215685
-0.0009589041 0.00073972601 -0.0040627448
-0.0015068493 -0.0015616438 -0.00021960781
-0.0011232877 0.0018904109 -5.4901928e-05
0.0016164384 0.0001369863 -0.0019215685
-0.0012328767 0.00079452054 0.00065882353
0.0011780822 -8.2191778e-05 -0.0019215685
-0.0011780822 0.0013972602 -0.0019215685
0.00090410956 -0.00084931508 -0.002690196
0.0012328767 0.0009589041 -5.4901928e-05
-8.2191778e-05 0.0019452055 -0.0016470588
0.0016164384 -2.739726e-05 -0.00038431369
-0.0020000001 0.00030136987 -0.00060392154
0.0015068493 -0.0001369863 -0.00038431369
0.0019452055 0.00030136987 -0.0018117647
-0.00024657534 0.0019452055 -0.00071372546
-0.0011232877 -0.0010136986 0.0010980392
0.0010684931 0.0014520548 -0.0019215685
0.00079452054 -0.0019452055 -0.001262745
-0.0010684931 -8.2191778e-05 -0.0019215685
-0.00090410956 0.00073972601 0.0019764707
0.00063013699 0.0013972602 -0.0019215685
-0.0013424658 -0.00019178083 -0.0019215685
-0.0010136986 -0.00090410956 0.0015372549
0.00084931508 0.0012328767 -0.0038431371
0.0015616438 -0.0013972602 -0.00021960781
-0.0011780822 0.00073972601 -0.0040627448
0.00079452054 -0.00079452054 0.00082352944
-0.0012876713 0.00019178083 -0.00038431369
0.0020000001 -2.739726e-05 -0.00049411762
-0.0013424658 0.0018904109 -0.00060392154
-0.00090410956 0.0009589041 0.0018666667
-0.0012328767 0.00073972601 -0.0025254902
-0.00019178083 0.0012876713 -0.00032941173
-0.0017808219 0.00046575343 -0.0019215685
-0.00090410956 0.0010136986 -0.0051607843
2.739726e-05 -0.0013972602 -0.0019215685
-0.00063013699 -0.0019452055 -0.0012078431
0.0020000001 -0.00019178083 -0.0018117647
0.00041095889 0.0019452055 -0.0018117647
-0.0010136986 0.00073972601 -0.0048862742
-0.0010136986 -0.0012328767 -0.0041725491
0.0015068493 0.0020000001 -0.0019215685
-0.0009589041 0.0001369863 -0.0019215685
0.0013424658 -0.00090410956 -0.0048313723
0.00090410956 -0.0010136986 0.0019215686
-0.0016164384 -0.00068493153 -0.00038431369
0.0019452055 0.0010136986 -0.00060392154
0.0012328767 -0.0009589041 0.001427451
0.0013424658 -0.0010136986 0.00021960787
0.0020000001 -0.00030136987 -0.00060392154
0.0013972602 -0.00079452054 -0.0022509804
0.0011780822 -0.00084931508 -0.004282353
0.00084931508 0.00019178083 -0.0019215685
-0.0020000001 0.00041095889 -0.00065882347
-0.00073972601 0.00041095889 -0.0019215685
-0.0010136986 0.0014520548 -0.00038431369
-0.0011232877 -0.0010684931 0.0020862746
0.00090410956 0.00090410956 -0.0045019607
0.0009589041 0.0016164384 -0.0019215685
0.0020000001 -0.00073972601 -0.00060392154
-0.0018356164 0.0011780822 -0.00027450977
-0.00019178083 0.0018356164 -0.0019215685
0.00019178083 0.0012876713 -5.4901928e-05
0.0011780822 -0.0012328767 -0.00016470585
0.0015616438 0.0001369863 -0.00038431369
0.00046575343 0.0013424658 -0.00016470585
0.0014520548 -0.0018356164 -0.0014823528
-0.0014520548 0.00090410956 3.3333333e-11
0.00079452054 0.0014520548 -0.00038431369
-0.0017260273 -0.0018904109 -0.0015372549
0.0019452055 0.00084931508 -0.00054901955
0.0016712329 0.0018356164 -0.00021960781
-0.0016164384 -0.0019452055 -0.0015921568
8.2191778e-05 -0.0019452055 -0.00054901955
-0.0011780822 -0.0011232877 -0.0037882351
-0.0015068493 -0.0019452055 -0.0014823528
-0.0009589041 0.0010684931 -0.0047764704
0.00019178083 0.0019452055 -0.00049411762
-0.00090410956 0.00090410956 0.00065882353
-0.00073972601 -0.0019452055 -0.00032941173
-0.0012328767 0.0010684931 0.0021960784
-0.00052054797 -0.0013972602 -0.00027450977
0.0010136986 0.0012328767 -0.0048862742
0.0020000001 -0.0001369863 -0.0010980392
-8.2191778e-05 -0.0019452055 -0.0009333333
2.739726e-05 -0.0019452055 -0.00038431369
0.00057534245 -0.00046575343 -0.00038431369
-0.0020000001 -0.00019178083 -0.00065882347
-0.0017260273 -0.0016164384 -0.00016470585
-0.0020000001 -0.00068493153 -0.0013176471
0.00073972601 -0.00068493153 -0.0019215685
0.0018356164 0.0016712329 -0.0014823528
0.0013972602 0.0016712329 -0.00010980388
0.0020000001 -0.0012876713 -0.00049411762
-0.0009589041 0.00073972601 0.00027450983
0.0010136986 -0.0013424658 -0.0019215685
0.0020000001 -0.0015616438 -0.0016470588
0.00073972601 0.0019452055 -0.0010431372
-0.0016712329 0.0018356164 -0.0010431372
0.00073972601 0.0020000001 -0.0019215685
0.0017260273 8.2191778e-05 -0.00038431369
-0.0010136986 0.0011232877 -0.0031843137
0.00063013699 -8.2191778e-05 -0.00038431369
-0.00052054797 0.0015616438 -0.00016470585
0.00057534245 -0.0018356164 -0.0019215685
0.00019178083 -0.00046575343 -0.00038431369
0.0016712329 -0.00052054797 -0.0019215685
-0.00084931508 -0.00090410956 -0.0047764704
0.0001369863 -0.0009589041 -0.0019215685
0.00057534245 0.0013972602 -0.00021960781
0.00084931508 0.0011780822 -0.0035137255
0.00079452054 0.0019452055 -0.00082352938
0.0010684931 0.0012328767 0.0023058823
0.0010684931 -0.0019452055 -0.00082352938
-0.0015068493 0.0018356164 -0.00049411762
0.0018356164 0.0015068493 -0.00054901955
-0.0019452055 -0.00090410956 -0.0017568627
0.00084931508 0.00090410956 -0.0023607842
-0.0010684931 -0.0019452055 -0.00087843131
-0.0011232877 -0.0010136986 0.00016470591
-0.0013424658 0.0010684931 0.0011529411
0.00030136987 -0.0013972602 -0.00032941173
0.0013972602 -0.0018904109 -0.0010431372
-0.00090410956 0.0010136986 -0.0038431371
-0.00073972601 0.0012876713 -0.00027450977
-0.00084931508 -0.00090410956 -0.0041176472
-0.0010136986 0.0011232877 0.0017019608
0.0009589041 0.00068493153 -0.0019215685
0.00019178083 0.0001369863 -0.00049411762
-0.0010684931 0.00057534245 -0.0019215685
-0.0017808219 -0.0018356164 -0.0016470588
-0.00084931508 -0.0012328767 0.00093333336
0.0017808219 -0.0009589041 -0.0019215685
0.00041095889 -0.0012328767 -0.00027450977
-0.00046575343 0.00052054797 -0.00038431369
-0.00079452054 -0.0011232877 -0.0035137255
0.0017260273 0.0015616438 -0.00021960781
0.00041095889 -0.0019452055 -0.0013176471
-0.0012876713 0.0011232877 -0.002745098
-0.0009589041 -0.0013424658 0.00010980395
0.0009589041 0.0019452055 -0.00010980388
0.0011780822 -0.00068493153 -0.00038431369
-0.0010684931 0.00057534245 -0.00038431369
-0.0019452055 -0.0010684931 -0.00071372546
0.0010684931 0.0012328767 -0.0045019607
0.00041095889 -0.0001369863 -0.0019215685
-0.00079452054 -0.00084931508 0.0018666667
-0.0013424658 -0.0016712329 -0.00016470585
-0.0010684931 -0.0011232877 -0.0051058824
0.0009589041 -0.0011232877 0.0020313726
0.00090410956 -0.00073972601 0.0012627451
0.0020000001 -0.00030136987 -0.0017019607
0.00073972601 0.00090410956 0.00071372552
0.0013424658 0.00073972601 -0.0019215685
0.0012876713 -0.0018904109 -0.00021960781
0.00035616438 -0.0018356164 -0.0019215685
-0.0011780822 -0.0011232877 0.0006039216
-0.0010684931 0.00073972601 -0.0022509804
0.00084931508 -0.00079452054 -0.0034588235
0.0011232877 0.0020000001 -0.0015921568
-0.0011780822 0.0011780822 -0.0023058823
-0.00084931508 -0.0011780822 0.0017568627
0.00073972601 0.0010684931 0.001372549
0.00084931508 0.0019452055 -0.0011529411
0.0012328767 0.0016164384 -0.00016470585
0.0001369863 -0.0010136986 -0.0019215685
0.00068493153 -0.0018356164 -0.0019215685
-0.00024657534 -0.00057534245 -0.00038431369
0.0001369863 0.0013972602 -0.00038431369
0.0014520548 0.00030136987 -0.00038431369
0.0013424658 -0.0010136986 -0.0044470588
-0.00084931508 -0.00090410956 -0.002690196
0.0017808219 -8.2191778e-05 -0.00038431369
-0.0013972602 -0.0020000001 -0.00038431369
-0.0009589041 -0.00090410956 -0.0034039214
-0.0011780822 -0.0009589041 -0.0022509804
0.0013424658 0.0020000001 -0.00054901955
-0.0012328767 0.0018904109 -0.001262745
-0.00057534245 0.00035616438 -0.00038431369
-0.00030136987 0.00046575343 -0.0019215685
0.00084931508 -0.00090410956 -0.0021960784
-0.0019452055 -0.0010136986 -0.00049411762
0.00090410956 -0.0010684931 0.0013176471
-0.00084931508 -0.0012328767 -0.0046666665
-0.00079452054 -0.0012328767 -0.0021960784
0.0001369863 0.00073972601 -0.0019215685
0.0011780822 0.0019452055 -0.00043921566
0.00030136987 -0.0012328767 -0.0019215685
0.0012328767 -0.0010684931 0.0015372549
0.00090410956 -0.0009589041 -0.0033490194
0.0020000001 8.2191778e-05 -0.0017019607
0.0016712329 -0.00090410956 -0.00021960781
0.00063013699 0.00084931508 -0.00016470585
0.0017808219 0.0016164384 -0.0019215685
-0.0016164384 0.0018356164 -0.00038431369
0.0020000001 -0.0015616438 -0.0010431372
0.0010136986 -0.0010136986 -0.0052156863
-0.00084931508 -0.0011780822 0.00082352944
-0.0015068493 -0.0015068493 -0.00038431369
0.0018356164 0.0017260273 -0.00060392154
0.00035616438 -0.00090410956 -5.4901928e-05
-0.0014520548 0.0013972602 -0.00021960781
-0.00073972601 -0.00084931508 0.0012078432
-0.00063013699 0.00068493153 -0.0019215685
-0.0012328767 -0.0013972602 -0.00021960781
-0.0009589041 0.00073972601 -0.0030745098
0.0015068493 -0.00084931508 -5.4901928e-05
0.00073972601 0.00084931508 -0.0030196079
-0.0019452055 0.00063013699 -0.00087843131
-0.00079452054 0.00019178083 -0.00038431369
-0.00068493153 -0.0016164384 -0.00027450977
0.00073972601 0.0019452055 -0.00071372546
0.00073972601 0.00090410956 -0.0036235293
-0.0015616438 -0.0010684931 -5.4901928e-05
0.0009589041 -0.0011232877 -0.0043921568
0.00084931508 0.00079452054 -0.00038431369
-0.0017808219 0.0001369863 -0.0019215685
0.0013972602 -0.0013972602 -0.00027450977
0.00030136987 0.0015068493 -0.0019215685
-0.0013972602 0.0018904109 -0.00043921566
-0.00079452054 -0.0011232877 0.001427451
0.0009589041 0.00090410956 -0.0046117646
0.0012328767 -0.0018904109 -0.0015372549
0.00090410956 0.0019452055 -0.00032941173
0.00073972601 0.00084931508 0.0015372549
-0.00019178083 0.0019452055 -0.00082352938
0.00063013699 -0.0016712329 -0.0019215685
-0.0017808219 -0.0017808219 -0.0012078431
-0.0016164384 0.0012876713 -0.00032941173
-0.0019452055 -0.00035616438 -0.0015921568
0.00019178083 -0.00024657534 -0.0019215685
0.00090410956 -0.00073972601 -0.004282353
0.00084931508 -0.00079452054 0.00032941179
0.0010684931 -0.0011780822 0.0010431373
0.00052054797 0.00052054797 -0.0019215685
-0.00035616438 -0.0013972602 -0.00038431369
0.0009589041 0.0011780822 -0.0052156863
-0.0013424658 -0.0020000001 -0.00010980388
0.00084931508 -0.0001369863 -0.00038431369
0.0013972602 -0.0010136986 -5.4901928e-05
0.00079452054 0.0010136986 0.0023058823
-0.00084931508 0.00073972601 0.00065882353
0.0013424658 -0.00090410956 0.00016470591
-0.00090410956 -0.0019452055 -0.00087843131
-0.0011232877 0.0009589041 0.0026352941
-0.0014520548 -0.00090410956 -0.00038431369
-0.00090410956 0.0010136986 0.00043921571
-8.2191778e-05 0.00079452054 -5.4901928e-05
-0.00035616438 0.00046575343 -0.0019215685
-0.0012876713 0.0016712329 -0.0019215685
0.0015616438 -0.0013972602 -0.00032941173
0.0010684931 0.0012328767 -0.0048313723
0.0010684931 -0.0011780822 -0.0040627448
-0.0016712329 0.0018356164 -0.00049411762
0.0012328767 0.00073972601 -0.00038431369
-0.0019452055 -0.0001369863 -0.0019215685
0.00084931508 -0.00068493153 -0.00038431369
-0.0010684931 0.00073972601 -0.0028549018
0.0011232877 0.00030136987 -0.00038431369
0.00052054797 0.0018904109 -5.4901928e-05
-0.00046575343 -8.2191778e-05 -0.00043921566
-0.0011780822 -0.00068493153 -0.0019215685
0.0010136986 0.0012876713 0.00010980395
-0.0010684931 0.00063013699 -0.0019215685
-0.0019452055 0.0001369863 -0.00076862739
0.0014520548 0.0013972602 -5.4901928e-05
0.0009589041 -0.00073972601 0.0015372549
-0.0015616438 0.0017808219 -0.0018666666
0.0001369863 0.0011780822 -5.4901928e-05
8.2191778e-05 0.0015616438 -0.00027450977
0.00079452054 -0.00073972601 -0.00032941173
0.00073972601 0.0010684931 0.00082352944
-0.00079452054 0.0010136986 5.4901993e-05
0.0009589041 0.0019452055 -0.00016470585
-0.00079452054 -0.0011232877 -0.0032392156
-0.0010136986 0.0011232877 -0.0025803922
-0.0017260273 -0.0017260273 -0.00016470585
0.0015616438 -0.0018356164 -0.0017019607
0.00046575343 0.0019452055 -0.00021960781
-0.0009589041 0.00073972601 -0.0043921568
0.00090410956 -0.0010136986 0.0013176471
-0.00063013699 8.2191778e-05 -0.0019215685
0.00090410956 0.0019452055 -0.00071372546
0.0010684931 -0.0011232877 -0.0035686274
0.0015616438 -0.0017260273 -5.4901928e-05
-0.00073972601 -0.0009589041 0.00076862745
0.0016712329 -0.0017260273 -5.4901928e-05
-0.00084931508 -0.00090410956 0.0023058823
-0.00084931508 -0.0012328767 0.0015372549
0.0011232877 -0.00041095889 -0.0019215685
-0.00090410956 0.00084931508 0.0023607842
8.2191778e-05 0.0019452055 -0.0010431372
0.0020000001 -0.0013972602 -0.00038431369
0.0011780822 -0.0010136986 -0.0052156863
0.00057534245 -0.00057534245 -0.0019215685
-0.0010684931 -0.0009589041 0.00021960787
0.00073972601 0.0009589041 0.0011529411
-0.00084931508 -0.0011232877 0.0024705883
0.0011232877 0.0015616438 -0.0019215685
0.0016164384 0.0017260273 -0.00010980388
0.0018356164 -0.0015068493 -0.0019215685
0.00084931508 0.00090410956 0.0021960784
0.00041095889 0.00068493153 -0.00038431369
-0.0012876713 0.0011232877 0.00038431375
-0.0013972602 0.00084931508 -0.0020313724
-0.00019178083 -0.0001369863 -0.00038431369
0.0020000001 -8.2191778e-05 -0.0012078431
0.00024657534 0.00052054797 -0.00038431369
-0.0010684931 0.00084931508 0.0024705883
0.0019452055 -0.0009589041 -0.0012078431
0.0010136986 -0.00073972601 -0.0047764704
-0.00084931508 -0.00090410956 -0.0049411762
8.2191778e-05 0.0012328767 -0.0019215685
-0.0012876713 0.0011232877 -0.0030196079
0.0009589041 -0.0019452055 -0.001372549
-0.00019178083 0.00057534245 -0.0019215685
0.00090410956 -0.00090410956 -0.0050509805
-0.00057534245 -0.0019452055 -0.0013176471
-0.00090410956 0.00084931508 -0.0028549018
-0.0017808219 -0.0015616438 -0.0019215685
0.0011232877 -0.0010684931 -0.0026352941
-0.00073972601 0.00019178083 -0.0019215685
0.00068493153 -0.00068493153 -0.00038431369
0.0020000001 0.00063013699 -0.00054901955
-0.00035616438 0.0013424658 -0.0019215685
0.0013424658 -0.0018904109 -0.00065882347
0.00084931508 -0.00073972601 -0.0041176472
0.00046575343 0.0014520548 -0.0019215685
-0.0012328767 0.0016712329 -0.0019215685
0.0018356164 0.0016164384 -0.0015372549
0.0010136986 -0.0011232877 -0.0029098038
-0.0013424658 0.0010684931 -0.0038980392
0.00090410956 -0.0010136986 -0.0050509805
-0.0009589041 0.00073972601 0.0018666667
-0.0011232877 0.00073972601 -0.0044470588
0.00084931508 0.0011780822 -0.0029647059
-0.0010136986 -0.0012328767 -0.0037333332
-0.0012876713 0.0011232877 5.4901993e-05
0.0009589041 -0.0015616438 -0.0019215685
0.00030136987 -0.0011232877 -0.0019215685
0.0012876713 -0.0018904109 -0.00098823523
0.0020000001 -0.00079452054 -0.00065882347
-0.0012876713 0.0015068493 -0.0019215685
-0.0010136986 0.0019452055 -0.00098823523
-0.0013424658 -0.0020000001 -0.00098823523
0.0012876713 -0.00090410956 0.0010431373
0.0017260273 0.0013972602 -0.0019215685
0.0017260273 0.0012328767 -0.0019215685
0.00019178083 -8.2191778e-05 -0.0019215685
-0.00079452054 -0.0010684931 0.0021411765
0.0018904109 0.0010684931 -0.0019215685
-0.0009589041 -0.00090410956 0.0021411765
0.0010684931 -0.00073972601 -0.0040078429
-0.0019452055 -0.0010136986 -0.0009333333
0.0011780822 0.0011780822 0.00043921571
-0.00063013699 -0.00046575343 -0.00038431369
-0.00090410956 0.00079452054 -0.0044470588
-0.00090410956 0.00084931508 -0.0047764704
0.0012328767 -0.00079452054 -0.0041725491
-0.00030136987 -0.00079452054 -0.00027450977
0.0013424658 -0.0009589041 -0.0030196079
0.00090410956 -0.00024657534 -0.00038431369
0.00090410956 0.0012328767 -0.0038980392
-0.00090410956 0.0009589041 0.00054901966
-0.0011232877 0.0012328767 -0.0019215685
0.0010684931 2.739726e-05 -0.0019215685
0.00073972601 0.00084931508 -0.0035137255
-0.0009589041 -0.00041095889 -0.0019215685
-0.0013972602 -0.00084931508 -0.0019215685
0.0016712329 0.0019452055 -0.0014274509
0.0010684931 0.0009589041 0.0017568627
0.0011232877 0.0009589041 0.0020862746
0.0019452055 0.00079452054 -0.0016470588
0.0013424658 -0.0010684931 -0.0049411762
-0.0020000001 0.00073972601 -0.00098823523
-0.0018904109 0.00019178083 -0.00038431369
-0.00024657534 0.0017808219 -5.4901928e-05
-0.00046575343 -0.0013972602 -0.00021960781
0.0017808219 -0.0013424658 -0.00027450977
-0.00090410956 0.00073972601 -0.0040627448
-0.0015616438 0.0012328767 -0.0019215685
0.0020000001 -0.00030136987 -0.00065882347
-0.0011232877 -0.0011780822 -0.0025803922
-0.0020000001 2.739726e-05 -0.00038431369
-0.0013424658 0.00090410956 0.00027450983
-0.00090410956 0.00068493153 -0.00038431369
-0.00073972601 -0.00090410956 -0.0025254902
-0.0013424658 0.0010136986 -0.0021960784
-0.00079452054 0.0015616438 -0.00027450977
-0.00063013699 0.0019452055 -0.00016470585
-0.0010684931 -0.0012328767 -0.0035137255
-0.00073972601 -0.00090410956 0.0012078432
0.0012328767 -0.00073972601 0.00038431375
-0.0013424658 -0.0009589041 -0.00032941173
-0.0010136986 -0.00052054797 -0.00038431369
8.2191778e-05 -0.0016712329 -0.00016470585
0.00035616438 0.00073972601 -0.0019215685
-0.00041095889 -0.0016712329 -5.4901928e-05
0.0013972602 0.0018356164 -0.0019215685
0.0020000001 -0.00063013699 -0.0009333333
0.00090410956 -0.0010684931 -0.0043372549
0.0011232877 0.0010136986 -0.0041176472
0.0012876713 -0.00084931508 -0.0028549018
-0.0019452055 0.0013424658 -0.0013176471
-0.0020000001 0.0012328767 -0.00054901955
-0.0010136986 0.00073972601 -0.0030196079
0.0012876713 -0.0011232877 3.3333333e-11
0.0017260273 -0.0011232877 -0.0019215685
-0.00090410956 0.0015616438 -0.00021960781
-0.0011232877 0.0011780822 0.00016470591
0.0019452055 8.2191778e-05 -0.00038431369
-0.0010684931 -0.0012876713 -0.004282353
-0.00035616438 -0.0011780822 -5.4901928e-05
-0.0016164384 -0.0009589041 -0.0019215685
0.00041095889 0.0019452055 -0.0012078431
0.0010684931 0.0011780822 0.0019764707
-0.00041095889 0.0012876713 -0.00032941173
0.0019452055 0.00046575343 -0.0018666666
-0.00090410956 -0.0012876713 -0.0049960786
0.0010684931 0.0009589041 -0.0045019607
-0.0013972602 0.0018904109 -0.0009333333
-0.0017260273 -0.00024657534 -0.00038431369
0.0011780822 -0.0011780822 0.00071372552
-0.00090410956 0.0010136986 -0.0045568626
-0.0013972602 0.0010136986 3.3333333e-11
-0.0010684931 -0.0009589041 -0.0035137255
0.0020000001 -8.2191778e-05 -0.001372549
0.0015616438 -0.00057534245 -0.00038431369
0.0011232877 0.0011780822 -0.0025254902
-0.0014520548 -0.0020000001 -0.0009333333
0.0012876713 0.0020000001 -0.0015921568
-0.0017808219 0.0016712329 -0.00010980388
0.0009589041 0.0010136986 -0.0053803921
0.0012328767 0.00024657534 -0.00038431369
-0.0017808219 0.0017808219 -0.00065882347
0.0011232877 0.0009589041 0.00071372552
0.0017260273 0.0013972602 -5.4901928e-05
0.00084931508 -0.00084931508 0.00082352944
0.0012328767 -0.00079452054 -0.0032941175
0.0011232877 -0.0011232877 -0.0030196079
0.0011232877 0.0011232877 -0.0022509804
0.0020000001 -8.2191778e-05 -0.0011529411
-0.0011232877 0.0011780822 0.00093333336
-0.00090410956 0.0014520548 -0.00038431369
0.0011232877 0.0009589041 -0.0051058824
0.0009589041 -0.0019452055 -0.0014823528
-0.0001369863 -0.0016712329 -5.4901928e-05
-0.0019452055 -0.00073972601 -0.00082352938
0.00079452054 0.00084931508 -0.002745098
-0.0018904109 -0.0013424658 -0.0010431372
-0.0020000001 0.00035616438 -0.0013176471
0.0013424658 0.00079452054 -0.0019215685
-0.0018356164 -0.0017260273 -0.00043921566
-0.0018356164 -0.0015068493 -0.00038431369
0.0020000001 0.00073972601 -0.0015921568
0.00063013699 -0.0015616438 -0.00010980388
-0.0011780822 -0.0011780822 0.00016470591
0.0010136986 -0.0010684931 0.0023607842
0.0011780822 -0.00073972601 0.0020313726
-0.0009589041 0.0011780822 0.00027450983
0.0019452055 0.00024657534 -0.0018666666
-0.0015616438 8.2191778e-05 -0.0019215685
0.00079452054 -0.00079452054 -0.0022509804
0.0020000001 0.00030136987 -0.00054901955
-0.00063013699 -0.0014520548 -0.00038431369
0.00052054797 -0.0019452055 -0.0016470588
-0.0020000001 0.00063013699 -0.0016470588
0.0015068493 0.00030136987 -0.00038431369
-0.0011780822 0.0013972602 -0.00016470585
-0.0011780822 -0.0011780822 0.001427451
0.00090410956 0.00090410956 0.00082352944
-0.0011780822 0.0010684931 -0.0052156863
-0.0019452055 0.0015068493 -0.00082352938
0.0013424658 -0.0010684931 -0.0046117646
0.0020000001 -0.00073972601 -0.00071372546
-0.00090410956 -0.00073972601 -0.0019215685
0.0009589041 -0.0011232877 0.0020862746
-0.00073972601 -0.0017808219 -5.4901928e-05
0.00073972601 0.0009589041 -0.0025803922
-0.0013424658 -0.0011780822 -5.4901928e-05
0.00079452054 0.0019452055 -0.0010431372
-0.00046575343 -0.0019452055 -0.0010431372
0.0020000001 -0.0014520548 -0.00043921566
0.0010136986 0.0012328767 -0.0024156861
0.0020000001 0.00057534245 -0.0009333333
0.0020000001 8.2191778e-05 -0.00043921566
-0.00068493153 -0.0013972602 -0.0019215685
-0.0012876713 -0.00068493153 -0.0019215685
0.00084931508 0.0012328767 0.0021411765
0.0012328767 -0.00073972601 -0.0037333332
-0.0011780822 0.0018904109 -0.00010980388
-0.0011232877 0.00073972601 -0.00032941173
-0.00084931508 -0.0012328767 -0.0023058823
0.00041095889 0.00073972601 -0.00038431369
0.00073972601 -0.00073972601 -0.00027450977
-0.00019178083 -0.0018356164 -0.0019215685
-0.0010136986 0.00073972601 0.00093333336
0.0014520548 0.0015616438 -0.00032941173
0.0010136986 0.00090410956 -0.0047215684
0.0010136986 -0.00073972601 -0.00021960781
0.00073972601 0.0009589041 0.0010431373
0.0011780822 0.0014520548 -0.00038431369
0.0011780822 -0.00073972601 -0.0043921568
2.739726e-05 -0.00073972601 -0.00032941173
0.0010684931 0.0011232877 0.001427451
-0.00035616438 0.0019452055 -0.0017019607
-0.00084931508 -0.0011780822 0.0016470589
-0.00084931508 0.00073972601 -0.0038431371
-0.0009589041 0.0011780822 0.0013176471
0.00090410956 -0.0010684931 -0.0037333332
0.0011232877 -0.0010684931 0.0015921568
0.00090410956 -0.00084931508 0.0021411765
-0.00079452054 -0.00084931508 0.00054901966
-0.00079452054 -0.0010136986 -0.0031294117
-0.0011780822 0.0011780822 0.00016470591
-0.0010684931 -0.00063013699 -0.0019215685
-0.0011232877 -0.0010684931 -0.0036235293
0.00019178083 0.00057534245 -0.00038431369
-0.00019178083 -0.0019452055 -0.0010980392
-0.00079452054 -0.0009589041 -0.0028549018
-0.00084931508 -0.00046575343 -0.00038431369
0.00024657534 -0.0013424658 -0.0019215685
-0.00068493153 -0.0018356164 -0.0019215685
0.0012876713 -0.0010136986 0.0023607842
-0.0013424658 0.0010136986 0.00032941179
-0.0010684931 -0.0019452055 -0.0013176471
0.0012876713 -0.00084931508 0.0016470589
0.00019178083 -0.0019452055 -0.00098823523
-0.00079452054 8.2191778e-05 -0.0019215685
0.0020000001 -0.00024657534 -0.001262745
-0.0013424658 -0.0013972602 -5.4901928e-05
-0.0010684931 -0.00052054797 -0.00038431369
0.00057534245 -0.0019452055 -0.0010431372
-8.2191778e-05 -0.00073972601 -0.00021960781
-0.0017808219 0.0012876713 -0.0019215685
-0.00073972601 -0.00090410956 0.00049411767
-0.0010136986 -0.00090410956 -0.004227451
0.0019452055 -0.0015616438 -0.00027450977
0.0011232877 0.0019452055 -0.00076862739
-2.739726e-05 -0.0019452055 -0.0015921568
0.0016164384 -0.00030136987 -0.0019215685
-0.0016712329 0.0018356164 -0.00032941173
0.00084931508 0.00090410956 0.00071372552
0.0015068493 0.0013972602 -0.00010980388
-0.0013424658 -0.0001369863 -0.00038431369
-0.0012876713 0.00079452054 0.00010980395
-0.0015068493 -0.0010684931 -5.4901928e-05
0.0010684931 -0.00063013699 -0.00038431369
-0.0012328767 -0.0013972602 -5.4901928e-05
0.00063013699 0.0013424658 -5.4901928e-05
0.0012328767 -0.00073972601 -0.0025803922
0.0018904109 0.0011780822 -0.0018666666
-0.00084931508 0.00079452054 0.0013176471
0.0009589041 0.0012328767 0.00049411767
-0.00041095889 -0.00046575343 -0.00038431369
0.0010684931 0.0012328767 -0.0046666665
0.0014520548 -0.00024657534 -0.00038431369
-0.0018904109 0.00046575343 -0.00038431369
0.0018904109 -0.0013424658 -0.00021960781
-0.0011780822 -0.0015616438 -0.00032941173
0.0012876713 -0.0016164384 -0.0019215685
2.739726e-05 0.00035616438 -0.00038431369
-0.0010684931 -0.0012328767 0.0006039216
-0.0010136986 -0.00090410956 0.0021960784
-0.00090410956 -0.00090410956 0.0021960784
-0.0017260273 -0.00079452054 -0.0019215685
0.00084931508 0.00090410956 -0.004282353
0.0014520548 -0.0016712329 -0.0019215685
-0.00090410956 0.00084931508 -0.0047215684
-0.00090410956 0.00084931508 -0.0031294117
0.0012328767 -0.0010684931 0.00071372552
-0.0015616438 -0.0019452055 -0.00016470585
-0.00090410956 0.00084931508 -0.0024705881
-0.0012328767 0.00073972601 0.0019215686
0.0010684931 0.0010684931 0.0013176471
