# .PCD v0.7 - Point Cloud Data file format
VERSION 0.7
FIELDS x y z
SIZE 4 4 4
TYPE F F F
COUNT 1 1 1
WIDTH 1205
HEIGHT 1
VIEWPOINT 0 0 0 1 0 0 0
POINTS 1205
DATA ascii
0.0029817391 -0.0024228571 -0.0017203704
-0.016995912 -0.0048457142 -0.0041055554
0.014610521 0.0054514282 -0.0035092593
-0.0050689564 -0.00636 -0.0038074073
-0.026835652 0.0042399997 -0.0014222222
0.010436087 -0.0027257141 -0.0032111111
-0.018188609 0.00090857141 -0.0032111111
0.031010086 0.0030285714 -0.0014222222
-0.013715999 0.0039371429 -0.0044037038
-0.0074543478 -0.0042399997 -0.00052777777
-0.016995912 0.0060571427 -0.0035092593
-0.022959391 -0.0033314284 0.0018574074
0.011032434 -0.00060571427 -0.0047018519
-0.0077525214 -0.00636 0.0015592593
0.0035780868 -0.0051485715 -0.0011240741
-0.0029817391 -0.0021199998 -0.0047018519
0.0050689564 -0.00636 0.0018574074
-0.029817391 0.0030285714 -0.0011240741
-0.0047707823 -0.00636 -0.0008259259
0.014908696 -0.00060571427 -0.0047018519
-0.011628782 -0.0051485715 -0.00022962963
-0.030711912 -0.0057542855 -0.0038074073
0.016697738 0.0057542855 -0.0011240741
-0.015206869 -0.0033314284 0.00036666667
0.033097304 -0.0036342856 0.0021555556
-0.0077525214 -0.0057542855 0.0015592593
-0.015803216 0.00060571427 -0.0020185185
-0.03220278 -0.0057542855 -0.0035092593
0.017890435 0.0045428569 -0.0011240741
0.01073426 -0.00030285714 -0.00022962963
0.03130826 0.0012114285 -0.0035092593
-0.0038762607 -0.0054514282 -0.0044037038
0.028922869 -0.0021199998 -0.0047018519
-0.0020872173 -0.00090857141 -0.0047018519
-0.0023853912 0.0036342856 -0.0017203704
0.025046607 -0.0027257141 -0.00022962963
-0.0047707823 0.00090857141 -0.0032111111
0.012821478 -0.0024228571 -0.0047018519
-0.017890435 -0.0024228571 -0.0017203704
0.0044726087 -0.0021199998 -0.0032111111
0.028624695 0.0015142857 -0.0014222222
0.026835652 0.0036342856 -0.0014222222
0.027431998 -0.0048457142 -0.0020185185
0.0080506951 -0.0051485715 -0.0017203704
-0.003279913 -0.0030285714 -0.0044037038
-0.015505043 -0.0015142857 -0.00022962963
0.014610521 0.0024228571 -0.0047018519
0.019679477 -0.0033314284 -0.0017203704
-0.00029817389 -0.0060571427 -0.0044037038
-0.0086470433 -0.00090857141 -0.0047018519
0.011330608 -0.00636 -0.002912963
0.0011926956 0.0015142857 -0.0008259259
-0.0095415646 -0.0033314284 -0.0017203704
-0.020574 -0.00636 0.0024537037
0.002683565 -0.0027257141 -0.0032111111
0.0011926956 -0.0027257141 -0.0008259259
0.015803216 -0.0048457142 -0.0041055554
0.027431998 0.0012114285 -0.0032111111
0.023257565 0.0027257141 -0.0041055554
0.015505043 0.0027257141 -0.0047018519
-0.0011926956 0.0051485715 -0.0032111111
-0.010137913 -0.0027257141 -0.0017203704
-0.012523304 -0.0060571427 6.8518515e-05
-0.006559826 0.0024228571 -0.0032111111
-0.023853913 0.0021199998 -0.0035092593
-0.021170348 0.0042399997 -0.0035092593
-0.010137913 -0.0054514282 0.0024537037
-0.0035780868 0.00060571427 -0.0017203704
-0.0017890434 -0.0048457142 -0.0044037038
-0.022959391 0.0012114285 -0.0008259259
0.021766694 0.0021199998 -0.0008259259
0.00059634779 0.0057542855 -0.0035092593
0.002683565 -0.0021199998 -0.0032111111
-0.032500956 -0.0045428569 -0.0038074073
0.0011926956 0.0045428569 -0.0044037038
-0.013715999 -0.0039371429 -0.0032111111
-0.012523304 -0.0051485715 -0.0011240741
-0.00536713 -0.0039371429 6.8518515e-05
0.00089452171 0.0057542855 -0.0035092593
0.016697738 0.0030285714 -0.0044037038
0.0023853912 -0.00636 0.0024537037
-0.00029817389 -0.0042399997 -0.00052777777
0.025046607 0.0048457142 -0.0041055554
0.031606432 0.00060571427 -0.0026148148
0.00089452171 -0.0015142857 -0.00022962963
-0.021170348 0.0057542855 -0.0011240741
-0.0083488692 -0.0018171428 -0.0026148148
0.020574 0 -0.00022962963
-0.0080506951 0.00090857141 -0.0044037038
0.027431998 0.0054514282 -0.0035092593
-0.017592261 0.0021199998 -0.0017203704
-0.022064868 -0.0051485715 -0.0017203704
0.015803216 -0.0021199998 -0.00052777777
0.0071561737 -0.0036342856 -0.00022962963
-0.023555739 -0.0030285714 -0.0047018519
-0.027431998 -0.0060571427 -0.0038074073
-0.0080506951 -0.0021199998 -0.00052777777
-0.031904608 0.0042399997 -0.0038074073
0.03130826 -0.0030285714 -0.0032111111
-0.0050689564 0.0033314284 -0.0017203704
-0.017592261 -0.0036342856 0.0021555556
0.032799128 -0.0060571427 0.0012611111
-0.01073426 -0.0051485715 -0.00052777777
0.0062616519 -0.0042399997 -0.00022962963
-0.026835652 -0.0060571427 -0.0038074073
0.019381303 -0.0024228571 -0.0017203704
0.024152085 0.0048457142 -0.0014222222
-0.033693653 -0.0015142857 -0.0047018519
0.006559826 -0.00636 -0.0014222222
0.014014173 0.0051485715 -0.0011240741
0.015803216 -0.0051485715 -0.00052777777
0.03130826 -0.0054514282 -0.0008259259
-0.0038762607 -0.0030285714 -0.00022962963
0.023257565 -0.0045428569 -0.00022962963
-0.032500956 0.0042399997 -0.0038074073
-0.0011926956 0.0042399997 -0.0032111111
0.015206869 0.0054514282 -0.0035092593
-0.022959391 -0.0012114285 -0.0047018519
0.031010086 0.0021199998 -0.0011240741
-0.01073426 -0.0051485715 -0.0020185185
0.0050689564 -0.0054514282 6.8518515e-05
0.032500956 0.00636 -0.0011240741
0.0038762607 0.0012114285 -0.0044037038
0.0041744346 -0.0048457142 -0.0032111111
0.028624695 0.0054514282 -0.0014222222
0.022959391 -0.0030285714 0.00036666667
0.030115563 -0.0048457142 -0.0020185185
0.025642956 0.0027257141 -0.0011240741
0.022363042 -0.00060571427 -0.00022962963
0.023257565 0.00060571427 -0.00052777777
-0.024450259 0.0051485715 -0.0041055554
0.00029817389 -0.0033314284 -0.0044037038
-0.016995912 -0.0045428569 -0.00022962963
-0.0080506951 -0.0051485715 -0.00022962963
-0.027730173 -0.0057542855 -0.0038074073
0.031606432 0.00090857141 -0.0044037038
0.032500956 -0.0018171428 -0.0020185185
-0.0077525214 -0.00636 0.0012611111
0.014014173 0.0015142857 -0.0047018519
-0.030711912 -0.0060571427 0.0021555556
0.016697738 -0.0018171428 -0.0020185185
-0.014908696 0.0012114285 -0.0017203704
0.014610521 0.0018171428 -0.0008259259
-0.024152085 0.0042399997 -0.0041055554
-0.006559826 -0.0039371429 -0.0014222222
-0.014014173 0.0039371429 -0.0011240741
-0.019083129 0.0033314284 -0.0044037038
-0.0041744346 -0.0039371429 -0.0032111111
-0.00059634779 0.0033314284 -0.0008259259
0.0080506951 -0.0054514282 -0.00022962963
0.0092433905 -0.00060571427 -0.00022962963
0.030115563 -0.0027257141 -0.0017203704
0.010436087 -0.0033314284 0.0021555556
0.033395477 0.0018171428 -0.0011240741
-0.019381303 -0.0051485715 -0.00052777777
0.019083129 -0.0030285714 -0.00022962963
-0.014908696 0.0054514282 -0.0011240741
-0.011032434 -0.0027257141 -0.0044037038
0.012523304 -0.0018171428 -0.0020185185
0.015803216 0.0030285714 -0.0032111111
-0.0023853912 -0.00636 -0.00052777777
-0.011330608 -0.0048457142 -0.002912963
0.025046607 0.0018171428 -0.0035092593
0.017890435 -0.00636 -0.0023166668
0.016399564 0.0027257141 -0.0017203704
0.019977652 -0.0036342856 -0.0032111111
-0.014908696 0.0039371429 -0.0035092593
-0.029221043 -0.0024228571 -0.0047018519
-0.0089452174 -0.0021199998 -0.0032111111
-0.022661217 0.0018171428 -0.0008259259
0.019679477 -0.00636 -0.0026148148
0.019977652 0.00030285714 -0.00022962963
-0.01073426 0.0045428569 -0.0044037038
0.015206869 -0.0045428569 -0.0044037038
0.0077525214 0.00060571427 -0.0008259259
0.029519217 0.0015142857 -0.0035092593
-0.00029817389 0.0057542855 -0.0044037038
-0.014908696 0.0045428569 -0.0035092593
-0.016995912 0.0027257141 -0.0017203704
-0.017890435 0.0015142857 -0.0008259259
-0.030413738 -0.0036342856 0.0021555556
0.02594113 -0.0045428569 -0.002912963
-0.002683565 0.0030285714 -0.0044037038
-0.030711912 0 -0.00022962963
-0.021766694 -0.0051485715 -0.00052777777
0.00029817389 0.0039371429 -0.0017203704
-0.022363042 -0.0012114285 -0.0047018519
-0.0071561737 0.00030285714 -0.002912963
0 0.0054514282 -0.0044037038
0.032799128 0.0057542855 -0.0014222222
0.020872174 0.0045428569 -0.0041055554
-0.029817391 0.0060571427 -0.0035092593
0.014014173 -0.00636 -0.00052777777
0.0047707823 -0.0033314284 0.0015592593
-0.02594113 0 -0.0047018519
0.01073426 -0.00636 -0.0041055554
-0.022363042 0.00636 -0.0038074073
-0.0047707823 0.0051485715 -0.0017203704
-0.0092433905 0.0051485715 -0.0035092593
-0.030711912 -0.0027257141 -0.00052777777
-0.028922869 0.0027257141 -0.0014222222
-0.014610521 0.0051485715 -0.0035092593
-0.019679477 0.00060571427 -0.0047018519
-0.020275826 0.0033314284 -0.0014222222
0.019381303 -0.0039371429 -0.0032111111
0.026239304 -0.00090857141 -0.00022962963
-0.0056653041 0.0024228571 -0.0017203704
0.0044726087 0.0051485715 -0.0014222222
-0.022661217 0.0015142857 -0.002912963
0.03130826 0.0036342856 -0.0035092593
0.026537478 0.0012114285 -0.0017203704
-0.011628782 -0.00636 -0.0014222222
0.025642956 -0.0036342856 0.0024537037
-0.0014908696 -0.0030285714 -0.0017203704
0.018188609 0.0051485715 -0.0032111111
0.0074543478 0.0012114285 -0.0032111111
-0.0095415646 -0.0048457142 -0.0044037038
-0.0035780868 -0.00636 -0.00052777777
0.015206869 -0.0033314284 0.0018574074
-0.028624695 0 -0.0047018519
-0.016399564 -0.00636 -0.0038074073
0.0086470433 0 -0.0047018519
-0.015206869 -0.0036342856 0.0012611111
-0.02594113 -0.0036342856 -0.0041055554
0.031606432 0.0033314284 -0.0014222222
-0.00029817389 -0.00636 -0.0020185185
-0.0086470433 0.00636 -0.0011240741
-0.01610139 -0.0030285714 -0.0032111111
-0.017592261 -0.00636 -0.0026148148
-0.010137913 -0.0051485715 -0.0017203704
0.01073426 -0.00060571427 -0.00022962963
0.014312347 0 -0.00022962963
0.024152085 0.0033314284 -0.0041055554
-0.020275826 0.0057542855 -0.0014222222
-0.0035780868 0.0024228571 -0.0017203704
-0.027431998 -0.0036342856 -0.0017203704
0.023257565 -0.00636 -0.0026148148
-0.012523304 -0.0051485715 -0.00022962963
0.019083129 0.0015142857 -0.0047018519
-0.029817391 -0.00636 -0.0020185185
0.031606432 -0.0054514282 -0.0035092593
-0.025344782 0.0015142857 -0.0008259259
-0.012821478 -0.0036342856 0.0027518519
-0.021170348 -0.00636 -0.0008259259
0.017592261 0.0024228571 -0.0017203704
0.018784955 -0.00030285714 -0.00022962963
0.0080506951 -0.0039371429 -0.0032111111
0.011032434 0.0027257141 -0.0017203704
-0.0011926956 0.0057542855 -0.0035092593
-0.023555739 -0.00636 -0.0017203704
-0.022661217 -0.0051485715 -0.0041055554
0.0095415646 0.0054514282 -0.0041055554
-0.011926956 0.0036342856 -0.0044037038
-0.027133824 0.0054514282 -0.0011240741
0.028624695 -0.0024228571 -0.002912963
0.018486781 -0.0057542855 -0.0041055554
0.033693653 -0.0027257141 -0.0038074073
-0.0020872173 0.00030285714 -0.0023166668
0.018784955 -0.0015142857 -0.00022962963
0.026537478 0.0015142857 -0.0017203704
-0.032500956 0.0012114285 -0.0041055554
-0.014610521 0.0045428569 -0.0041055554
0.027730173 -0.0033314284 -0.0038074073
-0.020872174 -0.0042399997 -0.0041055554
-0.011926956 -0.0018171428 -0.00022962963
-0.020574 -0.0060571427 0.00036666667
-0.00029817389 0.0042399997 -0.0008259259
0.0083488692 0.0030285714 -0.0008259259
0.014908696 -0.0057542855 -0.00022962963
-0.015505043 0.0042399997 -0.0035092593
0.029519217 -0.0051485715 -0.00022962963
-0.020275826 -0.0042399997 -0.0014222222
-0.019977652 0.00060571427 -0.0020185185
0.013417826 0.00090857141 -0.0017203704
0.026239304 -0.0030285714 -0.002912963
0.031010086 0.00636 -0.0038074073
-0.030115563 0.00636 -0.0038074073
0.0080506951 -0.0060571427 -0.0041055554
-0.019977652 0.0027257141 -0.0017203704
0.031010086 -0.0060571427 -0.0014222222
-0.016697738 0.0012114285 -0.0017203704
0.025642956 0.0012114285 -0.0044037038
0.025344782 -0.0030285714 -0.00022962963
-0.028326521 0.0015142857 -0.0044037038
-0.03220278 -0.0027257141 -0.0041055554
-0.02594113 -0.0060571427 -0.0038074073
-0.0029817391 -0.0024228571 -0.0017203704
0.0017890434 -0.00636 -0.002912963
-0.031606432 0.0027257141 -0.0038074073
-0.012523304 0.0042399997 -0.0017203704
0.030711912 0.00090857141 -0.0008259259
-0.012821478 -0.0033314284 6.8518515e-05
-0.0014908696 0.0051485715 -0.0017203704
0.00536713 0.00090857141 -0.0017203704
0.0083488692 0.0054514282 -0.0011240741
0.031606432 0.00060571427 -0.0017203704
-0.03130826 -0.0033314284 -0.0041055554
0.0080506951 -0.0036342856 -0.0047018519
-0.0098397387 -0.0060571427 0.0021555556
0.011628782 0.0024228571 -0.0017203704
-0.0080506951 -0.0042399997 -0.00022962963
0 0.00060571427 -0.0032111111
-0.003279913 0.0042399997 -0.0017203704
0.024450259 0.0012114285 -0.0017203704
-0.017592261 -0.0021199998 -0.0032111111
-0.012523304 -0.0045428569 -0.0032111111
0.033693653 -0.0018171428 -0.00022962963
-0.018486781 -0.0039371429 -0.00022962963
-0.013715999 0.00636 -0.0011240741
-0.026835652 0.0060571427 -0.0035092593
-0.032799128 -0.0060571427 0.0021555556
-0.015505043 -0.0051485715 -0.0023166668
-0.0041744346 -0.0024228571 -0.0008259259
-0.022363042 0.0060571427 -0.0035092593
-0.033693653 -0.00090857141 -0.0047018519
-0.026537478 -0.0048457142 -0.0023166668
-0.014014173 0.0033314284 -0.002912963
-0.0098397387 0.0060571427 -0.0014222222
-0.027133824 -0.0021199998 -0.0017203704
-0.020574 -0.0036342856 0.0015592593
-0.015206869 0.0039371429 -0.0011240741
-0.026835652 -0.0048457142 -0.0026148148
0.0050689564 -0.0051485715 -0.0020185185
0.027133824 -0.00060571427 -0.00022962963
-0.032500956 0.0033314284 -0.0038074073
-0.0014908696 -0.0027257141 -0.0008259259
0.019083129 -0.0018171428 -0.002912963
0.023853913 0.00090857141 -0.0008259259
0.011330608 0.0045428569 -0.0011240741
-0.00059634779 -0.00060571427 -0.00022962963
0.028028347 -0.0054514282 -0.0035092593
0.0068579996 -0.00636 -0.0017203704
-0.0038762607 0.0054514282 -0.0014222222
0.0041744346 -0.0018171428 -0.002912963
0.022363042 -0.00090857141 -0.0047018519
0.033097304 -0.00060571427 -0.0047018519
-0.03220278 -0.0024228571 -0.00052777777
-0.01610139 0.0045428569 -0.0035092593
-0.027133824 0.00090857141 -0.0017203704
0.020872174 -0.0027257141 -0.00022962963
0.0014908696 -0.0060571427 -0.0044037038
0.015803216 0.0027257141 -0.0032111111
-0.0056653041 -0.0054514282 -0.0023166668
-0.019083129 0.0045428569 -0.0035092593
0.027730173 -0.0051485715 -0.00022962963
0.024450259 0.0054514282 -0.0014222222
0.026239304 0.00030285714 -0.0047018519
0.0059634782 -0.0057542855 -0.0044037038
0.014908696 -0.0051485715 -0.0041055554
-0.0092433905 -0.0021199998 -0.00052777777
-0.03130826 -0.0051485715 -0.002912963
-0.00029817389 -0.0033314284 0.0012611111
-0.032799128 -0.0030285714 -0.0017203704
-0.022959391 -0.0042399997 -0.0014222222
0.016697738 0.0027257141 -0.0008259259
-0.02146852 0.0036342856 -0.0014222222
0.012821478 0.0054514282 -0.0014222222
0.023257565 0.0057542855 -0.0014222222
-0.0098397387 0.0060571427 -0.0041055554
-0.026239304 0.0015142857 -0.002912963
-0.0059634782 -0.0018171428 -0.0026148148
0.011330608 0.0024228571 -0.0017203704
-0.031010086 0.0012114285 -0.0041055554
0.019083129 0.0051485715 -0.0032111111
-0.0047707823 0.0054514282 -0.0032111111
0.0038762607 0.0060571427 -0.0011240741
-0.016399564 0.0051485715 -0.0014222222
0.011330608 -0.0039371429 -0.0044037038
-0.012821478 -0.0060571427 0.0027518519
0.012821478 0.00030285714 -0.0047018519
0.0035780868 0.0042399997 -0.0017203704
-0.025344782 0.0057542855 -0.0011240741
-0.033395477 0.0045428569 -0.0011240741
-0.014908696 0.0036342856 -0.0011240741
-0.016697738 -0.0051485715 -0.0023166668
0.027133824 -0.00636 -0.0035092593
-0.02146852 0.0051485715 -0.0035092593
0.0080506951 -0.0015142857 -0.00022962963
0.028028347 -0.0060571427 0.00096296298
0.023257565 -0.0060571427 -0.0038074073
0.014908696 0.0012114285 -0.0008259259
0.024748433 0.00090857141 -0.002912963
0.023555739 -0.0039371429 -0.002912963
0.0047707823 0.00636 -0.0011240741
0.033991825 0.0012114285 -0.0014222222
-0.032799128 -0.0060571427 0.00066481484
-0.011926956 -0.00060571427 -0.00022962963
-0.00089452171 -0.0030285714 -0.0017203704
-0.0059634782 0.00030285714 -0.0020185185
0.006559826 0.0021199998 -0.0008259259
0.0095415646 -0.0039371429 -0.0032111111
-0.0095415646 -0.0051485715 -0.0044037038
0.014014173 0.0060571427 -0.0011240741
-0.01610139 0.00636 -0.0038074073
-0.021766694 0.0057542855 -0.0014222222
-0.030413738 -0.0027257141 -0.002912963
-0.0077525214 0.0015142857 -0.0044037038
-0.032799128 0.0033314284 -0.0011240741
0.022959391 -0.0048457142 -0.0011240741
-0.027730173 0.0012114285 -0.0017203704
-0.018486781 -0.0042399997 -0.0011240741
-0.013417826 0.00030285714 -0.0047018519
-0.01610139 0.0012114285 -0.0008259259
0.031904608 -0.00090857141 -0.00022962963
0.019381303 0.00636 -0.0038074073
-0.0047707823 -0.0018171428 -0.0020185185
-0.0074543478 0.0024228571 -0.0008259259
-0.015206869 -0.00636 0.0015592593
0.0089452174 0.0054514282 -0.0014222222
0.022959391 -0.00636 6.8518515e-05
0.015803216 0.00636 -0.0011240741
0.021170348 0.0024228571 -0.0008259259
-0.033097304 -0.0054514282 -0.0032111111
0.025344782 -0.0030285714 -0.002912963
0.0014908696 -0.0051485715 -0.0014222222
0.0092433905 0.0042399997 -0.0044037038
-0.029221043 0.0030285714 -0.0038074073
0.010137913 -0.0048457142 -0.002912963
0.0023853912 -0.0024228571 -0.0017203704
0.0092433905 0.00030285714 -0.00052777777
0.0059634782 -0.0042399997 -0.0032111111
-0.031010086 -0.0042399997 -0.0014222222
-0.016995912 0.0030285714 -0.0044037038
0.006559826 -0.00636 -0.0041055554
0.016399564 0.0015142857 -0.0017203704
-0.02594113 0.00636 -0.0038074073
-0.012523304 -0.0042399997 -0.002912963
0.033991825 -0.0018171428 -0.0014222222
-0.0056653041 -0.0030285714 -0.00022962963
-0.01222513 -0.0021199998 -0.0047018519
0.0044726087 0.0018171428 -0.0008259259
-0.029519217 -0.0033314284 -0.00022962963
-0.024748433 0.0030285714 -0.0035092593
-0.030711912 -0.0036342856 6.8518515e-05
-0.017592261 -0.0060571427 0.00096296298
0.013417826 -0.0042399997 -0.0032111111
-0.02146852 -0.0030285714 -0.0017203704
-0.031904608 -0.0018171428 -0.0023166668
-0.0050689564 0.0048457142 -0.0008259259
0.0071561737 -0.00636 -0.0038074073
-0.0041744346 -0.00636 -0.0032111111
0.0098397387 -0.00636 -0.00052777777
0.0068579996 -0.0033314284 -0.0047018519
0.0098397387 0.0039371429 -0.0008259259
-0.013119652 -0.0024228571 -0.0047018519
-0.023257565 0.0018171428 -0.0047018519
0.0083488692 -0.0051485715 -0.0023166668
0.030115563 -0.0027257141 -0.00022962963
-0.013715999 0.0018171428 -0.0047018519
-0.024748433 0.0027257141 -0.0035092593
-0.019977652 0.0024228571 -0.002912963
0.0017890434 -0.0042399997 -0.0044037038
-0.00536713 0.0045428569 -0.0032111111
-0.019679477 0.00030285714 -0.00022962963
-0.020872174 0.0042399997 -0.0041055554
0.029817391 0.0051485715 -0.0011240741
-0.0086470433 -0.0027257141 -0.0032111111
0.010137913 -0.0012114285 -0.00022962963
-0.011032434 0.00030285714 -0.0047018519
0.0020872173 -0.00636 -0.0023166668
0.0029817391 0.0021199998 -0.0044037038
0.025046607 0.0057542855 -0.0011240741
0.0011926956 0.0057542855 -0.0017203704
-0.017294087 0.00030285714 -0.00022962963
-0.017890435 0.00636 -0.0038074073
-0.0035780868 0.0027257141 -0.0032111111
0.0050689564 -0.0027257141 -0.0032111111
-0.024152085 0.0036342856 -0.0011240741
0.030711912 0.00060571427 -0.0032111111
0.01073426 -0.0036342856 -0.0044037038
-0.017592261 -0.0057542855 0.0012611111
0.003279913 0.00636 -0.0011240741
-0.026239304 0.0048457142 -0.0014222222
-0.018486781 -0.00636 -0.0008259259
-0.028028347 -0.0057542855 0.0012611111
0.028624695 0.00060571427 -0.0023166668
0.012821478 -0.0021199998 -0.00052777777
-0.006559826 -0.0048457142 -0.0032111111
0.0011926956 0.00090857141 -0.0017203704
-0.029519217 0.0054514282 -0.0011240741
0.017890435 -0.0027257141 -0.00022962963
0.021170348 0.0012114285 -0.002912963
0.0023853912 -0.0051485715 -0.00052777777
-0.020275826 -0.0024228571 -0.0047018519
-0.030711912 -0.0060571427 -0.0038074073
0.0098397387 -0.0042399997 -0.0044037038
-0.024748433 -0.00636 -0.0023166668
0.028624695 0.00636 -0.0011240741
-0.031904608 0.0027257141 -0.0038074073
-0.0077525214 0.0048457142 -0.0044037038
0.014610521 0.0030285714 -0.0008259259
-0.011330608 -0.00636 -0.0023166668
-0.0089452174 0.0048457142 -0.0017203704
0.023257565 -0.0018171428 -0.0026148148
0.013417826 -0.00636 -0.0032111111
-0.0050689564 -0.0051485715 -0.0011240741
-0.0068579996 0.0015142857 -0.0017203704
0.013715999 0.0018171428 -0.0008259259
-0.029817391 0.0012114285 -0.0011240741
0.0011926956 -0.0051485715 -0.0011240741
-0.002683565 -0.00090857141 -0.0047018519
-0.020872174 -0.00636 -0.0038074073
0.016697738 -0.0051485715 -0.0008259259
-0.025344782 -0.0054514282 -0.0038074073
0.0092433905 -0.0060571427 -0.00022962963
-0.031010086 0.0057542855 -0.0014222222
0.025046607 0.0036342856 -0.0014222222
0.032799128 -0.00636 -0.0014222222
-0.0050689564 -0.0027257141 -0.0017203704
-0.026835652 0.00636 -0.0038074073
0.0017890434 -0.00636 -0.0038074073
-0.021170348 0.0024228571 -0.0032111111
0.0014908696 0.00030285714 -0.0047018519
-0.030711912 0.0039371429 -0.0011240741
-0.014014173 0.0015142857 -0.0008259259
-0.012523304 -0.0060571427 0.0015592593
-0.027133824 -0.0048457142 -0.0020185185
-0.013119652 0.0030285714 -0.0008259259
-0.012523304 -0.0060571427 0.0012611111
0.031904608 0.0021199998 -0.0035092593
-0.01610139 0.0033314284 -0.0017203704
-0.033097304 -0.0036342856 0.0021555556
0.02594113 0.0051485715 -0.0011240741
-0.03130826 -0.0057542855 -0.0014222222
0.0050689564 0 -0.0047018519
-0.017592261 -0.0012114285 -0.00022962963
0.029221043 -0.0027257141 -0.0038074073
-0.033693653 -0.0030285714 -0.00052777777
0.0077525214 -0.00636 0.0021555556
0.019381303 0.0045428569 -0.0014222222
0.017890435 0.0012114285 -0.0017203704
0.033693653 0.00090857141 -0.0038074073
0.0023853912 0.0054514282 -0.0044037038
0.024152085 -0.0021199998 -0.00052777777
0.0068579996 0.0024228571 -0.0008259259
-0.01610139 -0.00030285714 -0.00022962963
-0.0080506951 0.0060571427 -0.0041055554
-0.029817391 0.00060571427 -0.00052777777
-0.019679477 -0.00636 -0.0026148148
0.024748433 0.00060571427 -0.0026148148
0.021766694 -0.0048457142 -0.0011240741
-0.012523304 0.0021199998 -0.0044037038
0.033395477 -0.0033314284 -0.0038074073
-0.0047707823 -0.0060571427 0.0015592593
-0.0056653041 0.0060571427 -0.0014222222
0.028028347 0.0021199998 -0.0041055554
0.028326521 0.0045428569 -0.0038074073
-0.020574 -0.0039371429 -0.002912963
-0.029221043 -0.0051485715 -0.0017203704
0.012523304 -0.00636 -0.0038074073
-0.014312347 0.0057542855 -0.0035092593
-0.018486781 0.0024228571 -0.0044037038
0.016399564 0.0048457142 -0.0011240741
0.027431998 0.00090857141 -0.0047018519
0.0062616519 -0.0048457142 -0.0032111111
0.030711912 -0.0030285714 -0.0038074073
-0.018188609 0.0042399997 -0.0011240741
-0.030115563 0.0021199998 -0.0011240741
0.017294087 0.0024228571 -0.0032111111
-0.018486781 -0.0018171428 -0.0047018519
0.022959391 -0.0033314284 0.00036666667
0.002683565 0.0024228571 -0.0017203704
-0.018784955 0.0018171428 -0.0008259259
0.0071561737 -0.0042399997 -0.0008259259
0.024748433 -0.0033314284 -0.00022962963
0.031904608 0.00030285714 -0.0047018519
0.012523304 -0.0030285714 0.00096296298
-0.014908696 -0.0036342856 -0.0047018519
-0.010137913 -0.00636 0.0015592593
0.016399564 0.0045428569 -0.0041055554
0.025642956 -0.0024228571 -0.0047018519
0.028922869 0.0015142857 -0.0011240741
-0.0092433905 -0.0030285714 -0.00022962963
0.028028347 -0.0051485715 -0.0014222222
0.034289997 -0.0012114285 -0.0035092593
0.03220278 -0.0021199998 -0.002912963
0.017592261 -0.0033314284 -0.0032111111
-0.022363042 0.0021199998 -0.0032111111
0.027431998 -0.0039371429 -0.0038074073
-0.0077525214 -0.0024228571 -0.0044037038
0.028326521 0.0057542855 -0.0038074073
-0.025642956 0.0051485715 -0.0011240741
0.012821478 0 -0.00022962963
-0.020275826 -0.0039371429 -0.002912963
-0.0074543478 -0.0042399997 -0.0032111111
0.033097304 0.0036342856 -0.0038074073
-0.002683565 -0.0027257141 -0.0044037038
-0.024748433 -0.0027257141 -0.0017203704
-0.022363042 0.0042399997 -0.0014222222
0.00536713 -0.0018171428 -0.00022962963
0.025344782 -0.0054514282 -0.00022962963
0.03130826 -0.0039371429 -0.0017203704
0.0062616519 0.0057542855 -0.0035092593
-0.0068579996 0.0045428569 -0.0032111111
0.01222513 0.0048457142 -0.0014222222
0.0077525214 0.0048457142 -0.0041055554
-0.017592261 0.00636 -0.0014222222
-0.028624695 -0.0048457142 -0.0020185185
0.0041744346 -0.0051485715 -0.0020185185
-0.02594113 -0.0024228571 -0.002912963
-0.0059634782 -0.0024228571 -0.0008259259
0.019381303 -0.0051485715 -0.00052777777
0.020574 0.0054514282 -0.0014222222
-0.027431998 0.0060571427 -0.0038074073
0.0050689564 -0.0018171428 -0.0047018519
0.012523304 -0.00030285714 -0.0047018519
0.00536713 0.00060571427 -0.0047018519
0.027431998 -0.0027257141 -0.0044037038
-0.027730173 0.0039371429 -0.0014222222
0.029817391 0.0018171428 -0.0014222222
-0.030711912 -0.0015142857 -0.0047018519
0.022363042 0 -0.0047018519
0.023555739 0 -0.0047018519
0.014312347 -0.0042399997 -0.0032111111
-0.03130826 -0.0045428569 -0.0011240741
-0.018486781 -0.00030285714 -0.00022962963
-0.019977652 -0.0051485715 -0.0020185185
0.0095415646 0.0021199998 -0.0047018519
0.022661217 -0.00636 -0.002912963
-0.0059634782 0.00030285714 -0.0047018519
-0.023555739 -0.0033314284 -0.0017203704
-0.018188609 0.0048457142 -0.0011240741
-0.006559826 -0.0045428569 -0.0032111111
-0.0068579996 -0.0036342856 -0.0032111111
0.033097304 0.0036342856 -0.0011240741
0.021766694 -0.0015142857 -0.00022962963
0.013715999 -0.0051485715 -0.00022962963
-0.029519217 -0.0012114285 -0.0047018519
0.015505043 0.00060571427 -0.0026148148
-0.032500956 0.00030285714 -0.0020185185
-0.028624695 0.0039371429 -0.0038074073
0.016399564 -0.0039371429 -0.00022962963
-0.0080506951 -0.0039371429 -0.0032111111
0.020275826 -0.0015142857 -0.00022962963
0.028028347 -0.0045428569 -0.002912963
0.011330608 0.00636 -0.0038074073
0.029519217 0.00060571427 -0.0020185185
0.026537478 -0.0048457142 -0.0020185185
0.022363042 -0.0030285714 -0.0047018519
-0.0020872173 0.0012114285 -0.0032111111
-0.026537478 -0.0033314284 -0.0041055554
-0.015505043 -0.0039371429 0.0018574074
-0.031606432 -0.0054514282 -0.0017203704
-0.020872174 0.0015142857 -0.0008259259
0.027431998 0.0033314284 -0.0041055554
-0.016995912 0.0012114285 -0.0017203704
0.015206869 0.00030285714 -0.00022962963
0.024152085 0.0036342856 -0.0011240741
0.00059634779 -0.0051485715 -0.002912963
-0.011330608 -0.00060571427 -0.0047018519
0.0047707823 0.0054514282 -0.0044037038
-0.013119652 0.0024228571 -0.0008259259
-0.034289997 -0.00030285714 -0.0020185185
-0.014610521 -0.0036342856 -0.0047018519
0.023853913 -0.0048457142 -0.0014222222
0.024450259 0.0021199998 -0.0035092593
0.010137913 0.0042399997 -0.0041055554
0.012821478 -0.00636 -0.0041055554
0.0098397387 -0.00636 -0.0023166668
0.015206869 -0.00636 -0.0020185185
0.0035780868 0.0045428569 -0.0008259259
0.018486781 0.0042399997 -0.0032111111
0.018784955 -0.00636 -0.0011240741
0.032500956 -0.0033314284 -0.0035092593
0.0056653041 0.0036342856 -0.0044037038
-0.0080506951 -0.00060571427 -0.00022962963
-0.0056653041 0.00636 -0.0041055554
0.0023853912 0.00090857141 -0.0032111111
-0.0059634782 0.0045428569 -0.0032111111
-0.0089452174 0.0036342856 -0.0032111111
-0.0020872173 0.0048457142 -0.0044037038
0.021170348 -0.0036342856 -0.0044037038
0.027133824 0.0012114285 -0.0032111111
0.0083488692 0.0024228571 -0.0047018519
-0.014610521 0.0060571427 -0.0041055554
-0.01610139 -0.0015142857 -0.0047018519
0.002683565 0.0018171428 -0.0008259259
-0.034289997 -0.00060571427 -0.0014222222
0.030413738 -0.0042399997 -0.0035092593
-0.011032434 -0.00636 -0.0041055554
-0.028326521 -0.00030285714 -0.00022962963
0.002683565 -0.00636 -0.0008259259
0.0068579996 -0.0039371429 -0.0047018519
0.0092433905 0.0054514282 -0.0032111111
-0.0059634782 -0.00030285714 -0.0047018519
-0.0074543478 -0.0051485715 -0.0014222222
0.006559826 -0.00636 -0.0017203704
0.030711912 0.0018171428 -0.0035092593
0.015206869 0.00060571427 -0.002912963
0.020872174 0.00636 -0.0011240741
0.021170348 -0.0015142857 -0.00022962963
-0.023853913 0.0033314284 -0.0041055554
-0.017592261 0.0048457142 -0.0014222222
0.01610139 0.0045428569 -0.0011240741
-0.031606432 -0.0027257141 -0.0041055554
-0.033097304 -0.00636 -0.0032111111
-0.015803216 0.00030285714 -0.0047018519
-0.0047707823 0.0012114285 -0.0008259259
0.0062616519 0.0042399997 -0.0008259259
-0.017294087 0.0048457142 -0.0011240741
-0.015206869 -0.00636 -0.0014222222
-0.027133824 -0.0057542855 -0.00022962963
0.0077525214 0.0036342856 -0.0008259259
-0.018486781 0.0051485715 -0.0011240741
0.025642956 -0.0036342856 0.00066481484
-0.016399564 0.00060571427 -0.00022962963
-0.03130826 -0.0021199998 -0.00052777777
0.014312347 0.0048457142 -0.0011240741
0.014312347 0.0018171428 -0.0047018519
-0.0059634782 -0.0039371429 -0.0032111111
0.00536713 -0.0048457142 -0.0032111111
-0.0056653041 0.00030285714 -0.00052777777
-0.0017890434 -0.0027257141 -0.0008259259
0.0038762607 -0.0051485715 -0.0020185185
-0.0047707823 -0.0033314284 6.8518515e-05
0.022959391 0.0033314284 -0.0014222222
-0.030115563 -0.0024228571 -0.002912963
0.01073426 -0.00030285714 -0.0047018519
-0.022661217 -0.00636 6.8518515e-05
0.02594113 0.0042399997 -0.0035092593
-0.017592261 0.0018171428 -0.0008259259
0.0080506951 0.0042399997 -0.0044037038
0.025344782 0.0039371429 -0.0041055554
-0.026835652 -0.0033314284 -0.0017203704
0.014610521 -0.00636 -0.0014222222
0.024450259 0.0048457142 -0.0035092593
0.033693653 0.00030285714 -0.0047018519
0.00029817389 0.00030285714 -0.0047018519
-0.0023853912 0.0048457142 -0.0008259259
-0.019083129 0.00090857141 -0.0047018519
-0.018784955 0.0048457142 -0.0041055554
0.026239304 0.00060571427 -0.00022962963
-0.015803216 -0.0051485715 -0.0041055554
-0.029221043 0.0027257141 -0.0014222222
-0.03130826 0.0027257141 -0.0014222222
-0.013417826 0.0057542855 -0.0014222222
-0.029817391 0.0024228571 -0.0011240741
0.033097304 -0.0060571427 0.0015592593
0.00089452171 0 -0.0047018519
0.02146852 -0.0018171428 -0.00022962963
-0.0062616519 0.0051485715 -0.0032111111
-0.034289997 -0.0012114285 -0.0011240741
0.017890435 -0.0036342856 0.0012611111
0.020275826 -0.00636 -0.00052777777
-0.032799128 -0.0057542855 0.0021555556
-0.0086470433 0.0048457142 -0.0011240741
0.0023853912 0.0024228571 -0.0044037038
-0.017294087 0.0051485715 -0.0014222222
0.03130826 -0.0057542855 -0.00022962963
-0.014908696 -0.0051485715 -0.00022962963
-0.01222513 0.0024228571 -0.0008259259
-0.0077525214 -0.00090857141 -0.00022962963
-0.014610521 -0.0033314284 -0.0017203704
-0.0020872173 -0.0042399997 -0.00022962963
0.030711912 -0.0027257141 -0.0038074073
-0.015505043 0.0024228571 -0.0017203704
-0.011926956 -0.0057542855 -0.00022962963
-0.022661217 -0.00636 0.0018574074
0.025344782 -0.0030285714 0.00096296298
-0.018486781 0.0057542855 -0.0035092593
-0.0047707823 -0.0015142857 -0.00022962963
-0.0074543478 -0.0051485715 -0.002912963
-0.03130826 0.0036342856 -0.0011240741
0.013119652 0.0030285714 -0.0017203704
0.0011926956 0.0027257141 -0.0044037038
-0.030115563 -0.00636 -0.00022962963
-0.023257565 -0.00090857141 -0.00022962963
0.012523304 -0.0057542855 0.00096296298
-0.034289997 -0.00060571427 -0.00052777777
-0.011628782 0.0012114285 -0.0044037038
-0.0077525214 0.0042399997 -0.0044037038
-0.013715999 -0.00636 -0.0020185185
-0.031904608 0.0051485715 -0.0038074073
0.0017890434 -0.0039371429 -0.0011240741
0.019977652 -0.0015142857 -0.0047018519
-0.022661217 0.00090857141 -0.0017203704
0.031606432 0.0030285714 -0.0011240741
0.028028347 -0.0048457142 -0.0038074073
-0.030115563 0.0057542855 -0.0035092593
0.023257565 -0.0051485715 -0.00022962963
-0.03220278 0.0012114285 -0.0041055554
-0.014610521 -0.00636 -0.0017203704
0.013417826 0.0060571427 -0.0014222222
0.0080506951 -0.0060571427 6.8518515e-05
0.02146852 0.0048457142 -0.0014222222
-0.02594113 -0.0033314284 -0.002912963
0.006559826 0.00090857141 -0.0017203704
-0.029221043 0.0057542855 -0.0038074073
-0.01222513 -0.0018171428 -0.00022962963
-0.016995912 0.0036342856 -0.0041055554
0.014908696 0.0048457142 -0.0032111111
0.019977652 -0.0027257141 -0.00052777777
-0.018486781 0.0030285714 -0.0035092593
0.023555739 -0.0027257141 -0.002912963
0.010436087 0.0024228571 -0.0044037038
0.028028347 0.0033314284 -0.0035092593
0.024450259 0.0033314284 -0.0041055554
0.011032434 0.0024228571 -0.0047018519
0.014610521 0.0030285714 -0.0032111111
-0.033693653 -0.0021199998 -0.0032111111
0.019977652 -0.00636 -0.0014222222
0.018486781 0.00636 -0.0038074073
0.0086470433 0.0015142857 -0.0032111111
0.002683565 -0.0033314284 -0.0032111111
-0.021766694 -0.0042399997 -0.0014222222
0.0044726087 -0.0030285714 -0.0017203704
0.033395477 0.0021199998 -0.0035092593
-0.033991825 0.00030285714 -0.0020185185
0.026835652 0.0012114285 -0.0017203704
-0.0071561737 -0.0033314284 -0.0017203704
-0.016399564 -0.0048457142 -0.0041055554
-0.02146852 0.0048457142 -0.0011240741
-0.018486781 0.0039371429 -0.0014222222
-0.030413738 -0.0018171428 -0.0047018519
0.0023853912 0.0057542855 -0.0014222222
0.013119652 -0.0054514282 -0.0041055554
0.012821478 -0.0030285714 6.8518515e-05
0.019679477 0.0018171428 -0.0047018519
0.0077525214 -0.0042399997 -0.00022962963
-0.029519217 0.0027257141 -0.0038074073
0.012523304 0.0018171428 -0.0017203704
-0.03130826 0.0060571427 -0.0014222222
0.0038762607 0.0012114285 -0.0017203704
-0.0023853912 -0.00636 -0.002912963
0.011032434 -0.0036342856 -0.0044037038
0.028028347 -0.00636 0.0015592593
-0.033097304 0.0051485715 -0.0011240741
0.00059634779 -0.0051485715 -0.0011240741
-0.025344782 0.0021199998 -0.0044037038
-0.0014908696 0.0039371429 -0.0008259259
-0.019083129 -0.0042399997 -0.0011240741
-0.0077525214 -0.0036342856 0.0012611111
-0.020574 0.00636 -0.0011240741
-0.029221043 0.0045428569 -0.0035092593
-0.018188609 -0.00636 -0.00022962963
-0.012523304 -0.00060571427 -0.0047018519
0.025344782 0.0033314284 -0.0035092593
0.01222513 0.0054514282 -0.0011240741
0.018784955 -0.0012114285 -0.0047018519
0 -0.0024228571 -0.0017203704
-0.0035780868 -0.0033314284 -0.00022962963
0.020275826 -0.0018171428 -0.0026148148
0.015505043 -0.0045428569 -0.0008259259
-0.027431998 -0.0039371429 -0.00022962963
0.016995912 0.0057542855 -0.0011240741
0.01222513 0.00090857141 -0.0008259259
0.0011926956 -0.00636 -0.0023166668
0.0035780868 -0.0021199998 -0.00052777777
-0.01610139 -0.0045428569 -0.00022962963
0.033693653 -0.0018171428 -0.0041055554
-0.0077525214 -0.0030285714 -0.0044037038
0.03130826 0.00030285714 -0.0047018519
-0.021170348 0.0054514282 -0.0014222222
-0.019381303 -0.0042399997 -0.0041055554
0.0098397387 0.00060571427 -0.002912963
0.010137913 -0.0051485715 -0.0008259259
-0.025344782 0.00090857141 -0.0008259259
0.002683565 0.0036342856 -0.0008259259
-0.0062616519 0.0054514282 -0.0011240741
-0.0059634782 -0.00636 -0.002912963
0.025642956 -0.00636 -0.0026148148
0.002683565 -0.0060571427 0.0012611111
0.0098397387 -0.0054514282 -0.0041055554
0.019977652 0.00090857141 -0.0047018519
0.017592261 0.0060571427 -0.0011240741
-0.0041744346 -0.00636 -0.0026148148
-0.011032434 -0.00636 -0.0023166668
0.028922869 0.00090857141 -0.0032111111
0.033395477 0.0042399997 -0.0035092593
-0.003279913 0.0030285714 -0.0017203704
0.023853913 -0.0024228571 -0.0008259259
0.020574 -0.0033314284 0.00066481484
0.025344782 -0.00060571427 -0.0047018519
0.028326521 0.0021199998 -0.0014222222
-0.018784955 -0.0030285714 -0.00022962963
-0.015505043 -0.0027257141 -0.0017203704
-0.0092433905 0.0030285714 -0.002912963
0 0.00030285714 -0.00052777777
-0.016697738 -0.0057542855 -0.00022962963
-0.027431998 0.0012114285 -0.0047018519
0.031904608 -0.0027257141 -0.00022962963
-0.014312347 -0.00636 -0.0017203704
0.00089452171 0.0045428569 -0.0008259259
0.03220278 -0.0033314284 -0.0038074073
0.03130826 -0.0012114285 -0.00022962963
-0.015505043 -0.00636 -0.0032111111
-0.018188609 0.0042399997 -0.0035092593
0.01222513 0.0012114285 -0.0047018519
0.0023853912 -0.0051485715 -0.0023166668
0.0074543478 -0.0051485715 -0.0044037038
-0.006559826 0.0030285714 -0.0032111111
0.0029817391 0.0027257141 -0.0017203704
-0.012821478 -0.0057542855 6.8518515e-05
-0.033097304 -0.0033314284 0.00066481484
0.018784955 -0.0021199998 -0.0032111111
-0.028326521 0.0042399997 -0.0014222222
-0.0083488692 -0.0021199998 -0.0017203704
-0.026537478 0.0060571427 -0.0011240741
0.030413738 -0.0012114285 -0.00022962963
0.0074543478 0.00030285714 -0.0026148148
-0.00536713 0.0015142857 -0.0017203704
0.022064868 0.0012114285 -0.0047018519
-0.002683565 -0.0054514282 0.0021555556
0.00536713 0.0015142857 -0.0008259259
-0.013119652 -0.0042399997 -0.0044037038
0.028922869 0.0057542855 -0.0038074073
0.0047707823 -0.0036342856 0.00066481484
0.032799128 -0.00030285714 -0.00022962963
0.016995912 -0.0012114285 -0.00022962963
-0.027730173 0.0012114285 -0.002912963
-0.0092433905 -0.00090857141 -0.00022962963
-0.028028347 -0.00060571427 -0.0047018519
0.0071561737 -0.0039371429 -0.0014222222
0.023555739 0.0027257141 -0.0011240741
-0.031606432 0.00030285714 -0.00022962963
-0.030413738 -0.00636 0.0018574074
0.012821478 -0.0060571427 0.0018574074
-0.029519217 -0.0024228571 -0.0047018519
-0.028028347 0.0042399997 -0.0011240741
0.0077525214 0.00060571427 -0.0017203704
-0.010436087 -0.0033314284 0.0021555556
-0.012821478 -0.0033314284 0.0018574074
0.012523304 0.0060571427 -0.0011240741
-0.020275826 -0.0033314284 0.0018574074
0.0044726087 0.0036342856 -0.0032111111
-0.0035780868 -0.0054514282 -0.0023166668
0.0077525214 -0.00090857141 -0.00022962963
-0.017592261 0.00060571427 -0.0047018519
-0.023555739 0.0045428569 -0.0014222222
0.0077525214 0.0051485715 -0.0011240741
0.022064868 -0.0021199998 -0.00022962963
0.017592261 0.00636 -0.0038074073
0.0044726087 -0.00030285714 -0.0047018519
-0.0044726087 0.0015142857 -0.0032111111
-0.03220278 0.0051485715 -0.0038074073
0.024748433 0.0039371429 -0.0011240741
0.014908696 -0.0042399997 -0.0032111111
-0.029221043 -0.0048457142 -0.0020185185
-0.017592261 -0.0054514282 -0.00022962963
-0.03220278 0.00090857141 -0.0035092593
0.022661217 0.0051485715 -0.0035092593
0.030115563 -0.0045428569 -0.0011240741
-0.029519217 0.0042399997 -0.0014222222
-0.030711912 -0.0045428569 -0.0026148148
-0.011926956 -0.0048457142 -0.002912963
0.020574 0.0042399997 -0.0035092593
0 -0.0030285714 0.0015592593
0.029221043 0.0027257141 -0.0041055554
-0.019083129 0.0060571427 -0.0035092593
-0.031606432 -0.0033314284 -0.0041055554
0.022363042 0.0039371429 -0.0014222222
0.0059634782 -0.0018171428 -0.0026148148
0.020275826 0.0030285714 -0.0035092593
-0.0020872173 -0.0057542855 -0.0044037038
-0.0077525214 0.0021199998 -0.0044037038
-0.013119652 0.00636 -0.0041055554
0.031606432 -0.0033314284 -0.0017203704
-0.017890435 -0.0027257141 -0.00022962963
0.033693653 -0.0039371429 -0.0035092593
-0.006559826 -0.00090857141 -0.0047018519
-0.025046607 -0.0045428569 -0.0041055554
0.030115563 -0.0051485715 -0.0008259259
-0.030115563 -0.0051485715 -0.0035092593
0.0035780868 0.0024228571 -0.0044037038
0.03220278 -0.0030285714 -0.0032111111
-0.0038762607 0.00636 -0.0014222222
-0.0083488692 -0.0021199998 -0.0047018519
0.018486781 0.0060571427 -0.0014222222
-0.030413738 0.00030285714 -0.0047018519
0.0047707823 0.0024228571 -0.0017203704
0.026537478 -0.0042399997 -0.0041055554
-0.0014908696 -0.00636 -0.0023166668
0.013715999 0.0039371429 -0.0011240741
-0.03220278 0.00030285714 -0.0047018519
-0.02594113 0.00060571427 -0.00052777777
0.012821478 -0.0054514282 -0.0041055554
0.016995912 0.0051485715 -0.0011240741
0.022064868 0.0048457142 -0.0035092593
-0.0035780868 0.0042399997 -0.0017203704
-0.022363042 -0.00636 -0.00052777777
-0.018188609 -0.0060571427 -0.00022962963
0.023257565 -0.0018171428 -0.00022962963
-0.002683565 0.0045428569 -0.0032111111
0.0035780868 0.0039371429 -0.0044037038
0.0047707823 -0.0042399997 -0.00022962963
0.028922869 0.00060571427 -0.00052777777
-0.0086470433 -0.0018171428 -0.0047018519
0.010137913 -0.0048457142 -0.0044037038
0.018188609 0.00090857141 -0.0017203704
-0.021766694 -0.0030285714 -0.0047018519
0.0044726087 0.0057542855 -0.0008259259
-0.019977652 0.0042399997 -0.0014222222
0.030413738 -0.00636 -0.0026148148
-0.0080506951 0.00090857141 -0.0032111111
-0.0068579996 0.0027257141 -0.0017203704
0.017592261 0.0027257141 -0.0044037038
0.015505043 -0.0021199998 -0.00022962963
-0.0074543478 0.0015142857 -0.0008259259
0.0095415646 0.0036342856 -0.0044037038
-0.003279913 0.0024228571 -0.0044037038
-0.030711912 -0.00636 -0.0014222222
0.018784955 0.0039371429 -0.0011240741
0.022363042 0.0018171428 -0.002912963
0.017592261 -0.00060571427 -0.00022962963
0.031010086 0.00636 -0.0011240741
-0.030115563 -0.0039371429 -0.00022962963
0.0083488692 -0.0036342856 -0.00022962963
-0.012523304 0.0036342856 -0.0044037038
0.0074543478 0.0060571427 -0.0011240741
-0.0080506951 0.0045428569 -0.0044037038
-0.011032434 -0.0021199998 -0.0032111111
-0.0071561737 -0.0024228571 -0.0032111111
-0.029221043 0.0033314284 -0.0038074073
-0.027133824 0.0027257141 -0.0011240741
0.015505043 -0.00636 -0.0038074073
0.010436087 0 -0.00022962963
0.022064868 0.00090857141 -0.0017203704
0.0077525214 -0.0024228571 -0.0017203704
-0.015206869 -0.0027257141 -0.0017203704
-0.023853913 0.0051485715 -0.0035092593
0.027431998 0.00060571427 -0.0020185185
0.030711912 -0.0036342856 0.00066481484
-0.017890435 -0.0039371429 6.8518515e-05
-0.011330608 0 -0.00022962963
-0.026537478 -0.0045428569 -0.0011240741
0.017890435 -0.0015142857 -0.00022962963
0.028326521 0.0027257141 -0.0035092593
-0.03130826 0.0033314284 -0.0011240741
-0.022661217 0.0024228571 -0.0035092593
0.033693653 -0.00090857141 -0.00022962963
0.014312347 -0.0051485715 -0.0011240741
-0.011330608 -0.00636 -0.0011240741
0.0095415646 -0.0021199998 -0.00052777777
-0.0062616519 -0.0021199998 -0.00022962963
0.021766694 0.0057542855 -0.0038074073
-0.026239304 -0.0024228571 -0.0017203704
-0.030413738 0.0015142857 -0.0014222222
0.0047707823 0.0018171428 -0.0032111111
0.028922869 -0.0018171428 -0.0023166668
-0.018188609 0.0051485715 -0.0035092593
0.022959391 0.0027257141 -0.0035092593
0.018188609 -0.00090857141 -0.0047018519
0.024450259 0.0015142857 -0.0044037038
-0.0068579996 0.0054514282 -0.0011240741
0.0017890434 0.0042399997 -0.0032111111
-0.030711912 0.00060571427 -0.0047018519
0.024450259 -0.0030285714 -0.00022962963
-0.01073426 -0.0054514282 -0.0044037038
-0.0035780868 0.0048457142 -0.0032111111
0.0035780868 0.00090857141 -0.0032111111
-0.018486781 -0.0030285714 -0.0017203704
-0.023555739 0.0033314284 -0.0014222222
-0.0038762607 0.0033314284 -0.0032111111
0.024450259 0.0042399997 -0.0041055554
0.012821478 -0.0039371429 0.0021555556
-0.030115563 0.0030285714 -0.0011240741
0.0056653041 -0.0030285714 -0.0032111111
-0.0047707823 -0.00636 -0.00022962963
-0.026537478 -0.0021199998 -0.0047018519
-0.0020872173 0.0018171428 -0.0044037038
0.020275826 0.0039371429 -0.0041055554
0.02594113 0.0030285714 -0.0011240741
-0.016995912 0.0012114285 -0.0032111111
-0.017890435 -0.0024228571 -0.0032111111
0.015206869 -0.0060571427 0.0012611111
0.034289997 -0.00090857141 -0.002912963
0.0044726087 -0.0015142857 -0.0047018519
-0.014014173 -0.00636 -0.00052777777
0.029519217 -0.0039371429 -0.0017203704
0.022363042 -0.0015142857 -0.0047018519
0.0074543478 -0.0033314284 6.8518515e-05
-0.016399564 0.0051485715 -0.0041055554
0.026537478 -0.0018171428 -0.00022962963
0.019083129 0.0051485715 -0.0011240741
-0.018188609 -0.00636 -0.0008259259
0.013119652 0.0015142857 -0.0047018519
-0.023853913 -0.0045428569 -0.0011240741
0.013715999 -0.0045428569 -0.0044037038
0.032799128 0.0018171428 -0.0038074073
-0.010137913 -0.0015142857 -0.0047018519
-0.014908696 0 -0.0047018519
-0.0089452174 0.00030285714 -0.002912963
0.015505043 -0.0033314284 -0.0017203704
-0.00536713 0.0027257141 -0.0032111111
-0.011628782 0.0024228571 -0.0044037038
0.01073426 0.0036342856 -0.0017203704
-0.033991825 0 -0.0008259259
-0.020872174 -0.0048457142 -0.0041055554
0.017890435 -0.00636 -0.00022962963
0.016697738 -0.00060571427 -0.00022962963
-0.02594113 -0.0033314284 -0.0017203704
0.0059634782 -0.0042399997 -0.0047018519
0.033991825 -0.0024228571 -0.0038074073
-0.031606432 -0.0015142857 -0.00022962963
0.024152085 0.0015142857 -0.0017203704
0.022363042 -0.0045428569 -0.002912963
-0.031606432 -0.00636 -0.0035092593
-0.011032434 0.0036342856 -0.0044037038
-0.030413738 0.0018171428 -0.0011240741
0.024748433 0.0021199998 -0.0035092593
-0.016995912 0.0024228571 -0.002912963
-0.029221043 0.0012114285 -0.0017203704
0.0020872173 -0.0027257141 -0.0017203704
0.017890435 0.0060571427 -0.0038074073
0.024450259 0.0018171428 -0.0008259259
-0.030711912 -0.0030285714 -0.0017203704
0.00059634779 -0.00636 -0.0035092593
0.0029817391 -0.0033314284 -0.0044037038
0.014312347 -0.0054514282 -0.0041055554
0.027730173 -0.0021199998 -0.0047018519
0.00029817389 0.0039371429 -0.0044037038
-0.020872174 0.0024228571 -0.0017203704
0.021766694 0.0033314284 -0.0041055554
-0.033395477 0.0024228571 -0.0014222222
0.017890435 0.0036342856 -0.0032111111
0.030711912 -0.0060571427 -0.0023166668
-0.0035780868 0.0024228571 -0.0008259259
0.002683565 -0.0030285714 -0.00052777777
-0.015505043 -0.0018171428 -0.0047018519
-0.0047707823 -0.0057542855 6.8518515e-05
0.003279913 0.0054514282 -0.0008259259
0.0050689564 -0.0024228571 -0.0008259259
-0.010137913 0.0030285714 -0.0008259259
-0.021766694 -0.00090857141 -0.0047018519
-0.020275826 0.00030285714 -0.0047018519
-0.011628782 0.0048457142 -0.0014222222
0.0029817391 0.00060571427 -0.0017203704
0.014610521 -0.0018171428 -0.002912963
0.012523304 0.0054514282 -0.0014222222
-0.020574 0.0057542855 -0.0038074073
-0.030115563 0.0033314284 -0.0011240741
-0.021170348 0.0060571427 -0.0014222222
0.010436087 0.0051485715 -0.0032111111
-0.016697738 -0.0024228571 -0.0032111111
0.024152085 0.0045428569 -0.0041055554
0.0086470433 -0.0015142857 -0.00022962963
0.012821478 0.0015142857 -0.0017203704
-0.0077525214 -0.0057542855 -0.0044037038
-0.03130826 -0.0039371429 -0.00022962963
-0.0035780868 -0.00636 -0.0044037038
0.002683565 0.0027257141 -0.0008259259
-0.01222513 0.00090857141 -0.0044037038
0.026239304 -0.0039371429 -0.0041055554
-0.02594113 0.0057542855 -0.0035092593
-0.030711912 -0.0060571427 0.0012611111
0.017592261 0.0033314284 -0.0011240741
0.023257565 -0.0048457142 -0.0038074073
0.002683565 0.0027257141 -0.0017203704
0.0074543478 -0.0054514282 -0.0044037038
-0.0071561737 0.00636 -0.0041055554
0.027431998 -0.0030285714 -0.00022962963
0.0068579996 -0.0048457142 -0.0044037038
0.031606432 -0.0024228571 -0.002912963
0.0044726087 0.00030285714 -0.002912963
-0.0095415646 0.00636 -0.0014222222
-0.0068579996 0.0018171428 -0.0008259259
0.019679477 -0.0030285714 -0.0047018519
0.033097304 -0.0015142857 -0.00022962963
-0.017890435 -0.0057542855 0.00096296298
0.025642956 -0.00060571427 -0.00022962963
0.022064868 0.0018171428 -0.0017203704
0.019083129 -0.0018171428 -0.00022962963
0.015206869 0.0015142857 -0.0047018519
0.017294087 -0.00090857141 -0.00022962963
0.0023853912 0.0048457142 -0.0008259259
-0.0023853912 -0.0033314284 -0.0044037038
-0.0089452174 -0.0015142857 -0.00022962963
-0.018486781 0.0048457142 -0.0011240741
-0.0092433905 0.0033314284 -0.0008259259
-0.020574 -0.0036342856 0.0012611111
0.0098397387 -0.0057542855 0.0012611111
-0.0029817391 0.0030285714 -0.0017203704
-0.011926956 0.00636 -0.0041055554
-0.031606432 -0.0021199998 -0.0017203704
0.023555739 -0.0027257141 -0.0047018519
-0.003279913 -0.00636 -0.0038074073
0.013119652 0.00636 -0.0011240741
-0.002683565 -0.0021199998 -0.0047018519
0.0092433905 0.0024228571 -0.0044037038
-0.032799128 0.0042399997 -0.0035092593
-0.014312347 0.0027257141 -0.0017203704
-0.014014173 -0.0018171428 -0.00022962963
0.028624695 0.0012114285 -0.0035092593
0.013119652 0 -0.0047018519
0.016995912 0.00090857141 -0.0032111111
0.022363042 -0.00636 -0.002912963
-0.0086470433 -0.0051485715 -0.002912963
0.027730173 -0.0012114285 -0.00022962963
0.023555739 -0.0033314284 -0.0044037038
0.019083129 0.0024228571 -0.0017203704
0.021766694 -0.0033314284 -0.002912963
-0.0014908696 -0.0045428569 -0.0044037038
0.020275826 -0.0039371429 0.00066481484
0.0092433905 0.0054514282 -0.0011240741
0.0071561737 0.0030285714 -0.0017203704
-0.032799128 0.0027257141 -0.0011240741
0.017890435 -0.0051485715 -0.00022962963
0.029221043 0.0033314284 -0.0035092593
-0.031606432 -0.0033314284 -0.002912963
0.028922869 -0.0054514282 -0.002912963
0.01610139 -0.0033314284 -0.0047018519
-0.016995912 -0.0036342856 -0.0017203704
0.0020872173 0.0018171428 -0.0008259259
0.033097304 -0.0036342856 0.00066481484
-0.00536713 -0.0021199998 -0.0047018519
