# .PCD v0.7 - Point Cloud Data file format
VERSION 0.7
FIELDS x y z
SIZE 4 4 4
TYPE F F F
COUNT 1 1 1
WIDTH 1180
HEIGHT 1
VIEWPOINT 0 0 0 1 0 0 0
POINTS 1180
DATA ascii
-0.0061908001 -0.0047073169 -0.0071836957
0.0057191201 -0.0037658536 -9.456525e-05
-0.00182776 -0.0025890244 -0.00021271742
0.0060728798 -0.0048249997 -0.0056477175
0.0073699998 0.0040012193 -0.0051751086
-0.0043040798 0.0031774389 -0.00021271742
0.00100232 -0.0048249997 -0.0018668479
-0.0050116 0.0036481705 -0.0071836957
-0.00182776 -0.0048249997 -0.00068532611
-0.0072520799 0.0010591462 -0.0042298916
-0.00088439998 -0.0029420732 -0.0073018479
0.0025352801 0.0048249997 -0.005884022
0.0073699998 -0.0029420732 -0.0018668479
0.0073699998 -0.0036481705 -0.0011579348
0.0073699998 0.003059756 -0.0026939132
0.0025352801 -0.00011768292 -0.0073018479
0.0073699998 -0.0040012193 -0.0018668479
-0.0073699998 -0.0020006096 -0.0013942391
-0.00100232 -0.0048249997 -0.0062384782
0.0073699998 -0.0022359756 -0.0043480434
-0.00123816 0.0048249997 -0.0056477175
0.0031248799 0.00023536585 -0.00056717393
0.00241736 0.0038835364 0.002741087
0.0046578399 0.0025890244 -0.0073018479
0.0051295199 -0.004589634 -0.00068532611
-0.00300696 -0.00023536585 -0.0073018479
-0.0033607199 -0.0048249997 -0.0026939132
0.0040682401 0.0048249997 -0.0018668479
-0.0028890399 0.0043542683 -0.00056717393
-0.0044220001 0.0034128048 -0.0003308696
-0.0070162397 0.00011768292 -0.0030483697
0.00064856 -0.0048249997 -0.0049388045
-0.0073699998 0.0017652438 -0.0025757609
5.8959999e-05 0.0048249997 -0.0045843478
0.0031248799 -0.0048249997 -0.0011579348
-0.0073699998 -0.0037658536 -0.0032846739
-0.00713416 0.001529878 -0.0073018479
-0.0038323998 0.0048249997 -0.006592935
-0.00583704 -0.0018829268 -0.00056717393
0.0002948 -0.0035304877 -9.456525e-05
-0.0041861599 0.0041189021 -0.00044902178
0.0032428 0.0048249997 -0.0021031522
-0.0035965599 -0.00058841461 -0.00056717393
0.0026531999 -0.0035304877 -0.0003308696
-0.0027711201 0.0028243901 -0.0073018479
0.0073699998 -0.0038835364 -0.0050569568
0.0073699998 -0.001529878 -0.0047025001
0.0035965599 -0.0009414634 -0.00056717393
-0.0073699998 -0.0040012193 -0.0022213045
0.0027711201 -0.0048249997 -0.001276087
0.00076647999 0.0043542683 -0.0071836957
-0.00713416 0.00023536585 -0.001985
0.0073699998 -0.0012945122 -0.0067110872
-0.0070162397 0.0004707317 -0.0071836957
-0.00713416 0.00082378043 -0.0048206523
0.0041861599 -0.004589634 -0.00080347829
-0.0064266399 0.0021182925 -0.00044902178
0.0073699998 0.0027067072 -0.0038754349
-0.0025352801 0.0038835364 0.00037804345
-0.0065445597 -0.0037658536 -0.00056717393
-0.0065445597 -0.0034128048 -0.0003308696
0.0050116 0.00035304876 -0.00056717393
-0.00630872 0.0047073169 -0.005411413
0.0043040798 -0.0012945122 -0.0073018479
-0.0031248799 -0.0025890244 -0.0073018479
0.00017688 0.00058841461 -0.00056717393
0.0073699998 0.00023536585 -0.0010397827
-0.00630872 -0.0047073169 -0.0016305435
0.0052474397 0.0038835364 -0.0073018479
-0.0052474397 -0.0038835364 0.002741087
-0.00371448 0.0048249997 -0.0055295653
-0.00053064001 0.0048249997 -0.00092163048
-0.0052474397 0.0035304877 -0.0071836957
-0.0073699998 -0.00011768292 -0.0064747827
-0.0050116 -0.0048249997 -0.0021031522
-0.0073699998 0.0025890244 -0.0064747827
0.00041271999 0.00082378043 -0.0073018479
0.0061908001 -0.0048249997 -0.0032846739
-0.00076647999 0.0034128048 -0.0073018479
0.0014739999 0.0048249997 -0.001985
0.0073699998 -0.0041189021 -0.0030483697
0.0025352801 -0.0036481705 0.002741087
0.0032428 -0.0048249997 -0.0070655434
0.0073699998 0.0021182925 -0.0055295653
0.0073699998 -0.001529878 -0.0060021742
0.0066624801 -0.0047073169 -0.0010397827
0.0065445597 -0.004589634 -0.0071836957
-0.0051295199 -0.00070609752 -0.00056717393
-0.0014739999 -0.0048249997 -0.0026939132
-0.0073699998 -0.0025890244 -0.0060021742
-0.00194568 -0.0021182925 -0.00044902178
0.0073699998 -0.0040012193 -0.0010397827
0.0072520799 -0.0036481705 -0.0071836957
-0.0073699998 -0.001529878 -0.00068532611
-0.0073699998 -0.0018829268 -0.0042298916
-0.0073699998 -0.0025890244 -0.0050569568
0.0073699998 0.0043542683 -0.00092163048
-0.0073699998 -0.0022359756 -0.0013942391
0.0053653601 0.0037658536 -9.456525e-05
0.0073699998 -0.0018829268 -0.0060021742
-0.00194568 -0.0048249997 -0.0035209784
-0.0033607199 -0.0041189021 -0.00021271742
0.0073699998 -0.001529878 -0.0051751086
0.00041271999 -0.004589634 -0.00056717393
0.0073699998 0.0037658536 -0.006120326
0.0028890399 -0.0009414634 -0.0073018479
-0.00112024 -0.0048249997 -0.0035209784
-0.0073699998 0.0034128048 -0.0067110872
0.0038323998 -0.004589634 -0.00080347829
0.00076647999 -0.0029420732 -9.456525e-05
5.8959999e-05 0.001529878 -0.0073018479
0.0073699998 -0.004236585 -0.0015123914
-0.0068983198 -0.0047073169 -0.00080347829
-0.0059549599 0.0038835364 -0.0071836957
0.0065445597 -0.0025890244 -9.456525e-05
-0.0050116 0.004589634 -0.0071836957
-0.00300696 0.0048249997 -0.0029302174
-0.00112024 -0.004589634 -0.0071836957
0.0014739999 0.0012945122 -0.00056717393
0.0073699998 -0.004236585 -0.0048206523
-0.0022994399 -0.0048249997 -0.0016305435
-0.0073699998 -0.0017652438 -0.0030483697
-0.00583704 0.0048249997 -0.00068532611
0.0073699998 -0.0037658536 -0.0029302174
-0.0047757598 0.00070609752 -0.00056717393
0.0040682401 -0.0048249997 -0.0051751086
-0.00630872 -0.0047073169 -0.0042298916
0.00064856 0.0040012193 -0.0071836957
-0.0041861599 0.0040012193 -0.0071836957
0.00123816 -0.0041189021 -0.0071836957
-0.0073699998 -0.003059756 -0.0063566305
0.0038323998 -0.0048249997 -0.006120326
0.0073699998 0.0031774389 -0.0024576087
-0.0013560799 0.0048249997 -0.0043480434
0.0073699998 0.0022359756 -0.0057658697
0.00064856 -0.0048249997 -0.0021031522
0.0073699998 -0.0040012193 -0.0042298916
-0.0070162397 -0.0018829268 -0.0071836957
0.0044220001 0.001412195 -0.00056717393
0.00064856 -0.00070609752 -0.00056717393
0.0057191201 -0.004589634 -0.0070655434
-0.00713416 0.0021182925 -0.00044902178
0.00371448 -0.001529878 -0.0073018479
0.0073699998 0.0028243901 -0.0030483697
-0.00583704 0.0004707317 -0.00056717393
-0.0022994399 0.0017652438 -0.00056717393
0.0068983198 -0.003059756 -0.0071836957
0.00583704 0.0017652438 -0.0073018479
-0.0032428 -0.004236585 -0.0073018479
-0.00300696 -0.0048249997 -0.0039935871
0.0073699998 0.00035304876 -0.0044661956
-0.0060728798 -0.0048249997 -0.0045843478
0.0022994399 -0.0016475609 -0.00056717393
0.00583704 -0.0048249997 -0.0063566305
0.0027711201 0.00011768292 -0.0073018479
-0.0014739999 -0.0048249997 -0.006592935
0.0022994399 0.0029420732 -0.0073018479
0.0033607199 -0.001412195 -0.00056717393
-0.0040682401 -0.0048249997 -0.0068292394
-0.0013560799 -0.0048249997 -0.0022213045
0.0014739999 0.004589634 -0.00056717393
-0.0050116 -0.0034128048 -0.0073018479
0.0020635999 -0.0048249997 -0.0031665219
-0.00041271999 0.001412195 -0.00056717393
0.00347864 -0.0021182925 -0.00044902178
0.00241736 -0.0038835364 0.0015595652
0.0056011998 0.004589634 -0.0071836957
0.0073699998 -0.0031774389 -0.0047025001
-0.0073699998 0.0031774389 -0.0035209784
-0.0051295199 -0.0038835364 -0.0073018479
0.00017688 -0.0022359756 -0.0003308696
0.00218152 -0.0027067072 -0.0073018479
-0.0043040798 0.00058841461 -0.00056717393
0.0025352801 -0.0036481705 0.0019140217
0.00453992 0.00058841461 -0.00056717393
0.0072520799 -0.0031774389 -0.0003308696
0.0031248799 0.0011768292 -0.0073018479
-0.0026531999 -0.0038835364 0.00049619563
0.00076647999 -0.0048249997 -0.0030483697
0.0047757598 -0.0044719512 -0.0071836957
-0.00170984 -0.0048249997 -0.0031665219
-0.0068983198 0.0021182925 -0.00044902178
-0.0040682401 0.0048249997 -0.0047025001
0.0020635999 0.0029420732 -9.456525e-05
-0.00017688 0.0048249997 -0.0070655434
-0.0051295199 -0.0037658536 0.00096880435
-0.0073699998 0.0021182925 -0.0041117393
-0.0014739999 0.0028243901 -9.456525e-05
0.00017688 -0.0037658536 0.00096880435
0.0052474397 -0.001529878 -0.0073018479
0.0026531999 -0.0048249997 -0.0047025001
-0.0050116 -0.0029420732 -0.0003308696
-0.0066624801 -0.0028243901 -0.0071836957
-0.00713416 -0.0011768292 -0.0032846739
0.0048936801 0.0048249997 -0.0022213045
0.0073699998 -0.0044719512 -0.0045843478
-0.00064856 0.0048249997 -0.0042298916
0.0014739999 0.0038835364 -0.0071836957
-0.0072520799 -0.0044719512 -0.0018668479
0.0073699998 -0.00023536585 -0.0056477175
0.00112024 -0.0024713413 -0.0073018479
0.0056011998 0.0048249997 -0.00068532611
0.0073699998 -0.001529878 -0.0030483697
-0.0053653601 0.0048249997 -0.00068532611
0.0073699998 -0.001529878 -0.001276087
-0.00347864 -0.0048249997 -0.0062384782
0.00583704 -0.00023536585 -0.0073018479
0.0027711201 0.0018829268 -0.0073018479
0.0013560799 0.0011768292 -0.00056717393
0.0026531999 0.0044719512 -0.00056717393
0.0067803999 -0.0047073169 -0.0038754349
0.0073699998 -0.00058841461 -0.0048206523
0.00194568 0.004236585 -9.456525e-05
-0.00371448 0.0048249997 -0.0063566305
-0.0054832799 -0.003059756 -0.0073018479
-0.0051295199 0.0048249997 -0.0028120652
0.0073699998 -0.0022359756 -0.0023394565
0.0073699998 -0.00023536585 -0.0041117393
-0.0002948 -0.0048249997 -0.0016305435
0.0073699998 0.00082378043 -0.0067110872
-0.0039503197 0.0018829268 -0.0073018479
0.0073699998 0.00011768292 -0.0047025001
0.0073699998 -0.0035304877 -0.0044661956
0.0073699998 0.0025890244 -0.0026939132
-0.00123816 -0.0041189021 -0.00056717393
0.00300696 0.0022359756 -0.0003308696
-0.0073699998 -0.0028243901 -0.0042298916
-0.00194568 0.0024713413 -0.0073018479
-0.0040682401 -0.0048249997 -0.0034028261
0.0072520799 -0.0012945122 -0.0024576087
-0.0040682401 0.0028243901 -0.00021271742
-0.00218152 0.0048249997 -0.0068292394
-0.0025352801 -0.0048249997 -0.0011579348
-0.0025352801 -0.0040012193 0.002150326
-0.0070162397 -0.00082378043 -0.0017486957
-0.0026531999 -0.0037658536 0.0017958696
0.0035965599 0 -0.0073018479
-0.0070162397 0.0036481705 -0.0071836957
-0.0053653601 -0.0048249997 -0.006120326
0.0014739999 0.0041189021 -0.0071836957
0.0039503197 0.0048249997 -0.0037572826
-0.0073699998 0.0017652438 -0.0011579348
-0.0038323998 0.0044719512 -0.0071836957
0.00630872 0.00011768292 -0.0073018479
0.0028890399 -0.0004707317 -0.0073018479
-0.0043040798 -0.003059756 -0.00021271742
0.0050116 -0.0048249997 -0.0050569568
0.0054832799 -0.0048249997 -0.006120326
0.0073699998 -0.001412195 -0.0062384782
-0.0028890399 0.0048249997 -0.0069473912
-0.0043040798 0.0040012193 -0.0071836957
0.0026531999 -0.0037658536 0.00085065217
0.00076647999 0.0048249997 -0.006592935
0.00112024 0.0035304877 -0.0073018479
0.0073699998 0.001412195 -0.0030483697
-0.0072520799 0.0047073169 -0.00092163048
0.0073699998 0.0029420732 -0.0052932608
0.0073699998 0.0020006096 -0.0049388045
-0.00713416 -0.0016475609 -0.0032846739
-0.0073699998 0.0029420732 -0.0045843478
0.0052474397 -0.0029420732 -0.0073018479
-0.00241736 0.0020006096 -0.00044902178
0.0068983198 0.0028243901 -0.0003308696
0.0013560799 -0.0048249997 -0.0049388045
0.00347864 -0.0009414634 -0.00056717393
0.0033607199 0.0022359756 -0.0003308696
-0.0060728798 -0.0048249997 -0.001985
0.00100232 0.0048249997 -0.0016305435
0.0044220001 -0.004589634 -0.0071836957
-0.0051295199 0.0044719512 -0.0071836957
0.0066624801 0.0023536584 -0.0003308696
-0.0031248799 0.0038835364 -0.0071836957
-0.0026531999 0.0022359756 -0.0003308696
-0.0057191201 0.0048249997 -0.0049388045
-0.0035965599 0.0048249997 -0.0025757609
-0.0047757598 -0.0023536584 -0.0003308696
0.00713416 -0.00070609752 -0.0016305435
-5.8959999e-05 0.0048249997 -0.0055295653
0.0073699998 -0.0020006096 -0.0017486957
-0.0002948 -0.0048249997 -0.0013942391
-0.0053653601 -0.0041189021 -0.0073018479
0.0073699998 0.00011768292 -0.006120326
-0.0066624801 0.0027067072 -0.0073018479
0.0067803999 -0.001529878 -0.00056717393
-0.0073699998 0.00070609752 -0.0071836957
-0.0035965599 0.0048249997 -0.0030483697
-0.0073699998 -0.0032951217 -0.00068532611
-0.0073699998 0.0012945122 -0.0018668479
-0.0043040798 -0.0010591462 -0.00056717393
-0.0073699998 -0.001412195 -0.0013942391
-0.0027711201 0.00082378043 -0.0073018479
0.0072520799 -0.0004707317 -0.001276087
0.00100232 0.0048249997 -0.006592935
-0.0053653601 -0.0031774389 -0.0073018479
-0.0073699998 0.0021182925 -0.0037572826
-0.00053064001 0.00011768292 -0.00056717393
0.0059549599 -0.0043542683 -0.00068532611
-0.0072520799 0.004589634 -0.0038754349
-0.0070162397 -0.0004707317 -0.0030483697
-0.0040682401 0.0048249997 -0.0056477175
-0.0020635999 -0.0048249997 -0.0017486957
0.0068983198 0.0011768292 -0.00056717393
-0.00347864 -0.0048249997 -0.0021031522
0.0067803999 0.0047073169 -0.0070655434
-0.0028890399 -0.0023536584 -0.0073018479
-0.0013560799 0.0024713413 -0.0073018479
-0.0073699998 0.003059756 -0.0052932608
0.0073699998 0.0012945122 -0.005884022
0.0022994399 0.0044719512 -0.00056717393
0.00347864 -0.0044719512 -0.0071836957
-0.00300696 -0.0016475609 -0.00056717393
0.0051295199 0.0037658536 0.0015595652
-0.0020635999 -0.0048249997 -0.0047025001
-0.00713416 -0.0012945122 -0.00056717393
0.0066624801 0.0047073169 -0.006592935
0.0057191201 -0.0040012193 -0.00068532611
0.00112024 -0.0031774389 -0.0073018479
0.00088439998 0.0048249997 -0.0063566305
-0.0056011998 0.00082378043 -0.00056717393
-0.00088439998 -0.0048249997 -0.0026939132
0.0027711201 -0.0011768292 -0.00056717393
-0.0035965599 -0.0018829268 -0.0073018479
0.0028890399 0.0010591462 -0.0073018479
0.0057191201 -0.0028243901 -0.0073018479
-0.0053653601 -0.00070609752 -0.00056717393
-0.0073699998 0.0022359756 -0.0063566305
0.0051295199 -0.0048249997 -0.0068292394
-0.00182776 -0.0047073169 -0.0071836957
-0.0032428 0.0048249997 -0.0052932608
-0.00100232 -0.0004707317 -0.00056717393
0.0043040798 -0.0034128048 -0.0073018479
0.0073699998 0.0022359756 -0.0047025001
-0.00017688 0.0037658536 -0.0073018479
0.0051295199 0.00058841461 -0.0073018479
-0.0026531999 0.0048249997 -0.0028120652
-0.00112024 0.0023536584 -0.0073018479
-0.0052474397 -0.0022359756 -0.00044902178
0.0073699998 -0.0037658536 -0.006592935
0.0048936801 -0.0038835364 -0.00021271742
0.0073699998 0.0004707317 -0.0041117393
-5.8959999e-05 0.0041189021 -0.0071836957
0.0048936801 -0.00082378043 -0.0073018479
-0.0051295199 0.0036481705 0.002741087
0.0013560799 0.0011768292 -0.0073018479
0.0052474397 0.0041189021 -0.0073018479
0.0073699998 0.0022359756 -0.00056717393
0.00347864 0.00035304876 -0.0073018479
0.0073699998 0.00023536585 -0.0047025001
0.0020635999 0.0048249997 -0.0036391304
-0.00123816 -0.0048249997 -0.0028120652
0.0046578399 -0.0048249997 -0.0045843478
0.00300696 0.0027067072 -0.0003308696
0.00241736 -0.0009414634 -0.00056717393
-0.0073699998 -0.0040012193 -0.0068292394
0.00371448 -0.0021182925 -0.0073018479
-0.0064266399 0.0047073169 -0.00080347829
0.0072520799 -0.0044719512 -0.0071836957
0.0073699998 0.001529878 -0.0044661956
0.0048936801 0.0048249997 -0.0028120652
-0.0026531999 -0.0037658536 0.0013232608
-0.0073699998 0.0032951217 -0.001276087
0.00194568 -0.0048249997 -0.001985
0.0041861599 0.0018829268 -0.00056717393
-0.00170984 -0.001412195 -0.00056717393
0.0072520799 -0.0016475609 -0.0024576087
0.0073699998 -0.00035304876 -0.0062384782
0.0051295199 0.0048249997 -0.0062384782
-0.00182776 -0.001412195 -0.00056717393
-0.0064266399 -0.0016475609 -0.00056717393
-0.0052474397 0.0048249997 -0.00092163048
0.0033607199 -0.0031774389 -0.0073018479
-0.00713416 0.00058841461 -0.0044661956
0.00371448 -0.0034128048 -0.0003308696
-0.00218152 -0.0048249997 -0.005884022
0.0070162397 -0.0036481705 -0.00056717393
-0.0073699998 -0.001529878 -0.0035209784
-0.0073699998 -0.0037658536 -0.0041117393
0.00241736 0.0037658536 0.0022684783
-0.0032428 -0.0048249997 -0.0045843478
0.0035965599 -0.0048249997 -0.0063566305
-0.00112024 0.00070609752 -0.00056717393
-0.0050116 0.0048249997 -0.0024576087
0.00112024 0.0041189021 -0.0071836957
0.00053064001 0.0022359756 -0.0003308696
-0.0020635999 -0.0048249997 -0.001276087
-0.00123816 0.0048249997 -0.0032846739
0.0052474397 0.0037658536 0.0022684783
0.0013560799 -0.0012945122 -0.0073018479
-0.0073699998 0.0036481705 -0.0062384782
-0.0039503197 0.0048249997 -0.0055295653
0.0025352801 0.0018829268 -0.0073018479
-0.00583704 0.0048249997 -0.001276087
-0.0013560799 0.0036481705 -9.456525e-05
0.0060728798 0.0017652438 -0.0073018479
-0.0053653601 -0.0048249997 -0.0017486957
0.0032428 -0.0010591462 -0.0073018479
-0.0025352801 -0.0048249997 -0.0067110872
-0.0013560799 -0.0011768292 -0.00056717393
5.8959999e-05 0.0047073169 -0.0071836957
-0.0068983198 -0.0044719512 -0.00068532611
0.0050116 0.0048249997 -0.0071836957
-0.00100232 0.00035304876 -0.00056717393
0.00630872 -0.0011768292 -0.00056717393
0.0073699998 0.0018829268 -0.0011579348
0.0002948 -0.0004707317 -0.00056717393
0.00017688 -0.0048249997 -0.0044661956
-0.00583704 -0.004236585 -0.00056717393
-0.0038323998 0.0034128048 -0.0003308696
0.00100232 -0.0038835364 -0.0071836957
-0.0032428 0.0048249997 -0.0024576087
0.0053653601 0.00023536585 -0.00056717393
0.0044220001 0.0048249997 -0.0031665219
-0.00300696 0.0025890244 -0.0073018479
0.0053653601 -0.0048249997 -0.0037572826
-0.0073699998 0.0038835364 -0.001276087
0.0073699998 -0.0043542683 -0.0034028261
-0.0072520799 0.0016475609 -0.0023394565
0.0051295199 0.0047073169 -0.0073018479
0.0047757598 -0.0023536584 -0.0003308696
-0.00453992 -0.0048249997 -0.0028120652
0.00713416 -0.00070609752 -0.0071836957
0.0073699998 -0.0031774389 -0.0071836957
-0.0044220001 0.0048249997 -0.0035209784
-0.0043040798 0.0029420732 -0.00021271742
-0.0070162397 -0.00082378043 -0.0044661956
0.00241736 0.0027067072 -0.0073018479
-0.00041271999 0.0036481705 -9.456525e-05
-0.0038323998 -0.0027067072 -0.0073018479
0.0073699998 0.0021182925 -0.0041117393
-0.0067803999 0.0047073169 -0.0070655434
-0.0047757598 0.00058841461 -0.00056717393
-0.0064266399 0.004589634 -0.00068532611
-0.00241736 0.0036481705 0.002741087
0.00241736 -0.0028243901 -0.0073018479
-0.00100232 0.0044719512 -0.00056717393
0.0032428 0.00070609752 -0.0073018479
-0.0068983198 -0.0025890244 -0.00021271742
-0.00017688 0.00023536585 -0.00056717393
0.0053653601 -0.0038835364 -0.00056717393
0.0035965599 0.00070609752 -0.0073018479
-0.0047757598 -0.0048249997 -0.0038754349
-0.0039503197 -0.0004707317 -0.0073018479
0.00017688 0.0038835364 0.0026229348
-0.0072520799 0.001412195 -0.0037572826
-0.00453992 0.0048249997 -0.0039935871
-0.0073699998 -0.0028243901 -0.0045843478
0.0054832799 -0.0037658536 -0.0003308696
-0.0035965599 -0.0034128048 -0.0003308696
-0.0073699998 0.0022359756 -0.006592935
-0.0035965599 -0.0048249997 -0.006592935
0.0073699998 -0.0044719512 -0.0047025001
0.00713416 0.004589634 -0.0017486957
0.0035965599 -0.0048249997 -0.0068292394
0.0014739999 -0.0048249997 -0.001276087
-0.0002948 -0.0023536584 -0.0003308696
-0.0002948 0.0048249997 -0.0032846739
-0.0073699998 0.0043542683 -0.0018668479
-0.00241736 0.0038835364 0.0015595652
-0.0039503197 -0.0023536584 -0.0003308696
-0.00076647999 0.0024713413 -0.00021271742
0.0015919199 0.001529878 -0.0073018479
0.0040682401 0.0021182925 -0.00044902178
0.0041861599 0.0048249997 -0.0018668479
0.0014739999 -0.0048249997 -0.0048206523
-0.0073699998 -0.0041189021 -0.006120326
0.0039503197 0.003059756 -0.0073018479
0.0015919199 0.0041189021 -0.0003308696
0.00241736 0.0037658536 0.0017958696
0.0028890399 0.0018829268 -0.0073018479
0.0073699998 -0.00023536585 -0.006120326
0.00241736 -0.00070609752 -0.00056717393
-0.0033607199 0.0048249997 -0.0039935871
0.0056011998 0.0048249997 -0.0035209784
0.00088439998 -0.0009414634 -0.0073018479
0.0051295199 0.0011768292 -0.00056717393
-0.0035965599 0.0032951217 -0.0073018479
0.0067803999 0.0047073169 -0.0052932608
0.0056011998 -0.0027067072 -0.0073018479
-0.0046578399 -0.0048249997 -0.0032846739
-0.00017688 0.00023536585 -0.0073018479
-0.00064856 -0.0035304877 -9.456525e-05
-0.0073699998 -0.0029420732 -0.0015123914
-0.0020635999 0.00035304876 -0.0073018479
-0.0044220001 0.0048249997 -0.0049388045
-0.0070162397 -0.0047073169 -0.0043480434
0.0073699998 -0.0036481705 -0.0039935871
0.0067803999 -0.0047073169 -0.0067110872
0.0015919199 0.0048249997 -0.0011579348
0.0026531999 -0.0024713413 -0.00021271742
-0.00053064001 -0.0010591462 -0.00056717393
0.0039503197 -0.0009414634 -0.0073018479
-0.0073699998 -0.0021182925 -0.006120326
-0.00123816 0.0048249997 -0.006592935
-0.00041271999 -0.0048249997 -0.0050569568
-0.0050116 0.00058841461 -0.0073018479
0.0047757598 -0.0048249997 -0.0049388045
-0.0073699998 -0.0021182925 -0.0039935871
0.0040682401 -0.0048249997 -0.001276087
0.00241736 -0.0037658536 0.0014414131
0.00123816 0.00035304876 -0.0073018479
0.0073699998 -0.003059756 -0.0071836957
0.0059549599 -0.0048249997 -0.0067110872
0.00041271999 0.0048249997 -0.0062384782
-0.0040682401 -0.004236585 -0.00056717393
0.00076647999 0.0018829268 -0.00056717393
0.00123816 -0.0048249997 -0.0038754349
-0.0053653601 0.001412195 -0.00056717393
-0.0073699998 0.0040012193 -0.0050569568
-0.0015919199 -0.0035304877 -0.0073018479
-0.0073699998 -0.001529878 -0.0042298916
-0.0015919199 0.00035304876 -0.0073018479
-0.00076647999 0.0025890244 -0.0073018479
-0.0025352801 -0.0040012193 -0.0073018479
-0.0048936801 -0.0048249997 -0.00068532611
0.0073699998 -0.0009414634 -0.00080347829
0.00170984 0.0047073169 -0.00056717393
-0.00123816 -0.0025890244 -0.00021271742
-5.8959999e-05 -0.0048249997 -0.0052932608
-0.0066624801 0.0036481705 -0.00056717393
-0.0068983198 -0.0047073169 -0.0015123914
-0.0073699998 0.004236585 -0.0015123914
-0.0022994399 -0.0048249997 -0.006120326
-0.0070162397 0.004589634 -0.0018668479
-0.0073699998 -0.0032951217 -0.0018668479
-0.0025352801 0.0048249997 -0.0016305435
-0.0073699998 -0.0023536584 -0.0049388045
0.00583704 -0.0009414634 -0.00056717393
0.0044220001 0.001529878 -0.00056717393
0.00053064001 0.0048249997 -0.0037572826
0.00076647999 -0.0027067072 -0.0073018479
-0.00076647999 -0.0048249997 -0.0038754349
0.0067803999 -0.0047073169 -0.0049388045
-0.0073699998 0.0022359756 -0.0043480434
-0.00088439998 -0.001412195 -0.0073018479
-0.0059549599 -0.0047073169 -0.0071836957
0.0026531999 0.0037658536 0.0012051087
0.0013560799 -0.0018829268 -0.0073018479
-0.0033607199 -0.00082378043 -0.00056717393
-0.00041271999 -0.00082378043 -0.00056717393
-0.0043040798 -0.0040012193 -0.0073018479
0.00053064001 0.00082378043 -0.0073018479
-0.0043040798 0.0010591462 -0.0073018479
0.0073699998 -0.0012945122 -0.0056477175
-0.0041861599 -0.00011768292 -0.00056717393
-0.0035965599 0.0017652438 -0.0073018479
-0.0054832799 0.0004707317 -0.0073018479
-0.0056011998 -0.0012945122 -0.0073018479
-0.00194568 -0.0048249997 -0.0029302174
0.0061908001 -0.0048249997 -0.0030483697
-0.0039503197 -0.003059756 -0.00021271742
0.0065445597 0.0011768292 -0.0073018479
0.0073699998 0.00011768292 -0.0049388045
-0.00371448 0.00035304876 -0.0073018479
0.00100232 0.0048249997 -0.0032846739
-0.00241736 -0.0032951217 -0.0073018479
0.0070162397 -0.00011768292 -0.0026939132
-0.00076647999 0.0023536584 -0.00021271742
0.0028890399 -0.00070609752 -0.00056717393
-0.00123816 0.00070609752 -0.0073018479
-0.0041861599 0.0048249997 -0.0057658697
0.0056011998 0.0048249997 -0.0052932608
0.00041271999 0.001412195 -0.00056717393
0.0014739999 0.0023536584 -0.0003308696
0.0073699998 0.003059756 -0.0032846739
0.0073699998 0.0038835364 -0.0036391304
-0.00053064001 0.0037658536 -9.456525e-05
0.00300696 -0.00082378043 -0.0073018479
-0.0056011998 0.0036481705 -9.456525e-05
-0.00371448 -0.0036481705 -9.456525e-05
0.0043040798 0.0048249997 -0.0045843478
0.0073699998 0.0032951217 -0.0013942391
-0.0041861599 -0.0041189021 -0.0003308696
0.0073699998 -0.0004707317 -0.0052932608
-0.0020635999 0.0048249997 -0.0028120652
0.00241736 0.0038835364 0.0019140217
0.00053064001 0.003059756 -0.0073018479
-0.00713416 -0.004589634 -0.0030483697
0.0056011998 -0.0048249997 -0.0041117393
0.0070162397 0.0044719512 -0.0071836957
-0.0028890399 -0.0009414634 -0.00056717393
-0.0061908001 0.0020006096 -0.0073018479
-0.0060728798 0.00082378043 -0.0073018479
-0.0073699998 -0.0028243901 -0.0057658697
-0.0072520799 0.0011768292 -0.0023394565
0.0026531999 -0.0048249997 -0.0017486957
-0.0051295199 0.0037658536 0.0028592392
0.0041861599 0.0048249997 -0.0023394565
-0.00347864 0.0009414634 -0.00056717393
0.0065445597 0.001529878 -0.0073018479
-0.0073699998 -0.0024713413 -0.0021031522
0.0046578399 -0.00011768292 -0.0073018479
0.0041861599 0.0034128048 -0.0073018479
-0.00347864 0.00070609752 -0.00056717393
0.00300696 0.003059756 -9.456525e-05
-0.00194568 0.0040012193 -9.456525e-05
-0.00076647999 -0.0048249997 -0.0052932608
-0.0073699998 0.0036481705 -0.0038754349
0.0048936801 0.0018829268 -0.0073018479
0.0035965599 0.0023536584 -0.0003308696
0.00300696 -0.0048249997 -0.0062384782
0.0047757598 0.0048249997 -0.0073018479
0.0052474397 -0.0048249997 -0.0056477175
-0.0073699998 -0.0029420732 -0.0042298916
-0.0046578399 -0.0024713413 -0.0073018479
-0.0073699998 -0.0020006096 -0.0047025001
-0.0070162397 -0.0009414634 -0.0032846739
0.00713416 0.00058841461 -0.0013942391
-0.0073699998 -0.0009414634 -0.0015123914
0.00218152 -0.0048249997 -0.0039935871
-0.00064856 -0.0048249997 -0.0044661956
0.00241736 -0.0048249997 -0.0069473912
0.0073699998 -0.0031774389 -0.0010397827
-0.0070162397 -0.0035304877 -0.00044902178
-0.0072520799 0.004236585 -0.0070655434
0.0052474397 0.0047073169 -0.0073018479
0.00123816 0.0024713413 -0.0073018479
0.0020635999 -0.004236585 -0.00056717393
-0.0073699998 -0.0022359756 -0.001276087
-0.00347864 0.001529878 -0.00056717393
-0.0059549599 0.0048249997 -0.0018668479
-0.0028890399 0 -0.00056717393
-0.0073699998 -0.0027067072 -0.0060021742
-0.00100232 0.004589634 -0.00056717393
-0.0038323998 -0.0048249997 -0.0056477175
-0.0015919199 -0.0017652438 -0.00056717393
-0.00170984 0.0048249997 -0.0026939132
0.0052474397 -0.00058841461 -0.00056717393
0.0073699998 -0.0009414634 -0.0060021742
0.0035965599 0.0004707317 -0.00056717393
-0.0072520799 -0.0044719512 -0.0055295653
0.0065445597 0.0036481705 -0.00044902178
-0.0060728798 0.0048249997 -0.0035209784
-0.0028890399 0.001529878 -0.00056717393
5.8959999e-05 0.0038835364 0.00037804345
0.00453992 0.0018829268 -0.00056717393
-0.00064856 0.0048249997 -0.0016305435
0.0060728798 0.0027067072 -0.0003308696
0.00713416 -0.004589634 -0.0013942391
-0.0035965599 -0.0024713413 -0.00021271742
-0.0046578399 0.0020006096 -0.00044902178
0.0073699998 0.0012945122 -0.0010397827
0.00347864 0.004236585 -0.00056717393
-0.00347864 -0.0048249997 -0.0041117393
-0.0048936801 0.0032951217 -0.00021271742
0.0064266399 0.0047073169 -0.0057658697
0.0028890399 0.0021182925 -0.0003308696
-0.0041861599 0.0011768292 -0.0073018479
0.0065445597 -0.0043542683 -0.0071836957
-0.00241736 0.0048249997 -0.0071836957
-0.00713416 0.0004707317 -0.0030483697
0.00041271999 -0.0032951217 -0.0073018479
0.0072520799 -0.004589634 -0.0052932608
-0.0032428 0.0018829268 -0.0073018479
0.0054832799 0.0018829268 -0.00056717393
0.00218152 0.0032951217 -0.00021271742
0.0067803999 -0.0047073169 -0.0064747827
0.0059549599 -0.0029420732 -0.00021271742
-0.0068983198 -0.0024713413 -0.0003308696
0.0033607199 -0.0048249997 -0.0028120652
0.0068983198 0.0047073169 -0.0049388045
-0.00300696 -0.0022359756 -0.0003308696
0.0073699998 -0.00058841461 -0.0064747827
0.0066624801 -0.00023536585 -0.0073018479
0.0027711201 -0.0048249997 -0.0013942391
-0.00583704 -0.00023536585 -0.00056717393
-0.0073699998 0.00070609752 -0.006592935
0.0002948 0 -0.00056717393
0.0073699998 -0.0024713413 -0.0057658697
-0.0040682401 -0.0048249997 -0.0011579348
-0.0073699998 0.0016475609 -0.0064747827
-0.0056011998 -0.0018829268 -0.00056717393
0.0031248799 -0.0024713413 -0.0073018479
0.0072520799 -0.004589634 -0.0041117393
-0.00347864 0.00023536585 -0.0073018479
0.0026531999 -0.0037658536 0.0015595652
-0.00300696 -0.0048249997 -0.0016305435
0.0033607199 -0.0048249997 -0.0064747827
0.0073699998 -0.0025890244 -0.00092163048
0.0066624801 0.0047073169 -0.0047025001
0.0035965599 0.0004707317 -0.0073018479
0.00300696 0.0038835364 -9.456525e-05
-0.0048936801 -0.001412195 -0.00056717393
-0.0027711201 -0.0011768292 -0.00056717393
-0.0073699998 0.0022359756 -0.0021031522
0.00041271999 0.0048249997 -0.0017486957
-0.0054832799 0.0048249997 -0.0039935871
-0.0073699998 0.0023536584 -0.0052932608
0.0028890399 -0.0048249997 -0.0032846739
0.0052474397 0.00070609752 -0.0073018479
-0.0035965599 0.0004707317 -0.00056717393
-0.0064266399 -0.0047073169 -0.001276087
0.0066624801 0.0038835364 -0.0071836957
0.00583704 -0.0044719512 -0.0070655434
-0.0035965599 -0.0028243901 -0.0073018479
-0.00300696 -0.0028243901 -0.0073018479
0.00170984 0.0038835364 -9.456525e-05
-0.00713416 0.0022359756 -0.0071836957
-0.0073699998 -0.0004707317 -0.0068292394
-5.8959999e-05 0.00058841461 -0.0073018479
-0.0047757598 -0.0040012193 -0.0003308696
-0.00017688 0.0037658536 0.0030955435
0.00076647999 -0.0048249997 -0.0038754349
0.0059549599 -0.001412195 -0.0073018479
0.0072520799 0.0043542683 -0.0055295653
-0.0073699998 0.00058841461 -0.00080347829
-0.0072520799 0.004589634 -0.0055295653
0.0022994399 -0.0032951217 -0.0073018479
-5.8959999e-05 0.0048249997 -0.0031665219
0.00076647999 0.0017652438 -0.0073018479
0.0073699998 -0.00058841461 -0.006120326
-0.0044220001 0.0022359756 -0.0003308696
0.0038323998 -0.0037658536 -0.0003308696
-0.00182776 -0.0048249997 -0.0015123914
-0.0073699998 0.0027067072 -0.0052932608
-0.00041271999 -0.0048249997 -0.0068292394
-0.0026531999 0.0038835364 0.0013232608
-0.0014739999 0.0048249997 -0.0029302174
0.0065445597 -0.0028243901 -0.0071836957
0.0050116 -0.0048249997 -0.0024576087
0.00053064001 0.0048249997 -0.0025757609
-0.00300696 -0.0048249997 -0.0042298916
-0.0051295199 -0.0037658536 -0.0073018479
-0.0072520799 -0.0044719512 -0.0010397827
0.00218152 -0.0023536584 -0.0003308696
-0.00041271999 -0.0043542683 -0.00056717393
-0.00453992 -0.00011768292 -0.0073018479
-0.0054832799 0.0048249997 -0.0071836957
-0.0015919199 -0.0048249997 -0.0050569568
-0.0067803999 0.00070609752 -0.0071836957
-0.0048936801 -0.0027067072 -0.00021271742
-0.0072520799 -0.001529878 -0.0071836957
-0.0050116 0.0040012193 -0.0071836957
-0.0067803999 0.0035304877 -0.0071836957
0.00053064001 0.0048249997 -0.0026939132
-0.00041271999 -0.0048249997 -0.0060021742
0.0026531999 0.0048249997 -0.005884022
0.00123816 -0.0035304877 -9.456525e-05
0.00713416 -0.0004707317 -0.0013942391
0.0051295199 -0.0038835364 0.0023866305
0.0073699998 0.0027067072 -0.00068532611
-0.0048936801 0.00058841461 -0.0073018479
-0.00112024 0.0036481705 -9.456525e-05
-0.00218152 0.0031774389 -0.0073018479
-0.0050116 0.00082378043 -0.00056717393
-0.0064266399 0 -0.0073018479
-0.0059549599 -0.0048249997 -0.0016305435
-0.00713416 -0.00035304876 -0.005411413
-0.0057191201 -0.0044719512 -0.0073018479
0.0053653601 0.0029420732 -0.0073018479
0.0052474397 -0.0038835364 0.00061434781
-0.0073699998 -0.0037658536 -0.0025757609
-0.0013560799 0.0029420732 -9.456525e-05
-0.0015919199 -0.0048249997 -0.0044661956
0.0073699998 -0.0016475609 -0.0034028261
-0.00170984 0.0048249997 -0.0060021742
-0.0061908001 -0.0021182925 -0.00056717393
-0.00053064001 -0.0041189021 -0.0071836957
-0.0060728798 -0.0048249997 -0.0043480434
0.0038323998 0.0048249997 -0.0021031522
0.0048936801 0.0041189021 -0.0073018479
0.00182776 0.00011768292 -0.00056717393
0.00076647999 -0.003059756 -9.456525e-05
-0.0073699998 0.0021182925 -0.006120326
0.0026531999 0.0040012193 0.00073249999
0.0032428 0.001412195 -0.0073018479
0.0056011998 0.0048249997 -0.0047025001
-0.0073699998 0.0044719512 -0.0028120652
-0.00371448 0.003059756 -0.0071836957
0.0073699998 0.0032951217 -0.00068532611
-0.00041271999 0.0032951217 -0.0003308696
0.0068983198 0.00070609752 -0.00056717393
-0.0051295199 0.0048249997 -0.0023394565
-5.8959999e-05 -0.0048249997 -0.006592935
0.0040682401 -0.0025890244 -0.0073018479
0.0014739999 0.0048249997 -0.005411413
-0.00583704 0.0040012193 -0.00068532611
-0.0073699998 -0.0029420732 -0.005884022
-0.00713416 0.0009414634 -0.0036391304
-0.00583704 0.0048249997 -0.0016305435
0.00583704 0.0048249997 -0.0045843478
-0.0053653601 0.0048249997 -0.0022213045
0.0052474397 0.0038835364 0.00096880435
-0.0066624801 0.0047073169 -0.0038754349
0.0073699998 0.0036481705 -0.0041117393
0.0070162397 0.0047073169 -0.0038754349
-0.0070162397 0.0010591462 -0.0071836957
-0.0020635999 -0.0012945122 -0.00056717393
-0.0051295199 -0.00082378043 -0.00056717393
5.8959999e-05 0.001529878 -0.00056717393
0.0072520799 0.0043542683 -0.00080347829
-0.0032428 -0.0048249997 -0.005884022
0.0060728798 -0.0048249997 -0.0037572826
0.0073699998 -0.003059756 -0.0064747827
-0.0073699998 -0.00058841461 -0.00092163048
0.0040682401 -0.0048249997 -0.006592935
0.00053064001 -0.0017652438 -0.00056717393
0.00371448 -0.0048249997 -0.00068532611
0.00112024 0.0028243901 -0.0073018479
-0.00583704 -0.0028243901 -0.0073018479
0.0051295199 0.0048249997 -0.0045843478
0.0052474397 -0.0037658536 0.0025047825
0.00194568 0.0048249997 -0.0023394565
0.00088439998 -0.0048249997 -0.0034028261
-0.0026531999 0.0035304877 -0.00021271742
0.0054832799 -0.0043542683 -0.00068532611
0.00218152 -0.001412195 -0.00056717393
0.0040682401 0.0012945122 -0.0073018479
-0.0041861599 0.0048249997 -0.0067110872
-0.00583704 0.0037658536 -0.0071836957
-0.0051295199 -0.0048249997 -0.0011579348
-0.00170984 -0.001412195 -0.0073018479
-0.0020635999 0.0040012193 -9.456525e-05
0.0061908001 -0.001529878 -0.0073018479
-0.0073699998 -0.00070609752 -0.0063566305
-0.0031248799 0.0024713413 -0.0073018479
0.00041271999 0.0048249997 -0.0032846739
0.0054832799 -0.0024713413 -0.00021271742
-0.0065445597 -0.0047073169 -0.0056477175
0.0060728798 -0.0024713413 -0.00021271742
-0.0026531999 0.0016475609 -0.00056717393
-0.0053653601 0.003059756 -0.0073018479
0.0073699998 -0.0010591462 -0.00092163048
-0.0013560799 -0.0018829268 -0.0073018479
-0.0050116 -0.0009414634 -0.0073018479
-0.0070162397 -0.00058841461 -0.0036391304
0.0031248799 0 -0.00056717393
0.0073699998 0.0021182925 -0.0015123914
0.00453992 -0.0022359756 -0.0003308696
-0.0032428 -0.0048249997 -0.0029302174
0.00713416 0.0031774389 -0.0071836957
0.0028890399 -0.004236585 -0.00056717393
0.00123816 -0.0048249997 -0.0049388045
-0.0002948 0.001412195 -0.0073018479
0.0073699998 0.0027067072 -0.0031665219
-0.0050116 -0.0038835364 0.0032136957
-0.0073699998 0 -0.0062384782
0.0070162397 -0.00011768292 -0.0071836957
0.0073699998 -0.0037658536 -0.0034028261
0.0038323998 -0.0048249997 -0.0038754349
-0.00076647999 0.0041189021 -0.00044902178
0.00218152 -0.0048249997 -0.0041117393
-0.0002948 -0.0048249997 -0.0051751086
0.0015919199 0.0016475609 -0.00056717393
0.0051295199 -0.001412195 -0.00056717393
0.0047757598 -0.0031774389 -0.0071836957
-0.0020635999 -0.0031774389 -0.0073018479
0.0073699998 -0.0038835364 -0.0051751086
0.0038323998 -0.0032951217 -0.0003308696
-0.0060728798 0.0043542683 -0.0071836957
0.00347864 -0.0048249997 -0.0028120652
-0.00371448 0.003059756 -0.00021271742
-0.0072520799 -0.0043542683 -0.0013942391
0.0070162397 -0.00011768292 -0.0018668479
0.0014739999 -0.0021182925 -0.0073018479
-0.00713416 0.004589634 -0.0070655434
-0.0044220001 -0.0048249997 -0.0044661956
-0.0070162397 -0.0024713413 -0.0071836957
0.0050116 0.0038835364 -0.0073018479
-0.0040682401 0.0036481705 -0.0071836957
0.0073699998 0.001529878 -0.005884022
0.0048936801 0.0021182925 -0.0003308696
-0.0043040798 0.0048249997 -0.006592935
0.0020635999 0.0048249997 -0.0032846739
-0.00300696 -0.0020006096 -0.00056717393
-0.0061908001 -0.0029420732 -0.00021271742
0.00112024 -0.0048249997 -0.0026939132
5.8959999e-05 -0.0020006096 -0.00056717393
-0.0050116 -0.0048249997 -0.0030483697
-0.0060728798 -0.001412195 -0.0073018479
-0.00088439998 -0.0012945122 -0.0073018479
0.0073699998 0.003059756 -0.0039935871
-0.0002948 -0.0028243901 -0.0073018479
-0.0052474397 -0.0048249997 -0.0051751086
0.0057191201 -0.0048249997 -0.0035209784
-0.00112024 -0.0027067072 -0.0073018479
0.0025352801 0.0037658536 0.0023866305
-0.00064856 0.0021182925 -0.0003308696
-0.0060728798 -0.0044719512 -0.00056717393
0.0072520799 -0.004589634 -0.0067110872
0.0039503197 0.0048249997 -0.0031665219
-0.0073699998 0.001529878 -0.0056477175
-5.8959999e-05 -0.0037658536 0.00049619563
-0.0073699998 -0.0020006096 -0.0031665219
0.0050116 0 -0.00056717393
0.00053064001 0.0034128048 -0.00044902178
0.0047757598 -0.0048249997 -0.0038754349
0.0053653601 -0.0010591462 -0.00056717393
-0.00583704 -0.004589634 -0.00056717393
-0.00713416 -0.00035304876 -0.0057658697
-0.0051295199 0.0031774389 -0.00021271742
-0.00041271999 -0.0048249997 -0.00092163048
-0.0072520799 -0.00011768292 -0.0071836957
0.00053064001 0.0048249997 -0.0018668479
-0.0068983198 0.0047073169 -0.0051751086
0.0013560799 -0.0040012193 -0.0071836957
-0.0002948 0.001529878 -0.0073018479
0.00100232 -0.003059756 -0.0073018479
-0.00100232 -0.0048249997 -0.0022213045
-0.0067803999 0.0036481705 -0.00056717393
0.0072520799 -0.004236585 -0.00068532611
0.0002948 0.0037658536 -9.456525e-05
-0.0051295199 -0.0038835364 0.0016777174
0.00347864 0.0022359756 -0.0003308696
-0.0043040798 -0.0048249997 -0.0017486957
0.0072520799 0.0043542683 -0.005884022
-0.0048936801 -0.0038835364 0.0016777174
0.0047757598 -0.0048249997 -0.0021031522
-0.00347864 0.0032951217 -0.00021271742
-0.0061908001 -0.0048249997 -0.0032846739
0.0039503197 0.0037658536 -9.456525e-05
0.00053064001 0.0021182925 -0.0003308696
-0.0047757598 0.0043542683 -0.0071836957
-0.0070162397 -0.0009414634 -0.005411413
0.00241736 0.0048249997 -0.0063566305
-0.0033607199 -0.0048249997 -0.0049388045
0.0002948 0.0010591462 -0.00056717393
0.0048936801 -0.0048249997 -0.0057658697
-0.0035965599 -0.0048249997 -0.0028120652
-0.0046578399 -0.00058841461 -0.00056717393
0.00371448 -0.0036481705 -0.00021271742
0.0059549599 -0.0011768292 -0.00056717393
-0.0065445597 -0.0011768292 -0.0073018479
0.0013560799 -0.0025890244 -0.0073018479
-0.0070162397 -0.00035304876 -0.0044661956
-0.00182776 0.00058841461 -0.0073018479
0.0072520799 -0.004589634 -0.0026939132
-0.00194568 -0.0048249997 -0.00092163048
-0.00123816 0.0048249997 -0.0034028261
-0.0048936801 -0.0048249997 -0.0032846739
-0.0064266399 0.0011768292 -0.00056717393
0.0067803999 -0.0010591462 -0.00056717393
-0.0073699998 0.0035304877 -0.0025757609
0.0056011998 0.0032951217 -0.0073018479
-0.0065445597 -0.0038835364 -0.0071836957
-0.00630872 0.0047073169 -0.0070655434
-0.00347864 0.0048249997 -0.0044661956
0.00112024 -0.0044719512 -0.0071836957
-0.0073699998 0.0027067072 -0.0057658697
0.0053653601 0.0022359756 -0.0003308696
0.00583704 0.0048249997 -0.00068532611
0.00453992 -0.0028243901 -9.456525e-05
-0.0053653601 0.0048249997 -0.0010397827
-0.0072520799 0.001529878 -0.00056717393
-0.0070162397 -0.00011768292 -0.0045843478
0.0073699998 0.0024713413 -0.0062384782
-0.0056011998 0.0048249997 -0.0034028261
0.0053653601 -0.0041189021 -0.0071836957
-0.00347864 0.0020006096 -0.0073018479
-0.0053653601 0.0048249997 -0.0044661956
-0.00713416 -0.0010591462 -0.0055295653
-0.00347864 -0.0048249997 -0.0071836957
-0.0073699998 -0.00058841461 -0.0010397827
-0.0015919199 0.0011768292 -0.00056717393
-0.00194568 -0.0020006096 -0.00056717393
-0.0033607199 0.0047073169 -0.0071836957
-0.0047757598 0.0048249997 -0.0068292394
0.0060728798 -0.00035304876 -0.00056717393
-0.0002948 0.0020006096 -0.0073018479
0.00100232 -0.001529878 -0.0073018479
-0.00088439998 -0.0027067072 -0.0073018479
-0.0067803999 -0.0047073169 -0.00092163048
-0.00630872 -0.0047073169 -0.0026939132
-0.0033607199 0.0020006096 -0.00044902178
-0.0070162397 0.00011768292 -0.0021031522
0.0073699998 0 -0.0034028261
0.0026531999 0.0048249997 -0.0015123914
0.0073699998 -0.0016475609 -0.006120326
0.0015919199 0.0041189021 -0.00021271742
-0.00300696 0.0038835364 -0.0071836957
-0.0043040798 -0.0048249997 -0.0016305435
0.0073699998 0.0022359756 -0.0045843478
0.0035965599 -0.0048249997 -0.0030483697
0.0073699998 -0.0023536584 -0.0013942391
-5.8959999e-05 -0.00023536585 -0.00056717393
-0.0027711201 0.0021182925 -0.0073018479
0.0059549599 -0.0048249997 -0.00068532611
0.0073699998 -0.0032951217 -0.0056477175
-0.0060728798 0.0048249997 -0.0037572826
-0.0038323998 0.0048249997 -0.0023394565
0.0013560799 0.0048249997 -0.0026939132
0.00347864 0.0032951217 -9.456525e-05
0.00347864 0.0048249997 -0.0047025001
5.8959999e-05 -0.0048249997 -0.0039935871
0.0050116 -0.0025890244 -0.0073018479
0.0070162397 0.00035304876 -0.0022213045
-0.0073699998 0.0010591462 -0.0017486957
-0.00170984 0.00011768292 -0.0073018479
0.0032428 0.0027067072 -0.0073018479
0.00112024 0.0048249997 -0.0044661956
5.8959999e-05 -0.0038835364 0.0028592392
0.0073699998 0.0012945122 -0.0044661956
0.0031248799 0.004236585 -0.00044902178
-0.0002948 0.0048249997 -0.0024576087
-0.0033607199 -0.0004707317 -0.0073018479
0.0061908001 0.0048249997 -0.0047025001
0.00300696 -0.0022359756 -0.0073018479
0.0073699998 0.0021182925 -0.0032846739
0.00218152 0.0037658536 -0.0073018479
0.0070162397 -0.004589634 -0.0010397827
0.0073699998 -0.0010591462 -0.006120326
0.0073699998 0.00082378043 -0.0051751086
-0.0027711201 -0.0036481705 -9.456525e-05
-0.00053064001 0.0031774389 -0.00021271742
0.0073699998 -0.00011768292 -0.0034028261
-0.0051295199 -0.0048249997 -0.0071836957
0.0064266399 0.0047073169 -0.00068532611
-0.00112024 -0.0038835364 -0.0073018479
0.0061908001 -0.0048249997 -0.0063566305
-0.0053653601 0.00023536585 -0.00056717393
-0.0026531999 -0.0048249997 -0.0060021742
0.00017688 0.0035304877 -0.0003308696
-0.0056011998 0.0048249997 -0.0042298916
0.00170984 -0.0048249997 -0.0028120652
-0.00194568 -0.0022359756 -0.0073018479
-0.00194568 -0.0048249997 -0.0070655434
0.0039503197 -0.0031774389 -0.00021271742
-0.0073699998 0.0034128048 -0.0051751086
0.0025352801 0.0040012193 0.0012051087
-0.0002948 0.0048249997 -0.0050569568
0.00713416 -0.00058841461 -0.0016305435
0.00112024 0.0022359756 -0.0003308696
-0.00170984 -0.0048249997 -0.0051751086
0.0022994399 0.0036481705 -0.00021271742
0.0026531999 -0.0037658536 0.0019140217
-0.0068983198 -0.0047073169 -0.0043480434
-0.0020635999 0.0032951217 -0.0073018479
0.00300696 -0.0037658536 -0.0071836957
0.00017688 -0.0048249997 -0.0070655434
0.00017688 0.00070609752 -0.0073018479
0.0043040798 0.0048249997 -0.0042298916
0.0002948 -0.0048249997 -0.0032846739
0.0014739999 0.00070609752 -0.00056717393
0.0050116 0.0048249997 -0.0042298916
-0.00182776 0.0048249997 -0.0011579348
-0.00218152 -0.0048249997 -0.0011579348
0.0035965599 0.00070609752 -0.00056717393
-0.00583704 -0.0048249997 -0.0023394565
0.0048936801 0.0022359756 -0.0003308696
0.0041861599 -0.0021182925 -0.00044902178
0.00630872 0.00035304876 -0.0073018479
-0.0072520799 -0.001529878 -0.00056717393
-0.0052474397 0.0040012193 -0.00056717393
0.0013560799 0.0048249997 -0.0055295653
-0.00170984 0.0048249997 -0.0037572826
0.0057191201 -0.0048249997 -0.0011579348
-0.00170984 0.0035304877 -9.456525e-05
0.0059549599 -0.0048249997 -0.005411413
0.0057191201 0.0020006096 -0.00056717393
-0.0073699998 0.0038835364 -0.0032846739
-0.0072520799 0.001412195 -0.0038754349
0.00218152 0.00035304876 -0.0073018479
0.0022994399 0.0048249997 -0.006592935
0.0046578399 0.0048249997 -0.0034028261
0.0053653601 0.0048249997 -0.00080347829
0.0073699998 0.0036481705 -0.0050569568
0.00112024 -0.0024713413 -0.00021271742
-0.00182776 -0.0009414634 -0.00056717393
0.00630872 -0.0009414634 -0.0073018479
-0.00017688 -0.0047073169 -0.0071836957
-0.0073699998 0.0035304877 -0.0067110872
0.0031248799 0.0044719512 -0.00056717393
-0.0015919199 -0.0048249997 -0.0069473912
0.0035965599 -0.0048249997 -0.0029302174
-0.00713416 -0.0010591462 -0.0048206523
0.0015919199 0.0025890244 -0.0003308696
0.00182776 0.0035304877 -0.0003308696
0.0046578399 0.00070609752 -0.00056717393
-0.00630872 -0.0047073169 -0.0068292394
0.0032428 0.0034128048 -0.0073018479
-0.00713416 0.0009414634 -0.0021031522
0.00218152 0.00035304876 -0.00056717393
0.0065445597 -0.00070609752 -0.0073018479
-0.0051295199 -0.001412195 -0.00056717393
0.00194568 0.0020006096 -0.0073018479
-0.00100232 -0.0011768292 -0.00056717393
-0.0073699998 -0.0020006096 -0.0057658697
0.0073699998 0.0016475609 -0.0036391304
0.00453992 0.0044719512 -0.0073018479
0.0040682401 0.0036481705 -0.0073018479
0.0041861599 0.0027067072 -0.0003308696
0.00713416 -0.00023536585 -0.0024576087
0.0072520799 -0.004589634 -0.0069473912
-0.0059549599 0.00082378043 -0.0073018479
0.00064856 -0.0048249997 -0.0035209784
-0.0035965599 0.0021182925 -0.0073018479
-0.00053064001 -0.0048249997 -0.0038754349
0.0072520799 -0.001412195 -0.0016305435
0.0073699998 -0.0035304877 -0.0013942391
-0.00076647999 0.00058841461 -0.00056717393
-0.0038323998 0.00023536585 -0.00056717393
0.0031248799 0.0044719512 -0.0073018479
0.0073699998 -0.0018829268 -0.0023394565
-0.0073699998 0.0011768292 -0.0069473912
-0.0032428 -0.0023536584 -0.0073018479
-0.0066624801 -0.0027067072 -0.00021271742
-0.00182776 -0.0040012193 -0.0073018479
-0.0002948 -0.0048249997 -0.0041117393
-0.0002948 0.0048249997 -0.0018668479
-0.0053653601 -0.003059756 -0.0003308696
0.0015919199 0.0048249997 -0.0063566305
0.0073699998 0.001412195 -0.0034028261
0.0044220001 -0.0031774389 -0.0073018479
-0.00713416 -0.00035304876 -0.0018668479
0.0002948 -0.001412195 -0.0073018479
-0.0040682401 -0.0010591462 -0.0073018479
-0.00241736 -0.0038835364 0.0015595652
-0.0027711201 0.0037658536 0.0010869565
-0.0073699998 0.001412195 -0.0068292394
-0.00112024 0.0048249997 -0.0045843478
0.0043040798 0.0048249997 -0.0039935871
0.0070162397 0.0021182925 -0.00056717393
-0.0073699998 0.0020006096 -0.0011579348
0.00371448 -0.0048249997 -0.0042298916
-0.0065445597 -0.0012945122 -0.0073018479
0.0020635999 -0.0048249997 -0.001276087
0.0066624801 -0.001412195 -0.0071836957
-0.0054832799 0.0027067072 -9.456525e-05
-0.00300696 0.0029420732 -0.0073018479
-5.8959999e-05 -0.0048249997 -0.005884022
0.0041861599 -0.0020006096 -0.00056717393
0.0040682401 0.0047073169 -0.00068532611
-0.0073699998 0.0038835364 -0.0051751086
-0.00100232 0.0028243901 -9.456525e-05
-0.0072520799 0.004589634 -0.00080347829
0.0073699998 -0.0022359756 -0.0068292394
0.00241736 0.0034128048 -0.0003308696
-0.0068983198 -0.0047073169 -0.0045843478
0.0002948 0.0040012193 -0.0071836957
-0.0067803999 0.00058841461 -0.0071836957
-0.0064266399 0.0047073169 -0.0011579348
0.0073699998 -0.0010591462 -0.005411413
0.0044220001 -0.0020006096 -0.00056717393
0.00371448 -0.00082378043 -0.00056717393
-0.00076647999 0.0048249997 -0.00068532611
-0.00194568 -0.0018829268 -0.00056717393
-0.0027711201 0.0041189021 -9.456525e-05
-0.0060728798 0.0048249997 -0.0013942391
0.0025352801 0.0021182925 -0.0073018479
0.0067803999 -0.0047073169 -0.0043480434
0.0060728798 0.0017652438 -0.00056717393
-0.0061908001 -0.0048249997 -0.0013942391
0.0015919199 0.0048249997 -0.0036391304
-0.00347864 0.0048249997 -0.0018668479
-0.0073699998 0.0036481705 -0.0013942391
0.0028890399 0.0048249997 -0.0069473912
-0.0050116 0.003059756 -0.00021271742
0.0053653601 0.004589634 -0.0073018479
0.00017688 0.0048249997 -0.0069473912
-0.0014739999 -0.00070609752 -0.00056717393
-0.0026531999 -0.0012945122 -0.00056717393
0.00713416 -0.004589634 -0.001276087
0.0028890399 -0.004589634 -0.00068532611
-0.0039503197 -0.0021182925 -0.00044902178
-0.00112024 -0.0043542683 -0.0071836957
0.0073699998 -0.004236585 -0.0028120652
-0.0048936801 -0.0038835364 0.0030955435
0.0073699998 0.0028243901 -0.0067110872
0.0073699998 -0.0017652438 -0.0045843478
-0.00064856 -0.0020006096 -0.00056717393
0.0041861599 -0.0048249997 -0.0013942391
-0.0028890399 0.0034128048 -0.0003308696
-0.0070162397 -0.0009414634 -0.0037572826
-0.0027711201 0.0048249997 -0.0051751086
-0.0059549599 -0.0036481705 -0.0073018479
0.0043040798 -0.0024713413 -0.0073018479
-0.0068983198 -0.0037658536 -0.00056717393
0.0053653601 0.0027067072 -0.0003308696
-0.0073699998 0.001412195 -0.0057658697
0.0057191201 0.00011768292 -0.00056717393
-0.00371448 -0.0012945122 -0.0073018479
-0.0025352801 -0.0025890244 -0.0073018479
-0.0066624801 -0.0010591462 -0.0073018479
0.0051295199 -0.0048249997 -0.0023394565
0.0073699998 -0.001529878 -0.005411413
0.0040682401 0.0048249997 -0.0025757609
-0.0056011998 -0.00035304876 -0.0073018479
-0.0039503197 0.0048249997 -0.00092163048
-0.0044220001 -0.0021182925 -0.0073018479
0.0064266399 -0.00082378043 -0.00056717393
-0.00017688 -0.0048249997 -0.0063566305
