# .PCD v0.7 - Point Cloud Data file format
VERSION 0.7
FIELDS x y z
SIZE 4 4 4
TYPE F F F
COUNT 1 1 1
WIDTH 1197
HEIGHT 1
VIEWPOINT 0 0 0 1 0 0 0
POINTS 1197
DATA ascii
0.0015771429 -0.00049234694 -0.0066311653
0.0035485714 0.0032494897 -0.00050339807
0.0020699999 -0.0048249997 -0.0034684467
-0.00483 -0.0011816326 -0.00089873787
0.00059142854 0.0048249997 -0.0034684467
0.00483 -0.00039387753 -0.0061369902
0.00483 -0.00088622444 -0.0061369902
0.00483 -0.00019693877 -0.0018870874
0.0016757143 0.0015755101 -0.00040456312
-0.0010842857 0.0015755101 -0.00040456312
0.00483 -0.00039387753 -0.0010964078
-0.0024642856 0.00088622444 -0.00050339807
-0.0021685713 0.00029540816 -0.00050339807
0.0031542857 0.0024617347 -0.00020689321
-0.0043371427 -0.0045295916 -0.00060223299
0.0027599998 0.0027571428 -0.00020689321
-0.0035485714 -0.0033479591 -0.00050339807
-0.00483 0.0038403061 -0.004160291
-0.0041399999 0.00059081631 -0.00050339807
0.0022671428 0.0048249997 -0.0022824272
-0.00483 0.0021663264 -0.0055439807
-0.00483 0.0044311224 -0.0027766021
-0.0045342855 0.0039387755 -0.0065323301
-0.00483 -0.00029540816 -0.0035672816
0.0023657142 -0.0048249997 -0.0052474756
-0.0032528571 0.0048249997 -0.0034684467
-0.0011828571 0.0048249997 -0.0037649514
0.0027599998 0.0028556122 -0.0065323301
0.00059142854 0.0048249997 -0.00099757279
0.0023657142 -9.8469383e-05 -0.0066311653
-0.0010842857 0.0048249997 -0.0060381554
-0.0018728571 0.0048249997 -0.0047533009
0.00483 0.0031510203 -0.0054451455
0.00049285713 -0.0024617347 -0.00020689321
0.00483 -0.0011816326 -0.0026777671
0.0023657142 0.0037418366 0.0007814563
0.0015771429 0.0037418366 -0.0066311653
0.0038442856 -0.0043326528 -0.0065323301
-0.0016757143 -0.0048249997 -0.0020847572
-0.00483 0.0033479591 -0.0012940777
0.0019714285 0.0048249997 -0.0028754368
0.00098571426 -0.00078775507 -0.00050339807
-0.00483 -0.00029540816 -0.0060381554
-0.0016757143 0.00019693877 -0.0066311653
-0.00049285713 -0.0031510203 -0.00050339807
0.0027599998 0.0038403061 0.0021651457
0.0011828571 -0.0037418366 -0.00010805825
0.0035485714 -0.0048249997 -0.0040614563
-0.00483 0.0012801019 -0.00079990289
0.00483 -0.002067857 -0.00030572814
-0.00059142854 0.0045295916 -0.0065323301
-0.0012814285 0.0037418366 -0.0065323301
0.00483 -0.0017724489 -0.00079990289
-0.00483 -0.00068928569 -0.0021835922
0.0018728571 0.0048249997 -0.0063346601
0.0031542857 0.0027571428 -0.00020689321
-0.00039428571 -0.0018709183 -0.0066311653
-0.00483 -0.002067857 -0.0040614563
-0.0026614284 0.0048249997 -0.0049509709
-0.00039428571 -0.0048249997 -0.0062358254
0.00019714286 0.0036433672 -0.00020689321
-0.0032528571 0.0034464283 -0.0065323301
0.0015771429 0.0048249997 -0.0040614563
-0.0020699999 -0.0019693878 -0.0066311653
0.00088714284 -0.0048249997 -0.0060381554
0.00029571427 -0.0022647958 -0.00020689321
-0.00049285713 0.00049234694 -0.00050339807
-0.00483 0.00059081631 -0.0056428155
0.0024642856 0.0045295916 -0.0065323301
-0.0024642856 0.0039387755 0.0025604854
-0.00483 -0.0016739796 -0.0020847572
-0.0046328572 -0.0039387755 -0.0065323301
0.0027599998 0.0019693878 -0.0066311653
0 -0.0022647958 -0.0066311653
0.00078857143 -0.0048249997 -0.0017882524
0.0017742857 0.0043326528 -0.00060223299
-0.0021685713 -0.0031510203 -0.0066311653
0.0013799999 -0.0048249997 -0.0062358254
0.0027599998 0.0048249997 -0.004357961
0.0047314283 0.00078775507 -0.00050339807
0.0011828571 0.0014770407 -0.00050339807
-0.0031542857 0.0048249997 -0.0058404854
-0.0028585715 0.0048249997 -0.00089873787
0.0045342855 0.0027571428 -0.00020689321
0.0037457142 0.0048249997 -0.0015905825
0.00483 -0.0015755101 -0.00040456312
-0.00483 -0.00068928569 -0.0036661164
0.0029571429 0.00049234694 -0.00050339807
-0.0029571429 0.0015755101 -0.00040456312
0.0018728571 -0.0048249997 -0.0040614563
0.0038442856 -0.0015755101 -0.0065323301
0.0045342855 0.0047265305 -0.0013929126
0.0046328572 0.0046280609 -0.00060223299
-0.0024642856 -0.0036433672 -0.00020689321
-0.0040414287 -0.00098469388 -0.00050339807
-0.0024642856 -0.0034464283 -0.0066311653
-0.00019714286 0.0037418366 0.0031534953
0.0044357143 0.0048249997 -0.0065323301
0.00483 -0.0017724489 -0.0039626216
0.00483 0.0042341836 -0.0027766021
-0.0037457142 0.0048249997 -0.0047533009
-0.00483 -0.0012801019 -0.0011952427
0.0037457142 0.0018709183 -0.00040456312
-0.00483 0.0018709183 -0.0012940777
-0.0023657142 0.00039387753 -0.00050339807
-0.00483 -0.0030525508 -0.0058404854
-0.0023657142 -0.0048249997 -0.0018870874
-0.00098571426 -0.0040372447 -0.00020689321
0.0033514285 -0.0048249997 -0.0039626216
0.00483 0.0043326528 -0.0058404854
-0.00345 0.0030525508 -0.00040456312
9.8571429e-05 -0.0015755101 -0.0066311653
-0.003942857 0.0048249997 -0.00079990289
0.0032528571 0.0029540814 -0.0065323301
0.0023657142 0.0035448978 -0.00050339807
-0.00483 -0.00049234694 -0.0036661164
0.0032528571 0.0023632653 -0.00020689321
-0.0026614284 -0.0039387755 -0.00010805825
0.00483 -0.0040372447 -0.0049509709
-0.0012814285 -0.0048249997 -0.0056428155
-0.00049285713 -0.00088622444 -0.00050339807
0.0010842857 -0.0048249997 -0.0063346601
0.0044357143 -0.0047265305 -0.0014917476
9.8571429e-05 -0.0036433672 -0.0065323301
0.0010842857 0.0048249997 -0.0035672816
0.0015771429 0.0032494897 -0.00050339807
0.0029571429 0.0048249997 -0.0050498056
0.00483 0.0011816326 -0.0064334953
0.0021685713 -0.0036433672 -0.0065323301
0.0046328572 0.0014770407 -0.00050339807
0.0016757143 0.0036433672 -0.00040456312
0.0024642856 -0.0048249997 -0.0017882524
0.00483 0.0030525508 -0.0035672816
-0.0038442856 0.0031510203 -0.0065323301
0.00068999996 0.0048249997 -0.0040614563
-0.0024642856 0.0048249997 -0.0030731068
-0.0016757143 -0.0048249997 -0.00079990289
0.0037457142 0.0048249997 -0.0014917476
0.00483 0.0015755101 -0.0010964078
0.00483 -0.00049234694 -0.00070106797
0.00078857143 -0.0022647958 -0.00020689321
-0.0033514285 -0.0048249997 -0.0017882524
0.0046328572 -0.0046280609 -0.0034684467
0.00345 -9.8469383e-05 -0.0065323301
0.0032528571 0.0048249997 -0.0015905825
0.0022671428 -0.0043326528 -0.0065323301
-0.0019714285 -0.0014770407 -0.00050339807
-0.00078857143 0.0031510203 -0.00050339807
0.00483 -0.0031510203 -0.0064334953
-0.0031542857 -0.00049234694 -0.00050339807
-0.00483 0.0044311224 -0.0019859222
0.0037457142 0.0021663264 -0.00020689321
-0.00483 0.00078775507 -0.00060223299
-0.00019714286 -0.0048249997 -0.0027766021
-0.0036471428 -0.0031510203 -0.0065323301
-0.0017742857 -0.0022647958 -0.00020689321
0.0044357143 -0.0031510203 -0.0065323301
0.00483 -0.0031510203 -0.0049509709
-0.0021685713 0.0048249997 -0.0023812621
0.003942857 -0.0041357139 -0.0065323301
-0.0018728571 -0.00078775507 -0.0066311653
0 0.0048249997 -0.0049509709
0.00483 -0.0032494897 -0.0059393202
0.0028585715 -0.0014770407 -0.0066311653
0 0.0048249997 -0.0021835922
-0.00483 0.0035448978 -0.0010964078
-0.00483 0.00049234694 -0.0038637863
-0.002562857 0.0026586733 -0.0065323301
-0.0043371427 -0.0029540814 -0.0065323301
-0.0044357143 -0.0048249997 -0.0020847572
-0.0023657142 0.0038403061 0.001473301
-0.0010842857 0.0012801019 -0.00050339807
-0.00483 0.0045295916 -0.004555631
-0.00483 0.0040372447 -0.0039626216
-0.0012814285 -0.00078775507 -0.0066311653
-0.0023657142 -0.00088622444 -0.00050339807
0.00483 0.0031510203 -0.0059393202
0.00483 -0.0027571428 -0.0057416507
0.00049285713 0.0011816326 -0.00050339807
-0.00345 9.8469383e-05 -0.0065323301
0.00483 -0.0016739796 -0.0016894175
-0.00068999996 0.0048249997 -0.0011952427
0.0046328572 0.0027571428 -0.0065323301
-0.00483 0.00098469388 -0.0042591263
0.0012814285 -0.0048249997 -0.004357961
-0.00019714286 -0.0024617347 -0.00010805825
-0.00483 0.0027571428 -0.0062358254
-0.00483 0.0011816326 -0.00050339807
-0.0023657142 -0.0048249997 -0.00099757279
0.0035485714 0.0016739796 -0.00050339807
-0.0036471428 -0.00039387753 -0.00050339807
0.0013799999 -0.0032494897 -0.0065323301
0.0022671428 -0.0048249997 -0.0051486408
0.0037457142 -0.0048249997 -0.0023812621
-0.0029571429 -0.0048249997 -0.0022824272
0.0023657142 -0.0029540814 -0.0065323301
0.0045342855 0.0043326528 -0.0065323301
-0.0013799999 0.0027571428 -0.0066311653
0.00039428571 0.0048249997 -0.0022824272
0.0012814285 0.002067857 -0.00020689321
0.0035485714 -0.0048249997 -0.0018870874
-0.0046328572 0.0039387755 -0.00060223299
-0.0037457142 -0.0048249997 -0.0040614563
-0.00483 0.0018709183 -0.0028754368
-0.0044357143 0.0048249997 -0.0063346601
-0.0014785714 0.002067857 -9.2233013e-06
0.00483 0.0042341836 -0.0063346601
0 -0.00059081631 -0.00050339807
0.0017742857 0.0048249997 -0.0014917476
-0.0045342855 -0.0029540814 -0.00040456312
0.0023657142 0.0037418366 0.0016709709
-0.00483 -0.0014770407 -0.0050498056
0.00483 0.0027571428 -0.00089873787
0.0033514285 -0.0027571428 -0.0065323301
-0.0026614284 0.0026586733 -0.00020689321
-0.0016757143 0.0027571428 -0.0066311653
-0.0016757143 -0.0048249997 -0.0062358254
0.0036471428 -0.0010831632 -0.0065323301
-0.0023657142 0.0046280609 -0.00070106797
-0.0016757143 0.0048249997 -0.0012940777
-0.0024642856 0.0025602039 -0.0066311653
-0.0033514285 0.0048249997 -0.0016894175
0.0044357143 -0.0045295916 -0.0064334953
-0.00039428571 0.00039387753 -0.00050339807
-0.00483 -0.0024617347 -0.0011952427
-0.0022671428 -0.0017724489 -0.00020689321
-0.00483 -0.0039387755 -0.0030731068
-0.00483 -0.00068928569 -0.0037649514
-0.00068999996 -0.0048249997 -0.0052474756
-0.00029571427 0.0025602039 -0.00020689321
0.00483 0.00068928569 -0.0034684467
-0.00483 0.0030525508 -0.0051486408
0.0043371427 -0.0047265305 -0.0051486408
0.0021685713 0.0031510203 -0.00050339807
0.0011828571 0.00059081631 -0.0066311653
-0.00088714284 0.0048249997 -0.0038637863
-0.00483 -0.0011816326 -0.0037649514
0.00068999996 -0.0026586733 -0.00020689321
0.00078857143 0.0048249997 -0.0050498056
0.0014785714 0.002067857 -0.00020689321
0.0047314283 -0.0014770407 -0.0065323301
0.00483 9.8469383e-05 -0.00089873787
-0.0047314283 -0.0037418366 -0.0032707767
0 -0.0036433672 8.9611647e-05
0 -0.0021663264 -0.0066311653
0.0027599998 0.0023632653 -0.00020689321
0.0040414287 0.0019693878 -0.00040456312
-0.0031542857 0.0025602039 -0.0065323301
-0.0027599998 0.0048249997 -0.0048521361
-0.0021685713 -0.00078775507 -0.0066311653
-0.0036471428 -0.0022647958 -0.0065323301
-0.0016757143 -0.0048249997 -0.0016894175
0.00483 -0.0042341836 -0.0014917476
0.00483 -0.00078775507 -0.00050339807
-0.0033514285 -9.8469383e-05 -0.0066311653
0.00483 -0.0042341836 -0.0036661164
0.0019714285 0.0048249997 -0.004357961
0.0023657142 -0.0048249997 -0.0035672816
-0.00483 0.0029540814 -0.0046544662
0.00483 -0.0044311224 -0.0019859222
-0.0011828571 -0.0010831632 -0.00050339807
0.00039428571 -0.0039387755 -0.0065323301
0.0010842857 -0.0037418366 -9.2233013e-06
0.0044357143 -0.0035448978 -0.00050339807
-0.00483 0.0023632653 -0.00060223299
-0.00098571426 -0.0025602039 -0.0066311653
0.00078857143 0.0013785714 -0.00050339807
9.8571429e-05 -0.0036433672 0.001275631
0.00483 -0.0044311224 -0.00089873787
-0.0024642856 0.0038403061 0.0027581553
-0.0023657142 0.0025602039 -0.00020689321
-0.0027599998 -0.0014770407 -0.0066311653
-0.0031542857 0.0024617347 -0.00020689321
-0.0032528571 0.00049234694 -0.0066311653
0.00029571427 0.0012801019 -0.00050339807
0.0032528571 0.0048249997 -0.0057416507
0.0029571429 -0.0048249997 -0.0055439807
0.00483 -0.00029540816 -0.0031719417
-0.00483 0.0046280609 -0.0062358254
0.00483 0.0033479591 -0.0030731068
-0.00483 0.0016739796 -0.0030731068
0.0036471428 0.0026586733 -0.0065323301
0.0017742857 0.0044311224 -0.00060223299
0.00345 -0.0019693878 -0.0065323301
-0.00483 -0.0025602039 -0.0013929126
0.00483 -0.0036433672 -0.0037649514
-0.0014785714 -0.0041357139 -0.0065323301
0.00088714284 0.0042341836 -0.0065323301
-0.0028585715 0.0048249997 -0.0052474756
-9.8571429e-05 -0.0042341836 -0.0065323301
0.0028585715 -0.0048249997 -0.0015905825
-0.00483 0.0042341836 -0.004357961
-0.00029571427 -0.0048249997 -0.0021835922
0.0043371427 0.0048249997 -0.0015905825
0.0030557143 -0.0048249997 -0.004160291
0.00483 -0.0033479591 -0.0034684467
0.0018728571 0.0047265305 -0.00060223299
0.00039428571 0.0046280609 -0.0065323301
-0.0024642856 -0.0046280609 -0.0065323301
-0.0038442856 0.00098469388 -0.00050339807
-0.00483 0.0014770407 -0.0065323301
0.00483 -0.0023632653 -0.0057416507
0.00483 0.0012801019 -0.004555631
-0.0040414287 -0.0048249997 -0.0031719417
0.00483 0.00029540816 -0.0012940777
0.0046328572 -0.00039387753 -0.00050339807
0.0035485714 -0.0048249997 -0.0024800971
-0.002562857 -0.0021663264 -0.0066311653
-0.0046328572 0.0027571428 -0.00040456312
0.00483 -0.0026586733 -0.0019859222
-0.0011828571 -0.0036433672 -0.0065323301
-0.00483 -0.00059081631 -0.0062358254
-0.0035485714 -0.0048249997 -0.0016894175
0.0040414287 0.00059081631 -0.0065323301
-0.0010842857 0.0048249997 -0.0063346601
0.00098571426 -0.0023632653 -0.00020689321
0.0032528571 0.0036433672 -0.0065323301
0.00483 0.0045295916 -0.0017882524
0.0047314283 0.0039387755 -0.00060223299
-0.0046328572 -0.0035448978 -0.00050339807
0.0016757143 0.0011816326 -0.0066311653
-0.0044357143 -0.0036433672 -0.0065323301
9.8571429e-05 0.0012801019 -0.0066311653
-0.0040414287 -0.0048249997 -0.0014917476
0.00483 0.0011816326 -0.0060381554
0.00483 -0.0038403061 -0.00070106797
-0.00483 0.002067857 -0.0040614563
-0.0024642856 0.0024617347 -0.00020689321
0.00483 0.00029540816 -0.0025789321
0.0017742857 0.0040372447 -0.00050339807
-0.00483 0.0013785714 -0.0037649514
0.0043371427 0.0039387755 -0.0065323301
0.0013799999 0.0048249997 -0.0016894175
-0.00483 -0.0038403061 -0.0024800971
-0.0023657142 -0.0048249997 -0.0038637863
-0.0013799999 -0.00049234694 -0.0066311653
0.00088714284 -0.002067857 -0.00020689321
0.0038442856 0.0048249997 -0.0038637863
0.0010842857 0.0015755101 -0.0066311653
-0.00059142854 -0.0016739796 -0.0066311653
0.00483 0.00049234694 -0.0060381554
0.0043371427 0.0029540814 -0.00030572814
-0.00088714284 0.0048249997 -0.0037649514
-0.00483 -0.00029540816 -0.0050498056
0.00483 0.00098469388 -0.004160291
-0.00483 -0.00029540816 -0.0036661164
-0.0045342855 -0.0016739796 -0.00040456312
0.0035485714 0.0048249997 -0.0031719417
0.0017742857 0.0030525508 -0.00040456312
0.00483 -0.0022647958 -0.0034684467
-0.00483 -0.00098469388 -0.00070106797
-0.00483 0.0041357139 -0.0015905825
0.00078857143 -0.0013785714 -0.0066311653
-0.00483 0.0034464283 -0.0047533009
0.00049285713 -0.0015755101 -0.00040456312
0.00483 0.0017724489 -0.00060223299
-0.00088714284 0.0048249997 -0.0065323301
0.00029571427 -0.0048249997 -0.0059393202
-0.0024642856 -0.0037418366 0.001473301
-0.0027599998 0.0021663264 -0.0066311653
-0.0012814285 -0.0015755101 -0.0066311653
-0.0046328572 -9.8469383e-05 -0.00050339807
-0.0044357143 0.0035448978 -0.00050339807
-0.00483 -0.00039387753 -0.0033696117
0.0013799999 -0.0040372447 -0.0065323301
-0.00059142854 0.0048249997 -0.0017882524
0.0024642856 0.0048249997 -0.0062358254
0.00068999996 -0.0048249997 -0.0046544662
0.00483 0.002067857 -0.0039626216
0.00049285713 -0.0048249997 -0.0031719417
0.00098571426 0.0010831632 -0.0066311653
0.00078857143 0.0047265305 -0.00050339807
-0.0018728571 0.0027571428 -0.0065323301
0.0014785714 0.0010831632 -0.0066311653
0 -0.0039387755 0.00068262138
-0.00483 -0.0019693878 -0.0014917476
-0.0015771429 0.0027571428 -0.0066311653
-0.0046328572 -0.0046280609 -0.0039626216
-0.00483 -0.00098469388 -0.00060223299
0.0042385715 -0.0036433672 -0.0065323301
-0.0038442856 0.0048249997 -0.0052474756
0.002562857 0.00029540816 -0.0066311653
-0.0031542857 0.0033479591 -0.00050339807
0.00483 0.0030525508 -0.004357961
0.00029571427 -0.0039387755 -0.00040456312
0.00483 0.0021663264 -0.0042591263
0.0040414287 -0.0047265305 -0.0029742718
0.0024642856 0.0038403061 -9.2233013e-06
0.00345 -0.0044311224 -0.0063346601
0.0032528571 -0.0046280609 -0.00060223299
0.00483 0.00019693877 -0.0057416507
0.0023657142 -0.0048249997 -0.0026777671
-0.0033514285 0.0024617347 -0.00020689321
0.00483 9.8469383e-05 -0.0022824272
-0.00078857143 0.0048249997 -0.0047533009
-0.0042385715 0.0042341836 -0.0065323301
0.0030557143 -0.0042341836 -0.00060223299
-0.00483 0.00049234694 -0.004357961
0.0015771429 0.0035448978 -0.00050339807
-0.0015771429 0.002067857 -0.00010805825
0.0026614284 -0.0042341836 -0.0065323301
-0.0012814285 0.0040372447 -0.0065323301
-0.00483 0.0013785714 -0.0015905825
-0.00088714284 -0.0040372447 -0.00030572814
0.002562857 -0.0038403061 0.0007814563
-0.00483 0.00088622444 -0.0028754368
-0.00483 -0.0038403061 -0.0020847572
0.00483 0.0024617347 -0.0060381554
0.002562857 -0.0032494897 -0.0065323301
-0.0026614284 0.0037418366 0.0027581553
-0.00029571427 0.0013785714 -0.00050339807
-0.00483 0.0011816326 -0.0018870874
0.0031542857 -0.0048249997 -0.0047533009
-0.00483 0.0043326528 -0.0039626216
-0.00059142854 -0.00029540816 -0.0066311653
-0.0038442856 0.00029540816 -0.0065323301
-0.0045342855 0.0047265305 -0.00070106797
0.0010842857 -0.00049234694 -0.00050339807
0.002562857 0.0037418366 -9.2233013e-06
0.00483 0.00088622444 -0.0021835922
-0.0036471428 0.0034464283 -0.0065323301
-0.0031542857 0.0041357139 -0.00050339807
0.0014785714 -0.0023632653 -0.0066311653
0.00483 -0.0030525508 -0.0054451455
0.0030557143 -0.002067857 -9.2233013e-06
-0.0013799999 0.0048249997 -0.0042591263
0.0046328572 -0.0027571428 -0.00050339807
-0.00483 -0.0021663264 -0.00050339807
-0.0043371427 -0.00098469388 -0.0065323301
-0.0011828571 -0.0025602039 -0.00010805825
-0.00483 0.0018709183 -0.0037649514
0.0014785714 0.00059081631 -0.00050339807
-0.0033514285 -0.0013785714 -0.0065323301
0.0016757143 0.0028556122 -0.0066311653
-0.00098571426 -0.00088622444 -0.00050339807
0.0012814285 -0.0025602039 -0.0066311653
0.0019714285 -0.0048249997 -0.0015905825
0.00483 -0.00078775507 -0.0051486408
0.0047314283 0.0018709183 -0.00050339807
-0.0045342855 -0.0047265305 -0.0054451455
-0.0032528571 -0.0044311224 -0.00050339807
-0.00483 -0.0034464283 -0.0053463108
-0.0024642856 0.0037418366 0.0022639807
0.0011828571 -0.0026586733 -0.0066311653
0.0015771429 0.0048249997 -0.0060381554
0.0045342855 0.0023632653 -0.0065323301
0.0013799999 0.0017724489 -0.00030572814
-9.8571429e-05 -0.0036433672 -0.00010805825
-0.0040414287 -0.0048249997 -0.0028754368
0.00098571426 -0.0022647958 -0.00020689321
0.0012814285 0.0048249997 -0.0033696117
0.0019714285 -0.0031510203 -0.00050339807
-0.0011828571 -9.8469383e-05 -0.00050339807
-9.8571429e-05 0.0046280609 -0.0065323301
0.00049285713 0.0048249997 -0.00070106797
-0.0016757143 0.0039387755 -0.00010805825
-0.0011828571 -0.0036433672 -0.00020689321
-0.0013799999 0.0036433672 -0.00020689321
-0.0030557143 0.0025602039 -0.00020689321
-0.00068999996 -0.0023632653 -9.2233013e-06
0.00483 0.0025602039 -0.0013929126
0.00068999996 0.0010831632 -0.00050339807
0.0026614284 -0.0048249997 -0.0032707767
-0.00345 -0.0048249997 -0.0044567962
-0.00483 0.0034464283 -0.00070106797
0.00483 -0.00029540816 -0.0054451455
0.0021685713 -0.0011816326 -0.00050339807
0.0028585715 -0.00078775507 -0.00050339807
0.00483 0.0033479591 -0.0040614563
0.0040414287 -0.0043326528 -0.00060223299
-0.0035485714 -0.00019693877 -0.00050339807
-0.00483 0.0036433672 -0.0015905825
-0.00345 -0.0040372447 -0.00050339807
0.0031542857 -0.00049234694 -0.00050339807
-0.00483 0.0038403061 -0.0010964078
-0.0026614284 0.0015755101 -0.00040456312
-0.00483 0 -0.0060381554
0.00483 0.0032494897 -0.0058404854
-0.0026614284 0.0032494897 -0.0065323301
0.0024642856 0.0032494897 -0.00050339807
-0.0041399999 -0.0012801019 -0.0065323301
0.003942857 -0.0040372447 -0.0065323301
-0.0045342855 -0.0047265305 -0.0033696117
-0.0014785714 0.0036433672 -9.2233013e-06
0.0045342855 -0.0037418366 -0.00060223299
-0.0020699999 -0.0038403061 -9.2233013e-06
-0.0014785714 0.0048249997 -0.004357961
-0.0042385715 -0.0048249997 -0.0058404854
-0.00483 -0.00019693877 -0.0038637863
0.0040414287 0.00029540816 -0.0065323301
0.0044357143 0.00029540816 -0.0065323301
0.002562857 -0.0038403061 0.0005837864
-0.0016757143 0.0026586733 -0.0066311653
0.0030557143 0.0017724489 -0.0065323301
0.0035485714 0.0035448978 -0.00050339807
0.00098571426 -0.0048249997 -0.0028754368
-0.0041399999 0.0048249997 -0.0016894175
-0.0018728571 -0.00059081631 -0.0066311653
-0.0045342855 0.0048249997 -0.0046544662
-0.00098571426 -0.0038403061 -0.00010805825
0.00483 -0.002067857 -0.0051486408
0.00483 0.0017724489 -0.0064334953
0.0016757143 -0.0048249997 -0.00089873787
0.0020699999 -0.0015755101 -0.0066311653
-0.0017742857 -0.0048249997 -0.00089873787
0.0024642856 -0.0016739796 -0.00030572814
-0.0021685713 0.0045295916 -0.0065323301
0.0023657142 0.00029540816 -0.00050339807
-0.0010842857 -0.0046280609 -0.0065323301
-0.0041399999 -0.0048249997 -0.00089873787
0.0040414287 0.0048249997 -0.0027766021
0.0030557143 0.0048249997 -0.0034684467
-0.00088714284 -0.0048249997 -0.0026777671
0.0012814285 0.0033479591 -0.0066311653
-0.0023657142 -0.0037418366 0.0028569903
0.0022671428 -0.0048249997 -0.004160291
-0.0023657142 0.0037418366 0.00088029128
-0.00049285713 -0.0048249997 -0.0046544662
0.00483 0.0015755101 -0.0038637863
-0.00483 -0.00039387753 -0.0054451455
-0.00483 -0.0028556122 -0.0044567962
0.0029571429 0.00029540816 -0.0066311653
-0.0017742857 -0.0037418366 -9.2233013e-06
0.00039428571 -0.0044311224 -0.0065323301
0.0016757143 0.0036433672 -0.00030572814
-9.8571429e-05 0.0048249997 -0.0053463108
0.0044357143 -0.0021663264 -0.00020689321
-0.0036471428 -0.0034464283 -0.00050339807
0.00049285713 -0.0048249997 -0.0040614563
-0.00483 0.0025602039 -0.0022824272
-0.0043371427 -0.0026586733 -0.00020689321
-0.0015771429 -0.0041357139 -0.00050339807
0.0011828571 0.0048249997 -0.0050498056
-0.0026614284 -0.0025602039 -0.00010805825
-0.00483 0.0044311224 -0.0059393202
0.002562857 -0.0021663264 -0.0066311653
0.00483 -0.0030525508 -0.0020847572
-0.00483 0.0023632653 -0.0056428155
-0.0013799999 0.0048249997 -0.004160291
-0.002562857 -0.00029540816 -0.0066311653
0.0018728571 -0.00078775507 -0.00050339807
-0.00049285713 0.0043326528 -0.0065323301
-0.00483 0.0012801019 -0.0027766021
0.00483 -0.0040372447 -0.00099757279
-0.0024642856 -0.0037418366 0.0009791262
0.0017742857 -0.0039387755 -0.00020689321
-0.0013799999 -0.0048249997 -0.0047533009
-0.00483 0.0029540814 -0.0035672816
0.0014785714 -0.0048249997 -0.0062358254
-0.0038442856 0.0048249997 -0.0034684467
0.00483 0.00098469388 -0.0036661164
0.0028585715 -0.0031510203 -0.0065323301
9.8571429e-05 0.0037418366 0.0001884466
-0.00483 0.00078775507 -0.0053463108
-0.0024642856 0.0017724489 -0.0066311653
0.0019714285 -0.00098469388 -0.00050339807
-0.00483 0.0021663264 -0.0056428155
-0.00483 0.0016739796 -0.0055439807
0.00483 0.0042341836 -0.0013929126
-0.00483 0.00049234694 -0.0016894175
0.00098571426 0.0048249997 -0.0018870874
0.00483 0.0039387755 -0.0020847572
0.00483 0.0041357139 -0.004555631
-0.00483 -0.00078775507 -0.0061369902
-0.00098571426 0.0039387755 -0.00030572814
-0.00098571426 0.0048249997 -0.0055439807
0.0016757143 0.0026586733 -9.2233013e-06
0.00483 0.0040372447 -0.00060223299
-0.00483 0.0035448978 -0.00060223299
0.00068999996 0.0023632653 -0.00020689321
0.00483 -0.00078775507 -0.0027766021
-0.00019714286 0.0022647958 -0.00020689321
-0.003942857 -0.0010831632 -0.00050339807
-0.0029571429 -0.00039387753 -0.0066311653
0.0011828571 0.0040372447 -0.0065323301
-0.00483 -0.002067857 -0.004357961
-0.00019714286 -0.0011816326 -0.00050339807
-0.0018728571 0.0033479591 -0.0065323301
0.0033514285 0.00029540816 -0.00050339807
0.0042385715 0.0048249997 -0.0013929126
-0.00483 0.0016739796 -0.0036661164
0.00078857143 -0.0048249997 -0.0034684467
0.00483 -0.00088622444 -0.0021835922
-0.00483 -0.0041357139 -0.0058404854
-0.0020699999 -0.0012801019 -0.00050339807
0.0042385715 0.0048249997 -0.0014917476
-0.00483 -0.00098469388 -0.0028754368
-0.00483 0.0043326528 -0.004160291
-0.0020699999 0.0025602039 -0.00020689321
0.00483 0.00078775507 -0.0057416507
-0.0037457142 -0.00049234694 -0.00050339807
0.0033514285 -0.00059081631 -0.00050339807
0.0036471428 -0.0048249997 -0.0061369902
0.00483 -0.00078775507 -0.004357961
-0.00483 -0.0024617347 -0.0052474756
0.00483 0.0016739796 -0.0028754368
0.0015771429 -0.00039387753 -0.0066311653
-0.0026614284 0.00059081631 -0.0066311653
0 0.0048249997 -0.0037649514
0.0045342855 0.0048249997 -0.0061369902
0.00039428571 0.0048249997 -0.0034684467
0.00483 0.0039387755 -0.0048521361
0.0027599998 -0.0037418366 0.0017698058
-0.00029571427 0.002067857 -0.0066311653
-0.0012814285 0.0036433672 -0.00030572814
0.00019714286 -0.0038403061 0.0028569903
0.0021685713 -0.0043326528 -0.0065323301
0.0047314283 0.0044311224 -0.0029742718
0.00483 0.0013785714 -0.0023812621
-0.0026614284 0.0037418366 0.001572136
-0.0047314283 -0.0026586733 -0.00020689321
0 0.0048249997 -0.0011952427
-0.002562857 -0.0037418366 0.00048495145
-0.0021685713 -0.0010831632 -0.0066311653
-0.0046328572 -0.0029540814 -0.00040456312
0.0017742857 0.0048249997 -0.0053463108
0.0015771429 -0.0033479591 -0.00050339807
-0.00483 0.0040372447 -0.0017882524
-0.00483 -0.0028556122 -0.0055439807
-0.00483 0.0029540814 -0.0051486408
-0.0042385715 -0.0048249997 -0.0013929126
0.0037457142 -0.0048249997 -0.0051486408
-0.0036471428 0.0011816326 -0.00050339807
-0.00483 0.0021663264 -0.0037649514
-0.0036471428 0.0022647958 -0.00020689321
-0.0032528571 -0.0048249997 -0.0011952427
0.0018728571 0.0048249997 -0.0021835922
0.00483 -0.0017724489 -0.00050339807
0.0015771429 -0.0048249997 -0.0050498056
-0.00483 0.0043326528 -0.0055439807
-0.0036471428 0.0048249997 -0.0029742718
0.0046328572 0.0046280609 -0.0040614563
0.0024642856 0.0048249997 -0.0028754368
0.00345 0.00088622444 -0.00050339807
0.00483 0.0037418366 -0.0028754368
-0.0047314283 -0.0034464283 -0.0015905825
-0.0012814285 -0.00019693877 -0.00050339807
0.0033514285 0.0013785714 -0.0065323301
0.00483 0.00019693877 -0.0061369902
-0.0033514285 -0.0036433672 -0.0065323301
-0.0016757143 -0.0048249997 -0.0034684467
0.0041399999 -0.0047265305 -0.0010964078
-0.00049285713 -0.0016739796 -0.00030572814
0.0021685713 -0.0034464283 -0.00050339807
0.00029571427 0.0048249997 -0.0011952427
-0.00483 0.0035448978 -0.0051486408
0.00483 0.0022647958 -0.00040456312
0.0017742857 -0.0048249997 -0.0053463108
-0.0032528571 0.00059081631 -0.0066311653
-0.00049285713 0.0048249997 -0.0025789321
0.00483 0.00029540816 -0.0014917476
-0.0030557143 -0.00088622444 -0.0066311653
-0.00483 0.0021663264 -0.00030572814
-0.0026614284 -0.0048249997 -0.0037649514
0.00039428571 -0.0048249997 -0.0018870874
0.0026614284 -0.0038403061 0.0017698058
0.00483 -9.8469383e-05 -0.0025789321
0.00483 -0.0039387755 -0.004555631
-0.0021685713 0.0048249997 -0.0036661164
-0.00483 -0.00078775507 -0.0037649514
-0.0015771429 0.0012801019 -0.0066311653
-0.00078857143 -0.0019693878 -0.0066311653
0 -0.0012801019 -0.0066311653
-0.00019714286 -0.0023632653 -0.0066311653
0.00483 -0.0019693878 -0.0061369902
-0.0024642856 -0.0039387755 0.001374466
0.0027599998 0.0037418366 0.001572136
0.0037457142 -0.0047265305 -0.00060223299
-0.0010842857 0.0024617347 -0.0066311653
-0.00088714284 -0.0023632653 -9.2233013e-06
-0.0040414287 0.0048249997 -0.0058404854
0.0012814285 -0.0018709183 -0.00020689321
0.00483 0.0033479591 -0.00099757279
-0.00483 -0.0045295916 -0.0020847572
-0.0036471428 -0.0018709183 -0.0065323301
9.8571429e-05 -0.00059081631 -0.0066311653
0.0033514285 0.0011816326 -0.0065323301
-0.0016757143 -0.0019693878 -0.0066311653
-0.00019714286 -0.0048249997 -0.0049509709
0.00483 0.0023632653 -0.0033696117
0.0024642856 0.0048249997 -0.0023812621
0.0032528571 0.0028556122 -0.00030572814
0.00483 -0.00068928569 -0.00079990289
0.0024642856 -0.0038403061 0.0021651457
-0.0038442856 -0.0019693878 -0.0065323301
-0.00078857143 0.0042341836 -0.0065323301
-0.0011828571 -0.0031510203 -0.00050339807
0.00029571427 0.0037418366 -9.2233013e-06
-0.00483 0.0026586733 -0.00089873787
-0.00483 -0.0024617347 -0.0016894175
0.0041399999 -0.0033479591 -0.00050339807
-0.00483 0.0027571428 -0.0057416507
0.0040414287 0.0048249997 -0.0056428155
0.0045342855 0.0047265305 -0.0050498056
-0.0024642856 -0.0039387755 0.0018686408
-9.8571429e-05 0.0039387755 -0.00040456312
0.00029571427 0.0029540814 -0.00040456312
-0.0028585715 -0.0048249997 -0.00070106797
-0.0042385715 0.0048249997 -0.0057416507
-0.0014785714 -0.0046280609 -0.0065323301
0.00483 -0.0027571428 -0.00050339807
0.00483 -0.00039387753 -0.0052474756
0.0043371427 0.00029540816 -0.00050339807
0.0031542857 0.0048249997 -0.0037649514
0.0020699999 -0.0017724489 -0.0066311653
-0.0014785714 0.00059081631 -0.0066311653
-0.00059142854 0.0014770407 -0.0066311653
0.00019714286 -0.0041357139 -0.00050339807
0.00483 0.0043326528 -0.00099757279
-0.00059142854 0.0036433672 -0.00010805825
-0.0029571429 0.0046280609 -0.0065323301
-0.0043371427 0.0048249997 -0.0015905825
-0.00483 -0.0045295916 -0.0058404854
-0.0029571429 -0.00098469388 -0.00050339807
-9.8571429e-05 -0.0048249997 -0.0057416507
0.0027599998 -0.0037418366 0.0025604854
0.0029571429 -0.0048249997 -0.004357961
0.0019714285 0.00088622444 -0.0066311653
0.0017742857 0.0045295916 -0.0065323301
0.00345 0.0042341836 -0.00060223299
-0.0024642856 9.8469383e-05 -0.0066311653
-0.0040414287 -0.0048249997 -0.0060381554
0.00483 0.00088622444 -0.0036661164
0.00098571426 -0.0037418366 -0.0065323301
0.0035485714 0.00088622444 -0.0065323301
-0.00483 0.00068928569 -0.0033696117
-0.00483 -0.0027571428 -0.0023812621
0.0021685713 -0.0048249997 -0.0058404854
0.0016757143 0.0048249997 -0.0028754368
-0.0033514285 0.0029540814 -0.0065323301
0.00483 0.00068928569 -0.0052474756
-0.00039428571 -0.0032494897 -0.00050339807
0.00078857143 0.0048249997 -0.0015905825
0 -0.0048249997 -0.0049509709
-0.00483 0.0035448978 -0.004160291
0.00483 -0.0031510203 -0.0013929126
-0.0026614284 -0.0038403061 0.0018686408
-9.8571429e-05 -0.0048249997 -0.0031719417
-0.0033514285 -0.0029540814 -0.0065323301
0.0019714285 0.0048249997 -0.0053463108
0.0011828571 -0.0011816326 -0.00050339807
0.0030557143 0.00068928569 -0.0066311653
-0.0031542857 -0.0028556122 -0.0065323301
0.00078857143 -0.0011816326 -0.0066311653
0.0032528571 -0.0048249997 -0.004555631
0.00345 0.0025602039 -0.0065323301
-0.0038442856 -0.0033479591 -0.00050339807
-0.00059142854 0.0039387755 -0.00020689321
0.0044357143 -0.0047265305 -0.0039626216
-0.00483 0.0012801019 -0.0012940777
0.0047314283 -0.0043326528 -0.0063346601
0.0023657142 -0.0026586733 -0.00020689321
0.00039428571 -0.0036433672 -9.2233013e-06
0.0016757143 -0.0030525508 -0.0065323301
-0.00483 -0.00029540816 -0.0044567962
0 0.0036433672 -9.2233013e-06
0.003942857 -0.0048249997 -0.0061369902
0.0031542857 -0.002067857 -0.0066311653
0.00483 -0.0012801019 -0.0013929126
0.0040414287 0.0048249997 -0.0065323301
-0.0037457142 0.0048249997 -0.0019859222
-0.00078857143 -0.00039387753 -0.00050339807
-0.00483 0.00039387753 -0.0050498056
0.0032528571 0.0048249997 -0.0023812621
-0.00345 -0.0048249997 -0.0018870874
0.00483 0.0022647958 -0.0010964078
0.00078857143 -0.0039387755 -9.2233013e-06
-0.0021685713 0.0042341836 -0.0065323301
0.0030557143 0.0011816326 -0.0066311653
-0.00483 0.0037418366 -0.0026777671
0.0010842857 -0.00068928569 -0.0066311653
0.00483 0.0039387755 -0.0050498056
-0.00088714284 0.0022647958 -9.2233013e-06
-0.0044357143 -0.0027571428 -0.0065323301
0.00483 -0.0033479591 -0.0030731068
0 -0.0048249997 -0.0020847572
0.00019714286 -0.0038403061 0.0029558253
-0.00059142854 -0.0040372447 -0.0065323301
-0.0013799999 -0.0048249997 -0.0059393202
0.0036471428 -0.0029540814 -0.00050339807
-0.0033514285 -0.0048249997 -0.00079990289
0.00483 -0.0034464283 -0.0030731068
-0.0022671428 0.0042341836 -0.00050339807
-9.8571429e-05 0.0048249997 -0.0065323301
0.0012814285 -0.00068928569 -0.0066311653
-0.0041399999 0.0048249997 -0.0035672816
-0.0040414287 -0.00039387753 -0.00050339807
-0.00483 0.00019693877 -0.0050498056
0.0028585715 -0.0048249997 -0.0019859222
-0.00483 0.0035448978 -0.0029742718
-9.8571429e-05 -0.0048249997 -0.0046544662
0.0047314283 -0.0015755101 -0.0065323301
-0.0045342855 0.0029540814 -0.00050339807
-0.00483 0.0024617347 -0.0053463108
-0.00483 0.0013785714 -0.0053463108
0.0028585715 0.0048249997 -0.0058404854
0.0018728571 -0.0048249997 -0.0013929126
-0.0028585715 0.00059081631 -0.0066311653
0.00019714286 -0.0048249997 -0.0058404854
0.0019714285 0.0048249997 -0.0024800971
0.0018728571 -0.0048249997 -0.0044567962
-0.00019714286 -0.002067857 -0.0066311653
0.00483 0.0010831632 -0.00070106797
-0.00088714284 0.0021663264 -9.2233013e-06
-0.0022671428 -0.002067857 -0.0066311653
0.00049285713 0.0040372447 -0.00050339807
-0.0027599998 -0.0046280609 -0.0065323301
0.0024642856 -0.0029540814 -0.00040456312
-0.0030557143 -0.0048249997 -0.0038637863
-0.0019714285 0.0043326528 -0.0065323301
0.00078857143 0.0022647958 -0.00020689321
-0.00059142854 -0.0048249997 -0.0011952427
0.0018728571 0.0045295916 -0.00050339807
-0.0030557143 -0.0043326528 -0.0065323301
0.00483 -0.0010831632 -0.004357961
-0.0033514285 0.0026586733 -0.00020689321
0.00049285713 0.0048249997 -0.0053463108
-0.00483 0.0021663264 -0.0014917476
-0.00345 0.00049234694 -0.0065323301
-0.00049285713 -0.00029540816 -0.00050339807
0.0044357143 -0.0017724489 -0.0065323301
0.00059142854 -0.00088622444 -0.00050339807
-0.00345 0.0024617347 -0.00020689321
-0.00039428571 -0.0025602039 -0.00010805825
0.00483 0.0041357139 -0.0042591263
-0.0047314283 -0.00029540816 -0.00050339807
0.00483 -0.0015755101 -0.004160291
-0.0036471428 0.0027571428 -0.0065323301
-0.0033514285 0.0048249997 -0.0048521361
-0.00068999996 -0.0024617347 -0.0066311653
-0.0038442856 0.0048249997 -0.00070106797
0.0027599998 0.0048249997 -0.0020847572
0.00483 -0.00019693877 -0.0062358254
-0.00483 0.0026586733 -0.0034684467
0.0032528571 0.0048249997 -0.0050498056
-0.00059142854 -0.0048249997 -0.0037649514
-0.0013799999 0.0015755101 -0.0066311653
0.0015771429 -0.0048249997 -0.0057416507
-0.0022671428 0.0013785714 -0.0066311653
0.0010842857 0.00049234694 -0.0066311653
0.00483 -0.00098469388 -0.0062358254
-0.0029571429 -0.0048249997 -0.0025789321
0.00483 -0.0033479591 -0.0058404854
0.0032528571 0.0018709183 -0.00030572814
-0.0016757143 -0.0031510203 -0.00050339807
0.00483 0.0024617347 -0.0050498056
0.00483 0.0044311224 -0.004160291
0.0035485714 -0.0048249997 -0.0015905825
0.00029571427 -0.0026586733 -0.0066311653
-0.0021685713 -9.8469383e-05 -0.0066311653
-0.00098571426 0.00068928569 -0.00050339807
0.00483 0.0029540814 -0.004357961
-0.00483 -0.0043326528 -0.0013929126
-0.00483 -0.00088622444 -0.0053463108
0.0026614284 0.0048249997 -0.0022824272
0.00483 0.0024617347 -0.0010964078
-0.00039428571 -0.00059081631 -0.0066311653
-0.00483 0.0013785714 -0.0059393202
0.0013799999 -0.0035448978 -0.00040456312
-0.00483 -0.0017724489 -0.0033696117
-0.0032528571 0.0021663264 -0.00020689321
-0.00483 -0.00068928569 -0.0013929126
-0.0018728571 -0.002067857 -0.00020689321
-0.0044357143 0.0048249997 -0.0044567962
0.00483 -0.00098469388 -0.0055439807
-0.00068999996 0.002067857 -9.2233013e-06
0.00483 0.0042341836 -0.0040614563
-0.0046328572 0.0039387755 -0.0065323301
-0.0018728571 0.0048249997 -0.0014917476
0.00059142854 -0.0048249997 -0.0012940777
-0.0033514285 -0.0048249997 -0.0037649514
-0.0031542857 -0.0033479591 -0.0065323301
0.0024642856 0.0043326528 -0.0065323301
0.00059142854 0.002067857 -0.00020689321
-0.00483 0.00098469388 -0.0047533009
0.00345 -0.0048249997 -0.004357961
0.00483 -0.0025602039 -0.0030731068
0.0035485714 0.00029540816 -0.0065323301
-0.00345 -9.8469383e-05 -0.00050339807
0.0037457142 -0.00078775507 -0.0065323301
-0.0018728571 -0.0048249997 -0.0019859222
-0.0010842857 -0.00019693877 -0.00050339807
0.0038442856 0.0023632653 -0.0065323301
0.0023657142 -0.0013785714 -0.00050339807
0.0033514285 -0.0048249997 -0.0055439807
-0.0010842857 0.0048249997 -0.0050498056
-0.002562857 -0.0042341836 -0.0065323301
0.0019714285 0.0048249997 -0.0012940777
-0.0019714285 0.0047265305 -0.00070106797
-0.0038442856 -0.0048249997 -0.0020847572
0.0011828571 0.0043326528 -0.00060223299
0.00068999996 -0.0022647958 -0.00020689321
0.0022671428 0.00029540816 -0.0066311653
0.00029571427 0.0048249997 -0.0050498056
0.0027599998 -0.0010831632 -0.00050339807
-0.0020699999 -0.0048249997 -0.0027766021
-0.0035485714 0.0048249997 -0.0037649514
-0.00068999996 -0.0015755101 -0.00040456312
-0.00483 0.0023632653 -0.0044567962
-0.00483 -0.0031510203 -0.0052474756
0.0012814285 -0.0034464283 -0.00050339807
-0.0042385715 0.0040372447 -0.00060223299
-0.0046328572 -0.0015755101 -0.0065323301
0.00098571426 -0.0035448978 -0.0065323301
0.0014785714 0.0048249997 -0.0050498056
-0.00483 -0.00088622444 -0.0036661164
0.0030557143 -0.0029540814 -0.00050339807
-0.0022671428 0.0034464283 -0.00050339807
0.0035485714 -0.0048249997 -0.00070106797
-0.0047314283 -0.0046280609 -0.0052474756
-0.0015771429 -0.0016739796 -0.00030572814
0.0019714285 -0.0014770407 -0.0066311653
-0.0011828571 -0.00059081631 -0.00050339807
0.0046328572 -0.0046280609 -0.0044567962
0.00483 -0.0041357139 -0.0034684467
-0.0030557143 0.0048249997 -0.0062358254
-0.0010842857 -0.0048249997 -0.0055439807
-0.0042385715 0.0048249997 -0.004160291
-0.00483 0.0025602039 -0.0018870874
0.0027599998 -0.0013785714 -0.0066311653
-0.0037457142 -0.0016739796 -0.00050339807
0.0029571429 -0.0048249997 -0.0053463108
-0.0012814285 0.0027571428 -0.00020689321
-0.0020699999 -0.0048249997 -0.0011952427
-0.00068999996 0 -0.0066311653
-0.0026614284 -0.0037418366 0.0001884466
-9.8571429e-05 -0.0048249997 -0.0062358254
-0.0030557143 0.0040372447 -0.0065323301
0.0047314283 -0.0046280609 -0.0061369902
0.0035485714 -0.0048249997 -0.00060223299
0.0022671428 -0.0036433672 -0.0065323301
-0.0026614284 -0.0038403061 0.0021651457
0.00068999996 -0.0017724489 -0.00020689321
-0.0014785714 -0.0023632653 -0.0066311653
0.00019714286 0.0026586733 -0.0066311653
-9.8571429e-05 0.0022647958 -0.00020689321
0.0031542857 0.0014770407 -0.0065323301
-0.0041399999 -0.00078775507 -0.0065323301
-0.0032528571 0.00029540816 -0.00050339807
0.0013799999 -0.0048249997 -0.0010964078
-0.00483 -0.0037418366 -0.004357961
-0.00019714286 0.0037418366 0.0020663107
0 0.0048249997 -0.0062358254
-0.0020699999 -0.00098469388 -0.00050339807
-0.00483 -0.0024617347 -0.0051486408
0.00483 0.0036433672 -0.0058404854
-0.00029571427 -0.0039387755 -0.0065323301
-0.0042385715 -0.0048249997 -0.0020847572
-0.002562857 -0.0039387755 0.0010779612
0.0026614284 -0.0048249997 -0.0050498056
0.00019714286 -0.0032494897 -0.0066311653
0.0018728571 0.0048249997 -0.0019859222
0.0035485714 -0.0019693878 -0.0065323301
-0.00039428571 -0.0022647958 -0.00020689321
0.0023657142 0.0032494897 -0.0066311653
0.0038442856 0.00059081631 -0.0065323301
-0.0041399999 0.0048249997 -0.0019859222
-0.00068999996 0.0048249997 -0.00070106797
0.00049285713 -0.0025602039 -0.0066311653
-0.00483 0.0027571428 -0.00050339807
0.0020699999 0.0048249997 -0.0040614563
0.00483 0.0041357139 -0.0049509709
-0.0046328572 0.0047265305 -0.0051486408
-0.0017742857 -0.0039387755 -0.00020689321
-0.0011828571 0.0031510203 -0.00050339807
-0.00483 -0.0019693878 -0.0027766021
0.003942857 0.002067857 -0.0065323301
-0.0037457142 0.0048249997 -0.0053463108
0.002562857 0.0048249997 -0.0062358254
-0.00039428571 0.0048249997 -0.0023812621
-0.00078857143 0.0048249997 -0.0037649514
0.00039428571 -0.0048249997 -0.0060381554
-0.0037457142 0.0048249997 -0.0016894175
0.0031542857 -0.0022647958 -0.0066311653
0.0018728571 0.0026586733 -9.2233013e-06
-0.0043371427 -0.0031510203 -0.0065323301
0.00483 -0.00059081631 -0.0023812621
0.0038442856 0.0048249997 -0.0048521361
-0.0038442856 -0.0048249997 -0.0011952427
0.00483 -0.0041357139 -0.0047533009
-0.0044357143 0.0048249997 -0.0060381554
-0.0047314283 0.00068928569 -0.0065323301
-0.0016757143 -0.0028556122 -0.00030572814
-0.00345 0.0048249997 -0.0051486408
-0.00098571426 -0.0027571428 -0.00020689321
0.00088714284 -0.0048249997 -0.0047533009
-0.0026614284 -0.0038403061 0.0029558253
-0.00483 -0.0032494897 -0.0013929126
-0.0014785714 0.0048249997 -0.0012940777
-0.00098571426 -0.0048249997 -0.0049509709
0.0038442856 0.0036433672 -0.00050339807
0.003942857 -0.0048249997 -0.0026777671
-0.00483 0.00019693877 -0.0017882524
-0.00483 -0.0032494897 -0.0034684467
0.0020699999 0.00088622444 -0.0066311653
0.0031542857 -0.0048249997 -0.0056428155
0.00483 -0.0026586733 -0.0013929126
-0.00483 0.0027571428 -0.00070106797
-0.0040414287 -0.0017724489 -0.00050339807
-0.0029571429 0.0048249997 -0.0063346601
-0.0045342855 0.0048249997 -0.0028754368
0.00088714284 -0.0048249997 -0.0027766021
-0.0013799999 0.0035448978 -0.0065323301
-0.00029571427 -0.0044311224 -0.0065323301
-0.0047314283 -0.0033479591 -0.0022824272
0.00078857143 -0.0032494897 -0.0065323301
-0.0027599998 0.0028556122 -0.0065323301
-0.00483 0.0031510203 -0.00060223299
-0.0012814285 -0.00039387753 -0.00050339807
-0.0021685713 0.0048249997 -0.0020847572
0.00483 -0.0010831632 -0.004555631
0.0028585715 0.0016739796 -0.00050339807
0.0013799999 -0.0048249997 -0.0017882524
0.0022671428 -0.0024617347 -0.00020689321
0.00483 0.0028556122 -0.0042591263
0.00483 -0.002067857 -0.0061369902
0.0023657142 0.0048249997 -0.0015905825
-0.0043371427 0.0048249997 -0.0062358254
0.00483 -0.0011816326 -0.0020847572
-0.00483 0.0036433672 -0.0032707767
-0.00483 0.00059081631 -0.0063346601
-0.00049285713 -0.00029540816 -0.0066311653
-0.0030557143 -0.0048249997 -0.0065323301
-0.002562857 0.0040372447 -0.00050339807
-0.0028585715 0.0048249997 -0.0027766021
0.0030557143 -0.0046280609 -0.0063346601
-0.0023657142 0.0048249997 -0.0060381554
0.00483 -0.0044311224 -0.0060381554
-0.00078857143 0.0034464283 -0.00050339807
0.0014785714 -0.0034464283 -0.0065323301
-0.0030557143 -0.0048249997 -0.0014917476
0.0041399999 0.0028556122 -0.0065323301
-0.00049285713 -0.0048249997 -0.0031719417
0.00483 -9.8469383e-05 -0.0055439807
-0.00068999996 0.0048249997 -0.0014917476
-0.0031542857 0.0016739796 -0.00030572814
0.00483 0 -0.0059393202
0.00483 -0.00068928569 -0.00089873787
0.0045342855 0.002067857 -0.0065323301
-0.002562857 9.8469383e-05 -0.00050339807
0.0019714285 0.0048249997 -0.0058404854
-0.00098571426 -0.0010831632 -0.00050339807
-0.00088714284 0.00098469388 -0.00050339807
0.0031542857 -0.0031510203 -0.00050339807
-0.00483 0.0038403061 -0.0060381554
-0.00483 -0.0032494897 -0.00070106797
0.0032528571 0.0048249997 -0.0040614563
0.002562857 0.0048249997 -0.0013929126
0.0032528571 -0.0048249997 -0.0015905825
-0.00483 0.0036433672 -0.0055439807
-0.00483 0.0022647958 -0.0065323301
0.0042385715 -0.0024617347 -0.00020689321
-0.00483 0.0038403061 -0.0058404854
-0.00483 0.0030525508 -0.00079990289
-0.0036471428 -0.0012801019 -0.0065323301
-0.0042385715 0.0048249997 -0.0059393202
-0.003942857 -0.00019693877 -0.0065323301
-0.00483 0.0031510203 -0.0059393202
-0.0046328572 0.0047265305 -0.0026777671
-0.0022671428 0.0022647958 -0.00010805825
0.00483 -0.0036433672 -0.0025789321
-0.00483 -0.0024617347 -0.00030572814
0.0015771429 0.0041357139 -0.0065323301
-0.00059142854 0.0048249997 -0.0031719417
0.0017742857 -0.0048249997 -0.0032707767
-0.00088714284 -0.0048249997 -0.0059393202
-0.0029571429 0.0048249997 -0.0062358254
0.00098571426 -0.0048249997 -0.0031719417
-0.0045342855 -0.0019693878 -0.00030572814
-0.0033514285 -0.0010831632 -0.00050339807
0.00483 0.00019693877 -0.00070106797
0.00483 0.0037418366 -0.0012940777
0 -0.0048249997 -0.0057416507
0.00059142854 -0.0045295916 -0.00050339807
-0.0037457142 0.0021663264 -0.00020689321
-0.00483 -0.0018709183 -0.004357961
0.0043371427 0.0048249997 -0.0062358254
0.0041399999 -0.0022647958 -0.0065323301
0.00483 9.8469383e-05 -0.0048521361
-0.00078857143 -0.0048249997 -0.0052474756
0.0017742857 -0.0018709183 -0.00020689321
-0.00098571426 0.0048249997 -0.0062358254
-0.0033514285 -0.0046280609 -0.0065323301
0.0037457142 0.0016739796 -0.00050339807
-0.00068999996 -0.0048249997 -0.0047533009
-0.0031542857 0.0044311224 -0.00070106797
-0.0011828571 0.0040372447 -0.0065323301
0.0010842857 0.0048249997 -0.00099757279
0.00483 -0.00019693877 -0.0038637863
0.0010842857 0.0048249997 -0.0023812621
0.0047314283 -0.0046280609 -0.0040614563
-0.00483 -0.0039387755 -0.0023812621
0.0043371427 0.0048249997 -0.0021835922
0.0041399999 -0.00068928569 -0.0065323301
-0.00483 9.8469383e-05 -0.0038637863
0.0012814285 -0.0042341836 -0.00050339807
-0.0016757143 0.0014770407 -0.0066311653
0.0042385715 0.0015755101 -0.00050339807
0.00483 -0.00068928569 -0.0050498056
0.00483 0.0037418366 -0.0023812621
0.0041399999 0.0048249997 -0.0013929126
-0.00019714286 -0.0037418366 -0.0065323301
-9.8571429e-05 -0.0048249997 -0.0055439807
-0.00078857143 0.00098469388 -0.0066311653
-0.003942857 -0.0023632653 -0.0065323301
0.00059142854 -0.0028556122 -0.00030572814
0.0037457142 -0.0040372447 -0.00060223299
0.0016757143 0.0048249997 -0.0038637863
0.0021685713 0.0032494897 -0.0066311653
-0.00483 0 -0.0038637863
-0.0030557143 -0.0044311224 -0.0065323301
0.0038442856 0.002067857 -0.00020689321
0.0017742857 -0.0040372447 -0.0065323301
0.00483 -0.0042341836 -0.0021835922
0.00483 -0.0024617347 -0.0029742718
-0.0036471428 -0.0048249997 -0.0014917476
-0.00483 0.0013785714 -0.0035672816
-0.0027599998 -0.0048249997 -0.0020847572
0.00483 -0.00068928569 -0.004555631
0.0042385715 0.0032494897 -0.0065323301
-0.0018728571 0.0048249997 -0.0036661164
0.00483 -0.00088622444 -0.0025789321
-0.0013799999 0.0048249997 -0.0035672816
0.0033514285 -0.0048249997 -0.0010964078
-0.0018728571 0.0017724489 -0.00020689321
0.00483 0.0030525508 -0.0050498056
-0.00483 0.00088622444 -0.0065323301
-0.00029571427 -0.0048249997 -0.0023812621
0.0038442856 0.0048249997 -0.0062358254
0.00483 -0.0012801019 -0.0044567962
-0.00483 0 -0.0039626216
0 -0.0036433672 0.00088029128
0.0047314283 0.0030525508 -0.00050339807
0.00483 -0.0038403061 -0.0062358254
0.0028585715 0.0048249997 -0.0054451455
0.00483 -0.0024617347 -0.0048521361
-0.00483 -0.0039387755 -0.0055439807
0.00483 0.0028556122 -0.0030731068
0.0010842857 0.0045295916 -0.0065323301
-0.00483 -0.00068928569 -0.0035672816
0.0026614284 0.0038403061 0.0021651457
0.0022671428 0.0048249997 -0.0058404854
0.00483 -0.0016739796 -0.0052474756
-0.0035485714 0.0011816326 -0.00050339807
-0.00059142854 0.0048249997 -0.0036661164
0.00483 0.0015755101 -0.004357961
0.003942857 -0.00088622444 -0.00050339807
0.0020699999 0.00088622444 -0.00050339807
0.00088714284 0.0014770407 -0.00050339807
-0.0026614284 0.0037418366 0.0009791262
-0.0019714285 0.00098469388 -0.0066311653
-0.00078857143 -0.00019693877 -0.00050339807
-0.00483 0.0023632653 -0.0022824272
0.00345 -0.00029540816 -0.00050339807
0.0029571429 0.0038403061 -9.2233013e-06
-0.0029571429 -0.0048249997 -0.00099757279
0.00059142854 -0.00049234694 -0.00050339807
-0.0028585715 0.0048249997 -0.0036661164
-0.0024642856 -0.0048249997 -0.0031719417
-0.00483 0.0016739796 -0.00089873787
0.0013799999 0.0031510203 -0.00050339807
0.00088714284 0.0048249997 -0.0054451455
0.0045342855 0.0048249997 -0.0025789321
0.0017742857 0.0048249997 -0.0033696117
-0.0035485714 -0.0048249997 -0.0032707767
0.0036471428 0.0048249997 -0.0063346601
0.00483 -0.0013785714 -0.0052474756
0.0016757143 0.0015755101 -0.0066311653
-0.0017742857 0.0031510203 -0.00050339807
-9.8571429e-05 0.0048249997 -0.0010964078
-0.0031542857 -0.0010831632 -0.0065323301
0.00088714284 -0.0048249997 -0.0016894175
-0.0012814285 0.0013785714 -0.0066311653
0.0013799999 0.0048249997 -0.0014917476
0.00483 0.002067857 -0.004160291
0.0017742857 -0.0048249997 -0.0025789321
0.00483 0.00078775507 -0.0054451455
0.0010842857 0.0048249997 -0.0010964078
0 -0.0039387755 0.0009791262
0.00483 -0.0018709183 -0.0056428155
0.0045342855 -0.0028556122 -0.00050339807
0.00483 0.0039387755 -0.0056428155
0.0016757143 0.00019693877 -0.00050339807
0.0031542857 -0.0048249997 -0.0055439807
0.0035485714 -0.0048249997 -0.00079990289
0.0042385715 0.0046280609 -0.00060223299
-0.0031542857 -0.00078775507 -0.00050339807
0.0013799999 -0.0047265305 -0.0065323301
0.0021685713 -0.0014770407 -0.00050339807
0.00483 -0.0012801019 -0.0042591263
0.0022671428 -0.0037418366 -0.00020689321
0.00068999996 -0.0023632653 -0.0066311653
-0.0023657142 0.0038403061 0.0016709709
0.00483 -0.0026586733 -0.0017882524
-0.00483 0.0034464283 -0.0052474756
0.00078857143 -0.0048249997 -0.0052474756
0.00483 0.0031510203 -0.0013929126
