# .PCD v0.7 - Point Cloud Data file format
VERSION 0.7
FIELDS x y z
SIZE 4 4 4
TYPE F F F
COUNT 1 1 1
WIDTH 1166
HEIGHT 1
VIEWPOINT 0 0 0 1 0 0 0
POINTS 1166
DATA ascii
-0.0017290729 -0.0049000001 -0.0015474646
0.0078768879 -0.0023210526 -0.00013605626
-0.00032019868 -0.0049000001 -0.0046269014
0.0089015234 -0.0047710529 -0.0047552111
0.00070443709 -0.0023210526 -0.0057816901
-0.0090296026 -0.0049000001 -0.0048835208
0.0053152982 0.0049000001 -0.0028305633
-0.0096700005 0.0037394739 -0.003087183
0.0096700005 0.0046421052 -0.0036004223
0.0014729139 0.0049000001 -0.001290845
-0.0049310597 0.0049000001 -0.0042419718
0.00032019868 0.0049000001 -0.0052684504
0.0019852319 -0.0049000001 -0.0042419718
0.0053152982 0.0033526316 -0.0057816901
-0.0035221854 0.001418421 -0.00039267598
0.0027537087 -0.0037394739 -0.0057816901
-0.0027537087 0.00051578949 -0.00052098581
-0.0073645697 0.00012894737 -0.0057816901
0.0037783445 0.0036105264 -0.00013605626
-0.0083892057 0.001418421 -0.00013605626
0.0091576818 -0.0047710529 -0.0025739435
0.0046749008 0.0049000001 -0.0014191548
0.004162583 0.0049000001 -0.0042419718
-0.009285762 0.003481579 -0.00064929569
0.0032660265 -0.0015473685 -0.00026436613
0.0094138412 -0.0028368421 -0.00064929569
-0.0096700005 0.00038684212 -0.0028305633
-0.001216755 -0.00038684212 -0.0057816901
0.00044827815 0.0049000001 -0.0038570422
0.0076207286 -0.0019342105 -0.0057816901
0.0026256291 0.004513158 -0.00052098581
0.0027537087 0.00038684212 -0.0057816901
0.0040345034 0.0049000001 -0.0053967605
0.0019852319 -0.0012894737 -0.0057816901
-0.00070443709 -0.0032236844 -0.0057816901
-0.0050591393 0.0011605263 -0.0057816901
0.00032019868 -0.00245 -0.0057816901
0.0035221854 0.0039973683 -0.00026436613
0.0053152982 0.0046421052 -0.00052098581
0.00032019868 -0.0027078949 -0.00052098581
0.0040345034 -0.0049000001 -0.0023173238
-0.0016009934 0.0032236844 -0.00052098581
0.0086453641 0.0047710529 -0.0052684504
0.0030098676 0.0039973683 -0.0057816901
0.0031379471 0.0049000001 -0.00052098581
-0.0046749008 0.001418421 -0.00039267598
0.009285762 -0.00038684212 -0.0027022534
0.00032019868 0.0049000001 -0.0032154927
0.0096700005 0.00245 -0.0009059154
-0.0050591393 0.0025789475 -0.0057816901
-0.0091576818 -0.0029657895 -0.00064929569
0.0068522519 0.0049000001 -0.0050118309
0.0031379471 -0.0049000001 -0.0028305633
0.0090296026 -0.0047710529 -0.0041136616
-0.003650265 0.0037394739 -0.0057816901
0.00057635765 -0.0028368421 -0.0057816901
-0.0050591393 -0.0039973683 -0.00039267598
-0.0022413908 -0.0023210526 -0.0057816901
0.0051872185 0.0011605263 -0.00052098581
0.00044827815 -0.004513158 -0.00052098581
-0.0032660265 -0.0025789475 -0.0057816901
-0.0096700005 0.00051578949 -0.0023173238
0.0021133113 -0.003094737 -0.00052098581
0.0060837748 0.001031579 -0.00052098581
-0.00723649 0.00025789475 -0.00052098581
0.0024975496 0.0049000001 -0.0042419718
-0.004162583 -0.0025789475 -0.0057816901
0.0017290729 0.00245 -0.00026436613
-0.0049310597 0.0012894737 -0.0057816901
0.00723649 0.0049000001 -0.0028305633
0.0094138412 -0.0012894737 -0.0044985912
0.00480298 0.0049000001 -0.0037287322
-0.0094138412 0.004513158 -0.00565338
0.0068522519 0.002063158 -0.0057816901
0.0026256291 0.0038684211 0.0020452114
-0.0076207286 -0.003481579 -0.0057816901
0.0078768879 0.0049000001 -0.0023173238
-0.0067241723 0.0015473685 -0.0057816901
-0.0059556956 -0.0049000001 -0.00565338
-0.0017290729 -0.003094737 -0.0057816901
-0.0054433774 -0.0019342105 -0.0057816901
0.0059556956 0.0049000001 -0.00565338
-0.0083892057 -0.00012894737 -0.00052098581
0.0059556956 -0.0047710529 -0.00565338
-0.0042906622 0 -0.00052098581
0.0050591393 -0.0023210526 -0.00026436613
-0.00057635765 0.0049000001 -0.0023173238
0.0016009934 -0.00090263161 -0.0057816901
0.0028817882 -0.0037394739 -0.0057816901
-0.0095419204 -0.0029657895 -0.00064929569
-0.0091576818 -0.0049000001 -0.001290845
0.0046749008 -0.0049000001 -0.00565338
0.0017290729 0.0049000001 -0.0027022534
0.00480298 -0.0049000001 -0.00077760557
-0.0096700005 0.0028368421 -0.0010342252
0.0071084108 0.0049000001 -0.0033438026
-0.0096700005 0.0027078949 -0.0018040844
0.0019852319 0.00025789475 -0.0057816901
0.0096700005 0.0046421052 -0.0016757746
0.0078768879 -0.004513158 -0.00565338
0.0045468211 0.003481579 -0.00052098581
0.0069803311 -0.004513158 -0.00565338
-0.0062118545 -0.004513158 -0.0057816901
0.0069803311 0.0011605263 -0.0057816901
0.0095419204 -0.002063158 -0.0050118309
-0.0050591393 0.00012894737 -0.0057816901
0.0076207286 0.0032236844 -0.00052098581
0.0064680134 0.0012894737 -0.0057816901
-0.0067241723 -0.0018052632 -7.7464083e-06
-0.0051872185 0.00090263161 -0.0057816901
-0.0010886755 0.0019342105 -7.7464083e-06
-0.0051872185 -0.0037394739 0.00024887332
0.00480298 0.0049000001 -0.0023173238
0.00070443709 -0.0036105264 -0.00052098581
-0.0083892057 -0.0023210526 -0.00039267598
-0.0086453641 -0.0018052632 -0.00026436613
-0.0089015234 -0.0012894737 -0.00052098581
-0.0082611255 -0.0049000001 -0.0044985912
0.0095419204 0.0028368421 -0.0024456338
-0.0096700005 0.00077368424 -0.0024456338
-0.0054433774 0.0038684211 -0.00039267598
-0.0013448345 0.0049000001 -0.0011625352
-0.0068522519 -0.0036105264 -0.00052098581
-0.0096700005 -0.00245 -0.0055250702
-0.0090296026 0.0047710529 -0.0027022534
0.0054433774 -0.0049000001 -0.0028305633
0.0037783445 -0.0049000001 -0.0039853519
-0.0096700005 -0.00245 -0.003087183
-0.0096700005 0.0021921054 -0.00077760557
0.0094138412 -0.004513158 -0.0050118309
-0.0045468211 0.0049000001 -0.0025739435
-0.0001921192 0.004513158 -0.00565338
0.0069803311 -0.00025789475 -0.00052098581
-6.4039734e-05 -0.0016763158 -7.7464083e-06
-0.0096700005 0.0011605263 -0.0036004223
-0.001216755 0.0049000001 -0.0010342252
0.0085172849 -0.0047710529 -0.0046269014
0.009285762 0.00090263161 -0.0019323942
0.0069803311 -0.0049000001 -0.0044985912
-0.0063399337 -0.0015473685 -0.0057816901
0.0065960926 0.0049000001 -0.0046269014
0.0096700005 -0.0027078949 -0.0011625352
0.0086453641 0.0047710529 -0.0027022534
0.0026256291 -0.0049000001 -0.0010342252
-0.0096700005 0.00038684212 -0.0025739435
-0.0081330463 -0.0049000001 -0.0023173238
0.0096700005 -0.001418421 -0.00565338
0.0060837748 -0.0027078949 -0.0057816901
0.0081330463 0.0015473685 -0.00026436613
0.0062118545 -0.00064473687 -0.00052098581
0.0022413908 0.0049000001 -0.0028305633
-0.0019852319 -0.0036105264 -0.00039267598
0.0001921192 0.0049000001 -0.0038570422
0.0022413908 0.001031579 -0.0057816901
-0.0014729139 -0.0049000001 -0.0027022534
0.0051872185 -0.0049000001 -0.0044985912
0.0037783445 -0.0015473685 -0.00026436613
0.0017290729 -0.001418421 -7.7464083e-06
0.0074926489 0.0047710529 -0.0057816901
-0.0049310597 0.0037394739 0.00037718317
-0.0067241723 -0.0028368421 -0.00052098581
0.0016009934 -0.003481579 -0.0057816901
0.0094138412 -0.00090263161 -0.0042419718
-0.0031379471 -0.0041263159 -0.00052098581
0.004162583 -0.0033526316 -0.0057816901
0.0031379471 -0.0038684211 -7.7464083e-06
0.0067241723 -0.0041263159 -0.00052098581
0.00723649 -0.0029657895 -0.00052098581
6.4039734e-05 0.0049000001 -0.003087183
0.00480298 0.0019342105 -0.0057816901
0.00070443709 0.002063158 -7.7464083e-06
0.0044187419 -0.0049000001 -0.0041136616
0.0031379471 -0.0023210526 -0.00013605626
-0.0068522519 0.0038684211 -0.00565338
0.0055714571 0.0036105264 -0.00013605626
-0.0096700005 -0.0028368421 -0.0027022534
6.4039734e-05 0.0037394739 0.00012056345
-0.0055714571 0.0037394739 -0.00565338
0.0080049671 -0.0027078949 -0.0057816901
0.00070443709 0.0037394739 -0.0057816901
-0.0042906622 0.00012894737 -0.00052098581
-0.0053152982 -0.00090263161 -0.00052098581
-0.0059556956 0.0021921054 -7.7464083e-06
0.0018571523 -0.00051578949 -0.0057816901
0.0068522519 0.00077368424 -0.0057816901
0.0021133113 0.0032236844 -0.00052098581
-0.0073645697 0.0049000001 -0.0015474646
0.0031379471 0.0049000001 -0.0046269014
-0.0068522519 0.00077368424 -0.00052098581
0.0095419204 0.00077368424 -0.0053967605
-0.0024975496 -0.0049000001 -0.0019323942
-0.0065960926 0.0042552631 -0.00565338
-0.0053152982 0.0027078949 -0.00052098581
0.0028817882 -0.00090263161 -0.00052098581
-0.0060837748 -0.0037394739 -0.0057816901
-0.0017290729 0.0049000001 -0.0036004223
-0.0013448345 0.002063158 -0.0057816901
-0.0068522519 -0.0039973683 -0.00013605626
-0.0044187419 -0.0049000001 -0.0042419718
0.0096700005 -0.003094737 -0.0034721126
-0.0040345034 -0.00077368424 -0.0057816901
0.0021133113 0.0049000001 -0.0046269014
-0.0069803311 -0.00077368424 -0.0057816901
-0.0067241723 0.0018052632 -0.0057816901
-0.0069803311 -0.00012894737 -0.00052098581
-0.00044827815 -0.00064473687 -0.00052098581
0.0077488082 0.0049000001 -0.0038570422
0.0030098676 -0.0015473685 -7.7464083e-06
-0.0035221854 0.0028368421 -0.00052098581
-0.0063399337 -0.0023210526 -0.00013605626
-0.001216755 -0.0032236844 -0.0057816901
0.0091576818 0.0046421052 -0.0036004223
-0.0023694702 0.0032236844 -0.0057816901
-0.00723649 0.0029657895 -0.00052098581
0.0001921192 -0.0049000001 -0.0039853519
0.0032660265 -0.0042552631 -0.00052098581
-0.0018571523 0.00245 -0.00052098581
0.0054433774 -0.0049000001 -0.0042419718
0.00057635765 -0.0039973683 -0.00052098581
-0.0051872185 -0.0049000001 -0.00077760557
0.001216755 0.0042552631 -0.00052098581
-0.0001921192 0.0046421052 -0.00052098581
0.0016009934 0.0033526316 -0.0057816901
-0.0033941059 -0.0011605263 -0.00052098581
0.0021133113 -0.0033526316 -0.00052098581
0.0069803311 0.001031579 -0.00052098581
-0.0040345034 0.0049000001 -0.0037287322
0.0053152982 0.0049000001 -0.0023173238
-0.005827616 -0.0046421052 -0.00052098581
0.0055714571 0.0023210526 -0.00026436613
0.0095419204 0.0043842108 -0.00565338
0.0019852319 0.0039973683 -0.0057816901
-0.0060837748 0.00025789475 -0.0057816901
-0.0024975496 0.00077368424 -0.0057816901
0.0096700005 0.0043842108 -0.0025739435
0.00096059602 -0.0037394739 -0.0057816901
0.003650265 0.0039973683 -7.7464083e-06
-0.0023694702 -0.0049000001 -0.0016757746
-0.0027537087 -0.0043842108 -0.0057816901
0.001216755 -0.00025789475 -0.00052098581
0.0031379471 -0.0038684211 -0.00013605626
-0.0096700005 -0.00077368424 -0.0018040844
0.009285762 0.00025789475 -0.0020607042
-0.0074926489 0.0037394739 -0.00026436613
0.0059556956 -0.0046421052 -0.00565338
-0.0053152982 -0.0021921054 -0.0057816901
-0.0062118545 0.0049000001 -0.0036004223
0.00044827815 -0.0049000001 -0.0053967605
0.0040345034 0.0049000001 -0.0041136616
-0.0094138412 0.001418421 -0.0057816901
-0.0096700005 0.0011605263 -0.0051401407
-0.0081330463 0.0049000001 -0.00077760557
-0.0081330463 -0.00051578949 -0.00052098581
-0.0096700005 -0.00090263161 -0.0025739435
0.0014729139 0.0049000001 -0.00052098581
-0.0096700005 0.002063158 -0.0011625352
0.0067241723 0.00245 -0.00026436613
-0.0064680134 -0.0049000001 -0.0032154927
0.0027537087 -0.00090263161 -0.0057816901
-0.0080049671 -0.0033526316 -0.0057816901
0.00480298 0.00025789475 -0.00052098581
0.0062118545 0.0036105264 -0.00039267598
0.0059556956 0.003481579 -0.00052098581
0.0045468211 0.00012894737 -0.00052098581
0.0065960926 0.0047710529 -0.00052098581
-0.0078768879 0.0023210526 -0.00039267598
0.0028817882 -0.0029657895 -0.0057816901
0.0031379471 0.00090263161 -0.00052098581
0.001216755 0.003481579 -0.0057816901
-0.0094138412 -0.0049000001 -0.0021890139
-6.4039734e-05 0.0019342105 -0.0057816901
-0.0018571523 -0.004513158 -0.0057816901
-0.00070443709 -0.0049000001 -0.0046269014
-0.0090296026 0.0047710529 -0.0023173238
0.004162583 -0.0012894737 -0.0057816901
0.0024975496 0.004513158 -0.0057816901
-0.00083251658 -0.00077368424 -0.00052098581
-0.0056995363 -0.00051578949 -0.0057816901
0.009285762 0.00077368424 -0.0036004223
-0.0014729139 0.0049000001 -0.00052098581
-0.0096700005 0.0043842108 -0.0052684504
-0.0096700005 0.00012894737 -0.0025739435
0.0096700005 -0.0023210526 -0.0055250702
-0.0063399337 -0.0049000001 -0.0033438026
-0.0014729139 0.0049000001 -0.0041136616
-0.0040345034 0.0049000001 -0.0028305633
-0.0090296026 -0.0029657895 -0.00565338
-0.0010886755 0.003481579 -0.00052098581
-0.0094138412 -0.0046421052 -0.0043702815
-0.0033941059 0.0011605263 -0.00052098581
0.0064680134 -0.0018052632 -7.7464083e-06
0.0096700005 -0.0039973683 -0.0048835208
0.0030098676 0.0036105264 -0.00013605626
-0.001216755 -0.00012894737 -0.00052098581
-0.0014729139 0.0049000001 -0.00565338
0.0069803311 -0.0023210526 -0.0057816901
-0.004162583 -0.0023210526 -0.00026436613
-0.0030098676 0.0049000001 -0.0041136616
0.009285762 -0.00038684212 -0.00064929569
0.0054433774 0.0043842108 -0.00052098581
-0.0089015234 0.0047710529 -0.00565338
-0.0054433774 0.0046421052 -0.00565338
0.0021133113 -0.0049000001 -0.0046269014
0.0051872185 0.0049000001 -0.0047552111
0.0071084108 0.00245 -0.00026436613
-0.0028817882 0.0011605263 -0.0057816901
-0.0014729139 -0.0028368421 -0.0057816901
-0.0096700005 0.00051578949 -0.0044985912
0.0080049671 0.0049000001 -0.0034721126
-0.0064680134 -0.00245 -0.0057816901
0.0096700005 0.0043842108 -0.003087183
0.0062118545 0.00025789475 -0.0057816901
-0.0083892057 0.002063158 -7.7464083e-06
0.0056995363 -0.00012894737 -0.0057816901
0.0019852319 -0.0021921054 -7.7464083e-06
0.0082611255 0.0012894737 -0.00052098581
-0.0021133113 0.0047710529 -0.00052098581
0.0030098676 0.0049000001 -0.0032154927
-0.00723649 -0.001418421 -0.0057816901
-6.4039734e-05 0.0037394739 0.001403662
0.0039064237 0.0021921054 -7.7464083e-06
0.0077488082 0.0049000001 -0.0051401407
0.0073645697 0.0049000001 -0.0034721126
0.00057635765 -0.0016763158 -0.0057816901
0.0082611255 -0.0023210526 -7.7464083e-06
-0.001216755 -0.0021921054 -7.7464083e-06
-0.0096700005 -0.00025789475 -0.0028305633
0.0083892057 0.0047710529 -0.0055250702
0.0016009934 -0.0015473685 -0.00013605626
0.0014729139 -0.0033526316 -0.00052098581
-0.0089015234 -0.00077368424 -0.0057816901
-0.0032660265 -0.00245 -0.0057816901
-0.0017290729 0.003481579 -0.00052098581
-0.00070443709 0.0049000001 -0.0038570422
-0.0095419204 -0.0046421052 -0.0055250702
-0.0080049671 0.0049000001 -0.0020607042
0.0050591393 -0.0049000001 -0.0029588731
0.00032019868 -0.0038684211 -0.00039267598
0.0073645697 0.0049000001 -0.0029588731
0.0010886755 0.0023210526 -0.0057816901
0.00070443709 0.0027078949 -0.0057816901
-0.0096700005 0 -0.0048835208
0.0028817882 0.0038684211 -7.7464083e-06
-0.00070443709 -0.0049000001 -0.0038570422
-0.0094138412 0.001418421 -0.00064929569
-0.005827616 -0.0049000001 -0.0014191548
0.0062118545 -0.0049000001 -0.0046269014
0.0035221854 -0.002063158 -7.7464083e-06
0.0019852319 0.0036105264 -0.0057816901
-0.0082611255 -0.0049000001 -0.00077760557
-0.0040345034 -0.0049000001 -0.0046269014
-0.0001921192 0.0049000001 -0.00064929569
-0.0076207286 0.0046421052 -0.00565338
0.0095419204 0.00038684212 -0.0055250702
0.00096059602 0.0049000001 -0.00064929569
0.0096700005 0.0012894737 -0.0055250702
-0.0074926489 -0.0018052632 -7.7464083e-06
0.0096700005 -0.0042552631 -0.00565338
-6.4039734e-05 -0.0046421052 -0.00052098581
-0.0010886755 -0.0049000001 -0.0037287322
0.0059556956 -0.0015473685 -7.7464083e-06
0.0089015234 0 -0.0057816901
6.4039734e-05 0.0037394739 0.0026867606
0.0094138412 0.0046421052 -0.0021890139
-0.00070443709 -0.0038684211 -0.00039267598
-0.0071084108 0.0032236844 -0.0057816901
-0.0050591393 0.0049000001 -0.00077760557
0.0071084108 0.0049000001 -0.0046269014
0.0094138412 0.0015473685 -0.0024456338
0.0071084108 -0.0016763158 -7.7464083e-06
-0.0094138412 0.0032236844 -0.00565338
0.005827616 -0.0039973683 -0.00565338
0.0022413908 0.0049000001 -0.0037287322
0.0081330463 -0.0049000001 -0.0043702815
-0.0055714571 -0.0021921054 -0.0057816901
-0.004162583 0.0049000001 -0.00077760557
6.4039734e-05 0.0032236844 -0.00052098581
-0.00032019868 0.0049000001 -0.0028305633
-0.0013448345 0.0015473685 -0.0057816901
0.0074926489 -0.003481579 -0.00052098581
-0.0062118545 -0.0049000001 -0.0055250702
-0.0090296026 -0.003481579 -0.0057816901
-0.0032660265 -0.0011605263 -0.00052098581
-0.0096700005 -0.0041263159 -0.0011625352
0.0055714571 0.00012894737 -0.0057816901
-0.0021133113 -0.0049000001 -0.0044985912
-0.0039064237 -0.0043842108 -0.0057816901
0.0096700005 0.003094737 -0.0015474646
0.0046749008 -0.0011605263 -0.0057816901
0.0095419204 -0.001418421 -0.0028305633
0.0060837748 0.003481579 -0.0057816901
-0.0013448345 -0.0016763158 -7.7464083e-06
-0.00032019868 0.0025789475 -0.0057816901
0.005827616 -0.0049000001 -0.0023173238
0.0089015234 -0.0043842108 -0.0025739435
0.0051872185 0.00012894737 -0.0057816901
0.00070443709 -0.0046421052 -0.00052098581
0.0085172849 -0.0025789475 -0.0057816901
0.0086453641 -0.0047710529 -0.0048835208
0.00057635765 0.0023210526 -0.00013605626
-0.0001921192 -0.0049000001 -0.0015474646
0.0016009934 0.0027078949 -0.0057816901
0.0095419204 0.0047710529 -0.0009059154
0.0082611255 -0.003094737 -0.00565338
6.4039734e-05 0.0037394739 0.002430141
0.0077488082 0.0042552631 -0.00052098581
-0.0028817882 -0.001031579 -0.0057816901
0.0037783445 0.0049000001 -0.0052684504
-0.0014729139 -0.0049000001 -0.0051401407
0.0071084108 0.0049000001 -0.00077760557
0.0028817882 0.0041263159 -0.00052098581
0.0032660265 0.00077368424 -0.0059099998
0.0096700005 0.003094737 -0.0024456338
-0.00723649 -0.002063158 -0.0057816901
-0.0096700005 -0.002063158 -0.0042419718
-0.0095419204 0.004513158 -0.0027022534
0.0054433774 -0.002063158 -0.0057816901
0.0024975496 0.0037394739 0.002301831
0.0018571523 0.00051578949 -0.0057816901
0.0069803311 0.00090263161 -0.0057816901
0.0068522519 -0.0028368421 -0.00052098581
-0.0065960926 -0.0011605263 -0.0057816901
0.0094138412 -0.00051578949 -0.00565338
0.0077488082 -0.0015473685 -0.00026436613
-0.0089015234 -0.0025789475 -0.00064929569
0.0091576818 0.0039973683 -0.00565338
-0.0016009934 -0.0023210526 -0.00013605626
0.0086453641 -0.001418421 -0.00039267598
0.0094138412 0.0047710529 -0.00565338
-0.0018571523 -0.003094737 -0.0057816901
0.0059556956 0.0049000001 -0.0052684504
-0.0096700005 -0.001031579 -0.003087183
-0.0039064237 0.0023210526 -0.00039267598
0.009285762 0.00025789475 -0.0050118309
-0.0096700005 0.0021921054 -0.0023173238
0.009285762 0.00012894737 -0.0044985912
-0.0014729139 -0.0033526316 -0.00052098581
0.0086453641 -0.0043842108 -0.0036004223
0.00057635765 -0.004513158 -0.00052098581
0.0044187419 -0.00025789475 -0.00052098581
0.0094138412 -0.0047710529 -0.0046269014
0.0023694702 0.0049000001 -0.0032154927
-0.0054433774 -0.0028368421 -0.00052098581
-0.0056995363 -0.0049000001 -0.0018040844
-0.0085172849 -0.001031579 -0.00052098581
0.0095419204 -0.0042552631 -0.0024456338
6.4039734e-05 0.0023210526 -7.7464083e-06
-0.0064680134 0.0049000001 -0.0048835208
-0.0019852319 -0.0036105264 -0.00026436613
0.0095419204 -0.0042552631 -0.003087183
-0.0010886755 0.0018052632 -7.7464083e-06
-0.0096700005 0.0038684211 -0.0039853519
0.0062118545 0.0049000001 -0.00052098581
0.0071084108 0.0016763158 -0.0057816901
0.0086453641 0.002063158 -0.0057816901
-0.0089015234 -0.0038684211 -0.0057816901
-0.00096059602 -0.0049000001 -0.0050118309
0.001216755 0.00245 -0.00026436613
0.00057635765 0.0037394739 -7.7464083e-06
0.0035221854 -0.004513158 -0.00052098581
0.0071084108 0.0032236844 -0.00052098581
0.0013448345 -0.0027078949 -0.00052098581
0.0094138412 0.002063158 -0.0021890139
0.0021133113 -0.0027078949 -0.00052098581
-0.0050591393 -0.0049000001 -0.00077760557
-0.0080049671 -0.00064473687 -0.00052098581
-0.0001921192 -0.0038684211 -0.0057816901
-0.00723649 0.0038684211 -0.00026436613
-0.00096059602 0.0025789475 -0.0057816901
-0.0080049671 -0.0015473685 -0.00013605626
-0.0044187419 -0.001418421 -0.00052098581
-0.0065960926 0.0018052632 -0.0057816901
0.0073645697 0.001031579 -0.00052098581
-0.0077488082 0.0025789475 -0.00052098581
-0.0085172849 0.0047710529 -0.00077760557
-0.00044827815 -0.004513158 -0.00052098581
0.00070443709 0.003481579 -0.00052098581
0.0051872185 0.0038684211 0.00063380285
0.0087734442 -0.0047710529 -0.0051401407
0.0013448345 0.0049000001 -0.0047552111
-0.0078768879 -0.0029657895 -0.00052098581
0.0044187419 0.0015473685 -0.00039267598
0.00044827815 0.001418421 -0.00039267598
0.0078768879 0 -0.00052098581
0.0033941059 -0.003094737 -0.00052098581
-0.0051872185 0.0038684211 0.0012753522
-0.0096700005 0.0016763158 -0.0029588731
-0.0053152982 0.0049000001 -0.0037287322
-0.0016009934 0.00038684212 -0.00052098581
-0.0068522519 -0.0025789475 -0.0057816901
-0.0071084108 0.0011605263 -0.00052098581
-0.0095419204 -0.0027078949 -0.00565338
0.0037783445 0.0039973683 -0.00039267598
0.0094138412 -0.001031579 -0.0021890139
0.0078768879 -0.0049000001 -0.0042419718
0.0001921192 0.0049000001 -0.00052098581
0.00032019868 -0.0012894737 -0.00052098581
-6.4039734e-05 0.0037394739 -0.00013605626
-0.0023694702 -0.0049000001 -0.00064929569
-0.005827616 -0.0021921054 -0.0057816901
0.00032019868 -0.0038684211 -7.7464083e-06
0.0076207286 -0.0033526316 -0.00565338
0.0080049671 -0.00051578949 -0.00052098581
-0.0014729139 0.0049000001 -0.0043702815
0.0018571523 -0.0028368421 -0.0057816901
-0.0022413908 -0.0019342105 -7.7464083e-06
0.0067241723 0.0049000001 -0.0025739435
0.0042906622 -0.0049000001 -0.0009059154
-0.00044827815 -0.0049000001 -0.0037287322
-0.0031379471 -0.0049000001 -0.0048835208
0.0055714571 0.0043842108 -0.00052098581
0.0090296026 0.0036105264 -0.00064929569
0.0028817882 0.0049000001 -0.0039853519
0.0035221854 -0.003481579 -0.0057816901
0.00044827815 0.003481579 -0.00052098581
0.0001921192 0.0049000001 -0.0016757746
-0.0076207286 -0.00064473687 -0.0057816901
-0.0031379471 0.001418421 -0.0057816901
-0.0023694702 0.00051578949 -0.0057816901
-0.0019852319 0.0049000001 -0.0032154927
0.0082611255 -0.0036105264 -0.00052098581
0.00480298 -0.0029657895 -0.00052098581
0.0026256291 -0.0037394739 -0.00039267598
0.0067241723 -0.0023210526 -0.00039267598
-0.0044187419 -0.0038684211 -0.0057816901
-0.0096700005 0 -0.0011625352
-0.0053152982 -0.00025789475 -0.0057816901
0.003650265 0.0023210526 -7.7464083e-06
0.0044187419 0.003481579 -0.0057816901
0.0080049671 0.0049000001 -0.00064929569
0.009285762 0.001031579 -0.0048835208
0.0096700005 0.00025789475 -0.0055250702
-0.0096700005 0.00025789475 -0.00565338
0.0085172849 -0.0033526316 -0.00052098581
-0.0078768879 -0.0049000001 -0.0043702815
-0.0096700005 0.0025789475 -0.0037287322
-0.0086453641 -0.0019342105 -0.0057816901
-0.009285762 -0.0049000001 -0.0034721126
-0.0082611255 0.0021921054 -7.7464083e-06
-0.0039064237 -0.0038684211 -0.0057816901
-0.0026256291 -0.0018052632 -0.0057816901
-0.0096700005 -0.00012894737 -0.0010342252
0.0044187419 0.0016763158 -0.0057816901
-0.0053152982 -0.0039973683 -0.00052098581
-0.0078768879 -0.0049000001 -0.0042419718
-0.0019852319 -0.003481579 -0.00052098581
-0.0050591393 -0.0049000001 -0.0036004223
0.0053152982 0.00090263161 -0.0057816901
0.0024975496 0.0047710529 -0.00052098581
-0.0013448345 0.0016763158 -7.7464083e-06
-0.0027537087 -0.0028368421 -0.00052098581
-0.0016009934 -0.0049000001 -0.0053967605
-0.0065960926 -0.0015473685 -0.00039267598
0.0068522519 -0.0015473685 -0.00026436613
0.0013448345 0.003094737 -0.0057816901
-0.0073645697 -0.0049000001 -0.0047552111
-0.0090296026 -0.0016763158 -0.0057816901
0.0069803311 -0.0046421052 -0.00565338
-0.0031379471 -0.00090263161 -0.00052098581
-0.0071084108 -0.0049000001 -0.0055250702
-0.0016009934 -0.0049000001 -0.003087183
-0.0096700005 0.0041263159 -0.0009059154
0.0071084108 0 -0.0057816901
0.0081330463 0.0037394739 -0.00026436613
-0.0031379471 0.0049000001 -0.0051401407
-0.0096700005 0.0012894737 -0.0034721126
0.00723649 -0.0047710529 -0.00077760557
-0.0054433774 0.001418421 -0.0057816901
-0.0013448345 0.0038684211 -0.0057816901
-0.0096700005 -0.001031579 -0.0009059154
0.009285762 -0.00038684212 -0.003087183
0.009285762 0 -0.0023173238
-0.0076207286 -0.0049000001 -0.0036004223
-0.0032660265 -0.002063158 -0.0057816901
0.0051872185 -0.0049000001 -0.0047552111
0.0096700005 -0.0033526316 -0.0010342252
0.0074926489 0.0037394739 -0.00026436613
-0.0050591393 0.0036105264 -0.0057816901
-0.0096700005 0.003094737 -0.0029588731
-0.0073645697 -0.0049000001 -0.0014191548
0.004162583 -0.00051578949 -0.00052098581
0.0045468211 0.0021921054 -0.0057816901
0.0094138412 0.001418421 -0.00064929569
0.0086453641 0.0033526316 -0.0057816901
0.001216755 -0.0041263159 -0.0057816901
0.0067241723 -0.0018052632 -7.7464083e-06
0.0045468211 -0.0041263159 -0.00052098581
0.0044187419 0.0023210526 -0.00013605626
-0.0023694702 -0.0049000001 -0.001290845
0.0068522519 -0.0016763158 -7.7464083e-06
-0.0014729139 0.0049000001 -0.0039853519
0.0086453641 -0.0019342105 -0.00039267598
-0.0022413908 -0.00012894737 -0.00052098581
0.0013448345 0.003094737 -0.00052098581
-0.0095419204 0.0046421052 -0.0046269014
0.0082611255 0.0047710529 -0.0044985912
0.0068522519 -0.0049000001 -0.0036004223
-0.0064680134 -0.0028368421 -0.00052098581
0.0076207286 0.0046421052 -0.00064929569
0.0062118545 -0.0033526316 -0.0057816901
0.0028817882 -0.0049000001 -0.0055250702
0.0065960926 0.0049000001 -0.0033438026
0.0053152982 -0.0039973683 -0.00565338
-0.0032660265 0.0049000001 -0.0027022534
0.0042906622 0.00090263161 -0.0057816901
0.0096700005 0.003481579 -0.0016757746
0.0065960926 -0.0049000001 -0.0036004223
-0.0039064237 -0.0015473685 -0.00026436613
0.0046749008 0.0016763158 -0.0057816901
-0.00096059602 0.003094737 -0.0057816901
0.0065960926 -0.0037394739 -0.00565338
0.0039064237 0.0049000001 -0.0048835208
0.0045468211 0.0025789475 -0.0057816901
0.0081330463 0.0038684211 -0.00039267598
-0.0096700005 0.0027078949 -0.00565338
0.0030098676 0.0025789475 -0.00052098581
-0.0074926489 -0.0049000001 -0.0023173238
-0.0045468211 -0.0049000001 -0.0019323942
0.0017290729 -0.0019342105 -0.0057816901
0.0030098676 -0.003481579 -0.00052098581
0.0083892057 0.0028368421 -0.00052098581
-0.0037783445 0.00077368424 -0.0057816901
-0.0085172849 -0.00012894737 -0.0057816901
0.0016009934 0.0018052632 -7.7464083e-06
0.0016009934 0.0011605263 -0.00052098581
-0.0021133113 0.0049000001 -0.00565338
-0.00096059602 -0.0021921054 -0.0057816901
-0.00480298 -0.0039973683 -0.00013605626
-0.0082611255 0.0046421052 -0.00565338
-0.0040345034 0.0037394739 -0.0057816901
0.0080049671 0.0012894737 -0.0057816901
-0.0090296026 0.003481579 -0.00565338
0.0051872185 0.0016763158 -0.0057816901
-6.4039734e-05 0.0049000001 -0.00064929569
0.0068522519 0.003094737 -0.0057816901
0.0039064237 -0.0049000001 -0.0029588731
0.0013448345 0.0039973683 -0.00039267598
0.0085172849 -0.0036105264 -0.00565338
0.0067241723 0.003094737 -0.00052098581
-0.0078768879 0.0015473685 -0.0057816901
-0.0010886755 -0.0049000001 -0.0023173238
-0.0086453641 0.003481579 -0.00565338
0.0054433774 -0.0027078949 -0.0057816901
0.0095419204 -0.0019342105 -0.0011625352
-0.005827616 -0.00245 -0.00052098581
0.0096700005 -0.00038684212 -0.0055250702
0.0016009934 -0.0037394739 -0.0057816901
-6.4039734e-05 -0.0037394739 -7.7464083e-06
-0.0049310597 0.0049000001 -0.0016757746
-0.0095419204 0.0046421052 -0.0014191548
0.0089015234 -0.0038684211 -0.00077760557
-0.0090296026 -0.0049000001 -0.0037287322
-0.00480298 -0.0011605263 -0.0057816901
-0.001216755 0.0028368421 -0.0057816901
0.0081330463 0.0049000001 -0.0025739435
-0.0022413908 -0.0037394739 -0.0057816901
0.0027537087 -0.0038684211 -0.00013605626
0.0045468211 -0.0028368421 -0.0057816901
-0.0067241723 0.0043842108 -0.00565338
-0.0059556956 -0.0012894737 -0.00052098581
-0.0096700005 -0.003481579 -0.0052684504
-0.0017290729 0.001418421 -0.00026436613
0.0045468211 0.00038684212 -0.0057816901
0.009285762 -0.00025789475 -0.0042419718
-0.0067241723 0.0016763158 -7.7464083e-06
0.0081330463 -0.0049000001 -0.0018040844
-0.0082611255 0.0047710529 -0.0021890139
0.0090296026 -0.0043842108 -0.0041136616
-0.0096700005 -0.00025789475 -0.0018040844
-0.0096700005 -0.0023210526 -0.0011625352
-0.0026256291 -0.00012894737 -0.0057816901
0.0049310597 -0.0043842108 -0.00052098581
-0.0080049671 -0.004513158 -0.0057816901
0.0094138412 -0.00025789475 -0.0051401407
0.0095419204 0.0025789475 -0.0042419718
-0.009285762 -0.0041263159 -0.00077760557
-0.0019852319 -0.001031579 -0.0057816901
-0.005827616 0.0019342105 -0.0057816901
0.0019852319 -0.0032236844 -0.0057816901
0.00057635765 0.0049000001 -0.0034721126
-0.0027537087 0.003094737 -0.00052098581
0.0076207286 0.0016763158 -0.0057816901
-0.0069803311 0.0021921054 -0.0057816901
0.00057635765 0.0041263159 -0.0057816901
-0.0023694702 -0.0036105264 -0.0057816901
0.00057635765 -0.0049000001 -0.0016757746
-0.0014729139 0.0049000001 -0.0025739435
-0.0065960926 0.0012894737 -0.00052098581
-0.0095419204 -0.00245 -0.00064929569
0.0087734442 0.0041263159 -0.0057816901
-0.0054433774 -0.0049000001 -0.0019323942
-0.0071084108 -0.0033526316 -0.0057816901
-0.0077488082 -0.0033526316 -0.0057816901
0.0023694702 0.0016763158 -0.00013605626
0.0089015234 -0.0043842108 -0.0039853519
-0.0056995363 0.0042552631 -0.00565338
0.003650265 0.0049000001 -0.0010342252
-0.0028817882 -0.0039973683 -0.00013605626
-0.0010886755 0.0021921054 -0.0057816901
-0.0081330463 0.0049000001 -0.0028305633
0.0085172849 0.0016763158 -7.7464083e-06
0.009285762 -0.0047710529 -0.0038570422
-6.4039734e-05 0.0023210526 -0.0057816901
0.0096700005 0.0043842108 -0.0050118309
0.00032019868 0.0028368421 -0.00052098581
-0.0087734442 0.0028368421 -0.00052098581
-0.0037783445 0.0049000001 -0.0033438026
0.0019852319 0.00077368424 -0.00052098581
0.0032660265 -0.0049000001 -0.0052684504
-0.0014729139 0.0039973683 -0.00039267598
-0.0081330463 0.0028368421 -0.00052098581
0.0049310597 -0.0015473685 -7.7464083e-06
-0.0060837748 -0.0038684211 -0.00052098581
0.0094138412 -0.00064473687 -0.0032154927
0.0055714571 0.0042552631 -0.0057816901
0.0042906622 -0.0049000001 -0.0037287322
-0.0037783445 0.0049000001 -0.0053967605
-0.00044827815 0.001031579 -0.0057816901
-0.0067241723 0.00051578949 -0.0057816901
0.005827616 0.0033526316 -0.0057816901
0.00723649 -0.001031579 -0.0057816901
-0.0096700005 0.0012894737 -0.0057816901
-0.0059556956 0.0029657895 -0.00052098581
-0.0046749008 0.0037394739 -0.00026436613
-0.0096700005 0.0021921054 -0.00565338
0.0023694702 -0.0038684211 -0.0057816901
0.003650265 0.0049000001 -0.0034721126
-0.0019852319 -0.0019342105 -7.7464083e-06
-0.0069803311 0.0046421052 -0.00064929569
-0.0024975496 -0.0025789475 -0.0057816901
0.0049310597 -0.0032236844 -0.0057816901
0.0059556956 -0.00090263161 -0.0057816901
0.0096700005 -0.0023210526 -0.0036004223
0.0060837748 -0.0049000001 -0.0041136616
0.009285762 -0.0028368421 -0.00565338
-0.0010886755 0.0027078949 -0.0057816901
-0.0076207286 -0.001031579 -0.00052098581
-0.0021133113 0.004513158 -0.00565338
0.0083892057 -0.0037394739 -0.00565338
0.0023694702 -0.0049000001 -0.0051401407
0.0046749008 0.0019342105 -0.00013605626
0.0089015234 -0.0043842108 -0.0043702815
-0.0090296026 -0.0049000001 -0.0051401407
-0.0021133113 0.00051578949 -0.00052098581
0.0081330463 -0.0043842108 -0.00565338
-0.0096700005 0.00245 -0.001290845
-0.0010886755 -0.0025789475 -0.0057816901
-0.0019852319 0.004513158 -0.00052098581
-0.0001921192 0.0049000001 -0.00052098581
0.0022413908 -0.0049000001 -0.0024456338
0.0030098676 0.00245 -0.00026436613
-6.4039734e-05 0.0012894737 -0.0057816901
-0.0096700005 -0.0029657895 -0.0047552111
0.0053152982 0.0049000001 -0.0016757746
-0.0037783445 -0.0042552631 -0.00052098581
-0.0013448345 -0.0049000001 -0.0023173238
0.0076207286 -0.00077368424 -0.0057816901
0.009285762 0.0023210526 -0.00565338
-0.0049310597 -0.0049000001 -0.0014191548
-0.0096700005 -0.00051578949 -0.0043702815
0.0019852319 0.00025789475 -0.00052098581
0.0026256291 0.0032236844 -0.0057816901
-0.0022413908 -0.003094737 -0.0057816901
0.0023694702 0.0032236844 -0.0057816901
-0.0094138412 -0.0025789475 -0.0057816901
0.0063399337 0.0047710529 -0.00565338
0.0045468211 -0.0038684211 -0.00039267598
-0.0076207286 0.0049000001 -0.0023173238
-0.0030098676 0.0019342105 -0.0057816901
-0.0096700005 -0.003481579 -0.0037287322
0.0049310597 0.0041263159 -0.00052098581
0.0042906622 -0.0049000001 -0.0025739435
0.00057635765 -0.0023210526 -7.7464083e-06
-0.00032019868 0.00090263161 -0.00052098581
0.0001921192 -0.0049000001 -0.0055250702
0.0045468211 -0.0049000001 -0.0038570422
-0.00057635765 0.0021921054 -7.7464083e-06
0.0028817882 -0.00077368424 -0.0057816901
-0.0042906622 -0.001031579 -0.0057816901
-0.0096700005 -0.0016763158 -0.0041136616
0.0044187419 0.0012894737 -0.00052098581
-0.009285762 -0.0043842108 -0.00565338
0.0050591393 0.0036105264 -0.0057816901
0.0039064237 0.0019342105 -0.0057816901
-0.0042906622 -0.0049000001 -0.0050118309
0.0062118545 -0.0049000001 -0.0009059154
0.0096700005 -0.0023210526 -0.0010342252
6.4039734e-05 0.0028368421 -0.0057816901
0.0026256291 -0.004513158 -0.00565338
-0.0013448345 0.0046421052 -0.00052098581
-0.003650265 -0.00051578949 -0.0057816901
-0.0096700005 0.00012894737 -0.0016757746
-0.0080049671 -0.0021921054 -7.7464083e-06
0.0094138412 -0.0012894737 -0.0048835208
0.0096700005 -0.00245 -0.0047552111
0.0096700005 -0.0043842108 -0.0011625352
0.0016009934 0.0038684211 -0.0057816901
0.0074926489 0.0043842108 -0.0057816901
-0.0027537087 -0.0042552631 -0.00052098581
-0.0021133113 -0.0033526316 -0.00052098581
0.0013448345 0.00025789475 -0.00052098581
0.0082611255 0.0016763158 -0.0057816901
-0.0027537087 0.004513158 -0.00052098581
0.0082611255 0.0036105264 -0.00052098581
-0.0082611255 -0.0021921054 -7.7464083e-06
0.0040345034 0.0015473685 -0.00039267598
-0.0096700005 0.00012894737 -0.00565338
-0.0090296026 0.003094737 -0.0057816901
0.0068522519 -0.0049000001 -0.0044985912
-0.004162583 0.0049000001 -0.003087183
0.0081330463 0.00012894737 -0.00052098581
0.0049310597 0.0047710529 -0.00052098581
-0.0096700005 0.00025789475 -0.0057816901
-0.0096700005 0.00038684212 -0.001290845
-0.0096700005 0.00012894737 -0.0010342252
-0.0096700005 -0.0039973683 -0.0047552111
-0.00057635765 0.003481579 -0.00052098581
-0.0096700005 -0.00064473687 -0.0036004223
-0.0055714571 -0.0029657895 -0.00052098581
-0.0032660265 -0.0036105264 -0.00013605626
-0.0095419204 -0.0028368421 -0.0055250702
0.0027537087 -0.0028368421 -0.00052098581
-0.0083892057 0.003094737 -0.00052098581
0.0085172849 0.0047710529 -0.0042419718
-0.0090296026 0.0028368421 -0.00052098581
0.00057635765 -0.00051578949 -0.0057816901
0.0071084108 0.0049000001 -0.0019323942
0.0001921192 -0.0028368421 -0.0057816901
-0.0039064237 -0.0023210526 -7.7464083e-06
-0.0064680134 0.0049000001 -0.0025739435
-0.0096700005 0 -0.0028305633
-0.0069803311 0.00051578949 -0.00052098581
0.0042906622 0.0027078949 -0.00052098581
0.0046749008 -0.0049000001 -0.0011625352
0.0067241723 0.0049000001 -0.0018040844
-0.0081330463 -0.001418421 -0.0057816901
0.0094138412 0.0019342105 -0.0046269014
0.0091576818 -0.00038684212 -0.0057816901
0.0089015234 -0.0039973683 -0.00077760557
-0.0073645697 0.0049000001 -0.0053967605
0.0096700005 0.0032236844 -0.0033438026
0.0021133113 -0.0029657895 -0.0057816901
0.0053152982 -0.0037394739 -0.0057816901
-0.0081330463 -0.00025789475 -0.0057816901
0.0083892057 -0.00090263161 -0.0057816901
-0.0054433774 0.0049000001 -0.0042419718
-0.0095419204 0.004513158 -0.0037287322
-0.0074926489 0.0015473685 -0.0057816901
-0.004162583 0.0049000001 -0.0016757746
-0.0063399337 0.001418421 -0.00026436613
0.0049310597 0.00038684212 -0.0057816901
-0.0096700005 -0.0011605263 -0.0041136616
-0.0095419204 -0.0043842108 -0.0014191548
-0.0062118545 0.0027078949 -0.00052098581
0.0095419204 -0.0016763158 -0.0015474646
0.0035221854 -0.0049000001 -0.0032154927
0.0089015234 -0.0047710529 -0.0051401407
-0.0078768879 -0.0047710529 -0.0057816901
-0.0040345034 0.001031579 -0.0057816901
0.0001921192 0.0049000001 -0.0055250702
-0.0090296026 0.00038684212 -0.00052098581
-0.0073645697 0.00077368424 -0.00052098581
-0.0085172849 -0.0049000001 -0.0055250702
-0.0045468211 -0.0049000001 -0.00077760557
0.0045468211 -0.0021921054 -7.7464083e-06
0.0035221854 0.0023210526 -7.7464083e-06
-0.0096700005 -0.0042552631 -0.00565338
0.0096700005 -0.0037394739 -0.0010342252
-0.0018571523 0.0032236844 -0.0057816901
0.0064680134 -0.0049000001 -0.0020607042
0.0027537087 -0.003094737 -0.00052098581
-0.0096700005 0.00064473687 -0.0011625352
-0.0031379471 0.0029657895 -0.0057816901
-0.0094138412 -0.00245 -0.0057816901
-0.0035221854 -0.0029657895 -0.00052098581
-0.0089015234 0.001031579 -0.00052098581
0.0032660265 -0.001418421 -0.0057816901
-0.0037783445 -0.0016763158 -7.7464083e-06
0.0040345034 0.0049000001 -0.0039853519
0.0050591393 0.0037394739 0.0025584507
-0.0095419204 0.0032236844 -0.0057816901
0.0096700005 0.0041263159 -0.0028305633
0.0035221854 0.0015473685 -0.00013605626
-0.0067241723 0.0023210526 -7.7464083e-06
0.0074926489 0.0049000001 -0.0021890139
-0.00032019868 0.0049000001 -0.0037287322
-0.0026256291 0.0049000001 -0.0010342252
0.0039064237 -0.0046421052 -0.00064929569
-0.0035221854 -0.00090263161 -0.0057816901
-0.0074926489 -0.0033526316 -0.00052098581
-0.0018571523 -0.001031579 -0.00052098581
0.0030098676 0.0049000001 -0.003087183
-0.0063399337 0.0046421052 -0.00064929569
0.0055714571 0.00090263161 -0.0057816901
-0.0060837748 0.0049000001 -0.0021890139
-0.0023694702 -0.0011605263 -0.00052098581
-0.0080049671 -0.0049000001 -0.0053967605
-0.0014729139 -0.0043842108 -0.0057816901
0.0095419204 0.0025789475 -0.0041136616
-0.0096700005 -0.0016763158 -0.0011625352
0.0049310597 -0.0049000001 -0.0024456338
0.0013448345 -0.0049000001 -0.0024456338
-0.004162583 -0.0049000001 -0.0038570422
-0.0045468211 -0.0049000001 -0.0024456338
0.0096700005 -0.0038684211 -0.0011625352
0.0042906622 -0.0049000001 -0.003087183
0.0055714571 -0.001418421 -7.7464083e-06
-0.0018571523 -0.003094737 -0.00052098581
-0.0010886755 -0.0042552631 -0.0057816901
-0.0042906622 0.0029657895 -0.0057816901
0.0054433774 -0.0049000001 -0.0039853519
0.0065960926 0.0049000001 -0.0048835208
-0.0082611255 0.003094737 -0.00052098581
-0.0060837748 -0.0019342105 -0.0057816901
-0.0094138412 0.0041263159 -0.00064929569
-0.0022413908 -0.0049000001 -0.0015474646
0.0028817882 -0.0049000001 -0.0020607042
0.001216755 -0.0049000001 -0.0050118309
0.0096700005 0.0041263159 -0.0014191548
-0.0063399337 -0.0028368421 -0.00052098581
-0.0096700005 -0.0015473685 -0.0051401407
0.001216755 0.0037394739 -0.00013605626
0.0039064237 0.00051578949 -0.0057816901
-0.0096700005 0.0043842108 -0.0043702815
0.0065960926 -0.0042552631 -0.00565338
-0.0096700005 -0.003094737 -0.0029588731
-0.0096700005 -0.0023210526 -0.0021890139
-0.0030098676 0.0049000001 -0.0011625352
-0.0024975496 0.0049000001 -0.0029588731
0.0013448345 0.0039973683 -0.0057816901
-0.005827616 -0.0016763158 -7.7464083e-06
-0.0024975496 0.0037394739 -0.00013605626
0.0095419204 -0.002063158 -0.0020607042
0.0089015234 0.0012894737 -0.00052098581
-0.0067241723 0.0041263159 -0.00052098581
-0.0067241723 -0.0047710529 -0.00565338
0.0096700005 0.0036105264 -0.0050118309
0.0090296026 0.0046421052 -0.0010342252
0.0094138412 -0.0011605263 -0.0015474646
0.0027537087 0.0039973683 -0.0057816901
0.0064680134 0.00051578949 -0.0057816901
-0.0056995363 0.0036105264 -0.00013605626
-0.0076207286 0.00077368424 -0.00052098581
-0.0059556956 -0.0027078949 -0.0057816901
-0.00032019868 -0.0027078949 -0.00052098581
-0.0096700005 0.003481579 -0.0048835208
0.0068522519 0.0039973683 -0.00039267598
-0.0001921192 0.0037394739 0.0020452114
-0.0080049671 0.0019342105 -7.7464083e-06
0.0062118545 0.0049000001 -0.0027022534
0.003650265 -0.00038684212 -0.00052098581
0.0083892057 -0.00064473687 -0.0057816901
0.00096059602 -0.0049000001 -0.0047552111
0.0067241723 0.0021921054 -0.0057816901
-0.003650265 -0.0046421052 -0.0057816901
-0.0086453641 0.0041263159 -0.00565338
-0.0074926489 -0.0049000001 -0.0041136616
0.00480298 0.0049000001 -0.0053967605
-0.0056995363 -0.0049000001 -0.0021890139
0.0060837748 -0.0025789475 -0.00052098581
0.0055714571 -0.0047710529 -0.00077760557
-0.0074926489 -0.002063158 -7.7464083e-06
0.0054433774 0.0049000001 -0.001290845
0.0037783445 -0.0049000001 -0.0051401407
-0.0069803311 0.00077368424 -0.00052098581
0.0071084108 0.0019342105 -0.00013605626
0.0010886755 -0.0049000001 -0.0018040844
0.0094138412 -0.0011605263 -0.0050118309
0.0010886755 0.003094737 -0.0057816901
0.0083892057 -0.0049000001 -0.0038570422
-0.0018571523 0.0011605263 -0.0057816901
-0.0086453641 0.0047710529 -0.0025739435
-0.00070443709 0.00077368424 -0.00052098581
-0.0049310597 0.0021921054 -0.0057816901
0.0087734442 0.00051578949 -0.00052098581
-0.0028817882 -0.0049000001 -0.003087183
0.0049310597 -0.002063158 -0.0057816901
0.0017290729 0.0037394739 -7.7464083e-06
0.00070443709 -0.00077368424 -0.00052098581
0.009285762 0.0011605263 -0.0043702815
-0.0086453641 0.0027078949 -0.00052098581
-0.0096700005 0.00051578949 -0.0019323942
0.0094138412 0.0025789475 -0.00565338
0.0021133113 -0.0023210526 -7.7464083e-06
0.0096700005 -0.0033526316 -0.0039853519
-0.0091576818 0.0027078949 -0.00052098581
-0.0017290729 0.0049000001 -0.0016757746
0.0030098676 0.0028368421 -0.00052098581
-0.0096700005 0.0038684211 -0.0011625352
-0.00723649 0.0036105264 -0.00052098581
0.0095419204 -0.0016763158 -0.0050118309
-0.0037783445 0.003481579 -0.00052098581
0.0067241723 0.0049000001 -0.0053967605
0.0064680134 -0.00245 -0.00052098581
0.0045468211 -0.00012894737 -0.0057816901
0.0024975496 -0.00012894737 -0.0057816901
0.0096700005 -0.00245 -0.0037287322
-0.0062118545 0.00038684212 -0.0057816901
-0.0065960926 -0.0037394739 -0.0057816901
-0.0039064237 0.0019342105 -7.7464083e-06
-0.00480298 0.0012894737 -0.0057816901
-0.0078768879 0.00025789475 -0.0057816901
0.0046749008 -0.0027078949 -0.0057816901
-0.0078768879 -0.0038684211 -0.0057816901
-0.0053152982 0.003481579 -0.00052098581
-0.0083892057 -0.00090263161 -0.0057816901
-0.0013448345 0.0012894737 -0.0057816901
0.0096700005 0.0032236844 -0.0011625352
0.0013448345 -0.0037394739 -0.00039267598
-0.0096700005 0.001031579 -0.0023173238
0.00723649 0.0049000001 -0.0019323942
0.004162583 0.0016763158 -0.0057816901
0.0055714571 0.0049000001 -0.0039853519
-0.0077488082 -0.0012894737 -0.0057816901
0.0081330463 -0.0032236844 -0.00052098581
0.0096700005 0.0033526316 -0.0033438026
0.0096700005 0.0038684211 -0.0055250702
0.0040345034 -0.0049000001 -0.0015474646
-0.0063399337 0.0049000001 -0.00064929569
0.0010886755 -0.0049000001 -0.0048835208
-0.0010886755 -0.0037394739 -0.0057816901
-0.0054433774 0.0015473685 -7.7464083e-06
-0.00723649 -0.0049000001 -0.0039853519
-0.0062118545 0.003481579 -0.00052098581
0.00083251658 0.0032236844 -0.0057816901
0.00070443709 -0.0049000001 -0.0034721126
-0.0083892057 -0.0015473685 -0.00013605626
-0.0074926489 0.0049000001 -0.0048835208
-0.0090296026 0.0047710529 -0.0025739435
-0.001216755 -0.0012894737 -0.00052098581
-0.0073645697 0.0049000001 -0.0032154927
0.001216755 -0.0019342105 -0.0057816901
0.00070443709 -0.00090263161 -0.0057816901
-0.0071084108 -0.0049000001 -0.0010342252
-0.0042906622 -0.0029657895 -0.0057816901
0.0095419204 -0.0015473685 -0.0014191548
0.0095419204 -0.0042552631 -0.0025739435
0.0082611255 0.00077368424 -0.00052098581
0.0085172849 0.003481579 -0.00064929569
-0.0054433774 0.0021921054 -7.7464083e-06
-0.0073645697 0.0019342105 -0.0057816901
-0.0095419204 -0.0043842108 -0.0010342252
0.004162583 -0.0038684211 -7.7464083e-06
0.0083892057 -0.0049000001 -0.0015474646
0.0091576818 -0.002063158 -0.0057816901
0.0040345034 -0.0011605263 -0.0057816901
0.0051872185 -0.0049000001 -0.0048835208
0.00070443709 -0.00038684212 -0.0057816901
0.0080049671 0.0025789475 -0.00052098581
-0.0096700005 0.00090263161 -0.0015474646
0.009285762 -0.00012894737 -0.0043702815
0.0014729139 -0.0028368421 -0.00052098581
0.0083892057 0.0011605263 -0.00052098581
0.0083892057 0.0036105264 -0.0057816901
0.0064680134 -0.0038684211 -0.00565338
0.0095419204 -0.0016763158 -0.0014191548
-0.0031379471 0.0049000001 -0.0025739435
0.0067241723 -0.00064473687 -0.0057816901
-0.0032660265 -0.00051578949 -0.00052098581
-0.00096059602 -0.0049000001 -0.0024456338
-0.0050591393 0.001031579 -0.00052098581
0.0049310597 -0.0038684211 -0.00013605626
0.0077488082 0.0033526316 -0.00052098581
0.0045468211 0.0049000001 -0.0011625352
-0.0027537087 0.0049000001 -0.0044985912
0.003650265 0.0039973683 -0.00013605626
0.0095419204 0.0021921054 -0.0036004223
0.009285762 -0.0023210526 -0.0057816901
-0.0096700005 -0.0033526316 -0.0014191548
-0.0080049671 0.0036105264 -0.00039267598
-0.0051872185 -0.001031579 -0.00052098581
-0.00083251658 0.004513158 -0.00052098581
0.0069803311 0.0049000001 -0.0043702815
-0.0037783445 0.0039973683 -7.7464083e-06
0.0032660265 -0.0049000001 -0.0010342252
-0.0032660265 0.0049000001 -0.0018040844
-0.0096700005 -0.0027078949 -0.0018040844
0.0096700005 0.0018052632 -0.0051401407
-0.0019852319 -0.0025789475 -0.00052098581
-0.0056995363 0.0023210526 -0.0057816901
-0.0065960926 0.003094737 -0.00052098581
0.00723649 0.0049000001 -0.0034721126
0.0010886755 0.00025789475 -0.0057816901
-0.0042906622 0.0043842108 -0.00052098581
0.009285762 -0.00012894737 -0.0018040844
0.0096700005 0.004513158 -0.0046269014
0.0032660265 -0.0049000001 -0.0029588731
-0.0082611255 -0.004513158 -0.0057816901
-0.00044827815 -0.0049000001 -0.0028305633
-0.009285762 0.00077368424 -0.0057816901
-0.0018571523 -0.0049000001 -0.0019323942
-0.0067241723 0.00245 -0.0057816901
0.0062118545 0.0049000001 -0.0018040844
-0.0068522519 0.0049000001 -0.0015474646
-0.0050591393 -0.0038684211 0.001403662
-0.0022413908 -0.0023210526 -0.00013605626
-0.0096700005 0.0025789475 -0.0018040844
-0.004162583 0.0041263159 -0.00052098581
-0.0069803311 -0.00038684212 -0.0057816901
0.0051872185 -0.0028368421 -0.0057816901
-0.0069803311 0.0049000001 -0.0034721126
0.005827616 -0.0011605263 -0.0057816901
0.0049310597 -0.0046421052 -0.00565338
0.0062118545 -0.0049000001 -0.0016757746
-0.0026256291 -0.0028368421 -0.00052098581
0.0086453641 0.00064473687 -0.00052098581
0.0059556956 0.0047710529 -0.00052098581
-0.0032660265 0.001418421 -0.0057816901
0.0022413908 0.0049000001 -0.0051401407
0.0095419204 0.0025789475 -0.0025739435
-0.0053152982 0.0016763158 -7.7464083e-06
0.0019852319 0.0049000001 -0.0032154927
-0.0080049671 -0.0029657895 -0.00052098581
-0.0054433774 -0.0041263159 -0.00052098581
0.0068522519 0.0049000001 -0.0011625352
-0.0074926489 0.00077368424 -0.00052098581
-0.0017290729 -0.0046421052 -0.00565338
-0.0010886755 -0.0049000001 -0.0053967605
-0.0094138412 -0.0039973683 -0.0055250702
-0.0073645697 -0.00077368424 -0.0057816901
-0.0095419204 -0.0041263159 -0.0010342252
-0.0073645697 -0.0033526316 -0.0057816901
-0.0040345034 -0.0016763158 -0.0057816901
-0.0023694702 0.0049000001 -0.00052098581
0.0081330463 -0.0025789475 -0.00052098581
0.00070443709 0.0039973683 -0.00052098581
-0.0031379471 0.0049000001 -0.0036004223
-0.0040345034 -0.0049000001 -0.0016757746
0.0082611255 -0.00064473687 -0.00052098581
-0.0062118545 -0.0049000001 -0.0025739435
-0.0049310597 0.0046421052 -0.00565338
0.0080049671 0.001031579 -0.00052098581
-0.0087734442 0.0029657895 -0.0057816901
-0.0096700005 0.003481579 -0.003087183
-0.0035221854 -0.0049000001 -0.0020607042
-0.0091576818 0.0047710529 -0.0021890139
0.0064680134 0.0049000001 -0.0052684504
0.0053152982 0.004513158 -0.0057816901
-0.0049310597 0.0019342105 -0.0057816901
-0.0094138412 -0.003094737 -0.00565338
0.0050591393 0.0037394739 0.0015319719
0.003650265 0.0049000001 -0.003087183
0.004162583 0.00012894737 -0.0057816901
-0.0014729139 0.0049000001 -0.0024456338
-0.0096700005 -0.00090263161 -0.0016757746
-0.0049310597 0.0049000001 -0.0047552111
-0.0001921192 -0.00245 -0.00052098581
-0.0085172849 0.0047710529 -0.0034721126
-0.0039064237 0.0041263159 -0.00052098581
0.0067241723 -0.0049000001 -0.0029588731
-0.005827616 -0.0015473685 -7.7464083e-06
-0.0094138412 0.0047710529 -0.0055250702
0.0046749008 -0.0033526316 -0.00052098581
-0.0096700005 0.00245 -0.0010342252
-0.0096700005 -0.0011605263 -0.0016757746
0.0014729139 0.0049000001 -0.0027022534
-0.0095419204 -0.003481579 -0.0055250702
0.0077488082 -0.00051578949 -0.00052098581
0.0081330463 -0.0018052632 -0.0057816901
0.0023694702 -0.0037394739 -0.00026436613
-0.0081330463 -0.0041263159 -0.0057816901
0.00096059602 -0.0047710529 -0.00565338
-0.0096700005 0.00090263161 -0.0023173238
0.0037783445 0.00012894737 -0.00052098581
-0.00044827815 0.0012894737 -0.0057816901
0.0045468211 0.001031579 -0.0057816901
