# .PCD v0.7 - Point Cloud Data file format
VERSION 0.7
FIELDS x y z
SIZE 4 4 4
TYPE F F F
COUNT 1 1 1
WIDTH 1248
HEIGHT 1
VIEWPOINT 0 0 0 1 0 0 0
POINTS 1248
DATA ascii
-0.0089370375 -0.00254 -0.00074445008
0.012958704 0.00023090909 0.00038829993
-0.013628982 -0.00254 -0.0014241
-0.022789445 -0.00254 -0.00029135006
0.012735278 -0.00023090909 -0.0075409501
0.0069262041 0 -6.4800071e-05
0.010724445 0.00069272728 -0.00029135006
0.010054167 -0.00023090909 0.0012945
-0.014522686 0.00023090909 -6.4800071e-05
-0.0049153706 0.0016163636 -0.00029135006
-0.024130002 -0.00046181818 -0.0014241
0.017874075 -0.00092363637 -0.0023303002
-0.0098307412 -0.0016163636 -0.00029135006
-0.0058090743 -0.0011545455 -0.00029135006
-0.0015639815 -0.00254 -0.00074445008
0.012511852 -0.0018472727 -0.0023303002
0.0084901853 -0.0020781818 -0.0023303002
-0.022789445 0.00023090909 -0.00255685
0.012735278 -0.00254 -0.0011975501
-0.012511852 0 -0.005502
-0.015416389 -0.00254 -0.00097100006
0.016756944 -0.00092363637 -0.0023303002
-0.016086668 0.0013854546 -0.00029135006
-0.017650649 -0.00023090909 -0.0041427002
0.011171296 -0.0023090909 -6.4800071e-05
0.0053622224 0.00023090909 -0.00255685
0.022342592 0.00069272728 -0.0023303002
0.0026811112 0 -0.0066347499
-0.014969538 -0.0016163636 -0.00029135006
-0.012511852 0.00254 -0.00097100006
0.010501019 0.00092363637 -0.00029135006
0.010501019 -0.00046181818 -0.00029135006
-0.022789445 -0.00023090909 0.00084139995
0.0044685188 -0.0013854546 -0.00029135006
0.0064793522 0.00254 -0.0021037501
-0.022342592 -0.0020781818 -0.00029135006
-0.016086668 -0.00254 -0.0023303002
0.023012871 0 -0.005502
-0.015416389 -0.00023090909 -0.00391615
0.0055856481 -0.00254 -0.0016506501
0.014522686 -0.00254 -0.0023303002
0.0037982408 -0.0013854546 -0.00029135006
-0.0082667591 -0.0013854546 -0.0023303002
-0.0080433339 -0.00254 -0.0011975501
0.023236297 0.00254 -0.0011975501
-0.017203797 0.00046181818 -0.00029135006
-0.018320927 -0.00092363637 -0.0023303002
0.018544352 0.00092363637 -0.00029135006
-0.010054167 -0.00023090909 0.00038829993
0.01429926 -0.00254 -0.00051790004
0.0046919445 0.00046181818 -0.0023303002
0.0058090743 0.0018472727 -0.0023303002
-0.010054167 0.00023090909 -0.0093533499
-0.0044685188 -0.0023090909 -6.4800071e-05
-0.00022342593 0 -0.0048223501
0.0024576853 0 -0.0061816499
0.014969538 -0.0020781818 -0.00029135006
0.010724445 -0.0013854546 -0.00029135006
0.020108335 -0.00023090909 -0.0079940502
-0.0049153706 -0.0023090909 -6.4800071e-05
-0.0060325004 -0.00092363637 -0.0023303002
-0.022789445 -0.00254 -0.0014241
0.0091604637 0.0011545455 -0.0023303002
0.017650649 -0.00023090909 -0.0050488999
0.010054167 -0.00023090909 0.00016174992
-0.0026811112 0.00254 -0.00074445008
-0.015416389 0.00023090909 -0.0073143998
-0.0022342594 -0.0016163636 -0.0023303002
0.015416389 0.00023090909 -0.0061816499
0.010054167 -0.00023090909 0.00084139995
0.0026811112 0 0.0015210499
-0.0060325004 -0.00046181818 -0.0023303002
0.024130002 -0.00023090909 -0.00097100006
0.0051387963 -0.00023090909 0.0019741498
-0.015192963 -0.00046181818 -0.00029135006
0.0082667591 0.00254 -0.0018772001
-0.0069262041 -0.0016163636 -0.00029135006
0.0098307412 0.0016163636 -0.0023303002
-0.016086668 -0.0020781818 -0.00029135006
0.0073730559 -0.0018472727 -0.00029135006
-0.013628982 -0.00254 -0.0018772001
-0.0013405556 0.00254 -0.00029135006
0.0071496298 -0.00254 -0.0021037501
-0.018991204 0.0013854546 -0.00029135006
0 0.00023090909 -0.0095798997
0.016086668 -0.00046181818 -0.00029135006
0.017650649 0.00023090909 -0.0034630501
0.014522686 0.0013854546 -0.00029135006
0.021895742 0.00254 -0.0023303002
-0.016980371 -0.00254 -0.0011975501
-0.0026811112 0.00023090909 0.0031068998
0.010277593 0.00023090909 -0.0089002503
0.0017874074 -0.00092363637 -0.0023303002
0.0073730559 0.00023090909 0.00016174992
0.01921463 0.0023090909 -0.0023303002
-0.0024576853 -0.00069272728 -0.0023303002
-0.018991204 -0.0016163636 -0.00029135006
-0.014075833 -0.00254 -0.0011975501
0.0015639815 0.0011545455 -0.00029135006
-0.0073730559 -0.0023090909 -0.0023303002
0.020555185 0.0011545455 -0.00029135006
-0.022119168 0.00069272728 -0.00029135006
-0.01429926 -0.00092363637 -0.00029135006
0.017874075 0.00023090909 -0.0041427002
0.024130002 0 -0.0021037501
0.019661482 -0.0016163636 -0.00029135006
-0.0078199077 0 0.0031068998
-0.016980371 -0.00254 -0.00029135006
-0.013405556 0.00092363637 -0.0023303002
-0.0055856481 0.0013854546 -0.00029135006
0.0049153706 -0.0020781818 -6.4800071e-05
-0.0075964816 -0.00069272728 -0.00029135006
-0.0089370375 -0.0016163636 -0.0023303002
0.024130002 0 -0.00097100006
-0.014075833 0.00254 -0.0018772001
-0.016533518 -0.00046181818 -0.00029135006
-0.016980371 -0.00254 -0.0016506501
0.022789445 -0.00023090909 -0.0045957998
0.014969538 0.00023090909 -0.0027834
0.022342592 0.00254 -0.00074445008
-0.00022342593 0.00023090909 -0.0091268001
0.015863242 -0.00092363637 -0.00029135006
-0.022342592 0.00092363637 -0.00029135006
0.012511852 -0.0011545455 -0.0023303002
-0.0046919445 -0.00254 -0.00029135006
0.0011171297 -0.00092363637 -0.0023303002
0.00022342593 0 -0.0066347499
0.014746112 0.00023090909 -0.0023303002
0.012958704 0 -0.005502
0.015192963 0 -0.0073143998
-0.0053622224 0.00254 -0.0023303002
0.020555185 -0.00023090909 -0.0032365001
-0.012511852 0.0020781818 -0.0023303002
-0.0053622224 0 0.0024272499
-0.015416389 0.00023090909 -0.0066347499
0.0042450926 -0.00069272728 -0.00029135006
0.017874075 -0.0013854546 -0.0023303002
-0.021002037 -0.00254 -0.0014241
-0.011618149 0.0011545455 -0.0023303002
0.014746112 -0.0023090909 -0.00029135006
0.0067027779 -0.0011545455 -0.00029135006
-0.0013405556 -0.0016163636 -0.0023303002
-0.0040216669 -0.00254 -0.00029135006
-0.01429926 0.0020781818 -0.0023303002
0.0058090743 0.00046181818 -0.0023303002
-0.014969538 -0.00023090909 -0.00255685
-0.015639815 -0.0023090909 -6.4800071e-05
-0.020331759 0.00254 -0.0023303002
0.0073730559 -0.0018472727 -0.0023303002
0.015639815 -0.0016163636 -0.00029135006
0.022119168 -0.00069272728 -0.00029135006
-0.0015639815 -0.00023090909 -0.0023303002
0.0024576853 -0.0011545455 -0.00029135006
-0.0006702778 -0.00254 -0.0011975501
-0.0053622224 0.0020781818 -0.0023303002
-0.010277593 -0.00046181818 -0.00029135006
-0.016980371 -0.0011545455 -0.00029135006
0.017874075 0 0.0012945
-0.0053622224 -0.00254 -0.0021037501
-0.0051387963 -0.00023090909 -0.0066347499
0.0058090743 0.0013854546 -0.00029135006
-0.018320927 -0.00046181818 -0.0023303002
-0.020555185 0.00023090909 -0.005502
-0.0064793522 0.00023090909 -0.0023303002
-0.010054167 -0.00023090909 -0.0093533499
0.020555185 0.00046181818 -0.0023303002
-0.00022342593 -0.00023090909 -0.0075409501
0.016756944 0.00046181818 -6.4800071e-05
-0.021225464 -0.00023090909 -6.4800071e-05
0.014969538 0.00023090909 -0.0059551001
-0.020331759 -0.00023090909 0.00016174992
-0.011618149 -0.0013854546 -0.0023303002
0.0035748149 0.00023090909 -0.0023303002
0.0055856481 -0.0013854546 -0.0023303002
-0.003351389 0.00254 -0.0011975501
0.011841575 -0.00254 -0.0011975501
0.0096073151 0.0016163636 -0.00029135006
0.003351389 -0.00254 -0.0021037501
0.013405556 0.0016163636 -0.0023303002
0.0046919445 -0.00254 -0.00051790004
0.0078199077 -0.00069272728 -0.0023303002
0 0.00046181818 0.00016174992
0.016980371 -0.0018472727 -0.00029135006
0.022342592 -0.0020781818 -0.00029135006
0.0024576853 0.00092363637 -0.0023303002
-0.0075964816 0.0023090909 -0.0023303002
-0.0069262041 -0.00254 -0.0016506501
0.0024576853 0 -0.0052754502
0.018767778 -0.0020781818 -0.00029135006
0.011171296 -0.00254 -0.0023303002
0.023012871 0 -0.0032365001
0.0006702778 -0.00254 -0.0023303002
-0.015192963 -0.00023090909 -0.0068613002
-0.0049153706 0 -0.0077674999
0.0071496298 -0.0013854546 -0.00029135006
-0.0084901853 -0.0013854546 -0.0023303002
-0.012288426 -0.00254 -0.0014241
0.0044685188 -0.00254 -0.0018772001
0.0098307412 -0.0018472727 -0.00029135006
0.012958704 0 -0.0091268001
0.021895742 -0.00254 -0.00029135006
-0.0082667591 -0.00254 -0.0023303002
-0.011841575 0.0016163636 -0.0023303002
-0.0089370375 -0.00254 -0.00029135006
-0.017203797 0.00254 -0.0018772001
0.0049153706 -0.00023090909 0.0022006999
0.024130002 -0.00069272728 -0.0018772001
0.022789445 0.00023090909 0.00038829993
-0.023236297 -0.00254 -0.0021037501
0.0017874074 0.0016163636 -0.00029135006
-0.010724445 0.00092363637 -0.0023303002
0.0013405556 0.0013854546 -0.00029135006
-0.023459723 -0.0016163636 -0.00029135006
0.012511852 0 0.0010679499
0.018320927 0.00254 -0.0011975501
-0.0029045371 0.0016163636 -0.0023303002
0.017427223 -0.0013854546 -0.0023303002
0.0046919445 0.00254 -0.00051790004
-0.0029045371 0.0023090909 -6.4800071e-05
0.012511852 -0.00069272728 -0.0023303002
0.019884909 -0.0016163636 -0.00029135006
0.0026811112 -0.00023090909 -0.0048223501
0.02144889 0.00069272728 -0.00029135006
0.012511852 0 0.00288035
-0.015639815 -0.0011545455 -0.00029135006
-0.014075833 -0.00023090909 -6.4800071e-05
-0.0024576853 0.00023090909 0.0022006999
0.0078199077 -0.00254 -0.00074445008
-0.017427223 -0.00069272728 -0.0023303002
-0.0075964816 0.0011545455 -0.0023303002
0.0013405556 -0.00254 -6.4800071e-05
0.022789445 -0.00023090909 -0.0052754502
-0.023012871 0.0020781818 -0.00029135006
-0.018544352 -0.0023090909 -6.4800071e-05
0.023012871 -0.00023090909 -0.0073143998
-0.020331759 0.00069272728 -0.0023303002
0.024130002 -0.0011545455 -0.0018772001
0.0064793522 0.0013854546 -0.0023303002
-0.00022342593 0.00023090909 0.00084139995
0.023012871 0.00023090909 -0.0084471498
0.0096073151 -0.0020781818 -0.0023303002
-0.0096073151 0.00254 -0.0018772001
0.024130002 -0.0011545455 -0.00074445008
0.0062559261 -0.00023090909 -0.0023303002
-0.020331759 -0.00023090909 0.0026538
-0.023012871 0.00254 -0.0023303002
0.016310094 -0.00254 -0.0023303002
-0.012288426 -0.00254 -0.0018772001
-0.016086668 0 -6.4800071e-05
-0.00089370372 0.00069272728 -0.0023303002
-0.017203797 -0.00023090909 -0.0023303002
0.010054167 -0.00023090909 -0.0077674999
-0.023236297 0.00254 -0.00074445008
0.0042450926 -0.00046181818 -0.00029135006
-0.0073730559 0 -0.0032365001
0.0082667591 0.00254 -0.0016506501
0.023012871 0.0016163636 -0.0023303002
-0.020108335 -0.00023090909 -0.00255685
-0.0013405556 0.0013854546 -0.0023303002
-0.014746112 -0.0023090909 -6.4800071e-05
-0.0049153706 -0.00023090909 -0.0086736996
-0.020331759 0.00023090909 -0.00300995
0.0017874074 0.00254 -0.00074445008
0.0049153706 0.00023090909 0.0010679499
-0.0053622224 0.00069272728 -0.0023303002
0.0049153706 0 -0.0066347499
0.023012871 -0.0016163636 -0.00029135006
0.010054167 0 -0.0045957998
0.0037982408 -0.0016163636 -0.00029135006
-0.0093838889 -0.0013854546 -0.0023303002
-0.0046919445 0.0020781818 -0.00029135006
-0.0098307412 0.00254 -0.0016506501
0.011618149 0.00092363637 -0.00029135006
0.00089370372 0.00254 -0.0018772001
-0.0037982408 -0.0011545455 -0.0023303002
0.021895742 0.0018472727 -0.00029135006
0.022119168 0.00254 -0.0014241
-0.0024576853 -0.00023090909 -0.0068613002
-0.010054167 0 0.0024272499
0.017650649 0.0013854546 -0.0023303002
-0.020331759 0.00023090909 0.00016174992
0.023012871 -0.00023090909 -0.0032365001
-0.020108335 -0.0023090909 -6.4800071e-05
-0.010277593 0.00023090909 -0.00255685
-0.016086668 0.00254 -0.0023303002
-0.011394722 -0.00254 -0.0014241
-0.020108335 0 -0.0052754502
0.023906576 -0.0011545455 -0.0023303002
-0.0040216669 0.00254 -0.0021037501
-0.015416389 0 -0.0073143998
0.023012871 -0.0023090909 -0.00029135006
-0.0075964816 -0.00023090909 0.00061484991
-0.0080433339 0.00046181818 -0.0023303002
0.011171296 -0.0011545455 -0.0023303002
0.020555185 0.00254 -0.0021037501
-0.0049153706 -0.00023090909 0.0026538
0.0058090743 0.0018472727 -0.00029135006
-0.0006702778 0.0016163636 -0.00029135006
0.015416389 0 0.0019741498
0.0020108335 -0.00092363637 -0.0023303002
0.019661482 -0.00046181818 -0.00029135006
0.014746112 -0.0013854546 -0.00029135006
0.024130002 -0.00046181818 -0.0014241
-0.0026811112 0.00254 -0.00029135006
0.015639815 -0.00254 -0.0021037501
0.0080433339 -0.00254 -0.0018772001
-0.017650649 0.00023090909 -0.00300995
-0.0071496298 0.0023090909 -6.4800071e-05
0.023012871 -0.00023090909 0.0012945
-0.0044685188 0.00092363637 -0.0023303002
-0.012511852 -0.00023090909 -0.0068613002
0.0064793522 0.00254 -0.0011975501
0.015639815 0.00023090909 -6.4800071e-05
0.0053622224 0 -0.0089002503
-0.0051387963 0.00046181818 -0.0027834
0.010277593 0.00069272728 -0.00029135006
-0.010277593 0 0.0015210499
-0.02144889 -0.00254 -0.0021037501
-0.019438056 0.0018472727 -0.0023303002
-0.0053622224 -0.00023090909 -0.0045957998
0.0069262041 0 -0.0023303002
-0.010724445 0.00069272728 -0.0023303002
0.0064793522 -0.00254 -0.0023303002
0.012958704 0.00023090909 -0.0048223501
-0.013628982 -0.0018472727 -0.00029135006
0.014969538 0.00023090909 0.0015210499
-0.0022342594 -0.00023090909 0.00061484991
0.02144889 0.0023090909 -0.0023303002
-0.020108335 -0.0011545455 -0.0023303002
-0.018991204 0.0018472727 -0.00029135006
-0.020108335 0.00023090909 0.0022006999
-0.014969538 0.00254 -0.0023303002
0.0022342594 -0.0020781818 -0.0023303002
0.0024576853 0 -0.00255685
-0.0075964816 -0.0020781818 -0.0023303002
-0.010501019 0 -0.00255685
-0.0078199077 0.0013854546 -0.0023303002
-0.015639815 -0.0020781818 -0.00029135006
-0.019884909 -0.00046181818 -0.00029135006
-0.012288426 -0.00046181818 -0.0023303002
-0.00022342593 -0.00023090909 0.0022006999
0.023906576 -0.0016163636 -0.00029135006
-0.0053622224 0 0.0017475999
-0.010054167 -0.00023090909 -0.00391615
-0.017427223 -0.00092363637 -0.0023303002
0.018991204 0.00254 -0.0023303002
-0.0098307412 0.00092363637 -0.0023303002
-0.0024576853 0.0023090909 -6.4800071e-05
0.00022342593 0 -0.0045957998
-0.022342592 -0.00254 -0.00097100006
-0.017650649 -0.00069272728 -0.0023303002
0.012288426 0.0018472727 -0.00029135006
-0.012958704 0 -0.0091268001
0.023906576 -0.0023090909 -0.0016506501
0.014969538 0.00023090909 -0.0066347499
-0.022566019 0 0.00288035
0.021225464 0.00023090909 -0.0023303002
-0.013405556 0.00092363637 -0.00029135006
0.0078199077 -0.00023090909 -0.0082206
0.011618149 -0.00069272728 -0.0023303002
-0.020108335 -0.00254 -0.0014241
-0.0040216669 -0.00254 -0.0016506501
0.023236297 -0.0023090909 -0.00051790004
-0.0058090743 -0.00069272728 -0.0023303002
0.0087136114 -0.00254 -0.0023303002
0.012511852 0.00254 -0.0021037501
-0.010501019 0.0016163636 -0.0023303002
0.017874075 0.0020781818 -0.00029135006
0.0078199077 0 -0.0061816499
0.0069262041 -0.00023090909 -6.4800071e-05
0.0093838889 0.00254 -0.0018772001
0.013852408 -0.00254 -0.0023303002
0.013852408 0.0023090909 -0.00029135006
-0.020108335 0 -0.0089002503
-0.0022342594 0.00023090909 -6.4800071e-05
0 0.00254 -6.4800071e-05
-0.0080433339 0.00254 -0.00074445008
-0.014969538 -0.00023090909 -0.00436925
-0.012511852 0.00023090909 -0.0084471498
-0.021002037 0.00046181818 -0.00029135006
0.012511852 0 -0.00300995
0.0024576853 0 0.0024272499
0.014746112 -0.00023090909 -6.4800071e-05
-0.0087136114 0.0016163636 -0.00029135006
-0.020108335 0.00046181818 -0.00029135006
0.0053622224 0.00023090909 -0.0086736996
0.015416389 0.00023090909 -0.0034630501
-0.022789445 0.0023090909 -0.00029135006
0.022789445 0.00023090909 -0.0075409501
0.012958704 0.00254 -0.00097100006
-0.0096073151 0 -6.4800071e-05
0.0049153706 -0.00254 -0.0016506501
0.012958704 0.00254 -0.00029135006
-0.017650649 -0.00023090909 0.0010679499
0.0091604637 -0.00254 -0.0011975501
0.014522686 0.00254 -6.4800071e-05
-0.0073730559 0.00092363637 -0.0023303002
-0.013852408 -0.00254 -0.0014241
-0.0073730559 -0.00023090909 -0.00255685
0.0096073151 0.00046181818 -0.0023303002
-0.017650649 0 0.00038829993
0.016980371 0.00046181818 -0.0023303002
-0.0026811112 -0.0023090909 -6.4800071e-05
-0.010501019 0.0020781818 -0.0023303002
-0.023459723 0.0013854546 -0.00029135006
0.012511852 0.00023090909 -0.005502
0.00044685186 0.00046181818 -0.0023303002
-0.0024576853 0.00023090909 -0.0057285503
-0.015416389 0.00023090909 0.0015210499
-0.0055856481 -0.0018472727 -0.00029135006
-0.023683149 -0.0018472727 -0.0023303002
-0.00089370372 -0.00254 -0.0023303002
0.012958704 0.00023090909 0.00084139995
-0.015192963 -0.00023090909 0.00038829993
0.011841575 0.0020781818 -0.00029135006
0.0053622224 -0.00254 -0.00097100006
-0.0064793522 0.00254 -0.0014241
-0.010054167 0.0013854546 -0.00029135006
-0.016086668 -0.00254 -0.0014241
0.017874075 0.00023090909 -0.0036896002
0.0093838889 0.0011545455 -0.0023303002
0.0096073151 -0.00254 -0.0018772001
-0.015863242 -0.00023090909 -6.4800071e-05
-0.020555185 -0.00023090909 0.00061484991
-0.021895742 -0.0016163636 -0.00029135006
-0.0053622224 -0.00023090909 0.00288035
-0.020331759 0.00254 -0.0021037501
-0.0093838889 -0.00254 -0.0018772001
0.014969538 0.00023090909 -0.0077674999
0.023012871 -0.00023090909 -0.00436925
0.013852408 -0.00254 -0.00097100006
-0.023236297 -0.0020781818 -0.00029135006
0.015416389 -0.00069272728 -0.0023303002
-0.0091604637 0.00023090909 -0.0023303002
-0.0082667591 -0.0016163636 -0.00029135006
-0.017650649 -0.00023090909 -0.0034630501
-0.010054167 0.00254 -0.0014241
-0.020331759 0.00254 -0.0016506501
-0.0058090743 0.0018472727 -0.0023303002
0.0040216669 0.0023090909 -6.4800071e-05
-0.020108335 0 -0.0057285503
-0.0046919445 -0.00254 -0.0014241
0.010947871 0.00254 -0.0018772001
0.0096073151 0.00046181818 -6.4800071e-05
-0.0084901853 -0.00254 -6.4800071e-05
-0.014075833 -0.00254 -0.0016506501
0.0084901853 -0.00254 -0.00074445008
-0.020555185 0.00023090909 -0.0057285503
-0.013405556 0.0023090909 -0.0023303002
0.010054167 -0.00254 -0.00029135006
0.01429926 0.00092363637 -0.00029135006
0.016533518 -0.00254 -0.0018772001
0.017650649 0 -0.0091268001
0.023236297 0.00046181818 -0.00029135006
-0.010277593 0 0.0017475999
-0.022789445 -0.00023090909 -0.0050488999
-0.018097501 0.00254 -0.00029135006
0.0026811112 0 -0.00255685
-0.0024576853 0.00023090909 0.00084139995
-0.0020108335 -0.00046181818 -0.00029135006
0.0024576853 -0.00023090909 -0.0091268001
0.021672316 -0.0011545455 -0.00029135006
0.017874075 -0.00023090909 0.00061484991
0.012511852 0.00254 -0.00051790004
0.023236297 0 -6.4800071e-05
0.0042450926 -0.00254 -0.00097100006
-0.0026811112 0 -0.0084471498
-0.0080433339 0.0016163636 -0.00029135006
-0.0026811112 0.0023090909 -0.0023303002
0.017650649 0.0013854546 -0.00029135006
-0.0051387963 -0.00023090909 0.0015210499
-0.00089370372 -0.00254 -0.00074445008
0.0006702778 -0.00046181818 -0.00029135006
-0.022566019 0 -0.0086736996
0.0022342594 0.0018472727 -0.0023303002
0.013405556 0.00254 -0.00074445008
0.0075964816 -0.00254 -0.00051790004
0.0075964816 -0.0023090909 -0.0023303002
0.022789445 0.00254 -0.0018772001
-0.0024576853 0.0013854546 -0.0023303002
0.012958704 -0.00254 -0.0023303002
-0.016756944 0.0018472727 -0.0023303002
0.017650649 0 -0.0093533499
0.02144889 0.00023090909 -0.0023303002
-0.016756944 -0.00092363637 -0.00029135006
0.015416389 -0.00254 -0.0018772001
-0.017650649 -0.0016163636 -0.00029135006
0.0015639815 0.00092363637 -0.00029135006
-0.012735278 0.00023090909 -0.0034630501
0.0040216669 0.0013854546 -0.00029135006
0.0084901853 0.00092363637 -0.0023303002
0.0075964816 0.0011545455 -0.00029135006
0.0040216669 0.0020781818 -0.0023303002
0.0060325004 0.00254 -0.00051790004
0.020778611 0.00254 -0.0021037501
-0.0067027779 -0.00254 -0.00074445008
-0.013628982 0.0018472727 -0.0023303002
-0.0042450926 0.0011545455 -0.0023303002
0.018767778 -0.0016163636 -0.00029135006
0.015416389 -0.00023090909 -0.005502
-0.0049153706 0.0023090909 -0.0023303002
0.00022342593 0 -0.0036896002
0.020331759 0 -0.0095798997
0.02144889 0.00254 -0.00029135006
-0.017650649 0.0020781818 -0.00029135006
0.0084901853 0.00069272728 -0.0023303002
0.020331759 -0.00254 -0.00097100006
0.0073730559 0.00023090909 -0.00708785
-0.0026811112 0.00023090909 -0.0034630501
0.0055856481 0.00023090909 -6.4800071e-05
0.020331759 0.0018472727 -0.0023303002
0 0.0018472727 -0.0023303002
0.018320927 -0.0023090909 -0.00029135006
-0.019884909 -0.0020781818 -0.00029135006
0.0049153706 0 0.0015210499
0.015192963 -0.00023090909 0.0024272499
0.016086668 -0.00023090909 -0.0023303002
0.018991204 0.00254 -0.0018772001
0.017203797 0.0020781818 -0.00029135006
-0.018097501 -0.0023090909 -6.4800071e-05
-0.0073730559 0.00023090909 -0.0064082001
-0.023012871 -0.00023090909 0.0017475999
-0.00022342593 -0.00023090909 -0.0034630501
0.012511852 -0.00023090909 -0.00300995
0.018320927 0.00092363637 -0.0023303002
0.02144889 -0.0018472727 -0.0023303002
-0.0026811112 0.00023090909 -0.0082206
0.012511852 0.00023090909 0.0015210499
0.017874075 0 -0.0048223501
-0.0024576853 0 0.0017475999
0.018544352 0.00092363637 -0.0023303002
0.0015639815 -0.00254 -0.0014241
0.020108335 -0.0013854546 -0.0023303002
0.012065001 -0.0011545455 -0.0023303002
-0.0024576853 0.00023090909 -0.0036896002
-0.013405556 0.00254 -0.00074445008
-0.0055856481 0.0020781818 -0.00029135006
-0.018767778 0.00254 -0.0023303002
0.012735278 0.00023090909 -0.0064082001
0.023906576 -0.0023090909 -0.00097100006
-0.010054167 -0.00023090909 -0.0041427002
-0.0006702778 -0.00092363637 -0.0023303002
-0.01921463 0.00254 -0.0011975501
-0.00044685186 0.00046181818 -6.4800071e-05
0.0062559261 -0.00069272728 -0.00029135006
-0.020555185 -0.0013854546 -0.00029135006
0.011841575 -0.0023090909 -0.00029135006
0.017650649 -0.00023090909 -0.0068613002
-0.0098307412 -0.00254 -0.00029135006
-0.012958704 -0.00023090909 0.00016174992
-0.0026811112 -0.00046181818 -0.00255685
-0.020331759 -0.00023090909 -0.0052754502
0.0082667591 0.00092363637 -0.0023303002
-0.0071496298 0 -0.0023303002
-0.022119168 0.0011545455 -0.0023303002
0.0055856481 -0.0013854546 -0.00029135006
-0.0051387963 0.00023090909 -0.0057285503
-0.022566019 0.0023090909 -0.00029135006
-0.0073730559 0 -0.0041427002
0.0040216669 0.00254 -0.00097100006
-0.00044685186 -0.00023090909 -6.4800071e-05
0.020555185 0.00254 -0.0014241
-0.0098307412 0.0023090909 -6.4800071e-05
-0.020108335 0 -0.00391615
-0.0042450926 0.00254 -0.00074445008
0.0055856481 -0.00254 -0.00051790004
0.014075833 -0.0016163636 -0.0023303002
-0.0053622224 -0.00046181818 -0.00029135006
-0.0013405556 -0.00046181818 -0.0023303002
-0.0037982408 0.0018472727 -0.0023303002
-0.019884909 -0.0011545455 -0.00029135006
0.0091604637 -0.0023090909 -0.0023303002
-0.0098307412 0.0016163636 -0.0023303002
0.022566019 -0.00254 -0.0018772001
0.017874075 0 -0.0075409501
-0.010947871 -0.0013854546 -0.0023303002
-0.0075964816 0.00023090909 -0.0059551001
0.01318213 -0.00023090909 -6.4800071e-05
0.013628982 -0.00069272728 -0.00029135006
-0.011171296 -0.0020781818 -0.0023303002
-0.012958704 0 -0.0068613002
0.0026811112 0.0020781818 -0.00029135006
0.017203797 0.00254 -0.0023303002
-0.021895742 -0.00092363637 -0.00029135006
-0.010724445 -0.00254 -0.0014241
0.0064793522 -0.0023090909 -6.4800071e-05
0.012065001 0.0013854546 -0.0023303002
0.0046919445 -0.0023090909 -6.4800071e-05
0.0084901853 -0.00023090909 -0.0023303002
0.020108335 0.00023090909 -0.005502
0.01921463 -0.0013854546 -0.0023303002
0.022789445 -0.00023090909 -0.00255685
0.0051387963 -0.00023090909 -0.0059551001
-0.017874075 -0.00023090909 0.0019741498
-0.023459723 -0.0018472727 -0.0023303002
0.0062559261 0.00023090909 -6.4800071e-05
0.010947871 -0.00092363637 -0.00029135006
0.00022342593 0 0.00016174992
0.012065001 -0.0018472727 -0.00029135006
-0.00022342593 0 -0.00255685
0.01429926 -0.00254 -0.00097100006
0.0049153706 0.00023090909 -0.00300995
0.0029045371 -0.00092363637 -0.00029135006
-0.0044685188 -0.00092363637 -0.0023303002
0.0087136114 0 -6.4800071e-05
-0.00022342593 -0.00046181818 -0.0023303002
0.0024576853 0.00069272728 -0.00029135006
0.019884909 0.0018472727 -0.0023303002
-0.01921463 0.00254 -0.0021037501
0.00089370372 -0.00092363637 -0.00029135006
0.0093838889 0.00254 -0.0021037501
-0.012065001 -0.00023090909 -6.4800071e-05
0.0078199077 0 -0.0089002503
-0.012958704 -0.00023090909 -0.0036896002
0.021002037 0.00254 -0.0011975501
0.0078199077 0.00046181818 -0.00255685
0.0053622224 0.00023090909 0.0019741498
0.015416389 -0.00254 -6.4800071e-05
0.0015639815 0.00254 -0.0011975501
-0.0078199077 -0.0023090909 -0.0023303002
-0.012735278 0.00023090909 0.0022006999
-0.016756944 -0.00254 -0.0018772001
-0.020778611 0.00254 -0.0023303002
0.017427223 0.0011545455 -0.00029135006
-0.010501019 0.00254 -0.0016506501
0.0017874074 0.0013854546 -0.00029135006
0.021225464 0.0013854546 -0.0023303002
-0.010277593 0 -0.0073143998
-0.0075964816 -0.00023090909 -0.0045957998
-0.021225464 0.00023090909 -6.4800071e-05
-0.012735278 0.00254 -0.0016506501
-0.011618149 0.0013854546 -0.00029135006
0.018320927 0 -6.4800071e-05
-0.0024576853 -0.00023090909 -0.0089002503
-0.012735278 -0.0016163636 -0.00029135006
0.017427223 -0.00069272728 -0.00029135006
-0.0049153706 -0.00023090909 -0.0027834
-0.003351389 -0.00254 -0.0014241
0.012735278 0.00046181818 -0.0075409501
0.015192963 0.00046181818 -0.0032365001
0.00022342593 0.00023090909 0.00084139995
0.011618149 0.00046181818 -0.0023303002
-0.0026811112 -0.00023090909 -0.0034630501
-0.023012871 -0.00023090909 -0.0068613002
0.010054167 -0.00023090909 -0.0091268001
0.003127963 0.0020781818 -0.0023303002
-0.023012871 0.00023090909 -0.0027834
-0.012511852 0.00254 -0.0023303002
-0.014746112 0.00254 -0.0018772001
0.0040216669 0.00254 -0.0011975501
-0.022789445 0.00023090909 0.00038829993
0.0049153706 0 -0.00255685
-0.0022342594 -0.00023090909 -0.00436925
0.022566019 -0.00254 -0.0011975501
0.020108335 0.00023090909 0.0024272499
0.0091604637 -0.00023090909 -6.4800071e-05
0.012735278 -0.00023090909 -0.0077674999
-0.015416389 -0.00023090909 0.0017475999
0.022789445 -0.00023090909 -0.0061816499
0.012511852 0.00023090909 -0.0082206
-0.0015639815 0.0018472727 -0.0023303002
-0.020331759 0.00023090909 0.0022006999
0.018320927 -0.0016163636 -0.00029135006
-0.0049153706 0.00023090909 -0.0089002503
0.0062559261 -0.0013854546 -0.0023303002
0.021672316 -0.0011545455 -0.0023303002
0.014969538 0.0011545455 -0.0023303002
-0.011171296 0.00254 -0.0021037501
-0.019884909 -0.0023090909 -0.0023303002
0.0037982408 0.00254 -0.00097100006
0.0053622224 -0.00254 -0.00074445008
0.0026811112 0 -0.0045957998
0.020778611 -0.00254 -0.00051790004
-0.014969538 0.00069272728 -0.0023303002
-0.012511852 0 0.00061484991
0.021672316 -0.00254 -0.0011975501
-0.019438056 0.00254 -0.0011975501
0.0078199077 -0.00023090909 -0.0093533499
-0.023906576 -0.0023090909 -0.0021037501
0.010724445 -0.00069272728 -0.0023303002
0.022789445 0.00023090909 -0.0066347499
-0.014075833 0.0013854546 -0.0023303002
0.017650649 -0.00023090909 -0.0036896002
0.0087136114 0.00254 -0.0011975501
-0.00089370372 -0.00023090909 -0.0023303002
-0.01318213 -0.00254 -0.0023303002
0.0051387963 0.00046181818 -0.0027834
-0.023012871 0.00254 -0.0014241
0.017874075 -0.00254 -0.0023303002
0.014075833 0.00254 -0.00051790004
-0.010054167 0.00023090909 0.0019741498
0.024130002 0 -0.0014241
0.018320927 0.00046181818 -0.0023303002
-0.010501019 -0.0011545455 -0.00029135006
0.0091604637 0.0023090909 -6.4800071e-05
-0.011394722 0.00023090909 -0.0023303002
-0.017427223 0 -6.4800071e-05
-0.024130002 -0.00069272728 -0.0021037501
0.0078199077 -0.00023090909 -0.00300995
0.003127963 0.00092363637 -0.0023303002
-0.0049153706 -0.00254 -0.0014241
-0.017874075 0 0.0026538
0.018097501 0.00069272728 -0.00029135006
-0.012735278 0.0018472727 -0.00029135006
-0.0080433339 -0.00023090909 -0.0023303002
0.0051387963 0.00046181818 -0.0082206
-0.022789445 0.00023090909 -0.0050488999
0.010277593 0.0011545455 -0.00029135006
0.010277593 0 -0.0084471498
0.017650649 -0.00069272728 -0.0023303002
-0.0024576853 -0.0011545455 -0.00029135006
-0.017650649 0.0011545455 -0.0023303002
0.0053622224 0.0018472727 -0.0023303002
0 -0.00023090909 -0.00391615
-0.003351389 -0.00254 -0.0018772001
-0.023906576 0.0018472727 -0.0014241
0.015863242 -0.00254 -6.4800071e-05
0.023683149 -0.0011545455 -0.0023303002
-0.0084901853 0 -0.0023303002
-0.0042450926 -0.00254 -0.0023303002
-0.022342592 -0.00254 -0.00029135006
-0.020331759 -0.00023090909 -0.0068613002
-0.02144889 0.00254 -0.00097100006
-0.0073730559 -0.00023090909 0.00061484991
-0.016310094 0.00069272728 -0.0023303002
-0.017427223 -0.00254 -0.0018772001
-0.017874075 0.00023090909 -0.0091268001
-0.0049153706 -0.00023090909 -0.0059551001
-0.020331759 -0.00023090909 -0.0057285503
-0.0053622224 0 -0.0041427002
-0.0073730559 0.00023090909 0.0022006999
-0.020108335 -0.00023090909 0.00288035
-0.0051387963 -0.00254 -0.0018772001
-0.022119168 -0.00046181818 -0.0023303002
-0.012288426 -0.0013854546 -0.00029135006
-0.0062559261 0.0018472727 -0.0023303002
0.013628982 -0.0013854546 -0.0023303002
0.013852408 -0.00254 -0.0011975501
-0.011171296 0.0016163636 -0.0023303002
0.0075964816 -0.00023090909 0.0012945
0.023012871 0 -0.0057285503
0.013628982 0.00092363637 -0.0023303002
0.0064793522 0.00254 -0.00074445008
0 -0.0013854546 -0.00029135006
0.017427223 -0.00046181818 -0.0023303002
0.0049153706 0.00023090909 0.00016174992
-0.015192963 0.00069272728 -0.0023303002
0.015192963 -0.00023090909 -0.0073143998
-0.0017874074 -0.00254 -0.00051790004
0.022789445 0.00069272728 -0.00029135006
0.012735278 0 -0.00391615
0.0020108335 -0.00069272728 -0.00029135006
-0.018320927 0.0011545455 -0.00029135006
-0.010724445 -0.00046181818 -0.00029135006
-0.0078199077 0 -0.0082206
0.0049153706 -0.0016163636 -0.00029135006
-0.015416389 0 -0.0061816499
0 0.00254 -0.00029135006
-0.012958704 0.00023090909 -6.4800071e-05
-0.023012871 0.00023090909 -0.0052754502
-0.018991204 -0.00254 -0.0014241
0.019884909 0.00046181818 -6.4800071e-05
-0.0026811112 0.00023090909 -0.0086736996
-0.015416389 0.0016163636 -0.0023303002
0.01429926 -0.0023090909 -0.00029135006
-0.022566019 0.00023090909 -0.00255685
0.017203797 0.0011545455 -0.00029135006
-0.015192963 -0.00023090909 -0.0075409501
0.0024576853 -0.00023090909 0.0012945
0.0055856481 -0.00254 -0.00074445008
-0.022566019 0.0011545455 -0.0023303002
-0.015192963 0 -0.0082206
0.018767778 0.00254 -0.00029135006
0.0044685188 -0.00023090909 -6.4800071e-05
0.0073730559 -0.0020781818 -6.4800071e-05
-0.0026811112 -0.00023090909 -0.0057285503
-0.0044685188 0.00092363637 -0.00029135006
-0.017427223 -0.0020781818 -0.0023303002
-0.014075833 0.00254 -0.0016506501
0.024130002 -0.00069272728 -0.00074445008
-0.01429926 -0.00069272728 -0.0023303002
-0.0049153706 0 -0.005502
0.012288426 0.0016163636 -0.0023303002
-0.023683149 0.0023090909 -0.00074445008
-0.0020108335 -0.00069272728 -0.00029135006
0.016533518 0.00069272728 -0.0023303002
0.0091604637 0.00254 -0.00051790004
-0.010277593 -0.00254 -0.00097100006
-0.015192963 -0.00023090909 -0.00436925
-0.018991204 -0.0023090909 -6.4800071e-05
-0.014522686 0 -6.4800071e-05
-0.00022342593 0 -0.00391615
-0.023459723 0.00254 -0.00097100006
-0.0075964816 0.00092363637 -0.0023303002
0.00089370372 -0.00254 -0.00051790004
-0.01318213 0.0016163636 -0.00029135006
-0.021895742 -0.00254 -0.0014241
0.0029045371 -0.00023090909 -0.0023303002
-0.0006702778 -0.0016163636 -0.0023303002
0.018544352 -0.0013854546 -0.0023303002
0.0046919445 0.0011545455 -0.00029135006
0 0.00046181818 0.0022006999
-0.012958704 0.0023090909 -0.0023303002
0.016310094 0.0023090909 -0.00029135006
0.018320927 0.0011545455 -0.0023303002
0.0049153706 -0.0018472727 -0.00029135006
0.010947871 -0.0018472727 -0.0023303002
0.021895742 0.00092363637 -0.0023303002
0.022789445 0.0018472727 -0.0023303002
-0.020331759 0.00023090909 -0.0066347499
-0.012065001 -0.00254 -0.0018772001
0.015416389 -0.0018472727 -0.00029135006
-0.020331759 -0.00023090909 -0.0045957998
0.013852408 -0.0013854546 -0.00029135006
-0.011171296 -0.00254 -0.0014241
-0.020778611 0.0013854546 -0.0023303002
-0.012511852 0 -0.0041427002
0.012735278 -0.00023090909 -0.0091268001
0.011841575 0.0013854546 -0.00029135006
0.024130002 0.00046181818 -0.00097100006
-0.024130002 -0.00023090909 -0.00029135006
-0.015863242 0.00254 -0.0011975501
-0.0091604637 0.0016163636 -0.0023303002
0.018544352 -0.0016163636 -0.00029135006
-0.016980371 0.0011545455 -0.0023303002
0.0084901853 -0.00254 -0.0016506501
-0.013405556 0.0023090909 -6.4800071e-05
0.012735278 0.00023090909 -0.0077674999
-0.016310094 -0.00254 -0.00074445008
0.015639815 -0.00046181818 -0.00029135006
-0.017203797 -0.0018472727 -0.00029135006
-0.014522686 0.00254 -0.0014241
-0.022789445 0.00254 -0.00029135006
-0.020331759 -0.00023090909 -0.0086736996
0.0060325004 -0.0011545455 -0.00029135006
-0.020108335 0.00023090909 -0.0048223501
-0.012288426 -0.0011545455 -0.00029135006
-0.018991204 -0.0023090909 -0.0023303002
0.012735278 -0.00023090909 0.0010679499
0.0049153706 0.00254 -0.00051790004
-0.017203797 -0.00254 -0.00097100006
-0.0024576853 -0.00023090909 -0.0093533499
0.0051387963 -0.00023090909 -6.4800071e-05
0.012065001 -0.00254 -0.00029135006
0.0024576853 0.00023090909 0.00016174992
-0.0078199077 0.00023090909 -0.00300995
0.0078199077 -0.00023090909 0.0012945
-0.021672316 -0.00069272728 -0.0023303002
0.0049153706 -0.00023090909 0.0012945
-0.003351389 0.00254 -0.00029135006
-0.0017874074 -0.00254 -0.0011975501
-0.0078199077 -0.00023090909 0.0024272499
0.015416389 0 -0.0050488999
-0.022789445 -0.00254 -0.0011975501
0.017874075 0 -0.0041427002
0.00089370372 0.0013854546 -0.00029135006
0.012511852 0.00023090909 -0.0068613002
-0.0071496298 -0.00254 -0.00097100006
0.003127963 -0.0016163636 -0.0023303002
-0.014969538 -0.00254 -0.00029135006
0.0049153706 0.00023090909 -0.0068613002
0 -0.0016163636 -0.00029135006
-0.0024576853 -0.00023090909 -0.00300995
0.018320927 0 -0.0023303002
0.010501019 -0.00254 -0.0014241
-0.0026811112 0.00023090909 -0.0073143998
0.011841575 0.0016163636 -0.0023303002
-0.017874075 0.00023090909 0.0026538
0.0078199077 0.00023090909 -0.00300995
0.020555185 0 -0.00300995
0.0035748149 0.0018472727 -0.00029135006
0.0026811112 -0.00046181818 -0.00255685
0.01921463 -0.00092363637 -0.00029135006
-0.023906576 -0.00023090909 -6.4800071e-05
0.0082667591 0.00254 -0.00029135006
0.0082667591 -0.00254 -0.0011975501
-0.0011171297 0.0011545455 -0.0023303002
-0.011171296 0 -6.4800071e-05
-0.0058090743 -0.0020781818 -0.0023303002
-0.0013405556 -0.0020781818 -0.0023303002
-0.012735278 0.00023090909 0.00288035
-0.0015639815 0.0020781818 -0.0023303002
-0.018320927 0.00254 -0.0018772001
-0.012065001 -0.00254 -0.0014241
-0.0089370375 -0.00046181818 -0.00029135006
-0.018544352 0.0013854546 -0.00029135006
-0.0044685188 0.00254 -0.00074445008
0.00044685186 -0.00254 -0.00051790004
0.0042450926 0.00254 -0.0011975501
-0.010724445 -0.0020781818 -0.00029135006
-0.0067027779 -0.0020781818 -0.0023303002
0.023012871 -0.00023090909 -0.0050488999
0.0078199077 0.0013854546 -0.00029135006
-0.015416389 0 0.0010679499
0.0075964816 -0.00023090909 0.0031068998
-0.022789445 -0.00023090909 -0.0066347499
0.017874075 -0.00023090909 -0.00708785
-0.00022342593 0 0.0022006999
-0.013405556 0.00046181818 -0.0023303002
0.0087136114 0.0020781818 -0.0023303002
-0.018097501 -0.00254 -0.0023303002
0.020555185 -0.00023090909 -0.0061816499
0.023012871 0.0023090909 -6.4800071e-05
0.015416389 -0.00023090909 -0.00436925
0.010277593 -0.00254 -0.00029135006
-0.019884909 -0.00254 -0.00074445008
0.0024576853 0.0018472727 -0.00029135006
-0.017650649 -0.00023090909 -0.00255685
-0.024130002 0.0013854546 -0.00074445008
0.024130002 -0.00092363637 -0.00051790004
-0.0011171297 0.00254 -0.0016506501
0.013405556 -0.00254 -0.00029135006
0.022566019 -0.0020781818 -0.00029135006
0.0073730559 -0.00023090909 -6.4800071e-05
0.023906576 0.0020781818 -6.4800071e-05
0.0035748149 0.0013854546 -0.00029135006
0.0073730559 0 0.0022006999
-0.0040216669 0.00092363637 -0.0023303002
0.014969538 0.00023090909 -0.0057285503
-0.0006702778 -0.0018472727 -0.0023303002
-0.0075964816 -0.00023090909 0.0017475999
0.017874075 -0.00023090909 -0.00255685
-0.0067027779 -0.00046181818 -0.00029135006
0.0067027779 -0.0013854546 -0.0023303002
0.012511852 0.00023090909 -0.0073143998
-0.0049153706 0.00254 -0.00051790004
-0.020555185 -0.00023090909 -0.0091268001
-0.011171296 0.00254 -0.0014241
0.021672316 0.00254 -0.00029135006
0.015863242 -0.00254 -0.00051790004
-0.012958704 -0.00023090909 -0.0064082001
-0.0022342594 -0.00023090909 0.0015210499
-0.019661482 0.00254 -0.0021037501
0.013628982 0.00254 -0.0011975501
-0.0022342594 -0.0013854546 -0.0023303002
-0.0091604637 -0.00254 -6.4800071e-05
-0.0020108335 -0.0018472727 -0.00029135006
0.020108335 0 -0.0052754502
0.01921463 0.00092363637 -0.00029135006
-0.0069262041 -0.0013854546 -0.00029135006
-0.02144889 0.00023090909 -6.4800071e-05
0.019661482 0.0016163636 -0.0023303002
-0.017650649 0.00023090909 0.0019741498
0.010054167 0.00023090909 -0.0068613002
-0.017874075 -0.0018472727 -0.0023303002
-0.0024576853 0 0.0015210499
0.0026811112 0.00254 -6.4800071e-05
0.023683149 -0.0023090909 -0.00074445008
-0.0026811112 0 -0.005502
-0.0013405556 0.00254 -0.00051790004
0.0069262041 0.0013854546 -0.0023303002
0.011618149 0.0023090909 -0.00029135006
0.015192963 0.00046181818 -0.0066347499
-0.010054167 0.00069272728 -0.00029135006
0.016086668 -0.00254 -6.4800071e-05
0.010054167 -0.00069272728 -0.00029135006
-0.013405556 -0.00092363637 -0.0023303002
0.023012871 0.00254 -0.0014241
-0.015863242 0.0011545455 -0.00029135006
0.018991204 0.0020781818 -0.0023303002
-0.0084901853 0.00254 -0.0018772001
-0.022119168 0.0020781818 -0.0023303002
-0.0026811112 -0.00023090909 -0.0045957998
-0.013405556 -0.0018472727 -0.00029135006
-0.023459723 0.00254 -0.0021037501
-0.0006702778 0.00092363637 -0.00029135006
-0.0049153706 -0.00254 -6.4800071e-05
0 -0.00092363637 -0.0023303002
0.020331759 -0.00023090909 -0.0064082001
-0.015639815 -0.00092363637 -0.0023303002
-0.020108335 0 0.0017475999
0.013628982 -0.00254 -0.00097100006
0.0091604637 -0.00069272728 -0.0023303002
0.0046919445 -0.00092363637 -0.0023303002
0.0011171297 0.00254 -0.0011975501
0.022566019 0 0.0024272499
-0.023012871 -0.00023090909 -0.0057285503
-0.0029045371 -0.00092363637 -0.0023303002
-0.024130002 -0.0013854546 -0.0014241
-0.022789445 0.00092363637 -0.0023303002
0.017650649 0.00254 -0.0014241
-0.016756944 -0.00069272728 -0.00029135006
-0.0049153706 0 0.00288035
0.015416389 -0.00023090909 -0.0084471498
0.013405556 -0.0018472727 -0.0023303002
-0.023012871 -0.00023090909 -0.0064082001
0.016980371 0.00254 -0.0016506501
0.01429926 0.0018472727 -0.00029135006
0.00022342593 0 -0.0061816499
0.016533518 0.00254 -0.00029135006
-0.0053622224 -0.00254 -0.00051790004
0.010054167 -0.00092363637 -0.0023303002
0.010054167 -0.00254 -0.0011975501
0.011841575 0.0011545455 -0.0023303002
-0.0080433339 -0.00254 -0.0021037501
0.0069262041 0.00092363637 -0.0023303002
-0.022566019 -0.00254 -0.00097100006
-0.0089370375 0.00046181818 -0.0023303002
-0.018544352 -0.00046181818 -0.0023303002
0.022342592 -0.00023090909 -6.4800071e-05
-0.021672316 -0.0011545455 -0.00029135006
-0.020331759 0.0018472727 -0.0023303002
-0.019661482 -0.0016163636 -0.00029135006
-0.0029045371 -0.00046181818 -0.00029135006
-0.016980371 0.00254 -0.00051790004
-0.0015639815 -0.00046181818 -0.0023303002
0.0046919445 0.0023090909 -0.0023303002
-0.023012871 0 0.0026538
-0.00044685186 0.0013854546 -0.00029135006
0.022119168 0.00254 -0.0011975501
0.010947871 -0.00046181818 -0.0023303002
-0.015863242 -0.0020781818 -0.0023303002
-0.017427223 -0.00069272728 -0.00029135006
0.0026811112 0.00023090909 0.0019741498
-0.018097501 0.00046181818 -0.00029135006
-0.012958704 0.0020781818 -0.00029135006
-0.014075833 0.0016163636 -0.00029135006
0.021225464 0.0016163636 -0.00029135006
0.0011171297 -0.00023090909 -6.4800071e-05
-0.012511852 0 0.0015210499
-0.017874075 -0.00023090909 -0.0093533499
-0.023906576 0.00069272728 -0.0023303002
0.0071496298 -0.00254 -0.00051790004
0.020331759 0.00023090909 0.00084139995
0.013852408 0 -0.0023303002
-0.0053622224 0 0.0026538
0.017650649 0.00023090909 -0.0079940502
0.01921463 0.0020781818 -0.0023303002
0.0091604637 0.00254 -0.0011975501
0 -0.00254 -0.00074445008
-0.0042450926 -0.0013854546 -0.0023303002
0.0073730559 0 -0.00300995
0.0093838889 0.0020781818 -0.00029135006
0.020555185 0.00023090909 -0.0086736996
-0.010501019 -0.00069272728 -0.00029135006
0.0017874074 -0.0020781818 -0.0023303002
0 0.00023090909 0.0024272499
0.018991204 -0.00254 -0.00074445008
0.014746112 -0.0011545455 -0.00029135006
-0.00022342593 0.0020781818 -0.00029135006
0.022566019 -0.00092363637 -0.00029135006
0.00022342593 0 -0.00391615
0.018097501 -0.00254 -0.0018772001
0.0078199077 -0.00092363637 -0.0023303002
0.0046919445 0.0016163636 -0.0023303002
0.0035748149 0.00254 -0.00097100006
0.019438056 -0.0013854546 -0.00029135006
-0.0062559261 0.00046181818 -0.0023303002
-0.0035748149 0.0023090909 -0.0023303002
-0.015192963 0.00023090909 0.00084139995
0.0093838889 -0.00254 -0.0011975501
-0.012511852 0 -0.0073143998
0.016756944 0.0013854546 -0.00029135006
0.023236297 0.0013854546 -0.0023303002
-0.010277593 0 0.00016174992
0.0024576853 0 0.00061484991
0.0026811112 0.00046181818 -0.00255685
0.0080433339 -0.0020781818 -0.0023303002
0.020555185 -0.00023090909 -0.00708785
-0.017427223 0.00254 -0.0018772001
-0.012958704 -0.00046181818 -0.00029135006
0.0078199077 -0.00254 -0.0011975501
-0.021225464 0.0013854546 -0.00029135006
0.010054167 0 0.0010679499
-0.019438056 0 -6.4800071e-05
-0.0078199077 -0.0018472727 -0.0023303002
0.017874075 -0.00023090909 -0.00391615
0.0037982408 0.0020781818 -0.00029135006
-0.017874075 0 -0.0027834
-0.0062559261 -0.0023090909 -6.4800071e-05
-0.003127963 0.0023090909 -6.4800071e-05
-0.023906576 0.0020781818 -0.0011975501
0.010277593 0 0.0015210499
-0.0075964816 0.00023090909 0.0017475999
0.012511852 -0.00023090909 -0.0036896002
-0.0053622224 -0.00254 -0.00029135006
-0.023459723 0.00254 -0.0014241
-0.0078199077 0.00254 -0.00051790004
0.021225464 0.0020781818 -0.00029135006
0.0075964816 0.00046181818 -0.0079940502
-0.0091604637 -0.00023090909 -0.0023303002
0.020331759 -0.00023090909 -0.0079940502
-0.014075833 0.0023090909 -0.00029135006
0.012735278 0.0016163636 -0.00029135006
0.018097501 -0.0018472727 -0.0023303002
-0.015416389 0 -0.0086736996
0.0026811112 0.00254 -0.0023303002
-0.02144889 0.00092363637 -0.0023303002
0.016086668 -0.00092363637 -0.0023303002
-0.020331759 0.00254 -0.00074445008
-0.00022342593 0 -0.0084471498
-0.018544352 0.00023090909 -6.4800071e-05
-0.023012871 0.00254 -0.0011975501
0.020555185 -0.00254 -0.00051790004
-0.016310094 0.0018472727 -0.00029135006
-0.012735278 0.00254 -0.0014241
0.010277593 0 -0.0091268001
0.0098307412 -0.0011545455 -0.00029135006
-0.014969538 0.0011545455 -0.0023303002
0.020108335 0 -0.0066347499
0.0098307412 -0.00254 -0.0011975501
0.015192963 0.00046181818 0.0024272499
0.010501019 0.0011545455 -0.0023303002
-0.0078199077 -0.00023090909 -0.0089002503
0.018097501 0 -6.4800071e-05
0.0015639815 0.00254 -0.00074445008
-0.023459723 -0.00069272728 -0.0023303002
0.024130002 0.00046181818 -0.00074445008
-0.020108335 -0.00254 -6.4800071e-05
0.017427223 -0.0011545455 -0.0023303002
0.012735278 0.00046181818 -0.0048223501
-0.018320927 -0.0016163636 -0.00029135006
0.0064793522 -0.00046181818 -0.00029135006
0.0017874074 0.0011545455 -0.00029135006
-0.00022342593 -0.00023090909 0.0024272499
-0.0024576853 -0.00023090909 -0.0052754502
0.021672316 0.00092363637 -0.00029135006
-0.014746112 0.0018472727 -0.00029135006
-0.0053622224 0 -0.0061816499
-0.01429926 0.0016163636 -0.00029135006
-0.010947871 0.00254 -0.0018772001
0.020555185 -0.00023090909 -0.0064082001
-0.0026811112 -0.0018472727 -0.0023303002
0.015863242 -0.00254 -0.00097100006
0.015192963 0.0018472727 -0.00029135006
-0.015416389 -0.0018472727 -0.00029135006
0.023012871 0.00023090909 -0.0093533499
0.018767778 -0.00046181818 -0.0023303002
-0.010054167 0 -0.0061816499
0.003127963 0.00092363637 -0.00029135006
-0.0049153706 0.00023090909 -0.0050488999
-0.0040216669 0.00046181818 -0.0023303002
0.010054167 0.00023090909 0.00038829993
0.011171296 -0.00254 -0.0018772001
-0.016310094 -0.00254 -0.0021037501
-0.020331759 -0.00254 -6.4800071e-05
-0.011171296 -0.0016163636 -0.0023303002
0.015639815 0.00092363637 -0.00029135006
-0.018320927 -0.00069272728 -0.0023303002
-0.017427223 -0.00046181818 -0.0023303002
-0.021002037 -0.00254 -0.0023303002
0.0026811112 0.00023090909 0.0017475999
0.0051387963 0.00023090909 -0.0093533499
0.0026811112 0.00023090909 0.00061484991
0.022789445 0.0016163636 -0.0023303002
-0.0049153706 0 0.0026538
-0.0024576853 0 -0.0036896002
0.016086668 0.0013854546 -0.0023303002
-0.0049153706 -0.00046181818 -0.00029135006
-0.024130002 0.00092363637 -0.0016506501
-0.019661482 -0.00092363637 -0.00029135006
0.021895742 0 -6.4800071e-05
-0.02144889 -0.00046181818 -0.00029135006
0.0058090743 0.00254 -0.0014241
0.020108335 0.0016163636 -0.0023303002
0.015416389 0.0023090909 -0.0023303002
-0.017650649 -0.0018472727 -0.00029135006
0.0040216669 -0.00046181818 -0.00029135006
0.0040216669 -0.00023090909 -6.4800071e-05
-0.013628982 0.00254 -0.00029135006
0.011618149 0.00023090909 -0.0023303002
-0.0078199077 -0.0023090909 -6.4800071e-05
-0.020108335 0.00092363637 -0.0023303002
-0.003351389 -0.00254 -0.00051790004
-0.01429926 -0.00254 -0.0018772001
0 -0.0018472727 -0.0023303002
-0.023683149 0.00069272728 -0.0023303002
-0.011394722 0.00023090909 -6.4800071e-05
0.016086668 -0.00254 -0.00074445008
0.010724445 -0.00254 -0.0016506501
0.017650649 0 -0.00708785
-0.023906576 0.0018472727 -0.0023303002
0.017650649 0.00023090909 -0.0050488999
0.0040216669 -0.00254 -0.00074445008
-0.0062559261 -0.0013854546 -0.0023303002
-0.0073730559 0 -0.00255685
-0.017203797 0.00254 -0.0011975501
-0.0040216669 -0.0023090909 -0.0023303002
-0.01429926 0.0013854546 -0.00029135006
0.0037982408 -0.00254 -6.4800071e-05
-0.0098307412 -0.0011545455 -0.00029135006
-0.021225464 -0.00023090909 -0.0023303002
-0.023906576 0.0011545455 -0.0023303002
0.018320927 0.0011545455 -0.00029135006
0.020331759 0.0018472727 -0.00029135006
0.0006702778 -0.0016163636 -0.0023303002
0.012288426 0.00254 -0.0011975501
-0.017874075 0.00254 -0.00097100006
-0.014522686 -0.00069272728 -0.00029135006
0.0091604637 0 -6.4800071e-05
-0.015192963 -0.0013854546 -0.00029135006
-0.019884909 -0.00254 -0.0021037501
-0.0013405556 -0.00254 -0.0021037501
0.0046919445 -0.00046181818 -0.00029135006
-0.0075964816 -0.00023090909 -0.0050488999
0.023683149 -0.00069272728 -0.00029135006
-0.013628982 0.0020781818 -0.0023303002
0.012511852 0 -0.0036896002
-0.010054167 -0.00023090909 -0.0077674999
0.0073730559 0 0.00016174992
-0.01429926 0.00254 -0.00097100006
-0.0040216669 0.0016163636 -0.00029135006
-0.0020108335 0.0018472727 -0.00029135006
0.0062559261 -0.00092363637 -0.0023303002
0.0080433339 0.0023090909 -6.4800071e-05
0.0078199077 0.00254 -0.00097100006
0.015416389 0.00023090909 -0.00436925
0.020555185 0 -0.0059551001
0.023683149 -0.0023090909 -0.0016506501
0 -0.00023090909 0.0031068998
0.023459723 0.0023090909 -0.0023303002
0.0044685188 0.0018472727 -0.0023303002
0.011618149 0.00254 -0.0023303002
0.014522686 0.00254 -0.0021037501
-0.0051387963 -0.00023090909 0.0024272499
0.018991204 -0.00254 -0.0011975501
-0.012288426 -0.00254 -0.00029135006
0.017874075 0.00023090909 -0.0093533499
0.018097501 -0.00046181818 -0.00029135006
0.015416389 0.0013854546 -0.0023303002
-0.0053622224 0.00092363637 -0.0023303002
0.0024576853 0.00023090909 -0.0075409501
-0.0026811112 -0.0013854546 -0.0023303002
-0.018320927 -0.0011545455 -0.0023303002
-0.0098307412 0.00023090909 -0.0023303002
-0.017427223 -0.00046181818 -0.00029135006
-0.0064793522 0.00254 -0.0016506501
0.010947871 0.0016163636 -0.0023303002
0.017874075 0.00023090909 -0.0045957998
-0.015416389 0 -0.0041427002
0.016310094 -0.00092363637 -0.0023303002
0.01921463 0.0018472727 -0.0023303002
0.013628982 0.0018472727 -0.00029135006
-0.010277593 -0.0018472727 -0.0023303002
-0.00022342593 0 -0.0095798997
0.023012871 0 -0.0059551001
-0.012958704 0.00023090909 -0.00255685
0.0024576853 0.00254 -0.00029135006
-0.017874075 0 -0.0034630501
-0.020108335 0.00023090909 -0.00708785
-0.011394722 0 -6.4800071e-05
-0.0051387963 -0.00023090909 0.00038829993
-0.018991204 -0.00254 -0.0016506501
0.010501019 -0.00254 -0.00074445008
-0.013852408 -0.00254 -0.0021037501
-0.0026811112 -0.00023090909 0.0012945
0.019438056 0.0013854546 -0.00029135006
0.011394722 0.00046181818 -6.4800071e-05
