# .PCD v0.7 - Point Cloud Data file format
VERSION 0.7
FIELDS x y z
SIZE 4 4 4
TYPE F F F
COUNT 1 1 1
WIDTH 1181
HEIGHT 1
VIEWPOINT 0 0 0 1 0 0 0
POINTS 1181
DATA ascii
-0.0021791209 0.0045474926 -0.00047164192
0.016343407 -0.0001818997 -0.0085492544
-0.012166758 -0.00090949849 -0.0032253733
0.0019975274 -0.00054569909 -0.0026746271
-0.0050846152 -0.0045474926 -0.0054283584
-0.006355769 -0.00090949849 -0.0045104478
-0.0076269228 -0.0045474926 -0.0052447766
-0.006174176 0.0034560943 -0.00047164192
-0.0032686812 -0.0045474926 -0.0010223882
-0.0019975274 0.0045474926 -0.0067134332
-0.0094428575 0.0045474926 -0.0057955226
0.0067189559 0.0045474926 -0.002307463
0.0081717037 0.0045474926 -0.0078149261
0.011077198 0.0043655927 -0.0074477615
-0.011621978 -0.00090949849 0.0013641791
0.011440384 0.00090949849 -0.0039597019
0.011258791 -0.0010913982 0.001180597
-0.01489066 -0.00036379939 -0.0056119408
0.00036318682 -0.0045474926 -0.0041432837
0.0058109891 0.0041836933 -0.00047164192
0.0085348897 0.0045474926 -0.0013895524
0.0059925825 0.0030922948 -0.00047164192
-0.0072637363 0.0029103952 -0.0089164181
-0.011077198 -0.0045474926 -0.0015731344
0.012893132 -0.0045474926 -0.0056119408
0.0027239011 -0.0045474926 -0.0076313438
-0.010895604 0.0045474926 -0.0041432837
0.00090796704 0.0045474926 -0.0032253733
-0.013256319 -0.0045474926 -0.0019402987
0.0074453298 0.0010913982 -0.0032253733
0.0019975274 0.0038198938 -0.0089164181
-0.010714011 0.0045474926 -0.0070805973
0.0032686812 0.0045474926 -0.0035925375
-0.015253846 0.0040017935 -0.00047164192
-0.0094428575 0.0040017935 -0.00047164192
-0.0083532967 -0.00090949849 -0.0046940302
0.0049030217 -0.00090949849 -0.00047164192
-0.0016343406 0 -0.0087328358
-0.0023607144 0.0045474926 -0.00065522402
0.013074725 0.0043655927 -0.0081820898
0.013437912 0.00036379939 -0.0028582092
-0.0065373625 0.0014551976 0.00081343274
-0.014527473 0.0043655927 -0.002307463
-0.0058109891 0.0032741947 -0.00047164192
0.013074725 0.0043655927 -0.0085492544
0.014709066 -0.0045474926 -0.0037761196
0.016343407 0.0038198938 -0.0028582092
0.0036318682 0.0045474926 -0.0067134332
0.0027239011 0.0045474926 -0.0021238807
0.0070821429 0.00072759879 -0.00047164192
-0.0036318682 -0.0034560943 -0.0089164181
0.013256319 -0.0045474926 -0.0067134332
0.0036318682 -0.0014551976 -0.00010447772
-0.016525 -0.0012732979 -0.0028582092
-0.0070821429 0.00090949849 -0.0057955226
-0.014527473 0.00090949849 -0.0050611943
-0.015072253 -0.00090949849 -0.004877612
-0.016343407 0.00036379939 -0.0056119408
0.016525 0.0021827964 -0.004877612
0.013982692 -0.0038198938 -0.00028805982
0.0067189559 0.0045474926 -0.0083656721
0.016525 -0.0038198938 -0.0078149261
-0.003087088 0.0045474926 -0.0065298509
0.0029054945 -0.0012732979 -0.0089164181
-0.0039950549 0.0012732979 -0.0087328358
0.00090796704 -0.0040017935 -0.0089164181
0.0016343406 -0.0040017935 -0.00047164192
0.014164286 -0.0021827964 -0.00047164192
-0.0012711538 -0.00072759879 -0.0028582092
-0.0039950549 0.0010913982 -0.0057955226
-0.012893132 0.0045474926 -0.0057955226
0.013256319 0.0001818997 -0.0057955226
0.0032686812 -0.0045474926 -0.0079985075
0.0054478021 -0.0045474926 -0.0057955226
-0.015072253 0.0029103952 -0.00047164192
-0.00018159341 -0.00090949849 -0.00047164192
0.0039950549 -0.0012732979 0.00099701481
-0.010350824 0.00090949849 -0.0046940302
0.015798626 -0.00072759879 -0.00047164192
0.010714011 0.0043655927 -0.0028582092
0.012166758 -0.0045474926 -0.0019402987
0.011440384 0.0016370973 0.00062985066
0.012166758 -0.0043655927 -0.0087328358
0.011258791 -0.0030922948 -0.0089164181
-0.0059925825 0.0029103952 -0.00028805982
0.00018159341 0.0045474926 -0.0059791049
-0.0074453298 0.0030922948 -0.0089164181
-0.0027239011 -0.0012732979 -0.0089164181
0.0096244505 -0.00072759879 -0.0057955226
-0.0072637363 0.0045474926 -0.0061626867
-0.0081717037 0.0010913982 -0.0037761196
0.0088980766 -0.0045474926 -0.0046940302
-0.011621978 -0.00072759879 -0.0056119408
0.014709066 0.00036379939 -0.00047164192
0.011803571 -0.0040017935 -0.00047164192
-0.0052662087 0.0040017935 -0.00047164192
0.0047214287 0.0010913982 -0.0037761196
-0.015798626 0.0045474926 -0.002491045
0.016343407 -0.0012732979 -0.0089164181
0.011258791 -0.0036379939 -0.00047164192
-0.01016923 -0.0016370973 -0.0089164181
-0.0052662087 0.00036379939 -0.0057955226
-0.0078085163 0.00090949849 -0.00047164192
-0.0083532967 -0.00090949849 -0.0030417913
-0.0041766483 0.0032741947 -0.00047164192
0.0090796705 0.00072759879 -0.0028582092
-0.0043582418 -0.0045474926 -0.0059791049
-0.0041766483 0.0010913982 -0.00028805982
-0.0085348897 -0.0029103952 -0.0089164181
-0.0092612635 -0.0045474926 -0.00065522402
-0.0041766483 -0.00072759879 -0.0087328358
0.0010895605 -0.00090949849 -0.0057955226
-0.0092612635 0.00072759879 -0.0057955226
0.0099876374 0.0043655927 -0.0034089554
0.00054478023 -0.0045474926 -0.0046940302
-0.0036318682 -0.0045474926 -0.0041432837
-0.016525 -0.00054569909 -0.0061626867
-0.013437912 -0.0001818997 -0.0089164181
0.0088980766 0.0043655927 -0.0019402987
-0.013437912 0.0040017935 -0.00028805982
-0.013801099 0.0045474926 -0.0056119408
-0.0018159341 0.0034560943 -0.00047164192
-0.0069005494 0.00072759879 -0.0026746271
0.016525 -0.0012732979 -0.006346269
-0.0081717037 -0.0016370973 -0.00028805982
-0.0074453298 0.0045474926 -0.0010223882
0.013074725 0.0043655927 -0.002491045
0.0070821429 0.0045474926 -0.0039597019
-0.00054478023 0.002364696 -0.0087328358
-0.0085348897 -0.00090949849 -0.0028582092
-0.0096244505 0.00090949849 -0.0041432837
-0.0027239011 -0.00054569909 -0.0026746271
0.0034502747 0.00072759879 -0.0087328358
-0.014709066 -0.0045474926 -0.0056119408
0.00036318682 0.0010913982 -0.0057955226
0.0038134614 -0.0045474926 -0.0017567166
-0.0012711538 0.0045474926 -0.0085492544
0.0025423076 -0.0045474926 -0.004877612
-0.0010895605 -0.0016370973 0.0020985075
-0.010895604 0.0025465959 -0.00047164192
0.0054478021 0.00090949849 -0.0089164181
-0.0094428575 -0.0045474926 -0.0076313438
0.0094428575 0.0001818997 -0.0028582092
0.014164286 -0.0030922948 -0.00028805982
-0.012348352 -0.0045474926 -0.0012059703
0.0036318682 -0.0010913982 -0.0087328358
-0.016525 -0.0032741947 -0.0021238807
-0.0076269228 0.0038198938 -0.00047164192
0.006355769 -0.0030922948 -0.0089164181
0.011258791 0.0043655927 -0.0065298509
0.01016923 0.0043655927 -0.0070805973
-0.0039950549 0.0036379939 -0.0089164181
0.011621978 0.00054569909 -0.0028582092
0.0070821429 0.0045474926 -0.006897015
-0.013437912 -0.002364696 -0.0089164181
0.0083532967 -0.002364696 -0.0089164181
-0.016525 0.0040017935 -0.0059791049
0.011985165 -0.0040017935 -0.0087328358
0.011077198 0.0034560943 -0.0089164181
0.015617033 -0.00054569909 -0.0056119408
-0.0016343406 -0.0045474926 -0.0035925375
0.0027239011 0.0010913982 -0.004877612
-0.014164286 -0.0010913982 -0.00047164192
-0.01543544 0.0043655927 -0.0045104478
-0.0083532967 0.00090949849 -0.0057955226
-0.0072637363 0.002364696 -0.00047164192
-0.0054478021 0.00072759879 -0.0089164181
0.006355769 -0.0025465959 -0.00047164192
-0.00054478023 0.0045474926 -0.0026746271
0.011440384 0.0010913982 0.0026492537
-0.012348352 -0.00090949849 -0.0054283584
0.0014527473 -0.0010913982 0.0024656716
-0.015253846 -0.0001818997 -0.00047164192
0.011985165 -0.0036379939 -0.0087328358
0.012711538 0.0029103952 -0.00047164192
0.0016343406 -0.0025465959 -0.00047164192
-0.0088980766 0 -0.00047164192
0.013437912 -0.0045474926 -0.0076313438
0.00072637363 0.0010913982 -0.004326866
-0.01016923 -0.0030922948 -0.00047164192
-0.0012711538 0.0010913982 -0.0034089554
-0.0039950549 0.0001818997 -0.00047164192
-0.00090796704 -0.0045474926 -0.0065298509
0.0087164836 0.0045474926 -0.0046940302
-0.0076269228 0 -0.0089164181
-0.011440384 0.0025465959 -0.00047164192
0.0012711538 -0.0014551976 0.0028328358
-0.0094428575 -0.0036379939 -0.0089164181
-0.00018159341 0.0029103952 -0.0085492544
-0.0076269228 0.0045474926 -0.0012059703
0.0034502747 -0.00036379939 -0.00047164192
0.010350824 0.0043655927 -0.0065298509
0.0021791209 -0.0001818997 -0.0059791049
-0.013074725 -0.002364696 -0.00047164192
0.0039950549 0.0040017935 -0.0089164181
0.0078085163 -0.0045474926 -0.0035925375
0.0059925825 0.0010913982 0.001180597
0.013437912 -0.00072759879 -0.0089164181
0.0038134614 -0.00090949849 -0.0050611943
-0.0054478021 0.0045474926 -0.0034089554
0.0014527473 0.0045474926 -0.0032253733
0.014527473 -0.00090949849 -0.0045104478
0.016343407 -0.0021827964 -0.0087328358
0.012893132 -0.0045474926 -0.004877612
-0.011440384 -0.0045474926 -0.0017567166
0.013074725 -0.0045474926 -0.0015731344
0.0059925825 -0.0027284955 -0.0089164181
-0.0041766483 -0.001818997 -0.00047164192
-0.016161812 -0.0034560943 -0.0083656721
0.013074725 0.0040017935 -0.00047164192
-0.016161812 -0.00072759879 -0.0056119408
0.0014527473 0.0041836933 -0.0085492544
-0.0067189559 0.0045474926 -0.00047164192
0.0043582418 0.0045474926 -0.0032253733
-0.00090796704 -0.00090949849 -0.0030417913
-0.015798626 -0.0043655927 -0.0035925375
-0.0036318682 -0.00090949849 -0.0056119408
0.012893132 0.0043655927 -0.0089164181
-0.016161812 -0.00036379939 -0.0081820898
0.0038134614 -0.00090949849 -0.0030417913
0.006174176 -0.00054569909 -0.0057955226
-0.013256319 0.0041836933 -0.0087328358
-0.0065373625 -0.0012732979 0.00081343274
-0.011621978 0.0012732979 0.0015477611
-0.015253846 -0.0043655927 -0.0067134332
0.015617033 -0.0043655927 -0.0074477615
0.0043582418 -0.0045474926 -0.0085492544
-0.0098060435 -0.0027284955 -0.00047164192
0.00090796704 0.0045474926 -0.0074477615
0.0014527473 -0.0045474926 -0.00065522402
-0.0081717037 -0.00090949849 -0.0050611943
-0.016525 0.0016370973 -0.0067134332
0.011077198 -0.0001818997 -0.0089164181
-0.0038134614 -0.00090949849 -0.004877612
0.0012711538 -0.0045474926 -0.0081820898
0.016525 0.0016370973 -0.0087328358
0.015798626 -0.00090949849 -0.0034089554
0.0069005494 0.0014551976 -0.00047164192
0.0032686812 -0.0025465959 -0.00028805982
0.012711538 -0.00090949849 -0.004877612
0.0047214287 0.0045474926 -0.0067134332
0.015617033 -0.0012732979 -0.0089164181
-0.012529945 -0.0040017935 -0.0089164181
-0.013256319 0.0016370973 -0.0089164181
-0.011621978 0.0045474926 -0.0015731344
-0.0052662087 -0.0041836933 -0.00047164192
-0.0049030217 -0.0014551976 -0.00047164192
0.016525 -0.0027284955 -0.006346269
0.0029054945 -0.00090949849 -0.0041432837
-0.00018159341 -0.001818997 -0.0089164181
0.0039950549 -0.0010913982 -0.0089164181
0.012348352 0.0025465959 -0.00047164192
-0.0043582418 0.0014551976 -0.00047164192
-0.0072637363 -0.0045474926 -0.0072641796
-0.015253846 0.0030922948 -0.0089164181
0.011258791 0.0043655927 -0.0046940302
0.0079901097 -0.00090949849 -0.004877612
0.00072637363 -0.00090949849 -0.0030417913
-0.0050846152 -0.002364696 -0.0089164181
0.013074725 0.00036379939 -0.0028582092
-0.0090796705 0.0010913982 -0.0089164181
-0.0083532967 0.0010913982 -0.0045104478
-0.0088980766 0.0045474926 -0.0046940302
0.0065373625 -0.0030922948 -0.0089164181
0.01489066 -0.0027284955 -0.00047164192
-0.0039950549 0.0021827964 -0.0089164181
0.016525 0.002364696 -0.006346269
-0.0032686812 -0.00090949849 -0.0054283584
0.016161812 0.0001818997 -0.0081820898
0.0032686812 -0.0045474926 -0.0012059703
-0.0036318682 -0.0040017935 -0.00028805982
-0.013437912 0.0045474926 -0.0028582092
0.015980219 0.0043655927 -0.0035925375
-0.013074725 0.00072759879 -0.0057955226
0.014709066 0.0043655927 -0.006897015
-0.014345879 -0.0040017935 -0.0089164181
-0.0065373625 0.00090949849 -0.0057955226
0.0094428575 -0.0045474926 -0.00047164192
0.0012711538 -0.0014551976 0.00062985066
-0.0083532967 0.0045474926 -0.0037761196
0.0076269228 0.0010913982 -0.0050611943
-0.011621978 0.0045474926 -0.0057955226
-0.0029054945 0.0045474926 -0.0028582092
-0.0012711538 -0.0045474926 -0.006346269
-0.0032686812 -0.0045474926 -0.0067134332
0.0027239011 0.00072759879 -0.0059791049
0.010350824 0.00090949849 -0.0034089554
-0.01489066 0.0038198938 -0.00047164192
-0.0058109891 0.0045474926 -0.004326866
-0.01016923 0.00072759879 -0.0057955226
0.012893132 0.0045474926 -0.00065522402
0.0059925825 0.0045474926 -0.006897015
0.00018159341 0.0045474926 -0.0054283584
0.015617033 0.0043655927 -0.0078149261
0.01016923 0.002364696 -0.0089164181
0.0049030217 0.0045474926 -0.0015731344
-0.011258791 0.0012732979 0.0015477611
-0.0018159341 0.0045474926 -0.0028582092
-0.0049030217 -0.0045474926 -0.0013895524
0.0045398353 0.0045474926 -0.0083656721
0.00054478023 0.0045474926 -0.0010223882
0.00036318682 0.0029103952 -0.0085492544
0.0056293956 -0.0030922948 -0.00028805982
-0.014164286 0.001818997 -0.00047164192
-0.0027239011 -0.0045474926 -0.006346269
0.0038134614 -0.0045474926 -0.0035925375
-0.0041766483 -0.0001818997 -0.00047164192
-0.0019975274 -0.0045474926 -0.002491045
-0.0081717037 0 -0.0089164181
0.0038134614 0.0010913982 -0.0032253733
0.0090796705 -0.0045474926 -0.0041432837
-0.0065373625 -0.0045474926 -0.0017567166
0.0039950549 0.0010913982 -0.0054283584
-0.006355769 -0.0032741947 -0.00047164192
-0.015798626 0.00054569909 -0.0028582092
-0.0059925825 0.0010913982 -0.004326866
-0.0056293956 0.0045474926 -0.002491045
0.0081717037 0.0027284955 -0.0089164181
-0.015617033 0.0045474926 -0.006346269
-0.015617033 -0.00090949849 -0.0035925375
0.010895604 -0.0038198938 -0.0087328358
0.0059925825 -0.0020008967 -0.00047164192
0.0094428575 -0.0012732979 -0.00047164192
0.0045398353 -0.00054569909 -0.0026746271
0.0036318682 -0.0014551976 0.0022820896
0.006174176 -0.0045474926 -0.0015731344
0.014345879 -0.0045474926 -0.0010223882
0.015980219 0.0043655927 -0.0089164181
0.0072637363 -0.0045474926 -0.0078149261
-0.00054478023 0.00054569909 -0.0087328358
-0.016161812 0.0043655927 -0.0045104478
-0.013074725 0.0043655927 -0.00047164192
0.012893132 -0.0045474926 -0.0028582092
-0.0041766483 -0.00090949849 -0.004326866
0.014709066 0.0043655927 -0.002307463
-0.0049030217 -0.00090949849 -0.0032253733
0.016343407 0.0021827964 -0.0072641796
-0.0088980766 -0.0045474926 -0.0067134332
-0.011258791 0.0043655927 -0.0039597019
0.014345879 0.0043655927 -0.0081820898
-0.0014527473 0.0045474926 -0.0054283584
-0.0045398353 -0.0001818997 -0.0059791049
-0.0038134614 -0.0045474926 -0.0045104478
-0.0052662087 0.0045474926 -0.0046940302
0.012711538 -0.0045474926 -0.0019402987
-0.0012711538 0.0010913982 0.00044626856
0.016525 0.0016370973 -0.0037761196
-0.0019975274 -0.0045474926 -0.00065522402
-0.0098060435 0.001818997 -0.00047164192
-0.015253846 -0.0043655927 -0.00047164192
-0.0067189559 0.0038198938 -0.0089164181
0.016161812 -0.0041836933 -0.0065298509
0.016161812 0.0040017935 -0.00047164192
0.0016343406 -0.0045474926 -0.00065522402
-0.011985165 0.00090949849 -0.0030417913
-0.0034502747 0.0021827964 -0.0085492544
0.016161812 0.0041836933 -0.0021238807
0.016343407 -0.0020008967 -0.0070805973
0.0094428575 0.0043655927 -0.0037761196
0.01489066 0.00090949849 -0.0054283584
0.0039950549 0.0012732979 0.0019149253
0.01543544 -0.0012732979 -0.0089164181
-0.011803571 0.0045474926 -0.0083656721
-0.0099876374 -0.0045474926 -0.0026746271
0.016525 -0.0012732979 -0.0028582092
0.011985165 0.00090949849 -0.0032253733
0.0047214287 0.0010913982 -0.0056119408
0.010532417 -0.0032741947 -0.00047164192
0.0065373625 -0.0014551976 0.00062985066
0.016525 0.00090949849 -0.0041432837
0.011077198 0.0014551976 -0.0089164181
0.0034502747 -0.0001818997 -0.0089164181
-0.0056293956 -0.0041836933 -0.00047164192
0.01016923 -0.00090949849 -0.004877612
-0.016525 -0.0014551976 -0.0056119408
0.0039950549 0.0021827964 -0.0089164181
-0.0010895605 -0.0012732979 0.00099701481
0.00018159341 -0.0010913982 -0.0089164181
0.00036318682 0.0045474926 -0.0078149261
0.0090796705 0.0014551976 0.0019149253
-0.015798626 -0.00090949849 -0.0052447766
0.0090796705 0.0043655927 -0.0057955226
0.006355769 -0.0036379939 -0.0089164181
0.011077198 -0.0045474926 -0.00065522402
-0.0067189559 0.0045474926 -0.0050611943
0.0085348897 0.0045474926 -0.0065298509
-0.0059925825 -0.0010913982 0.00081343274
-0.0041766483 0.00090949849 -0.0087328358
0.0049030217 -0.0016370973 -0.0089164181
0.0087164836 -0.0014551976 -0.0089164181
-0.0014527473 0.0010913982 0.0013641791
0.0067189559 -0.0001818997 -0.00028805982
-0.0076269228 0.00090949849 -0.0026746271
0.0039950549 -0.00036379939 -0.0026746271
0.0041766483 -0.00090949849 -0.0039597019
0.014345879 -0.00072759879 -0.0089164181
-0.014527473 0.0045474926 -0.004326866
-0.00036318682 -0.0001818997 -0.0026746271
0.0059925825 0.0025465959 -0.0089164181
-0.0070821429 0.0045474926 -0.0012059703
-0.01489066 -0.0045474926 -0.002307463
-0.016525 0.0025465959 -0.00047164192
-0.006174176 -0.0001818997 -0.0089164181
-0.010532417 -0.0043655927 -0.00047164192
0.011621978 0.0014551976 0.001180597
-0.011621978 0.0012732979 0.00026268646
0.010714011 0.0043655927 -0.0076313438
-0.016525 -0.0012732979 -0.0046940302
-0.012348352 -0.0045474926 -0.0052447766
0.016343407 0.00090949849 -0.0046940302
-0.0067189559 -0.0045474926 -0.0059791049
-0.006174176 0.0014551976 0.0013641791
-0.0054478021 0.00054569909 -0.0087328358
0.0016343406 0.0045474926 -0.0035925375
-0.011803571 -0.00072759879 -0.0028582092
0.01016923 -0.0001818997 -0.0057955226
-0.012529945 -0.0045474926 -0.0046940302
0.011985165 0.0036379939 -0.00047164192
0.0039950549 0.0001818997 -0.0087328358
-0.00036318682 -0.001818997 -0.0089164181
0.016525 0.0034560943 -0.0059791049
0.014527473 0.0043655927 -0.0085492544
0.0027239011 -0.0045474926 -0.0059791049
0.0023607144 0.00072759879 -0.00047164192
0.01489066 -0.0020008967 -0.00047164192
0.0039950549 -0.0016370973 0.00044626856
-0.010532417 -0.0045474926 -0.0072641796
-0.016161812 -0.00072759879 -0.0074477615
0.003087088 0.0043655927 -0.00047164192
-0.01016923 -0.0045474926 -0.002307463
0.012529945 -0.0040017935 -0.00047164192
0.0036318682 0.0014551976 0.0019149253
-0.011440384 -0.0045474926 -0.0037761196
-0.00036318682 -0.00090949849 -0.0030417913
0.0029054945 0.0025465959 -0.00047164192
0.0058109891 0.0045474926 -0.0010223882
-0.016525 0.0041836933 -0.0015731344
-0.016525 -0.00036379939 -0.0015731344
0.0014527473 -0.0045474926 -0.0028582092
-0.0025423076 -0.00036379939 -0.0059791049
0.0036318682 0.0010913982 -0.0052447766
-0.0036318682 -0.0014551976 0.0024656716
-0.014527473 0.0043655927 -0.0081820898
-0.0072637363 0.0045474926 -0.0028582092
-0.011077198 -0.0012732979 7.9104379e-05
-0.015617033 0.00072759879 -0.0056119408
-0.003087088 -0.0045474926 -0.0021238807
0.012711538 -0.0040017935 -0.00047164192
0.0083532967 0.0045474926 -0.0035925375
-0.0067189559 -0.0012732979 -0.00028805982
0.0065373625 0.0045474926 -0.004326866
-0.0034502747 0.0045474926 -0.0026746271
0.013074725 0.00090949849 -0.0034089554
0.015253846 -0.0036379939 -0.0087328358
-0.014527473 -0.0001818997 -0.0056119408
0.012893132 0.0043655927 -0.0078149261
0.016161812 0.0030922948 -0.0078149261
0.012893132 -0.00090949849 -0.0037761196
-0.0029054945 0.0027284955 -0.00028805982
-0.012711538 0.0045474926 -0.002491045
-0.0019975274 -0.00072759879 -0.00047164192
-0.0074453298 0.0025465959 -0.0089164181
0.0067189559 0.0045474926 -0.0028582092
-0.015980219 0.0034560943 -0.0079985075
0.016161812 0.0001818997 -0.0072641796
-0.0029054945 0.0020008967 -0.0085492544
0.0016343406 -0.0032741947 -0.0089164181
-0.0012711538 0.0016370973 0.0020985075
0.016525 -0.0001818997 -0.0021238807
-0.0065373625 -0.0045474926 -0.0015731344
-0.0034502747 0.00090949849 -0.0026746271
0.0054478021 0.0045474926 -0.0015731344
-0.013801099 0.0030922948 -0.00028805982
0.016525 0.001818997 -0.0039597019
0.0070821429 -0.0027284955 -0.00047164192
-0.01016923 -0.00054569909 -0.0089164181
-0.0074453298 -0.0001818997 -0.0026746271
0.010350824 -0.0045474926 -0.0021238807
-0.013801099 0.0045474926 -0.004326866
0.011258791 0.00036379939 -0.0089164181
-0.015617033 -0.00090949849 -0.0030417913
0.016343407 -0.00054569909 -0.0083656721
-0.011440384 -0.0012732979 0.0030164178
0.0036318682 -0.0010913982 0.00062985066
-0.0039950549 -0.0045474926 -0.0037761196
-0.0096244505 0.0030922948 -0.00047164192
0.013256319 0.0043655927 -0.0089164181
0.0038134614 0.0045474926 -0.0021238807
0.012166758 -0.0045474926 -0.0078149261
0.013619506 0.0043655927 -0.004877612
0.012166758 -0.0027284955 -0.0087328358
0.00090796704 -0.0045474926 -0.0052447766
0.011803571 -0.00054569909 -0.0089164181
-0.010714011 0.0001818997 -0.0028582092
-0.010714011 0.00072759879 -0.0057955226
0.0099876374 0.00090949849 -0.004326866
-0.0019975274 0.0045474926 -0.0026746271
-0.01489066 0.0001818997 -0.00047164192
-0.0032686812 0.0020008967 -0.0085492544
-0.016525 0.0030922948 -0.0021238807
0.0010895605 0.0010913982 -0.0028582092
0.0087164836 -0.0045474926 -0.0015731344
-0.0098060435 -0.00090949849 -0.004326866
0.0076269228 0.0045474926 -0.006346269
-0.0014527473 0.0010913982 -0.0045104478
-0.0078085163 0.0043655927 -0.0087328358
0.012166758 -0.00090949849 -0.0056119408
-0.010895604 0.0045474926 -0.0008388061
-0.0072637363 0.00036379939 -0.0026746271
0.0059925825 -0.00090949849 -0.0052447766
-0.0010895605 0.0045474926 -0.002307463
-0.00054478023 0.0021827964 -0.0087328358
0.0090796705 -0.00090949849 0.0020985075
-0.00018159341 0.00036379939 -0.0059791049
-0.0076269228 0.00090949849 -0.0057955226
-0.0079901097 0.00090949849 -0.0057955226
-0.016525 -0.0021827964 -0.0056119408
0.0078085163 0.0045474926 -0.004326866
-0.0050846152 0.0038198938 -0.00047164192
-0.015072253 0.00090949849 -0.0035925375
0.0087164836 0.0025465959 -0.0089164181
-0.011621978 0.0010913982 0.0026492537
0.011258791 0.0043655927 -0.0035925375
-0.0052662087 -0.0045474926 -0.0030417913
0.00072637363 0.0045474926 -0.0072641796
-0.0058109891 0.0045474926 -0.0039597019
0.016525 -0.0036379939 -0.0028582092
0.0016343406 -0.0010913982 0.001180597
-0.011440384 -0.00090949849 -0.00010447772
0.016343407 0.0040017935 -0.0019402987
-0.0036318682 0.0045474926 -0.0008388061
-0.0010895605 -0.0010913982 0.0028328358
-0.016525 -0.0036379939 -0.0078149261
0.011985165 -0.00090949849 -0.0041432837
0.012893132 -0.0045474926 -0.0081820898
0.0088980766 0.00090949849 -0.0089164181
0.016161812 0.00036379939 -0.0072641796
0.014527473 0 -0.0028582092
0.0090796705 0 -0.0028582092
0.0088980766 0.0043655927 -0.0076313438
-0.011803571 -0.0045474926 -0.006897015
-0.0023607144 0.0045474926 -0.004326866
0.0043582418 -0.00036379939 -0.0059791049
0.0027239011 0.0027284955 -0.0087328358
0.0087164836 -0.00090949849 -0.0046940302
0.0083532967 0.0016370973 -0.00047164192
-0.0047214287 -0.00090949849 -0.0034089554
-0.015253846 0.00054569909 -0.00047164192
-0.0054478021 0.0030922948 -0.00028805982
-0.0049030217 -0.0045474926 -0.002491045
0.010895604 -0.0045474926 -0.006897015
0.0081717037 0.00036379939 -0.0057955226
0.013437912 -0.00090949849 -0.004877612
-0.013074725 -0.0045474926 -0.0032253733
-0.012893132 0.00090949849 -0.0041432837
-0.0019975274 -0.0045474926 -0.0087328358
-0.0065373625 -0.0012732979 0.00062985066
-0.012166758 0.0030922948 -0.0089164181
0.0049030217 0.0045474926 -0.0045104478
0.0085348897 0.0045474926 -0.0085492544
-0.003087088 -0.00090949849 -0.0041432837
0.013619506 0.0030922948 -0.00028805982
-0.0087164836 -0.0045474926 -0.0041432837
-0.0014527473 -0.0045474926 -0.0046940302
0.012166758 0.00090949849 -0.0045104478
-0.0038134614 -0.0001818997 -0.0026746271
0.0069005494 -0.0032741947 -0.0089164181
0.0049030217 -0.0045474926 -0.0032253733
-0.013982692 -0.001818997 -0.0089164181
0.0049030217 -0.00090949849 -0.0052447766
0.016525 0.0016370973 -0.0035925375
0.016525 0.0020008967 -0.0026746271
0.0079901097 -0.0010913982 -0.0089164181
-0.0072637363 0.0001818997 -0.00047164192
0.013801099 0.0043655927 -0.0078149261
0.014709066 0.0043655927 -0.0070805973
-0.0043582418 -0.0045474926 -0.004326866
-0.0047214287 -0.0045474926 -0.004877612
0.006355769 -0.0034560943 -0.00028805982
-0.0019975274 -0.0025465959 -0.0089164181
-0.016525 0.0021827964 -0.0026746271
0.010350824 0.0032741947 -0.00047164192
0.011258791 -0.00090949849 -0.004877612
0.0049030217 0.0045474926 -0.0028582092
0.0065373625 0.0014551976 0.00081343274
0.011440384 0.00090949849 0.0015477611
0.006174176 0.0045474926 -0.0070805973
-0.0025423076 0.0045474926 -0.0074477615
-0.0078085163 -0.0021827964 -0.00047164192
0.014164286 -0.00036379939 -0.00047164192
-0.00018159341 0.0010913982 -0.004877612
-0.0076269228 -0.0045474926 -0.0057955226
-0.0098060435 0.0041836933 -0.0087328358
0.00054478023 -0.0045474926 -0.0052447766
0.015617033 0.0025465959 -0.0089164181
0.016343407 0.0043655927 -0.0056119408
0.0067189559 -0.0014551976 -0.00028805982
0.011258791 -0.0021827964 -0.0089164181
0.0085348897 -0.002364696 -0.00047164192
-0.0083532967 -0.00090949849 -0.004326866
-0.0096244505 -0.0032741947 -0.00047164192
-0.0092612635 0.0045474926 -0.0054283584
-0.0079901097 -0.0045474926 -0.0052447766
0 0.0045474926 -0.0076313438
0.0067189559 0.0045474926 -0.0074477615
0.0065373625 0.0045474926 -0.00065522402
-0.014345879 0.0045474926 -0.0015731344
0.0023607144 0.0045474926 -0.004326866
-0.0021791209 -0.0012732979 -0.00047164192
-0.0029054945 -0.0045474926 -0.0030417913
0.01543544 -0.001818997 -0.0089164181
-0.0099876374 -0.0045474926 -0.002307463
-0.013801099 0.0029103952 -0.0089164181
0.016525 -0.0040017935 -0.0057955226
0.00054478023 -0.0025465959 -0.0089164181
0.015798626 0.0032741947 -0.00047164192
-0.01489066 -0.0030922948 -0.0089164181
-0.0050846152 0.0020008967 -0.0089164181
0.006355769 0.0010913982 0.00062985066
0.0094428575 0.00090949849 -0.0050611943
-0.0065373625 -0.0014551976 7.9104379e-05
-0.011258791 0.00090949849 -0.004326866
-0.0034502747 0.0034560943 -0.00047164192
-0.00054478023 -0.0038198938 -0.00028805982
0.0014527473 0.0010913982 -0.0030417913
0.015980219 -0.0043655927 -0.002307463
-0.0034502747 -0.00036379939 -0.0026746271
-0.0016343406 -0.00090949849 -0.0034089554
-0.0021791209 -0.0045474926 -0.0012059703
0.010895604 0.0021827964 -0.0089164181
0.010350824 0.0029103952 -0.0089164181
0.013982692 -0.00036379939 -0.0057955226
-0.015617033 0.00090949849 -0.0032253733
-0.011077198 -0.00054569909 -0.0028582092
0.0056293956 0.0043655927 -0.0089164181
-0.00072637363 0.0040017935 -0.00047164192
0.0029054945 0.0038198938 -0.0089164181
0.016525 0.0025465959 -0.0059791049
0.016343407 0.0043655927 -0.0050611943
-0.0032686812 -0.0040017935 -0.0089164181
0.012529945 -0.00090949849 -0.0054283584
0.0041766483 -0.00090949849 -0.0032253733
-0.0021791209 -0.0043655927 -0.00047164192
0.0036318682 0.0014551976 -0.00010447772
0.0039950549 -0.0045474926 -0.0067134332
-0.013619506 0.0045474926 -0.0017567166
0.0045398353 0.00036379939 -0.0089164181
0.0052662087 -0.0025465959 -0.0089164181
-0.0019975274 0.0001818997 -0.0087328358
0.0025423076 0.0010913982 -0.0056119408
-0.0039950549 -0.0045474926 -0.0026746271
0.016343407 -0.0025465959 -0.00047164192
-0.016525 0.002364696 -0.006897015
-0.0059925825 -0.00054569909 -0.0026746271
0.015253846 0.0043655927 -0.00047164192
0.0088980766 -0.0038198938 -0.00047164192
-0.0029054945 -0.0045474926 -0.00047164192
0.0087164836 -0.0045474926 -0.004326866
0.0049030217 0.0001818997 -0.0089164181
0.0043582418 0.0001818997 -0.0026746271
0.0087164836 0.0010913982 -0.0028582092
-0.0039950549 0.0045474926 -0.0039597019
0.016525 -0.0012732979 -0.0021238807
0.016525 -0.002364696 -0.0072641796
-0.012348352 0.00090949849 -0.0089164181
0.003087088 0.0045474926 -0.0046940302
-0.0098060435 0.0043655927 -0.00047164192
0.006174176 0.00072759879 -0.0057955226
0.0032686812 0.0027284955 -0.00047164192
0.0016343406 -0.0043655927 -0.00047164192
0.0036318682 -0.0045474926 -0.0072641796
-0.00054478023 -0.00090949849 -0.0041432837
0.0054478021 -0.0014551976 -0.00047164192
-0.016525 0.001818997 -0.0061626867
0.015253846 -0.0041836933 -0.00047164192
-0.00072637363 -0.00072759879 -0.0057955226
-0.015617033 0.0016370973 -0.0089164181
0.01489066 -0.0041836933 -0.00047164192
-0.0036318682 -0.00090949849 -0.00010447772
0.013801099 -0.0001818997 -0.00047164192
-0.00054478023 0.0010913982 -0.0045104478
-0.0049030217 -0.0045474926 -0.0045104478
-0.01543544 0.00054569909 -0.0056119408
0.0019975274 -0.0045474926 -0.0026746271
-0.0099876374 0.0045474926 -0.0034089554
-0.0096244505 0.0045474926 -0.0012059703
0.0088980766 0.00072759879 -0.0057955226
0.015072253 0.00090949849 -0.0032253733
0.010532417 -0.0045474926 -0.0056119408
0.015253846 0.00090949849 -0.0037761196
-0.00018159341 -0.0045474926 -0.0046940302
0.0070821429 -0.0045474926 -0.0046940302
0.0083532967 -0.0036379939 -0.0087328358
0.016525 -0.0029103952 -0.002491045
-0.0069005494 -0.00072759879 -0.0089164181
-0.0021791209 -0.0045474926 -0.002491045
-0.0010895605 -0.0001818997 -0.0059791049
-0.011440384 -0.00072759879 -0.0056119408
0.0092612635 -0.0045474926 -0.0078149261
-0.0039950549 -0.0025465959 -0.0089164181
-0.013801099 0.0045474926 -0.0021238807
-0.012711538 0.0045474926 -0.0026746271
-0.013256319 0.0029103952 -0.00047164192
0.013437912 -0.00072759879 -0.0057955226
0.0039950549 0.0010913982 0.0020985075
0.0054478021 -0.001818997 -0.0089164181
-0.01016923 -0.0045474926 -0.004877612
0.006174176 0.0010913982 -0.00010447772
-0.0052662087 -0.0045474926 -0.004326866
0.012529945 -0.002364696 -0.0089164181
-0.0056293956 0.0045474926 -0.0076313438
-0.016343407 -0.0041836933 -0.0046940302
0.015617033 0.0040017935 -0.0072641796
-0.01489066 0.0045474926 -0.004326866
-0.0025423076 -0.002364696 -0.0089164181
0.0047214287 0.0001818997 -0.00047164192
-0.0043582418 -0.00072759879 -0.0087328358
-0.0012711538 -0.00054569909 -0.0089164181
-0.0056293956 -0.0012732979 -0.00047164192
0.012893132 0.0043655927 -0.0028582092
0.013619506 0 -0.00047164192
-0.00036318682 0.0045474926 -0.0037761196
0.015617033 0.00090949849 -0.0041432837
-0.014164286 0.0041836933 -0.00047164192
-0.012529945 0.0045474926 -0.0045104478
-0.0018159341 -0.0029103952 -0.00028805982
0.0050846152 -0.0045474926 -0.006346269
0.010350824 0.0029103952 -0.00047164192
-0.016525 0.0029103952 -0.0032253733
0.0098060435 0.0043655927 -0.0045104478
0.0027239011 -0.0001818997 -0.00047164192
-0.0087164836 -0.0016370973 0.0017313432
0.013801099 -0.0045474926 -0.002307463
0.0070821429 0.0045474926 -0.006346269
-0.014527473 0.0032741947 -0.0089164181
-0.016525 0.0034560943 -0.0015731344
-0.0039950549 0 -0.00047164192
-0.0043582418 0 -0.00047164192
-0.00036318682 0.0036379939 -0.0085492544
0.0088980766 0.0043655927 -0.0089164181
-0.0041766483 -0.00090949849 -0.0045104478
0.0098060435 0.0043655927 -0.00047164192
-0.00054478023 -0.00072759879 -0.0028582092
0.01543544 0.001818997 -0.00047164192
0.011440384 0.0012732979 -0.0089164181
0.011077198 -0.0045474926 -0.0012059703
0.013619506 -0.00090949849 -0.0041432837
0.013801099 -0.0045474926 -0.0046940302
-0.0014527473 0.0010913982 0.00081343274
-0.0036318682 -0.0036379939 -0.00047164192
-0.0027239011 -0.0045474926 -0.002307463
-0.015617033 -0.0001818997 -0.0089164181
0.003087088 0.0032741947 -0.0089164181
-0.011985165 -0.0045474926 -0.0013895524
0.0050846152 -0.00090949849 -0.0087328358
0.00036318682 0.0036379939 -0.0083656721
-0.0010895605 -0.0016370973 0.00026268646
0.0096244505 0.00072759879 -0.0089164181
0.013256319 0.0038198938 -0.00047164192
-0.016525 0.0041836933 -0.006346269
-0.015072253 -0.0043655927 -0.0072641796
0.016343407 -0.00072759879 -0.0081820898
-0.016161812 -0.0010913982 -0.0083656721
-0.0038134614 -0.00090949849 -0.0050611943
-0.0083532967 0.0034560943 -0.00047164192
0.013437912 -0.0045474926 -0.0078149261
-0.016525 -0.0020008967 -0.0021238807
0.0043582418 -0.0045474926 -0.0039597019
0.014527473 0.00090949849 -0.0039597019
0.0096244505 -0.0045474926 -0.00047164192
0.0058109891 0.0038198938 -0.0089164181
0.011803571 0.00090949849 -0.0030417913
0.0036318682 0.0041836933 -0.00047164192
-0.0038134614 0.00036379939 -0.0087328358
-0.0078085163 -0.0045474926 -0.006346269
0.01016923 0.002364696 -0.00047164192
0.003087088 -0.0020008967 -0.00047164192
0.0081717037 0.0045474926 -0.0021238807
-0.00072637363 0.001818997 -0.0087328358
0.0094428575 0.00090949849 -0.00047164192
0.0045398353 0.00036379939 -0.00047164192
0.013801099 -0.00090949849 -0.004326866
-0.0052662087 -0.0045474926 -0.0054283584
-0.01016923 -0.0045474926 -0.0083656721
-0.010895604 -0.0045474926 -0.0041432837
-0.016343407 -0.0041836933 -0.0039597019
-0.0019975274 0.00036379939 -0.0087328358
0.00072637363 0.0010913982 -0.0052447766
0.011077198 0.0012732979 -0.00010447772
-0.0041766483 -0.0021827964 -0.00028805982
-0.00036318682 0.0045474926 -0.0012059703
0.014527473 0.0038198938 -0.0089164181
0.016525 -0.0014551976 -0.004877612
-0.0038134614 -0.00090949849 -0.004326866
0.003087088 0.00054569909 -0.00047164192
-0.0016343406 0.0010913982 -0.0028582092
-0.00054478023 0.0020008967 -0.00028805982
-0.011258791 -0.00036379939 -0.0089164181
-0.0018159341 0.00036379939 -0.0059791049
0.015617033 0.0041836933 -0.00047164192
0.00054478023 0.0020008967 -0.0087328358
0.01489066 0.00036379939 -0.0056119408
-0.003087088 0.001818997 -0.00047164192
0.015980219 0.0014551976 -0.00047164192
0.011077198 -0.0045474926 -0.0026746271
-0.010714011 0.00090949849 -0.004877612
-0.015072253 -0.0038198938 -0.0089164181
-0.016525 -0.0029103952 -0.0021238807
-0.0014527473 0.0016370973 0.0024656716
0.0016343406 -0.00090949849 -0.0046940302
0.016343407 -0.0021827964 -0.0074477615
-0.0092612635 0.001818997 -0.00047164192
0.015798626 0.0032741947 -0.0076313438
-0.016525 0.0014551976 -0.0085492544
-0.0076269228 0.0001818997 -0.0089164181
-0.016343407 -0.0041836933 -0.00065522402
0.013074725 -0.00090949849 -0.0030417913
-0.014527473 0.0045474926 -0.0067134332
-0.011077198 -0.0045474926 -0.0028582092
0.0018159341 0.0036379939 -0.0087328358
-0.0058109891 -0.0045474926 -0.0046940302
0.006174176 0.0014551976 0.0022820896
0.00072637363 0.00072759879 -0.0087328358
-0.012893132 0.00054569909 -0.0089164181
0.016343407 0.0034560943 -0.0089164181
-0.0010895605 0.0045474926 -0.0083656721
0.011258791 0.00090949849 -0.0034089554
-0.0021791209 0.0034560943 -0.00028805982
0.010532417 -0.0034560943 -0.00047164192
0.012166758 0.0043655927 -0.0039597019
-0.011258791 0.00090949849 -0.0046940302
0.0087164836 0.0036379939 -0.00047164192
0.0065373625 -0.0012732979 0.0019149253
-0.0014527473 0.0045474926 -0.0032253733
0.0078085163 -0.00090949849 -0.0056119408
-0.0098060435 0.00090949849 -0.0030417913
0.0029054945 -0.00090949849 -0.0032253733
0.011077198 -0.00090949849 -0.0056119408
-0.0088980766 0.0016370973 0.0017313432
0.011621978 -0.00090949849 -0.0032253733
0.0034502747 0.0010913982 -0.004326866
-0.011621978 0.0045474926 -0.0087328358
0.013619506 -0.001818997 -0.00047164192
0.016525 -0.00054569909 -0.0061626867
-0.0034502747 0.0045474926 -0.0067134332
-0.011985165 -0.0045474926 -0.0026746271
0.015072253 -0.0020008967 -0.00047164192
-0.01016923 -0.0045474926 -0.006897015
0.0083532967 -0.0045474926 -0.0039597019
-0.016343407 -0.002364696 -0.006897015
-0.0065373625 0.0016370973 0.0019149253
-0.011258791 -0.0045474926 -0.0015731344
-0.011803571 0.00036379939 -0.00047164192
0.011258791 0.0034560943 -0.00047164192
0.013801099 -0.0045474926 -0.0017567166
-0.013256319 0.00090949849 -0.0089164181
-0.006355769 0.00036379939 -0.0026746271
-0.013619506 -0.0021827964 -0.0089164181
0.0038134614 0.001818997 -0.00028805982
-0.0083532967 0.0010913982 -0.0046940302
-0.0027239011 -0.0043655927 -0.0089164181
-0.013619506 0.00090949849 -0.0054283584
-0.016343407 -0.0041836933 -0.0035925375
-0.01543544 0.0034560943 -0.0089164181
-0.0036318682 -0.0014551976 0.00099701481
0.016525 -0.001818997 -0.0057955226
0.016525 -0.00090949849 -0.0013895524
-0.010532417 0.00036379939 -0.0057955226
-0.0025423076 -0.0045474926 -0.0072641796
-0.016525 -0.002364696 -0.002307463
0.015253846 -0.00036379939 -0.0056119408
0.013437912 -0.0029103952 -0.0087328358
-0.014345879 -0.0016370973 -0.00047164192
0.0088980766 -0.0010913982 -0.0089164181
-0.011985165 0.0045474926 -0.0054283584
0.00054478023 0.0045474926 -0.0052447766
-0.0083532967 -0.0045474926 -0.0070805973
0.0014527473 0.0040017935 -0.0087328358
0.0021791209 0.00072759879 -0.0026746271
0.0076269228 -0.0045474926 -0.0028582092
0.016525 -0.001818997 -0.0039597019
0.016343407 0.0029103952 -0.0067134332
0.015980219 0.0043655927 -0.0012059703
0.011440384 0.0045474926 -0.0008388061
-0.0058109891 -0.0021827964 -0.00047164192
-0.016525 -0.0036379939 -0.0057955226
0.010532417 0.0027284955 -0.0089164181
-0.0079901097 -0.0045474926 -0.0065298509
0.0032686812 -0.0045474926 -0.0074477615
-0.003087088 0.0010913982 -0.0052447766
0.010714011 0.00036379939 -0.00047164192
0.0094428575 -0.0045474926 -0.0078149261
-0.011440384 -0.00090949849 -0.0037761196
-0.0094428575 -0.0041836933 -0.00047164192
-0.016343407 -0.001818997 -0.0089164181
-0.0090796705 0.0045474926 -0.0087328358
-0.012166758 -0.00090949849 -0.0039597019
-0.0050846152 -0.0045474926 -0.0045104478
0.0096244505 0.0025465959 -0.00047164192
0.013619506 0.0043655927 -0.0070805973
-0.01489066 -0.0043655927 -0.0085492544
-0.0019975274 -0.00090949849 -0.004877612
-0.0032686812 0.0010913982 -0.004877612
-0.011440384 -0.0014551976 0.00099701481
-0.0065373625 0.0012732979 0.0017313432
0.011803571 0.0020008967 -0.0089164181
0.013074725 -0.0045474926 -0.0019402987
-0.0090796705 -0.0045474926 -0.0050611943
-0.0072637363 -0.0045474926 -0.0034089554
0.016525 -0.0040017935 -0.0070805973
0.013982692 0.0043655927 -0.0021238807
0.011077198 0.0043655927 -0.0013895524
0.0058109891 -0.0045474926 -0.0050611943
0.0056293956 0.0014551976 -0.00047164192
-0.0098060435 -0.0036379939 -0.0089164181
-0.0034502747 -0.0045474926 -0.0034089554
0.00036318682 -0.0045474926 -0.0061626867
0.016525 0.0036379939 -0.00065522402
-0.015072253 -0.0045474926 -0.002307463
-0.010714011 0.0025465959 -0.0089164181
0.0056293956 -0.00090949849 -0.0041432837
-0.010532417 -0.0020008967 -0.0089164181
-0.01489066 0.00090949849 -0.0032253733
0.0072637363 -0.0045474926 -0.00047164192
0.0096244505 0.0043655927 -0.0052447766
-0.012348352 0.00036379939 -0.0028582092
0.0052662087 -0.0045474926 -0.0019402987
0.0038134614 0.0045474926 -0.0045104478
-0.0010895605 0.0038198938 -0.0085492544
0.0047214287 -0.0016370973 -0.0089164181
-0.0016343406 -0.0038198938 -0.0089164181
-0.010350824 0.00090949849 -0.0037761196
-0.011803571 -0.0034560943 -0.0089164181
-0.014164286 0.0034560943 -0.00028805982
0.01489066 0.0032741947 -0.00047164192
-0.0056293956 -0.0045474926 -0.00065522402
-0.0045398353 -0.0040017935 -0.0089164181
0.010350824 0.0043655927 -0.004326866
-0.012348352 0.0001818997 -0.00047164192
-0.0072637363 0.0043655927 -0.00047164192
-0.0027239011 0.0045474926 -0.0072641796
-0.0090796705 0.002364696 -0.00047164192
-0.0047214287 0.0045474926 -0.0061626867
0.014709066 -0.0029103952 -0.0089164181
0.0059925825 -0.0038198938 -0.00047164192
0.0039950549 0.00072759879 -0.0026746271
-0.0079901097 0.0045474926 -0.0026746271
0.0016343406 -0.0041836933 -0.0089164181
0.015798626 0.00090949849 -0.0035925375
0.0096244505 -0.0045474926 -0.0013895524
0.0043582418 0.00090949849 -0.0087328358
-0.0079901097 0.0045474926 -0.002307463
-0.0074453298 -0.0012732979 -0.0089164181
-0.0027239011 0.0045474926 -0.002491045
0.0094428575 0.0043655927 -0.002307463
-0.0025423076 -0.0045474926 -0.0085492544
-0.0019975274 -0.0027284955 -0.00028805982
-0.0039950549 -0.0012732979 0.0019149253
-0.0014527473 -0.0010913982 0.001180597
0.0074453298 -0.0038198938 -0.00047164192
0.0096244505 -0.0045474926 -0.0037761196
0.0041766483 -0.0021827964 -0.0087328358
-0.014164286 -0.0043655927 -0.0087328358
-0.0014527473 -0.0045474926 -0.0072641796
0.011621978 -0.00054569909 -0.0028582092
-0.0050846152 0.0001818997 -0.0057955226
0.0065373625 -0.0045474926 -0.0026746271
0.0019975274 -0.0034560943 -0.0089164181
-0.013437912 -0.0010913982 -0.00047164192
-0.0023607144 -0.0045474926 -0.0059791049
-0.00054478023 -0.00090949849 -0.0054283584
0.011803571 -0.0014551976 -0.0089164181
-0.016525 0.0010913982 -0.0037761196
0.0094428575 -0.00036379939 -0.0057955226
-0.0087164836 0.0012732979 0.0028328358
-0.01016923 0.0045474926 -0.0074477615
0.010532417 0.00036379939 -0.0089164181
0.0094428575 -0.0045474926 -0.0017567166
-0.0065373625 -0.0012732979 0.001180597
0.011440384 -0.0014551976 -0.0089164181
0.010895604 -0.0038198938 -0.00047164192
0.014345879 0.00036379939 -0.0028582092
-0.0010895605 -0.0045474926 -0.0054283584
-0.0069005494 0.0027284955 -0.0089164181
0.0034502747 0.0045474926 -0.0019402987
0.0049030217 0.00054569909 -0.0089164181
-0.013801099 -0.00054569909 -0.0057955226
0.00018159341 0.0045474926 -0.0065298509
0.0090796705 -0.00090949849 -0.004877612
0.0094428575 0.0041836933 -0.0089164181
0.0038134614 -0.00090949849 0.00026268646
0.014527473 0.0043655927 -0.0087328358
0.012348352 -0.00090949849 -0.0050611943
0.0038134614 0.0001818997 -0.0087328358
0.0088980766 0.0021827964 -0.00047164192
-0.0070821429 0.0025465959 -0.00047164192
-0.0058109891 0.0014551976 -0.00028805982
0.010895604 0.0043655927 -0.0017567166
0.0054478021 0.0010913982 -0.0056119408
-0.012348352 -0.0045474926 -0.002307463
0.006174176 -0.0040017935 -0.00047164192
-0.0029054945 0.0001818997 -0.00047164192
-0.0092612635 -0.0045474926 -0.0017567166
-0.016525 0.00072759879 -0.00065522402
-0.0047214287 0.0045474926 -0.0074477615
0.014345879 -0.0045474926 -0.0032253733
-0.0021791209 -0.0016370973 -0.00028805982
-0.0078085163 0.0001818997 -0.0026746271
0.00090796704 0.0021827964 -0.0087328358
0.015980219 -0.0036379939 -0.0087328358
0.0085348897 -0.0020008967 -0.0089164181
-0.011258791 0 -0.0028582092
-0.011258791 0.00090949849 -0.0035925375
0.00072637363 -0.00054569909 -0.0026746271
0.006355769 -0.00090949849 0.0019149253
0.010895604 0.0038198938 -0.00047164192
-0.013437912 -0.0045474926 -0.004326866
-0.012529945 0.0045474926 -0.0037761196
-0.0074453298 -0.0020008967 -0.0089164181
-0.00072637363 -0.0045474926 -0.0083656721
0.016525 0.0020008967 -0.0045104478
0.014345879 0.0010913982 -0.0089164181
-0.0049030217 0.0045474926 -0.0070805973
-0.015253846 -0.0016370973 -0.0089164181
0.0098060435 -0.001818997 -0.00047164192
-0.01489066 0.0032741947 -0.00047164192
0.0029054945 -0.0038198938 -0.00047164192
0.0014527473 0.00090949849 -0.0087328358
0.0038134614 0.0010913982 0.0019149253
0.0034502747 -0.0038198938 -0.0089164181
-0.0098060435 0.0025465959 -0.0089164181
0.015253846 -0.0001818997 -0.0089164181
-0.01016923 -0.001818997 -0.0089164181
0.01543544 0.0043655927 -0.002491045
-0.011803571 0.0045474926 -0.0028582092
0.015980219 0.0043655927 -0.0021238807
0.0069005494 -0.0025465959 -0.00047164192
-0.0087164836 -0.0045474926 -0.006897015
0.016525 -0.0029103952 -0.0081820898
-0.015617033 0.0029103952 -0.0089164181
0.016525 -0.0016370973 -0.0008388061
0.006355769 -0.00090949849 -0.0037761196
0.0090796705 -0.0045474926 -0.0008388061
-0.0029054945 0.0038198938 -0.00047164192
0.0058109891 0.0045474926 -0.0061626867
0.0014527473 -0.0045474926 -0.0039597019
0.0065373625 -0.0045474926 -0.0087328358
0.01489066 0.0001818997 -0.0056119408
-0.011440384 0.0016370973 0.00044626856
0.015617033 -0.0040017935 -0.0087328358
-0.01016923 -0.0045474926 -0.0056119408
-0.015980219 0.00090949849 -0.0052447766
0.0041766483 0.0010913982 -0.0041432837
0.00054478023 -0.00090949849 -0.0050611943
0.0059925825 0.0045474926 -0.006346269
-0.0090796705 0.0043655927 -0.0039597019
-0.0010895605 -0.0016370973 0.00099701481
-0.006355769 -0.0045474926 -0.0059791049
-0.011621978 0.0045474926 -0.0034089554
-0.0083532967 0.00036379939 -0.0089164181
-0.016525 -0.0016370973 -0.0052447766
-0.0072637363 -0.0040017935 -0.0089164181
0.014527473 -0.0045474926 -0.006897015
0.0021791209 0.0045474926 -0.0079985075
0.00018159341 -0.00090949849 -0.0039597019
-0.014164286 -0.0014551976 -0.00047164192
0.016343407 0.0043655927 -0.0057955226
-0.00036318682 -0.0045474926 -0.0039597019
-0.0019975274 -0.0020008967 -0.0089164181
-0.011077198 0.001818997 -0.00047164192
-0.0085348897 -0.0043655927 -0.0089164181
0.00090796704 -0.0045474926 -0.0012059703
-0.013074725 0.0012732979 -0.00047164192
0.0079901097 0.0045474926 -0.0079985075
-0.0058109891 -0.0014551976 -0.00047164192
0.012166758 -0.0040017935 -0.0087328358
0 0.0045474926 -0.0070805973
0.016525 -0.0030922948 -0.0079985075
-0.0018159341 0.0045474926 -0.0015731344
0.0070821429 -0.0045474926 -0.0037761196
0.015980219 -0.0029103952 -0.00047164192
-0.015798626 -0.0043655927 -0.0057955226
-0.016525 -0.0014551976 -0.004326866
0.01489066 -0.0001818997 -0.0028582092
0.016525 0.00036379939 -0.0017567166
0.006355769 -0.0045474926 -0.0076313438
0.016525 0.002364696 -0.0050611943
-0.0099876374 -0.0045474926 -0.0059791049
-0.0039950549 0.0030922948 -0.0089164181
-0.010714011 -0.0045474926 -0.0015731344
-0.0054478021 0.0016370973 -0.0089164181
-0.015980219 0.0027284955 -0.00047164192
-0.014164286 0.001818997 -0.0089164181
0.0043582418 0.0045474926 -0.0045104478
0.0050846152 -0.0040017935 -0.00047164192
0.00090796704 0.00072759879 -0.0026746271
-0.0036318682 -0.001818997 -0.0087328358
0.0087164836 0.0016370973 0.00062985066
0.0094428575 -0.0041836933 -0.00047164192
0.0023607144 -0.0045474926 -0.0070805973
-0.0087164836 0.0012732979 -0.0089164181
-0.0016343406 0.0045474926 -0.0012059703
0.0087164836 0.0040017935 -0.0089164181
0.0078085163 0.0036379939 -0.0089164181
-0.0049030217 -0.0045474926 -0.0032253733
0.0098060435 0.0043655927 -0.006346269
0.013437912 0.0043655927 -0.0067134332
-0.0023607144 0.0012732979 -0.0087328358
0.012529945 0.00090949849 -0.0034089554
0.016525 0.001818997 -0.0008388061
-0.0027239011 0 -0.0087328358
-0.0094428575 -0.0016370973 -0.0089164181
-0.0079901097 -0.0012732979 -0.00047164192
0.016161812 0.0043655927 -0.0017567166
-0.0014527473 -0.0010913982 0.0015477611
0.0096244505 -0.0045474926 -0.0067134332
-0.0070821429 0.0014551976 -0.0089164181
-0.011621978 0.0010913982 7.9104379e-05
0.0088980766 -0.00072759879 -0.0089164181
-0.0081717037 -0.00090949849 -0.0034089554
-0.016161812 0.0040017935 -0.0087328358
-0.0087164836 0.0010913982 -0.0052447766
-0.015072253 -0.0041836933 -0.0083656721
0.015980219 0.00090949849 -0.0032253733
0.016343407 0.0041836933 -0.0039597019
-0.014709066 0.002364696 -0.00047164192
-0.011621978 0.0043655927 -0.0039597019
-0.016343407 0.0010913982 -0.0074477615
-0.0096244505 0 -0.00047164192
0.0090796705 -0.0045474926 -0.0079985075
-0.0010895605 0.0010913982 -0.0032253733
-0.0099876374 0.00090949849 -0.0052447766
0.00054478023 0.0010913982 -0.0046940302
-0.0088980766 -0.0034560943 -0.0089164181
-0.0076269228 0.0045474926 -0.0015731344
0.0083532967 -0.00090949849 -0.004326866
-0.0016343406 0.0045474926 -0.0026746271
0.013437912 0.00090949849 -0.0045104478
0.013256319 0.0043655927 -0.0085492544
-0.0054478021 -0.0045474926 -0.0035925375
-0.015253846 -0.0043655927 -0.0087328358
0.0045398353 0.0045474926 -0.0057955226
0.00072637363 -0.0045474926 -0.0046940302
0.0045398353 0.00072759879 -0.0089164181
-0.0059925825 -0.0010913982 0.0015477611
-0.0050846152 0.0045474926 -0.0046940302
-0.014345879 0.0025465959 -0.00047164192
0.012529945 0.00090949849 -0.0046940302
0.012348352 -0.0045474926 -0.0057955226
-0.0067189559 -0.0045474926 -0.0019402987
0.0056293956 -0.0045474926 -0.00065522402
-0.016343407 0.00036379939 -0.0074477615
-0.0021791209 -0.0045474926 -0.00047164192
0.014527473 -0.0040017935 -0.00047164192
-0.0043582418 0.0045474926 -0.006346269
-0.0078085163 0.0010913982 -0.0039597019
-0.0067189559 -0.0034560943 -0.0089164181
0.013982692 0.0043655927 -0.0054283584
0.0067189559 -0.0045474926 -0.0035925375
-0.0012711538 0.0016370973 0.0013641791
-0.013619506 -0.0014551976 -0.0089164181
0.01016923 -0.002364696 -0.00047164192
-0.016525 0.0025465959 -0.0019402987
-0.0016343406 0.0045474926 -0.0065298509
0.01489066 -0.0036379939 -0.0087328358
0.00018159341 -0.0012732979 -0.0089164181
0.0010895605 0.0032741947 -0.00047164192
0.0018159341 0.0010913982 -0.0039597019
0.011985165 -0.0016370973 -0.0089164181
0.0039950549 0.00090949849 -0.0026746271
0.016525 0.0014551976 -0.0019402987
0.0038134614 -0.00090949849 -0.0046940302
-0.011440384 0.0045474926 -0.0050611943
0.0049030217 -0.0045474926 -0.0021238807
0.0070821429 0.0045474926 -0.004877612
0.0081717037 0.0030922948 -0.0089164181
0.0085348897 -0.00090949849 -0.0052447766
-0.01489066 -0.0045474926 -0.0015731344
0.0023607144 0.0034560943 -0.0087328358
-0.0092612635 0.0010913982 -0.0089164181
0.012348352 0.0043655927 -0.0041432837
