# .PCD v0.7 - Point Cloud Data file format
VERSION 0.7
FIELDS x y z
SIZE 4 4 4
TYPE F F F
COUNT 1 1 1
WIDTH 1204
HEIGHT 1
VIEWPOINT 0 0 0 1 0 0 0
POINTS 1204
DATA ascii
0.0045232875 -0.00254 -0.00042415524
-0.012873972 -0.0020561905 -0.0022990517
0.019136986 0.00036285713 0.0026225515
0.016585387 0.00012095238 -0.0034708621
-0.021688584 0.00036285713 -0.0041739484
0.017049314 0.00254 -0.0006585173
0.0066109588 -0.0013304761 -0.00042415524
0.02006484 -0.00060476188 -0.00042415524
-0.02076073 0.00254 -0.0011272414
0.0084666666 -0.00012095238 -0.0022990517
-0.011250228 -0.00012095238 -0.0067519313
-0.0096264835 -0.00060476188 -0.0022990517
-0.017513242 0.00036285713 -0.00018979318
0.012178082 -0.001572381 -0.0022990517
-0.01472968 -0.00254 -0.0011272414
-0.019136986 0.00012095238 -0.006986293
0.020528767 -0.0022980953 -0.00018979318
0.0070748855 0.00254 -0.00042415524
0.0059150686 -0.0013304761 -0.00042415524
0.02145662 0.00254 -0.0015959656
0.013801826 -0.0018142858 -0.00042415524
-0.024008218 -0.00036285713 0.00027893097
-0.024008218 -0.00012095238 -0.0044083102
0.0086986301 0.00254 -0.00018979318
0.00011598173 -0.00254 -0.00018979318
0.0086986301 -0.00254 -0.00089287938
0.016585387 -0.00012095238 -0.0062832069
0.0033634703 0.00254 -0.00018979318
0.001275799 0.0010885714 -0.00042415524
-0.016817352 -0.00254 -0.0018303277
-0.0075388127 0.00254 -0.0006585173
0.024240183 0.00254 -0.0018303277
-0.02470411 -0.0018142858 -0.00042415524
0.0096264835 0.00254 -0.0006585173
-0.01472968 -0.00254 -0.00042415524
0.013801826 -0.00012095238 0.0016851034
-0.011250228 -0.00012095238 -0.0079237418
0.015889497 0.0010885714 -0.00042415524
-0.024936073 -0.0022980953 -0.00042415524
0.015193607 -0.00254 -0.0020646898
-0.0089305937 -0.00012095238 0.0030912757
0.005683105 0.00036285713 -0.00018979318
-0.024936073 0.0018142858 -0.0022990517
-0.021688584 -0.00012095238 0.0030912757
-0.021688584 0.00036285713 -0.0062832069
0.008234703 0.00084666669 -0.00042415524
-0.023312328 0.00254 -0.00089287938
-0.0010438355 0.00012095238 -0.0076893792
0.011946118 0.0022980953 -0.00018979318
-0.00081187213 0.001572381 -0.00042415524
-0.0015077625 0.00084666669 -0.0022990517
0.0019716895 0.0013304761 -0.00042415524
0.021920547 0.00036285713 -0.00018979318
0.01403379 -0.00036285713 -0.00018979318
0.012873972 0.00084666669 -0.00042415524
0.020296803 0.00084666669 -0.0022990517
-0.024240183 -0.00012095238 0.0028569137
-0.0045232875 -0.00084666669 -0.00042415524
0.0063789953 -0.00012095238 0.0021538276
0.02006484 -0.00254 -0.0011272414
-0.012873972 -0.00084666669 -0.00042415524
-0.001275799 0.00012095238 -0.0090955514
-0.011482191 0.00254 -0.00042415524
-0.0045232875 0.00254 -0.00042415524
-0.013569863 0.00254 -0.00089287938
0.0073068491 0.0018142858 -0.0022990517
0.0024356165 -0.0022980953 -0.00018979318
-0.0054511414 0.00084666669 -0.00042415524
-0.022152511 -0.0020561905 -0.0022990517
-0.021688584 -0.00254 -0.0013616035
-0.013801826 0.00036285713 -0.0060488447
0.0070748855 0.0020561905 -0.00018979318
0.021688584 -0.00012095238 -0.0072206552
-0.010322374 -0.0020561905 -0.0022990517
0.018905023 -0.00254 -0.0018303277
-0.0091625573 0.00254 -0.00018979318
-0.0022036529 0.001572381 -0.0022990517
0.023544291 0.00254 -0.0011272414
0.0080027394 -0.0010885714 -0.0022990517
-0.0084666666 -0.00060476188 -0.00042415524
0.0038273972 0.00036285713 0.00051329302
-0.00057990866 -0.00036285713 -0.00042415524
-0.011714155 0.0010885714 -0.00042415524
-0.016353425 0.0020561905 -0.00018979318
0.012642009 0.00254 -0.0013616035
-0.02145662 0.00012095238 -0.0060488447
0.0066109588 -0.00012095238 0.0023881895
0.013801826 -0.00254 -0.0011272414
-0.0038273972 0.00036285713 0.0028569137
0.0061470317 -0.00012095238 -0.0079237418
-0.0084666666 -0.0018142858 -0.0025334139
-0.024008218 0.00254 -0.00018979318
0.010322374 -0.0010885714 -0.00042415524
-0.0040593608 -0.00254 -0.00042415524
0.024936073 0.0022980953 -0.0006585173
-0.02145662 -0.00084666669 -0.0022990517
0.0254 0.0013304761 -0.0020646898
0.02470411 -0.00060476188 -0.0022990517
0.0038273972 0.00254 -0.00018979318
0.014265753 -0.00036285713 -0.00018979318
-0.019368948 0.00254 -0.0022990517
-0.011250228 0.00012095238 -0.0025334139
0.023312328 0.00254 -0.0022990517
0.01542557 -0.00254 -0.00018979318
-0.0022036529 -0.00254 -0.00089287938
0.014497717 0.001572381 -0.00042415524
0.02076073 0.00254 -0.0022990517
-0.0063789953 -0.00012095238 0.00051329302
0.013801826 0.00084666669 -0.0022990517
0.016353425 0.00012095238 -0.0037052243
-0.0017397259 0.00012095238 -0.0025334139
0.019832876 -0.00254 -0.00089287938
-0.0054511414 0.0022980953 -0.00018979318
-0.024240183 -0.00012095238 -0.0044083102
0.014265753 -0.00012095238 -0.0090955514
-0.02470411 0.00036285713 -0.0022990517
-0.01403379 0.00254 -0.0011272414
0.016353425 -0.00084666669 -0.0022990517
0.02145662 -0.00036285713 -0.0046426724
0.0003479452 -0.0010885714 -0.00042415524
-0.01542557 0.00254 -0.0022990517
-0.017977169 -0.001572381 -0.0022990517
-0.0045232875 0.00084666669 -0.0022990517
-0.017281279 -0.00036285713 -0.00018979318
0.0045232875 -0.0013304761 -0.00042415524
-0.0033634703 0.00084666669 -0.0022990517
-0.017977169 0.00254 -0.0020646898
-0.01472968 -0.00254 -0.0018303277
-0.014961643 -0.00254 -0.0022990517
0.0010438355 0.00012095238 0.0012163792
0.01403379 -0.00254 -0.0020646898
0.024240183 -0.00012095238 -0.0053457585
0.019368948 0.0022980953 -0.00018979318
0.021688584 0.00012095238 -0.0088611897
0.00081187213 0.00254 -0.00042415524
-0.0063789953 -0.00012095238 -0.0076893792
-0.0063789953 -0.00012095238 -0.0062832069
0.021224657 0.0013304761 -0.00042415524
-0.01403379 -0.00036285713 0.0026225515
0.020528767 0.0020561905 -0.0022990517
-0.019136986 0.00254 -0.0013616035
-0.011250228 -0.0020561905 -0.00018979318
0.015193607 0.0010885714 -0.0022990517
0.013569863 -0.00036285713 -0.00018979318
0.018209131 -0.00254 -0.0022990517
-0.0047552511 0.0020561905 -0.00018979318
-0.0089305937 -0.00012095238 0.00027893097
-0.0019716895 -0.00012095238 -0.00018979318
-0.019832876 -0.0022980953 -0.0022990517
-0.0254 -0.00084666669 -0.0020646898
-0.0066109588 -0.0022980953 -0.0022990517
0.0019716895 0.0022980953 -0.00018979318
0.01403379 0.00012095238 -0.0062832069
0.0019716895 0.00012095238 -0.00018979318
-0.014497717 -0.00254 -0.0013616035
-0.017281279 0.0010885714 -0.00042415524
0.023312328 -0.0020561905 -0.0022990517
-0.018441096 0.00254 -0.0022990517
-0.011018265 -0.0013304761 -0.0022990517
-0.011482191 0.00012095238 -0.0034708621
-0.0035954337 -0.00254 -0.00018979318
0.013337899 0.00254 -0.0018303277
-0.0063789953 0.00036285713 -0.0046426724
-0.02145662 0.00254 -0.00042415524
0.0068429224 -0.00084666669 -0.00042415524
0.0096264835 0.00060476188 -0.00042415524
0.0080027394 -0.00060476188 -0.0022990517
0.011714155 -0.00084666669 -0.0022990517
-0.0024356165 0.00254 -0.0018303277
0.019136986 0.00012095238 -0.0037052243
-0.014265753 -0.00254 -0.0015959656
-0.022616439 -0.00254 -0.0013616035
-0.024240183 0.00060476188 -0.0022990517
-0.012178082 -0.00060476188 -0.0022990517
-0.011250228 -0.00036285713 0.00051329302
-0.0063789953 -0.00012095238 -0.0055801207
-0.0019716895 0.0022980953 -0.00018979318
-0.0254 0.00036285713 -0.00042415524
0.021688584 0.00012095238 0.0014507413
0.010090411 0.00254 -0.0022990517
0.011714155 -0.001572381 -0.00042415524
-0.016585387 -0.00036285713 -0.0076893792
0.016353425 0.00012095238 -0.0062832069
0.02145662 -0.00012095238 -0.0090955514
-0.017049314 -0.00036285713 -0.0022990517
0.020296803 -0.0013304761 -0.00042415524
0.0063789953 0.00254 -0.0020646898
-0.024008218 -0.00254 -0.00089287938
-0.019368948 0.0018142858 -0.0022990517
0.010322374 0.0018142858 -0.0022990517
-0.016353425 0.0013304761 -0.0022990517
0.012178082 0.00254 -0.00089287938
0.0073068491 0.00084666669 -0.0022990517
-0.0031315067 0.001572381 -0.00042415524
-0.022616439 -0.00254 -0.00089287938
0.022384474 0.00036285713 -0.0022990517
-0.011946118 0.00012095238 -0.0022990517
0.00939452 0.0022980953 -0.00018979318
-0.02006484 0.0018142858 -0.0022990517
-0.001275799 -0.00060476188 -0.00042415524
0.0031315067 -0.00012095238 -0.0022990517
-0.014497717 0.0022980953 -0.00018979318
-0.0017397259 -0.00254 -0.00089287938
0.0075388127 -0.00254 -0.0011272414
0.0086986301 0.00012095238 -0.0090955514
-0.0040593608 0.00012095238 -0.0067519313
-0.016585387 -0.00036285713 -0.0067519313
-0.0035954337 -0.00012095238 -0.0032365001
-0.024008218 -0.00012095238 -0.0065175691
0.015889497 0.00012095238 -0.0022990517
-0.016585387 0.00036285713 -0.0053457585
0.019136986 0.00036285713 -0.0060488447
0.001275799 0.00036285713 -0.0067519313
-0.0073068491 -0.00254 -0.0022990517
0.0091625573 0.001572381 -0.00042415524
0.02145662 0.00012095238 -0.0058144829
0.02470411 0.00254 -0.0013616035
0.0063789953 -0.00254 -0.0006585173
-0.0015077625 -0.00012095238 -0.0079237418
0.0035954337 -0.0018142858 -0.00042415524
0.0035954337 0.00012095238 -0.0030021379
0.01403379 0.00012095238 -0.0046426724
0.021688584 -0.00012095238 -0.0034708621
-0.0010438355 0.00012095238 -0.0081581036
-0.0070748855 0.00036285713 -0.00018979318
0.0066109588 0.00084666669 -0.0025334139
0.024008218 -0.00012095238 -0.0037052243
-0.019600913 0.00254 -0.00089287938
-0.0031315067 -0.001572381 -0.00042415524
0.0040593608 0.00012095238 0.0016851034
0.0066109588 -0.00254 -0.00089287938
0.011714155 0.00254 -0.0022990517
0.021688584 -0.00254 -0.0022990517
0.011714155 -0.00060476188 -0.0022990517
0.00057990866 0.00254 -0.0011272414
0.025168035 -0.0020561905 -0.0022990517
0.0254 0.00060476188 -0.0006585173
0.00081187213 0.00254 -0.00089287938
-0.013801826 -0.0022980953 -0.00018979318
0.022848401 0.0018142858 -0.0022990517
-0.014497717 0.001572381 -0.0022990517
0.012642009 0.00036285713 -0.0022990517
-0.0033634703 0.00254 -0.0011272414
0.0040593608 0.00084666669 -0.00042415524
0.019136986 -0.00012095238 0.00051329302
-0.023544291 0.00254 -0.0011272414
0.02145662 -0.00036285713 -0.0025334139
-0.023080364 -0.00060476188 -0.00042415524
0.013801826 -0.0022980953 -0.0022990517
-0.0038273972 0.00254 -0.00042415524
0.0022036529 -0.00254 -0.0006585173
-0.0084666666 0.00254 -0.0022990517
-0.018905023 0.00012095238 0.0030912757
-0.018441096 0.0018142858 -0.0022990517
0.011714155 0.0022980953 -0.0022990517
-0.0026675798 -0.0020561905 -0.00018979318
0.005683105 0.00036285713 -0.0022990517
-0.0038273972 0.00254 -0.00089287938
-0.012642009 0.00036285713 -0.00018979318
0.020296803 0.001572381 -0.00042415524
0.0026675798 -0.0020561905 -0.00018979318
-0.011482191 0.00036285713 -0.0093299141
0.016353425 0.00036285713 0.0021538276
-0.0061470317 -0.00012095238 -0.006986293
0.024472145 -0.00084666669 -0.00042415524
0.0254 -0.0010885714 -0.0013616035
0.011482191 -0.00036285713 -0.0041739484
0.023776256 0.001572381 -0.00042415524
-0.0086986301 -0.00012095238 -0.00018979318
-0.0066109588 0.00254 -0.00089287938
-0.0070748855 0.0013304761 -0.00042415524
-0.02006484 -0.00084666669 -0.0022990517
-0.0080027394 -0.00254 -0.0006585173
-0.014961643 0.0018142858 -0.0022990517
0.0026675798 -0.0022980953 -0.00018979318
-0.00011598173 0.00254 -0.0020646898
0.02145662 0.00012095238 -0.0037052243
0.010322374 -0.00036285713 -0.0022990517
-0.0061470317 0.0010885714 -0.00042415524
0.018441096 0.0020561905 -0.00018979318
0.0035954337 -0.00012095238 -0.0030021379
0.013569863 -0.00254 -0.00018979318
-0.0254 0.00060476188 -0.0015959656
-0.0084666666 0.0010885714 -0.0022990517
0.0091625573 0.00012095238 -0.0037052243
-0.0068429224 0.00012095238 -0.0022990517
0.012642009 -0.0022980953 -0.0022990517
-0.02470411 0.00254 -0.00089287938
-0.013105935 0.00084666669 -0.0022990517
-0.023544291 0.00254 -0.0015959656
-0.00057990866 0.00254 -0.0011272414
0.0035954337 -0.00012095238 0.00074765511
-0.011482191 0.00012095238 0.0030912757
-0.0038273972 -0.0022980953 -0.0022990517
-0.024240183 0.0013304761 -0.0022990517
-0.0068429224 -0.00084666669 -0.0022990517
-0.015657533 0.0013304761 -0.00042415524
0.016817352 -0.00254 -0.0006585173
-0.011482191 -0.00012095238 0.00027893097
-0.02145662 0.00036285713 0.0023881895
-0.019368948 0.00036285713 -0.0022990517
0.015657533 0.00036285713 -0.0022990517
-0.01612146 -0.00012095238 -0.00018979318
0.0077707763 0.00254 -0.0018303277
-0.0022036529 -0.00254 -0.0011272414
0.0017397259 0.00012095238 -0.00018979318
-0.010090411 -0.00084666669 -0.0022990517
-0.017745204 0.0020561905 -0.00018979318
-0.019368948 -0.0018142858 -0.00042415524
-0.018673059 -0.00084666669 -0.0022990517
0.016585387 -0.00012095238 -0.0065175691
0.0028995434 0.00060476188 -0.00042415524
0.0019716895 0.00254 -0.00089287938
-0.0026675798 0.0020561905 -0.00018979318
-0.0017397259 -0.0018142858 -0.00042415524
0.0089305937 -0.00012095238 -0.0076893792
-0.0026675798 -0.00036285713 -0.00042415524
-0.012410046 0.0022980953 -0.00018979318
0.019136986 0.00060476188 -0.00042415524
0.0080027394 -0.0022980953 -0.00018979318
0.0070748855 0.00060476188 -0.00042415524
-0.0061470317 -0.00012095238 -0.0039395862
0.018905023 -0.00012095238 -0.006986293
0.0254 0.0010885714 -0.00089287938
0.024472145 0.0010885714 -0.0022990517
0.014265753 0.00012095238 -0.0076893792
-0.020296803 -0.0018142858 -0.00042415524
0.0089305937 -0.00012095238 -0.0062832069
0.0047552511 0.001572381 -0.0022990517
-0.0042913239 0.00084666669 -0.00042415524
0.0026675798 -0.00254 -0.0006585173
0.022152511 0.00012095238 -0.0022990517
-0.017513242 -0.0020561905 -0.00018979318
0.0038273972 0.00012095238 -0.0037052243
-0.011250228 0.00036285713 0.0012163792
-0.018673059 0.00254 -0.00042415524
0.016353425 -0.00012095238 -0.0053457585
0.0086986301 -0.00012095238 -0.0090955514
-0.016585387 0.00012095238 0.0014507413
-0.0091625573 0.00084666669 -0.00042415524
-0.024472145 -0.0010885714 -0.00042415524
-0.0024356165 -0.00254 -0.0015959656
0.0254 0.0020561905 -0.0011272414
0.01542557 0.0018142858 -0.00042415524
-0.008234703 0.00012095238 -0.0022990517
-0.010554338 -0.00036285713 -0.0022990517
0.020992694 0.00254 -0.00042415524
-0.01403379 -0.00036285713 0.00027893097
-0.018905023 0.001572381 -0.0022990517
-0.00011598173 0.00254 -0.00089287938
0.0054511414 0.001572381 -0.0022990517
-0.019136986 0.00036285713 -0.008626828
-0.019136986 -0.00036285713 -0.0048770346
-0.020992694 -0.0020561905 -0.00018979318
-0.023312328 -0.0010885714 -0.0022990517
0.02145662 -0.00012095238 4.4568893e-05
0.02006484 -0.00254 -0.0018303277
-0.020296803 0.0018142858 -0.00042415524
0.02145662 0.0022980953 -0.00018979318
-0.02145662 -0.0010885714 -0.00042415524
0.020992694 0.00060476188 -0.0022990517
-0.0045232875 -0.00084666669 -0.0022990517
-0.0042913239 -0.00084666669 -0.0022990517
0.013105935 -0.0013304761 -0.0022990517
-0.02470411 0.00012095238 -0.00018979318
-0.011946118 0.0018142858 -0.0022990517
-0.0086986301 0.00012095238 0.00051329302
-0.020992694 0.00084666669 -0.00042415524
-0.016353425 -0.00012095238 0.0014507413
0.019136986 0.00036285713 4.4568893e-05
-0.011482191 0.00036285713 0.0023881895
-0.010786301 0.0020561905 -0.0022990517
0.0035954337 0.00012095238 -0.0065175691
-0.013105935 0.00254 -0.00018979318
-0.0015077625 -0.00012095238 -0.0030021379
-0.0068429224 0.0020561905 -0.00018979318
0.0089305937 0.00012095238 -0.0046426724
-0.016353425 0.00036285713 -0.0027677759
0.015193607 -0.0020561905 -0.00042415524
-0.0086986301 -0.00060476188 -0.0022990517
0.0010438355 -0.00012095238 4.4568893e-05
0.0040593608 -0.00012095238 0.0014507413
0.0040593608 -0.00012095238 -0.0034708621
0.0035954337 -0.00012095238 -0.0039395862
0.010554338 -0.001572381 -0.0022990517
-0.016585387 -0.00254 -0.00042415524
-0.012178082 -0.00254 -0.0013616035
0.018209131 -0.0013304761 -0.00042415524
-0.021920547 -0.0010885714 -0.0022990517
-0.022616439 -0.0022980953 -0.0022990517
-0.022616439 0.00254 -0.0013616035
-0.010554338 -0.0018142858 -0.0022990517
0.020528767 0.0013304761 -0.0022990517
0.011250228 -0.00012095238 -0.0034708621
0.00081187213 -0.0020561905 -0.00018979318
-0.024472145 0.0022980953 -0.00042415524
0.0254 0.0013304761 -0.0013616035
0.015657533 0.00060476188 -0.0022990517
0.019368948 0.00254 -0.0011272414
-0.016353425 -0.00036285713 -0.0025334139
-0.001275799 -0.0018142858 -0.0022990517
0.0035954337 0.00012095238 0.0014507413
0.0017397259 -0.00254 -0.0013616035
-0.0038273972 0.00036285713 -0.006986293
-0.016353425 -0.00084666669 -0.0022990517
-0.011482191 -0.00036285713 -0.0062832069
-0.00011598173 -0.0010885714 -0.00042415524
0.010554338 0.00254 -0.0022990517
0.0063789953 0.00036285713 -0.0079237418
0.01472968 -0.0013304761 -0.0022990517
0.0070748855 0.00254 -0.00018979318
-0.02145662 0.00036285713 -0.0032365001
-0.001275799 0.0013304761 -0.0022990517
0.021224657 -0.00254 -0.0018303277
-0.013105935 -0.00012095238 -0.00018979318
0.023312328 -0.00254 -0.00089287938
-0.0026675798 0.0013304761 -0.0022990517
0.0047552511 0.00254 -0.00018979318
0.019136986 -0.00012095238 -0.0088611897
0.013801826 -0.00254 -0.0022990517
-0.017977169 0.0010885714 -0.0022990517
0.022152511 -0.0022980953 -0.00018979318
-0.0061470317 -0.00012095238 -0.0062832069
-0.005683105 -0.00254 -0.0013616035
0.02145662 -0.00012095238 -0.0079237418
-0.0086986301 -0.00012095238 0.00074765511
-0.0019716895 -0.0018142858 -0.00042415524
0.023544291 -0.00012095238 -0.00018979318
0.0066109588 -0.00012095238 -0.0034708621
-0.019136986 -0.00012095238 -0.006986293
-0.016585387 0.00012095238 -0.0027677759
0.0035954337 -0.00012095238 -0.0088611897
0.0070748855 -0.00084666669 -0.0022990517
0.0075388127 -0.0018142858 -0.00042415524
-0.0022036529 0.00036285713 -0.00018979318
-0.0045232875 0.0010885714 -0.00042415524
0.0040593608 0.0013304761 -0.00042415524
0.011018265 -0.00012095238 -0.0022990517
0.00939452 -0.00036285713 -0.00042415524
-0.0045232875 -0.0020561905 -0.00018979318
-0.013801826 -0.00012095238 4.4568893e-05
0.014497717 -0.00036285713 -0.00018979318
0.019136986 -0.00012095238 -0.0039395862
0.01403379 0.001572381 -0.0022990517
-0.011250228 -0.00036285713 -0.0030021379
0.0077707763 -0.0013304761 -0.0022990517
-0.024240183 -0.00012095238 0.0019194654
0.02076073 -0.00254 -0.0011272414
0.016585387 0.0022980953 -0.0022990517
-0.0054511414 0.0020561905 -0.00018979318
-0.0042913239 -0.00060476188 -0.0022990517
0.023312328 -0.00012095238 -0.00018979318
0.024240183 -0.00012095238 0.00098201714
0.021688584 -0.00012095238 -0.008626828
0.01403379 -0.00036285713 0.00098201714
-0.019600913 0.0013304761 -0.0022990517
-0.00011598173 0.0022980953 -0.0022990517
-0.0096264835 -0.00012095238 -0.0022990517
0.024936073 -0.00012095238 -0.00018979318
0.013105935 0.001572381 -0.0022990517
0.014497717 -0.0020561905 -0.0022990517
0.013569863 -0.0020561905 -0.0022990517
-0.0026675798 -0.001572381 -0.00042415524
-0.021688584 -0.00036285713 0.0026225515
0.021688584 0.00254 -0.00042415524
-0.001275799 -0.00254 -0.00018979318
-0.012410046 -0.00254 -0.0022990517
0.0063789953 0.00036285713 0.00074765511
-0.0086986301 0.00012095238 -0.0060488447
-0.0033634703 -0.00254 -0.0022990517
0.016353425 -0.00012095238 -0.0093299141
0.001275799 -0.00012095238 -0.00018979318
-0.012178082 -0.00036285713 -0.00018979318
0.017049314 -0.00254 -0.0013616035
0.0063789953 0.00036285713 -0.006986293
0.0063789953 -0.00012095238 -0.0074550174
0.0073068491 -0.0010885714 -0.0022990517
0.0091625573 0.0018142858 -0.0022990517
0.022616439 0.00084666669 -0.0022990517
-0.018905023 -0.00012095238 -0.0093299141
-0.012178082 -0.00254 -0.0011272414
0.016353425 0.0020561905 -0.00018979318
0.011250228 -0.00012095238 -0.0048770346
0.0066109588 0.00012095238 -0.0032365001
-0.0254 -0.00036285713 -0.0006585173
-0.017977169 0.00036285713 -0.0022990517
0.022616439 0.00254 -0.00042415524
-0.0091625573 -0.00254 -0.0018303277
0.010554338 0.00254 -0.0006585173
-0.0254 -0.00036285713 -0.0022990517
0.0026675798 0.00036285713 -0.0022990517
0.015889497 -0.00060476188 -0.00042415524
0.015193607 0.00084666669 -0.0022990517
-0.001275799 0.00036285713 -0.0053457585
-0.00081187213 0.0013304761 -0.00042415524
-0.017513242 -0.0013304761 -0.00042415524
0.017281279 -0.00254 -0.0006585173
0.0089305937 -0.00012095238 -0.0093299141
-0.021920547 -0.00012095238 -0.0025334139
0.017049314 0.00060476188 -0.0022990517
0.0049872147 -0.00254 -0.0006585173
0.02470411 -0.00036285713 -0.00042415524
0.011482191 0.0013304761 -0.0022990517
0.0038273972 0.001572381 -0.0022990517
-0.0035954337 0.00036285713 -0.00018979318
-0.016353425 0.00036285713 -0.0055801207
0.0091625573 -0.00060476188 -0.00042415524
0.01403379 -0.00012095238 0.0030912757
-0.0063789953 -0.00012095238 0.0026225515
0.010786301 -0.00060476188 -0.0022990517
-0.0254 -0.00060476188 -0.0018303277
0.0031315067 -0.00254 -0.0020646898
-0.0035954337 0.00012095238 0.00027893097
0.00939452 0.00012095238 -0.00018979318
-0.023776256 -0.00254 -0.0022990517
-0.01403379 -0.00036285713 -0.0079237418
-0.010090411 0.001572381 -0.0022990517
-0.025168035 0.00036285713 -0.00018979318
0.01542557 -0.0022980953 -0.0022990517
-0.017513242 0.0013304761 -0.00042415524
0.001275799 -0.00012095238 4.4568893e-05
0.0015077625 0.00012095238 -0.0079237418
-0.011018265 -0.0013304761 -0.00042415524
-0.016585387 0.00254 -0.0022990517
-0.0017397259 -0.00254 -0.0018303277
0.0015077625 0.00012095238 -0.006986293
-0.013801826 -0.00012095238 -0.0095642759
-0.02006484 -0.00036285713 -0.0022990517
0.014497717 -0.00254 -0.0018303277
-0.021688584 -0.0018142858 -0.00042415524
-0.00939452 -0.00254 -0.0006585173
-0.025168035 0.0020561905 -0.0018303277
-0.0054511414 0.0013304761 -0.0022990517
-0.018905023 0.0020561905 -0.0022990517
0.023544291 -0.0013304761 -0.00042415524
-0.021688584 0.00060476188 -0.00042415524
0.0066109588 0.0020561905 -0.00018979318
-0.0077707763 0.00254 -0.0020646898
0.0015077625 -0.00012095238 -0.0065175691
-0.016353425 -0.00012095238 0.0028569137
-0.020296803 0.00254 -0.00018979318
0.017977169 -0.0022980953 -0.00018979318
0.00081187213 -0.0020561905 -0.0022990517
-0.0086986301 -0.00012095238 4.4568893e-05
-0.0038273972 -0.00012095238 0.00027893097
0.012873972 -0.00254 -0.0011272414
-0.0254 -0.001572381 -0.0020646898
-0.0066109588 -0.00012095238 -0.00018979318
-0.012873972 0.0020561905 -0.0022990517
-0.0063789953 -0.0013304761 -0.0022990517
0.0054511414 -0.0013304761 -0.0022990517
0.024008218 0.00036285713 -0.00042415524
0.017281279 0.0018142858 -0.00042415524
0.0031315067 0.0018142858 -0.0022990517
0.0035954337 -0.0022980953 -0.0022990517
0.0096264835 0.001572381 -0.0022990517
0.0038273972 -0.00012095238 0.00074765511
-0.0022036529 -0.00254 -0.0020646898
-0.017049314 -0.0022980953 -0.00018979318
-0.0003479452 -0.0020561905 -0.0022990517
-0.011250228 0.00012095238 -0.0053457585
-0.02470411 -0.00254 -0.0006585173
0.020992694 0.00084666669 -0.00042415524
-0.0038273972 0.00012095238 -0.0081581036
0.0017397259 0.0013304761 -0.00042415524
0.0040593608 -0.00012095238 0.0016851034
-0.024008218 -0.00012095238 0.00074765511
0.022384474 0.0018142858 -0.0022990517
-0.011018265 0.00012095238 -0.00018979318
0.023312328 -0.00012095238 -0.0022990517
-0.011250228 -0.00012095238 -0.0058144829
0.012410046 -0.0010885714 -0.0022990517
-0.0022036529 0.0022980953 -0.00018979318
-0.023776256 0.0010885714 -0.00042415524
0.00081187213 -0.0010885714 -0.0022990517
-0.01612146 0.00254 -0.0015959656
-0.022848401 0.001572381 -0.00042415524
0.0022036529 0.0018142858 -0.0022990517
0.010322374 -0.00254 -0.00089287938
0.011482191 0.00084666669 -0.0022990517
-0.020528767 -0.0013304761 -0.00042415524
0.0042913239 0.00254 -0.0022990517
0.018905023 0.00012095238 -0.0083924653
-0.011714155 -0.00254 -0.00042415524
0.017977169 0.00254 -0.0018303277
0.019832876 -0.0013304761 -0.00042415524
0.02470411 0.00254 -0.00089287938
-0.0096264835 -0.00254 -0.0022990517
-0.0015077625 0.00012095238 -0.008626828
0.008234703 -0.0010885714 -0.00042415524
-0.016585387 0.00012095238 -0.0037052243
-0.016353425 -0.00012095238 -0.0039395862
0.012178082 0.00036285713 -0.0022990517
-0.0031315067 0.0010885714 -0.0022990517
-0.0077707763 -0.00060476188 -0.0022990517
-0.0063789953 0.00036285713 0.0023881895
-0.014497717 -0.0013304761 -0.00042415524
0.0066109588 -0.00012095238 -0.0074550174
0.020992694 0.00012095238 -0.00018979318
0.0254 0.001572381 -0.00089287938
-0.016585387 -0.00012095238 -0.0060488447
0.0026675798 -0.00254 -0.0013616035
-0.0052191778 -0.00254 -0.0006585173
0.023080364 0.00254 -0.00042415524
0.0086986301 0.00012095238 -0.0034708621
0.019832876 0.001572381 -0.00042415524
-0.0089305937 -0.00012095238 0.00074765511
-0.0077707763 0.0022980953 -0.00018979318
0.024240183 0.00012095238 -0.0032365001
0.0049872147 0.001572381 -0.0022990517
-0.0080027394 0.00254 -0.0011272414
0.017745204 0.00254 -0.0013616035
0.0040593608 0.00012095238 -0.0037052243
-0.0049872147 -0.00254 -0.0011272414
-0.00939452 -0.00060476188 -0.00042415524
-0.012410046 -0.00084666669 -0.0022990517
-0.018905023 0.00254 -0.00089287938
0.0089305937 -0.00012095238 -0.0032365001
0.018905023 0.00012095238 -0.0072206552
-0.012873972 0.0013304761 -0.0022990517
-0.017513242 0.00254 -0.0006585173
-0.0254 -0.001572381 -0.0015959656
0.001275799 -0.00012095238 -0.0062832069
-0.01612146 0.00254 -0.00089287938
-0.0035954337 0.00012095238 0.0021538276
0.021688584 -0.00012095238 -0.0046426724
0.016585387 0.00012095238 -0.0079237418
0.018905023 0.0020561905 -0.0022990517
-0.016585387 -0.00060476188 -0.00042415524
0.020992694 0.00060476188 -0.00042415524
0.0254 -0.00084666669 -0.0006585173
-0.0052191778 0.00254 -0.00018979318
-0.02076073 -0.0020561905 -0.00018979318
0.011482191 -0.00036285713 -0.0062832069
-0.022616439 0.001572381 -0.0022990517
0.024240183 0.00012095238 0.0028569137
-0.0054511414 0.00254 -0.00089287938
0.022152511 0.0020561905 -0.00018979318
0.019136986 -0.00036285713 0.0026225515
-0.013801826 -0.00036285713 -0.0025334139
-0.012178082 -0.0010885714 -0.00042415524
0.012178082 -0.0018142858 -0.00042415524
0.016353425 0.00012095238 0.0023881895
-0.001275799 0.00254 -0.0022990517
-0.0049872147 -0.0020561905 -0.00018979318
-0.024008218 0.00012095238 4.4568893e-05
-0.011250228 0.00254 -0.00018979318
-0.021920547 0.00060476188 -0.0022990517
-0.023776256 0.0018142858 -0.00042415524
-0.0049872147 0.00254 -0.00089287938
0.0028995434 0.00254 -0.0015959656
-0.022384474 -0.0013304761 -0.0022990517
-0.0061470317 -0.00012095238 0.0012163792
-0.001275799 -0.0022980953 -0.00018979318
-0.011482191 -0.00254 -0.0006585173
0.0040593608 -0.00012095238 0.0012163792
0.017745204 0.00254 -0.0020646898
-0.001275799 0.00036285713 -0.0062832069
-0.010554338 0.0013304761 -0.0022990517
-0.0084666666 -0.00254 -0.0020646898
-0.023776256 0.00060476188 -0.0022990517
0.014497717 -0.0020561905 -0.00018979318
-0.0091625573 -0.0013304761 -0.0022990517
0.0015077625 -0.00012095238 -0.0044083102
-0.015657533 0.00254 -0.0006585173
0.0042913239 -0.001572381 -0.00042415524
0.0091625573 0.00012095238 -0.008626828
-0.012873972 -0.0018142858 -0.00042415524
-0.011482191 0.00012095238 0.0019194654
-0.021688584 0.00036285713 -0.0072206552
0.013801826 0.00254 -0.0022990517
-0.0254 -0.00036285713 -0.0011272414
-0.010322374 0.00254 -0.00018979318
-0.011250228 0.00012095238 0.00027893097
-0.0052191778 -0.00254 -0.00018979318
0.025168035 -0.00012095238 -0.00018979318
-0.02470411 -0.00254 -0.0020646898
0.0015077625 0.00012095238 0.00051329302
-0.0052191778 -0.00012095238 -0.00018979318
0.017745204 0.0010885714 -0.0025334139
-0.001275799 0.0020561905 -0.00018979318
-0.013337899 0.0018142858 -0.0022990517
-0.018905023 -0.00060476188 -0.00042415524
-0.02145662 0.00012095238 -0.0088611897
0.012410046 0.0010885714 -0.00042415524
-0.013569863 -0.0020561905 -0.0022990517
0.021920547 -0.00254 -0.00042415524
0.011482191 -0.0018142858 -0.0022990517
-0.0040593608 0.00254 -0.0013616035
-0.01542557 0.0022980953 -0.00018979318
0.015193607 -0.00254 -0.0006585173
-0.019600913 -0.0018142858 -0.00042415524
-0.011482191 0.00036285713 -0.0058144829
0.01403379 -0.00012095238 0.0016851034
-0.020296803 0.00060476188 -0.00042415524
-0.016585387 0.00012095238 0.0021538276
-0.024936073 -0.0020561905 -0.00018979318
-0.016817352 -0.00254 -0.00018979318
-0.0089305937 0.00012095238 0.0030912757
-0.015657533 -0.00084666669 -0.0022990517
-0.024008218 0.001572381 -0.00042415524
0.0052191778 -0.0010885714 -0.00042415524
0.0045232875 0.00254 -0.0006585173
0.0035954337 0.00254 -0.0011272414
0.00081187213 -0.00254 -0.0018303277
0.013801826 -0.00012095238 0.00027893097
-0.02006484 -0.001572381 -0.0022990517
0.021688584 0.00036285713 0.0021538276
0.0028995434 0.00084666669 -0.0022990517
0.005683105 0.0018142858 -0.00042415524
-0.00939452 0.0018142858 -0.00042415524
0.00057990866 0.0020561905 -0.00018979318
-0.0077707763 -0.00254 -0.00042415524
0.021688584 -0.00012095238 -0.0039395862
0.021688584 0.00012095238 -0.0027677759
-0.015889497 -0.00060476188 -0.0022990517
-0.016585387 -0.00036285713 0.0023881895
0.0035954337 0.00012095238 0.00074765511
-0.021688584 0.00084666669 -0.0022990517
-0.0066109588 -0.00012095238 -0.0083924653
0.010322374 -0.00254 -0.0013616035
0.0086986301 -0.00012095238 -0.0048770346
-0.0035954337 -0.00012095238 -0.0095642759
-0.022152511 -0.00254 -0.0022990517
0.013105935 -0.00036285713 -0.0022990517
0.014265753 -0.00254 -0.00042415524
-0.01612146 -0.0010885714 -0.00042415524
0.024008218 0.00012095238 0.0026225515
-0.011482191 0.00084666669 -0.0022990517
0.0052191778 0.0013304761 -0.00042415524
0.021688584 -0.00012095238 -0.0083924653
-0.024472145 0.00254 -0.0022990517
0.0089305937 0.00036285713 -0.00018979318
-0.016585387 -0.00036285713 0.00027893097
0.021688584 0.00036285713 0.0019194654
0.01472968 0.0018142858 -0.0022990517
-0.020528767 -0.0018142858 -0.00042415524
-0.0040593608 0.0010885714 -0.00042415524
-0.016817352 -0.00012095238 -0.0058144829
-0.021920547 -0.00012095238 -0.00018979318
-0.018673059 0.001572381 -0.0022990517
0.020528767 -0.00036285713 -0.0022990517
0.0038273972 -0.00012095238 0.0014507413
-0.0063789953 0.00036285713 -0.0044083102
0.0019716895 0.00012095238 -0.0022990517
-0.0047552511 -0.00254 -0.0013616035
0.0086986301 0.00012095238 0.00074765511
0.0022036529 0.0018142858 -0.00042415524
0.0066109588 -0.00012095238 -0.0037052243
-0.0035954337 0.00084666669 -0.00042415524
-0.0052191778 0.00254 -0.0011272414
-0.016817352 -0.00012095238 0.0016851034
0.019832876 -0.00036285713 -0.0022990517
0.019136986 0.0022980953 -0.0022990517
-0.02006484 0.0010885714 -0.00042415524
0.02145662 -0.00036285713 -0.0081581036
-0.010786301 -0.001572381 -0.00042415524
0.0040593608 0.00084666669 -0.0022990517
0.0084666666 -0.0020561905 -0.0022990517
0.022152511 0.00254 -0.0011272414
-0.023080364 0.00254 -0.0015959656
-0.018209131 0.0020561905 -0.0022990517
0.0035954337 -0.00012095238 -0.0067519313
-0.021688584 -0.00012095238 -0.0090955514
-0.0019716895 0.001572381 -0.00042415524
-0.01472968 0.0013304761 -0.00042415524
0.014265753 0.00012095238 -0.0048770346
0.0068429224 -0.0013304761 -0.0022990517
0.020296803 -0.00254 -0.00042415524
0.023080364 0.00254 -0.00018979318
0.0061470317 -0.0013304761 -0.00042415524
0.0047552511 -0.00254 -0.0022990517
-0.0091625573 -0.00254 -0.0020646898
0.0035954337 0.00036285713 0.0026225515
0.01472968 -0.00012095238 -0.00018979318
-0.0068429224 0.00254 -0.0020646898
-0.013801826 0.00012095238 -0.0074550174
0.02145662 -0.00036285713 -0.0090955514
0.011250228 -0.00012095238 -0.008626828
0.0066109588 0.00012095238 -0.0065175691
-0.011482191 -0.00036285713 0.0012163792
-0.0098584471 0.00254 -0.00089287938
0.024240183 0.00012095238 0.00027893097
0.01542557 -0.00084666669 -0.00042415524
-0.023312328 -0.0022980953 -0.00018979318
0.0031315067 -0.0013304761 -0.00042415524
-0.017513242 -0.0022980953 -0.00018979318
0.015193607 -0.0018142858 -0.0022990517
0.015193607 -0.00060476188 -0.0022990517
-0.0068429224 -0.0010885714 -0.0022990517
0.019832876 -0.00254 -0.0018303277
0.016353425 -0.0010885714 -0.0022990517
0.0022036529 0.0020561905 -0.0022990517
-0.019600913 -0.00012095238 -0.00018979318
-0.0066109588 0.00012095238 -0.0067519313
0.021688584 0.00012095238 -0.0090955514
-0.021688584 -0.0020561905 -0.00018979318
0.0028995434 0.00254 -0.00018979318
0.017049314 0.00254 -0.0015959656
0.0061470317 -0.00084666669 -0.00042415524
0.012873972 0.00254 -0.0018303277
-0.024008218 0.0010885714 -0.0022990517
0.024240183 -0.00012095238 -0.0095642759
-0.0096264835 -0.0013304761 -0.00042415524
-0.018905023 0.00012095238 -0.0093299141
-0.00081187213 -0.00036285713 -0.0025334139
0.021688584 -0.00036285713 -0.0072206552
-0.0073068491 0.0013304761 -0.00042415524
0.014961643 0.00036285713 -0.0022990517
-0.0042913239 0.001572381 -0.00042415524
-0.0089305937 -0.00036285713 -0.00042415524
-0.016353425 0.00012095238 -0.0067519313
-0.014265753 0.00254 -0.0013616035
-0.0042913239 -0.0020561905 -0.0022990517
0.014961643 -0.0010885714 -0.00042415524
0.0038273972 0.00036285713 -0.0079237418
-0.02006484 -0.0010885714 -0.00042415524
0.011946118 0.00254 -0.00042415524
0.016353425 -0.00012095238 0.0019194654
0.0024356165 0.00036285713 -0.0022990517
0.0035954337 -0.0010885714 -0.0022990517
0.0010438355 0.00254 -0.0015959656
-0.011482191 -0.00012095238 -0.0088611897
0.0019716895 0.00254 -0.0022990517
0.017049314 0.00254 -0.0020646898
-0.0040593608 -0.00012095238 -0.0093299141
-0.025168035 -0.0018142858 -0.0011272414
0.016585387 -0.00012095238 -0.0048770346
-0.015889497 0.0022980953 -0.0022990517
-0.022384474 0.001572381 -0.0022990517
-0.0098584471 -0.00254 -0.0022990517
-0.0061470317 -0.00012095238 -0.0027677759
0.0091625573 0.00012095238 -0.0088611897
0.013105935 0.0018142858 -0.00042415524
-0.013801826 -0.00254 -0.0006585173
-0.0089305937 0.00254 -0.00018979318
-0.012178082 0.00060476188 -0.0022990517
-0.0086986301 -0.00012095238 -0.006986293
-0.0059150686 -0.00254 -0.00042415524
-0.0254 0.0018142858 -0.0011272414
0.013569863 -0.00084666669 -0.0022990517
-0.013105935 -0.00254 -0.00042415524
0.02145662 -0.00254 -0.00089287938
-0.023776256 0.0018142858 -0.0022990517
-0.019136986 -0.00036285713 -0.0062832069
-0.0254 -0.00084666669 -0.00042415524
0.010554338 -0.00254 -0.0013616035
0.018905023 -0.00012095238 -0.0053457585
0.0054511414 0.00254 -0.0011272414
-0.019368948 0.00254 -0.0013616035
0.010554338 0.0022980953 -0.00018979318
-0.022152511 -0.00254 -0.0013616035
0.0075388127 -0.00084666669 -0.00042415524
-0.014265753 -0.00060476188 -0.0022990517
0.018905023 -0.00012095238 0.00098201714
0.020528767 -0.00254 -0.00089287938
-0.020296803 -0.0020561905 -0.00018979318
-0.011018265 0.00084666669 -0.00042415524
-0.0254 0.0013304761 -0.0015959656
-0.0061470317 0.00012095238 -0.0062832069
-0.024472145 -0.0020561905 -0.0022990517
-0.0070748855 0.0018142858 -0.00042415524
-0.0086986301 0.0022980953 -0.00018979318
-0.015889497 -0.001572381 -0.0022990517
0.013801826 -0.00012095238 -0.0041739484
0.011250228 -0.00012095238 0.00051329302
0.019832876 0.00254 -0.0006585173
0.0010438355 -0.00012095238 -0.0083924653
-0.0063789953 -0.0013304761 -0.00042415524
-0.0063789953 -0.00254 -0.0022990517
-0.010322374 -0.0013304761 -0.00042415524
-0.0024356165 0.0010885714 -0.0022990517
0.020992694 0.00254 -0.0013616035
-0.0031315067 0.0018142858 -0.00042415524
0.023544291 0.0018142858 -0.0022990517
0.0035954337 0.00254 -0.0013616035
-0.0091625573 0.0018142858 -0.0022990517
-0.013801826 0.00254 -0.00089287938
-0.019136986 -0.00036285713 -0.0072206552
0.016585387 -0.0018142858 -0.0022990517
0.016353425 -0.00012095238 -0.0055801207
-0.023080364 -0.00254 -0.0006585173
0.0040593608 0.00012095238 -0.0060488447
0.0063789953 0.00012095238 -0.0083924653
-0.0035954337 0.00012095238 -0.0027677759
0.0070748855 0.0020561905 -0.0022990517
-0.001275799 0.00012095238 -0.0083924653
0.016817352 -0.0020561905 -0.0022990517
-0.01403379 0.00036285713 -0.0090955514
0.020296803 0.00012095238 -0.0022990517
0.0063789953 0.00036285713 -0.0065175691
0.025168035 -0.0018142858 -0.0020646898
0.012178082 0.0018142858 -0.00042415524
0.0033634703 -0.00060476188 -0.00042415524
-0.0035954337 0.00012095238 -0.0076893792
0.0086986301 -0.00012095238 -0.0025334139
0.0091625573 -0.00012095238 4.4568893e-05
-0.0038273972 -0.00012095238 0.00074765511
0.024008218 0.00254 -0.0006585173
0.02006484 0.0018142858 -0.00042415524
0.024008218 0.00012095238 -0.0062832069
0.022152511 0.0010885714 -0.0022990517
-0.001275799 -0.00084666669 -0.00042415524
0.0066109588 0.00036285713 -0.0025334139
0.011946118 0.00060476188 -0.0022990517
-0.0098584471 0.00060476188 -0.00042415524
0.024240183 -0.00012095238 0.0014507413
0.008234703 -0.00084666669 -0.0022990517
0.020296803 0.00254 -0.0006585173
-0.01403379 0.00012095238 0.0030912757
-0.0028995434 0.00012095238 -0.00018979318
-0.015889497 -0.0018142858 -0.00042415524
-0.00081187213 0.0013304761 -0.0022990517
0.0061470317 0.00012095238 -0.0046426724
0.02076073 0.0022980953 -0.0022990517
-0.0089305937 0.00036285713 -0.0030021379
0.0254 -0.0013304761 -0.0015959656
0.0080027394 0.00084666669 -0.00042415524
-0.010090411 0.0018142858 -0.0022990517
0.0063789953 0.00012095238 -0.0074550174
0.024008218 0.00012095238 0.0012163792
0.0089305937 -0.00012095238 -0.0095642759
0.0010438355 0.0020561905 -0.00018979318
-0.00011598173 0.00254 -0.00018979318
-0.0063789953 0.00012095238 -0.0034708621
-0.0080027394 -0.00254 -0.0018303277
-0.0086986301 0.0013304761 -0.00042415524
0.023776256 -0.00060476188 -0.00042415524
0.021688584 0.001572381 -0.00042415524
0.023080364 -0.001572381 -0.00042415524
-0.0015077625 -0.00012095238 -0.0041739484
-0.010786301 -0.0018142858 -0.00042415524
-0.022384474 0.00036285713 -0.00018979318
0.01612146 0.0013304761 -0.0022990517
-0.022616439 -0.0020561905 -0.00018979318
-0.013801826 0.00036285713 -0.0053457585
0.001275799 0.00254 -0.0015959656
-0.0068429224 0.00036285713 -0.0022990517
0.019832876 0.00254 -0.00042415524
0.001275799 -0.00012095238 -0.0055801207
0.0040593608 0.00012095238 -0.0055801207
-0.013569863 0.00254 -0.00042415524
-0.013105935 0.00036285713 -0.0022990517
-0.0019716895 0.00254 -0.0011272414
-0.008234703 0.00084666669 -0.0022990517
0.012642009 0.00084666669 -0.00042415524
-0.019600913 -0.0022980953 -0.00018979318
-0.0052191778 -0.0018142858 -0.0022990517
-0.017513242 0.00036285713 -0.0022990517
-0.022616439 -0.00012095238 -0.0022990517
-0.0042913239 -0.00254 -0.0011272414
-0.024008218 0.00036285713 0.0014507413
-0.011018265 0.001572381 -0.0022990517
-0.0066109588 -0.00012095238 -0.0072206552
0.011714155 -0.00254 -0.0013616035
-0.0040593608 -0.00254 -0.0011272414
0.024472145 0.00254 -0.0020646898
-0.021688584 -0.00012095238 0.0021538276
-0.024936073 -0.0022980953 -0.0022990517
-0.023544291 -0.00036285713 -0.00018979318
-0.014265753 0.00254 -0.0011272414
-0.023776256 0.00254 -0.0015959656
0.015889497 -0.00036285713 -0.00018979318
-0.0089305937 0.00060476188 -0.00042415524
0.024240183 -0.00012095238 0.0023881895
0.0089305937 -0.00254 -0.00018979318
0.019832876 -0.00060476188 -0.0022990517
-0.0022036529 -0.0020561905 -0.0022990517
-0.011482191 0.0013304761 -0.00042415524
-0.021688584 -0.00012095238 0.0028569137
-0.014265753 -0.00036285713 -0.0022990517
-0.02145662 0.00036285713 -0.0030021379
-0.014497717 -0.00036285713 -0.00018979318
0.0063789953 0.00012095238 -0.0046426724
-0.0010438355 -0.00254 -0.0011272414
-0.010322374 0.00084666669 -0.00042415524
0.022384474 -0.0013304761 -0.00042415524
0.0098584471 0.0010885714 -0.00042415524
0.010322374 -0.00254 -0.00042415524
-0.0084666666 0.00254 -0.0018303277
0.0098584471 0.00254 -0.0020646898
-0.01403379 -0.00254 -0.0020646898
0.013801826 -0.00012095238 0.0023881895
0.0035954337 -0.001572381 -0.0022990517
0.013337899 0.0022980953 -0.00018979318
0.0052191778 0.001572381 -0.00042415524
0.01542557 -0.0022980953 -0.00018979318
0.0024356165 0.001572381 -0.00042415524
-0.0049872147 0.0018142858 -0.0022990517
0.010554338 -0.00254 -0.0015959656
0.015193607 -0.00254 -0.00089287938
-0.024240183 -0.00254 -0.0020646898
-0.020992694 0.001572381 -0.0022990517
0.021688584 -0.00012095238 0.0023881895
-0.019136986 -0.00036285713 -0.0076893792
0.010554338 -0.001572381 -0.00042415524
0.021688584 0.00012095238 -0.0067519313
0.0017397259 0.0010885714 -0.00042415524
-0.011482191 -0.00012095238 0.0019194654
0.0035954337 -0.00012095238 -0.0081581036
-0.0086986301 -0.00012095238 -0.0074550174
0.02145662 -0.00036285713 0.0021538276
0.011250228 0.00012095238 -0.0062832069
-0.0022036529 0.0022980953 -0.0022990517
-0.0063789953 0.00254 -0.0022990517
0.012873972 0.00254 -0.0011272414
-0.0086986301 0.00012095238 0.00098201714
-0.01403379 0.00036285713 -0.0048770346
0.011482191 -0.00012095238 -0.0074550174
0.0028995434 0.0010885714 -0.00042415524
-0.011714155 -0.00254 -0.0011272414
0.0075388127 -0.00254 -0.0022990517
-0.0254 -0.0010885714 -0.0022990517
-0.0052191778 -0.00036285713 -0.00042415524
0.019136986 -0.00036285713 -0.0088611897
0.010090411 0.00060476188 -0.0022990517
-0.0028995434 -0.001572381 -0.0022990517
0.013337899 -0.00254 -0.0022990517
0.011250228 0.00012095238 0.0026225515
-0.0010438355 0.00254 -0.0011272414
-0.0075388127 -0.00012095238 -0.00018979318
0.0045232875 0.00036285713 -0.00018979318
-0.011018265 0.00254 -0.0020646898
0.01612146 0.0010885714 -0.00042415524
0.011714155 0.00084666669 -0.0022990517
0.024240183 -0.0022980953 -0.0018303277
-0.0066109588 -0.00012095238 0.0019194654
-0.017745204 0.00254 -0.0011272414
0.0010438355 -0.00012095238 -0.0081581036
0.00011598173 0.00254 -0.00042415524
-0.024936073 0.0018142858 -0.00042415524
0.01472968 0.0013304761 -0.00042415524
-0.0026675798 -0.00254 -0.0020646898
-0.016585387 0.00012095238 -0.0055801207
0.02006484 0.001572381 -0.00042415524
-0.017745204 0.00012095238 -0.00018979318
0.024472145 -0.0018142858 -0.0022990517
0.010786301 -0.00254 -0.0022990517
0.0091625573 -0.00254 -0.0018303277
-0.0010438355 -0.00012095238 0.0028569137
0.02076073 0.00060476188 -0.0022990517
0.01472968 -0.001572381 -0.0022990517
0.022616439 0.00012095238 -0.0022990517
0.021920547 0.00012095238 -0.0025334139
-0.0031315067 -0.0022980953 -0.00018979318
0.013801826 -0.00036285713 -0.00018979318
-0.01472968 -0.0020561905 -0.00018979318
-0.00057990866 0.00254 -0.00042415524
-0.02145662 -0.00012095238 -0.0093299141
-0.0040593608 -0.00012095238 -0.0090955514
0.022848401 -0.0013304761 -0.00042415524
0.010554338 0.001572381 -0.0022990517
0.0028995434 -0.0013304761 -0.0022990517
0.0086986301 -0.00254 -0.00018979318
0.0075388127 0.00012095238 -0.0022990517
-0.0059150686 0.00254 -0.0022990517
0.023544291 0.00254 -0.00018979318
0.013105935 -0.00254 -0.00089287938
0.0040593608 -0.00012095238 -0.0079237418
-0.0026675798 -0.00084666669 -0.0022990517
0.0091625573 -0.0022980953 -0.0022990517
-0.011482191 -0.0018142858 -0.0022990517
0.02145662 -0.0018142858 -0.00042415524
-0.0061470317 0.00012095238 0.0023881895
-0.013105935 0.0010885714 -0.00042415524
-0.024008218 0.00060476188 -0.0022990517
0.016353425 -0.00254 -0.0020646898
0.00057990866 -0.001572381 -0.0022990517
-0.008234703 0.00254 -0.0022990517
-0.024240183 0.00012095238 -0.0041739484
-0.0061470317 -0.00254 -0.00018979318
-0.0073068491 0.0010885714 -0.00042415524
-0.017745204 -0.0022980953 -0.00018979318
0.024240183 -0.00012095238 -0.0051113968
-0.017049314 0.00254 -0.0011272414
0.023776256 0.00036285713 -0.00018979318
0.0066109588 -0.00012095238 -0.0053457585
-0.0035954337 0.00012095238 -0.0058144829
0.019600913 0.00254 -0.00042415524
0.018905023 0.00012095238 -0.0060488447
0.0038273972 -0.00012095238 0.0033256379
-0.018905023 0.00012095238 -0.0083924653
0.0089305937 0.00012095238 -0.0062832069
-0.010090411 0.00060476188 -0.0022990517
-0.02006484 -0.00084666669 -0.00042415524
-0.0026675798 0.00254 -0.00042415524
-0.020296803 0.0022980953 -0.0022990517
-0.015193607 -0.0010885714 -0.00042415524
0.024240183 0.0013304761 -0.0022990517
-0.0015077625 0.00060476188 -0.0025334139
-0.013801826 -0.00012095238 -0.0083924653
0.024008218 -0.00012095238 -0.0067519313
0.02145662 0.00012095238 4.4568893e-05
0.0066109588 0.00012095238 0.0016851034
0.011482191 -0.00036285713 -0.0065175691
0.0059150686 -0.00254 -0.0020646898
0.0061470317 0.00012095238 0.00098201714
-0.008234703 -0.00036285713 -0.0022990517
-0.011250228 -0.0018142858 -0.00042415524
-0.012642009 0.00254 -0.00042415524
-0.0091625573 0.0022980953 -0.00018979318
0.0063789953 0.00060476188 -0.0025334139
-0.0047552511 -0.00060476188 -0.0022990517
-0.01472968 -0.00012095238 -0.0022990517
-0.0063789953 -0.00012095238 -0.0048770346
0.022384474 -0.0010885714 -0.0022990517
-0.023544291 0.001572381 -0.0022990517
-0.025168035 -0.0020561905 -0.0015959656
-0.0040593608 0.00036285713 -0.0025334139
-0.024008218 0.00012095238 -0.0060488447
-0.021688584 0.00012095238 -0.0034708621
-0.014265753 -0.00012095238 0.00027893097
-0.022848401 0.00254 -0.0011272414
-0.017745204 0.00060476188 -0.0022990517
0.0075388127 0.00254 -0.0020646898
-0.0089305937 0.00254 -0.0015959656
-0.022384474 0.00254 -0.0015959656
-0.0254 -0.0010885714 -0.0020646898
0.015657533 -0.0010885714 -0.00042415524
0.0015077625 0.00012095238 -0.0060488447
-0.0010438355 0.00012095238 -0.0074550174
0.011250228 0.00254 -0.0013616035
0.008234703 -0.00254 -0.0006585173
0.0059150686 0.00254 -0.00018979318
-0.001275799 0.00036285713 -0.0081581036
-0.0063789953 -0.00254 -0.0015959656
-0.021224657 -0.00036285713 -0.00018979318
0.0084666666 0.00254 -0.0013616035
0.001275799 0.00012095238 -0.0076893792
0.0040593608 0.00012095238 4.4568893e-05
-0.0086986301 0.00060476188 -0.0022990517
-0.017513242 0.00254 -0.0011272414
-0.013105935 0.0020561905 -0.0022990517
-0.0052191778 0.0013304761 -0.0022990517
-0.022152511 -0.00254 -0.00018979318
-0.024240183 -0.00012095238 0.00074765511
-0.02076073 0.00254 -0.00042415524
0.01403379 0.00254 -0.0018303277
-0.02076073 -0.0013304761 -0.0022990517
-0.018441096 0.00254 -0.0018303277
0.015193607 -0.00254 -0.00018979318
0.022384474 0.0010885714 -0.00042415524
-0.024936073 -0.00084666669 -0.00042415524
0.0017397259 -0.0018142858 -0.00042415524
-0.023544291 -0.00254 -0.0018303277
0.0042913239 0.00254 -0.0015959656
0.02145662 -0.00012095238 -0.0048770346
-0.017513242 -0.00254 -0.0020646898
0.0024356165 -0.00254 -0.0011272414
-0.0096264835 0.0020561905 -0.00018979318
0.016585387 0.00012095238 -0.0067519313
0.0038273972 -0.00012095238 -0.0058144829
-0.019136986 0.00012095238 -0.0041739484
0.018905023 -0.00254 -0.00089287938
-0.0089305937 -0.00012095238 0.0023881895
0.01542557 -0.00254 -0.0015959656
-0.0089305937 -0.00012095238 0.0028569137
-0.01472968 0.0022980953 -0.0022990517
-0.02470411 0.0020561905 -0.0022990517
-0.011482191 0.00012095238 -0.0044083102
-0.0035954337 -0.00012095238 0.0021538276
-0.0091625573 0.0013304761 -0.0022990517
-0.0015077625 -0.00012095238 -0.006986293
-0.0019716895 -0.00084666669 -0.00042415524
-0.012642009 -0.00084666669 -0.0022990517
-0.021688584 0.00012095238 -0.0081581036
-0.019136986 -0.00036285713 0.0019194654
0.0054511414 -0.0018142858 -0.00042415524
-0.017513242 0.00012095238 -0.0022990517
0.018441096 -0.0018142858 -0.0022990517
0.0024356165 0.0013304761 -0.0022990517
0.019136986 0.0020561905 -0.00018979318
-0.017049314 -0.0013304761 -0.00042415524
-0.0086986301 -0.00012095238 0.0016851034
-0.0045232875 0.00254 -0.0018303277
0.017513242 0.00254 -0.00042415524
0.018209131 0.0018142858 -0.0022990517
-0.024008218 -0.00012095238 0.00027893097
-0.017745204 0.0010885714 -0.0022990517
-0.022848401 0.0020561905 -0.0022990517
-0.0049872147 0.00012095238 -0.0022990517
0.010786301 -0.0010885714 -0.0022990517
0.011482191 0.00012095238 4.4568893e-05
-0.0084666666 0.001572381 -0.0022990517
0.011482191 0.00012095238 -0.0041739484
0.02470411 0.00060476188 -0.00042415524
-0.00011598173 0.00254 -0.0015959656
-0.0017397259 -0.00254 -0.00018979318
-0.018209131 0.00060476188 -0.00042415524
-0.018673059 -0.0018142858 -0.00042415524
-0.01612146 -0.00254 -0.00042415524
-0.001275799 0.00012095238 0.0023881895
-0.018905023 -0.00012095238 -0.008626828
0.0086986301 -0.00012095238 0.00074765511
-0.016585387 0.00036285713 -0.0044083102
-0.018441096 0.00012095238 -0.0022990517
0.015657533 0.00084666669 -0.00042415524
0.022848401 -0.00060476188 -0.0022990517
0.0084666666 -0.00036285713 -0.00042415524
0.0017397259 -0.0010885714 -0.00042415524
-0.016585387 -0.001572381 -0.00042415524
0.010090411 0.0018142858 -0.00042415524
0.0059150686 0.00254 -0.0022990517
0.0028995434 -0.00084666669 -0.00042415524
