# .PCD v0.7 - Point Cloud Data file format
VERSION 0.7
FIELDS x y z
SIZE 4 4 4
TYPE F F F
COUNT 1 1 1
WIDTH 1209
HEIGHT 1
VIEWPOINT 0 0 0 1 0 0 0
POINTS 1209
DATA ascii
0.016013991 0.00074705883 -0.0023869376
-0.025367295 -0.0016435294 -0.0023869376
0.031886265 -0.00014941176 0.0012945
-0.0072275531 -0.00074705883 -0.0023869376
-0.017147724 0.00254 -0.00068781257
-0.0032594849 0.00254 -0.0012541875
-0.0066606863 0.00014941176 -0.00012143757
0.031886265 0.0022411766 -0.0023869376
-0.0089281537 -0.00014941176 0.0015776874
0.016013991 0.0010458824 -0.0023869376
0.0089281537 -0.00044823528 -0.0026701251
0.027918195 0.0022411766 -0.00012143757
-0.013746523 0.00014941176 -0.0052188127
-0.0077944202 0.0010458824 -0.00040462508
0.0052435189 -0.00254 -0.00097100006
-0.016297424 -0.00254 -0.00068781257
-0.011479056 -0.0010458824 -0.00040462508
-0.0049600857 -0.0013447059 -0.0023869376
-0.016297424 0.00014941176 0.0012945
0.028768497 0.0022411766 -0.00012143757
0.013746523 -0.00014941176 0.0027104374
-0.011195621 0.00014941176 -0.0089002503
-0.0089281537 -0.0022411766 -0.00012143757
-0.009778454 0.0010458824 -0.0023869376
-0.014596824 -0.00014941176 -0.00012143757
0.018281458 0.00014941176 -0.0023869376
0.015730558 0.00074705883 -0.00040462508
-0.020548927 -0.00254 -0.00068781257
-0.0077944202 -0.00074705883 -0.0023869376
-0.014029956 0.00254 -0.00097100006
0.033019997 0.00074705883 -0.001537375
-0.0046766521 -0.0013447059 -0.00040462508
-0.01431339 0.0022411766 -0.00012143757
0.0018423175 -0.00254 -0.0023869376
0.026217595 0.00074705883 -0.0023869376
0.033019997 0.0016435294 -0.00040462508
0.00014171674 -0.00254 -0.00097100006
-0.0032594849 0.0016435294 -0.0023869376
-0.016580857 0.00014941176 -0.0052188127
0.0043932186 -0.0016435294 -0.00040462508
0.01686429 -0.00074705883 -0.00040462508
0.030469097 -0.0010458824 -0.00040462508
-0.018564891 -0.00254 -0.0018205625
-0.009778454 -0.00254 -0.00097100006
0.0032594849 -0.00074705883 -0.0023869376
-0.02905193 0.00014941176 -0.0040860623
-0.0063772528 -0.00014941176 -0.0094666248
-0.0026926179 0.0022411766 -0.00012143757
-0.021966094 -0.001942353 -0.00012143757
-0.026501028 -0.00254 -0.00040462508
0.0035429182 0.00014941176 -0.0089002503
0.022249527 -0.001942353 -0.0023869376
-0.025934162 -0.00074705883 -0.0023869376
0.030185664 0.0016435294 -0.0023869376
-0.010061888 -0.00254 -0.0012541875
-0.001558884 0.00044823528 -0.0023869376
-0.019698625 -0.001942353 -0.00012143757
0.028485063 0.00254 -0.00097100006
-0.030469097 0.00044823528 -0.00040462508
-0.018848326 0.00014941176 -0.0057851877
0.029902231 -0.00044823528 -0.00040462508
-0.019415192 0.0013447059 -0.00040462508
0.00042515018 -0.0022411766 -0.00012143757
0.0060938196 -0.00014941176 -0.0040860623
-0.0063772528 -0.00014941176 -0.0074843126
-0.0080778534 -0.00254 -0.0018205625
0.024516994 0.00044823528 -0.00040462508
-0.016013991 -0.00254 -0.0021037501
0.0075109866 0.001942353 -0.00012143757
-0.001558884 0.00014941176 -0.0074843126
-0.0094950208 -0.00074705883 -0.0023869376
-0.0066606863 -0.00044823528 -0.0023869376
0.0035429182 0.00254 -0.001537375
0.03160283 0.00014941176 0.00072812493
-0.013463089 -0.0013447059 -0.00040462508
-0.01516369 0.00254 -0.00097100006
-0.031886265 -0.00014941176 0.0012945
-0.0089281537 -0.00014941176 -0.0026701251
0.021682659 0.00014941176 -0.006068375
-0.024233561 -0.00254 -0.0012541875
-0.027918195 0.0016435294 -0.00040462508
-0.015447124 0.0016435294 -0.00040462508
-0.014596824 -0.00014941176 -0.0023869376
0.013179656 -0.00044823528 -0.0023869376
-0.022816394 -0.00254 -0.001537375
0.018848326 0.00014941176 0.00044493741
0.0060938196 0.001942353 -0.00012143757
0.013463089 -0.00074705883 -0.00040462508
0.019698625 0.001942353 -0.00012143757
0.0063772528 -0.00014941176 -0.0038028751
0.0060938196 -0.0022411766 -0.00012143757
0.024233561 0.00074705883 -0.0023869376
0.005810386 -0.00254 -0.00068781257
0.024800427 -0.00254 -0.0018205625
-0.0041097854 0.00014941176 -0.0023869376
-0.012612789 -0.00014941176 -0.00012143757
-0.0024091844 0.0022411766 -0.00012143757
-0.021115793 -0.00254 -0.001537375
0.010912188 0.00044823528 -0.00040462508
0.033019997 0.0013447059 -0.00040462508
0.028485063 0.00074705883 -0.0023869376
0.001558884 -0.00014941176 0.0010113125
0.020265492 -0.00014941176 -0.0023869376
-0.012045922 0.00254 -0.001537375
0.011479056 0.0016435294 -0.00040462508
0.03160283 -0.00014941176 -0.0040860623
0.016297424 0.00254 -0.00040462508
-0.021682659 -0.00014941176 -0.0077674999
-0.0089281537 -0.0013447059 -0.00040462508
-0.011762489 -0.00254 -0.001537375
0.029618796 0.0013447059 -0.00040462508
-0.01431339 -0.00254 -0.00097100006
-0.0038263518 -0.00014941176 -0.0072011249
0.017998025 0.0010458824 -0.00040462508
-0.0009920171 0.00044823528 -0.0023869376
0.014029956 0.00074705883 -0.00040462508
-0.023950128 0.00014941176 -0.0026701251
0.0086447205 0.00254 -0.00068781257
0.03160283 -0.0010458824 -0.00040462508
0.0049600857 -0.0022411766 -0.00012143757
-0.02905193 -0.0010458824 -0.00040462508
0.011195621 -0.0010458824 -0.00040462508
0.012612789 0.001942353 -0.00012143757
0.012612789 0.00254 -0.0018205625
-0.023950128 -0.0013447059 -0.00040462508
-0.032736566 -0.0013447059 -0.0023869376
-0.018848326 -0.00014941176 0.0027104374
0.0024091844 -0.00254 -0.00040462508
0.011479056 0.00014941176 0.0029936249
-0.0052435189 0.0010458824 -0.0023869376
0.0032594849 0.00044823528 -0.00040462508
0.010628755 0.00044823528 -0.00040462508
0.021682659 0.00014941176 0.0012945
-0.0089281537 -0.00074705883 -0.00040462508
0.012329356 -0.00074705883 -0.00040462508
-0.026501028 0.00074705883 -0.0023869376
-0.0043932186 -0.00044823528 -0.00040462508
-0.010912188 0.00254 -0.0023869376
-0.019131759 -0.00254 -0.0012541875
0.0092115877 0.00254 -0.0012541875
0.026501028 0.00014941176 -0.0086170621
0.0012754506 0.001942353 -0.0023869376
-0.0092115877 -0.0022411766 -0.0023869376
-0.010345321 -0.0016435294 -0.00040462508
0.024516994 0.00254 -0.00040462508
-0.017998025 0.00254 -0.001537375
0.031035963 -0.00044823528 -0.0023869376
-0.0075109866 0.00014941176 -0.0023869376
0.023950128 0.00014941176 -0.00012143757
0.026217595 -0.00254 -0.00068781257
-0.0060938196 -0.00014941176 -0.0072011249
0.029902231 0.00074705883 -0.0023869376
0.016580857 -0.00254 -0.0023869376
-0.02905193 0.00254 -0.00097100006
0.021966094 0.0013447059 -0.00040462508
0.029618796 -0.00044823528 -0.0023869376
-0.0018423175 -0.0010458824 -0.00040462508
-0.0089281537 0.00254 -0.0021037501
0.0086447205 -0.00014941176 -0.0074843126
-0.0012754506 -0.00254 -0.00097100006
-0.0060938196 -0.00014941176 0.0024272499
0.013746523 0.00014941176 -0.0069179377
-0.0026926179 0.0016435294 -0.0023869376
-0.001558884 -0.00014941176 -0.0026701251
0.0083612874 0.00254 -0.001537375
0.00014171674 -0.0016435294 -0.00040462508
0.033019997 0.0016435294 -0.00068781257
0.0038263518 -0.00074705883 -0.0023869376
0.024516994 -0.0013447059 -0.00040462508
0.023950128 0.0016435294 -0.0023869376
0.032736566 -0.0013447059 -0.00068781257
-0.0060938196 -0.0022411766 -0.0023869376
0.0089281537 0.00074705883 -0.0023869376
0.022816394 -0.00254 -0.00040462508
0.025650728 -0.00254 -0.001537375
-0.025083862 -0.001942353 -0.00012143757
-0.016297424 -0.00254 -0.0018205625
0.012045922 0.001942353 -0.00012143757
0.013179656 0.00254 -0.0012541875
0.0075109866 0.0016435294 -0.00040462508
-0.02905193 0.00014941176 -0.0026701251
-0.033019997 -0.00044823528 -0.00097100006
-0.029335363 -0.00014941176 -0.0074843126
0.014029956 -0.00254 -0.00040462508
-0.0012754506 0.00014941176 0.00016174992
0.013746523 -0.00014941176 -0.0086170621
-0.0066606863 -0.00254 -0.00097100006
-0.03160283 -0.00014941176 -0.0029533126
-0.0029760513 0.0013447059 -0.0023869376
-0.019131759 0.00254 -0.0023869376
0.022816394 0.00254 -0.00097100006
-0.027067896 -0.0016435294 -0.00040462508
0.02820163 0.0022411766 -0.00012143757
0.013746523 -0.0016435294 -0.00040462508
-0.029335363 -0.00014941176 -0.0069179377
-0.0041097854 -0.00074705883 -0.00040462508
-0.023099827 -0.00254 -0.001537375
-0.014596824 0.00074705883 -0.0023869376
0.012612789 0.00044823528 -0.00040462508
0.021399226 0.00014941176 -0.0063515627
-0.0072275531 -0.0013447059 -0.0023869376
0.021115793 -0.0010458824 -0.0023869376
0.0080778534 -0.0022411766 -0.0023869376
0.0083612874 0.001942353 -0.0023869376
-0.0083612874 0.0010458824 -0.0023869376
-0.0009920171 -0.00014941176 -0.00436925
-0.031035963 0.00014941176 -0.00012143757
0.020265492 -0.00254 -0.00097100006
-0.029618796 0.0016435294 -0.0023869376
-0.0060938196 -0.00014941176 -0.005502
-0.019131759 -0.00014941176 -0.0089002503
-0.018848326 -0.00014941176 -0.0080506876
-0.024233561 0.00014941176 -0.006068375
0.021399226 0.00014941176 -0.0069179377
-0.028768497 -0.0010458824 -0.00040462508
0.021399226 -0.00014941176 -0.0063515627
0.0026926179 -0.001942353 -0.00012143757
0.0049600857 -0.0016435294 -0.00040462508
-0.0009920171 -0.0016435294 -0.00040462508
-0.0035429182 0.00014941176 -0.0040860623
-0.0038263518 0.00074705883 -0.0023869376
-0.025650728 -0.00044823528 -0.0023869376
0.025934162 -0.00014941176 -0.0023869376
0.023950128 -0.00254 -0.00040462508
-0.0060938196 0.00254 -0.00097100006
-0.029335363 -0.00014941176 0.0024272499
0.031886265 -0.00014941176 0.00044493741
0.0080778534 -0.00254 -0.00097100006
0.026784463 0.00014941176 -0.0074843126
0.013179656 0.0022411766 -0.0023869376
0.001558884 0.0010458824 -0.00040462508
-0.0069441199 -0.00254 -0.0021037501
-0.01431339 -0.0016435294 -0.0023869376
-0.0012754506 0.001942353 -0.0023869376
-0.0009920171 0.00014941176 -0.005502
0.027351329 0.001942353 -0.0023869376
-0.029618796 0.00044823528 -0.00040462508
0.010345321 -0.00044823528 -0.0023869376
0.015730558 -0.0010458824 -0.0023869376
-0.029335363 0.00044823528 -0.0023869376
0.013179656 -0.0013447059 -0.0023869376
-0.015447124 -0.00014941176 -0.0023869376
-0.012045922 0.0022411766 -0.00012143757
0.026784463 0.00044823528 -0.0023869376
0.0069441199 0.0013447059 -0.00040462508
-0.0041097854 0.00014941176 -0.0029533126
-0.0035429182 -0.00014941176 0.0021440624
-0.0041097854 -0.00014941176 -0.005502
-0.020548927 0.0010458824 -0.0023869376
0.012896222 -0.0022411766 -0.0023869376
0.021399226 -0.00074705883 -0.00040462508
0.02338326 -0.0016435294 -0.0023869376
-0.0032594849 0.00254 -0.0023869376
-0.016297424 0.00014941176 -0.0074843126
0.013463089 -0.0013447059 -0.00040462508
0.029335363 0.00254 -0.0021037501
-0.011762489 -0.0013447059 -0.0023869376
0.002125751 -0.0022411766 -0.0023869376
-0.023099827 -0.00254 -0.00012143757
0.010628755 0.0022411766 -0.00012143757
0.024800427 -0.0013447059 -0.00040462508
0.027918195 -0.001942353 -0.0023869376
-0.027067896 0.00254 -0.0018205625
0.027067896 -0.0013447059 -0.0023869376
0.014880257 -0.00044823528 -0.0023869376
0.011479056 -0.00044823528 -0.00040462508
0.0086447205 0.00014941176 -0.004935625
-0.010628755 -0.0013447059 -0.0023869376
-0.029335363 0.00014941176 0.0029936249
0.018564891 0.00254 -0.0012541875
-0.014029956 0.00014941176 -0.0083338749
0.024516994 -0.00254 -0.00097100006
-0.0080778534 -0.0010458824 -0.0023869376
0.017147724 0.0010458824 -0.00040462508
-0.025083862 -0.00254 -0.00097100006
-0.016297424 0.00254 -0.00012143757
-0.0069441199 0.001942353 -0.0023869376
-0.011479056 0.00254 -0.0012541875
0.0038263518 0.00014941176 -0.0089002503
-0.026784463 0.001942353 -0.00040462508
-0.027067896 -0.00254 -0.0018205625
-0.0012754506 0.00014941176 0.0029936249
-0.019131759 0.0016435294 -0.0023869376
-0.0041097854 -0.00254 -0.00040462508
0.012896222 -0.00254 -0.0012541875
0.019131759 -0.00014941176 -0.0094666248
-0.016580857 0.00014941176 0.00072812493
-0.0032594849 -0.001942353 -0.00012143757
-0.025367295 0.00044823528 -0.0023869376
-0.031886265 -0.00254 -0.00040462508
0.0049600857 -0.00074705883 -0.00040462508
0.0075109866 -0.00044823528 -0.0023869376
-0.014596824 0.0013447059 -0.0023869376
0.023950128 0.0010458824 -0.00040462508
-0.026501028 -0.00014941176 -0.0026701251
0.023950128 0.00074705883 -0.0023869376
0.032453131 0.0022411766 -0.0021037501
-0.0089281537 -0.00254 -0.0021037501
-0.013746523 -0.00014941176 -0.0077674999
-0.0043932186 -0.00074705883 -0.00040462508
0.017147724 0.00254 -0.00040462508
-0.010345321 0.00044823528 -0.0023869376
-0.0072275531 -0.00014941176 -0.0023869376
0.019698625 -0.00014941176 -0.0023869376
0.03160283 -0.001942353 -0.00040462508
0.016297424 0.00014941176 -0.0074843126
0.03075253 -0.00074705883 -0.0023869376
-0.0038263518 0.00014941176 -0.0035196876
-0.010912188 -0.00254 -0.00040462508
-0.011195621 0.00014941176 -0.0077674999
0.010345321 0.0010458824 -0.00040462508
-0.014880257 0.00014941176 -0.0023869376
0.0092115877 0.0022411766 -0.0023869376
-0.0083612874 -0.00254 -0.00040462508
-0.018564891 0.00044823528 -0.0023869376
0.0080778534 0.00254 -0.00012143757
0.0089281537 0.00254 -0.0018205625
-0.03160283 0.00254 -0.0021037501
0.026784463 0.00014941176 0.0010113125
-0.026501028 -0.00014941176 0.00072812493
0.019982059 0.00254 -0.0012541875
-0.01516369 -0.00074705883 -0.00040462508
0.033019997 0.001942353 -0.0023869376
-0.009778454 -0.0010458824 -0.00040462508
0.010061888 -0.001942353 -0.0023869376
-0.027067896 -0.0022411766 -0.00012143757
-0.0024091844 -0.0016435294 -0.00040462508
-0.0029760513 -0.00254 -0.00040462508
0.027067896 -0.00254 -0.001537375
0.0049600857 -0.00074705883 -0.0023869376
-0.012896222 0.001942353 -0.00040462508
-0.0009920171 -0.00014941176 -0.0063515627
-0.024800427 0.0013447059 -0.00040462508
-0.0041097854 0.00014941176 -0.006068375
0.023950128 0.00254 -0.00040462508
0.0072275531 -0.00254 -0.001537375
-0.0092115877 -0.00254 -0.001537375
-0.01431339 0.00044823528 -0.0023869376
-0.0060938196 0.00014941176 -0.0089002503
0.0060938196 -0.00014941176 -0.0083338749
0.0009920171 -0.00014941176 -0.00436925
0.016297424 -0.00014941176 -0.0032365001
0.0009920171 0.00254 -0.00068781257
0.02253296 0.00014941176 -0.00012143757
0.010345321 0.00044823528 -0.0023869376
0.0046766521 -0.00254 -0.00012143757
0.010061888 -0.0016435294 -0.00040462508
0.03160283 0.00254 -0.0012541875
-0.029335363 0.00014941176 -0.0057851877
-0.019982059 0.00014941176 -0.0023869376
0.014029956 0.00014941176 0.0024272499
0.0083612874 -0.0010458824 -0.00040462508
-0.031886265 0.00014941176 -0.0057851877
-0.02905193 -0.00014941176 -0.00436925
0.014029956 -0.0022411766 -0.0023869376
0.017714592 -0.00254 -0.0021037501
0.027067896 0.00074705883 -0.0023869376
0.00014171674 0.0013447059 -0.00040462508
0.024516994 -0.0010458824 -0.00040462508
-0.020265492 -0.0013447059 -0.00040462508
-0.013179656 0.00044823528 -0.0023869376
-0.033019997 -0.0013447059 -0.00097100006
-0.012329356 0.0013447059 -0.00040462508
0.032736566 -0.001942353 -0.0023869376
-0.019698625 -0.00044823528 -0.00040462508
-0.0009920171 0.00014941176 -0.00012143757
0.011479056 -0.00014941176 -0.0063515627
-0.019131759 -0.00014941176 -0.0035196876
0.024233561 0.00014941176 -0.0086170621
-0.02905193 -0.00014941176 0.00072812493
0.019415192 -0.00254 -0.00040462508
0.0041097854 0.00044823528 -0.0023869376
-0.032736566 -0.00044823528 -0.00040462508
0.011195621 -0.00014941176 -0.0032365001
0.013746523 0.00254 -0.001537375
-0.013746523 -0.00254 -0.0023869376
-0.020548927 0.00254 -0.00068781257
0.031035963 0.00014941176 -0.0023869376
0.024233561 0.00044823528 -0.00040462508
-0.021682659 0.00254 -0.0021037501
0.010061888 0.00254 -0.0021037501
0.029618796 -0.00254 -0.0012541875
-0.018848326 0.00014941176 -0.0063515627
0.026501028 -0.00014941176 0.0021440624
-0.0321697 -0.0010458824 -0.00040462508
-0.031319398 0.0022411766 -0.00040462508
-0.018281458 -0.00074705883 -0.0023869376
0.0009920171 -0.00014941176 0.0015776874
0.011195621 0.00014941176 -0.0040860623
-0.020548927 -0.0022411766 -0.0023869376
-0.0009920171 0.00014941176 -0.004935625
0.011195621 0.00074705883 -0.00040462508
0.018564891 -0.00074705883 -0.0023869376
-0.009778454 0.0022411766 -0.0023869376
0.030185664 0.00014941176 -0.0023869376
0.013463089 0.00014941176 -0.00012143757
-0.0089281537 0.00254 -0.00040462508
0.029335363 -0.00014941176 -0.0057851877
-0.0012754506 0.00014941176 -0.0089002503
-0.0086447205 -0.00014941176 0.00016174992
0.0086447205 -0.00254 -0.0021037501
0.019131759 -0.00014941176 -0.0069179377
0.017147724 0.00254 -0.00097100006
0.029618796 0.0022411766 -0.00012143757
-0.027351329 0.00014941176 -0.00012143757
0.031886265 0.0013447059 -0.00040462508
0.02253296 0.00254 -0.001537375
-0.0080778534 0.00254 -0.0018205625
-0.0009920171 0.00014941176 0.0015776874
0.025367295 -0.0016435294 -0.00040462508
-0.00070858363 0.00044823528 -0.00040462508
0.012329356 0.00074705883 -0.0023869376
0.0026926179 0.00044823528 -0.00040462508
0.03160283 -0.00014941176 -0.00436925
-0.0063772528 -0.00014941176 0.00072812493
-0.0060938196 -0.00014941176 -0.0089002503
-0.026784463 -0.001942353 -0.00012143757
0.02905193 0.00014941176 -0.004935625
0.02905193 0.0022411766 -0.0023869376
0.020265492 -0.0013447059 -0.00040462508
-0.018281458 0.0013447059 -0.0023869376
0.012329356 0.0022411766 -0.0023869376
0.033019997 0.00074705883 -0.00097100006
-0.0089281537 -0.00014941176 -0.0074843126
0.0038263518 0.00014941176 0.0015776874
0.016013991 0.00044823528 -0.00040462508
-0.011195621 -0.00014941176 -0.0026701251
-0.0094950208 -0.0013447059 -0.00040462508
-0.024516994 -0.00254 -0.00012143757
-0.0321697 0.0022411766 -0.0012541875
-0.023099827 -0.00254 -0.0018205625
-0.0026926179 0.0013447059 -0.0023869376
-0.0029760513 0.001942353 -0.00012143757
-0.023950128 0.00254 -0.00040462508
0.03075253 -0.00044823528 -0.0023869376
0.012045922 0.00044823528 -0.00040462508
-0.021399226 -0.00014941176 -0.0069179377
0.032453131 0.00014941176 -0.00012143757
-0.002125751 0.0013447059 -0.0023869376
-0.023950128 0.00014941176 -0.0066347499
0.023950128 -0.00014941176 0.0021440624
-0.016297424 0.00254 -0.0023869376
-0.021682659 -0.00254 -0.0012541875
-0.019698625 -0.00254 -0.001537375
-0.023666695 0.00254 -0.00012143757
0.0052435189 -0.001942353 -0.0023869376
0.018848326 -0.0013447059 -0.0023869376
0.028768497 0.00074705883 -0.0023869376
0.02905193 -0.0013447059 -0.0023869376
-0.028768497 -0.0013447059 -0.00040462508
-0.030469097 0.001942353 -0.0023869376
-0.032736566 0.00074705883 -0.0023869376
-0.015730558 0.00014941176 -0.00012143757
-0.0052435189 0.00254 -0.0023869376
0.012329356 -0.00254 -0.0012541875
0.011195621 -0.00014941176 0.0010113125
0.001558884 0.00014941176 -0.0046524378
0.011479056 0.00014941176 0.00072812493
0.031035963 0.00254 -0.00097100006
-0.0018423175 0.0010458824 -0.00040462508
0.024800427 -0.00254 -0.001537375
0.0089281537 -0.0016435294 -0.00040462508
0.021682659 0.00014941176 -0.0063515627
-0.017714592 0.0010458824 -0.0023869376
0.021399226 -0.00014941176 -0.0029533126
0.026784463 -0.00014941176 -0.00436925
-0.030185664 -0.00254 -0.0023869376
0.023950128 -0.00254 -0.0012541875
0.029618796 -0.0016435294 -0.0023869376
-0.0092115877 0.0016435294 -0.00040462508
0.013746523 -0.00014941176 -0.0069179377
0.002125751 -0.001942353 -0.00012143757
-0.012612789 -0.00074705883 -0.00040462508
0.023950128 -0.00254 -0.00068781257
0.0086447205 0.00014941176 -0.005502
-0.0046766521 0.0010458824 -0.0023869376
-0.001558884 -0.00254 -0.0018205625
-0.018281458 0.00254 -0.0021037501
0.023950128 0.00014941176 -0.0089002503
0.02083236 -0.00254 -0.001537375
0.013463089 -0.00014941176 -0.0023869376
-0.010345321 -0.0022411766 -0.0023869376
-0.0046766521 0.0016435294 -0.00040462508
0.0012754506 -0.00014941176 -0.0091834376
-0.00014171674 -0.00014941176 -0.00012143757
-0.0066606863 -0.00014941176 -0.006068375
0.016013991 0.0022411766 -0.00012143757
-0.0063772528 0.00044823528 -0.00040462508
-0.026784463 0.00014941176 -0.005502
0.016580857 -0.00014941176 -0.0074843126
0.017431159 0.00074705883 -0.0023869376
-0.033019997 -0.00074705883 -0.0018205625
0.01431339 0.0010458824 -0.0023869376
0.021115793 0.0013447059 -0.0023869376
-0.0072275531 -0.00014941176 -0.00012143757
0.001558884 0.00044823528 -0.00040462508
0.024233561 0.00254 -0.001537375
0.019698625 0.0013447059 -0.0023869376
0.00014171674 0.0010458824 -0.00040462508
-0.011479056 0.00254 -0.0021037501
-0.015730558 -0.00254 -0.0023869376
0.0046766521 -0.00254 -0.0021037501
-0.0066606863 -0.00074705883 -0.0023869376
-0.0009920171 0.00044823528 -0.00040462508
-0.0089281537 -0.00014941176 -0.0052188127
-0.0089281537 -0.0010458824 -0.0023869376
-0.024516994 0.00014941176 -0.00012143757
-0.030185664 0.0022411766 -0.00040462508
-0.025367295 0.0022411766 -0.00012143757
-0.002125751 0.001942353 -0.00012143757
0.018848326 0.00014941176 -0.0091834376
-0.03160283 -0.00254 -0.001537375
-0.03160283 0.00254 -0.0023869376
0.0069441199 0.0010458824 -0.0023869376
-0.0083612874 0.00254 -0.0018205625
0.0055269524 0.00014941176 -0.0023869376
0.021115793 -0.001942353 -0.00012143757
-0.02253296 -0.00014941176 -0.0023869376
0.030185664 0.00254 -0.001537375
-0.027067896 0.00014941176 -0.0023869376
0.018848326 -0.00014941176 -0.0038028751
0.021966094 0.00044823528 -0.0023869376
0.026217595 -0.0010458824 -0.0023869376
0.020548927 0.0016435294 -0.00040462508
-0.0089281537 0.00014941176 -0.0091834376
0.0052435189 -0.0022411766 -0.00012143757
0.021682659 -0.00014941176 0.0015776874
-0.0038263518 0.00014941176 -0.0038028751
-0.011195621 -0.00014941176 -0.004935625
0.021399226 -0.00254 -0.00097100006
-0.025367295 0.0013447059 -0.00040462508
-0.021399226 0.00254 -0.0012541875
-0.001558884 -0.00014941176 -0.00012143757
0.01686429 -0.00044823528 -0.0023869376
-0.031035963 -0.00254 -0.00040462508
0.018281458 0.00254 -0.00012143757
-0.032736566 -0.0022411766 -0.0018205625
-0.027634762 -0.00254 -0.0021037501
0.010061888 0.0022411766 -0.0023869376
0.019982059 -0.00254 -0.00040462508
-0.027351329 -0.00254 -0.0018205625
0.0060938196 -0.00014941176 -0.0086170621
0.0063772528 -0.00014941176 0.0012945
-0.0043932186 -0.00074705883 -0.0023869376
-0.029618796 -0.00254 -0.0018205625
-0.0052435189 -0.001942353 -0.0023869376
0.031886265 -0.00014941176 0.0010113125
0.0072275531 -0.0013447059 -0.00040462508
-0.015447124 0.0010458824 -0.0023869376
-0.016580857 0.00014941176 -0.0040860623
-0.019131759 0.00014941176 0.0027104374
-0.021682659 -0.00254 -0.00012143757
-0.0038263518 -0.00014941176 -0.006068375
-0.0069441199 -0.00254 -0.00040462508
-0.02905193 0.001942353 -0.0023869376
-0.0089281537 -0.00014941176 -0.0089002503
-0.021115793 -0.00254 -0.0021037501
0.024516994 -0.00014941176 -0.0023869376
-0.015447124 -0.00254 -0.00012143757
-0.011195621 -0.00014941176 0.00016174992
0.0009920171 -0.00014941176 -0.0083338749
-0.019131759 0.0013447059 -0.00040462508
0.011195621 -0.0016435294 -0.0023869376
-0.021966094 0.00254 -0.0023869376
-0.010345321 0.0016435294 -0.00040462508
-0.012612789 -0.0013447059 -0.0023869376
0.024800427 -0.00254 -0.00097100006
0.021966094 0.0010458824 -0.0023869376
-0.026501028 0.00014941176 -0.0029533126
-0.0063772528 0.00074705883 -0.0023869376
-0.0041097854 0.0016435294 -0.00040462508
0.0043932186 -0.00254 -0.00068781257
-0.00042515018 -0.0010458824 -0.0023869376
-0.0012754506 0.00014941176 -0.006068375
0.025367295 0.00074705883 -0.0023869376
-0.0060938196 -0.00014941176 0.0010113125
0.026501028 0.00014941176 -0.006068375
0.010345321 -0.00254 -0.0023869376
0.031319398 0.0016435294 -0.0023869376
0.009778454 -0.00044823528 -0.00040462508
0.0041097854 -0.0010458824 -0.00040462508
-0.022816394 -0.001942353 -0.0023869376
0.0066606863 0.00014941176 -0.0083338749
0.0089281537 0.00014941176 -0.0066347499
0.0043932186 0.00254 -0.00097100006
0.0035429182 -0.00014941176 -0.006068375
-0.026784463 -0.0022411766 -0.0023869376
0.0077944202 -0.00254 -0.0023869376
0.026501028 -0.00014941176 0.0029936249
0.0089281537 0.0010458824 -0.00040462508
0.027351329 0.0010458824 -0.00040462508
0.023666695 -0.00254 -0.001537375
-0.019982059 -0.00254 -0.0018205625
0.018281458 -0.00044823528 -0.0023869376
0.01686429 0.0016435294 -0.00040462508
-0.0041097854 -0.00014941176 -0.0032365001
-0.0075109866 -0.0013447059 -0.00040462508
-0.0072275531 0.00074705883 -0.0023869376
-0.029335363 -0.00014941176 0.0029936249
-0.0069441199 0.00254 -0.0012541875
-0.01686429 0.00254 -0.00040462508
0.021115793 -0.00254 -0.0023869376
0.018281458 -0.0010458824 -0.00040462508
-0.019698625 0.001942353 -0.0023869376
-0.011762489 0.00044823528 -0.00040462508
0.015447124 0.00254 -0.0012541875
0.0060938196 -0.0016435294 -0.0023869376
0.014029956 0.00044823528 -0.00040462508
0.021966094 0.00254 -0.00040462508
-0.024233561 0.00014941176 -0.0038028751
-0.00042515018 0.0022411766 -0.00012143757
-0.027067896 -0.0010458824 -0.00040462508
0.025367295 0.00074705883 -0.00040462508
0.02905193 -0.00014941176 -0.0069179377
-0.023950128 -0.00014941176 0.0027104374
0.011195621 -0.00254 -0.0021037501
0.025367295 0.00014941176 -0.00012143757
-0.019982059 0.00044823528 -0.00040462508
0.025083862 0.0022411766 -0.0023869376
0.02905193 0.00014941176 -0.0026701251
0.0049600857 0.00254 -0.0018205625
-0.010912188 0.0016435294 -0.0023869376
-0.027067896 -0.00254 -0.00012143757
0.021399226 0.00014941176 0.00016174992
-0.015730558 -0.0016435294 -0.00040462508
0.02083236 -0.00014941176 -0.0023869376
-0.029335363 0.0016435294 -0.00040462508
0.022816394 -0.00014941176 -0.0023869376
0.024233561 0.0010458824 -0.00040462508
0.019131759 -0.00014941176 0.0027104374
0.021682659 -0.00014941176 -0.0057851877
-0.013179656 -0.001942353 -0.00012143757
0.023666695 0.001942353 -0.00040462508
0.011195621 0.00014941176 -0.0083338749
-0.0046766521 -0.00044823528 -0.00040462508
0.0009920171 0.0013447059 -0.00040462508
-0.019982059 -0.00254 -0.00068781257
-0.032453131 0.0016435294 -0.00040462508
0.021682659 -0.00254 -0.00012143757
-0.027351329 0.00254 -0.00068781257
0.013179656 0.00254 -0.00068781257
-0.029902231 0.00254 -0.00040462508
0.02905193 -0.00014941176 0.0021440624
-0.019415192 0.00254 -0.00040462508
0.0055269524 -0.00254 -0.0021037501
0.00014171674 0.00254 -0.001537375
-0.011479056 -0.00014941176 -0.0040860623
0.0055269524 -0.00074705883 -0.00040462508
0.011479056 0.00014941176 0.0018608749
0.014880257 0.00254 -0.00012143757
-0.02905193 0.00254 -0.0018205625
0.0026926179 -0.0010458824 -0.0023869376
0.014880257 0.00254 -0.00068781257
0.017431159 -0.00254 -0.00097100006
-0.0092115877 -0.001942353 -0.0023869376
0.018281458 -0.0013447059 -0.0023869376
0.027351329 0.0016435294 -0.00040462508
-0.025934162 0.0010458824 -0.0023869376
-0.021966094 -0.00254 -0.0012541875
-0.025934162 0.00254 -0.001537375
-0.0041097854 -0.00014941176 -0.0074843126
-0.010345321 -0.00014941176 -0.00012143757
0.024233561 -0.00014941176 -0.0035196876
0.028485063 0.0016435294 -0.0023869376
-0.023666695 0.00254 -0.0012541875
-0.020548927 -0.00254 -0.0018205625
-0.02905193 0.00014941176 -0.0038028751
-0.019131759 -0.00014941176 0.0027104374
-0.0063772528 -0.00014941176 -0.0057851877
0.010628755 -0.00014941176 -0.00012143757
-0.0066606863 0.00014941176 -0.0023869376
0.019415192 0.0013447059 -0.00040462508
0.0072275531 -0.001942353 -0.00012143757
0.0035429182 -0.00044823528 -0.0023869376
0.011479056 0.0013447059 -0.00040462508
0.014596824 -0.00014941176 -0.0023869376
0.025367295 -0.001942353 -0.0023869376
0.0066606863 -0.00254 -0.00040462508
0.031886265 0.0016435294 -0.00040462508
-0.0009920171 -0.00014941176 -0.0046524378
-0.021399226 0.00014941176 0.0029936249
0.018564891 0.00044823528 -0.0023869376
-0.020265492 0.00254 -0.001537375
-0.016297424 -0.00014941176 -0.0052188127
-0.012612789 0.0022411766 -0.0023869376
0.022816394 -0.00254 -0.0018205625
-0.021115793 0.00254 -0.0021037501
-0.0009920171 -0.0022411766 -0.00012143757
0.018281458 0.00044823528 -0.0023869376
-0.014596824 -0.0016435294 -0.00040462508
0.016297424 -0.00014941176 0.0024272499
-0.010345321 -0.00074705883 -0.00040462508
0.0038263518 0.00254 -0.0021037501
-0.017147724 -0.00254 -0.001537375
-0.016297424 -0.001942353 -0.00012143757
-0.010345321 0.00254 -0.00097100006
0.00042515018 -0.00254 -0.0021037501
-0.013179656 0.00254 -0.001537375
-0.0035429182 0.00014941176 0.0018608749
0.03075253 -0.0013447059 -0.00040462508
-0.022249527 -0.0013447059 -0.00040462508
-0.018848326 -0.00014941176 -0.005502
-0.018281458 -0.001942353 -0.0023869376
-0.026501028 0.00044823528 -0.0023869376
-0.024233561 -0.00254 -0.00040462508
0.022249527 -0.0016435294 -0.0023869376
-0.016297424 0.00014941176 -0.0069179377
-0.021399226 -0.00014941176 -0.0083338749
-0.021682659 -0.00014941176 -0.0035196876
0.03160283 0.00254 -0.00068781257
0.013746523 0.00014941176 -0.00436925
-0.03160283 -0.0022411766 -0.00040462508
-0.0026926179 -0.00254 -0.00068781257
-0.019131759 -0.00074705883 -0.0023869376
0.017147724 0.0010458824 -0.0023869376
0.00070858363 0.0010458824 -0.0023869376
0.001558884 0.00014941176 -0.0074843126
0.002125751 -0.001942353 -0.0023869376
0.021682659 0.00014941176 -0.0089002503
0.0026926179 -0.00254 -0.00068781257
0.00014171674 -0.00254 -0.0023869376
0.0060938196 -0.00014941176 -0.0066347499
-0.0035429182 -0.0016435294 -0.00040462508
0.001558884 -0.00014941176 0.00072812493
0.0046766521 -0.0016435294 -0.0023869376
0.028768497 -0.001942353 -0.00040462508
0.017147724 -0.00014941176 -0.0023869376
-0.00014171674 0.0016435294 -0.00040462508
0.021682659 0.00254 -0.0021037501
0.032736566 0.0022411766 -0.00012143757
0.0060938196 -0.00014941176 -0.006068375
0.010345321 0.0013447059 -0.0023869376
-0.012329356 -0.0013447059 -0.00040462508
-0.019982059 0.00074705883 -0.0023869376
-0.03075253 0.0013447059 -0.00040462508
0.025083862 -0.0016435294 -0.00040462508
0.033019997 0.0013447059 -0.00097100006
0.019131759 0.00014941176 -0.0038028751
0.028485063 -0.0016435294 -0.00040462508
0.0060938196 0.00014941176 0.0018608749
0.00070858363 -0.00254 -0.00040462508
-0.025934162 0.0022411766 -0.0023869376
0.02083236 -0.0016435294 -0.00040462508
0.0038263518 0.00014941176 -0.0086170621
-0.026217595 -0.00014941176 -0.00012143757
-0.017714592 -0.0022411766 -0.00012143757
-0.016297424 -0.00014941176 0.0018608749
0.022816394 0.00254 -0.00040462508
-0.011479056 0.00014941176 -0.0032365001
0.027634762 -0.00014941176 -0.00012143757
0.00042515018 0.00254 -0.0023869376
-0.0012754506 -0.00014941176 0.0015776874
0.024233561 -0.0016435294 -0.0023869376
0.011195621 0.0010458824 -0.0023869376
-0.033019997 -0.0016435294 -0.001537375
-0.011479056 0.00014941176 -0.0038028751
0.017147724 -0.00254 -0.00068781257
0.032736566 -0.0013447059 -0.0021037501
0.020548927 0.00074705883 -0.0023869376
-0.027634762 -0.00014941176 -0.00012143757
-0.016297424 0.00014941176 -0.0052188127
0.017147724 -0.00044823528 -0.00040462508
0.01516369 -0.0022411766 -0.00012143757
0.024233561 -0.00014941176 0.0018608749
0.011479056 -0.0013447059 -0.0023869376
0.027351329 0.00254 -0.0018205625
-0.029335363 -0.0013447059 -0.0023869376
0.029335363 -0.00254 -0.0012541875
-0.017431159 -0.0013447059 -0.00040462508
-0.0009920171 0.00014941176 -0.0089002503
-0.001558884 -0.00014941176 -0.0040860623
-0.021682659 -0.00014941176 0.0015776874
0.021682659 0.0022411766 -0.00040462508
0.0049600857 0.00014941176 -0.0023869376
0.011762489 0.001942353 -0.0023869376
-0.0018423175 -0.0010458824 -0.0023869376
0.0089281537 -0.00014941176 0.00072812493
0.001558884 0.00014941176 -0.0040860623
0.026501028 -0.00014941176 -0.0083338749
-0.00014171674 0.0022411766 -0.0023869376
0.011479056 0.001942353 -0.0023869376
0.012896222 0.00254 -0.00068781257
-0.010061888 0.0013447059 -0.00040462508
-0.029335363 -0.00254 -0.001537375
-0.026501028 0.00254 -0.0023869376
-0.0035429182 -0.0022411766 -0.0023869376
-0.019982059 0.00254 -0.00012143757
0.02905193 -0.00014941176 0.0027104374
-0.0089281537 0.00254 -0.00068781257
0.024516994 0.0013447059 -0.0023869376
-0.01516369 0.00044823528 -0.00040462508
-0.031886265 0.00014941176 -0.0035196876
0.027918195 0.0016435294 -0.0023869376
0.020265492 -0.0022411766 -0.00012143757
0.016580857 0.00254 -0.0018205625
-0.031886265 0.00014941176 0.0018608749
-0.012612789 -0.00254 -0.0012541875
0.032736566 0.0022411766 -0.001537375
-0.0089281537 0.00014941176 0.0021440624
0.024800427 0.00254 -0.0023869376
-0.0012754506 0.00074705883 -0.0023869376
-0.03160283 0.00074705883 -0.0023869376
0.024233561 0.00014941176 -0.0052188127
0.030185664 0.00254 -0.0023869376
0.01431339 -0.00254 -0.00097100006
-0.001558884 0.00014941176 -0.00012143757
0.0089281537 -0.00014941176 -0.0063515627
-0.019131759 0.00014941176 -0.0026701251
-0.025934162 0.001942353 -0.0023869376
-0.032453131 -0.00074705883 -0.00040462508
0.002125751 -0.0010458824 -0.0023869376
-0.0041097854 0.001942353 -0.00012143757
-0.027634762 -0.00254 -0.0023869376
0.021682659 0.00074705883 -0.0023869376
-0.0012754506 -0.0013447059 -0.0023869376
-0.019982059 0.00014941176 -0.00012143757
-0.023099827 0.00254 -0.0021037501
0.024233561 -0.00044823528 -0.0023869376
0.0043932186 -0.00014941176 -0.0023869376
0.018281458 0.00254 -0.00068781257
-0.031035963 0.00254 -0.00068781257
-0.015447124 -0.0013447059 -0.00040462508
-0.00070858363 0.00254 -0.0023869376
0.013746523 -0.00254 -0.0018205625
-0.02338326 -0.0022411766 -0.00012143757
0.019415192 0.00074705883 -0.00040462508
-0.033019997 -0.0016435294 -0.00097100006
0.03075253 0.00254 -0.0018205625
-0.0089281537 0.0013447059 -0.00040462508
0.0089281537 -0.00014941176 -0.0094666248
-0.0063772528 0.00014941176 -0.006068375
-0.023099827 0.00254 -0.0023869376
-0.012896222 0.00044823528 -0.0023869376
0.025083862 0.00254 -0.0023869376
0.016580857 0.00014941176 -0.0032365001
0.0012754506 -0.00014941176 -0.0083338749
-0.0086447205 -0.00254 -0.00097100006
0.032736566 -0.00014941176 -0.0023869376
-0.03160283 -0.00074705883 -0.0023869376
-0.021682659 0.00014941176 -0.0069179377
-0.016297424 -0.00254 -0.0021037501
0.0009920171 -0.00014941176 -0.004935625
-0.0043932186 0.00254 -0.00097100006
-0.028485063 -0.00254 -0.0021037501
-0.0075109866 -0.0010458824 -0.00040462508
0.018848326 -0.00014941176 -0.0091834376
-0.016580857 0.00014941176 -0.0032365001
-0.029335363 0.00014941176 -0.0077674999
-0.03160283 -0.00044823528 -0.0023869376
-0.013179656 0.001942353 -0.0023869376
0.012612789 0.0013447059 -0.00040462508
0.016297424 -0.00014941176 -0.00012143757
-0.017714592 0.0010458824 -0.00040462508
-0.02253296 -0.00044823528 -0.0023869376
0.027918195 0.00254 -0.0012541875
0.0038263518 -0.001942353 -0.0023869376
-0.010628755 0.00254 -0.00040462508
0.0035429182 0.0010458824 -0.00040462508
0.012612789 -0.00074705883 -0.00040462508
0.010345321 -0.00254 -0.00012143757
0.0094950208 -0.0022411766 -0.00012143757
0.016580857 -0.00254 -0.0018205625
-0.0026926179 -0.001942353 -0.0023869376
-0.02905193 -0.00254 -0.00012143757
-0.023950128 0.00254 -0.0012541875
0.02083236 0.0013447059 -0.0023869376
-0.024516994 0.00254 -0.0023869376
0.028768497 -0.00074705883 -0.00040462508
-0.025083862 0.00254 -0.0021037501
0.03160283 -0.0013447059 -0.0023869376
-0.001558884 -0.0010458824 -0.0023869376
-0.011195621 -0.0013447059 -0.0023869376
-0.025083862 0.00014941176 -0.0023869376
0.026784463 -0.00014941176 0.0029936249
0.010061888 -0.00254 -0.001537375
0.021966094 0.00254 -0.00097100006
-0.0063772528 -0.00254 -0.00097100006
0.025083862 -0.00254 -0.00097100006
0.02905193 -0.00014941176 0.00072812493
0.02905193 0.0010458824 -0.0023869376
-0.01431339 -0.00254 -0.00040462508
0.03160283 0.00014941176 -0.0026701251
-0.02905193 0.00014941176 -0.0066347499
0.033019997 -0.00044823528 -0.00097100006
0.0072275531 -0.0016435294 -0.0023869376
0.0009920171 0.00014941176 -0.0032365001
0.021115793 0.00074705883 -0.00040462508
-0.0060938196 0.0022411766 -0.0023869376
-0.028768497 0.00254 -0.00068781257
0.0075109866 0.00074705883 -0.00040462508
-0.018848326 0.00014941176 0.0027104374
-0.024233561 -0.00014941176 -0.0035196876
0.018848326 0.0010458824 -0.00040462508
0.015447124 0.00044823528 -0.00040462508
0.030469097 -0.00254 -0.00040462508
-0.016580857 0.00014941176 -0.0038028751
-0.0009920171 0.001942353 -0.0023869376
0.031319398 0.0022411766 -0.00012143757
0.0066606863 0.0013447059 -0.00040462508
-0.021682659 -0.0010458824 -0.00040462508
0.018281458 -0.00074705883 -0.0023869376
-0.012896222 -0.0013447059 -0.00040462508
0.0094950208 0.00254 -0.00040462508
-0.011479056 -0.00014941176 -0.005502
0.021682659 -0.00014941176 -0.00012143757
0.002125751 -0.00074705883 -0.00040462508
-0.0055269524 0.00074705883 -0.00040462508
0.023950128 0.00014941176 -0.0040860623
-0.015730558 -0.00044823528 -0.00040462508
0.018848326 -0.00254 -0.0023869376
0.016580857 -0.00014941176 -0.0057851877
0.009778454 0.00254 -0.001537375
-0.0041097854 0.0010458824 -0.00040462508
-0.0063772528 -0.00014941176 -0.0072011249
0.0086447205 -0.00014941176 0.0018608749
0.020265492 0.001942353 -0.0023869376
-0.023950128 0.0022411766 -0.0023869376
0.021682659 -0.00014941176 -0.0032365001
0.0035429182 0.00014941176 -0.0026701251
0.005810386 -0.00254 -0.001537375
0.02083236 -0.00254 -0.00068781257
0.0012754506 -0.00014941176 -0.0029533126
0.027067896 -0.0013447059 -0.00040462508
0.021682659 0.00014941176 -0.00012143757
-0.0043932186 -0.00254 -0.0021037501
-0.03075253 -0.00074705883 -0.00040462508
-0.0077944202 0.00254 -0.00040462508
0.021682659 -0.00014941176 -0.0046524378
-0.016580857 -0.00254 -0.0021037501
-0.010061888 0.0013447059 -0.0023869376
0.016297424 -0.00014941176 -0.0089002503
0.020265492 0.00074705883 -0.00040462508
-0.013746523 -0.00014941176 0.0027104374
-0.028485063 0.00014941176 -0.0023869376
-0.014596824 0.00044823528 -0.0023869376
-0.031886265 0.00014941176 -0.0038028751
0.018848326 -0.00014941176 -0.0094666248
-0.023666695 0.0022411766 -0.00040462508
-0.019415192 0.0013447059 -0.0023869376
0.0009920171 -0.00254 -0.0012541875
-0.013746523 0.00254 -0.0023869376
0.011479056 0.00254 -0.00097100006
-0.023950128 -0.00014941176 -0.0046524378
0.026217595 -0.0022411766 -0.00040462508
0.0063772528 -0.00044823528 -0.0026701251
-0.0086447205 -0.00014941176 -0.0029533126
-0.023950128 -0.00014941176 -0.0026701251
-0.024233561 -0.00014941176 0.0015776874
0.020265492 -0.00014941176 -0.00012143757
-0.0035429182 -0.00014941176 -0.0035196876
-0.028768497 -0.0016435294 -0.00040462508
-0.0009920171 0.00254 -0.00068781257
0.027067896 -0.00074705883 -0.00040462508
0.02083236 -0.00254 -0.00097100006
0.029335363 -0.00014941176 0.00044493741
0.017714592 -0.0013447059 -0.00040462508
-0.024800427 -0.00254 -0.0012541875
0.0066606863 0.001942353 -0.00012143757
-0.012896222 -0.0016435294 -0.0023869376
0.0052435189 -0.0013447059 -0.0023869376
-0.0035429182 -0.00014941176 -0.0029533126
-0.0060938196 -0.0013447059 -0.00040462508
0.0063772528 0.00254 -0.0021037501
0.0060938196 -0.00074705883 -0.00040462508
0.0041097854 0.0010458824 -0.00040462508
-0.0052435189 -0.00254 -0.0018205625
-0.0049600857 0.0016435294 -0.0023869376
0.014880257 -0.00254 -0.00097100006
-0.0080778534 0.00254 -0.00040462508
0.031886265 -0.0022411766 -0.0012541875
0.0063772528 -0.0022411766 -0.00012143757
0.029618796 -0.00254 -0.00040462508
-0.0043932186 -0.00254 -0.0012541875
0.03160283 0.00014941176 -0.0074843126
-0.0094950208 0.0022411766 -0.0023869376
0.026501028 0.001942353 -0.00040462508
-0.017714592 -0.00254 -0.00012143757
-0.00070858363 0.00254 -0.0012541875
0.0035429182 -0.00014941176 0.00016174992
0.02905193 0.00014941176 -0.0029533126
0.0089281537 -0.00014941176 0.0012945
0.014029956 -0.00014941176 -0.0083338749
-0.010345321 0.001942353 -0.0023869376
-0.014029956 0.0022411766 -0.00012143757
-0.0012754506 0.00014941176 -0.0046524378
0.012045922 -0.00254 -0.00068781257
-0.019131759 -0.00254 -0.00040462508
0.010912188 0.00044823528 -0.0023869376
0.03075253 0.0013447059 -0.0023869376
-0.014880257 -0.00254 -0.001537375
-0.012045922 0.00254 -0.00068781257
0.03160283 -0.00014941176 -0.0026701251
-0.0012754506 0.00014941176 -0.0040860623
-0.028485063 -0.001942353 -0.00012143757
0.023099827 -0.00044823528 -0.0023869376
-0.027067896 -0.00254 -0.00040462508
0.0052435189 -0.00254 -0.00040462508
-0.0080778534 -0.00254 -0.0023869376
-0.019131759 0.00074705883 -0.0023869376
-0.024800427 0.00014941176 -0.0023869376
0.023099827 -0.00254 -0.00068781257
-0.0069441199 0.00074705883 -0.00040462508
0.021399226 -0.00014941176 0.0012945
-0.0035429182 0.00014941176 -0.0032365001
-0.031886265 -0.00014941176 -0.0063515627
0.0092115877 -0.00254 -0.00068781257
0.027351329 -0.001942353 -0.0023869376
-0.011195621 0.00254 -0.001537375
0.025083862 0.00074705883 -0.00040462508
0.019982059 -0.00074705883 -0.00040462508
-0.021966094 0.0022411766 -0.0023869376
-0.024233561 -0.00014941176 -0.0032365001
-0.0075109866 -0.00254 -0.00040462508
-0.011762489 -0.001942353 -0.0023869376
-0.0077944202 -0.0022411766 -0.00012143757
-0.0049600857 0.0013447059 -0.0023869376
-0.026784463 0.00014941176 0.0015776874
0.025650728 0.0016435294 -0.00040462508
-0.025367295 0.00044823528 -0.00040462508
0.029618796 -0.00254 -0.0018205625
0.026217595 0.00254 -0.00068781257
0.0080778534 -0.00254 -0.00068781257
-0.0086447205 0.00074705883 -0.00040462508
-0.033019997 -0.00074705883 -0.00040462508
-0.0086447205 -0.0013447059 -0.0023869376
0.013746523 -0.0016435294 -0.0023869376
0.023950128 -0.00254 -0.00012143757
0.018848326 -0.00014941176 0.0015776874
-0.010345321 0.0022411766 -0.0023869376
-0.020265492 -0.0010458824 -0.00040462508
0.013179656 -0.00254 -0.00068781257
0.0035429182 0.00014941176 0.0015776874
-0.0089281537 0.00044823528 -0.0026701251
-0.0035429182 0.00014941176 -0.0089002503
-0.0089281537 -0.0022411766 -0.0023869376
0.00042515018 -0.00254 -0.0023869376
0.022816394 -0.00254 -0.0023869376
0.0066606863 0.00254 -0.00068781257
0.023950128 -0.00254 -0.00097100006
-0.032453131 -0.00254 -0.00097100006
-0.011479056 -0.00014941176 -0.0089002503
-0.030469097 0.00254 -0.00097100006
-0.0052435189 0.00254 -0.0021037501
-0.0041097854 -0.00014941176 0.0027104374
-0.031319398 -0.00074705883 -0.0023869376
0.03075253 0.00254 -0.0023869376
-0.026784463 -0.00014941176 -0.00012143757
-0.021966094 0.00044823528 -0.0023869376
-0.025934162 0.00254 -0.0023869376
0.025934162 0.00254 -0.00068781257
0.033019997 -0.00074705883 -0.001537375
-0.022249527 0.0022411766 -0.00012143757
-0.023950128 -0.00254 -0.0021037501
0.021966094 0.00074705883 -0.0023869376
-0.010345321 -0.00254 -0.0018205625
-0.0063772528 -0.00014941176 -0.00012143757
-0.0075109866 0.00254 -0.00068781257
0.010061888 0.0013447059 -0.0023869376
0.015730558 -0.00254 -0.0023869376
0.030185664 0.0022411766 -0.0023869376
0.0046766521 -0.0013447059 -0.0023869376
-0.016297424 -0.00014941176 -0.00012143757
0.028485063 -0.0022411766 -0.00040462508
0.013179656 -0.00044823528 -0.00040462508
0.0024091844 0.00254 -0.0021037501
0.015730558 0.00254 -0.00040462508
0.0012754506 -0.001942353 -0.00012143757
-0.019415192 0.00254 -0.00068781257
0.0029760513 -0.0016435294 -0.00040462508
-0.02820163 -0.00254 -0.00040462508
0.029335363 -0.00014941176 -0.0091834376
0.011195621 -0.0013447059 -0.00040462508
0.02905193 0.00074705883 -0.00040462508
-0.028768497 0.00254 -0.0023869376
0.021399226 0.00014941176 0.0024272499
-0.0086447205 -0.00014941176 -0.0083338749
0.021682659 -0.00014941176 -0.0083338749
0.00070858363 -0.0010458824 -0.00040462508
0.00070858363 0.00014941176 -0.00012143757
0.0052435189 0.0022411766 -0.00012143757
-0.02338326 0.00254 -0.00097100006
-0.023666695 0.00014941176 -0.0023869376
0.026501028 -0.00014941176 0.0012945
0.0009920171 0.00254 -0.0023869376
0.024233561 -0.00014941176 -0.0032365001
-0.031035963 0.00014941176 -0.0023869376
0.00070858363 -0.00254 -0.00097100006
0.031319398 0.0010458824 -0.0023869376
0.016580857 0.00014941176 -0.0083338749
0.002125751 -0.0010458824 -0.00040462508
0.0041097854 0.0013447059 -0.00040462508
0.014029956 -0.00014941176 0.00016174992
-0.0018423175 -0.0013447059 -0.00040462508
0.015730558 -0.00254 -0.00040462508
0.011195621 -0.00044823528 -0.0023869376
-0.02905193 -0.00044823528 -0.00040462508
-0.023099827 0.0013447059 -0.00040462508
0.024516994 0.00014941176 -0.00012143757
-0.018848326 -0.00014941176 -0.0057851877
-0.027918195 -0.0022411766 -0.0023869376
0.017714592 0.0010458824 -0.00040462508
-0.02253296 -0.00074705883 -0.00040462508
0.0321697 0.0022411766 -0.001537375
-0.0041097854 -0.00044823528 -0.0023869376
0.011479056 -0.00014941176 -0.0080506876
0.00070858363 -0.00254 -0.0018205625
-0.0032594849 -0.00254 -0.00068781257
-0.010061888 0.001942353 -0.0023869376
-0.01516369 0.001942353 -0.0023869376
-0.033019997 0.0010458824 -0.0021037501
-0.03160283 0.00044823528 -0.00040462508
0.02905193 -0.00014941176 -0.0063515627
0.021966094 0.00254 -0.0012541875
-0.0092115877 -0.00254 -0.00012143757
-0.032736566 -0.0022411766 -0.001537375
0.012045922 -0.0022411766 -0.00012143757
-0.0038263518 0.00014941176 0.00044493741
-0.021966094 0.0016435294 -0.0023869376
-0.011195621 0.00254 -0.0012541875
-0.02905193 -0.00014941176 -0.0083338749
-0.0086447205 0.00014941176 -0.0032365001
0.0086447205 -0.0013447059 -0.00040462508
-0.0072275531 -0.00254 -0.001537375
-0.015730558 -0.0010458824 -0.0023869376
0.0038263518 -0.00044823528 -0.00040462508
0.027918195 -0.00254 -0.001537375
0.031035963 0.0022411766 -0.0023869376
0.013179656 0.0010458824 -0.00040462508
0.0012754506 -0.00014941176 0.0029936249
0.019982059 0.0010458824 -0.00040462508
0.029902231 -0.00254 -0.00040462508
-0.025083862 0.00044823528 -0.0023869376
-0.029335363 0.0010458824 -0.0023869376
0.033019997 -0.00044823528 -0.0012541875
-0.0060938196 -0.00014941176 -0.0052188127
-0.019982059 0.0016435294 -0.0023869376
0.0089281537 -0.00014941176 -0.0077674999
0.017147724 0.00254 -0.0012541875
0.02820163 0.001942353 -0.0023869376
-0.029335363 0.00254 -0.0023869376
-0.026784463 -0.00014941176 0.0021440624
0.0086447205 0.00014941176 0.0027104374
0.001558884 -0.00254 -0.0012541875
-0.012045922 -0.0013447059 -0.0023869376
0.0077944202 0.0010458824 -0.0023869376
0.001558884 -0.0013447059 -0.00040462508
-0.027918195 0.0013447059 -0.00040462508
-0.024800427 -0.00254 -0.00012143757
-0.014029956 0.0013447059 -0.00040462508
-0.0012754506 -0.00014941176 -0.0083338749
0.0086447205 0.00014941176 0.0024272499
-0.01431339 -0.00014941176 -0.00012143757
0.010061888 -0.00044823528 -0.00040462508
0.010345321 -0.00074705883 -0.0023869376
0.0009920171 0.00254 -0.00097100006
0.01686429 -0.0016435294 -0.0023869376
0.016297424 -0.00014941176 -0.0091834376
-0.027918195 -0.00254 -0.00068781257
-0.02083236 0.0010458824 -0.00040462508
-0.016013991 0.0016435294 -0.00040462508
0.0089281537 0.00014941176 -0.005502
-0.026784463 -0.00014941176 0.00016174992
-0.029335363 -0.00014941176 -0.0063515627
-0.033019997 -0.001942353 -0.00097100006
-0.031319398 -0.00254 -0.00068781257
-0.017147724 0.00254 -0.00097100006
0.023950128 -0.00044823528 -0.00040462508
-0.011479056 -0.00044823528 -0.00040462508
-0.018848326 0.0010458824 -0.0023869376
-0.025934162 -0.00254 -0.0021037501
0.01516369 -0.00254 -0.0023869376
0.031035963 0.00254 -0.0023869376
-0.016580857 -0.00014941176 -0.0091834376
0.0094950208 0.0022411766 -0.0023869376
-0.0038263518 -0.00254 -0.001537375
-0.030185664 0.00254 -0.0023869376
-0.032736566 0.0022411766 -0.0012541875
0.0066606863 0.00014941176 -0.0074843126
-0.0038263518 -0.00014941176 -0.0040860623
0.0321697 -0.0022411766 -0.00097100006
-0.014596824 -0.0013447059 -0.00040462508
0.02905193 -0.001942353 -0.00040462508
-0.0089281537 0.001942353 -0.00012143757
0.016580857 -0.001942353 -0.00012143757
-0.002125751 0.0010458824 -0.00040462508
0.019415192 0.00254 -0.0018205625
-0.026217595 -0.0016435294 -0.00040462508
-0.028485063 -0.0022411766 -0.00012143757
0.026784463 -0.00254 -0.00068781257
0.005810386 -0.0016435294 -0.0023869376
-0.02905193 -0.00014941176 -0.0032365001
-0.0077944202 0.0022411766 -0.00012143757
-0.0060938196 -0.00014941176 0.0027104374
0.024800427 0.00014941176 -0.00012143757
0.030469097 0.00044823528 -0.00040462508
-0.0046766521 0.00254 -0.0023869376
0.013463089 -0.0022411766 -0.00012143757
-0.016580857 -0.0022411766 -0.0023869376
0.026217595 0.0010458824 -0.0023869376
-0.030185664 -0.00074705883 -0.0023869376
0.0009920171 -0.00014941176 -0.0072011249
-0.0038263518 -0.0013447059 -0.0023869376
0.013746523 -0.00014941176 0.0021440624
0.018848326 -0.00014941176 -0.0057851877
0.018564891 -0.0010458824 -0.0023869376
-0.021399226 -0.00254 -0.0018205625
0.0046766521 0.00254 -0.00068781257
-0.018564891 -0.0013447059 -0.00040462508
0.014029956 0.0016435294 -0.0023869376
