# .PCD v0.7 - Point Cloud Data file format
VERSION 0.7
FIELDS x y z
SIZE 4 4 4
TYPE F F F
COUNT 1 1 1
WIDTH 1196
HEIGHT 1
VIEWPOINT 0 0 0 1 0 0 0
POINTS 1196
DATA ascii
0.026923999 -0.0025150001 -0.0046796552
-0.029633332 -0.0017964287 -0.0063882759
-0.00050799997 -0.0025150001 -0.0036544828
-0.042502664 0.00071857148 -0.0063882759
-0.010329333 0.0025150001 -0.0050213793
0.015748 0.00071857148 -0.0063882759
-0.025230665 -0.0025150001 -0.0060465517
0.034713332 -0.0025150001 -0.0012624137
0.015409333 0.0025150001 -0.0060465517
0.0062653329 0.0010778572 0.0024965517
0.0082973326 -0.0010778572 -0.00057896547
-0.04284133 0.001437143 -0.0012624137
-0.023537332 -0.0017964287 -0.0063882759
-0.0062653329 0.0010778572 0.00078793109
0.040470663 0.0025150001 -0.0039962069
0.029294666 -0.001437143 0.0011296553
-0.014054666 -0.001437143 -0.0063882759
0.04284133 0.0017964287 -0.0026293104
-0.023875998 -0.0025150001 -0.001945862
-0.017441332 0.00071857148 -0.0063882759
0.018118666 0.0025150001 -0.00092068961
0.042163998 0.0025150001 -0.001945862
0.038777333 0.0025150001 -0.0026293104
-0.035390664 -0.0025150001 -0.0063882759
0.021166665 0.0025150001 -0.0012624137
-0.010329333 -0.0021557144 -0.0063882759
0.039454665 0.0025150001 -0.0050213793
0.018457333 0.0025150001 -0.00057896547
0.021505332 -0.0025150001 -0.0026293104
-0.029633332 0.0017964287 -0.00023724131
-0.028955998 -0.0025150001 -0.0053631035
0.016425332 -0.0010778572 0.0014713794
0.011684 0.001437143 0.0021548276
0.020489333 0.0025150001 -0.0029710345
-0.0093133328 0.00071857148 -0.00057896547
-0.031665333 0.0025150001 -0.00057896547
-0.027601331 0.0025150001 -0.00023724131
-0.0127 0.001437143 -0.00023724131
0.018457333 -0.0010778572 -0.00057896547
-0.017441332 0.0025150001 -0.0050213793
-0.032003999 0.0025150001 -0.0057048276
0.029294666 0.00071857148 -0.0063882759
0.032681331 0.0025150001 -0.0029710345
-0.040131997 0.0021557144 -0.00057896547
-0.040131997 0.0025150001 -0.0063882759
0.041825332 -0.0017964287 -0.00057896547
0.021166665 -0.0010778572 -0.0063882759
-0.026923999 0.0021557144 -0.00023724131
0.025230665 -0.0025150001 -0.0033127586
0.030987998 -0.0010778572 -0.00023724131
-0.016086666 0 -0.0063882759
-0.018795999 -0.0025150001 -0.0050213793
0.025569333 0.0010778572 -0.0063882759
-0.024553332 0.0021557144 -0.0063882759
0.033019997 -0.0010778572 -0.0063882759
0.0052493331 -0.00035928574 -0.00057896547
0.041825332 0.0025150001 -0.00057896547
0.042502664 -0.00071857148 -0.0063882759
-0.039793331 -0.00035928574 -0.0046796552
0.0018626666 0.001437143 -0.0063882759
-0.0022013332 0.0025150001 -0.0033127586
-0.023198666 0.00035928574 -0.00057896547
0.010667999 -0.0025150001 -0.0063882759
-0.0062653329 0.0025150001 -0.0022875862
0.037761331 -0.001437143 -0.0063882759
0.032342665 -0.0025150001 -0.0029710345
0.038777333 0.0025150001 -0.0039962069
-0.034035999 0.00035928574 -0.0063882759
0.0035559998 0.0025150001 -0.0022875862
0.04284133 0.0021557144 -0.0057048276
0.011006666 -0.0025150001 -0.0046796552
-0.018795999 -0.0025150001 -0.0026293104
0.024214666 -0.001437143 0.0018131036
-0.041147999 0.0025150001 -0.00023724131
0.0096519999 0.0025150001 -0.0033127586
-0.028278666 -0.0025150001 -0.0033127586
0.026923999 -0.0021557144 -0.00023724131
-0.0082973326 0.0025150001 -0.0057048276
0.017102666 -0.00071857148 -0.0063882759
-0.0032173332 -0.0025150001 -0.0053631035
-0.0049106665 -0.0025150001 -0.00057896547
0.040809333 0.0025150001 -0.0016041378
0.030310666 -0.001437143 -0.00023724131
0.029294666 0.0010778572 0.0024965517
-0.0082973326 0.0025150001 -0.0039962069
-0.015748 0.00035928574 -0.0063882759
0.016425332 -0.001437143 0.00078793109
0.040470663 0.0025150001 -0.0053631035
0.036068 0.0025150001 -0.0036544828
0.010667999 0 -0.0063882759
0.017441332 0.0025150001 -0.0050213793
-0.025907999 -0.00071857148 -0.0063882759
0.025907999 0.00071857148 -0.00057896547
0.025230665 0.0021557144 -0.00023724131
0.023198666 -0.0025150001 -0.0029710345
-0.0072813332 0.00035928574 -0.00057896547
0.039793331 -0.00071857148 -0.0060465517
0.025230665 -0.0025150001 -0.00023724131
0.023875998 0.0025150001 -0.0026293104
-0.024891999 0.00035928574 -0.0063882759
0.042163998 -0.00035928574 -0.0063882759
-0.0086359996 0.0025150001 -0.0029710345
-0.02286 0.00035928574 -0.00057896547
-0.00016933333 -0.0017964287 -0.00057896547
-0.024891999 -0.0021557144 -0.0063882759
0.0032173332 0.0010778572 -0.0063882759
-0.014393332 0.0025150001 -0.00057896547
0.0022013332 0.00071857148 -0.0063882759
-0.026923999 0.0025150001 -0.00057896547
0.00016933333 -0.0010778572 -0.00057896547
-0.036406666 -0.0025150001 -0.0039962069
-0.035051998 0.0025150001 -0.0026293104
0.0049106665 -0.0025150001 -0.0043379311
-0.020150665 -0.00071857148 -0.0063882759
0.0066039995 0.00071857148 -0.00057896547
0.012361333 0.0025150001 -0.0039962069
-0.022521332 0.0021557144 -0.00023724131
0.020150665 0.0025150001 -0.0039962069
-0.014054666 0.0025150001 -0.00023724131
0.030987998 -0.0025150001 -0.0053631035
-0.011006666 0.00035928574 -0.00057896547
0.033019997 0.0025150001 -0.0053631035
0.0028786666 -0.0025150001 -0.0033127586
-0.027601331 -0.0025150001 -0.0050213793
0.037422664 0.0025150001 -0.00023724131
-0.018118666 0.0025150001 -0.00023724131
0.014731999 -0.0025150001 -0.00092068961
0.0022013332 0.0025150001 -0.0043379311
0.0045719999 0.0021557144 -0.00023724131
0.035390664 -0.00071857148 -0.00057896547
-0.0028786666 0.0025150001 -0.0012624137
-0.038438667 0.0025150001 -0.0043379311
-0.034713332 0.0021557144 -0.0063882759
0.03572933 0.0025150001 -0.00023724131
-0.024891999 0.0025150001 -0.0063882759
0.00016933333 -0.001437143 -0.0063882759
0.016764 -0.0025150001 -0.0016041378
0.013715999 -0.0025150001 -0.0026293104
0.0089746667 0 -0.0063882759
0.001524 -0.0025150001 -0.0029710345
0.027939999 -0.0025150001 -0.00092068961
0.011684 0.0025150001 -0.0029710345
0.013377333 -0.0021557144 -0.00023724131
0.00084666663 0.0025150001 -0.0026293104
0.036068 -0.0025150001 -0.0060465517
-0.038099997 -0.00035928574 -0.0036544828
0.025569333 -0.0025150001 -0.0053631035
0.042163998 -0.00035928574 -0.00092068961
0.033697333 -0.00035928574 -0.0063882759
-0.0055879997 -0.0025150001 -0.0057048276
-0.024214666 -0.0025150001 -0.0026293104
0.038777333 -0.00071857148 -0.0026293104
0.019134667 0.0025150001 -0.0063882759
-0.022521332 0.0025150001 -0.00092068961
-0.030987998 0.0025150001 -0.0063882759
0.033358667 0.00035928574 -0.0063882759
0.0093133328 -0.0025150001 -0.0026293104
-0.02286 -0.001437143 -0.0063882759
-0.042502664 0.0010778572 -0.0053631035
-0.0018626666 0.00035928574 -0.0063882759
0.014731999 0.0017964287 -0.00023724131
-0.042502664 0.00071857148 -0.0029710345
0.0049106665 -0.00071857148 -0.00057896547
0.012022666 0.001437143 -0.0063882759
-0.0025399998 -0.0025150001 -0.0016041378
-0.042163998 -0.00035928574 -0.0060465517
0.032003999 0.00035928574 -0.00057896547
0.030987998 0.00035928574 -0.00057896547
-0.0076199998 -0.001437143 -0.0063882759
-0.020150665 0.0025150001 -0.0029710345
0.0035559998 0.001437143 -0.0063882759
-0.032003999 -0.0025150001 -0.00023724131
-0.012022666 0.0021557144 -0.0063882759
-0.028278666 -0.001437143 -0.00023724131
0.014054666 -0.0025150001 -0.0012624137
-0.020150665 0.0025150001 -0.0046796552
-0.032003999 0.0025150001 -0.0063882759
0.024553332 0.0025150001 -0.0050213793
0.013038666 -0.001437143 -0.00023724131
-0.037761331 -0.0025150001 -0.0016041378
-0.036745332 -0.00071857148 -0.00057896547
0.028617332 0.0025150001 -0.0050213793
0.038438667 0.0025150001 -0.0060465517
-0.029294666 -0.00071857148 -0.00057896547
-0.042502664 0.0021557144 -0.0033127586
-0.018457333 0.0010778572 -0.0063882759
-0.019473333 -0.0025150001 -0.0043379311
-0.017102666 -0.00035928574 -0.00057896547
0.023875998 0.00071857148 -0.00057896547
0.038777333 0.00035928574 -0.0036544828
-0.042502664 0.00071857148 -0.0046796552
0.013038666 0.0010778572 -0.0063882759
-0.026246665 -0.00071857148 -0.0063882759
-0.024214666 -0.0025150001 -0.00092068961
-0.04284133 0.001437143 -0.0016041378
0.037761331 0 -0.0046796552
-0.041147999 0.00071857148 -0.0029710345
0.038099997 0.0025150001 -0.0033127586
0.00050799997 -0.0025150001 -0.0063882759
0.021844 0.0025150001 -0.0039962069
-0.0011853332 0.0010778572 0.0018131036
-0.011684 -0.00035928574 -0.0063882759
0.018795999 -0.0025150001 -0.0057048276
-0.024553332 -0.00035928574 -0.0063882759
0.018795999 0.0025150001 -0.001945862
0.028617332 0.0021557144 -0.0063882759
0.033019997 0.0025150001 -0.0043379311
-0.0096519999 -0.00035928574 -0.0063882759
-0.023875998 0.0025150001 -0.001945862
0.0049106665 0.0025150001 -0.001945862
0.0018626666 -0.001437143 -0.00023724131
0.021844 0.0025150001 -0.001945862
0.042502664 -0.0010778572 -0.0026293104
0.042502664 -0.0021557144 -0.0046796552
-0.0079586664 0.00035928574 -0.00057896547
0.020827999 -0.00035928574 -0.00057896547
0.0076199998 0.0025150001 -0.0012624137
-0.017102666 -0.0010778572 -0.00057896547
-0.038777333 -0.00035928574 -0.0016041378
-0.042163998 -0.00071857148 -0.0029710345
-0.022182666 -0.0025150001 -0.00057896547
0.024553332 0.0025150001 -0.0063882759
0.037083998 0.00071857148 -0.00057896547
0.026246665 -0.00035928574 -0.0063882759
0.032342665 -0.0025150001 -0.0043379311
-0.0096519999 0.0017964287 -0.0063882759
-0.038438667 -0.00071857148 -0.00057896547
0.027262665 -0.00071857148 -0.00057896547
-0.019473333 -0.0025150001 -0.0050213793
0.0042333333 0.0025150001 -0.0063882759
0.010329333 0.0021557144 -0.0063882759
-0.023875998 -0.0025150001 -0.00092068961
0.023198666 0 -0.00057896547
-0.021844 0 -0.0063882759
-0.020489333 -0.0010778572 -0.0063882759
0.029294666 0.0025150001 -0.0060465517
-0.015409333 0.0025150001 -0.00057896547
0.015748 0.0025150001 -0.0039962069
-0.010329333 -0.0025150001 -0.0057048276
0.0096519999 0.0025150001 -0.0026293104
0.020150665 -0.0021557144 -0.00023724131
0.0055879997 -0.0025150001 -0.0033127586
-0.040470663 -0.0025150001 -0.0012624137
0.036068 0.0025150001 -0.0043379311
0.013715999 0.0025150001 -0.0046796552
-0.019134667 0.0025150001 -0.0026293104
-0.030987998 0 -0.0063882759
-0.030649332 -0.0025150001 -0.0036544828
0.038438667 -0.0025150001 -0.0026293104
0.030987998 0.0010778572 -0.0063882759
0.025230665 -0.0017964287 -0.0063882759
0.026923999 -0.0010778572 -0.0063882759
0.03572933 -0.0025150001 -0.0012624137
0.0011853332 0.001437143 -0.00023724131
0.030310666 0.00071857148 -0.00057896547
-0.016425332 -0.0025150001 -0.0036544828
-0.039115999 -0.00035928574 -0.0029710345
-0.016764 0.001437143 -0.00023724131
0.031326666 -0.0017964287 -0.00023724131
0.018457333 0.0025150001 -0.0039962069
-0.040131997 0.00035928574 -0.0063882759
0.0099906661 0.0025150001 -0.0046796552
0.033358667 0.0025150001 -0.0016041378
-0.031665333 -0.0025150001 -0.001945862
-0.036068 0.0025150001 -0.0012624137
0.0127 -0.0025150001 -0.0050213793
0.012361333 0.0025150001 -0.001945862
-0.021166665 0.00035928574 -0.00057896547
0.023198666 0.0025150001 -0.0060465517
0.018457333 0.0025150001 -0.0033127586
0.0082973326 0.0025150001 -0.001945862
-0.04284133 -0.00035928574 -0.0063882759
0.030649332 0.0025150001 -0.0053631035
0.019811999 0.0010778572 -0.00057896547
-0.04284133 0.0017964287 -0.0033127586
-0.0032173332 -0.0025150001 -0.0036544828
-0.0072813332 0.00071857148 -0.0063882759
-0.00084666663 -0.00035928574 -0.0063882759
-0.0025399998 -0.0025150001 -0.0012624137
0.020489333 0.0025150001 -0.0057048276
-0.017441332 -0.0025150001 -0.00092068961
0.0028786666 0.0010778572 -0.0063882759
0.016086666 0 -0.0063882759
0.021166665 -0.0025150001 -0.0036544828
0.020827999 0.00071857148 -0.0063882759
0.0072813332 0.0025150001 -0.0063882759
0.041486666 -0.0025150001 -0.001945862
-0.0032173332 -0.0025150001 -0.0057048276
0.036745332 -0.0025150001 -0.0033127586
-0.030310666 -0.0025150001 -0.0033127586
-0.0025399998 0.0017964287 -0.00057896547
-0.021844 0.0025150001 -0.0026293104
0.036068 -0.001437143 -0.0063882759
0.026585333 -0.0025150001 -0.0029710345
-0.024214666 -0.0025150001 -0.0053631035
0.032003999 -0.0025150001 -0.0046796552
-0.00050799997 -0.00071857148 -0.0063882759
-0.034035999 -0.0025150001 -0.0012624137
0.040470663 0.0025150001 -0.001945862
0.016764 -0.0025150001 -0.0046796552
-0.010329333 0.0017964287 -0.0063882759
-0.021505332 -0.0010778572 -0.00057896547
0.027939999 0.0025150001 -0.00057896547
0.030987998 0 -0.00057896547
-0.0062653329 0.0025150001 -0.0043379311
-0.00050799997 0.001437143 -0.00023724131
0.0127 -0.0025150001 -0.0039962069
-0.026923999 0.0025150001 -0.0026293104
0.017441332 0.0010778572 -0.00057896547
-0.029294666 -0.0025150001 -0.0026293104
-0.016764 -0.0017964287 -0.00057896547
-0.035051998 0.0025150001 -0.0060465517
0.0055879997 0.0025150001 -0.0057048276
-0.010329333 -0.0025150001 -0.0012624137
0.034035999 -0.0010778572 -0.0063882759
0.030649332 0.0025150001 -0.0029710345
-0.026923999 0.0025150001 -0.001945862
-0.0076199998 0.0025150001 -0.0012624137
0.020150665 0 -0.0063882759
0.029294666 -0.0025150001 -0.0050213793
-0.019134667 -0.0025150001 -0.0016041378
0.031665333 0.0021557144 -0.00023724131
-0.011345332 0.001437143 0.00010448282
-0.016425332 0.001437143 0.00010448282
0.016764 -0.0025150001 -0.00092068961
0.016086666 0.0025150001 -0.0053631035
-0.013377333 0.0025150001 -0.0036544828
0.0089746667 0.0025150001 -0.0039962069
-0.029971998 0.0025150001 -0.0036544828
0.021505332 0.0025150001 -0.0022875862
-0.020489333 0.0025150001 -0.0036544828
0.042163998 -0.0025150001 -0.00092068961
-0.026923999 0.0025150001 -0.0039962069
0.024553332 0.0021557144 -0.00023724131
-0.018118666 0.001437143 -0.0063882759
-0.016425332 -0.0025150001 -0.00023724131
-0.042502664 -0.00071857148 -0.0022875862
-0.033358667 -0.00035928574 -0.00057896547
0.011345332 -0.001437143 0.00078793109
0.014731999 -0.0025150001 -0.0036544828
-0.0062653329 -0.001437143 0.0021548276
0.014731999 0.0025150001 -0.0060465517
0.0011853332 -0.0025150001 -0.001945862
0.011345332 -0.0010778572 0.0021548276
-0.035051998 0.0025150001 -0.0046796552
-0.023875998 0.0017964287 -0.00057896547
-0.021505332 0.00071857148 -0.0063882759
0.039793331 -0.001437143 -0.00023724131
0.0059266663 -0.0025150001 -0.001945862
0.026585333 -0.0025150001 -0.00057896547
0.014393332 -0.0021557144 -0.00023724131
0.0096519999 -0.0025150001 -0.0057048276
-0.034713332 -0.0021557144 -0.00023724131
0.0028786666 0.0025150001 -0.0060465517
0.028278666 0.0025150001 -0.0036544828
-0.019473333 -0.00035928574 -0.00057896547
0.0022013332 -0.0025150001 -0.0029710345
-0.0093133328 -0.0025150001 -0.0043379311
0.022182666 -0.0021557144 -0.0063882759
-0.032342665 -0.0025150001 -0.0012624137
-0.0032173332 0.0017964287 -0.0063882759
0.022521332 0.0025150001 -0.0036544828
0.036406666 0.0021557144 -0.00023724131
-0.0076199998 0.0017964287 -0.00023724131
-0.013038666 -0.0025150001 -0.0022875862
0.036406666 -0.0017964287 -0.00057896547
0.0018626666 -0.0017964287 -0.0063882759
0.029971998 -0.0025150001 -0.00057896547
0.025569333 0 -0.00057896547
0.0025399998 0.0025150001 -0.0026293104
-0.040809333 -0.00035928574 -0.0016041378
-0.0062653329 0.0025150001 -0.001945862
-0.020827999 -0.0025150001 -0.0012624137
-0.034374665 0.0025150001 -0.0053631035
-0.0062653329 0.0025150001 -0.0012624137
0.031326666 -0.00071857148 -0.0063882759
0.04284133 0.0010778572 -0.0050213793
-0.016425332 0.0025150001 -0.0036544828
-0.026923999 0.0025150001 -0.0057048276
-0.025907999 0.0025150001 -0.0016041378
0.0059266663 0.0025150001 -0.0033127586
-0.0028786666 -0.0025150001 -0.00023724131
0.029971998 0.00035928574 -0.0063882759
0.013715999 0.0021557144 -0.0063882759
-0.0022013332 0.0025150001 -0.001945862
-0.012361333 -0.0025150001 -0.0046796552
-0.018795999 0.00035928574 -0.0063882759
0.0035559998 -0.0025150001 -0.0063882759
-0.020150665 0.0025150001 -0.0016041378
0.027601331 -0.0010778572 -0.00023724131
-0.00016933333 0.00071857148 -0.0063882759
-0.0032173332 0.0010778572 -0.00057896547
-0.039454665 -0.00035928574 -0.0012624137
-0.0072813332 0.0010778572 -0.0063882759
-0.011684 0.0025150001 -0.0036544828
0.030649332 0.0021557144 -0.00023724131
0.0079586664 -0.0021557144 -0.00023724131
-0.014054666 -0.0025150001 -0.00092068961
-0.013038666 -0.0025150001 -0.00023724131
-0.016425332 0.001437143 -0.0063882759
0.033019997 -0.001437143 -0.0063882759
-0.0096519999 0.0025150001 -0.0053631035
-0.039793331 0.00071857148 -0.0012624137
-0.019473333 0.001437143 -0.00023724131
-0.0093133328 -0.001437143 -0.0063882759
0.0089746667 0.0010778572 -0.00057896547
0.019473333 -0.0021557144 -0.00023724131
0.026585333 -0.0025150001 -0.0053631035
0.026585333 -0.0010778572 -0.0063882759
0.0032173332 0.0017964287 -0.0063882759
0.037761331 -0.0025150001 -0.0022875862
0.028278666 -0.0025150001 -0.0063882759
0.015070666 -0.0025150001 -0.0022875862
0.037422664 -0.0021557144 -0.00092068961
-0.034374665 -0.0025150001 -0.00023724131
-0.011684 0.00071857148 -0.00057896547
0.029294666 -0.001437143 0.00078793109
-0.016425332 -0.0025150001 -0.0029710345
0.0093133328 0.0025150001 -0.0016041378
-0.017779998 -0.0021557144 -0.00023724131
-0.0076199998 -0.0025150001 -0.0036544828
0.0049106665 -0.0025150001 -0.0057048276
0.021505332 -0.001437143 0.0018131036
0.0066039995 -0.0017964287 -0.00057896547
-0.04284133 0.0010778572 -0.0036544828
0.029971998 -0.00071857148 -0.00057896547
-0.013377333 0.0010778572 -0.00057896547
-0.030310666 -0.0017964287 -0.00023724131
0.0028786666 -0.0025150001 -0.0036544828
-0.013715999 -0.0025150001 -0.0033127586
0.024214666 0 -0.00057896547
0.012361333 -0.0025150001 -0.00057896547
-0.042163998 0.0025150001 -0.0063882759
-0.0069426666 0.0010778572 -0.00057896547
-0.041825332 0.0010778572 -0.0033127586
-0.023537332 -0.0010778572 -0.00057896547
-0.014054666 0.0017964287 -0.00057896547
-0.030987998 -0.0025150001 -0.00057896547
0.013038666 0.0025150001 -0.0063882759
-0.0052493331 0 -0.00057896547
0.0093133328 0.0025150001 -0.0057048276
0.013715999 0.0021557144 -0.00023724131
0.029971998 -0.0025150001 -0.0043379311
-0.0079586664 -0.00071857148 -0.00057896547
-0.023537332 -0.0025150001 -0.0053631035
-0.024553332 -0.00071857148 -0.00057896547
-0.029971998 -0.0010778572 -0.00023724131
-0.026246665 -0.0017964287 -0.00057896547
0.019134667 0.0025150001 -0.00023724131
-0.040809333 0.0025150001 -0.0029710345
0.0022013332 -0.0025150001 -0.00092068961
-0.0127 -0.0025150001 -0.0016041378
-0.0076199998 -0.00071857148 -0.00057896547
0.020489333 -0.0025150001 -0.0012624137
0.0022013332 0.0025150001 -0.0033127586
0.018795999 0.001437143 -0.0063882759
-0.0052493331 -0.0025150001 -0.0043379311
0.042163998 -0.00071857148 -0.0063882759
0.032681331 -0.0010778572 -0.00023724131
-0.038777333 0.00071857148 -0.0016041378
-0.0089746667 0.001437143 0.00044620698
0.038099997 0.00035928574 -0.00057896547
0.020827999 -0.0010778572 -0.00057896547
-0.035051998 -0.0025150001 -0.0046796552
-0.024553332 -0.001437143 -0.00023724131
0.032342665 0.0025150001 -0.00057896547
0.038099997 -0.0017964287 -0.00057896547
0.040809333 0.0021557144 -0.00057896547
-0.024214666 -0.0021557144 -0.00023724131
-0.014731999 0.0025150001 -0.00023724131
0.0042333333 0.0017964287 -0.00057896547
-0.029633332 -0.0025150001 -0.0063882759
0.037761331 0.00071857148 -0.00092068961
0.0045719999 0.00035928574 -0.0063882759
0.033358667 -0.0025150001 -0.0036544828
0.031326666 -0.0025150001 -0.0012624137
0.018118666 0.0025150001 -0.0057048276
0.0079586664 0.0025150001 -0.0026293104
-0.036745332 0.0025150001 -0.001945862
-0.02286 -0.0025150001 -0.0012624137
-0.041825332 0.00071857148 -0.0036544828
0.030310666 -0.0025150001 -0.0050213793
0.011684 0.001437143 0.0011296553
-0.038099997 0.0025150001 -0.0057048276
-0.019134667 0.0025150001 -0.0057048276
-0.038099997 0.00035928574 -0.00057896547
0.036745332 -0.0025150001 -0.0046796552
-0.042502664 0 -0.0063882759
-0.0052493331 -0.00035928574 -0.00057896547
-0.0089746667 -0.0025150001 -0.0033127586
-0.013715999 0.00071857148 -0.00057896547
0.014054666 0.001437143 0.0011296553
0.019134667 0.0025150001 -0.0060465517
-0.022521332 -0.00035928574 -0.00057896547
0.032003999 -0.0010778572 -0.00023724131
0.037761331 -0.0010778572 -0.0063882759
0.0011853332 -0.0010778572 0.0014713794
-0.0038946664 -0.0017964287 -0.00057896547
0.041147999 -0.0025150001 -0.0050213793
0.028278666 -0.0017964287 -0.0063882759
0.024214666 0.0021557144 -0.00023724131
0.019134667 -0.0010778572 0.00044620698
-0.014393332 0.0025150001 -0.0016041378
-0.027262665 -0.0025150001 -0.00057896547
-0.040470663 -0.0025150001 -0.0057048276
-0.023875998 0.0021557144 -0.0063882759
-0.034035999 -0.0025150001 -0.0036544828
-0.010667999 -0.0025150001 -0.0036544828
0.029971998 0.0025150001 -0.0029710345
-0.010329333 0 -0.0063882759
-0.022182666 0.0025150001 -0.0039962069
0.031326666 0.0025150001 -0.0029710345
-0.015748 0.00071857148 -0.0063882759
-0.040470663 -0.0025150001 -0.0046796552
-0.032342665 0.0021557144 -0.0063882759
-0.021505332 -0.001437143 0.00010448282
0.028617332 -0.0010778572 -0.0063882759
0.016086666 0.0025150001 -0.0060465517
-0.0018626666 -0.0025150001 -0.0026293104
0.033358667 -0.0025150001 -0.0050213793
-0.037761331 0.0025150001 -0.0029710345
0.018795999 0.0025150001 -0.0029710345
0.00050799997 0.0010778572 -0.00057896547
-0.030987998 0.0025150001 -0.0053631035
-0.026923999 0.0025150001 -0.00092068961
0.0018626666 0 -0.00057896547
-0.011006666 0.0017964287 -0.0063882759
0.0035559998 -0.0021557144 -0.0063882759
-0.032681331 0.0025150001 -0.0033127586
0.033697333 -0.0017964287 -0.00023724131
0.013377333 0.0025150001 -0.0026293104
-0.04284133 0.001437143 -0.0043379311
0.0022013332 -0.0025150001 -0.0012624137
-0.0086359996 0.0021557144 -0.00023724131
0.028278666 0.0025150001 -0.0029710345
0.0082973326 -0.0025150001 -0.0012624137
-0.012022666 -0.0010778572 -0.00057896547
-0.0082973326 -0.0021557144 -0.00023724131
0.014054666 0.0025150001 -0.0063882759
0.029633332 -0.00035928574 -0.0063882759
-0.031665333 -0.0025150001 -0.0050213793
-0.012022666 0.00071857148 -0.00057896547
-0.0042333333 0.0025150001 -0.0036544828
0.020489333 0.0025150001 -0.00092068961
-0.010329333 0 -0.00057896547
-0.0096519999 0.0025150001 -0.00092068961
0.021166665 -0.0025150001 -0.0063882759
-0.018795999 0.0025150001 -0.0012624137
0.014731999 -0.001437143 -0.00023724131
-0.0086359996 -0.0025150001 -0.0063882759
0.022182666 -0.0010778572 -0.00057896547
-0.0035559998 0.00071857148 -0.00057896547
-0.018118666 -0.00035928574 -0.0063882759
-0.0042333333 -0.001437143 -0.0063882759
-0.041486666 0.00071857148 -0.0033127586
0.011345332 0.00035928574 -0.00057896547
0.020489333 0.00035928574 -0.0063882759
-0.0045719999 -0.0017964287 -0.00057896547
0.00016933333 0.0025150001 -0.0046796552
-0.027601331 -0.0025150001 -0.00057896547
0.00084666663 -0.0025150001 -0.0033127586
0.041825332 -0.0010778572 -0.001945862
0.038777333 0.0025150001 -0.0053631035
-0.0059266663 -0.0025150001 -0.00023724131
-0.0055879997 -0.0025150001 -0.0043379311
0.019473333 -0.0025150001 -0.0022875862
-0.025907999 0.001437143 -0.00023724131
0.016425332 0.00035928574 -0.00057896547
0.029633332 -0.0021557144 -0.00092068961
-0.037083998 -0.0025150001 -0.0060465517
-0.04284133 -0.00071857148 -0.0022875862
-0.041486666 0.0025150001 -0.0057048276
0.033019997 -0.0025150001 -0.0050213793
0.024214666 -0.0021557144 -0.00023724131
-0.036068 -0.0025150001 -0.0029710345
0.024891999 -0.0025150001 -0.0029710345
0.031665333 -0.0025150001 -0.0029710345
0.0099906661 0.0025150001 -0.00057896547
-0.030987998 -0.00071857148 -0.0063882759
0.025907999 -0.0025150001 -0.0063882759
-0.038777333 0.0021557144 -0.00057896547
0.015748 -0.0025150001 -0.0060465517
-0.025569333 -0.00035928574 -0.00057896547
-0.038777333 -0.0025150001 -0.00023724131
0.042163998 0.0021557144 -0.00057896547
-0.023875998 -0.0010778572 -0.0063882759
0.0089746667 -0.0025150001 -0.0016041378
-0.016425332 -0.001437143 0.0018131036
-0.0028786666 -0.0025150001 -0.0053631035
-0.032003999 0.0025150001 -0.0046796552
-0.00050799997 0.0017964287 -0.0063882759
0.037422664 -0.0025150001 -0.00057896547
-0.039454665 -0.0010778572 -0.00023724131
-0.026585333 -0.0025150001 -0.0039962069
0.0045719999 -0.00035928574 -0.0063882759
-0.041486666 -0.00071857148 -0.0036544828
0.011006666 0 -0.00057896547
-0.020827999 -0.00035928574 -0.00057896547
-0.0066039995 -0.001437143 -0.0063882759
0.0093133328 -0.001437143 -0.00023724131
0.027262665 0.0025150001 -0.0039962069
-0.0052493331 -0.0025150001 -0.0012624137
0.04284133 0.001437143 -0.0050213793
-0.00050799997 0.00071857148 -0.0063882759
0.016425332 -0.0025150001 -0.0036544828
0.041486666 0.0025150001 -0.0016041378
0.031326666 -0.0025150001 -0.0036544828
-0.034374665 0.0025150001 -0.0043379311
-0.024891999 0.0025150001 -0.0026293104
0.035390664 0.0025150001 -0.0053631035
0.016425332 0.001437143 0.00010448282
-0.038099997 -0.0025150001 -0.0033127586
0.027601331 -0.0025150001 -0.0036544828
0.029633332 0.0025150001 -0.0012624137
-0.0028786666 0.0025150001 -0.0053631035
0.020489333 -0.0025150001 -0.0036544828
-0.0049106665 -0.0010778572 -0.00057896547
-0.04284133 -0.00071857148 -0.0029710345
-0.023198666 -0.0025150001 -0.0063882759
-0.0093133328 -0.0025150001 -0.0022875862
0.029294666 0.0025150001 -0.0050213793
-0.042163998 0.0010778572 -0.0012624137
0.016086666 0.0025150001 -0.0022875862
-0.0076199998 -0.0025150001 -0.0012624137
-0.030310666 0.0025150001 -0.0057048276
0.015409333 0.0025150001 -0.00092068961
-0.026923999 0.0017964287 -0.00057896547
0.026585333 0.0025150001 -0.0046796552
-0.04284133 0.0021557144 -0.00057896547
-0.04284133 -0.0021557144 -0.0029710345
0.0099906661 -0.0025150001 -0.0060465517
-0.021844 -0.0025150001 -0.0060465517
-0.017779998 -0.0025150001 -0.0026293104
-0.015070666 -0.0025150001 -0.0039962069
0.039793331 -0.00071857148 -0.0026293104
-0.025569333 -0.0025150001 -0.0036544828
0.040809333 -0.0025150001 -0.0029710345
-0.020489333 -0.0025150001 -0.0063882759
-0.026923999 -0.0017964287 -0.0063882759
0.020489333 0.0025150001 -0.0036544828
0.014054666 0.001437143 0.0014713794
0.04284133 0.0021557144 -0.0022875862
-0.035390664 0.001437143 -0.0063882759
-0.0011853332 0.0025150001 -0.0063882759
-0.00084666663 -0.0025150001 -0.00092068961
0.037761331 0.0025150001 -0.00023724131
-0.034035999 -0.0021557144 -0.00023724131
-0.0049106665 -0.0025150001 -0.0057048276
0.021505332 -0.0021557144 -0.00023724131
-0.024891999 0.0025150001 -0.0043379311
-0.0093133328 0.0025150001 -0.0046796552
0.023537332 -0.0025150001 -0.0039962069
-0.035390664 -0.0025150001 -0.0026293104
0.013715999 0 -0.00057896547
0.040470663 -0.00035928574 -0.0063882759
-0.0099906661 -0.00035928574 -0.0063882759
0.033358667 0.0025150001 -0.0026293104
-0.037761331 0.0025150001 -0.0050213793
0.022521332 -0.0025150001 -0.0022875862
-0.028617332 0.0025150001 -0.0057048276
-0.026246665 0.0025150001 -0.0053631035
0.026585333 -0.00071857148 -0.00057896547
0.0099906661 0.0025150001 -0.00023724131
0.032342665 0 -0.00057896547
0.014054666 -0.0025150001 -0.0029710345
0.0018626666 -0.0025150001 -0.0012624137
0.0069426666 0.0025150001 -0.0046796552
-0.017102666 0.0025150001 -0.0039962069
-0.0127 0.0025150001 -0.0039962069
0.038777333 0.00035928574 -0.0046796552
-0.027601331 -0.001437143 -0.00023724131
-0.014054666 -0.0025150001 -0.0057048276
-0.024891999 0.0017964287 -0.0063882759
-0.012022666 -0.0025150001 -0.0012624137
0.0042333333 -0.0025150001 -0.0022875862
0.021505332 -0.001437143 0.0014713794
0.011345332 0.0025150001 -0.0063882759
-0.0127 -0.0025150001 -0.0033127586
-0.018118666 0.0010778572 -0.0063882759
-0.039115999 -0.00035928574 -0.0057048276
-0.042163998 0.00071857148 -0.0050213793
-0.033697333 0.0017964287 -0.00023724131
0.024214666 0.0010778572 -0.00023724131
0.020827999 0.0025150001 -0.0050213793
-0.013377333 0.0025150001 -0.00092068961
0.031665333 0.001437143 0.0014713794
0.023537332 0.0025150001 -0.0029710345
-0.04284133 -0.001437143 -0.0057048276
-0.028278666 0.001437143 -0.0063882759
0.026246665 0.0025150001 -0.0046796552
0.015409333 0.001437143 -0.00023724131
-0.04284133 0.0021557144 -0.00092068961
0.011006666 -0.00035928574 -0.0063882759
-0.038099997 -0.0025150001 -0.001945862
0.03572933 0 -0.0063882759
-0.039115999 -0.0025150001 -0.0063882759
-0.0052493331 -0.0021557144 -0.0063882759
-0.029294666 0.0025150001 -0.0057048276
-0.013377333 -0.0017964287 -0.00057896547
-0.011006666 -0.0025150001 -0.001945862
-0.021844 -0.0025150001 -0.00023724131
0.029633332 0.0025150001 -0.0060465517
-0.031326666 0.0025150001 -0.00023724131
-0.018795999 0.0021557144 -0.0063882759
-0.04284133 -0.001437143 -0.0053631035
-0.021166665 0.0025150001 -0.0016041378
-0.034374665 0.0021557144 -0.0063882759
-0.030987998 -0.0025150001 -0.0036544828
0.036745332 0.0010778572 0.00078793109
0.021166665 0 -0.0063882759
-0.015748 -0.0017964287 -0.0063882759
0.020150665 -0.0025150001 -0.0022875862
-0.041486666 -0.0017964287 -0.00023724131
-0.0066039995 0.0025150001 -0.0060465517
-0.039454665 -0.00035928574 -0.0033127586
-0.034035999 -0.0025150001 -0.0057048276
0.019811999 0.00071857148 -0.0063882759
0.031326666 -0.0010778572 -0.00023724131
-0.03572933 -0.0025150001 -0.0039962069
-0.017102666 0.0025150001 -0.0033127586
0.028955998 0.0025150001 -0.0012624137
0.032003999 -0.00071857148 -0.0063882759
0.024214666 -0.001437143 0.00010448282
0.025569333 0.0025150001 -0.0060465517
-0.0045719999 0.001437143 -0.0063882759
0.0062653329 0.0025150001 -0.00023724131
-0.042163998 0.0025150001 -0.0050213793
-0.014054666 -0.0010778572 0.0014713794
-0.04284133 -0.0017964287 -0.0046796552
-0.041825332 0.0025150001 -0.0016041378
-0.029633332 -0.001437143 -0.00023724131
0.041825332 -0.0025150001 -0.0053631035
0.017779998 0.0025150001 -0.0043379311
0.013715999 -0.0025150001 -0.0039962069
-0.0055879997 -0.0010778572 -0.0063882759
-0.019134667 0.0025150001 -0.00057896547
0.0099906661 -0.00035928574 -0.0063882759
-0.031326666 -0.00071857148 -0.0063882759
-0.039454665 -0.001437143 0.0014713794
0.023537332 -0.001437143 -0.0063882759
0.024891999 0.00071857148 -0.0063882759
0.029971998 0.001437143 -0.0063882759
-0.038099997 0.0025150001 -0.0053631035
-0.0059266663 0.0025150001 -0.0039962069
0.0045719999 0 -0.0063882759
-0.019134667 0.0021557144 -0.0063882759
0.024553332 0.0025150001 -0.00023724131
-0.032681331 0.0025150001 -0.0012624137
0.011345332 0.0025150001 -0.0046796552
0.037761331 0.001437143 -0.0063882759
-0.016086666 -0.00035928574 -0.00057896547
0.018795999 -0.0017964287 -0.0063882759
-0.026246665 0.0025150001 -0.001945862
-0.02286 -0.0025150001 -0.0050213793
0.032342665 0.0025150001 -0.001945862
-0.023875998 -0.0025150001 -0.0060465517
0.017102666 0.0025150001 -0.0057048276
0.018795999 0.0025150001 -0.0043379311
-0.0086359996 0.0017964287 -0.00057896547
0.037083998 0.0025150001 -0.0053631035
0.0042333333 0.0025150001 -0.00023724131
0.020150665 0.0025150001 -0.0050213793
-0.018457333 0.0025150001 -0.0043379311
0.027262665 0.00035928574 -0.0063882759
-0.019811999 0.0025150001 -0.0029710345
-0.038438667 0.0025150001 -0.0016041378
-0.038777333 -0.00035928574 -0.0036544828
0.024553332 0.0017964287 -0.0063882759
0.027939999 0.0025150001 -0.0026293104
-0.034374665 0.00071857148 -0.00057896547
-0.019811999 -0.0025150001 -0.0046796552
0.040131997 0.00035928574 -0.0046796552
0.019134667 -0.0010778572 0.00078793109
-0.0079586664 0.0025150001 -0.0063882759
-0.039793331 -0.00071857148 -0.0063882759
-0.0076199998 0.0025150001 -0.00057896547
-0.041486666 0.0025150001 -0.0029710345
-0.028955998 0.00071857148 -0.0063882759
0.042163998 0.0025150001 -0.0063882759
0.040809333 0.0010778572 -0.0063882759
0.0022013332 -0.0025150001 -0.0050213793
-0.0086359996 -0.0010778572 -0.00057896547
0.038438667 -0.00035928574 -0.0050213793
0.026923999 -0.0021557144 -0.0063882759
0.042163998 -0.0010778572 -0.00023724131
-0.010329333 0.0025150001 -0.0033127586
0.037083998 0.0025150001 -0.0063882759
0.0028786666 0.0025150001 -0.0043379311
-0.033358667 0.0025150001 -0.0050213793
-0.023875998 -0.0025150001 -0.0016041378
0.033019997 -0.0025150001 -0.0060465517
0.032003999 -0.0017964287 -0.00057896547
-0.039454665 0.0025150001 -0.0063882759
-0.00016933333 0.0025150001 -0.0036544828
-0.0042333333 -0.0025150001 -0.0016041378
0.02286 0.0021557144 -0.00023724131
-0.027939999 -0.0025150001 -0.0036544828
-0.016086666 -0.0025150001 -0.0026293104
-0.036745332 0.001437143 0.0011296553
0.025907999 0.0025150001 -0.0026293104
-0.042163998 -0.00071857148 -0.0063882759
-0.0127 -0.0025150001 -0.0053631035
0.028955998 -0.0021557144 -0.00023724131
0.011006666 -0.0025150001 -0.0050213793
-0.027262665 0.0025150001 -0.0043379311
-0.034713332 0.0010778572 -0.00023724131
-0.018795999 -0.0017964287 -0.0063882759
-0.0055879997 0.0025150001 -0.0043379311
0.0028786666 -0.0025150001 -0.0063882759
-0.033019997 -0.00035928574 -0.00057896547
0.023537332 -0.0025150001 -0.0016041378
-0.0052493331 0.0025150001 -0.0060465517
0.030987998 -0.0025150001 -0.0016041378
0.039454665 0 -0.0060465517
-0.025907999 0.00035928574 -0.00057896547
-0.037761331 -0.0025150001 -0.0039962069
-0.012022666 0.0025150001 -0.00057896547
0.0072813332 0.0025150001 -0.00057896547
-0.019811999 0.00035928574 -0.0063882759
-0.041486666 0.001437143 -0.00023724131
0.013715999 -0.001437143 -0.00023724131
0.039454665 0.0025150001 -0.0022875862
-0.0096519999 0.0021557144 -0.00023724131
0.016086666 -0.0010778572 -0.00057896547
0.0018626666 0.0025150001 -0.00092068961
0.027601331 0.0025150001 -0.001945862
0.0096519999 0.0025150001 -0.0022875862
0.038438667 -0.0025150001 -0.0033127586
-0.040131997 0.0025150001 -0.00092068961
0.027939999 -0.00035928574 -0.0063882759
0.028955998 -0.0025150001 -0.0043379311
0.016425332 -0.00035928574 -0.00057896547
-0.0045719999 -0.00071857148 -0.0063882759
0.021505332 -0.0025150001 -0.0063882759
0.0042333333 0.0025150001 -0.00092068961
-0.03572933 -0.0025150001 -0.00023724131
0.0018626666 -0.0025150001 -0.0057048276
-0.0035559998 -0.00035928574 -0.00057896547
-0.0062653329 0.0025150001 -0.0060465517
-0.013377333 -0.0010778572 -0.00057896547
0.040809333 -0.0021557144 -0.00092068961
0.00016933333 -0.0025150001 -0.0057048276
-0.040131997 0.0017964287 -0.00023724131
-0.024553332 -0.0025150001 -0.00092068961
0.017102666 0.0025150001 -0.0036544828
0.041825332 0.0025150001 -0.0016041378
0.011684 0.001437143 0.0018131036
-0.0066039995 -0.0010778572 0.00044620698
-0.026923999 0.001437143 -0.0063882759
0.014054666 0.001437143 0.00078793109
-0.037083998 -0.0025150001 -0.0057048276
0.012022666 0.0010778572 -0.00057896547
0.034035999 -0.00035928574 -0.00057896547
0.014054666 -0.0025150001 -0.0036544828
0.035390664 0.0010778572 -0.00023724131
-0.015409333 0 -0.0063882759
-0.018457333 -0.0025150001 -0.001945862
0.0035559998 0 -0.00057896547
0.029294666 0.0025150001 -0.0046796552
-0.034713332 0.0025150001 -0.0057048276
0.0028786666 0.0025150001 -0.0026293104
-0.038099997 -0.0025150001 -0.0063882759
-0.013377333 0 -0.00057896547
0.032342665 0.00071857148 -0.00057896547
-0.032342665 -0.0010778572 -0.0063882759
-0.016425332 0.001437143 0.0021548276
0.0059266663 -0.001437143 -0.00023724131
0.014731999 0.0025150001 -0.00092068961
0.010667999 -0.0025150001 -0.0029710345
-0.037761331 0.0025150001 -0.001945862
0.013377333 -0.0025150001 -0.0036544828
-0.0099906661 -0.0025150001 -0.0022875862
-0.0045719999 -0.001437143 -0.0063882759
0.04284133 -0.001437143 -0.0060465517
0.039793331 -0.00071857148 -0.0053631035
-0.014731999 -0.0025150001 -0.00023724131
0.020489333 -0.00035928574 -0.0063882759
0.032342665 -0.0017964287 -0.00057896547
0.0011853332 0.00071857148 -0.0063882759
0.00016933333 0.0025150001 -0.0053631035
-0.0018626666 -0.0025150001 -0.0033127586
0.014054666 -0.0025150001 -0.0060465517
0.014731999 0.0010778572 -0.00057896547
0.035051998 0.0025150001 -0.00057896547
0.010667999 -0.001437143 -0.0063882759
-0.041486666 -0.001437143 -0.0063882759
0.017779998 -0.0021557144 -0.00023724131
-0.0011853332 -0.0025150001 -0.00057896547
0.018795999 -0.0021557144 -0.0063882759
0.0069426666 0.0025150001 -0.00092068961
-0.032342665 -0.0025150001 -0.0039962069
0.027939999 -0.00035928574 -0.00057896547
0.028955998 0.00035928574 -0.00057896547
0.014393332 0.0025150001 -0.0033127586
-0.021505332 -0.0025150001 -0.0046796552
0.0038946664 -0.001437143 0.00044620698
-0.013038666 0.0017964287 -0.0063882759
0.041486666 -0.00035928574 -0.0063882759
-0.0042333333 0.0025150001 -0.0016041378
0.019473333 0.0025150001 -0.00023724131
0.036406666 -0.0025150001 -0.0043379311
-0.021166665 -0.0025150001 -0.0063882759
-0.034035999 0.0010778572 -0.0063882759
-0.015070666 -0.0025150001 -0.00092068961
0.010329333 -0.0025150001 -0.0057048276
0.02286 -0.0025150001 -0.0039962069
-0.026923999 0.0010778572 -0.00023724131
-0.014054666 -0.0010778572 0.0024965517
-0.016425332 -0.001437143 0.0021548276
0.038438667 -0.0017964287 -0.00023724131
-0.030987998 0.001437143 -0.0063882759
-0.017102666 -0.001437143 -0.00023724131
0.015409333 -0.0025150001 -0.0029710345
-0.028617332 -0.0025150001 -0.0036544828
-0.035390664 0.0017964287 -0.00023724131
0.037761331 -0.0021557144 -0.0063882759
0.00016933333 0.0025150001 -0.0036544828
0.017441332 -0.0025150001 -0.00092068961
0.039793331 0.00035928574 -0.0050213793
0.0082973326 -0.0025150001 -0.00023724131
-0.042163998 0 -0.0060465517
0.015409333 0.0025150001 -0.0046796552
0.020827999 0.0017964287 -0.0063882759
0.028955998 0.00071857148 -0.0063882759
-0.021166665 -0.0025150001 -0.00092068961
0.015070666 0.00071857148 -0.0063882759
-0.029294666 0.0017964287 -0.0063882759
-0.0062653329 0.0010778572 -0.00057896547
0.0011853332 0.001437143 0.00044620698
0.04284133 0.00071857148 -0.0016041378
0.037422664 0.001437143 -0.00023724131
-0.019811999 0.001437143 -0.0063882759
-0.017441332 0.0025150001 -0.0016041378
0.0022013332 -0.00071857148 -0.00057896547
-0.033358667 -0.0025150001 -0.001945862
-0.0011853332 -0.0025150001 -0.0046796552
0.0035559998 -0.0025150001 -0.00023724131
-0.027939999 -0.00035928574 -0.00057896547
0.030649332 0.0025150001 -0.00023724131
0.035390664 0.001437143 -0.0063882759
0.026585333 -0.0025150001 -0.0046796552
-0.016764 -0.0025150001 -0.0033127586
-0.011006666 0.0010778572 -0.00057896547
-0.018118666 0.0025150001 -0.0026293104
0.035390664 -0.0025150001 -0.0046796552
0.013715999 0 -0.0063882759
0.0049106665 0.0010778572 -0.00057896547
-0.014393332 0.00071857148 -0.0063882759
0.030649332 -0.0025150001 -0.0063882759
-0.016764 -0.0025150001 -0.0063882759
0.016764 -0.0025150001 -0.0029710345
0.033697333 0 -0.00057896547
-0.014393332 -0.0025150001 -0.0060465517
-0.0035559998 -0.0025150001 -0.0057048276
-0.042502664 0.0010778572 -0.001945862
-0.040131997 -0.0025150001 -0.0039962069
0.026923999 0.0025150001 -0.00023724131
-0.0062653329 -0.0017964287 -0.0063882759
0.011006666 -0.0025150001 -0.0022875862
0.024553332 -0.0025150001 -0.0053631035
0.013038666 -0.00071857148 -0.0063882759
-0.0045719999 0.0021557144 -0.00023724131
0.032342665 0.001437143 -0.00023724131
0.017779998 -0.0025150001 -0.00092068961
-0.014054666 0.0025150001 -0.0057048276
0.031326666 0.0017964287 -0.0063882759
-0.0028786666 0.0017964287 -0.0063882759
-0.019134667 0.0021557144 -0.00023724131
0.024553332 -0.0021557144 -0.00023724131
-0.041147999 -0.00071857148 -0.0012624137
0.0059266663 0.00071857148 -0.0063882759
-0.041486666 -0.00071857148 -0.0053631035
0.039115999 0.0025150001 -0.0033127586
-0.018795999 0.001437143 -0.00023724131
0.029633332 0.001437143 -0.0063882759
0.0089746667 0.0010778572 0.0018131036
0.029633332 0.0025150001 -0.0022875862
0.00016933333 -0.0025150001 -0.001945862
-0.019473333 0.0025150001 -0.0053631035
0.032342665 0.0025150001 -0.0046796552
-0.014393332 -0.0010778572 -0.00057896547
-0.032681331 0.0025150001 -0.0022875862
-0.023198666 -0.0025150001 -0.0012624137
0.014731999 -0.00035928574 -0.0063882759
0.039454665 0.00035928574 -0.0057048276
0.04284133 -0.001437143 -0.0043379311
-0.018457333 0.0021557144 -0.00023724131
-0.023537332 -0.00035928574 -0.00057896547
-0.026585333 -0.0025150001 -0.00057896547
-0.032342665 0.0025150001 -0.0046796552
0.015409333 0.0017964287 -0.0063882759
0.025907999 -0.0025150001 -0.0016041378
-0.025230665 0.0025150001 -0.0022875862
-0.0018626666 0.0025150001 -0.0060465517
-0.017441332 -0.0025150001 -0.0043379311
0.0059266663 0 -0.00057896547
0.0062653329 0.001437143 -0.00023724131
0.038438667 -0.0025150001 -0.0012624137
0.024214666 -0.0010778572 0.0021548276
0.0072813332 0.0025150001 -0.0057048276
0.026246665 -0.001437143 -0.0063882759
-0.017779998 -0.0025150001 -0.0063882759
-0.026246665 0.00035928574 -0.0063882759
0.0089746667 0.0025150001 -0.001945862
-0.031665333 0.0025150001 -0.0016041378
0.0052493331 0.0025150001 -0.0033127586
-0.015409333 -0.0025150001 -0.0043379311
-0.032003999 0.0025150001 -0.0022875862
0.0086359996 0.0025150001 -0.0036544828
-0.013038666 -0.001437143 -0.0063882759
-0.015070666 -0.00035928574 -0.0063882759
-0.0032173332 0.0025150001 -0.00023724131
-0.036406666 -0.0017964287 -0.0063882759
0.019134667 0.00071857148 -0.0063882759
0.031326666 0.0025150001 -0.0036544828
-0.012361333 -0.001437143 -0.00023724131
-0.034374665 -0.0010778572 -0.0063882759
0.017441332 -0.0025150001 -0.0046796552
0.011006666 0.0025150001 -0.0057048276
0.019134667 0.00035928574 -0.00057896547
0.033019997 -0.0025150001 -0.00057896547
0.034374665 0.0025150001 -0.0026293104
-0.0022013332 0.00035928574 -0.0063882759
-0.025907999 -0.0025150001 -0.0022875862
0.016425332 -0.0025150001 -0.0063882759
0.0038946664 -0.001437143 0.0011296553
-0.028955998 -0.0025150001 -0.00023724131
0.040131997 -0.00071857148 -0.0033127586
0.029294666 -0.0025150001 -0.00023724131
0.034374665 0.00071857148 -0.0063882759
0.014393332 0.0025150001 -0.0039962069
-0.0082973326 -0.0025150001 -0.0050213793
-0.031665333 -0.0025150001 -0.00023724131
-0.033358667 0 -0.0063882759
0.0049106665 0.0025150001 -0.0012624137
-0.0025399998 0.0017964287 -0.0063882759
-0.039115999 0.0025150001 -0.00092068961
-0.040470663 -0.0025150001 -0.0016041378
0.020150665 -0.0021557144 -0.0063882759
-0.0042333333 0.0025150001 -0.0026293104
0.023537332 -0.0010778572 -0.0063882759
-0.0066039995 0.0025150001 -0.0046796552
-0.011006666 -0.0025150001 -0.0057048276
0.0045719999 0.0025150001 -0.0060465517
-0.021505332 0.0025150001 -0.0060465517
0.021166665 -0.0021557144 -0.00023724131
0.039454665 0.00035928574 -0.0039962069
0.018118666 -0.0025150001 -0.00057896547
0.0022013332 0.00035928574 -0.00057896547
-0.0025399998 -0.0025150001 -0.00023724131
0.021505332 0.0010778572 -0.0063882759
0.023198666 0.0025150001 -0.0016041378
-0.038099997 -0.00035928574 -0.00057896547
-0.039454665 0.0025150001 -0.0039962069
-0.022521332 -0.0025150001 -0.00023724131
0.024553332 0 -0.0063882759
0.024891999 -0.0025150001 -0.001945862
-0.0066039995 0.0025150001 -0.0012624137
0.016764 -0.0025150001 -0.0012624137
-0.026246665 -0.0025150001 -0.0016041378
0.016425332 0.0025150001 -0.0053631035
-0.039454665 0.00035928574 -0.0029710345
-0.024214666 0.0021557144 -0.0063882759
-0.040131997 -0.00071857148 -0.0063882759
0.0022013332 -0.0025150001 -0.0016041378
-0.0072813332 -0.00035928574 -0.0063882759
-0.024553332 -0.0025150001 -0.001945862
0.038099997 0.0025150001 -0.0029710345
0.034374665 0.0010778572 -0.0063882759
0.040809333 -0.0010778572 -0.0029710345
0.022521332 0.0025150001 -0.00092068961
-0.022521332 0.0025150001 -0.0012624137
0.014731999 0.0025150001 -0.0026293104
-0.019811999 -0.0025150001 -0.00092068961
0.038438667 0.0017964287 -0.00023724131
-0.034713332 -0.0025150001 -0.0033127586
0.037083998 0 -0.00057896547
-0.00016933333 -0.00035928574 -0.0063882759
-0.022521332 -0.0025150001 -0.0039962069
-0.011006666 -0.0017964287 -0.00057896547
-0.0076199998 -0.0021557144 -0.00023724131
0.026585333 -0.0025150001 -0.0060465517
0.04284133 0.0010778572 -0.0012624137
0.042163998 0.0025150001 -0.0033127586
-0.014054666 0.0025150001 -0.0050213793
-0.032003999 0.0025150001 -0.0053631035
0.0069426666 0.001437143 -0.0063882759
-0.0069426666 -0.0025150001 -0.0036544828
-0.00084666663 0.00071857148 -0.0063882759
-0.040809333 -0.00035928574 -0.00057896547
-0.030310666 -0.00071857148 -0.0063882759
-0.018457333 0.0017964287 -0.0063882759
-0.030310666 -0.0025150001 -0.0016041378
0.017779998 0.0025150001 -0.0053631035
-0.0025399998 -0.00071857148 -0.00057896547
0.028955998 -0.0025150001 -0.0050213793
0.028278666 0.0021557144 -0.0063882759
-0.029971998 -0.0025150001 -0.0039962069
0.021505332 0 -0.00057896547
-0.0079586664 0.0025150001 -0.0012624137
-0.023198666 -0.001437143 -0.0063882759
0.018457333 -0.0017964287 -0.0063882759
-0.029294666 -0.001437143 0.0014713794
-0.013377333 0.0025150001 -0.0022875862
-0.016425332 -0.001437143 0.0014713794
0.0089746667 -0.0025150001 -0.00023724131
-0.033697333 -0.001437143 -0.00023724131
0.029633332 -0.0025150001 -0.00023724131
-0.035390664 0.00071857148 -0.0063882759
0.03572933 -0.0025150001 -0.0026293104
-0.029971998 -0.0025150001 -0.00023724131
0.0062653329 -0.0025150001 -0.0029710345
-0.012361333 0.0025150001 -0.0016041378
0.026585333 0.00035928574 -0.00057896547
0.019134667 0.001437143 0.0021548276
0.033358667 0.0025150001 -0.0029710345
0.04284133 0.0017964287 -0.0063882759
0.020489333 -0.0025150001 -0.0029710345
-0.021505332 -0.001437143 0.0011296553
0.0099906661 -0.00071857148 -0.0063882759
-0.025569333 0.0025150001 -0.0053631035
-0.021166665 0.0021557144 -0.0063882759
-0.036068 -0.0025150001 -0.0063882759
0.041825332 0.0021557144 -0.0063882759
0.018795999 0.0025150001 -0.0026293104
0.011684 -0.00035928574 -0.0063882759
0.00084666663 0.0010778572 -0.0063882759
0.03572933 -0.0010778572 -0.0063882759
0.024891999 -0.0017964287 -0.0063882759
0.034374665 0.0025150001 -0.00092068961
0.033358667 -0.0025150001 -0.0029710345
0.038777333 0.0010778572 -0.00023724131
-0.022182666 -0.0025150001 -0.001945862
-0.0066039995 0.0025150001 -0.0016041378
0.039454665 -0.0021557144 -0.00092068961
-0.0025399998 -0.0025150001 -0.0057048276
0.011345332 0.0025150001 -0.0022875862
-0.0072813332 -0.0017964287 -0.00023724131
-0.034035999 0.0025150001 -0.00057896547
-0.036068 0 -0.00057896547
-0.015409333 -0.001437143 -0.00023724131
-0.010329333 0.0025150001 -0.0016041378
0.040809333 -0.0025150001 -0.00092068961
-0.0042333333 -0.0025150001 -0.001945862
-0.015748 -0.0025150001 -0.0033127586
0.016425332 -0.0025150001 -0.00023724131
0.024214666 -0.0010778572 0.00078793109
-0.017779998 0.0025150001 -0.0036544828
0.012022666 0.0025150001 -0.0063882759
-0.042163998 0.0010778572 -0.00023724131
0.025230665 -0.0010778572 -0.0063882759
-0.029294666 -0.00035928574 -0.0063882759
-0.027939999 0.0025150001 -0.0063882759
-0.038777333 0.0025150001 -0.0046796552
-0.037761331 -0.0025150001 -0.0057048276
0.030649332 0.0021557144 -0.0063882759
-0.0028786666 0.0025150001 -0.001945862
0.023198666 -0.0017964287 -0.00023724131
0.0096519999 0.001437143 -0.0063882759
-0.032342665 -0.0025150001 -0.0029710345
0.026923999 0.00035928574 -0.0063882759
-0.041825332 0.0025150001 -0.0060465517
-0.012361333 0.0025150001 -0.00092068961
-0.018118666 -0.0025150001 -0.00092068961
-0.0025399998 -0.0025150001 -0.00092068961
0.017779998 0.00071857148 -0.0063882759
-0.039793331 -0.0025150001 -0.0022875862
-0.027939999 0.0025150001 -0.00023724131
0.038438667 0 -0.0063882759
-0.012361333 -0.0025150001 -0.0026293104
0.032003999 -0.0025150001 -0.0060465517
0.0052493331 0.0025150001 -0.0050213793
0.04284133 -0.0017964287 -0.0053631035
-0.0059266663 0.0025150001 -0.001945862
-0.0082973326 -0.0025150001 -0.0063882759
-0.04284133 -0.0010778572 -0.0053631035
0.039793331 0.00071857148 -0.00092068961
0.0096519999 -0.0025150001 -0.00092068961
0.0032173332 -0.0025150001 -0.001945862
-0.023875998 0.0017964287 -0.0063882759
-0.00016933333 -0.0025150001 -0.0050213793
0.015409333 -0.0025150001 -0.00057896547
-0.019134667 0.0025150001 -0.0060465517
0.037761331 -0.0010778572 -0.00057896547
0.038438667 -0.0025150001 -0.001945862
-0.019811999 0 -0.00057896547
-0.026585333 0.0025150001 -0.0022875862
-0.038099997 0.0025150001 -0.0016041378
-0.015409333 -0.0010778572 -0.00057896547
-0.036745332 0.0025150001 -0.0063882759
-0.022521332 -0.0025150001 -0.0033127586
-0.025907999 0.0017964287 -0.00057896547
0.035390664 -0.0025150001 -0.00092068961
0.028955998 0.0010778572 -0.00023724131
0.02286 0.0025150001 -0.0046796552
0.0069426666 -0.0025150001 -0.0039962069
