# .PCD v0.7 - Point Cloud Data file format
VERSION 0.7
FIELDS x y z
SIZE 4 4 4
TYPE F F F
COUNT 1 1 1
WIDTH 1185
HEIGHT 1
VIEWPOINT 0 0 0 1 0 0 0
POINTS 1185
DATA ascii
-0.024933198 0.0043016821 -0.0040352945
0.0085519673 -0.00061452604 -0.00041764718
-0.025415 0.0013519572 -0.001864706
0.002047654 0.0045474926 -0.0071705887
-0.013369977 -0.0018435781 -0.0088588241
0.00517936 -0.0045474926 -0.002829412
0.013851778 0.0011061468 -0.0047588237
-0.0037339574 -0.0028268197 -0.00041764718
0.00493846 0.0045474926 -0.0047588237
0.012647275 -0.0015977676 -0.0001764707
-0.023969598 -0.0025810092 -0.00041764718
0.0034930569 0.0045474926 -0.0040352945
0.010960972 -0.0043016821 -0.0088588241
0.025415 0.00086033641 -0.0050000004
-0.018187987 -0.00061452604 -0.002829412
-0.013851778 0.0015977676 -0.0088588241
0.018669788 0.0045474926 -0.0074117649
-0.024692299 0.0025810092 -0.00041764718
-0.0063838628 -0.0045474926 -0.0081352945
-0.025415 -0.0001229052 -0.0088588241
-0.024692299 -0.0028268197 -0.00041764718
0.0025294549 0.0045474926 -0.0064470591
0.023728697 -0.0038100614 -0.00041764718
0.018187987 0.0045474926 -0.0076529416
-0.022283293 0.0045474926 -0.0025882355
0.019392489 0.0038100614 -0.0088588241
-0.01987429 0.0045474926 -0.0054823533
-0.013851778 0.0018435781 -0.00041764718
0.00084315165 -0.0028268197 -0.00041764718
-0.018669788 0.0038100614 -0.0088588241
-0.016501682 0.0033184404 -0.0088588241
0.018187987 -0.0045474926 -0.0062058829
0.012647275 0.0028268197 -0.0088588241
-0.023487797 -0.00086033641 -0.0042764707
0.0015658531 -0.0038100614 -0.00041764718
-0.025415 0.00036871561 -0.00065882364
-0.021319693 -0.0043016821 -0.0088588241
0.017465284 0.0043016821 -0.0088588241
0.0025294549 0.0028268197 -0.00041764718
-0.019633388 0.0035642509 -0.0088588241
0.01529718 0.0038100614 -0.00041764718
0.0080701662 -0.0001229052 -0.0030705885
0.017465284 -0.0028268197 -0.0088588241
-0.0056611612 -0.0013519572 -0.00041764718
-0.016260782 -0.0045474926 -0.0066882358
-0.0078292657 0.0045474926 -0.0052411766
-0.0018067536 -0.00086033641 -0.0033117649
-0.0022885546 -0.0001229052 -0.002829412
0.0099973697 0.0015977676 0.0017529412
-0.025415 0.0011061468 -0.0088588241
0.0013249526 -0.0011061468 -0.00041764718
-0.0097564692 -0.0045474926 -0.0071705887
0.0027703554 -0.0015977676 -0.0088588241
-0.022042394 -0.0045474926 -0.0042764707
0.01023827 -0.0045474926 -0.0042764707
0.013369977 0.0045474926 -0.0074117649
0.012406374 0.0045474926 -0.0052411766
0.014815379 -0.0045474926 -0.0025882355
0.0032521563 0.0045474926 -0.0030705885
-0.024933198 -0.0030726301 -0.0071705887
-0.0022885546 -0.00036871561 -0.002829412
-0.007106564 0.0045474926 -0.0071705887
0.023487797 -0.0043016821 -0.00090000016
-0.013851778 -0.0045474926 -0.002829412
0.022765094 -0.0045474926 -0.0033117649
-0.023246896 0.0001229052 -0.0088588241
0.0085519673 0.0043016821 -0.00041764718
0.0044566588 -0.0045474926 -0.0076529416
0.013851778 0.0045474926 -0.00065882364
0.024451399 -0.00061452604 -0.00041764718
0.020115189 0.0045474926 -0.0052411766
0.017465284 -0.0045474926 -0.0021058826
0.013610877 -0.0011061468 -0.0088588241
0.0022885546 -0.0045474926 -0.0047588237
-0.00517936 0.0011061468 0.0015117646
0.007106564 0.00036871561 -0.0057235295
0.021078791 0.0001229052 -0.00041764718
0.018910687 0.0045474926 -0.0078941183
0.018910687 -0.0045474926 -0.0059647062
0.025415 -0.0033184404 -0.0057235295
-0.0018067536 0.0045474926 -0.00041764718
0.0027703554 -0.0001229052 -0.0057235295
-0.015778981 -0.0045474926 -0.0066882358
-0.025415 -0.0018435781 -0.0050000004
0.016260782 0.0045474926 -0.0047588237
-0.018428886 -0.0023351989 -0.0088588241
0.017947085 0.0040558716 -0.0088588241
-0.0042157583 -0.0045474926 -0.0083764708
-0.014574478 -0.0030726301 -0.00041764718
0.025415 0.0028268197 -0.0050000004
0.025415 -0.0038100614 -0.0040352945
-0.0099973697 0.0045474926 -0.00041764718
-0.018669788 -0.00086033641 -0.0047588237
-0.011201872 -0.0038100614 -0.0088588241
-0.024933198 0.0025810092 -0.00041764718
-0.01023827 0.0045474926 -0.00065882364
-0.0056611612 -0.0045474926 -0.0011411766
0.0046975594 0.0045474926 -0.002829412
0.022765094 0.0043016821 -0.002829412
-0.0018067536 0.0045474926 -0.0023470591
0.0022885546 0.0045474926 -0.0081352945
-0.023728697 -0.0040558716 -0.00041764718
0.024692299 0.0040558716 -0.00041764718
-0.0044566588 -0.00061452604 -0.002829412
-0.016260782 -0.00036871561 -0.002829412
-0.011683673 -0.0038100614 -0.00041764718
0.014815379 0.0020893884 -0.0088588241
-0.0059020617 -0.0020893884 -0.00041764718
0.024451399 -0.0001229052 -0.0088588241
-0.0022885546 0.0025810092 -0.00041764718
0.010720071 -0.0013519572 -0.00041764718
-0.00012045024 0.0011061468 -0.0037941178
-0.0037339574 -0.0045474926 -0.0057235295
-0.017465284 0.0045474926 -0.0045176474
-0.0025294549 0.0045474926 -0.0011411766
0.0085519673 0.0045474926 -0.0064470591
0.0092746681 -0.0045474926 -0.00041764718
0.0025294549 0.00061452604 -0.002829412
-0.022042394 0.0011061468 -0.0033117649
-0.019151587 -0.0030726301 -0.00041764718
0.010479171 -0.0045474926 -0.0052411766
0.0046975594 0.0045474926 -0.008617647
-0.011201872 -0.0045474926 -0.0050000004
-0.0078292657 0.0030726301 -0.00041764718
0.025415 0.00086033641 -0.0011411766
-0.017224384 0.00036871561 -0.00041764718
-0.010960972 0.0033184404 -0.0088588241
-0.015538081 -0.00061452604 -0.002829412
0.012647275 -0.0015977676 0.0015117646
0.013129076 0.0045474926 -0.0071705887
0.022283293 -0.0045474926 -0.0076529416
0.0044566588 -0.0045474926 -0.0023470591
-0.01023827 0.00061452604 -0.002829412
0.013369977 0.0045474926 -0.0078941183
-0.016260782 0.0045474926 -0.0054823533
0.015056279 -0.0045474926 -0.0025882355
0.013129076 -0.00036871561 -0.0088588241
0.017706186 0.0013519572 0.0029588235
-0.02059699 0.0045474926 -0.00065882364
0.02059699 0.0013519572 -0.0001764707
-0.010960972 -0.0028268197 -0.00041764718
0.0034930569 -0.00086033641 -0.00041764718
0.025415 -0.0023351989 -0.002829412
-0.0018067536 0.0045474926 -0.0054823533
0.025415 -0.0025810092 -0.00090000016
-0.013369977 0.0045474926 -0.0083764708
-0.007106564 -0.0043016821 -0.0088588241
0.0251741 0.0011061468 -0.0071705887
0.020115189 -0.0045474926 -0.0013823531
-0.01529718 0.0033184404 -0.0088588241
0.021078791 -0.00036871561 -0.0088588241
-0.0042157583 -0.0045474926 -0.00065882364
0.019392489 0.0030726301 -0.0088588241
0.017706186 0.0023351989 -0.0088588241
-0.020115189 -0.00036871561 -0.0054823533
0.00036135071 0.0045474926 -0.0037941178
0.0032521563 -0.0045474926 -0.0088588241
0.025415 -0.0001229052 -0.0025882355
0.013610877 -0.0001229052 -0.00041764718
-0.025415 -0.0013519572 -0.0025882355
0.0090337675 -0.00061452604 -0.0057235295
-0.017947085 -0.00086033641 -0.0052411766
0.020115189 0.0015977676 0.0012705881
-0.0080701662 0.0011061468 -0.0040352945
0.010479171 0.0045474926 -0.0023470591
-0.025415 0.0011061468 -0.0057235295
-0.011442773 0.0045474926 -0.0025882355
0.0251741 -0.0030726301 -0.00041764718
0.022524195 -0.0001229052 -0.0052411766
0.0063838628 -0.00086033641 -0.0035529414
0.00036135071 0.0001229052 -0.0057235295
0.014333579 0.00086033641 -0.0030705885
0.020115189 0.00036871561 -0.00041764718
0.0034930569 0.0011061468 -0.0054823533
0.00517936 0.0018435781 -0.00041764718
-0.0046975594 0.0023351989 -0.00041764718
0.019633388 0.0011061468 -0.0033117649
0.0078292657 0.0013519572 0.0022352941
-0.002047654 -0.0030726301 -0.00041764718
-0.0078292657 -0.00086033641 -0.0035529414
0.0061429623 -0.0045474926 -0.0047588237
0.01529718 0.00061452604 -0.0088588241
-0.00493846 0.0045474926 -0.0057235295
0.018669788 -0.0045474926 -0.0016235296
0.020356091 0.0015977676 0.0017529412
-0.00084315165 -0.0045474926 -0.0016235296
-0.0059020617 -0.00036871561 -0.0057235295
-0.025415 0.0020893884 -0.0011411766
0.011442773 0.00036871561 -0.00041764718
-0.0054202606 0.0045474926 -0.001864706
-0.015056279 -0.0028268197 -0.0088588241
-0.012647275 0.0013519572 0.0010294117
0.0018067536 -0.0013519572 -0.00041764718
-0.015056279 -0.00086033641 0.0012705881
-0.0092746681 0.0045474926 -0.0050000004
0.014574478 0.0045474926 -0.0076529416
-0.016983483 0.0045474926 -0.0052411766
0.018669788 -0.0045474926 -0.0081352945
-0.0042157583 0.0013519572 -0.008617647
-0.021319693 -0.0045474926 -0.0040352945
-0.0085519673 0.0045474926 -0.0066882358
-0.016501682 0.0001229052 -0.0054823533
0.024210498 0.0011061468 -0.0033117649
0.025415 -0.0013519572 -0.0071705887
-0.0078292657 0.0013519572 0.0019941176
-0.0078292657 0.0015977676 0.0017529412
-0.010479171 -0.00086033641 -0.0052411766
-0.0039748577 -0.0023351989 -0.0088588241
0.0042157583 0.0045474926 -0.0013823531
0.013129076 -0.0045474926 -0.0059647062
0.021078791 -0.0045474926 -0.00090000016
-0.010479171 0.0015977676 -0.0088588241
0.024692299 -0.00036871561 -0.0052411766
-0.0032521563 -0.0045474926 -0.0042764707
0.012165474 -0.0023351989 -0.00041764718
0.025415 -0.0018435781 -0.0021058826
-0.025415 -0.0013519572 -0.0016235296
0.0027703554 -0.0011061468 0.00078823522
-0.016019881 0.0045474926 -0.0023470591
-0.017947085 0.0018435781 -0.00041764718
-0.008792867 -0.0030726301 -0.00041764718
-0.012165474 0.0011061468 -0.0037941178
0.025415 -0.0020893884 -0.0083764708
0.025415 0.0030726301 -0.0013823531
0.0078292657 -0.0013519572 0.00078823522
0.0078292657 0.0015977676 6.4705782e-05
0.021319693 0.0018435781 -0.0088588241
-0.025415 -0.0040558716 -0.0064470591
-0.022283293 0.0020893884 -0.00041764718
-0.025415 -0.0018435781 -0.0054823533
-0.0083110668 -0.0038100614 -0.00041764718
0.0095155686 -0.0045474926 -0.0021058826
-0.022524195 0.0045474926 -0.0033117649
-0.0095155686 0.0011061468 -0.0035529414
0.0063838628 -0.0045474926 -0.0040352945
0.003011256 -0.0013519572 -0.0088588241
-0.00493846 0.0025810092 -0.00041764718
-0.0063838628 -0.0025810092 -0.0088588241
-0.0095155686 -0.00086033641 -0.0033117649
-0.00060225121 -0.0040558716 -0.0088588241
-0.012888175 0.0015977676 -0.0001764707
0.0015658531 -0.0045474926 -0.0045176474
-0.0075883651 0.0011061468 -0.0040352945
0.016983483 -0.0025810092 -0.00041764718
0.013610877 -0.0011061468 -0.00041764718
0.0046975594 0.0011061468 6.4705782e-05
0.014815379 -0.0028268197 -0.0088588241
0.014815379 0.0045474926 -0.0083764708
-0.003011256 0.0045474926 -0.0062058829
-0.023246896 -0.0043016821 -0.00041764718
-0.019151587 0.0011061468 -0.0042764707
0.0078292657 -0.0011061468 0.0017529412
-0.010720071 -0.00061452604 -0.0054823533
-0.025415 0.0018435781 -0.00065882364
-0.018669788 -0.0045474926 -0.0047588237
-0.012165474 -0.0001229052 -0.00041764718
0.0039748577 -0.00086033641 -0.0045176474
0.0083110668 0.0011061468 -0.0045176474
-0.0056611612 -0.0045474926 -0.0074117649
0.0046975594 -0.0045474926 -0.0030705885
0.0018067536 0.0045474926 -0.0083764708
-0.010479171 0.00061452604 -0.0088588241
0.025415 0.0040558716 -0.0033117649
-0.020115189 -0.0045474926 -0.0047588237
0.0251741 0.0043016821 -0.0047588237
-0.0046975594 -0.0045474926 -0.00090000016
-0.025415 0.0030726301 -0.0074117649
-0.0097564692 0.0035642509 -0.0088588241
0.010960972 -0.00086033641 -0.0050000004
-0.017706186 0.0038100614 -0.0088588241
0.024933198 0.00086033641 -0.0045176474
0.023969598 0.0043016821 -0.0037941178
-0.023005996 -0.0045474926 -0.0021058826
-0.023246896 0.0043016821 -0.0066882358
0.0083110668 0.0045474926 -0.008617647
-0.022042394 0.00086033641 -0.0054823533
-0.012888175 0.0033184404 -0.0088588241
-0.010960972 -0.0045474926 -0.002829412
-0.016983483 0.00086033641 -0.002829412
-0.014092678 -0.00086033641 -0.0030705885
0.01529718 -0.00061452604 -0.00041764718
-0.024692299 -0.0040558716 -0.0083764708
0.025415 -0.00086033641 -0.0013823531
-0.00012045024 0.0045474926 -0.0025882355
0.012888175 -0.0033184404 -0.0088588241
-0.013851778 0.0045474926 -0.0040352945
0.0032521563 -0.0013519572 -0.00041764718
0.0056611612 -0.00036871561 -0.0057235295
0.0027703554 -0.0013519572 0.00054705876
0.018187987 0.00061452604 -0.0088588241
-0.016501682 0.0030726301 -0.00041764718
-0.022765094 0.0013519572 -0.0088588241
-0.01987429 0.0040558716 -0.00041764718
-0.024692299 0.0043016821 -0.00090000016
0.015538081 0.0011061468 0.0024764705
0.0068656635 0.0045474926 -0.0025882355
0.017465284 -0.0045474926 -0.0081352945
-0.016983483 -0.0028268197 -0.0088588241
0.017465284 0.0035642509 -0.0088588241
0.0090337675 0.00086033641 -0.0088588241
0.022524195 -0.0043016821 -0.008617647
0.0054202606 0.0045474926 -0.0011411766
0.024210498 -0.0043016821 -0.008617647
-0.015538081 -0.0045474926 -0.0064470591
0.020837892 -0.00061452604 -0.0054823533
-0.023728697 0.0043016821 -0.0025882355
-0.015056279 0.0011061468 -0.0040352945
0.013129076 -0.0045474926 -0.0037941178
-0.025415 -0.0020893884 -0.0030705885
-0.00012045024 0.0013519572 0.0017529412
0.00060225121 0.0001229052 -0.0057235295
0.017706186 0.0045474926 -0.0057235295
-0.0046975594 -0.00086033641 -0.0047588237
-0.011683673 -0.0045474926 -0.001864706
0.020356091 -0.0028268197 -0.0088588241
-0.014333579 0.0011061468 -0.0052411766
0.0061429623 -0.0045474926 -0.0052411766
-0.024210498 -0.0043016821 -0.0025882355
0.016019881 -0.0045474926 -0.0025882355
0.0018067536 0.0011061468 -0.0052411766
0.0039748577 -0.0030726301 -0.0088588241
-0.025415 0.0025810092 -0.0035529414
0.025415 0.00061452604 -0.0059647062
-0.0025294549 0.0045474926 -0.0013823531
0.018669788 0.0011061468 -0.0052411766
0.0097564692 -0.0038100614 -0.00041764718
-0.0010840521 -0.0045474926 -0.0035529414
-0.018187987 0.0045474926 -0.0023470591
-0.025415 -0.0011061468 -0.0057235295
0.02059699 0.0015977676 6.4705782e-05
0.0039748577 0.0001229052 -0.002829412
-0.012165474 -0.00061452604 -0.002829412
0.016742583 -0.0038100614 -0.0088588241
-0.024692299 0.0043016821 -0.0037941178
-0.015056279 -0.0023351989 -0.0088588241
-0.0032521563 0.0045474926 -0.0013823531
0.0073474646 -0.0045474926 -0.0011411766
0.018910687 -0.00061452604 -0.0054823533
0.016260782 -0.0045474926 -0.002829412
-0.019392489 -0.0045474926 -0.0054823533
0.023005996 0.0043016821 -0.0011411766
0.0063838628 -0.0045474926 -0.0016235296
0.025415 -0.0038100614 -0.0030705885
0.018910687 0.0015977676 -0.0088588241
0.017706186 0.0045474926 -0.0040352945
-0.02059699 0.00061452604 -0.00041764718
0.010720071 -0.0025810092 -0.00041764718
-0.01023827 -0.0011061468 -0.0088588241
-0.019392489 -0.0045474926 -0.0071705887
0.01987429 0.0013519572 -0.00041764718
-0.0010840521 0.0011061468 -0.00041764718
0.017947085 0.0013519572 -0.0001764707
-0.012165474 0.0045474926 -0.0013823531
0.022042394 -0.0020893884 -0.00041764718
-0.024692299 -0.0020893884 -0.0088588241
-0.017947085 -0.0033184404 -0.0088588241
0.0059020617 -0.0045474926 -0.002829412
0.0025294549 0.0033184404 -0.0088588241
-0.00036135071 -0.0045474926 -0.0023470591
-0.00012045024 -0.0045474926 -0.0045176474
0.018187987 0.0045474926 -0.0047588237
0.017706186 -0.0001229052 -0.0054823533
0.021560593 -0.00061452604 -0.0054823533
0.0061429623 0.0045474926 -0.0066882358
-0.00517936 0.0001229052 -0.0057235295
-0.0059020617 0.0040558716 -0.00041764718
0.020837892 0.0045474926 -0.0074117649
-0.0044566588 -0.0045474926 -0.0050000004
0.023005996 -0.0045474926 -0.0045176474
0.0027703554 0.0018435781 -0.00041764718
0.025415 -0.00036871561 -0.0030705885
0.0097564692 0.0045474926 -0.0071705887
-0.018187987 -0.0045474926 -0.0040352945
0.023246896 0.0040558716 -0.00041764718
-0.0099973697 0.00061452604 -0.00041764718
0.0090337675 -0.00086033641 -0.0088588241
-0.0054202606 -0.00086033641 -0.0040352945
-0.013369977 -0.0013519572 -0.00041764718
0.011201872 -0.0045474926 -0.0074117649
0.025415 -0.0030726301 -0.0021058826
-0.0099973697 0.0045474926 -0.006929412
0.0042157583 -0.0045474926 -0.0047588237
-0.0073474646 0.0011061468 -0.0037941178
-0.00084315165 0.0045474926 -0.0033117649
0.021319693 0.0011061468 -0.0052411766
0.0018067536 -0.0028268197 -0.0088588241
-0.0095155686 0.0035642509 -0.00041764718
0.00036135071 0.0035642509 -0.00041764718
-0.00060225121 0.0045474926 -0.0042764707
-0.022765094 -0.0045474926 -0.0054823533
0.0068656635 -0.00061452604 -0.0030705885
0.00012045024 0.0018435781 -0.008617647
-0.021078791 -0.0045474926 -0.0016235296
-0.0010840521 0.0045474926 -0.0040352945
-0.0022885546 0.00036871561 -0.00041764718
-0.020356091 -0.0001229052 -0.0030705885
0.024210498 0.0043016821 -0.0023470591
-0.022765094 0.00061452604 -0.0088588241
-0.019151587 -0.0001229052 -0.0054823533
-0.00517936 -0.0015977676 0.0010294117
0.024451399 0.00086033641 -0.0052411766
0.0090337675 -0.0045474926 -0.0066882358
0.025415 -0.0018435781 -0.0033117649
-0.021560593 -0.0040558716 -0.00041764718
-0.0073474646 0.0045474926 -0.0033117649
0.0085519673 -0.0045474926 -0.0040352945
0.017465284 -0.0011061468 0.0024764705
0.013369977 -0.0028268197 -0.0088588241
-0.0044566588 0.00061452604 -0.002829412
-0.010479171 -0.0043016821 -0.008617647
0.021801492 0.0045474926 -0.0071705887
0.00084315165 0.0045474926 -0.0071705887
-0.00012045024 -0.00061452604 -0.00041764718
0.020115189 -0.00086033641 -0.0035529414
0.0027703554 0.0013519572 0.0010294117
0.018910687 -0.00036871561 -0.0054823533
0.022042394 -0.0045474926 -0.0057235295
-0.024210498 0.0040558716 -0.00041764718
-0.0066247629 -0.0045474926 -0.0033117649
0.013610877 0.0045474926 -0.002829412
0.023728697 0.0043016821 -0.0045176474
-0.0042157583 0.0045474926 -0.00090000016
0.020356091 -0.0013519572 -0.0001764707
0.020356091 0.0043016821 -0.00041764718
0.020356091 0.0038100614 -0.00041764718
-0.016983483 0.0033184404 -0.0088588241
-0.012406374 0.0020893884 -0.00041764718
-0.022042394 -0.0001229052 -0.0030705885
0.025415 0.00086033641 -0.0057235295
-0.013610877 -0.00036871561 -0.0088588241
0.015056279 -0.0023351989 -0.0088588241
-0.022765094 0.0043016821 -0.0057235295
-0.013851778 -0.0043016821 -0.0088588241
-0.0090337675 0.0040558716 -0.00041764718
-0.013851778 -0.0013519572 -0.0088588241
0.0032521563 -0.0033184404 -0.0088588241
-0.016983483 0.00036871561 -0.0054823533
0.014333579 0.0018435781 -0.0088588241
-0.024451399 0.0011061468 -0.0042764707
-0.024210498 0.0013519572 -0.00041764718
-0.019392489 -0.0018435781 -0.00041764718
-0.0068656635 0.0045474926 -0.0016235296
-0.016019881 0.0001229052 -0.0054823533
-0.020837892 0.0025810092 -0.0088588241
0.0044566588 -0.0045474926 -0.0050000004
-0.016501682 -0.0045474926 -0.0062058829
0.011442773 0.0045474926 -0.002829412
0.018428886 -0.00061452604 -0.00041764718
0.021801492 0.0011061468 -0.0042764707
-0.00012045024 0.0028268197 -0.008617647
0.0034930569 0.00086033641 -0.00041764718
0.00517936 0.0045474926 -0.0064470591
-0.01529718 -0.0011061468 -0.0088588241
-0.0066247629 0.0030726301 -0.00041764718
0.008792867 0.0028268197 -0.00041764718
-0.0032521563 -0.0045474926 -0.0035529414
0.0066247629 -0.0045474926 -0.0047588237
-0.0034930569 -0.00061452604 -0.0057235295
0.01987429 -0.00086033641 -0.0052411766
0.002047654 -0.00061452604 -0.0088588241
0.019392489 0.00036871561 -0.00041764718
0.019392489 -0.0040558716 -0.00041764718
-0.01023827 -0.00086033641 0.0019941176
-0.0059020617 0.00061452604 -0.002829412
-0.0039748577 -0.0045474926 -0.0057235295
-0.018428886 0.0020893884 -0.0088588241
0.019633388 -0.0023351989 -0.00041764718
0.00517936 0.0045474926 -0.0076529416
0.018669788 -0.0020893884 -0.00041764718
-0.021078791 0.0001229052 -0.0088588241
0.013129076 -0.0043016821 -0.00041764718
-0.023005996 0.0043016821 -0.0078941183
0.0075883651 -0.00086033641 -0.0035529414
0.016983483 -0.0045474926 -0.0076529416
-0.00012045024 0.0011061468 0.0024764705
-0.023728697 0.0043016821 -0.0050000004
-0.0044566588 -0.0045474926 -0.0088588241
0.012647275 0.0011061468 -0.0037941178
-0.012647275 0.0013519572 0.00054705876
0.0015658531 0.0045474926 -0.0047588237
0.017465284 0.0020893884 -0.00041764718
0.024692299 -0.0020893884 -0.00041764718
0.019392489 -0.0045474926 -0.0071705887
-0.0066247629 0.0011061468 -0.0050000004
-0.016742583 -0.0043016821 -0.0035529414
0.024451399 -0.0043016821 -0.0045176474
-0.0034930569 -0.0020893884 -0.00041764718
0.0068656635 -0.0045474926 -0.0050000004
0.020356091 0.00061452604 -0.00041764718
-0.013369977 0.0011061468 -0.00041764718
0.019151587 -0.0045474926 -0.002829412
-0.003011256 0.0045474926 -0.00065882364
0.0092746681 0.00036871561 -0.0030705885
0.017224384 -0.00086033641 -0.0035529414
0.019151587 0.0045474926 -0.0054823533
0.0056611612 -0.00036871561 -0.0088588241
0.0013249526 -0.0011061468 -0.0088588241
0.0083110668 0.0038100614 -0.00041764718
-0.011924573 0.0045474926 -0.0023470591
-0.023005996 -0.0025810092 -0.0088588241
-0.01023827 0.0018435781 -0.00041764718
-0.025415 0.0028268197 -0.002829412
-0.016019881 0.0011061468 -0.0047588237
-0.023005996 -0.0045474926 -0.0062058829
-0.019633388 -0.0045474926 -0.0037941178
0.00012045024 0.0035642509 -0.0001764707
-0.012165474 -0.00086033641 -0.0040352945
0.014574478 -0.00086033641 -0.0052411766
0.017706186 -0.0013519572 0.0017529412
0.0027703554 0.0045474926 -0.008617647
0.012406374 0.0045474926 -0.00041764718
0.012647275 -0.00086033641 -0.0047588237
-0.013129076 0.0045474926 -0.0011411766
-0.0046975594 0.0045474926 -0.0074117649
0.007106564 -0.0025810092 -0.00041764718
-0.022765094 -0.0028268197 -0.0088588241
-0.025415 0.0040558716 -0.00065882364
0.0075883651 0.0013519572 -0.0088588241
-0.0099973697 0.0045474926 -0.0054823533
0.010960972 -0.0045474926 -0.0035529414
-0.022042394 0.0011061468 -0.0088588241
0.0061429623 0.00086033641 -0.00041764718
0.014333579 0.0025810092 -0.00041764718
0.012888175 0.0025810092 -0.0088588241
0.021560593 0.0045474926 -0.0030705885
-0.014333579 -0.0045474926 -0.0057235295
0.014574478 -0.0018435781 -0.0088588241
-0.00517936 -0.0011061468 6.4705782e-05
-0.0027703554 0.0015977676 0.00030588225
-0.024210498 -0.00061452604 -0.0052411766
-0.023728697 -0.00036871561 -0.0088588241
0.023728697 -0.0001229052 -0.0052411766
0.014092678 -0.0011061468 -0.0088588241
0.0097564692 -0.0045474926 -0.0035529414
0.011924573 -0.0033184404 -0.00041764718
0.00012045024 0.0011061468 -0.0030705885
-0.022042394 -0.0045474926 -0.006929412
0.013851778 0.0025810092 -0.0088588241
0.012647275 0.0045474926 -0.0025882355
-0.013851778 0.0028268197 -0.00041764718
0.0037339574 -0.00086033641 -0.0088588241
0.016983483 -0.0038100614 -0.0088588241
-0.011442773 -0.00086033641 -0.0033117649
0.0251741 0.00086033641 -0.0088588241
-0.016260782 -0.0045474926 -0.0047588237
-0.0015658531 0.0040558716 -0.00041764718
-0.024451399 0.0028268197 -0.00041764718
-0.0066247629 0.0045474926 -0.0035529414
0.022283293 0.0045474926 -0.00065882364
-0.024451399 0.00061452604 -0.0030705885
-0.014333579 -0.0045474926 -0.0050000004
0.024451399 0.0015977676 -0.00041764718
0.018428886 -0.0001229052 -0.0030705885
-0.012888175 0.0015977676 0.0010294117
0.012165474 0.0045474926 -0.0037941178
0.0083110668 -0.00061452604 -0.0057235295
0.0083110668 0.0035642509 -0.00041764718
-0.017706186 -0.00061452604 -0.002829412
-0.013851778 0.0045474926 -0.0062058829
0.024210498 0.0030726301 -0.00041764718
0.025415 0.0001229052 -0.0057235295
0.0097564692 -0.0045474926 -0.0076529416
-0.0027703554 0.0015977676 0.0019941176
-0.025415 -0.0001229052 -0.0052411766
-0.0025294549 0.0011061468 0.00054705876
0.0022885546 0.0023351989 -0.008617647
0.00517936 -0.0015977676 0.00054705876
-0.018187987 0.0011061468 -0.0042764707
-0.023728697 -0.0035642509 -0.00041764718
-0.0075883651 -0.00086033641 -0.0047588237
-0.017706186 -0.0018435781 -0.0088588241
0.02059699 -0.0011061468 0.00078823522
0.017947085 -0.0013519572 0.0019941176
0.016019881 0.0045474926 -0.0050000004
-0.020356091 -0.00086033641 -0.0037941178
-0.020837892 0.00061452604 -0.0088588241
0.024451399 -0.00036871561 -0.0052411766
-0.00493846 0.00036871561 -0.002829412
0.015538081 0.0033184404 -0.0088588241
-0.012647275 0.0011061468 -0.0042764707
-0.020115189 -0.0045474926 -0.0016235296
0.024210498 -0.0038100614 -0.00041764718
0.0068656635 0.0018435781 -0.00041764718
-0.0025294549 -0.0023351989 -0.00041764718
-0.0095155686 0.0045474926 -0.0025882355
0.023969598 0.0001229052 -0.00041764718
-0.0099973697 -0.0045474926 -0.0057235295
0.015056279 0.0045474926 -0.0033117649
0.0046975594 0.0023351989 -0.00041764718
-0.007106564 0.0030726301 -0.0088588241
-0.012888175 -0.0038100614 -0.00041764718
0.020115189 -0.00086033641 -0.0045176474
0.018910687 0.0045474926 -0.0062058829
-0.0073474646 0.0043016821 -0.00041764718
0.0042157583 0.0045474926 -0.0062058829
-0.013129076 -0.0043016821 -0.0081352945
0.0059020617 -0.0020893884 -0.0088588241
0.014815379 -0.0045474926 -0.0047588237
0.020356091 -0.00061452604 -0.00041764718
-0.0061429623 0.0045474926 -0.0030705885
0.0095155686 0.0023351989 -0.00041764718
0.018669788 0.0045474926 -0.002829412
-0.007106564 -0.0001229052 -0.0057235295
0.0034930569 0.0001229052 -0.0057235295
-0.020356091 -0.00086033641 0.0017529412
0.0034930569 -0.0045474926 -0.0054823533
0.0046975594 0.0045474926 -0.0054823533
-0.018187987 0.0043016821 -0.00041764718
-0.0095155686 0.0045474926 -0.0037941178
0.015056279 0.0045474926 -0.001864706
0.024210498 -0.00061452604 -0.0088588241
0.0085519673 -0.0023351989 -0.00041764718
-0.0025294549 -0.0013519572 -0.008617647
0.018669788 0.0038100614 -0.00041764718
0.0032521563 -0.0043016821 -0.0088588241
-0.017465284 0.0023351989 -0.00041764718
-0.00012045024 0.00086033641 -0.0088588241
-0.0068656635 -0.00061452604 -0.00041764718
0.018428886 0.0020893884 -0.00041764718
0.011201872 0.00061452604 -0.00041764718
0.02059699 -0.0025810092 -0.0088588241
0.025415 -0.0011061468 -0.0083764708
-0.00493846 -0.00036871561 -0.0088588241
0.021801492 0.00061452604 -0.00041764718
-0.0068656635 0.0013519572 -0.00041764718
0.020837892 -0.0045474926 -0.0083764708
-0.0080701662 -0.0045474926 -0.0088588241
-0.022765094 -0.0038100614 -0.00041764718
-0.021560593 0.0011061468 -0.0047588237
0.0099973697 -0.0045474926 -0.00065882364
0.003011256 -0.00086033641 -0.0054823533
0.012406374 0.0045474926 -0.008617647
0.024210498 0.0018435781 -0.0088588241
-0.0015658531 -0.00086033641 -0.0042764707
-0.022283293 -0.00086033641 -0.0050000004
0.0092746681 0.0045474926 -0.0023470591
-0.024933198 0.0015977676 -0.00041764718
0.014092678 0.0028268197 -0.0088588241
0.00493846 0.0028268197 -0.00041764718
-0.01529718 -0.0045474926 -0.0062058829
0.023246896 -0.0030726301 -0.0088588241
0.00493846 -0.0013519572 0.0017529412
0.025415 0.0013519572 -0.0023470591
-0.016019881 -0.0045474926 -0.0066882358
-0.0037339574 -0.00086033641 -0.0088588241
0.011442773 -0.0043016821 -0.00041764718
-0.019633388 0.0045474926 -0.006929412
-0.022765094 -0.0045474926 -0.0057235295
-0.01529718 0.0001229052 -0.0088588241
-0.019633388 0.0045474926 -0.0064470591
-0.012165474 -0.0045474926 -0.0037941178
-0.011442773 0.0045474926 -0.0071705887
-0.0063838628 0.00086033641 -0.00041764718
-0.020115189 -0.00061452604 -0.00041764718
0.00012045024 -0.0015977676 0.00078823522
-0.0251741 0.0028268197 -0.0062058829
-0.011201872 -0.0033184404 -0.00041764718
0.012647275 -0.00086033641 -0.0042764707
0.021319693 -0.0038100614 -0.0088588241
-0.010720071 0.0045474926 -0.0035529414
-0.016983483 0.0045474926 -0.002829412
-0.025415 -0.0023351989 -0.0025882355
0.01023827 0.0045474926 -0.0081352945
0.014333579 0.0001229052 -0.00041764718
0.024210498 -0.0043016821 -0.0033117649
-0.022524195 0.0045474926 -0.001864706
-0.014815379 0.0045474926 -0.0021058826
-0.016742583 -0.0045474926 -0.0021058826
-0.010479171 0.0045474926 -0.0040352945
-0.0046975594 -0.0023351989 -0.00041764718
0.025415 -0.0011061468 -0.001864706
0.0015658531 -0.0045474926 -0.0066882358
-0.008792867 -0.0045474926 -0.0047588237
-0.017947085 0.0045474926 -0.0013823531
-0.0013249526 -0.0045474926 -0.0025882355
-0.0042157583 0.0045474926 -0.006929412
0.0046975594 0.0033184404 -0.00041764718
0.011201872 0.0045474926 -0.00065882364
-0.023728697 -0.0015977676 -0.0088588241
0.0015658531 -0.0020893884 -0.0088588241
0.0078292657 0.0045474926 -0.002829412
0.011683673 -0.0018435781 -0.0088588241
-0.016260782 0.0001229052 -0.00041764718
0.0063838628 0.0045474926 -0.0011411766
-0.010960972 0.0028268197 -0.00041764718
0.00493846 -0.0020893884 -0.0088588241
0.025415 -0.0011061468 -0.0074117649
0.018187987 0.0011061468 -0.0052411766
-0.025415 0.0030726301 -0.0050000004
0.0078292657 -0.0045474926 -0.0064470591
-0.018910687 -0.0013519572 -0.0088588241
-0.013851778 -0.0045474926 -0.0057235295
-0.021560593 -0.0045474926 -0.0064470591
0.014815379 0.0045474926 -0.0078941183
0.0090337675 -0.0045474926 -0.002829412
-0.0015658531 -0.0045474926 -0.0054823533
0.011683673 -0.0045474926 -0.006929412
-0.0078292657 0.0045474926 -0.0059647062
0.00060225121 -0.0013519572 -0.00041764718
0.013610877 0.0045474926 -0.0035529414
0.0056611612 -0.0045474926 -0.0035529414
0.021078791 0.0028268197 -0.00041764718
0.019151587 -0.0020893884 -0.00041764718
0.013610877 0.0043016821 -0.00041764718
-0.0010840521 -0.0045474926 -0.0064470591
0.0027703554 -0.0045474926 -0.006929412
-0.012165474 0.0030726301 -0.0088588241
-0.015056279 -0.00086033641 -0.0033117649
-0.018187987 -0.0040558716 -0.0088588241
-0.0078292657 0.0015977676 0.0024764705
-0.01023827 -0.0045474926 -0.008617647
0.017465284 0.0045474926 -0.0047588237
0.00060225121 -0.00086033641 -0.0040352945
-0.0015658531 0.0033184404 -0.0083764708
-0.00084315165 0.0035642509 -0.008617647
0.010960972 0.0045474926 -0.0081352945
0.014815379 0.0011061468 -0.0052411766
-0.022765094 -0.0040558716 -0.00041764718
0.011442773 -0.0045474926 -0.0059647062
0.0027703554 -0.00036871561 -0.008617647
0.0027703554 -0.0045474926 -0.0021058826
-0.00036135071 -0.00086033641 -0.0030705885
-0.023246896 0.0043016821 -0.0016235296
-0.0039748577 -0.0045474926 -0.008617647
0.018669788 0.0045474926 -0.0066882358
0.0013249526 -0.0045474926 -0.0016235296
0.021319693 -0.00086033641 -0.0052411766
-0.0073474646 -0.0011061468 6.4705782e-05
-0.024210498 0.0043016821 -0.0062058829
-0.023005996 0.0015977676 -0.0088588241
-0.00084315165 0.0020893884 -0.008617647
0.0044566588 0.00036871561 -0.00041764718
0.0056611612 0.0038100614 -0.00041764718
-0.015778981 -0.0045474926 -0.001864706
-0.025415 0.0035642509 -0.0033117649
-0.0056611612 0.0030726301 -0.0088588241
-0.01987429 0.0035642509 -0.00041764718
-0.017706186 -0.0030726301 -0.0088588241
0.0092746681 -0.0045474926 -0.00065882364
0.016742583 -0.0045474926 -0.0023470591
-0.01987429 -0.0045474926 -0.0059647062
0.0099973697 -0.0011061468 -0.0001764707
-0.007106564 -0.0023351989 -0.0088588241
-0.0027703554 -0.0045474926 -0.0054823533
-0.0078292657 0.0018435781 -0.0088588241
-0.00036135071 0.00036871561 -0.0088588241
-0.024210498 0.0043016821 -0.0033117649
0.024933198 0.0023351989 -0.0074117649
-0.012888175 -0.0045474926 -0.0025882355
-0.025415 0.0011061468 -0.0033117649
0.016260782 -0.0045474926 -0.00065882364
0.021319693 0.0011061468 -0.0050000004
-0.017465284 0.0040558716 -0.0088588241
0.025415 -0.0018435781 -0.008617647
-0.024451399 0.0043016821 -0.0050000004
-0.007106564 -0.00086033641 -0.0042764707
0.018187987 0.0011061468 -0.0035529414
0.021560593 -0.0045474926 -0.006929412
0.00517936 0.00086033641 -0.0057235295
-0.0080701662 -0.0013519572 -0.0088588241
-0.0046975594 0.0011061468 -0.0047588237
-0.0032521563 -0.0045474926 -0.0088588241
-0.0068656635 -0.0045474926 -0.006929412
0.0066247629 -0.0045474926 -0.0011411766
-0.0054202606 -0.0015977676 -0.0088588241
0.0027703554 -0.0045474926 -0.0059647062
0.016260782 0.00036871561 -0.0088588241
0.0061429623 0.0045474926 -0.006929412
-0.0027703554 -0.0013519572 0.00054705876
0.0099973697 0.0045474926 -0.0076529416
-0.01023827 0.0030726301 -0.00041764718
-0.0018067536 -0.0040558716 -0.00041764718
0.021560593 0.0045474926 -0.0071705887
0.014333579 -0.0045474926 -0.00065882364
0.0044566588 0.0045474926 -0.0059647062
-0.011442773 0.0040558716 -0.00041764718
0.018669788 -0.0045474926 -0.0064470591
0.007106564 0.0045474926 -0.0021058826
0.0073474646 -0.0030726301 -0.00041764718
-0.018669788 0.0025810092 -0.00041764718
-0.0092746681 -0.0045474926 -0.0025882355
0.0066247629 0.0045474926 -0.0057235295
-0.0251741 0.00036871561 -0.0030705885
0.021560593 -0.0045474926 -0.0078941183
-0.01529718 0.0001229052 -0.00041764718
-0.024933198 0.0001229052 -0.00041764718
-0.00517936 0.00086033641 -0.008617647
0.0013249526 0.0011061468 -0.0088588241
-0.00060225121 0.0045474926 -0.0013823531
-0.007106564 -0.0045474926 -0.0078941183
0.011924573 -0.0045474926 -0.0042764707
0.015778981 -0.0045474926 -0.0074117649
0.0037339574 0.0045474926 -0.0081352945
0.023487797 0.0043016821 -0.0011411766
-0.0090337675 0.0045474926 -0.0076529416
0.0015658531 0.0001229052 -0.0088588241
0.0099973697 0.00061452604 -0.0054823533
-0.017947085 -0.0045474926 -0.0037941178
-0.012888175 -0.00086033641 0.00078823522
-0.007106564 0.0045474926 -0.0035529414
-0.0095155686 0.00086033641 -0.0030705885
0.012165474 -0.0045474926 -0.0050000004
0.025415 -0.0023351989 -0.0052411766
0.0054202606 0.0018435781 -0.00041764718
-0.02059699 -0.0045474926 -0.0035529414
-0.012406374 -0.0020893884 -0.00041764718
-0.003011256 0.0045474926 -0.0083764708
0.0092746681 0.0001229052 -0.0088588241
0.0034930569 -0.0045474926 -0.0045176474
0.017465284 0.0045474926 -0.0035529414
0.00084315165 -0.0020893884 -0.00041764718
0.011924573 -0.00061452604 -0.0088588241
-0.012647275 -0.0038100614 -0.00041764718
-0.021801492 -0.00036871561 -0.0030705885
-0.0085519673 -0.00086033641 -0.0047588237
-0.025415 0.0030726301 -0.0021058826
-0.025415 0.0028268197 -0.0042764707
0.022524195 0.0045474926 -0.006929412
0.011924573 -0.0045474926 -0.0088588241
-0.017706186 0.0045474926 -0.0013823531
-0.010960972 0.0030726301 -0.00041764718
-0.003011256 0.0015977676 -0.00041764718
-0.021801492 0.0018435781 -0.00041764718
-0.0097564692 0.0025810092 -0.00041764718
-0.02059699 -0.0013519572 -0.0001764707
-0.011201872 -0.00036871561 -0.0088588241
0.017706186 -0.0011061468 0.0010294117
0.0032521563 0.0015977676 -0.008617647
-0.019633388 0.0011061468 -0.0033117649
-0.014815379 0.0045474926 -0.001864706
0.016742583 0.00086033641 -0.0030705885
0.024210498 0.0043016821 -0.001864706
-0.017224384 0.00086033641 -0.0054823533
0.014815379 -0.00086033641 -0.0035529414
0.0025294549 -0.0013519572 0.0024764705
0.008792867 0.0045474926 -0.0033117649
0.007106564 0.0013519572 -0.00041764718
0.024692299 -0.00086033641 -0.0033117649
0.013851778 -0.0045474926 -0.0045176474
-0.010960972 -0.0045474926 -0.00065882364
0.023728697 0.0033184404 -0.0088588241
-0.0056611612 -0.0045474926 -0.0050000004
0.023487797 -0.0043016821 -0.0076529416
-0.024451399 -0.0020893884 -0.00041764718
-0.002047654 0.0011061468 -0.0047588237
0.00012045024 -0.0001229052 -0.0088588241
0.014333579 0.0038100614 -0.0088588241
-0.0010840521 0.0030726301 -0.00041764718
0.0251741 0.0011061468 -0.00041764718
-0.0068656635 0.0043016821 -0.0088588241
-0.00012045024 -0.0013519572 0.0012705881
0.003011256 -0.0045474926 -0.0071705887
-0.025415 0.0015977676 -0.0045176474
-0.019392489 -0.0045474926 -0.00090000016
-0.0099973697 -0.0015977676 0.0012705881
0.016501682 0.0011061468 -0.0033117649
0.019151587 -0.0018435781 -0.0088588241
-0.010960972 0.0045474926 -0.0040352945
-0.0099973697 -0.00086033641 0.0012705881
0.0063838628 -0.0045474926 -0.002829412
-0.002047654 -0.0001229052 -0.0057235295
0.022765094 0.0043016821 -0.0066882358
0.011924573 -0.0045474926 -0.0040352945
0.013851778 -0.00036871561 -0.0054823533
-0.019151587 -0.00061452604 -0.0054823533
0.00060225121 -0.0045474926 -0.0062058829
0.0095155686 -0.0045474926 -0.008617647
0.021078791 0.0035642509 -0.00041764718
0.015538081 0.0035642509 -0.00041764718
-0.014333579 -0.0045474926 -0.0059647062
0.017706186 0.0011061468 -0.0042764707
-0.015778981 0.00086033641 -0.00041764718
0.00493846 -0.00086033641 0.00078823522
0.0044566588 0.0011061468 -0.0042764707
-0.0092746681 0.0040558716 -0.00041764718
0.020356091 -0.0013519572 0.00078823522
0.012647275 -0.00061452604 -0.0088588241
0.003011256 -0.0043016821 -0.0088588241
0.008792867 -0.0038100614 -0.00041764718
0.015056279 0.0013519572 0.0019941176
0.0099973697 0.0045474926 -0.0074117649
0.01023827 -0.0025810092 -0.00041764718
0.024692299 0.0035642509 -0.0088588241
-0.018428886 -0.0045474926 -0.001864706
0.013610877 -0.0013519572 -0.00041764718
-0.0037339574 0.0045474926 -0.0059647062
0.023728697 0.00086033641 -0.0030705885
-0.0063838628 0.0001229052 -0.002829412
0.0090337675 -0.0001229052 -0.0030705885
0.01529718 0.0011061468 0.0022352941
-0.017947085 0.0035642509 -0.0088588241
-0.0085519673 0.0018435781 -0.00041764718
0.020115189 0.0011061468 -0.0052411766
0.0022885546 -0.0033184404 -0.00041764718
0.0015658531 -0.0001229052 -0.0088588241
0.013610877 0.00036871561 -0.0088588241
-0.0073474646 -0.0045474926 -0.0057235295
-0.019151587 -0.0045474926 -0.0023470591
0.01529718 0.00086033641 -0.00041764718
0.012406374 0.0011061468 0.0015117646
-0.019633388 -0.0045474926 -0.0071705887
-0.0251741 0.00061452604 -0.0081352945
0.017947085 -0.0001229052 -0.00041764718
-0.025415 -0.0020893884 -0.0047588237
-0.015056279 0.0045474926 -0.0074117649
-0.0251741 -0.0038100614 -0.0066882358
-0.015056279 -0.00086033641 -0.0030705885
-0.0018067536 -0.00086033641 -0.0045176474
-0.0095155686 -0.0045474926 -0.0040352945
0.018428886 0.0025810092 -0.0088588241
-0.002047654 0.0015977676 -0.00041764718
-0.0085519673 0.0040558716 -0.0088588241
-0.010960972 0.0011061468 -0.0088588241
0.0015658531 -0.00086033641 -0.0088588241
-0.0032521563 0.0035642509 -0.0088588241
0.01529718 0.0045474926 -0.0030705885
0.0092746681 -0.0045474926 -0.0052411766
0.012647275 -0.0015977676 0.00030588225
-0.017947085 -0.0045474926 -0.006929412
-0.016019881 0.0045474926 -0.001864706
0.0085519673 -0.0045474926 -0.00041764718
0.025415 -0.0038100614 -0.0062058829
-0.0073474646 -0.00086033641 0.0017529412
-0.00036135071 0.0011061468 -0.0037941178
-0.0099973697 0.0013519572 0.0012705881
0.0063838628 -0.00086033641 -0.0052411766
0.013369977 0.00086033641 -0.0030705885
0.024933198 0.0038100614 -0.0071705887
0.014333579 -0.0045474926 -0.0016235296
0.0018067536 0.0045474926 -0.00090000016
-0.016260782 -0.0045474926 -0.00065882364
-0.020356091 -0.0045474926 -0.0064470591
-0.0010840521 0.0045474926 -0.0054823533
-0.0078292657 -0.0045474926 -0.0037941178
0.00493846 0.0045474926 -0.0052411766
0.024210498 0.0001229052 -0.0030705885
-0.024692299 -0.0043016821 -0.0074117649
0.0044566588 -0.0011061468 -0.0088588241
-0.0022885546 0.0045474926 -0.0076529416
0.020115189 0.0013519572 0.002717647
0.00084315165 -0.0030726301 -0.0088588241
-0.0018067536 0.0035642509 -0.008617647
0.003011256 0.00036871561 -0.008617647
-0.025415 0.0030726301 -0.0057235295
0.0075883651 -0.00086033641 0.00030588225
0.014092678 0.0045474926 -0.0033117649
-0.021319693 0.0045474926 -0.0025882355
-0.011924573 -0.0045474926 -0.0040352945
0.019151587 0.0045474926 -0.002829412
-0.020356091 -0.0045474926 -0.0045176474
0.019151587 -0.00086033641 -0.0033117649
0.010960972 -0.00086033641 -0.0045176474
0.022524195 0.0011061468 -0.0035529414
0.00493846 0.0045474926 -0.0045176474
0.013369977 0.0045474926 -0.0062058829
-0.016501682 0.0045474926 -0.0054823533
0.021078791 0.0011061468 -0.0033117649
0.0078292657 0.0038100614 -0.00041764718
0.0068656635 0.0045474926 -0.0021058826
-0.0025294549 0.0043016821 -0.0088588241
0.0078292657 0.00036871561 -0.0057235295
-0.0044566588 -0.0011061468 -0.00041764718
-0.011683673 0.0043016821 -0.0088588241
-0.017465284 -0.0020893884 -0.0088588241
-0.016501682 -0.0043016821 -0.0083764708
0.0063838628 -0.0045474926 -0.0011411766
0.01529718 -0.0045474926 -0.0042764707
0.0095155686 0.0045474926 -0.0013823531
0.0073474646 0.0015977676 0.00054705876
-0.018910687 -0.0045474926 -0.0011411766
0.002047654 -0.0045474926 -0.0033117649
-0.014333579 0.0045474926 -0.0023470591
-0.019151587 0.0045474926 -0.0045176474
0.0075883651 0.0001229052 -0.00041764718
0.0025294549 -0.0013519572 0.002717647
-0.0039748577 0.0028268197 -0.00041764718
0.0032521563 -0.0013519572 -0.0088588241
0.0039748577 0.0025810092 -0.00041764718
0.014815379 0.00036871561 -0.00041764718
0.0059020617 0.0045474926 -0.0059647062
-0.0042157583 -0.0015977676 -0.0088588241
0.013851778 -0.0043016821 -0.00041764718
0.018428886 0.0011061468 -0.0037941178
0.0018067536 -0.00036871561 -0.0088588241
0.014092678 -0.00086033641 -0.0047588237
0.02059699 0.0011061468 -0.0047588237
0.018669788 0.0045474926 -0.0030705885
-0.014092678 -0.0045474926 -0.00041764718
0.015778981 -0.0045474926 -0.0042764707
0.019392489 -0.0045474926 -0.00065882364
0.00012045024 -0.0013519572 0.00054705876
-0.023487797 0.0043016821 -0.0030705885
-0.016019881 0.00061452604 -0.0054823533
-0.015778981 0.0023351989 -0.00041764718
0.0251741 -0.0043016821 -0.002829412
-0.023728697 0.0028268197 -0.0088588241
0.0015658531 -0.0011061468 -0.00041764718
0.018428886 -0.00086033641 -0.0052411766
0.023728697 -0.0020893884 -0.0088588241
-0.025415 -0.00036871561 -0.0062058829
0.002047654 0.00086033641 -0.002829412
0.012406374 0.0015977676 0.00078823522
-0.017224384 0.0045474926 -0.0078941183
0.022283293 -0.0001229052 -0.0030705885
-0.0073474646 -0.0013519572 0.0010294117
0.023969598 -0.0013519572 -0.00041764718
0.011924573 -0.00086033641 -0.0052411766
0.0056611612 0.0045474926 -0.00065882364
0.017465284 0.0015977676 0.0017529412
0.0034930569 -0.0045474926 -0.0078941183
-0.011201872 0.0045474926 -0.0035529414
-0.010479171 -0.0001229052 -0.00041764718
0.016983483 0.0045474926 -0.0030705885
-0.00517936 -0.00061452604 -0.002829412
0.024451399 0.0011061468 -0.0047588237
-0.0075883651 -0.0045474926 -0.0013823531
-0.0251741 0.0030726301 -0.0081352945
0.0059020617 -0.0030726301 -0.0088588241
-0.025415 -0.0020893884 -0.0045176474
-0.022524195 0.0011061468 -0.0050000004
-0.020356091 -0.0045474926 -0.0066882358
-0.0044566588 -0.0035642509 -0.0088588241
-0.0025294549 0.0045474926 -0.0059647062
-0.010720071 -0.0045474926 -0.001864706
-0.0042157583 -0.00086033641 -0.0040352945
-0.00517936 -0.0045474926 -0.00041764718
-0.024692299 -0.0043016821 -0.0076529416
-0.022283293 0.0033184404 -0.00041764718
-0.014092678 -0.00061452604 -0.0054823533
-0.022283293 -0.0038100614 -0.00041764718
0.016019881 0.0045474926 -0.0071705887
0.0078292657 -0.0011061468 0.0012705881
-0.017947085 0.0020893884 -0.0088588241
0.020115189 0.00061452604 -0.0030705885
0.019633388 0.0011061468 -0.0040352945
-0.0080701662 -0.0001229052 -0.0057235295
0.022524195 -0.0045474926 -0.0059647062
0.00517936 0.0013519572 -0.0088588241
-0.0068656635 -0.0045474926 -0.0037941178
0.0027703554 -0.0020893884 -0.00041764718
0.0073474646 0.0045474926 -0.0045176474
0.02059699 -0.0045474926 -0.0013823531
0.0034930569 0.0015977676 -0.00041764718
-0.023969598 -0.0043016821 -0.0054823533
0.0078292657 0.00036871561 -0.0088588241
-0.00012045024 -0.0013519572 0.0019941176
-0.011442773 0.00086033641 -0.0088588241
-0.0063838628 0.0025810092 -0.0088588241
0.0037339574 0.00061452604 -0.0057235295
0.023969598 0.0033184404 -0.0088588241
-0.0022885546 -0.0045474926 -0.0074117649
0.0075883651 0.0045474926 -0.0057235295
-0.021319693 -0.0045474926 -0.0064470591
0.0061429623 0.0045474926 -0.0023470591
0.011683673 0.0038100614 -0.0088588241
0.0083110668 0.0045474926 -0.0057235295
-0.024692299 -0.0040558716 -0.00041764718
-0.014333579 0.0011061468 -0.0050000004
0.0068656635 -0.00086033641 -0.0054823533
0.020356091 -0.0045474926 -0.0037941178
-0.016019881 0.0045474926 -0.0071705887
-0.012165474 -0.00061452604 -0.0088588241
-0.017465284 0.0045474926 -0.00041764718
0.0251741 0.0001229052 -0.0076529416
-0.023728697 0.0023351989 -0.0088588241
-0.020356091 -0.0045474926 -0.0021058826
0.016260782 0.0015977676 -0.00041764718
0.012647275 -0.0011061468 0.00030588225
0.015778981 -0.00086033641 -0.0050000004
-0.011924573 0.0045474926 -0.00090000016
0.021560593 -0.0045474926 -0.00041764718
0.0027703554 -0.0013519572 0.00030588225
-0.015778981 -0.0035642509 -0.0088588241
0.021078791 0.0045474926 -0.0016235296
0.018669788 -0.0020893884 -0.0088588241
-0.015778981 0.0023351989 -0.0088588241
0.011201872 0.0045474926 -0.0062058829
-0.0042157583 -0.0038100614 -0.00041764718
-0.017224384 -0.0020893884 -0.00041764718
-0.01023827 -0.0045474926 -0.0054823533
-0.017465284 -0.00036871561 -0.002829412
-0.015778981 -0.00086033641 -0.0045176474
-0.019151587 0.0045474926 -0.00065882364
-0.025415 0.0033184404 -0.0078941183
-0.019633388 -0.0045474926 -0.0011411766
0.020356091 0.0001229052 -0.00041764718
0.0027703554 0.0011061468 -0.0030705885
-0.022283293 -0.0038100614 -0.0088588241
0.012888175 0.0001229052 -0.0030705885
0.0037339574 0.0015977676 -0.00041764718
0.016501682 -0.0018435781 -0.00041764718
-0.00036135071 -0.0045474926 -0.0088588241
-0.007106564 0.0045474926 -0.0037941178
-0.025415 -0.0038100614 -0.0016235296
0.017947085 0.0011061468 -0.0040352945
0.011201872 -0.00061452604 -0.0054823533
-0.0083110668 0.0040558716 -0.0088588241
-0.0022885546 -0.0045474926 -0.0047588237
-0.017947085 0.0045474926 -0.0081352945
0.0083110668 0.0045474926 -0.0074117649
0.00517936 0.0043016821 -0.0088588241
-0.021560593 -0.00061452604 -0.00041764718
-0.022283293 0.0013519572 -0.0088588241
0.0054202606 -0.0001229052 -0.0057235295
-0.011924573 -0.0045474926 -0.0074117649
0.016501682 -0.0045474926 -0.0035529414
-0.0078292657 -0.0023351989 -0.0088588241
-0.0018067536 0.00036871561 -0.0057235295
-0.01529718 -0.00036871561 -0.0054823533
0.0044566588 0.00086033641 -0.00041764718
-0.0075883651 -0.00086033641 -0.0045176474
0.017224384 -0.0045474926 -0.0011411766
0.011201872 0.0018435781 -0.00041764718
0.0010840521 -0.0045474926 -0.0059647062
0.014333579 0.0045474926 -0.0064470591
0.0015658531 0.0045474926 -0.0033117649
0.01529718 -0.0045474926 -0.0064470591
-0.018910687 -0.00036871561 -0.0030705885
-0.020356091 -0.0045474926 -0.0033117649
-0.020115189 0.00036871561 -0.0054823533
0.023728697 -0.0040558716 -0.00041764718
-0.022042394 0.0045474926 -0.0083764708
0.01529718 -0.0011061468 -0.0001764707
-0.0251741 0.0043016821 -0.002829412
-0.014815379 0.0045474926 -0.0025882355
-0.00012045024 -0.0045474926 -0.006929412
0.025415 0.0035642509 -0.0033117649
0.018187987 0.0011061468 -0.00041764718
-0.020837892 -0.0045474926 -0.0050000004
-0.008792867 0.0011061468 -0.0033117649
0.01023827 0.0045474926 -0.0030705885
0.0068656635 0.0045474926 -0.0033117649
-0.015056279 -0.0045474926 -0.0030705885
0.0073474646 -0.0045474926 -0.0016235296
-0.010720071 0.0045474926 -0.0037941178
0.0075883651 0.0011061468 6.4705782e-05
-0.021078791 0.0011061468 -0.0035529414
-0.010479171 -0.0045474926 -0.0023470591
-0.017706186 -0.0045474926 -0.0025882355
0.02059699 -0.00036871561 -0.0030705885
0.017947085 0.0045474926 -0.00065882364
0.023246896 0.0043016821 -0.0074117649
0.012647275 -0.0045474926 -0.0057235295
-0.015056279 -0.00086033641 0.0022352941
-0.021078791 -0.0045474926 -0.0071705887
-0.020115189 -0.00036871561 -0.00041764718
-0.012165474 -0.0028268197 -0.00041764718
-0.011924573 -0.0045474926 -0.0037941178
-0.0073474646 -0.0045474926 -0.0013823531
-0.00517936 0.0011061468 0.0019941176
-0.013610877 -0.0001229052 -0.0088588241
-0.00012045024 -0.0045474926 -0.0013823531
0.024933198 -0.00086033641 -0.0037941178
0.025415 -0.0035642509 -0.0052411766
0.003011256 -0.0045474926 -0.0033117649
-0.0015658531 0.0023351989 -0.00041764718
0.014333579 0.0035642509 -0.0088588241
-0.00084315165 0.0025810092 -0.008617647
0.0251741 0.0043016821 -0.0050000004
-0.023728697 -0.0001229052 -0.0030705885
0.00012045024 -0.00086033641 0.0024764705
-0.023969598 -0.00061452604 -0.0030705885
0.025415 -0.0040558716 -0.0016235296
-0.0099973697 0.00086033641 -0.0054823533
0.025415 -0.0013519572 -0.0035529414
0.00084315165 -0.0045474926 -0.0045176474
-0.011442773 0.0011061468 -0.0033117649
-0.017947085 -0.00061452604 -0.0088588241
0.015538081 0.0045474926 -0.0052411766
-0.024933198 0.0023351989 -0.0088588241
-0.020837892 0.0045474926 -0.0064470591
0.0099973697 0.0015977676 0.0010294117
-0.007106564 0.0045474926 -0.0062058829
0.019392489 -0.0033184404 -0.0088588241
0.015056279 -0.0043016821 -0.00041764718
0.0056611612 -0.0030726301 -0.00041764718
0.010720071 -0.0025810092 -0.0088588241
-0.020837892 -0.0015977676 -0.00041764718
-0.02059699 0.0011061468 0.002717647
-0.012888175 -0.0045474926 -0.0037941178
-0.020837892 -0.0043016821 -0.0083764708
-0.013610877 0.0030726301 -0.0088588241
0.017465284 0.0018435781 -0.00041764718
0.017465284 -0.0011061468 -0.0088588241
-0.003011256 -0.0038100614 -0.0088588241
