# .PCD v0.7 - Point Cloud Data file format
VERSION 0.7
FIELDS x y z
SIZE 4 4 4
TYPE F F F
COUNT 1 1 1
WIDTH 1185
HEIGHT 1
VIEWPOINT 0 0 0 1 0 0 0
POINTS 1185
DATA ascii
0.004289404 0.0018108001 -0.0004604081
-0.002977351 -0.0025150001 -0.0016738775
0.0066107283 0.0025150001 -0.00086489791
-0.0070144371 -0.0025150001 -0.005617653
-0.0061060926 -0.0012072 0.00024744906
0.0076200003 0.0016096 -0.0058198981
-0.0021699339 0.0021126 -0.00035928565
-0.00095880794 -0.0017102001 -0.0066288775
-0.0055005299 0.0025150001 -0.0004604081
0.0064088744 0.0025150001 -0.0044041835
-0.0076200003 -0.0011066 -0.0031907142
-0.0019680795 0.0025150001 -0.0058198981
-0.001665298 -0.00090540003 -0.0066288775
0.0076200003 -0.0001006 -0.0022806122
-0.0073172185 -0.0021126 -0.0002581632
-0.0012615895 0.0003018 -0.00056153053
0.0056014569 -0.0006036 -0.0004604081
0.0032801325 0.00040240001 -0.0004604081
-0.0038856955 -0.0025150001 -0.001572755
0.0033810597 0.0015090001 -0.00015704075
0.00620702 0.0012072 0.0011575511
0.0040875496 -0.00080480002 -0.0065277549
0.0021699339 -0.0025150001 -0.0024828571
0.0014634437 0.0025150001 -0.0013705102
0.001665298 0.0013078001 -0.0066288775
0.0076200003 -0.0010060001 -0.0054154079
-0.0038856955 0.0012072 0.00034857151
0.0076200003 0.0014084 -0.0053142859
-0.0057023843 0.0003018 -0.0004604081
-0.0040875496 -0.0025150001 -0.0002581632
0.0076200003 0.0012072 -0.0039996938
0.0076200003 0.0016096 -0.0025839796
-0.00055509934 -0.0016096 -0.00035928565
0.0037847683 -0.0017102001 -0.0004604081
0.0027754968 0.0025150001 -0.00076377543
0.0020690067 0.0025150001 -0.0014716326
0.0068125827 -0.0003018 -0.0066288775
-0.0058033112 -0.0025150001 -0.0063255103
-0.0021699339 0.0025150001 -0.0061232653
0.0019680795 0.0018108001 -0.0066288775
0.002371788 0.0013078001 -0.00035928565
0.0056014569 0.0003018 -0.0066288775
0.0013625165 -0.0025150001 -0.0041008163
-0.00620702 0.0025150001 -0.00066265301
-0.0039866227 -0.0025150001 -0.00066265301
-0.0013625165 -0.0012072 0.0012586735
0.0076200003 0.0012072 -0.0057187756
0.0011606623 -0.0025150001 -0.0060221427
0.0073172185 -0.0024144 -0.0037974489
-0.0058033112 -0.0011066 -0.0066288775
0.0048949667 -0.00070420001 -0.0065277549
0.0017662252 0.0023138002 -5.5918299e-05
0.004289404 -0.0025150001 -0.00086489791
-0.0035829139 0.0012072 -5.5918299e-05
0.0069135102 -0.0025150001 -0.0019772449
-0.0044912584 0.0003018 -0.0065277549
0.0036838411 0.0021126 -0.0066288775
0.0027754968 0.0011066 -0.0004604081
-0.0076200003 0.00050300005 -0.0036963264
0.0069135102 -0.0025150001 -0.0058198981
0.0076200003 -0.0014084 -0.0053142859
-0.0055005299 0.0013078001 -0.00035928565
-0.00075695367 -0.0012072 -0.0066288775
0.0076200003 -0.0020120002 -0.0022806122
-0.004390331 0.0001006 -0.0004604081
-0.00095880794 -0.0025150001 -0.0021794897
-0.0037847683 0.0023138002 -0.0065277549
-0.00055509934 0.0025150001 -0.0046064286
0.0037847683 0.0025150001 -0.00096602034
0.00025231787 -0.0025150001 -0.0051120408
-0.0025736424 0.0025150001 -0.0046064286
-0.0055005299 -0.0021126 -0.0002581632
0.0018671523 0.0025150001 -0.001572755
-0.0057023843 -0.0025150001 -0.0058198981
0.0076200003 -0.00080480002 -0.0063255103
-0.0045921854 0.0013078001 -0.00035928565
0.00025231787 0.0013078001 -0.0066288775
0.0076200003 -0.0014084 -0.0027862245
0.0034819867 0.0025150001 -0.0023817345
-0.0038856955 0.0018108001 -0.0004604081
0.0076200003 0.00050300005 -0.0014716326
-0.002371788 0.00040240001 -0.0004604081
-0.00095880794 -0.0025150001 -0.0050109182
-0.0076200003 0.0006036 -0.0046064286
-0.0039866227 0.0012072 0.0026743878
-0.0061060926 0.0025150001 -0.0034940816
0.0033810597 0.0025150001 -0.0012693877
-0.0059042387 0.0025150001 -0.0027862245
-0.0020690067 -0.0011066 -0.0066288775
0.0017662252 0.0025150001 -0.005617653
0.0010597351 -0.0025150001 -0.0033929592
-0.0076200003 0.0016096 -0.0019772449
-0.0066107283 -0.0012072 0.00014632659
-0.0010597351 0.0020120002 -0.0066288775
-0.0025736424 -0.0025150001 -0.0047075511
-0.0049958942 -0.0021126 -0.00035928565
0.0074181459 0.0017102001 -0.0065277549
0.0061060926 0.0025150001 -0.0060221427
-0.0040875496 -0.0025150001 -0.0019772449
-0.0076200003 -0.0017102001 -0.0020783674
-0.0076200003 -0.00090540003 -0.0030895919
-0.0036838411 0.0012072 4.520415e-05
-0.0020690067 -0.0025150001 -0.0013705102
-0.0076200003 0.0006036 -0.0014716326
0.0004541722 0.0025150001 -0.0059210202
0.0014634437 -0.0025150001 -0.0055165305
-0.00055509934 -0.0025150001 -0.0051120408
0.0050968211 -0.0010060001 -0.0004604081
0.0055005299 -0.0025150001 -0.00015704075
0.0076200003 -0.0001006 -0.002887347
-0.0070144371 -0.0025150001 -0.0021794897
-0.002977351 -0.0018108001 -0.0004604081
0.0076200003 -0.0010060001 -0.0042019389
-0.0076200003 -0.0016096 -0.00096602034
-0.0074181459 -0.0012072 -0.0065277549
-0.0028764238 -0.0025150001 -0.0027862245
0.0024727152 -0.0019114001 -0.0065277549
-0.0076200003 -0.0017102001 -0.0023817345
-0.0004541722 -0.0025150001 -0.0020783674
0.0035829139 0.00040240001 -0.0066288775
-0.0019680795 0.0002012 -0.0004604081
0.0045921854 0.0025150001 -0.0031907142
0.00065602647 0.0025150001 -0.0061232653
0.0076200003 0.00050300005 -0.0017749999
0.0035829139 0.0013078001 0.00095530623
-0.0076200003 0.00040240001 -0.0029884693
-0.0020690067 0.0025150001 -0.00066265301
0.0051977485 0.0019114001 -0.0066288775
0.0008578808 -0.0021126 -0.00035928565
-0.0071153645 0.0020120002 -0.0004604081
-0.0075190729 0.0022132001 -0.0058198981
-0.0039866227 -0.0013078001 0.001359796
0.0038856955 -0.0025150001 -0.0043030614
-0.0065098014 0.0012072 0.00014632659
-0.002977351 0.0015090001 -0.00015704075
-0.0076200003 0.0018108001 -0.0025839796
-0.0076200003 0.0001006 -0.001572755
0.0076200003 -0.0019114001 -0.0055165305
-5.0463575e-05 -0.0025150001 -0.0030895919
-0.0045921854 0.0025150001 -0.0019772449
0.0056014569 -0.0010060001 -0.0065277549
-0.0020690067 -0.0025150001 -0.0031907142
-0.0056014569 0.0025150001 -0.0046064286
-0.0076200003 0.0002012 -0.0039996938
0.0041884771 0.00080480002 -0.00056153053
-0.0076200003 0.0016096 -0.0030895919
0.0048949667 -0.0025150001 -0.00076377543
0.0074181459 0.0025150001 -0.0063255103
0.0049958942 -0.0025150001 -0.0024828571
-0.006307947 0.0010060001 -0.0065277549
-0.0076200003 -0.0014084 -0.0060221427
-0.006307947 0.0013078001 4.520415e-05
0.004289404 0.0025150001 -0.0013705102
0.00025231787 0.0025150001 -0.0044041835
-0.00025231787 0.0006036 -0.00056153053
0.00055509934 -0.0025150001 -0.00076377543
-0.0015643709 -0.00090540003 -0.00056153053
-0.00015139073 0.0025150001 -0.0044041835
0.004289404 0.0025150001 -0.005617653
-0.0032801325 0.0025150001 -0.0055165305
0.0021699339 -0.0015090001 -0.0002581632
0.0076200003 -0.0002012 -0.005617653
-0.0022708611 0.0025150001 -0.0061232653
-0.00055509934 -0.0022132001 -0.0002581632
-0.0027754968 -0.0025150001 -0.0050109182
0.0038856955 0.0025150001 -0.0055165305
-0.0027754968 -0.0023138002 -0.0065277549
0.0076200003 0.00070420001 -0.0039996938
0.0076200003 0.0022132001 -0.0059210202
0.00620702 -0.0025150001 -0.0052131633
0.0055005299 -0.0025150001 -0.0014716326
-0.0038856955 0.0012072 0.0010564286
-0.0015643709 0.0025150001 -0.0013705102
-0.0014634437 0.0013078001 0.0019665307
0.0021699339 -0.00080480002 -0.0066288775
-0.0049958942 0.0025150001 -0.0019772449
0.0004541722 -0.0018108001 -0.00056153053
0.0076200003 -0.0015090001 -0.0048086736
0.00015139073 -0.0025150001 -0.0033929592
-0.0036838411 -0.0025150001 -0.0054154079
-0.0008578808 -0.0021126 -0.0066288775
0.0027754968 -0.00050300005 -0.0066288775
0.0060051656 -0.0025150001 -0.0058198981
0.0060051656 -0.0025150001 -0.0035952041
0.0051977485 -0.0025150001 -0.0010671428
0.0051977485 -0.0010060001 -0.0065277549
0.006307947 -0.0014084 -0.0065277549
-0.0034819867 -0.0025150001 -0.00086489791
0.0020690067 -0.0025150001 -0.0022806122
-0.004390331 0.0025150001 -0.0051120408
-0.0055005299 0.0025150001 -0.0044041835
-0.0010597351 0.0013078001 -0.0004604081
0.0073172185 -0.0024144 -0.00096602034
-0.00015139073 -0.0018108001 -0.0066288775
-0.0049958942 -0.0025150001 -0.0042019389
-0.0035829139 0.0013078001 0.0022698981
-0.00015139073 0.0025150001 -0.0064266329
0.0076200003 0.00080480002 -0.0010671428
-0.0019680795 -0.0025150001 -0.0032918367
0.0011606623 0.00040240001 -0.0066288775
-0.006307947 0.0012072 -5.5918299e-05
0.0013625165 0.00050300005 -0.0066288775
-0.0038856955 -0.0025150001 -0.0063255103
-0.0040875496 -0.0025150001 -0.0052131633
0.0076200003 0.00090540003 -0.00066265301
0.0020690067 0.0011066 -0.0004604081
0.0056014569 0.0025150001 -0.0023817345
0.0075190729 0.0023138002 -0.00035928565
0.0076200003 0.00070420001 -0.005617653
-0.0067116558 -0.0011066 -0.00056153053
0.0019680795 0.0025150001 -0.0064266329
-0.0015643709 -0.0020120002 -0.0004604081
-0.0020690067 -0.0025150001 -0.0030895919
0.0046931128 -0.0025150001 -0.005617653
-0.0039866227 -0.00090540003 -0.0066288775
-0.0057023843 -0.0025150001 -0.0029884693
-0.0047940398 0.0025150001 -0.0057187756
-0.00025231787 -0.0012072 -5.5918299e-05
0.0018671523 0.0006036 -0.0004604081
0.0045921854 0.0022132001 -0.0065277549
-0.0076200003 -0.0002012 -0.0041008163
0.0033810597 -0.0016096 -0.0065277549
-0.004390331 -0.0019114001 -0.0066288775
0.0033810597 0.0013078001 -0.0066288775
0.0032801325 0.0022132001 -0.00015704075
-0.0022708611 0.0013078001 -5.5918299e-05
-0.0037847683 0.0012072 0.0019665307
-0.00055509934 0.0019114001 -0.00056153053
-0.0046931128 -0.0025150001 -0.0004604081
-0.0056014569 -0.0022132001 -0.00015704075
-0.0076200003 -0.0021126 -0.0024828571
0.0017662252 0.0012072 -0.00015704075
-0.0039866227 0.0025150001 -0.0054154079
-0.0058033112 0.0025150001 -0.0053142859
0.0040875496 -0.0025150001 -0.0059210202
0.0076200003 -0.0006036 -0.0032918367
-0.0046931128 -0.00080480002 -0.00056153053
-0.006307947 -0.0025150001 -0.0021794897
0.0047940398 0.0025150001 -0.0030895919
0.00620702 -0.0024144 -0.00015704075
-0.0037847683 -0.0012072 0.0012586735
-0.0020690067 0.0025150001 -0.00086489791
-0.00015139073 0.0003018 -0.0066288775
0.0039866227 -0.0012072 0.00095530623
-0.0037847683 -0.0013078001 0.0027755103
-0.0022708611 -0.0003018 -0.00056153053
0.0072162915 -0.0014084 -0.0065277549
-0.0031792053 0.0006036 -0.0066288775
0.0057023843 0.0023138002 -0.0066288775
-0.0072162915 0.0016096 -0.0065277549
0.0019680795 0.0015090001 -0.0002581632
0.0027754968 0.0019114001 -0.0066288775
0.0064088744 -0.0001006 -0.0066288775
-0.0024727152 -0.0025150001 -0.0035952041
-0.0032801325 -0.0024144 -0.0065277549
-0.0011606623 0.0021126 -0.0066288775
-0.0057023843 -0.0015090001 -0.00035928565
-0.0053996029 -0.0025150001 -0.0065277549
-0.0010597351 -0.0025150001 -0.004505306
-0.0076200003 0.00070420001 -0.005617653
-0.002371788 0.0019114001 -0.0004604081
0.0031792053 -0.0025150001 -0.0029884693
0.0045921854 -0.0025150001 -0.00035928565
-0.0058033112 -0.0025150001 -0.0051120408
0.0030782782 -0.0025150001 -0.001572755
0.006307947 -0.0021126 -0.00035928565
0.0052986755 -0.0025150001 -0.0027862245
-0.0046931128 -0.0025150001 -0.0023817345
-0.0035829139 -0.0025150001 -0.0002581632
-0.0012615895 0.0025150001 -0.001572755
0.0060051656 -0.0025150001 -0.0049097957
-0.0018671523 -0.0022132001 -0.0066288775
0.0037847683 0.0002012 -0.0004604081
0.0070144371 0.00050300005 -0.0004604081
0.0068125827 0.0002012 -0.0065277549
-0.0053996029 -0.0025150001 -0.00056153053
-0.0028764238 0.0025150001 -0.0051120408
0.0025736424 -0.0025150001 -0.0043030614
0.001665298 -0.0002012 -0.0004604081
-0.0041884771 0.0003018 -0.0066288775
0.0004541722 -0.00040240001 -0.00056153053
-0.0008578808 -0.0025150001 -0.0050109182
0.0060051656 -0.0025150001 -0.0017749999
-0.0031792053 0.0025150001 -0.0024828571
0.0076200003 0.0013078001 -0.0051120408
-0.0076200003 -0.0012072 -0.0012693877
-0.00035324504 0.0014084 -5.5918299e-05
5.0463575e-05 -0.0006036 -0.0066288775
-0.0015643709 -0.0025150001 -0.0044041835
-0.0032801325 -0.0025150001 -0.0054154079
0.0058033112 0.0025150001 -0.0012693877
-0.0032801325 0.0015090001 -0.00015704075
-0.0076200003 0.0002012 -0.0036963264
-0.0076200003 -0.0021126 -0.0027862245
-0.0041884771 -0.0019114001 -0.0066288775
5.0463575e-05 -0.0025150001 -0.00096602034
-0.0038856955 -0.0019114001 -0.0004604081
-0.00025231787 0.0024144 -5.5918299e-05
-0.0014634437 0.0016096 -0.0066288775
0.0076200003 -0.0012072 -0.0043030614
0.002977351 0.0016096 -0.0066288775
0.00620702 0.0011066 -0.0066288775
0.0024727152 -0.0025150001 -0.0050109182
-0.0076200003 -0.0012072 -0.005617653
-0.0031792053 -0.0012072 -5.5918299e-05
0.0013625165 0.0014084 0.0010564286
0.004289404 0.0010060001 -0.0004604081
-0.0012615895 -0.0013078001 0.0010564286
-0.0069135102 -0.0016096 -0.0004604081
0.0040875496 0.0019114001 -0.0004604081
-0.0076200003 0.0014084 -0.0023817345
0.0060051656 -0.0025150001 -0.0010671428
0.0028764238 0.0025150001 -0.0060221427
-0.0069135102 -0.0002012 -0.0004604081
-0.0013625165 -0.0023138002 -5.5918299e-05
5.0463575e-05 0.0015090001 -0.0002581632
0.0034819867 -0.0025150001 -0.0046064286
0.0036838411 -0.0017102001 -0.0004604081
0.00015139073 -0.0006036 -0.00056153053
0.0032801325 -0.0025150001 -0.0019772449
0.0076200003 -0.0006036 -0.0041008163
-0.0039866227 -0.0013078001 0.0010564286
-0.002977351 -0.0025150001 -0.0041008163
0.00015139073 0.0016096 -0.0066288775
0.0025736424 -0.0025150001 -0.0026851019
-0.0076200003 -0.0016096 -0.0041008163
-0.0049958942 0.0023138002 -5.5918299e-05
-0.0024727152 -0.0016096 -0.0066288775
-0.0067116558 -0.0006036 -0.0065277549
-0.0019680795 0.0025150001 -0.0062243878
0.0037847683 0.0012072 0.00085418375
-0.0011606623 0.0025150001 -0.0011682652
-0.0056014569 0.0025150001 -0.00066265301
-0.0038856955 -0.0025150001 -0.00096602034
0.0050968211 0.0025150001 -0.0018761224
0.0027754968 0.0012072 -0.00015704075
-0.0040875496 -0.00090540003 -0.00056153053
0.0049958942 -0.0025150001 -0.0012693877
-0.0076200003 0.0016096 -0.00096602034
0.0053996029 -0.0025150001 -0.0036963264
-0.0044912584 0.0025150001 -0.0016738775
-0.0027754968 0.0025150001 -0.0019772449
0.0076200003 -0.0020120002 -0.00086489791
-0.0018671523 0.0006036 -0.0004604081
-0.0038856955 -0.0012072 0.0025732655
-0.0076200003 0.0016096 -0.0061232653
0.0071153645 0.0025150001 -0.0029884693
0.0013625165 0.0012072 0.0012586735
-0.0027754968 -0.0025150001 -0.0061232653
-0.00065602647 0.0025150001 -0.00096602034
-0.00035324504 -0.0025150001 -0.0065277549
0.0053996029 0.0015090001 -0.0002581632
0.0011606623 -0.0011066 0.0012586735
0.0076200003 -0.0017102001 -0.0060221427
0.0066107283 -0.0012072 0.001359796
-0.0037847683 0.0025150001 -0.0042019389
-0.0053996029 0.0024144 -0.00015704075
-0.0065098014 -0.0012072 0.0012586735
-0.0019680795 0.0025150001 -0.0043030614
0.00065602647 0.0025150001 -0.0059210202
0.0074181459 -0.0024144 -0.0035952041
0.0073172185 -0.0015090001 -0.0002581632
0.0071153645 -0.0017102001 -0.0004604081
-0.0035829139 -0.0025150001 -0.0054154079
-0.0024727152 -0.0021126 -0.00035928565
-0.0076200003 -0.0014084 -0.0041008163
-0.0076200003 -0.0006036 -0.0059210202
-0.0017662252 0.0023138002 -0.0065277549
-0.0052986755 0.0025150001 -0.0035952041
0.0011606623 -0.0025150001 -0.0051120408
-0.0026745696 -0.0015090001 -0.00015704075
-0.0058033112 -0.0010060001 -0.00056153053
-0.0012615895 -0.0025150001 -0.00035928565
0.0076200003 -0.0023138002 -0.0032918367
-0.0049958942 0.0025150001 -0.0012693877
-0.0046931128 -0.0020120002 -0.0066288775
0.0076200003 -0.0020120002 -0.0032918367
-0.0034819867 0.0015090001 -0.00015704075
-0.0013625165 -0.0025150001 -0.0031907142
-0.0033810597 0.0025150001 -0.0064266329
0.0065098014 0.0025150001 -0.0019772449
0.00055509934 0.0025150001 -0.0031907142
0.0036838411 0.0025150001 -0.0048086736
-0.0020690067 -0.0025150001 -0.0059210202
-0.0041884771 -0.0001006 -0.0066288775
-0.0068125827 0.0010060001 -0.0065277549
-0.002977351 0.0013078001 -0.00035928565
-0.00065602647 0.0003018 -0.00056153053
-0.002371788 -0.0011066 -0.0066288775
0.0028764238 -0.0025150001 -0.0062243878
0.0074181459 0.0022132001 -0.00015704075
0.0056014569 0.0025150001 -0.0048086736
0.0010597351 -0.0016096 -0.00035928565
0.0061060926 0.0006036 -0.0004604081
5.0463575e-05 -0.0025150001 -0.0031907142
0.0044912584 0.0025150001 -0.0021794897
-0.00025231787 0.0025150001 -0.00056153053
-0.0048949667 0.00050300005 -0.0004604081
0.0074181459 0.0018108001 -0.0004604081
0.0076200003 -0.0019114001 -0.0059210202
0.0076200003 -0.00040240001 -0.0043030614
0.0026745696 -0.0025150001 -0.0029884693
0.0032801325 0.0015090001 -0.00015704075
-0.0004541722 -0.0025150001 -0.0021794897
-0.0024727152 0.00090540003 -0.0066288775
-0.0031792053 0.0025150001 -0.0064266329
-0.00065602647 0.0025150001 -0.00015704075
-0.0010597351 0.0025150001 -0.0054154079
-0.004289404 -0.0013078001 -5.5918299e-05
0.00075695367 0.0010060001 -0.00056153053
0.0050968211 -0.0025150001 -0.0051120408
0.00015139073 -0.0025150001 -0.0043030614
0.0037847683 0.0013078001 0.0020676532
0.0039866227 -0.0019114001 -0.0065277549
-0.0014634437 -0.0001006 -0.0004604081
0.0039866227 0.0001006 -0.0066288775
-0.0066107283 -0.0015090001 -0.0066288775
-0.0035829139 -0.0025150001 -0.0016738775
0.0040875496 -0.0025150001 -0.00015704075
0.0013625165 0.0014084 0.00095530623
0.0004541722 -0.0025150001 -0.0038985715
0.0039866227 -0.0025150001 -0.0018761224
0.004289404 -0.0025150001 -0.0012693877
-0.0070144371 -0.0002012 -0.0065277549
-0.002371788 -0.0015090001 -0.0002581632
-0.0059042387 -0.00050300005 -0.0004604081
0.0031792053 -0.0025150001 -0.00086489791
0.0076200003 -0.0011066 -0.0016738775
0.0033810597 -0.0025150001 -0.0048086736
-0.0038856955 0.0013078001 0.00034857151
-0.00095880794 0.0025150001 -0.0012693877
-0.00055509934 -0.00070420001 -0.00056153053
0.0044912584 0.0025150001 -0.0027862245
-0.0011606623 0.0025150001 -0.0057187756
-0.0022708611 -0.0025150001 -0.0020783674
-0.0034819867 -0.0013078001 0.0018654083
0.00035324504 0.0021126 -0.00035928565
0.00015139073 0.0001006 -0.0066288775
0.0046931128 0.0025150001 -0.0026851019
0.0011606623 0.0025150001 -0.0055165305
-0.0076200003 0.00090540003 -0.0026851019
-0.0035829139 0.0012072 0.0011575511
0.002977351 0.0025150001 -0.004505306
-0.0076200003 -0.00080480002 -0.00086489791
0.002977351 0.0006036 -0.0066288775
-0.0031792053 0.00040240001 -0.0004604081
0.0065098014 0.0012072 0.00075306132
-0.0073172185 0.0024144 -0.0046064286
0.0076200003 0.0006036 -0.0033929592
-0.0056014569 -0.00070420001 -0.0066288775
-0.004289404 0.0025150001 -0.0019772449
-0.0030782782 -0.0025150001 -0.0065277549
-0.0013625165 -0.0025150001 -0.0052131633
0.0021699339 0.0025150001 -0.0057187756
-0.0036838411 0.0025150001 -0.0002581632
-0.0025736424 0.0025150001 -5.5918299e-05
0.0014634437 0.0025150001 -0.0044041835
-0.00065602647 -0.0025150001 -0.0054154079
-0.0076200003 0.00070420001 -0.0034940816
0.004289404 -0.0016096 -0.00035928565
0.0035829139 -0.0019114001 -0.0065277549
0.0060051656 0.0025150001 -0.0014716326
-0.00055509934 -0.0012072 -0.0066288775
0.006307947 -0.0013078001 0.00024744906
-0.0022708611 0.0014084 -5.5918299e-05
0.0050968211 -0.0006036 -0.0004604081
-0.0049958942 -0.0025150001 -0.0041008163
-0.00035324504 -0.0025150001 -0.0020783674
0.0004541722 0.0025150001 -0.00056153053
-0.0013625165 -0.0014084 0.0026743878
-0.0061060926 0.0025150001 -0.0046064286
0.0057023843 -0.0012072 -0.0002581632
-0.00035324504 -0.0023138002 -0.0065277549
0.00620702 -0.0025150001 -0.00096602034
-0.0014634437 -0.00040240001 -0.0066288775
0.00620702 -0.0024144 -0.0065277549
-0.0048949667 -0.0025150001 -0.0065277549
0.0056014569 0.0025150001 -0.0044041835
0.0031792053 0.0025150001 -0.0004604081
-0.0053996029 -0.0017102001 -0.0004604081
0.0020690067 0.0024144 -0.0065277549
-0.0059042387 0.0025150001 -0.0004604081
0.0020690067 0.00080480002 -0.0004604081
0.0057023843 -0.0025150001 -0.0064266329
-0.0070144371 0.0025150001 -0.0061232653
-0.0034819867 -0.0025150001 -0.0020783674
-0.00055509934 0.0012072 -5.5918299e-05
-0.0030782782 -0.0003018 -0.0004604081
-0.0050968211 -0.0024144 -0.0066288775
0.0037847683 -0.0025150001 -0.00015704075
0.0012615895 0.0012072 0.00075306132
0.0066107283 0.0013078001 0.0025732655
0.0072162915 0.0023138002 -5.5918299e-05
-0.0076200003 0.0017102001 -0.0063255103
0.0035829139 -0.0012072 0.0019665307
0.0020690067 -0.0025150001 -0.0050109182
-0.0076200003 -0.00070420001 -0.0047075511
-0.0051977485 0.0019114001 -0.0004604081
0.0031792053 -0.0025150001 -0.0064266329
-0.0076200003 0.00040240001 -0.0065277549
-0.0024727152 0.0003018 -0.0066288775
-0.00035324504 0.0017102001 -0.00056153053
0.0066107283 0.0013078001 0.0012586735
0.0055005299 -0.0014084 -0.0065277549
-0.00065602647 0.0014084 -0.0066288775
-0.0076200003 -0.0017102001 -0.0060221427
-0.0076200003 0.00080480002 -0.0022806122
0.00095880794 0.0025150001 -0.001572755
0.0040875496 0.0015090001 -0.00035928565
0.0065098014 -0.0012072 0.00055081642
0.00095880794 0.0013078001 0.0026743878
-0.0038856955 0.0013078001 -0.0065277549
-0.0052986755 -0.0015090001 -0.00035928565
0.004289404 -0.0010060001 -0.0004604081
0.0052986755 0.0018108001 -0.0066288775
0.00065602647 -0.0013078001 -5.5918299e-05
-0.0074181459 0.0022132001 -0.0002581632
0.0076200003 0.0002012 -0.0035952041
-0.0037847683 0.0013078001 0.0015620409
0.0014634437 0.0013078001 0.0014609185
-0.0036838411 -0.0011066 -0.0066288775
-0.0028764238 -0.0025150001 -0.0054154079
-0.0026745696 -0.0025150001 -0.0041008163
-0.0041884771 -0.0017102001 -0.0066288775
0.0071153645 0.00070420001 -0.0065277549
0.0075190729 0.00070420001 -0.0004604081
-0.0061060926 -0.0025150001 -0.0054154079
-0.0047940398 0.0025150001 -0.0059210202
0.0060051656 0.0025150001 -0.0049097957
0.0011606623 0.0014084 0.00034857151
-0.0037847683 0.0025150001 -0.0010671428
0.0049958942 -0.0016096 -0.00035928565
0.0074181459 -0.0024144 -0.0041008163
0.002977351 0.0025150001 -0.0035952041
0.00055509934 -0.0025150001 -0.0022806122
-0.0076200003 0.0018108001 -0.00066265301
-0.0069135102 0.0015090001 -0.0065277549
-0.00075695367 -0.0025150001 -0.0052131633
-0.0017662252 -0.0024144 -5.5918299e-05
-0.00620702 0.0025150001 -0.0012693877
-0.0070144371 0.0025150001 -0.0013705102
-0.0020690067 -0.0025150001 -0.0041008163
-0.0050968211 0.0011066 -0.0065277549
0.0018671523 0.0022132001 -5.5918299e-05
-0.0037847683 0.0018108001 -0.0065277549
0.0047940398 0.0013078001 -0.00035928565
0.0076200003 0.0003018 -0.0012693877
0.0045921854 0.0025150001 -0.00056153053
0.002977351 0.0015090001 -0.00015704075
-0.0019680795 0.0025150001 -0.0038985715
-0.0039866227 -0.0012072 4.520415e-05
-0.0015643709 -0.00050300005 -0.0066288775
-0.0064088744 0.0001006 -0.0066288775
0.0015643709 0.0010060001 -0.0066288775
-0.00620702 0.0013078001 0.0012586735
-0.0071153645 -0.0002012 -0.0004604081
-0.004390331 0.00050300005 -0.0004604081
0.0012615895 -0.0013078001 0.001359796
-0.0073172185 -0.0019114001 -0.0065277549
0.00015139073 0.0014084 -5.5918299e-05
-0.0076200003 -0.00070420001 -0.0032918367
0.0012615895 0.00080480002 -0.0066288775
0.006307947 0.0012072 0.00044969394
-0.0076200003 0.0017102001 -0.0049097957
-0.0022708611 -0.0025150001 -0.0033929592
-0.0010597351 -0.0013078001 4.520415e-05
-0.004289404 0.0018108001 -0.0004604081
-0.0028764238 0.0003018 -0.0004604081
-0.0032801325 0.0013078001 -5.5918299e-05
0.0008578808 0.0002012 -0.0066288775
0.0074181459 -0.0023138002 -0.0064266329
-0.0056014569 0.0025150001 -0.0065277549
-0.0049958942 0.0025150001 -0.0029884693
0.0021699339 -0.0018108001 -0.0065277549
0.0064088744 -0.0011066 -0.0065277549
0.0073172185 0.0024144 -0.001572755
-0.0021699339 0.0025150001 -0.0034940816
0.0015643709 -0.0025150001 -0.0013705102
-0.0057023843 0.00050300005 -0.0004604081
0.0010597351 0.0025150001 -0.0029884693
-0.0048949667 -0.0025150001 -0.0066288775
0.0037847683 -0.00040240001 -0.0004604081
0.0069135102 -0.0023138002 -0.00015704075
-0.0031792053 -0.0019114001 -0.0066288775
0.0034819867 -0.0025150001 -0.0016738775
0.0025736424 0 -0.0066288775
0.006307947 0.0012072 0.0018654083
0.0018671523 -0.0012072 -0.0066288775
-0.00055509934 -0.0023138002 -0.00015704075
0.004390331 0.0010060001 -0.0066288775
0.0030782782 -0.0021126 -0.00035928565
-0.0076200003 0.00080480002 -0.0026851019
-0.0064088744 0.00070420001 -0.0065277549
-0.0030782782 -0.0025150001 -0.0004604081
-0.0010597351 0.0025150001 -0.0035952041
-0.0074181459 0.0018108001 -0.0065277549
-0.0010597351 -0.0015090001 -0.0066288775
0.00035324504 -0.0025150001 -0.004505306
0.0053996029 -0.0018108001 -0.0065277549
0.0038856955 -0.0025150001 -0.0017749999
-0.0014634437 0.0003018 -0.0004604081
-0.0067116558 -0.0025150001 -0.0002581632
-0.0046931128 -0.0025150001 -0.00015704075
-0.0010597351 -0.0025150001 -0.0064266329
0.0066107283 0.0012072 0.0025732655
-0.0074181459 -0.0024144 -0.0033929592
0.0072162915 0.0025150001 -0.0033929592
-0.0022708611 0.0014084 -0.0066288775
-0.004289404 -0.0014084 -0.00015704075
0.00095880794 -0.00090540003 -0.0066288775
-0.002371788 -0.0025150001 -0.002887347
0.0036838411 0.0016096 -0.0004604081
0.0004541722 -0.0018108001 -0.0066288775
-0.0073172185 0.0024144 -0.0051120408
0.0031792053 -0.0025150001 -0.0023817345
0.0021699339 -0.0025150001 -0.0053142859
-0.0034819867 0.0025150001 -0.0057187756
-0.0035829139 -0.0025150001 -0.0043030614
-0.0033810597 0.00090540003 -0.0004604081
-0.0076200003 -0.0013078001 -0.0033929592
0.0066107283 0.0025150001 -0.0041008163
-0.00015139073 0.0019114001 -0.0066288775
-0.0032801325 0.0025150001 -0.0022806122
0.004289404 0.0025150001 -0.0061232653
-0.002977351 0.0025150001 -0.0002581632
0.0015643709 0.0025150001 -0.0002581632
-0.004289404 -0.0025150001 -0.0020783674
0.0076200003 -0.0010060001 -0.0016738775
-0.0024727152 -0.0019114001 -0.0066288775
-0.0012615895 -0.0012072 0.0021687755
0.0032801325 -0.0025150001 -0.0050109182
0.0032801325 -0.0025150001 -0.0033929592
-0.0076200003 -0.00090540003 -0.00096602034
0.00035324504 -0.0001006 -0.00056153053
-0.0014634437 -0.0006036 -0.0004604081
0.0067116558 0.0025150001 -0.0011682652
0.00025231787 -0.0017102001 -0.0066288775
-0.0047940398 -0.0025150001 -0.0057187756
-0.0076200003 0.0012072 -0.0041008163
0.0053996029 -0.0025150001 -0.0051120408
-0.0074181459 0.0014084 -0.0065277549
0.0012615895 0.0015090001 -0.0004604081
0.00035324504 0.0022132001 -0.00035928565
0.0021699339 0.0025150001 -5.5918299e-05
-0.0068125827 0.0011066 -0.0004604081
-0.0034819867 -0.0025150001 -0.0046064286
-0.0076200003 0.00050300005 -0.0048086736
0.0066107283 -0.0025150001 -0.00056153053
0.0076200003 0.0011066 -0.0038985715
0.0076200003 0.0015090001 -0.00056153053
0.0076200003 0.0019114001 -0.0043030614
0.0015643709 0.0025150001 -0.0032918367
-0.0024727152 0.0025150001 -0.0042019389
-0.0031792053 0.0017102001 -0.0065277549
-0.0014634437 0.0012072 0.0018654083
0.0050968211 -0.0024144 -0.00015704075
-0.0025736424 0.0020120002 -0.0004604081
-0.0058033112 0.0014084 -0.0065277549
0.00095880794 0.0024144 -0.0066288775
-0.0027754968 -0.0025150001 -0.00066265301
0.0045921854 -0.0025150001 -0.0020783674
-0.0076200003 -0.0001006 -0.0041008163
0.0050968211 -0.0015090001 -0.00015704075
0.0037847683 -0.0012072 0.00065193884
0.0074181459 0.0023138002 -5.5918299e-05
0.0075190729 0.0001006 -0.0004604081
0.002371788 0.0014084 -5.5918299e-05
0.004289404 0.0025150001 -0.0035952041
0.0076200003 0 -0.0060221427
-0.0032801325 -0.0022132001 -0.00015704075
-0.0019680795 0.0025150001 -0.0037974489
0.0070144371 -0.0025150001 -0.0035952041
-0.00620702 0.0012072 0.0014609185
0.0034819867 0.0025150001 -0.0031907142
-0.0055005299 -0.0013078001 -0.0002581632
-0.0066107283 0.0006036 -0.0004604081
-0.0046931128 0.0016096 -0.0065277549
0.0069135102 0.0025150001 -0.00035928565
-0.0028764238 0.0025150001 -0.004505306
-0.0075190729 0.0023138002 -0.0059210202
0.0053996029 0.0018108001 -0.0004604081
-0.0074181459 -0.0014084 -0.0065277549
0.0057023843 0.0025150001 -0.0018761224
0.004390331 0.0025150001 -5.5918299e-05
0.0074181459 0.0024144 -0.0051120408
-0.0014634437 0.0025150001 -0.0064266329
5.0463575e-05 -0.0011066 -0.00056153053
0.00015139073 0.0015090001 -0.00015704075
-0.0019680795 0.00040240001 -0.0004604081
0.0020690067 0.0025150001 -0.001572755
0.0017662252 0.0025150001 -0.0064266329
-0.0052986755 0.0025150001 -0.0013705102
0.0004541722 0.0023138002 -0.0002581632
0.0076200003 -0.0006036 -0.0048086736
-0.006307947 -0.0012072 0.0010564286
-0.0032801325 -0.0014084 -0.0066288775
-0.0033810597 0.0015090001 -0.0002581632
-0.0061060926 -0.0025150001 -0.0014716326
-0.0052986755 0.0023138002 -5.5918299e-05
-0.0013625165 -0.0025150001 -0.0054154079
0.0064088744 0.0025150001 -0.0023817345
-0.0065098014 -0.0012072 -0.00015704075
-0.0076200003 0.0015090001 -0.0004604081
-0.00035324504 0.0020120002 -0.00056153053
-0.0014634437 -0.0025150001 -0.0050109182
-0.0076200003 -0.00040240001 -0.0055165305
0.0072162915 0.0025150001 -0.004505306
0.0055005299 0.0017102001 -0.0004604081
-0.0008578808 0.0019114001 -0.0066288775
0.0014634437 -0.0021126 -0.00035928565
-0.0044912584 0.0001006 -0.0065277549
0.0058033112 -0.0006036 -0.0004604081
0.0065098014 -0.0016096 -0.00035928565
-0.004289404 -0.0025150001 -0.00096602034
0.0036838411 0.0012072 0.00055081642
-0.00065602647 -0.0025150001 -0.0053142859
-0.0028764238 0.0025150001 -0.0039996938
-0.0065098014 0.0025150001 -0.0041008163
-0.0019680795 0.0021126 -0.00035928565
0.0031792053 0.0025150001 -0.00086489791
0.0074181459 -0.0024144 -0.00035928565
0.0076200003 -0.0011066 -0.0063255103
-0.0065098014 -0.0025150001 -5.5918299e-05
-0.0011606623 0.0025150001 -0.0029884693
-0.002371788 0.0020120002 -0.0065277549
0.0037847683 -0.00090540003 -0.0065277549
-0.002977351 0 -0.0004604081
-0.006307947 -0.0025150001 -0.0044041835
-0.0035829139 0.0025150001 -0.00035928565
-0.0075190729 -0.0023138002 -0.0021794897
-0.0004541722 0.0023138002 -0.00015704075
0.001665298 -0.0025150001 -0.004505306
-0.00095880794 -0.0025150001 -0.0061232653
0.0058033112 -0.0006036 -0.0065277549
0.0038856955 -0.0025150001 -0.0026851019
0.0026745696 -0.0025150001 -0.0057187756
0.0011606623 -0.0012072 0.0027755103
0.0026745696 0.0006036 -0.0004604081
0.0066107283 -0.0012072 -0.0065277549
-0.0072162915 -0.0025150001 -0.0012693877
0.0019680795 0.0014084 -5.5918299e-05
0.0024727152 0.0012072 -5.5918299e-05
0.0032801325 0.0025150001 -0.0049097957
0.0034819867 0.0002012 -0.0066288775
-0.0032801325 -0.0022132001 -0.0065277549
0.0041884771 -0.0001006 -0.0004604081
0.0041884771 0.0025150001 -0.0036963264
0.00065602647 0.0018108001 -0.00056153053
-0.0031792053 -0.0025150001 -0.0020783674
0.0012615895 0.0025150001 -0.0014716326
-0.0076200003 0.0013078001 -0.00015704075
-0.0017662252 -0.0025150001 -0.00066265301
-0.0018671523 -0.0025150001 -0.0002581632
0.0047940398 -0.00040240001 -0.0065277549
0.0075190729 -0.0023138002 -0.0034940816
0.0048949667 0.0025150001 -0.0011682652
-0.0014634437 0.0012072 -5.5918299e-05
-0.0013625165 0.0003018 -0.0004604081
0.0060051656 -0.0025150001 -0.0023817345
-0.0076200003 -0.0015090001 -0.0063255103
-0.0066107283 0.0025150001 -0.0051120408
0.0035829139 -0.0025150001 -0.0037974489
-0.0048949667 0.0025150001 -0.0050109182
-0.0075190729 0.0021126 -0.0054154079
-0.0044912584 -0.0025150001 -0.0055165305
0.0052986755 -0.0021126 -0.00035928565
0.0053996029 0.0025150001 -0.0013705102
0.0008578808 0.0025150001 -0.0057187756
-0.0040875496 0.0018108001 -0.0065277549
0.0069135102 -0.0025150001 -0.002887347
-0.00035324504 0.0025150001 -0.0033929592
0.0076200003 -0.00080480002 -0.0010671428
0.0046931128 0.0002012 -0.0066288775
0.0046931128 0.0025150001 -0.0053142859
-0.00015139073 -0.0016096 -0.00035928565
0.0012615895 -0.0025150001 -0.0052131633
-0.00055509934 -0.0024144 -0.0065277549
-0.0004541722 -0.0025150001 -0.00035928565
0.0075190729 0.0023138002 -0.0036963264
-0.0076200003 -0.00070420001 -0.0016738775
0.0039866227 0.0015090001 -0.0066288775
0.0027754968 0.00090540003 -0.0004604081
0.0076200003 -0.0013078001 -0.0062243878
0.0064088744 0.0016096 -0.0004604081
-0.0036838411 -0.00040240001 -0.0066288775
0.0072162915 0.0025150001 -0.0055165305
0.004289404 -0.0013078001 -0.0065277549
0.0010597351 0.0003018 -0.00056153053
0.0050968211 0.0025150001 -0.0037974489
0.0064088744 -0.0025150001 -0.0044041835
-0.00025231787 -0.0024144 -5.5918299e-05
-0.0011606623 -0.0025150001 -0.0011682652
-0.00075695367 0.0024144 -0.0065277549
-0.0076200003 0.0018108001 -0.0018761224
-0.0038856955 -0.0025150001 -0.0026851019
0.0076200003 0.0002012 -0.0038985715
-0.0076200003 -0.0003018 -0.0021794897
-0.0019680795 -0.0025150001 -0.0044041835
-0.0033810597 0.0025150001 -0.00096602034
0.0056014569 0.00080480002 -0.0066288775
0.0076200003 -0.0002012 -0.0048086736
-0.0060051656 0.0023138002 -0.0065277549
0.0076200003 -0.0006036 -0.00066265301
0.0059042387 0.0025150001 -0.0027862245
-0.0040875496 0.0025150001 -0.0033929592
0.0064088744 0.0025150001 -0.0014716326
-0.0045921854 0.0025150001 -0.0050109182
-0.0074181459 0.0024144 -0.0047075511
-0.0036838411 0.0021126 -0.00035928565
0.0059042387 -0.0025150001 -0.0044041835
0.0022708611 -0.0025150001 -0.0058198981
-0.0030782782 -0.00080480002 -0.0066288775
0.0004541722 -0.0025150001 -0.0041008163
-0.00095880794 -0.0025150001 -0.0041008163
-0.0013625165 0.0012072 0.00085418375
-0.0011606623 0.0025150001 -0.001572755
-0.006307947 -0.0025150001 -5.5918299e-05
0.0045921854 0.0025150001 -0.0022806122
-0.0051977485 -0.0025150001 -0.0004604081
-0.0076200003 -0.0011066 -0.0047075511
0.0036838411 -0.0013078001 0.0015620409
-0.002977351 -0.0025150001 -0.0059210202
-0.0050968211 -0.0025150001 -0.0012693877
0.0030782782 0.0025150001 -0.002887347
0.0076200003 0.00070420001 -0.0023817345
-0.0075190729 0.0023138002 -0.0046064286
0.0036838411 0.00070420001 -0.00056153053
-0.0071153645 0.0001006 -0.0004604081
-0.00025231787 0.0012072 -0.00015704075
0.0036838411 -0.0025150001 -0.005617653
0.0019680795 0.0025150001 -0.0030895919
-0.004289404 -0.0013078001 -0.0002581632
-0.00015139073 0.0006036 -0.00056153053
0.0058033112 -0.0025150001 -0.0010671428
-0.0076200003 -0.00070420001 -0.0017749999
0.0024727152 -0.00090540003 -0.0066288775
0.00095880794 0.0018108001 -0.0066288775
-0.0076200003 0.0013078001 -0.0012693877
-0.0013625165 0.0017102001 -0.0004604081
0.0021699339 0.0025150001 -0.0025839796
-0.0014634437 0.0013078001 0.00024744906
-0.0068125827 0.0025150001 -0.0063255103
-0.0055005299 -0.0013078001 -0.0066288775
-5.0463575e-05 0.0025150001 -0.0039996938
0.0030782782 0.0025150001 -0.0046064286
0.0066107283 0.0025150001 -0.0052131633
-0.0072162915 0.0025150001 -0.0065277549
0.0014634437 0.0025150001 -0.0033929592
-0.0049958942 -0.00090540003 -0.00056153053
0.0011606623 0.0023138002 -0.0002581632
0.0072162915 -0.0024144 -0.0011682652
-0.0025736424 0.0015090001 -0.0002581632
0.0048949667 -0.0013078001 -5.5918299e-05
-0.00035324504 0.0025150001 -0.0027862245
0.0065098014 -0.0025150001 -0.005617653
-0.00015139073 -0.0013078001 -5.5918299e-05
-0.0038856955 0.0025150001 -0.0026851019
0.0038856955 0.0013078001 0.0022698981
-0.0011606623 -0.00050300005 -0.00056153053
0.0064088744 -0.0012072 0.0026743878
0.0076200003 -0.0023138002 -0.0049097957
-0.0026745696 -0.0025150001 -0.0061232653
-0.0076200003 0.00050300005 -0.0033929592
-0.0070144371 -0.0025150001 -0.0033929592
0.0025736424 -0.0015090001 -0.00015704075
0.0018671523 0.0016096 -0.0004604081
0.00035324504 0.0024144 -0.0066288775
-0.0036838411 -0.0025150001 -0.0060221427
-0.0044912584 -0.0012072 -0.0066288775
-0.00075695367 -0.0025150001 -0.0064266329
-0.0034819867 -0.0025150001 -0.00076377543
-0.00025231787 0.0020120002 -0.0066288775
0.0046931128 0.0025150001 -0.0029884693
-0.0055005299 0.0025150001 -0.0049097957
-0.001665298 -0.0025150001 -0.0030895919
-0.002977351 0.0025150001 -0.0017749999
0.0021699339 0.0022132001 -0.00015704075
0.0076200003 0.0001006 -0.00096602034
0.0018671523 0.0025150001 -0.00056153053
0.006307947 0.0014084 0.0019665307
0.0027754968 -0.0025150001 -0.002887347
-0.0072162915 0.0025150001 -0.0037974489
0.0051977485 0.0024144 -5.5918299e-05
-0.0024727152 -0.0025150001 -0.0027862245
0.0014634437 -0.0012072 0.0028766328
0.0010597351 0.0001006 -0.0066288775
-0.00055509934 0.0021126 -0.00035928565
-0.0019680795 -0.0025150001 -0.0051120408
-0.0004541722 0.0025150001 -0.0065277549
-0.0076200003 0.0015090001 -0.0042019389
0.0046931128 0.0018108001 -0.0004604081
-0.0053996029 -0.0025150001 -0.0051120408
0.0072162915 -0.0024144 -0.0055165305
-0.0069135102 -0.00090540003 -0.0004604081
-0.0073172185 0.0020120002 -0.0004604081
-0.00035324504 0.0025150001 -0.0034940816
-0.0076200003 0.0020120002 -0.0014716326
-0.0076200003 0.00050300005 -0.0025839796
0.0076200003 -0.00040240001 -0.00066265301
-0.0014634437 -0.0025150001 -0.0017749999
0.0076200003 0.0018108001 -0.0036963264
-0.0011606623 -0.00050300005 -0.0066288775
-0.0061060926 -0.0023138002 -0.0066288775
-0.00620702 -0.00070420001 -0.0066288775
-0.0041884771 -0.0002012 -0.0004604081
-0.0035829139 0.0013078001 0.0012586735
-0.0065098014 -0.0025150001 -0.0031907142
0.0076200003 0.0015090001 -0.0011682652
-0.0076200003 0.0011066 -0.0057187756
-0.0048949667 0.0025150001 -0.0011682652
0.0076200003 -0.0021126 -0.0024828571
0.00075695367 -0.0025150001 -0.0027862245
-0.0071153645 0.0010060001 -0.0065277549
-0.0076200003 0.00090540003 -0.0064266329
-0.0071153645 -0.0003018 -0.0004604081
-0.0019680795 0.0015090001 -0.0066288775
-0.0059042387 -0.0025150001 -0.0002581632
-0.0038856955 0.0021126 -0.0065277549
-0.0040875496 0.0025150001 -0.0004604081
0.00035324504 0.0025150001 -0.0016738775
0.0020690067 -0.0002012 -0.0004604081
-0.0049958942 0.00040240001 -0.0004604081
0.002977351 0.0025150001 -0.0027862245
0.0058033112 0.0025150001 -0.0050109182
-0.0067116558 -0.0025150001 -0.0043030614
0.0064088744 0.0025150001 -0.0019772449
0.0076200003 0.0018108001 -0.0058198981
0.0017662252 0.0025150001 -0.0002581632
-0.0053996029 0.0001006 -0.0066288775
-0.0030782782 0.0024144 -0.0065277549
-0.0059042387 0.0025150001 -0.0029884693
0.0061060926 0.0025150001 -0.00056153053
0.0076200003 0.0017102001 -0.00096602034
0.0055005299 0.0025150001 -0.00066265301
0.0049958942 -0.0017102001 -0.0004604081
-0.0076200003 -0.0018108001 -0.0048086736
-0.0076200003 -0.0015090001 -0.0029884693
-0.0048949667 -0.0025150001 -0.001572755
0.0013625165 0.0014084 0.001359796
-0.0076200003 0.0002012 -0.0065277549
-0.0070144371 -0.0016096 -0.0004604081
-0.0028764238 -0.0025150001 -0.0061232653
0.0022708611 0.0013078001 -5.5918299e-05
-0.0013625165 -0.0025150001 -0.0026851019
-0.0047940398 0.0006036 -0.0004604081
0.0021699339 -0.00080480002 -0.0004604081
0.0017662252 0.0025150001 -0.0063255103
-0.0020690067 -0.0013078001 -5.5918299e-05
-0.0031792053 0.0015090001 -0.0002581632
0.0040875496 -0.0025150001 -0.0029884693
-0.0076200003 -0.00090540003 -0.0029884693
0.0039866227 0.0013078001 0.0021687755
-0.0068125827 -0.0025150001 -0.0014716326
0.0070144371 0.0022132001 -0.0065277549
-0.0047940398 0.0025150001 -0.0041008163
0.00025231787 -0.0025150001 -0.0062243878
-0.0050968211 0.0025150001 -0.0041008163
0.0039866227 0.0015090001 -0.00035928565
-0.0031792053 0.0024144 -0.0065277549
-0.006307947 -0.0019114001 -0.0004604081
0.0011606623 -0.0025150001 -0.0035952041
0.0008578808 0.0025150001 -0.0012693877
-0.00025231787 -0.0025150001 -0.00086489791
-0.0033810597 -0.0022132001 -0.0065277549
0.00055509934 0.0025150001 -0.0033929592
-0.004390331 -0.0025150001 -0.0048086736
-0.0065098014 -0.0013078001 0.00085418375
-0.0066107283 -0.00040240001 -0.0066288775
-0.002371788 -0.0025150001 -0.0013705102
0.0050968211 0.0025150001 -0.0024828571
0.0017662252 -0.00070420001 -0.0004604081
-0.0019680795 -0.0025150001 -0.0012693877
-0.0047940398 0.0025150001 -0.00015704075
0.0047940398 0.0017102001 -0.0004604081
-0.0076200003 -0.00080480002 -0.00056153053
0.0010597351 0.0011066 -0.0066288775
-0.0011606623 -0.0013078001 0.0017642858
0.0067116558 -0.0025150001 -0.0016738775
-0.004390331 -0.0025150001 -0.0065277549
-0.0052986755 0.0025150001 -0.0031907142
-0.0012615895 -0.0025150001 -0.0010671428
-0.0059042387 -0.0025150001 -0.0063255103
-0.0072162915 -0.0025150001 -0.0030895919
-0.0070144371 -0.0025150001 -0.0018761224
0.0045921854 0.0025150001 -0.0034940816
-0.00095880794 -0.0025150001 -0.0034940816
0.0071153645 -0.0006036 -0.0004604081
0.001665298 -0.0019114001 -0.0004604081
-0.0020690067 -0.0014084 -0.00015704075
0.0018671523 -0.0025150001 -0.00066265301
0.0076200003 -0.00040240001 -0.001572755
-0.002977351 -0.0025150001 -0.0055165305
0.001665298 -0.00080480002 -0.0004604081
-0.0014634437 0.0010060001 -0.0066288775
-0.0064088744 -0.0012072 0.001359796
0.0012615895 -0.0011066 -0.0066288775
0.0004541722 0.0020120002 -0.00056153053
0.0011606623 -0.0013078001 0.001359796
-0.0076200003 -0.00090540003 -0.0011682652
-0.0076200003 -0.0013078001 -0.0031907142
0.0074181459 0.0024144 -0.0027862245
0.0076200003 0.00080480002 -0.0024828571
0.0045921854 -0.0025150001 -0.005617653
0.0076200003 -0.0019114001 -0.002887347
-0.0047940398 -0.0016096 -0.00035928565
0.0076200003 0.0014084 -0.0010671428
-0.0053996029 0.0022132001 -0.0002581632
0.0035829139 -0.0003018 -0.0004604081
-0.00015139073 0.00080480002 -0.0066288775
-0.0035829139 0.0025150001 -0.0041008163
0.0076200003 -0.00080480002 -0.0023817345
-0.0035829139 0.0025150001 -0.0010671428
-0.0040875496 -0.0025150001 -0.0010671428
0.0076200003 -0.0017102001 -0.005617653
0.0050968211 -0.0023138002 -0.00015704075
-0.0058033112 0.0025150001 -0.0051120408
-0.0058033112 0.0013078001 -5.5918299e-05
-0.0056014569 0.0025150001 -0.0036963264
0.0076200003 0.0011066 -0.00086489791
-0.00620702 0.0013078001 -0.00035928565
0.0037847683 -0.0012072 0.0010564286
0.0015643709 0.0023138002 -5.5918299e-05
-0.0011606623 0.0013078001 0.00034857151
0.00620702 -0.0014084 0.0015620409
0.0071153645 -0.0024144 -0.0004604081
-0.0052986755 0.0025150001 -0.0014716326
-0.0025736424 0.0016096 -0.0065277549
0.0056014569 0.0025150001 -0.0030895919
0.0060051656 -0.0025150001 -0.0022806122
0.0021699339 0.0015090001 -0.0066288775
-0.0071153645 -0.0025150001 -0.0052131633
0.0075190729 0.0024144 -0.0017749999
0.0019680795 0.0019114001 -0.0004604081
-0.0030782782 -0.0025150001 -0.0042019389
0.0076200003 -0.0015090001 -0.00096602034
-0.00075695367 0.0019114001 -0.00056153053
-0.0008578808 0.0025150001 -0.0013705102
0.0061060926 0.0025150001 -0.0038985715
-0.0057023843 0.0025150001 -0.00035928565
-0.0068125827 0.0014084 -0.00015704075
-0.0035829139 0.0025150001 -0.002887347
0.0032801325 0.0014084 -0.0066288775
0.0068125827 0.0013078001 -0.00015704075
0.0058033112 -0.0025150001 -0.0002581632
-0.0065098014 0.0025150001 -0.00096602034
0.0026745696 0.00050300005 -0.00056153053
0.004390331 -0.0025150001 -0.00015704075
5.0463575e-05 0.0006036 -0.0066288775
-0.0008578808 -0.0019114001 -0.0066288775
0.0030782782 0.00080480002 -0.0004604081
-0.0008578808 -0.0025150001 -0.0020783674
-0.0022708611 -0.00040240001 -0.00056153053
0.00075695367 0.0025150001 -0.0036963264
0.0073172185 -0.00040240001 -0.0004604081
0.0011606623 0.0012072 -0.00056153053
-0.0048949667 0.00070420001 -0.0004604081
-0.0032801325 0.0023138002 -0.00015704075
0.006307947 0.0012072 0.0027755103
-0.0076200003 -0.0021126 -0.0025839796
-0.0027754968 -0.0014084 -0.0066288775
-0.0036838411 -0.0025150001 -0.0013705102
-0.0010597351 0.0025150001 -0.0046064286
0.0072162915 0.0025150001 -0.0014716326
0.0035829139 0.0025150001 -0.0024828571
0.0073172185 -0.0019114001 -0.0065277549
-0.0040875496 0.0021126 -0.0065277549
-0.0036838411 -0.0025150001 -0.00066265301
-0.0071153645 0.0025150001 -0.0038985715
0.0073172185 0 -0.0004604081
0.0071153645 -0.0023138002 -0.00015704075
0.0066107283 -0.0021126 -0.00035928565
0.0050968211 0.0025150001 -0.0064266329
-0.0076200003 0.0001006 -0.00086489791
-0.0076200003 0.00080480002 -0.0030895919
-0.0024727152 0.0025150001 -0.0027862245
-0.0038856955 0.0025150001 -0.0036963264
-0.0012615895 -0.0024144 -5.5918299e-05
-0.0076200003 -0.0022132001 -0.0033929592
-0.0047940398 0.0025150001 -0.0064266329
-0.0036838411 -0.0025150001 -0.0058198981
-0.0071153645 -0.0023138002 -0.00015704075
-0.0047940398 -0.00070420001 -0.0004604081
0.0047940398 0.0025150001 -0.0019772449
-0.0070144371 -0.0025150001 -0.0014716326
0.0015643709 0.0006036 -0.0004604081
-0.002371788 -0.0025150001 -0.0041008163
-0.0038856955 0.0013078001 0.0019665307
-0.001665298 -0.0021126 -0.00035928565
0.00620702 -0.0025150001 -0.0019772449
-0.0060051656 0.0014084 -5.5918299e-05
0.0022708611 0.0011066 -0.0004604081
-0.0068125827 -0.0016096 -0.0066288775
-0.00075695367 0.0025150001 -0.0032918367
-0.0015643709 -0.0022132001 -0.0065277549
-0.006307947 -0.00080480002 -0.0066288775
-0.004390331 -0.0021126 -0.0002581632
0.0059042387 0.0016096 -0.0004604081
-0.0012615895 0.0025150001 -0.0011682652
-0.0073172185 0.0024144 -0.0059210202
0.00075695367 0.0025150001 -0.0027862245
0.0026745696 0.0014084 -5.5918299e-05
-0.006307947 -0.0012072 -0.00015704075
0.0047940398 0.0025150001 -0.005617653
-0.0045921854 -0.0013078001 -0.00015704075
-0.0067116558 0.0025150001 -0.0004604081
0.0034819867 -0.0018108001 -0.0004604081
-0.0004541722 0.0025150001 -0.0036963264
-0.0015643709 0.0011066 -0.0066288775
-0.0067116558 0.0025150001 -0.0027862245
0.0059042387 -0.0010060001 -0.0065277549
0.0075190729 0.0022132001 -0.00086489791
0.0049958942 0.0025150001 -0.0012693877
0.0065098014 0.0025150001 -0.0016738775
-0.0055005299 0.0017102001 -0.0065277549
0.004289404 -0.0025150001 -0.0035952041
0.0076200003 0.00090540003 -0.0023817345
0.00095880794 -0.0025150001 -0.004505306
-0.0033810597 -0.0020120002 -0.0004604081
0.0011606623 0.0013078001 -0.00035928565
-0.002371788 -0.0001006 -0.0004604081
-0.0035829139 0.0016096 -0.0004604081
-0.0045921854 -0.00080480002 -0.0066288775
-0.0076200003 -0.00050300005 -0.0035952041
-0.0012615895 0.0025150001 -0.0026851019
0.0019680795 0.0025150001 -0.0062243878
-0.0028764238 -0.0013078001 -5.5918299e-05
0.0071153645 -0.00050300005 -0.0004604081
-0.0034819867 -0.0025150001 -0.0019772449
-0.0024727152 -0.0018108001 -0.0004604081
-0.006307947 -0.0012072 0.001359796
0.0071153645 -0.0024144 -0.0012693877
-0.00075695367 0.0019114001 -0.0066288775
0.0040875496 -0.0025150001 -0.0065277549
-0.00015139073 -0.0012072 -5.5918299e-05
0.0057023843 -0.0025150001 -0.0033929592
0.0061060926 -0.0012072 0.00024744906
0.0044912584 0.0006036 -0.0066288775
0.0076200003 -0.0020120002 -0.0062243878
-0.0013625165 0.0025150001 -0.0047075511
-0.0038856955 0.0025150001 -0.0049097957
0.0075190729 0.0020120002 -0.002887347
-0.0026745696 0.0025150001 -0.0002581632
-0.006307947 0.0017102001 -0.0065277549
0.0046931128 -0.0016096 -0.00035928565
-0.0010597351 -0.0025150001 -0.0017749999
0.0017662252 -0.0025150001 -0.0002581632
0.0066107283 0.0013078001 -5.5918299e-05
-0.0049958942 0.0002012 -0.0004604081
0.0032801325 0.0025150001 -0.0036963264
0.0068125827 -0.0025150001 -0.0033929592
-0.0060051656 -0.0016096 -0.0066288775
-0.00620702 0.0017102001 -0.0065277549
-0.0041884771 -0.0025150001 -0.0053142859
-0.0036838411 0.0003018 -0.0004604081
-0.0066107283 0.0025150001 -0.00066265301
-0.0035829139 0.0012072 -0.00015704075
0.0076200003 -0.00090540003 -0.0004604081
0.0047940398 0.0025150001 -0.0044041835
0.0030782782 0.0025150001 -0.0050109182
0.0037847683 -0.0019114001 -0.0004604081
-0.0037847683 -0.0025150001 -0.00015704075
0.00055509934 0.00090540003 -0.00056153053
-0.0041884771 0.0025150001 -0.0050109182
-0.0065098014 -0.0021126 -0.00035928565
-0.0076200003 -0.0019114001 -0.005617653
-0.0013625165 0.0012072 0.0021687755
-0.00065602647 0.0023138002 -0.0002581632
-0.0013625165 0.0012072 0.0024721429
0.0071153645 0.0025150001 -0.0059210202
0.0032801325 0.0021126 -0.0065277549
-5.0463575e-05 0.0011066 -0.0066288775
-0.0035829139 -0.0025150001 -0.0039996938
0.0061060926 0.0025150001 -0.0025839796
-0.0021699339 -0.0019114001 -0.0004604081
0.0076200003 0.0010060001 -0.0013705102
0.0048949667 -0.0025150001 -0.0036963264
-0.0022708611 0.00050300005 -0.0066288775
-0.0060051656 -0.0025150001 -0.0057187756
0.0076200003 0.00090540003 -0.0036963264
0.0038856955 -0.0025150001 -0.0036963264
0.006307947 -0.0013078001 0.00014632659
-0.0076200003 0.0020120002 -0.0024828571
0.0008578808 -0.0012072 -5.5918299e-05
0.0065098014 -0.0024144 -0.00015704075
0.0059042387 0.0025150001 -0.0050109182
