# .PCD v0.7 - Point Cloud Data file format
VERSION 0.7
FIELDS x y z
SIZE 4 4 4
TYPE F F F
COUNT 1 1 1
WIDTH 1191
HEIGHT 1
VIEWPOINT 0 0 0 1 0 0 0
POINTS 1191
DATA ascii
-0.0017267442 -0.0092500001 -0.0059198271
-0.0030697675 0.0038541667 -0.018415516
-0.0059476746 -0.0040468751 0.0031155173
0.0049883719 0.0092500001 -0.0014982757
-0.00038372094 -0.0090572918 -0.018415516
-0.0065232557 -0.0019270834 -0.012071551
-0.0065232557 -0.0042395834 -0.0014982757
0.0065232557 0.0026979167 -0.0013060343
0.00076744187 -0.0088645834 -0.015916379
-0.0065232557 0.0042395834 -0.013032758
-0.0067151161 0.0065520834 -0.0028439653
-0.006139535 0.0073229168 -0.0024594825
-0.0080581391 0.001734375 -0.0028439653
0.00076744187 -0.0092500001 -0.0020749997
0.0023023256 0.0092500001 -0.0049586203
-0.0053720931 -0.002890625 -0.0011137929
-0.0044127908 0.0092500001 -0.0032284481
0.0059476746 0.0050104167 -0.012840517
0.0065232557 0.0019270834 -0.010725861
0.0053720931 0.00057812501 -0.0016905171
-0.00057558139 0.0082864584 -0.00092155155
-0.0065232557 -0.00115625 -0.00092155155
-0.00825 -0.0025052084 -0.0057275859
0.00825 -0.0084791668 -0.0064965514
-0.007482558 0.0086718751 -0.0064965514
0.0032616279 -0.0069375001 -0.017838793
0.0065232557 0.0025052084 -0.00015258607
0.0080581391 -0.0040468751 -0.0028439653
-0.0059476746 -0.0092500001 -0.0034206894
0.0080581391 0.0059739584 -0.0028439653
-0.0019186046 0.0063593751 -0.018607758
0.0051802327 -0.0092500001 -0.0057275859
-0.0034534885 -0.0071302084 -0.015916379
-0.0051802327 0.0061666667 -0.00015258607
-0.0040290696 -0.0092500001 -0.0045741377
-0.0011511628 -0.0082864584 -0.00092155155
-0.0076744184 -0.0040468751 -0.0066887927
0.0065232557 0.0032760417 -0.013609482
-0.0069069769 -0.0086718751 -0.0064965514
-0.0059476746 0.0013489584 0.0029232758
-0.0065232557 -0.00019270834 -0.014570689
0.00825 -0.0088645834 -0.0055353446
-0.0032616279 -0.0090572918 -0.00072931021
0.006139535 0.00115625 -0.015724137
-0.006139535 0.0046250001 -0.015531896
-0.0051802327 0.0069375001 -0.00015258607
-0.0011511628 0.00077083334 -0.00092155155
-0.0009593023 -0.0013489584 -0.018607758
0.0021104652 -0.0059739584 -0.00092155155
0.0051802327 -0.0053958334 -0.015531896
-0.0009593023 0.0090572918 -0.011687068
-0.0065232557 -0.0013489584 -0.0080344826
0.0076744184 0.00096354168 -0.0028439653
0.0067151161 -0.0050104167 -0.0066887927
-0.0036453488 0.0084791668 -0.011687068
-0.0030697675 -0.0080937501 -0.016877586
0.00825 0.0057812501 -0.0038051722
-0.0063313954 -0.0044322917 -0.010918103
0.0059476746 0.0069375001 -0.00034482745
0.0042209304 0.0092500001 -0.0039974134
-0.0030697675 0.0092500001 -0.0028439653
-0.0065232557 0.0013489584 -0.009380172
0.00825 -0.0084791668 -0.0049586203
0.0065232557 -0.0063593751 -0.0028439653
-0.0065232557 -0.0030833334 -0.00072931021
-0.0040290696 -0.0080937501 -0.006881034
-0.0059476746 0.0040468751 0.00042413804
-0.0065232557 0.0026979167 -0.014570689
-0.0065232557 -0.0086718751 -0.0064965514
0.0057558138 0.0092500001 -0.0057275859
0.0032616279 0.0026979167 -0.018031035
0.0065232557 0.0038541667 -0.014955171
-0.0065232557 0.00346875 -0.00034482745
0.006139535 -0.0052031251 -0.014570689
0.0072906977 -0.0065520834 -0.0066887927
0.0015348837 -0.0088645834 -0.018415516
0.0030697675 0.0086718751 -0.0074577583
-0.0063313954 0.0040468751 0.0021543105
-0.0063313954 0.0046250001 -0.010149137
0.00825 -0.00057812501 -0.0034206894
0.0059476746 -0.0052031251 -0.0080344826
-0.0076744184 -0.0080937501 -0.0034206894
0.0063313954 0.0046250001 -0.014955171
0.0053720931 -0.0061666667 -0.011494827
-0.0034534885 0.0015416667 -0.00015258607
-0.0065232557 0.0032760417 -0.0014982757
-0.0032616279 -0.0071302084 -0.017646551
-0.0017267442 -0.0082864584 -0.018415516
-0.0065232557 0.0030833334 -0.0086112069
0.0030697675 -0.0025052084 -0.018415516
-0.0063313954 0.0052031251 -0.014955171
0.0047965115 0.0069375001 -0.013801724
-0.0047965115 -0.0067447918 -0.00015258607
-0.0032616279 0.0092500001 -0.0057275859
0.0057558138 -0.0021197917 -0.0020749997
-0.0059476746 -0.0067447918 0.0010008621
-0.0065232557 0.001734375 -0.0086112069
-0.0059476746 0.0052031251 -0.00015258607
0.00825 0.0055885417 -0.0055353446
-0.0040290696 -0.00096354168 -0.015724137
0.0047965115 0.0071302084 -0.0066887927
0.0032616279 0.001734375 -0.016300861
-0.0015348837 0.0088645834 -0.015339655
-0.0023023256 -0.0030833334 -0.018415516
0.0032616279 -0.00346875 -0.016685344
-0.0019186046 -0.0065520834 -0.018415516
-0.0019186046 0.0088645834 -0.015147413
0.0034534885 -0.0092500001 -0.0016905171
-0.0032616279 -0.0063593751 -0.00053706882
-0.00019186047 0.0015416667 -0.018607758
0.0055639534 -0.0059739584 -0.015339655
-0.0044127908 -0.0075156251 -0.010149137
-0.0065232557 -0.0050104167 -0.0011137929
0.0053720931 0.0026979167 -0.0013060343
-0.0028779069 -0.0088645834 -0.0089956895
-0.00019186047 0.0088645834 -0.017646551
-0.00825 -0.0015416667 -0.0055353446
0.0065232557 0.0021197917 -0.0022672412
0.00825 -0.0036614584 -0.0051508616
0.0059476746 0.0065520834 -0.0011137929
0.00825 -0.0084791668 -0.004766379
0.0032616279 0.0092500001 -0.0061120684
-0.0044127908 0.0025052084 -0.015916379
0.0023023256 0.0090572918 -0.015531896
-0.00076744187 0.0088645834 -0.0097646546
0.0049883719 -0.0069375001 -0.014186206
0.0051802327 -0.0084791668 -0.00015258607
-0.0053720931 0.0040468751 -0.015531896
0.0011511628 -0.0088645834 -0.016108621
-0.0038372092 -0.0046250001 -0.00015258607
-0.0015348837 -0.0046250001 -0.018607758
-0.0065232557 0.00096354168 -0.0013060343
0.0053720931 -0.0088645834 -0.0066887927
0.0030697675 -0.0080937501 -0.00072931021
-0.00825 -0.0065520834 -0.0064965514
0.0065232557 0.0032760417 -0.012840517
-0.0036453488 0.00038541667 -0.00015258607
-0.006139535 0.0071302084 -0.00092155155
0.0065232557 -0.00038541667 -0.010149137
-0.00825 -0.0069375001 -0.0045741377
-0.0036453488 -0.0042395834 -0.015916379
0.0036453488 -0.0084791668 -0.014762931
0.00038372094 0.0055885417 -0.00092155155
0.00825 -0.0052031251 -0.0045741377
0.0076744184 -0.0090572918 -0.004766379
-0.00057558139 -0.0088645834 -0.010149137
0.006139535 0.002890625 -0.00015258607
0.00825 -0.0046250001 -0.0059198271
0.0013430233 0.0090572918 -0.016493103
0.00825 -0.0069375001 -0.0028439653
0.0049883719 0.0067447918 -0.0080344826
-0.0057558138 0.0057812501 -0.014378448
0.0032616279 0.0036614584 -0.016493103
0.0065232557 0.0015416667 -0.002651724
0.0070988373 0.0073229168 -0.0028439653
-0.0038372092 -0.0079010418 -0.00015258607
0.00019186047 -0.0092500001 -0.0018827585
-0.0065232557 0.0057812501 -0.00092155155
0.0059476746 0.0050104167 -0.012263793
-0.0065232557 0.00019270834 -0.00072931021
0.0013430233 0.002890625 -0.018607758
-0.0065232557 -0.00019270834 -0.0070732753
-0.0032616279 0.001734375 -0.017069828
-0.0032616279 0.0092500001 -0.00072931021
-0.0053720931 -0.00057812501 -0.00072931021
0.0015348837 0.0065520834 -0.00092155155
-0.0026860465 0.0025052084 -0.00072931021
0.0070988373 -0.00077083334 -0.0028439653
-0.00825 -0.0040468751 -0.0030362066
0.0065232557 -0.0032760417 -0.010149137
-0.0032616279 -0.00096354168 -0.017838793
-0.0065232557 -0.00019270834 -0.0011137929
0.0078662792 0.0071302084 -0.0064965514
0.0055639534 -0.0090572918 -0.0064965514
-0.00825 0.0057812501 -0.0059198271
0.0011511628 -0.0061666667 -0.00092155155
0.00057558139 -0.0086718751 -0.0086112069
-0.00825 -0.0038541667 -0.0055353446
0.0017267442 -0.0092500001 -0.0055353446
0.0055639534 -0.0042395834 -0.015531896
0.0065232557 0.00077083334 -0.007265517
-0.0059476746 -0.0050104167 -0.014186206
0.00825 -0.0013489584 -0.0043818965
-0.0053720931 -0.00096354168 -0.0018827585
-0.0065232557 -0.002890625 -0.012648275
-0.0044127908 0.0092500001 -0.0039974134
-0.00825 -0.0030833334 -0.0032284481
-0.0049883719 0.0013489584 -0.015724137
-0.0046046511 -0.0073229168 -0.015339655
-0.0065232557 -0.0030833334 -0.0014982757
0.0063313954 0.0038541667 -0.013032758
-0.0078662792 -0.0077083334 -0.0041896547
-0.0032616279 0.0065520834 -0.00015258607
-0.0028779069 0.0092500001 -0.0024594825
-0.0080581391 -0.0050104167 -0.0030362066
-0.0028779069 0.0088645834 -0.00092155155
0.0019186046 -0.0071302084 -0.00092155155
0.0059476746 -0.0059739584 -0.0066887927
-0.0046046511 -0.002890625 -0.00015258607
0.00825 -0.0069375001 -0.0032284481
0.006139535 0.0052031251 -0.0020749997
0.00019186047 0.0038541667 -0.00092155155
0.00825 0.0073229168 -0.0039974134
0.0034534885 0.0059739584 -0.016877586
-0.0057558138 0.0080937501 -0.0018827585
-0.0044127908 0.0075156251 -0.0070732753
-0.0065232557 0.0026979167 -0.009380172
0.006139535 -0.0092500001 -0.0059198271
-0.0038372092 0.0088645834 -0.0066887927
0.0046046511 -0.0075156251 -0.00015258607
-0.0065232557 0.0013489584 -0.010341379
-0.0051802327 0.0092500001 -0.0036129309
-0.0070988373 0.0026979167 -0.0028439653
0.0026860465 0.0023125 -0.00072931021
-0.0065232557 -0.0079010418 -0.0066887927
-0.00076744187 -0.0061666667 -0.018607758
0.0032616279 0.0023125 -0.018223274
0.0040290696 0.0079010418 -0.010918103
-0.0017267442 0.0038541667 -0.018607758
0.0028779069 0.0067447918 -0.00072931021
0.00825 -0.001734375 -0.0034206894
-0.00825 -0.00077083334 -0.0053431033
0.0055639534 0.0092500001 -0.0064965514
0.0059476746 -0.0069375001 -0.0013060343
0.0055639534 -0.0063593751 -0.014955171
0.0055639534 0.0092500001 -0.0063043102
0.0053720931 -0.0013489584 -0.00072931021
0.0019186046 0.0090572918 -0.016685344
0.0042209304 0.0021197917 -0.015916379
-0.0059476746 0.0013489584 0.0021543105
0.0057558138 0.0013489584 -0.0020749997
-0.0055639534 0.0059739584 -0.014378448
-0.00825 -0.00057812501 -0.0030362066
-0.0032616279 0.0067447918 -0.017069828
-0.007482558 0.0084791668 -0.0064965514
-0.0032616279 0.0048177084 -0.017262068
0.0021104652 -0.0071302084 -0.018607758
0.0013430233 -0.0092500001 -0.0053431033
-0.0024941859 -0.00019270834 -0.00072931021
0 -0.0050104167 -0.018607758
-0.0032616279 -0.0065520834 -0.00053706882
0.0057558138 -0.00077083334 -0.0018827585
-0.0032616279 0.0042395834 -0.00053706882
0.00825 -0.0038541667 -0.0063043102
0.0078662792 0.00346875 -0.0066887927
-0.0057558138 -0.0057812501 -0.00015258607
0.00076744187 0.00019270834 -0.00092155155
0.0034534885 0.0038541667 -0.015916379
0.0057558138 -0.0023125 -0.0016905171
-0.0065232557 -0.00038541667 -0.0082267234
-0.0049883719 0.0042395834 -0.015724137
-0.0065232557 -0.00019270834 -0.012263793
-0.0034534885 -0.0092500001 -0.0016905171
-0.0013430233 0.0050104167 -0.00092155155
0.0059476746 -0.0075156251 -0.0018827585
-0.0057558138 -0.0053958334 -0.014570689
-0.0065232557 0 -0.00015258607
0.006139535 -0.0032760417 -0.00015258607
0.0051802327 0.0061666667 -0.00015258607
0.0038372092 0.0092500001 -0.0016905171
0.0065232557 0.00077083334 -0.0018827585
0.0024941859 -0.0088645834 -0.013801724
-0.0032616279 0.0044322917 -0.017069828
0.0067151161 -0.0013489584 -0.015147413
0.0024941859 -0.0092500001 -0.0066887927
0.0055639534 -0.0057812501 -0.015531896
-0.0028779069 -0.0088645834 -0.0070732753
0.00057558139 -0.0063593751 -0.00092155155
0.0053720931 -0.0019270834 -0.0016905171
-0.0053720931 0.0092500001 -0.0055353446
-0.0038372092 -0.0090572918 -0.00015258607
-0.0047965115 0.0053958334 -0.015531896
0.0036453488 0.0025052084 -0.00015258607
-0.0024941859 -0.0092500001 -0.0053431033
-0.0032616279 -0.0071302084 -0.00034482745
-0.0055639534 -0.0063593751 -0.00015258607
-0.0032616279 -0.0038541667 -0.016300861
-0.0023023256 -0.0025052084 -0.00072931021
0.00825 0.0084791668 -0.0049586203
0.0040290696 0.0080937501 -0.011110344
0.0013430233 0.0021197917 -0.00092155155
-0.0053720931 0.00077083334 -0.0018827585
0.006139535 0.0050104167 -0.014186206
-0.00019186047 0.0088645834 -0.013609482
0.0063313954 -0.0044322917 -0.009380172
0.00825 -0.0036614584 -0.0043818965
0.00076744187 -0.0019270834 -0.00092155155
-0.0067151161 -0.00019270834 -0.0028439653
0.0065232557 -0.0025052084 -0.010149137
-0.00019186047 -0.00038541667 -0.00092155155
0.0030697675 -0.0088645834 -0.016493103
-0.0067151161 -0.0040468751 -0.002651724
0.0044127908 -0.0092500001 -0.0036129309
-0.0015348837 -0.00057812501 -0.00092155155
-0.0059476746 -0.00096354168 -0.00015258607
0.0023023256 0.0092500001 -0.0051508616
0.0057558138 -0.0092500001 -0.0038051722
0.0009593023 -0.00077083334 -0.00092155155
0.0065232557 0.00057812501 -0.0076499996
0.0040290696 -0.0092500001 -0.0041896547
-0.0076744184 -0.0077083334 -0.0064965514
-0.0032616279 -0.0023125 -0.017069828
-0.0030697675 0.0088645834 -0.016300861
0.0011511628 0.0090572918 -0.012071551
0.00825 -0.001734375 -0.0063043102
0.0015348837 0.0013489584 -0.018607758
-0.0057558138 -0.0019270834 -0.0024594825
-0.0057558138 0.002890625 -0.00034482745
0.0024941859 -0.0088645834 -0.0082267234
-0.0026860465 -0.0088645834 -0.013417241
0.0019186046 -0.0030833334 -0.00092155155
0.0059476746 0.0052031251 0.0017698277
-0.0026860465 -0.0057812501 -0.018415516
0.0017267442 0.0090572918 -0.017838793
0.0017267442 0.0090572918 -0.018031035
-0.0011511628 -0.0071302084 -0.00092155155
0.00057558139 0.0088645834 -0.00092155155
0.0080581391 -0.0088645834 -0.0051508616
0.0042209304 0.0092500001 -0.0030362066
-0.0065232557 0.00115625 -0.0086112069
0.0063313954 0.0052031251 -0.00053706882
-0.006139535 0.0065520834 -0.0066887927
-0.0070988373 -0.0071302084 -0.0028439653
0.0063313954 0.0040468751 -0.0014982757
0.0076744184 0.0021197917 -0.0066887927
-0.0024941859 0.0050104167 -0.00092155155
0.0059476746 -0.0053958334 -0.01187931
0.0034534885 0.00346875 -0.00015258607
-0.0067151161 -0.001734375 -0.0076499996
-0.0059476746 0.0050104167 -0.0084189652
-0.0026860465 -0.0082864584 -0.00092155155
0.0063313954 0.0046250001 -0.013993965
0.007482558 0.0092500001 -0.0057275859
-0.0023023256 -0.0032760417 -0.018415516
0.00076744187 0.0086718751 -0.00092155155
0.0065232557 0.00019270834 -0.0084189652
-0.0065232557 0.0046250001 -0.00053706882
-0.0055639534 -0.0057812501 -0.013801724
-0.0034534885 -0.0067447918 -0.016300861
-0.0063313954 0.0067447918 0.0023465517
0.00019186047 -0.0032760417 -0.018607758
0.0032616279 -0.0092500001 -0.0014982757
0.0063313954 0.0040468751 -0.0095724137
-0.0028779069 -0.0088645834 -0.007265517
0.0059476746 0.001734375 0.0015775863
-0.0032616279 0.0073229168 -0.00053706882
0.0042209304 0.0077083334 -0.0099568963
-0.0015348837 -0.0044322917 -0.018415516
0.0032616279 -0.0088645834 -0.012840517
0.0009593023 -0.0090572918 -0.0070732753
-0.0053720931 0.0023125 -0.0024594825
0.0053720931 -0.0063593751 -0.014378448
-0.00825 0 -0.0036129309
0.0063313954 0.0046250001 -0.0018827585
0.00057558139 0.0084791668 -0.00092155155
-0.0032616279 0.0084791668 -0.018223274
0.0009593023 -0.0050104167 -0.018607758
0.0065232557 0.0026979167 -0.0022672412
-0.0067151161 -0.0023125 -0.007265517
-0.0051802327 0.0019270834 -0.015724137
-0.007482558 -0.0069375001 -0.0028439653
0.0065232557 -0.0032760417 -0.010533621
-0.0040290696 -0.0092500001 -0.0014982757
0.006139535 -0.0046250001 -0.00015258607
0.0057558138 0.00077083334 -0.015724137
0.0011511628 0.0090572918 -0.011110344
0.0049883719 0.0092500001 -0.0024594825
0.0032616279 0.0092500001 -0.0020749997
-0.0013430233 0.0065520834 -0.018607758
-0.0055639534 -0.0061666667 -0.00015258607
-0.0013430233 0.0092500001 -0.0014982757
0.0026860465 0.0092500001 -0.0034206894
0.0032616279 -0.0063593751 -0.018031035
0.0032616279 0.0086718751 -0.011687068
-0.00825 0.0063593751 -0.0055353446
-0.0032616279 -0.0073229168 -0.017262068
0.0059476746 0.0092500001 -0.0036129309
-0.0065232557 -0.0030833334 -0.00092155155
0.0021104652 -0.001734375 -0.018607758
0.0067151161 -0.0023125 -0.014762931
0 -0.00019270834 -0.018607758
0.006139535 -0.0048177084 -0.013801724
-0.0065232557 -0.0030833334 -0.015531896
-0.0046046511 -0.0073229168 -0.013609482
0.0069069769 0.0057812501 -0.0066887927
-0.0032616279 0.0036614584 -0.016300861
0.0049883719 0.0067447918 -0.015147413
-0.0065232557 0.0030833334 -0.0014982757
-0.0065232557 0.001734375 -0.013801724
-0.0023023256 0.0088645834 -0.016685344
-0.0021104652 -0.0059739584 -0.00092155155
-0.0032616279 0.0090572918 -0.0064965514
0.0067151161 -0.00019270834 -0.014955171
-0.0026860465 -0.0088645834 -0.013801724
0.0038372092 -0.0092500001 -0.0049586203
-0.0044127908 0.0082864584 -0.0066887927
0.00825 -0.00077083334 -0.004766379
0.00076744187 0.0090572918 -0.012840517
0.0034534885 0.0061666667 -0.017646551
0.0053720931 -0.0061666667 -0.012456034
-0.0009593023 -0.0088645834 -0.017838793
0.0032616279 -0.0088645834 -0.013417241
-0.0057558138 -0.0021197917 -0.0011137929
0.0032616279 -0.0042395834 -0.018223274
0.0040290696 0.001734375 -0.015916379
-0.0032616279 -0.0050104167 -0.00015258607
-0.0070988373 -0.0038541667 -0.0028439653
0.00057558139 -0.0069375001 -0.00092155155
0.0017267442 -0.0069375001 -0.018607758
-0.0046046511 -0.0092500001 -0.0036129309
0.0040290696 -0.0082864584 -0.00015258607
-0.0055639534 0.0059739584 -0.0070732753
0.0032616279 -0.0032760417 -0.016685344
-0.0032616279 0.0088645834 -0.013417241
0.0021104652 -0.0038541667 -0.00092155155
-0.0009593023 0.0079010418 -0.00092155155
0.0009593023 0.0042395834 -0.00092155155
0.0063313954 0.0073229168 -0.0066887927
0.0013430233 0.00038541667 -0.018607758
0.00825 -0.0065520834 -0.0051508616
0.0017267442 -0.0088645834 -0.0089956895
-0.00825 -0.00019270834 -0.0049586203
-0.0057558138 -0.0092500001 -0.0061120684
-0.00057558139 0.0036614584 -0.018607758
-0.007482558 0.0084791668 -0.0049586203
0.0023023256 -0.0077083334 -0.018415516
0.00825 -0.0084791668 -0.0061120684
-0.0070988373 -0.0073229168 -0.0028439653
-0.0032616279 0.0088645834 -0.010918103
-0.0051802327 -0.0052031251 -0.00015258607
-0.0011511628 0.0088645834 -0.011110344
0.0034534885 -0.0077083334 -0.015724137
0.0053720931 0.0086718751 -0.0022672412
0.0024941859 -0.0036614584 -0.018607758
-0.0076744184 -0.0021197917 -0.0028439653
0.0059476746 0.0052031251 -0.012648275
-0.0032616279 -0.0019270834 -0.018223274
0.0063313954 -0.0088645834 -0.0028439653
0.00825 0 -0.0039974134
0.0069069769 0.00019270834 -0.006881034
-0.00825 -0.0057812501 -0.0059198271
0.00825 -0.00038541667 -0.0061120684
-0.0063313954 -0.0069375001 -0.0066887927
-0.00825 0.0013489584 -0.0045741377
0.0053720931 0.0082864584 -0.00053706882
-0.0044127908 -0.0086718751 -0.0066887927
-0.0009593023 -0.0092500001 -0.0045741377
-0.0046046511 0.0092500001 -0.00015258607
0.0057558138 -0.0040468751 -0.00015258607
0.00825 0.0052031251 -0.0063043102
-0.0057558138 0.002890625 -0.0020749997
0.0036453488 -0.0092500001 -0.0030362066
0 0.0088645834 -0.011110344
-0.0011511628 0.0088645834 -0.012263793
-0.0009593023 -0.0088645834 -0.016108621
0.0036453488 0.0036614584 -0.00015258607
0.0034534885 0.0071302084 -0.015724137
0.006139535 -0.0050104167 -0.0074577583
0.0028779069 -0.0088645834 -0.015916379
-0.0028779069 0.0088645834 -0.017454309
0.0013430233 -0.0088645834 -0.0084189652
-0.0057558138 -0.0019270834 -0.0020749997
-0.0065232557 0.00057812501 -0.0078422409
0.0078662792 -0.0088645834 -0.0030362066
-0.0032616279 -0.0030833334 -0.016493103
0.0065232557 -0.00346875 -0.00034482745
-0.0013430233 0.0088645834 -0.015916379
-0.0055639534 -0.0057812501 -0.0088034477
0.0051802327 0.0065520834 -0.0088034477
0.0072906977 0.0063593751 -0.0028439653
0.0011511628 0.0069375001 -0.00092155155
-0.0065232557 -0.0025052084 -0.013609482
-0.0057558138 -0.0053958334 -0.0076499996
-0.0067151161 -0.0015416667 -0.014762931
0.0042209304 0.0092500001 -0.0016905171
-0.0067151161 0.0023125 -0.015531896
-0.0078662792 0.0080937501 -0.0061120684
0.0065232557 -0.00077083334 -0.0024594825
-0.0009593023 0.0088645834 -0.014186206
-0.0063313954 -0.0092500001 -0.0059198271
0.0040290696 0.0061666667 -0.015531896
0 -0.0088645834 -0.014570689
-0.0038372092 -0.0032760417 -0.015916379
-0.0028779069 -0.0065520834 -0.018415516
0.0024941859 0.0021197917 -0.00072931021
-0.0013430233 -0.0061666667 -0.018415516
0.0036453488 0.0055885417 -0.015724137
-0.0032616279 0.0015416667 -0.016493103
0.0017267442 -0.0080937501 -0.018415516
-0.0028779069 -0.0088645834 -0.012263793
-0.0065232557 0.00077083334 -0.0099568963
0.0078662792 0.0061666667 -0.0028439653
-0.00057558139 0.0092500001 -0.0018827585
0.00825 -0.0069375001 -0.0039974134
0.0067151161 -0.0042395834 -0.0028439653
0.0051802327 0.0065520834 -0.013993965
-0.0024941859 -0.0077083334 -0.00092155155
0.0051802327 -0.0092500001 -0.0043818965
0.00825 0.0077083334 -0.0045741377
-0.0032616279 0.0015416667 -0.017262068
-0.0028779069 -0.0092500001 -0.0041896547
-0.0019186046 0.002890625 -0.018607758
0.006139535 -0.0092500001 -0.0039974134
-0.0021104652 0.0090572918 -0.011687068
-0.0059476746 -0.0025052084 -0.00015258607
0.0065232557 -0.0023125 -0.010149137
0.0015348837 0.0092500001 -0.0036129309
-0.0046046511 -0.0073229168 -0.007265517
0.0063313954 0.0040468751 -0.0084189652
-0.0042209304 0.0067447918 -0.0097646546
0.0030697675 0.0080937501 -0.017069828
0.0009593023 -0.0088645834 -0.0078422409
0.0032616279 -0.0067447918 -0.00053706882
-0.006139535 0.0063593751 -0.00015258607
0.0009593023 0.0090572918 -0.0099568963
0.0026860465 -0.0088645834 -0.012840517
-0.00825 -0.001734375 -0.0061120684
-0.0030697675 -0.0032760417 -0.018415516
-0.0059476746 -0.0079010418 -0.00034482745
-0.007482558 0.0084791668 -0.0041896547
0.007482558 0.0046250001 -0.0066887927
0.0044127908 0.0092500001 -0.00072931021
-0.0051802327 0.0073229168 -0.00015258607
-0.00825 -0.0013489584 -0.0055353446
0.0034534885 -0.0084791668 -0.013417241
0.0065232557 0.0030833334 -0.0011137929
-0.0032616279 0.00057812501 -0.018031035
-0.0034534885 -0.0057812501 -0.018223274
0.0019186046 -0.0055885417 -0.018607758
0.0013430233 -0.0090572918 -0.007265517
0.0032616279 0.0086718751 -0.010341379
-0.0063313954 0.0092500001 -0.0049586203
0.0049883719 0.0067447918 -0.0076499996
-0.0013430233 -0.0088645834 -0.016300861
0.0072906977 0.0057812501 -0.0066887927
-0.00825 0.0026979167 -0.0034206894
0.0017267442 0.0061666667 -0.00092155155
-0.0032616279 0.00346875 -0.016300861
-0.00057558139 0.0092500001 -0.004766379
0.00038372094 -0.00096354168 -0.00092155155
0.0059476746 0.0067447918 -0.00072931021
-0.0069069769 0.00077083334 -0.006881034
-0.0011511628 0.0090572918 -0.015147413
-0.0070988373 0.0052031251 -0.0066887927
-0.0032616279 0.001734375 -0.017454309
-0.0011511628 0.0030833334 -0.00092155155
-0.0028779069 0.00096354168 -0.00072931021
-0.0065232557 -0.0032760417 -0.00034482745
-0.0026860465 -0.0065520834 -0.018415516
0.0024941859 -0.00019270834 -0.018415516
0.0023023256 -0.0090572918 -0.014762931
0.0059476746 -0.0052031251 0.0023465517
-0.0059476746 -0.0050104167 -0.013417241
0.0080581391 -0.0050104167 -0.0066887927
-0.0019186046 0.0088645834 -0.012071551
0.00825 0.00057812501 -0.0053431033
0.0070988373 0.0084791668 -0.0064965514
0.0032616279 0.0042395834 -0.016685344
0.0065232557 -0.0092500001 -0.0034206894
0.0067151161 -0.0021197917 -0.015531896
-0.0055639534 -0.0061666667 -0.015339655
0.0065232557 -0.0079010418 -0.0028439653
0.0021104652 -0.0092500001 -0.0039974134
-0.0034534885 -0.0082864584 -0.0091879303
0.0057558138 -0.0025052084 -0.0014982757
-0.00825 -0.00346875 -0.0055353446
0.00825 -0.002890625 -0.0043818965
-0.00057558139 -0.0092500001 -0.0022672412
0.0065232557 -0.00346875 -0.00053706882
0.00825 0.002890625 -0.0059198271
0.0053720931 0.0042395834 -0.015531896
-0.0080581391 0.0015416667 -0.0066887927
-0.0019186046 0.0032760417 -0.018607758
0.0044127908 -0.00057812501 -0.00015258607
-0.0040290696 0.0079010418 -0.0097646546
-0.0042209304 0.0084791668 -0.00015258607
0.00825 0.00096354168 -0.0045741377
0.006139535 -0.0067447918 -0.0020749997
0.0009593023 -0.00019270834 -0.00092155155
-0.0023023256 -0.0079010418 -0.018415516
0.0032616279 -0.00057812501 -0.00053706882
0.007482558 0 -0.0066887927
0.0063313954 -0.0057812501 -0.0018827585
-0.0078662792 0.0080937501 -0.0045741377
-0.0053720931 0.002890625 -0.0020749997
0.0065232557 0.0092500001 -0.0043818965
0.0065232557 -0.0021197917 -0.00015258607
0.0078662792 0.0026979167 -0.0066887927
0.0034534885 0.0059739584 -0.017646551
-0.00825 -0.0053958334 -0.0064965514
-0.00825 0.0055885417 -0.004766379
0.0067151161 0.0025052084 -0.014955171
-0.006139535 0.0067447918 0.00023189667
0.0040290696 0.0071302084 -0.015531896
0.0063313954 0.0046250001 -0.0016905171
0.0055639534 0.0077083334 -0.0018827585
-0.0053720931 0.0021197917 -0.0016905171
-0.0044127908 0.0092500001 -0.0018827585
0.00825 -0.0036614584 -0.0053431033
0.0047965115 -0.00115625 -0.00015258607
-0.0044127908 -0.0075156251 -0.01187931
-0.0065232557 0.0021197917 -0.011110344
-0.0063313954 -0.0042395834 -0.0078422409
-0.0059476746 -0.0050104167 -0.011494827
-0.0032616279 0.0057812501 -0.017262068
-0.0011511628 -0.0088645834 -0.017454309
0.0015348837 0.0044322917 -0.00092155155
0.0057558138 0.0053958334 -0.010533621
0.00019186047 -0.0086718751 -0.0097646546
-0.0065232557 -0.0036614584 -0.0078422409
-0.0065232557 0.00057812501 -0.0024594825
0.0038372092 0.0061666667 -0.00015258607
0.00057558139 -0.001734375 -0.00092155155
-0.0065232557 0.0038541667 -0.015147413
-0.0026860465 -0.0088645834 -0.0074577583
-0.0032616279 0.00077083334 -0.016877586
0.0070988373 0.0088645834 -0.0064965514
-0.0026860465 -0.0077083334 -0.00092155155
-0.0047965115 -0.0086718751 -0.0066887927
0.0065232557 -0.0046250001 -0.014955171
-0.0076744184 0.0053958334 -0.0066887927
0.0063313954 -0.0038541667 -0.00015258607
-0.0067151161 0.0044322917 -0.0066887927
-0.0065232557 0.00096354168 -0.0089956895
-0.0040290696 0.0092500001 -0.0039974134
-0.0067151161 0.0026979167 -0.014762931
0.0055639534 -0.0092500001 -0.0030362066
0.006139535 0.0048177084 -0.0084189652
0.0034534885 0.0053958334 -0.018031035
0.0017267442 -0.0088645834 -0.013993965
-0.0072906977 -0.0084791668 -0.0043818965
0.0038372092 -0.0065520834 -0.00015258607
0.006139535 -0.0048177084 -0.010918103
0.0070988373 -0.0092500001 -0.0039974134
0.00057558139 -0.0036614584 -0.00092155155
-0.0053720931 -0.0065520834 -0.015147413
0.0032616279 0.0019270834 -0.016877586
0.00825 0.00096354168 -0.0043818965
-0.0034534885 0.0077083334 -0.00015258607
-0.0026860465 -0.0036614584 -0.018415516
0.0021104652 0.0053958334 -0.00092155155
-0.0032616279 0.0042395834 -0.018415516
0.0042209304 -0.0044322917 -0.00015258607
0.0065232557 -0.0040468751 -0.0022672412
0.0063313954 -0.0082864584 -0.0028439653
0.00076744187 -0.0036614584 -0.00092155155
0.00825 0.0040468751 -0.0045741377
0.00825 -0.0015416667 -0.0059198271
0.0028779069 -0.0026979167 -0.00072931021
-0.0065232557 0.0048177084 -0.00034482745
0.0065232557 -0.0032760417 -0.0024594825
-0.00825 0.0032760417 -0.0055353446
0.0019186046 0.0092500001 -0.0066887927
-0.0065232557 0.00096354168 -0.011494827
-0.0059476746 0.0052031251 -0.013224999
0.0015348837 0.0092500001 -0.0038051722
0.0026860465 0.0088645834 -0.011302586
0.0009593023 -0.0053958334 -0.018607758
0.0034534885 -0.0084791668 -0.012648275
0.006139535 -0.0092500001 -0.0045741377
0.0076744184 -0.0090572918 -0.0032284481
0.00076744187 0.0092500001 -0.0020749997
-0.0063313954 -0.0057812501 -0.00034482745
0.0032616279 -0.0086718751 -0.00015258607
-0.0047965115 0.0092500001 -0.0043818965
-0.0057558138 0.00057812501 -0.0011137929
-0.0024941859 -0.0015416667 -0.00072931021
-0.0063313954 -0.0040468751 -0.009380172
0 -0.0092500001 -0.002651724
0.0032616279 -0.002890625 -0.016300861
0.0032616279 -0.0092500001 -0.0053431033
-0.0072906977 -0.0040468751 -0.0066887927
-0.0051802327 -0.0046250001 -0.00015258607
0.00825 0.0052031251 -0.0051508616
0.0026860465 -0.0088645834 -0.016493103
-0.0038372092 -0.0052031251 -0.015724137
0 -0.0088645834 -0.0091879303
-0.0032616279 0.00346875 -0.00053706882
-0.0009593023 -0.0048177084 -0.018607758
0.0065232557 -0.00346875 -0.0078422409
0.0072906977 0.00077083334 -0.006881034
-0.0032616279 0.0080937501 -0.017454309
0.007482558 0.0055885417 -0.0066887927
0.0017267442 0.0092500001 -0.0064965514
0.0047965115 0.0092500001 -0.00053706882
0.0044127908 0.00115625 -0.015724137
-0.00076744187 0.0088645834 -0.016108621
0.0053720931 -0.0019270834 -0.0013060343
-0.0046046511 -0.0019270834 -0.00015258607
0.0015348837 -0.0075156251 -0.00092155155
0.0030697675 0.0082864584 -0.016685344
0.0024941859 0.0090572918 -0.018223274
0.0049883719 -0.0055885417 -0.015531896
0 0.0090572918 -0.0084189652
0.0032616279 -0.0059739584 -0.017069828
-0.0065232557 0.0059739584 -0.0024594825
-0.0049883719 0.0073229168 -0.00015258607
-0.0053720931 0.0019270834 -0.00034482745
0.0072906977 -0.0090572918 -0.0055353446
-0.0057558138 -0.0030833334 -0.00092155155
-0.0032616279 -0.001734375 -0.018031035
0.00076744187 -0.0088645834 -0.0074577583
0.006139535 -0.0050104167 -0.00015258607
0.0011511628 -0.00115625 -0.018607758
-0.0044127908 0.0025052084 -0.00015258607
0.0040290696 0.0077083334 -0.0095724137
0.0040290696 -0.00077083334 -0.00015258607
-0.0057558138 -0.00077083334 -0.00053706882
-0.0013430233 -0.0084791668 -0.018415516
0.00057558139 0.0092500001 -0.0061120684
0.00825 -0.00096354168 -0.0061120684
-0.0009593023 -0.0092500001 -0.0055353446
0.0047965115 -0.0071302084 -0.014186206
-0.0021104652 0.0015416667 -0.00072931021
0.00825 -0.00096354168 -0.0057275859
-0.0040290696 -0.0057812501 -0.00015258607
-0.0059476746 -0.0052031251 -0.011110344
-0.0015348837 0.0092500001 -0.0055353446
-0.0065232557 0.0036614584 -0.012071551
-0.0028779069 -0.0036614584 -0.018415516
-0.0049883719 0.0038541667 -0.015724137
-0.0059476746 0.0040468751 0.0023465517
-0.006139535 -0.00019270834 -0.00015258607
-0.0032616279 -0.00346875 -0.016300861
0.0026860465 0.0088645834 -0.010149137
-0.0067151161 0.00019270834 -0.015147413
-0.007482558 -0.0025052084 -0.0066887927
-0.0051802327 -0.0092500001 -0.004766379
0.0019186046 0.0090572918 -0.016877586
0.0023023256 0.0071302084 -0.018415516
-0.0070988373 -0.0082864584 -0.0064965514
-0.0028779069 -0.002890625 -0.018415516
-0.0023023256 -0.0088645834 -0.013224999
-0.006139535 -0.0065520834 0.0015775863
-0.00825 -0.0026979167 -0.0041896547
-0.0034534885 -0.0059739584 -0.017646551
0.0063313954 0.0040468751 -0.0076499996
-0.0032616279 -0.0013489584 -0.016108621
0.0076744184 -0.0067447918 -0.0066887927
0.0030697675 -0.0092500001 -0.0061120684
-0.0065232557 -0.00096354168 -0.0013060343
0.0026860465 0.0088645834 -0.0088034477
0.0065232557 -0.001734375 -0.011494827
0.0051802327 0.0063593751 -0.01187931
-0.00076744187 0.001734375 -0.018607758
-0.0047965115 0.0071302084 -0.01187931
-0.0059476746 -0.00019270834 -0.00015258607
0.00825 0.0050104167 -0.0043818965
0.00825 0.0015416667 -0.0057275859
-0.0011511628 -0.0075156251 -0.018415516
-0.0017267442 -0.0023125 -0.00092155155
0.0032616279 -0.0071302084 -0.018031035
-0.0065232557 0.00115625 -0.0013060343
-0.0057558138 0.0082864584 -0.0016905171
0.0044127908 -0.0079010418 -0.00015258607
-0.0032616279 -0.0038541667 -0.017262068
0.0067151161 -0.0030833334 -0.015339655
-0.0065232557 -0.00019270834 -0.01187931
0.0015348837 0.0090572918 -0.010918103
0.0078662792 0 -0.0028439653
-0.0069069769 -0.0038541667 -0.0028439653
0.0053720931 0.0092500001 -0.0038051722
0.0055639534 -0.0059739584 -0.013224999
-0.0063313954 0.0044322917 -0.0084189652
-0.00038372094 -0.0052031251 -0.018607758
0.0017267442 0.0090572918 -0.017646551
0.0044127908 0.0075156251 -0.0076499996
0.0053720931 -0.0032760417 -0.00015258607
0.0049883719 -0.0065520834 -0.011687068
-0.0067151161 -0.00057812501 -0.006881034
0.00825 0.0061666667 -0.0053431033
-0.0065232557 0.00096354168 -0.0018827585
0.0072906977 -0.00077083334 -0.006881034
0.0080581391 -0.00346875 -0.0066887927
-0.006139535 -0.0069375001 0.00023189667
-0.0065232557 -0.00077083334 -0.014186206
0.0049883719 0.0092500001 -0.0043818965
-0.0011511628 0.0088645834 -0.012840517
0.0065232557 0.0015416667 -0.0024594825
-0.00825 -0.0055885417 -0.0043818965
-0.0063313954 -0.0013489584 0.0017698277
0.0059476746 -0.0075156251 -0.002651724
0.0030697675 0.0088645834 -0.0086112069
-0.0053720931 0.0059739584 -0.0088034477
-0.0053720931 -0.00096354168 -0.00072931021
0.0057558138 -0.00346875 -0.00015258607
-0.0015348837 0.002890625 -0.018607758
0.00825 -0.0080937501 -0.0038051722
-0.0053720931 -0.0048177084 -0.00015258607
-0.0065232557 -0.00096354168 -0.012648275
0.00057558139 -0.0046250001 -0.00092155155
-0.0032616279 -0.0038541667 -0.00015258607
-0.0032616279 0.0021197917 -0.018415516
-0.0038372092 -0.0092500001 -0.0034206894
-0.0065232557 -0.0040468751 -0.00034482745
-0.00057558139 -0.0090572918 -0.013993965
-0.00038372094 -0.0092500001 -0.006881034
-0.0028779069 0.0092500001 -0.0028439653
-0.0013430233 -0.002890625 -0.00092155155
0.0072906977 -0.0067447918 -0.0028439653
0.0042209304 -0.0038541667 -0.015916379
0.0067151161 -0.0059739584 -0.0028439653
0.0038372092 0.0092500001 -0.0057275859
-0.0078662792 0.0079010418 -0.004766379
-0.0026860465 -0.0092500001 -0.0064965514
0.0028779069 0.0079010418 -0.018415516
0.0028779069 -0.00115625 -0.018415516
0.0065232557 -0.0030833334 -0.0022672412
-0.0028779069 0.0021197917 -0.00072931021
-0.0059476746 0.0052031251 -0.0084189652
0.0015348837 0.0092500001 -0.0028439653
-0.0036453488 -0.0084791668 -0.0066887927
0.0047965115 0.0069375001 -0.0091879303
0.0059476746 -0.0069375001 -0.0014982757
-0.0047965115 -0.0090572918 -0.00053706882
-0.0065232557 0.00038541667 -0.0016905171
-0.00825 0.00096354168 -0.0049586203
0.00076744187 -0.0088645834 -0.009380172
0.0065232557 -0.00346875 -0.0089956895
-0.0070988373 0.0071302084 -0.0028439653
-0.0042209304 -0.0080937501 -0.00015258607
0.0055639534 -0.0030833334 -0.002651724
-0.0047965115 0.0052031251 -0.015531896
-0.0017267442 -0.0092500001 -0.0055353446
-0.00825 -0.0069375001 -0.0059198271
-0.0030697675 0.0088645834 -0.014378448
-0.0078662792 0 -0.0066887927
0.0040290696 0.0067447918 -0.015531896
-0.0078662792 -0.001734375 -0.0028439653
0.00825 -0.0013489584 -0.0066887927
-0.0015348837 -0.0042395834 -0.018415516
0.0078662792 -0.0044322917 -0.0028439653
0.0065232557 0.0092500001 -0.0028439653
-0.0032616279 0.0079010418 -0.017646551
-0.0023023256 0.0088645834 -0.016108621
-0.0032616279 0.0030833334 -0.016108621
-0.0059476746 -0.0019270834 -0.015724137
0.0065232557 -0.0042395834 -0.00053706882
0.0053720931 0.0082864584 -0.0016905171
-0.00038372094 -0.0092500001 -0.0018827585
0.0051802327 0.0050104167 -0.015531896
0.0065232557 -0.0030833334 -0.010725861
0.0049883719 -0.0040468751 -0.00015258607
-0.0065232557 0.00057812501 -0.0097646546
0.0065232557 0.0015416667 -0.01187931
0.0015348837 0.0079010418 -0.018415516
0.007482558 0.0036614584 -0.0066887927
0.0065232557 -0.00019270834 -0.010341379
-0.0065232557 0.0015416667 -0.011110344
0.0028779069 0.0092500001 -0.004766379
-0.0040290696 -0.0048177084 -0.015724137
-0.0030697675 -0.0021197917 -0.00072931021
0.0009593023 0.0090572918 -0.0084189652
-0.0051802327 0.0013489584 -0.015724137
-0.00038372094 0.0088645834 -0.016685344
-0.0021104652 -0.0092500001 -0.0039974134
0.0024941859 -0.0025052084 -0.00072931021
0.0067151161 0.0030833334 -0.014955171
0.0030697675 -0.0048177084 -0.00072931021
-0.0063313954 -0.0065520834 -0.00092155155
-0.0059476746 -0.0067447918 0.0033077586
0.0019186046 -0.0030833334 -0.018607758
0.00825 -0.0067447918 -0.0059198271
0.006139535 0.0053958334 -0.00092155155
-0.006139535 0.0053958334 -0.014955171
-0.0067151161 -0.0092500001 -0.0059198271
-0.0026860465 -0.0073229168 -0.018415516
-0.0057558138 -0.00077083334 -0.00072931021
0.0026860465 -0.0080937501 -0.0099568963
0.0078662792 0.0092500001 -0.0043818965
0.0065232557 0.0025052084 -0.0078422409
-0.0065232557 0.0025052084 -0.0086112069
-0.0049883719 0.0090572918 -0.0064965514
0.006139535 0.0053958334 0.00061637943
0.0017267442 0.0092500001 -0.004766379
-0.0011511628 -0.00115625 -0.018607758
0.00038372094 -0.0088645834 -0.0078422409
-0.0057558138 -0.0015416667 -0.0013060343
-0.00038372094 -0.0038541667 -0.018607758
0.0034534885 0.0055885417 -0.017069828
0.0053720931 0.0061666667 -0.014378448
-0.0065232557 0.0030833334 -0.0084189652
0.00825 0 -0.0038051722
0.0065232557 0.00346875 -0.010725861
0.0076744184 0.0059739584 -0.0064965514
0.0067151161 0.0030833334 -0.014570689
-0.0070988373 0.0088645834 -0.0039974134
0.0046046511 -0.0092500001 -0.0059198271
0.0065232557 0.00038541667 -0.0088034477
-0.0047965115 0.0057812501 -0.00015258607
0.0057558138 0.0053958334 -0.0097646546
0.0032616279 0.0046250001 -0.016493103
0 0.0088645834 -0.013993965
-0.0032616279 0.0075156251 -0.017646551
-0.00825 0.00057812501 -0.0043818965
-0.0024941859 0.0092500001 -0.0032284481
-0.0017267442 -0.0092500001 -0.0011137929
0.006139535 -0.0052031251 3.9655297e-05
0.0065232557 0 -0.012840517
0.0034534885 0.0073229168 -0.00015258607
-0.0011511628 0.001734375 -0.018607758
-0.0065232557 0.00077083334 -0.010725861
0.0053720931 0.00096354168 -0.00034482745
0.0065232557 0.00346875 -0.012456034
0.0040290696 0.0092500001 -0.0064965514
-0.0030697675 -0.00019270834 -0.018415516
-0.0017267442 0.00115625 -0.00092155155
-0.0044127908 0.0069375001 -0.0097646546
0.00057558139 0.0090572918 -0.010149137
-0.0032616279 0.0057812501 -0.00034482745
0.0057558138 0.0053958334 -0.013417241
-0.0015348837 -0.0025052084 -0.018415516
0.0057558138 0.0053958334 -0.00015258607
0.0057558138 0.0026979167 -0.00092155155
0.0034534885 0.0057812501 -0.016493103
0.0055639534 -0.0063593751 -0.0066887927
0.0070988373 -0.0092500001 -0.004766379
0.0047965115 0.0069375001 -0.013609482
0.007482558 0.0032760417 -0.0028439653
0.0017267442 0.0092500001 -0.0016905171
0.0034534885 -0.0067447918 -0.00015258607
-0.0011511628 -0.0048177084 -0.018415516
-0.0038372092 -0.0073229168 -0.015531896
-0.0053720931 -0.0025052084 -0.00092155155
-0.00038372094 0.0090572918 -0.010725861
0.0011511628 0.0053958334 -0.00092155155
-0.00825 0.0046250001 -0.0032284481
0.00825 0.0044322917 -0.0063043102
0.0032616279 -0.0059739584 -0.018415516
0.0032616279 0.0073229168 -0.016685344
-0.0044127908 0.0075156251 -0.0078422409
-0.0065232557 -0.0013489584 -0.0095724137
0.0036453488 0.0063593751 -0.016108621
0.0047965115 -0.0071302084 -0.013609482
0.0011511628 0.0092500001 -0.0018827585
-0.0044127908 0.0092500001 -0.0028439653
0.0040290696 -0.0092500001 -0.0014982757
0.0065232557 0.0026979167 -0.014570689
0.0030697675 0.0053958334 -0.00072931021
-0.00038372094 0.0013489584 -0.00092155155
-0.00019186047 -0.0088645834 -0.011110344
0.0013430233 0.0090572918 -0.0070732753
-0.0028779069 0.0090572918 -0.0066887927
0.0017267442 0 -0.00072931021
0.0023023256 0.00346875 -0.00072931021
0.0038372092 -0.0015416667 -0.015916379
0.0080581391 -0.0088645834 -0.0043818965
0.0032616279 -0.0067447918 -0.00034482745
-0.0053720931 0.0021197917 -0.0022672412
-0.006139535 -0.0046250001 -0.0078422409
0.0032616279 0.00115625 -0.00015258607
-0.0047965115 -0.0092500001 -0.0020749997
-0.0042209304 -0.0084791668 -0.00015258607
0.0015348837 0.0071302084 -0.00092155155
0.0080581391 -0.0052031251 -0.0066887927
-0.0053720931 -0.0061666667 -0.0078422409
-0.0024941859 -0.0088645834 -0.013224999
-0.007482558 -0.0082864584 -0.0057275859
-0.006139535 0.0013489584 0.0010008621
0.0053720931 -0.0092500001 -0.0032284481
0.0028779069 -0.0063593751 -0.00072931021
0.0042209304 -0.0013489584 -0.00015258607
0.0059476746 0.0036614584 -0.015531896
-0.0034534885 0.0086718751 -0.013032758
-0.00057558139 -0.0088645834 -0.014570689
-0.0057558138 0.0055885417 -0.011494827
0.0080581391 -0.0015416667 -0.0028439653
-0.0063313954 0.0046250001 -0.010725861
0.0051802327 0.0092500001 -0.0053431033
0.0026860465 -0.0079010418 -0.018415516
0.0063313954 0.0042395834 -0.0070732753
-0.0028779069 -0.0092500001 -0.0045741377
0.0069069769 -0.0092500001 -0.0064965514
0.0072906977 0.0092500001 -0.0032284481
0.0011511628 0.0075156251 -0.00092155155
0.0078662792 0.0042395834 -0.0028439653
0.0055639534 0.00115625 -0.015724137
0.0026860465 0.0088645834 -0.015724137
0.0057558138 -0.0077083334 -0.00034482745
0.0017267442 -0.0071302084 -0.00092155155
-0.0063313954 -0.0075156251 -0.0066887927
-0.0051802327 0.002890625 -0.00015258607
-0.0059476746 0.0092500001 -0.0057275859
-0.0047965115 -0.0021197917 -0.00015258607
-0.00825 -0.0021197917 -0.0053431033
0.0057558138 -0.001734375 -0.015531896
-0.0032616279 -0.0030833334 -0.017646551
0.0034534885 -0.0073229168 -0.00015258607
-0.0032616279 0.0021197917 -0.018031035
0.0019186046 -0.0021197917 -0.018607758
0.0047965115 0.0090572918 -0.0066887927
-0.0028779069 -0.0057812501 -0.00072931021
0.0063313954 -0.0044322917 -0.007265517
-0.0065232557 -0.0063593751 -0.002651724
-0.0017267442 -0.0092500001 -0.002651724
0.0063313954 -0.0021197917 -0.015531896
0.0051802327 -0.0086718751 -0.0066887927
0.0028779069 -0.0013489584 -0.018415516
-0.0070988373 0.0059739584 -0.0028439653
-0.0032616279 0.0061666667 -0.017454309
-0.0059476746 0.0050104167 -0.010149137
0.0080581391 0.0042395834 -0.0064965514
-0.0028779069 -0.0025052084 -0.018415516
0.007482558 0.002890625 -0.0028439653
0.0080581391 0.0088645834 -0.0063043102
0.0015348837 0.0090572918 -0.0091879303
0.0011511628 -0.0038541667 -0.00092155155
0.0067151161 -0.0063593751 -0.0066887927
-0.0046046511 -0.0069375001 -0.015339655
0.0057558138 0 -0.00015258607
0.0030697675 0.0055885417 -0.00072931021
-0.0034534885 -0.0082864584 -0.0082267234
0.0078662792 0.0077083334 -0.0028439653
-0.0032616279 0 -0.016108621
-0.00825 0.0019270834 -0.0039974134
0.0028779069 -0.0061666667 -0.00072931021
-0.007482558 -0.0053958334 -0.0066887927
0.0032616279 -0.001734375 -0.017454309
-0.0057558138 0.0023125 -0.00034482745
0.0024941859 0 -0.00072931021
0.0040290696 0.0079010418 -0.011687068
-0.00825 0.00038541667 -0.0045741377
0.0038372092 0.0046250001 -0.015916379
-0.0078662792 0.0079010418 -0.0039974134
-0.0036453488 0.001734375 -0.015916379
-0.0044127908 -0.0077083334 -0.010341379
0.0065232557 -0.00096354168 -0.012648275
-0.0028779069 -0.0082864584 -0.00092155155
-0.0013430233 -0.0069375001 -0.00092155155
0.0038372092 0.0080937501 -0.013032758
-0.0026860465 -0.0059739584 -0.018415516
0.0040290696 0.0080937501 -0.015339655
-0.0065232557 0.0021197917 -0.0074577583
-0.0065232557 -0.0052031251 -0.0024594825
-0.0055639534 -0.0032760417 -0.00092155155
-0.0019186046 0.0088645834 -0.015339655
-0.0063313954 0.0044322917 -0.0082267234
0.0011511628 -0.0036614584 -0.00092155155
0.0057558138 0.0053958334 -0.013224999
0.0069069769 -0.0042395834 -0.0028439653
-0.0065232557 0.001734375 -0.013032758
0.0026860465 -0.0071302084 -0.00092155155
0.0078662792 -0.0036614584 -0.0066887927
-0.0057558138 -0.0057812501 -0.0066887927
0.00825 0.0032760417 -0.0043818965
0.0065232557 -0.0015416667 -0.0097646546
0.0065232557 -0.00077083334 -0.0020749997
-0.0044127908 -0.0077083334 -0.015147413
0.0065232557 -0.0032760417 -0.0076499996
0.007482558 0.0092500001 -0.004766379
-0.0042209304 0.0082864584 -0.00015258607
0.0051802327 0.0025052084 -0.00015258607
0.0067151161 -0.0019270834 -0.002651724
0.006139535 0.0044322917 -0.007265517
-0.0063313954 -0.0026979167 -0.00015258607
0.0065232557 -0.00096354168 -0.013993965
-0.0057558138 -0.0055885417 -0.010918103
-0.0013430233 -0.0077083334 -0.00092155155
-0.0065232557 0.0042395834 -0.013801724
0.00825 0.0030833334 -0.0034206894
0.00825 0.0044322917 -0.0055353446
0.0053720931 -0.0092500001 -0.0051508616
0.0011511628 -0.0077083334 -0.018607758
0.00019186047 0.0015416667 -0.018607758
0.0053720931 0.001734375 -0.00072931021
-0.0030697675 -0.0030833334 -0.00072931021
-0.0011511628 -0.0042395834 -0.018607758
0.00038372094 -0.001734375 -0.00092155155
-0.0017267442 -0.0088645834 -0.0097646546
0.006139535 -0.0059739584 -0.00053706882
0.0051802327 -0.001734375 -0.015724137
-0.0063313954 0.0044322917 -0.0088034477
-0.00038372094 -0.0092500001 -0.0016905171
0.007482558 -0.0092500001 -0.004766379
0.0053720931 -0.0061666667 -0.0074577583
-0.00825 -0.0065520834 -0.004766379
-0.0024941859 -0.0088645834 -0.013993965
0.0049883719 0.0026979167 -0.015724137
-0.00019186047 0.002890625 -0.018607758
0.0059476746 0.0092500001 -0.0064965514
-0.0070988373 0.0013489584 -0.006881034
-0.0065232557 -0.0048177084 -0.0020749997
0.0021104652 0.0082864584 -0.018415516
-0.0032616279 -0.0092500001 -0.0024594825
-0.00825 -0.0038541667 -0.0063043102
0.0032616279 0.00019270834 -0.017454309
0.0065232557 -0.00019270834 -0.00034482745
-0.00825 0.0025052084 -0.0036129309
-0.0017267442 -0.0090572918 -0.011110344
0.0032616279 0.0021197917 -0.017069828
-0.00825 -0.0067447918 -0.0057275859
0.0017267442 -0.0032760417 -0.00092155155
0.0021104652 -0.0052031251 -0.018607758
-0.0080581391 0.0067447918 -0.0057275859
-0.00076744187 0.0092500001 -0.0028439653
0.00019186047 0.0090572918 -0.018031035
0.0032616279 0.00077083334 -0.018031035
0.0051802327 0.0063593751 -0.011687068
-0.0026860465 0.0077083334 -0.018607758
-0.0044127908 -0.0036614584 -0.015724137
0.0024941859 -0.0092500001 -0.0022672412
-0.0063313954 0.0067447918 -0.00015258607
0.0053720931 0.001734375 -0.0020749997
0.00038372094 0.0080937501 -0.00092155155
0.0065232557 -0.00057812501 -0.0097646546
0.00057558139 0 -0.018607758
0.0026860465 0.0092500001 -0.0045741377
-0.0013430233 0.00019270834 -0.018607758
-0.0065232557 0 -0.0095724137
-0.0038372092 -0.0092500001 -0.00015258607
0.0009593023 0.00077083334 -0.018607758
0.0065232557 0.00019270834 -0.0088034477
-0.00825 0.0019270834 -0.0053431033
-0.0032616279 0.0079010418 -0.00034482745
-0.00076744187 0.0088645834 -0.012456034
-0.0024941859 -0.0044322917 -0.018415516
0.0055639534 0.0042395834 -0.00015258607
-0.0019186046 0.0092500001 -0.0059198271
0.00038372094 0.0092500001 -0.0018827585
0.0053720931 -0.00077083334 -0.002651724
0.0036453488 -0.0019270834 -0.00015258607
0.0047965115 0.0092500001 -0.0055353446
0.00825 0.0079010418 -0.0041896547
-0.0049883719 0.0059739584 -0.00015258607
-0.0044127908 0.0077083334 -0.015339655
0.0017267442 -0.0088645834 -0.017069828
0.0024941859 -0.0092500001 -0.0064965514
0.0032616279 0.00346875 -0.017069828
-0.0009593023 0.0092500001 -0.0043818965
0.0067151161 0.0025052084 -0.0028439653
-0.00825 -0.0042395834 -0.0061120684
0.0032616279 -0.00038541667 -0.018223274
0.0034534885 0.00096354168 -0.00015258607
-0.0038372092 -0.0092500001 -0.0020749997
-0.00825 -0.0059739584 -0.0043818965
0.0032616279 -0.0040468751 -0.018031035
-0.0065232557 0.0023125 -0.012840517
-0.0067151161 -0.001734375 -0.002651724
0.0032616279 -0.0075156251 -0.00053706882
-0.0055639534 -0.0073229168 -0.00015258607
0.00825 0.00346875 -0.0043818965
-0.0055639534 -0.0059739584 -0.011302586
0.0023023256 -0.0090572918 -0.0076499996
-0.0044127908 -0.0077083334 -0.012456034
-0.00825 0.00057812501 -0.0064965514
0.0065232557 0.001734375 -0.015531896
-0.0078662792 -0.00346875 -0.0066887927
-0.0051802327 0.0090572918 -0.0064965514
0.0038372092 -0.0082864584 -0.013993965
-0.0032616279 -0.0030833334 -0.017262068
0.0049883719 -0.0090572918 -0.0064965514
0.0013430233 0.0092500001 -0.0032284481
-0.0072906977 -0.0086718751 -0.0061120684
0.00076744187 -0.0073229168 -0.00092155155
-0.0046046511 0.0073229168 -0.010533621
-0.0063313954 -0.0044322917 -0.012071551
0.0042209304 0.0019270834 -0.015916379
0.00825 0.002890625 -0.0043818965
-0.0065232557 -0.0026979167 -0.012840517
-0.00825 -0.0063593751 -0.0053431033
0.00825 0.0059739584 -0.0053431033
-0.0076744184 -0.0019270834 -0.0028439653
-0.0063313954 0.0063593751 -0.00092155155
-0.0053720931 0.00057812501 -0.0011137929
-0.0030697675 -0.0088645834 -0.00072931021
0.0030697675 0.0079010418 -0.017838793
0.0017267442 -0.0073229168 -0.00092155155
-0.0046046511 0.0073229168 -0.014186206
0 -0.0092500001 -0.0038051722
0.0019186046 0.0092500001 -0.004766379
-0.0063313954 0.0032760417 -0.00015258607
-0.0036453488 0.0092500001 -0.0036129309
-0.0063313954 0.0065520834 -0.0016905171
0.0057558138 0.0092500001 -0.0045741377
-0.0030697675 0.0084791668 -0.018415516
-0.0042209304 0.0092500001 -0.0020749997
-0.0019186046 -0.0090572918 -0.0088034477
-0.0057558138 0.0025052084 -0.0014982757
0.0065232557 0.0021197917 -0.0097646546
0.0013430233 -0.0092500001 -0.0041896547
-0.00057558139 0.0038541667 -0.018607758
0.0023023256 -0.0090572918 -0.0095724137
-0.0028779069 0.0088645834 -0.011687068
-0.0038372092 0.001734375 -0.00015258607
-0.0065232557 -0.0030833334 -0.012263793
0.006139535 -0.0092500001 -0.0063043102
-0.0028779069 -0.0088645834 -0.014762931
0.0065232557 0.0032760417 -0.0016905171
0.0042209304 0.0084791668 -0.0066887927
0.0030697675 -0.0069375001 -0.00072931021
-0.0065232557 0.00077083334 -0.00015258607
