# .PCD v0.7 - Point Cloud Data file format
VERSION 0.7
FIELDS x y z
SIZE 4 4 4
TYPE F F F
COUNT 1 1 1
WIDTH 1214
HEIGHT 1
VIEWPOINT 0 0 0 1 0 0 0
POINTS 1214
DATA ascii
0.0022754166 0.013920397 -0.016850092
-0.0039007145 0.00064746034 -0.019757247
0.0026004761 0.0012949207 -0.013942935
-0.00065011904 -0.0055034133 -0.015881039
-0.013002381 0.00032373017 -5.3190462e-05
-0.010076845 -0.0051796827 -0.010712761
-0.0068262499 -0.0048559527 -0.027509661
-0.01332744 -0.0012949207 -0.0023143117
-0.0019503572 0.0051796827 -0.0016682771
-0.0045508333 -0.0051796827 -0.017819142
0.012352262 0.0025898414 -5.3190462e-05
0.0084515475 -0.0055034133 -0.0132969
0.0032505952 -0.0048559527 -0.0300938
0.0013002381 -0.013596668 -0.013619917
-0.011377083 0.00032373017 -5.3190462e-05
-0.0019503572 0.014567859 -0.01458897
-0.011702143 0.0038847621 -0.024279488
0.00097517861 0.016510239 -0.011681814
-0.01332744 0.0051796827 -0.017173108
-0.010401905 0.0051796827 -0.0016682771
0.010076845 0.00032373017 -0.026540611
0.01332744 0.0022661113 -0.0132969
-0.0026004761 0.014891588 -0.0132969
0.0016252976 -0.0038847621 -5.3190462e-05
-0.01332744 -0.00097119051 -0.015558021
0.01332744 -0.0042084926 -0.014265953
0.0045508333 -0.0022661113 -0.018465178
0.0019503572 0.00032373017 -0.022018367
0.008776607 -0.010035636 -0.016204055
0.0091016665 -0.0055034133 -0.012650866
0 -0.013272937 -0.013619917
0.0022754166 -0.0051796827 -0.024602506
-0.0022754166 0.010359365 -0.01814216
0.0058510713 0.0051796827 -0.00069922511
0 0.013272937 -0.0081286235
0.00097517861 -0.013272937 -0.006836554
0.0019503572 -0.0087407148 -0.017496126
0.0013002381 -0.016510239 -0.0065135369
0.01332744 0.0042084926 -0.006836554
-0.0136525 -0.0042084926 -0.0084516406
-0.0026004761 0.014244128 -0.0036063809
-0.0013002381 0.0051796827 -0.025571559
0.00032505952 0.0051796827 -0.0052214675
0.0029255357 -0.00097119051 -0.021049315
-0.009426726 0.007122064 -0.016204055
-0.0013002381 -0.0038847621 -0.015881039
-0.0032505952 -0.0051796827 -0.028478714
-0.0022754166 -0.0038847621 -0.013619917
-0.012677321 -0.0048559527 -0.0036063809
-0.00065011904 0.01683397 0.0022079307
0.00065011904 -0.01586278 0.0031769827
0.0045508333 0.0061508734 -0.018465178
-0.013002381 -0.00032373017 -0.01814216
-0.01332744 -0.0022661113 -0.00069922511
0.010726964 0.0016186509 -0.025571559
-0.00065011904 0.013272937 -0.0055444846
-0.0039007145 -0.0048559527 -5.3190462e-05
0.00032505952 0.0051796827 -0.0010222424
0.012352262 0.0048559527 -0.020726299
0.0052009523 0.011006827 -0.015881039
-0.0084515475 0.0042084926 -5.3190462e-05
0.0013002381 -0.016510239 -0.0090976749
-0.0019503572 0.0051796827 -0.0029603464
-0.00032505952 -0.014567859 -0.017819142
0.0045508333 -0.0029135717 -0.016850092
-0.0055260118 -0.0038847621 -0.029124748
0.0013002381 -0.0051796827 -0.0081286235
0.0029255357 0.003561032 -0.014265953
-0.00097517861 -0.00097119051 -0.030416818
-0.00032505952 -0.01683397 0.002530948
-0.0022754166 0.0051796827 -0.025894575
-0.0019503572 0.01586278 -0.012973883
-0.0045508333 0.011330556 -0.015881039
-0.01332744 0.0022661113 -0.019111212
-0.0048758928 -0.006798334 -0.018465178
-0.0019503572 0.0051796827 -0.023633454
0.0074763694 0.0051796827 -0.0023143117
0.0045508333 -0.0032373017 -5.3190462e-05
-0.010401905 0.0051796827 -0.0065135369
-0.012352262 0.0061508734 -0.017173108
0.0048758928 -0.0051796827 -0.00037620778
0.0055260118 0.012301747 -0.016204055
0.0045508333 -0.0012949207 -0.018465178
-0.00065011904 0.013272937 -0.0058675022
0.00097517861 -0.013272937 -0.010389744
-0.0035756547 0.0012949207 -5.3190462e-05
-0.0032505952 0.0051796827 -0.029447766
0.0016252976 -0.012625477 -0.018465178
0.00065011904 0.01683397 -0.002637329
-0.0032505952 0.0051796827 -0.011681814
-0.0068262499 0.0055034133 -0.0090976749
-0.012352262 0.0029135717 -5.3190462e-05
0.0035756547 0 -0.020726299
0.012352262 0.0045322226 -5.3190462e-05
0.0052009523 -0.0051796827 -0.027509661
0.0032505952 0.014891588 -0.013619917
0.0013002381 0.0025898414 -0.015881039
-0.01332744 0.0012949207 -0.003929398
-0.00032505952 0 0.0028539654
-0.0058510713 0.0074457941 -0.015881039
0.00097517861 0.013596668 -0.00037620778
0.01332744 0 -0.01814216
-0.0035756547 -0.0051796827 -0.026540611
0.0045508333 0.003561032 -0.016204055
-0.0032505952 0.0051796827 -0.021049315
-0.0013002381 0.001942381 -5.3190462e-05
-0.010726964 -0.0051796827 -0.00037620778
-0.010076845 -0.0045322226 -5.3190462e-05
0.0026004761 -0.0012949207 -0.021372333
0.011052024 0.0051796827 -0.022341385
0.01332744 0.0022661113 -0.012327848
0.0013002381 -0.013596668 -0.0094206929
-0.0026004761 -0.015539048 -0.012327848
0.00032505952 -0.0029135717 -5.3190462e-05
0.0029255357 0.015215319 -0.010389744
0.013002381 0.0025898414 -0.020080265
-0.0019503572 -0.0090644453 -0.017173108
0.0032505952 0.0032373017 -5.3190462e-05
-0.00032505952 -0.0051796827 -5.3190462e-05
-0.008126488 0.0022661113 -0.028155698
-0.0061761308 0.00032373017 0.0028539654
0.0136525 0.0042084926 -0.017173108
0.01332744 0.0012949207 -0.0016682771
-0.01332744 -0.0012949207 -0.003929398
-0.0091016665 0.0051796827 -0.022018367
0.0019503572 0.0051796827 -0.026540611
0.0058510713 -0.0090644453 -0.015881039
-0.0084515475 -0.010359365 -0.016204055
0.0029255357 0.0051796827 -0.010066727
-0.00097517861 -0.01586278 0.0031769827
0.0045508333 0.0058271433 -0.019757247
0.0019503572 0.0045322226 -0.022341385
-0.009426726 -0.0048559527 -0.023956472
-0.0035756547 0.003561032 -0.0300938
-0.0052009523 0.0051796827 -0.0016682771
-0.00032505952 0.0051796827 -0.027186645
0.0016252976 0.003561032 -0.018465178
-0.008126488 -0.0051796827 -0.010066727
0.0022754166 0.01586278 -0.0048984503
-0.0078014289 -0.00064746034 -0.027832679
-0.0035756547 0.014567859 -0.0081286235
-0.0058510713 -0.0051796827 -0.0061905193
0.0071513094 0.010683096 -0.016204055
-0.010401905 -0.0051796827 -0.014911987
-0.0068262499 0.0055034133 -0.0061905193
0.0039007145 -0.0051796827 -0.014265953
-0.00032505952 -0.013272937 -0.0052214675
-0.0048758928 -0.006798334 -0.017496126
0.011377083 0.0051796827 -0.019757247
-0.00097517861 -0.0051796827 -0.012973883
0.008776607 -0.0025898414 -5.3190462e-05
0.010401905 -0.0022661113 -0.025894575
0.0068262499 0.0051796827 -0.0019912943
-0.0032505952 -0.0016186509 -0.01458897
-0.0097517855 0.00032373017 -0.026540611
0.0042257737 0.00032373017 -0.029770784
-0.0022754166 0.0051796827 -0.0016682771
-0.008776607 0.0048559527 -0.00974371
0.0052009523 -0.0090644453 -0.016204055
0.0016252976 0.013596668 -0.010389744
0.0052009523 0.0051796827 -0.026217593
-0.0091016665 0.0048559527 -0.010066727
-0.0013002381 -0.0012949207 -5.3190462e-05
-0.01332744 0.00097119051 -0.0090976749
-0.013002381 0.00032373017 -0.019757247
0.0065011904 0.0087407148 -0.018788194
-0.0055260118 -0.010359365 -0.016204055
0.0045508333 -0.013272937 -0.016527073
0.0045508333 0.0061508734 -0.017173108
0.0071513094 0.0084169852 -0.016204055
0.0019503572 -0.0022661113 -0.017819142
-0.010726964 -0.0061508734 -0.016204055
-0.01332744 0.0045322226 -0.01814216
0.0136525 -0.0025898414 -0.0032833635
0.0026004761 -0.015539048 -0.0084516406
0.00065011904 0.013272937 -0.010389744
-0.0058510713 0.0029135717 -5.3190462e-05
0.0052009523 0.0090644453 -0.018788194
0.0032505952 0.0025898414 -0.01458897
-0.0136525 0.0038847621 -0.0132969
0.013002381 0.0016186509 -0.0058675022
-0.0022754166 0.014567859 -0.0132969
-0.0052009523 -0.011006827 -0.017819142
0.008776607 -0.0055034133 -0.002637329
0.00032505952 -0.0022661113 -0.0132969
0.0048758928 0.0097119054 -0.017819142
0.0035756547 -0.0022661113 -0.0300938
0.012352262 0.0058271433 -0.018465178
-0.0019503572 -0.00097119051 -0.017173108
-0.0039007145 0.0051796827 -0.00974371
-0.0013002381 -0.016510239 -0.0071595712
0.0016252976 0.0064746034 -0.015881039
0.0013002381 0.00097119051 -0.018465178
0.0039007145 0.0045322226 -0.029770784
0.0022754166 0.010683096 -0.017173108
-0.00032505952 0.0051796827 -0.0090976749
-0.0055260118 0.0048559527 -0.028155698
-0.012677321 0.0025898414 -0.022018367
0.0032505952 0.0051796827 -0.002637329
-0.00065011904 -0.011006827 -0.015881039
-0.0136525 -0.0038847621 -0.0084516406
-0.00032505952 0.01683397 -0.0032833635
-0.0013002381 -0.016510239 -0.0061905193
0.0136525 -0.003561032 -0.014911987
0.012027202 0.006798334 -0.017173108
0.00065011904 -0.013272937 0.0028539654
0.00097517861 -0.01683397 -0.0042524156
0.0029255357 0.014244128 -0.0081286235
-0.00065011904 0.006798334 -0.015881039
0.0061761308 0.0087407148 -0.015881039
0.01332744 0.0022661113 -0.011358797
0 0.01683397 -0.0045754327
-0.0078014289 0.0012949207 -5.3190462e-05
0.010726964 0.0032373017 -0.025248541
-0.0013002381 0.0090644453 -0.015558021
-0.0032505952 -0.0051796827 -0.025571559
-0.00097517861 -0.013920397 -0.01814216
0.0026004761 -0.00097119051 -0.0300938
0 -0.0051796827 -0.0074825888
-0.0045508333 0.003561032 -0.017173108
-0.0022754166 0.01586278 -0.0010222424
-0.00032505952 -0.01683397 -0.00069922511
-0.010726964 -0.0025898414 -0.025571559
0.012027202 -0.0048559527 -0.012650866
0.0032505952 0.00097119051 -5.3190462e-05
0.0013002381 -0.016510239 -0.0016682771
-0.0074763694 0.0055034133 -0.0032833635
-0.00097517861 -0.016510239 -0.006836554
-0.0032505952 0.0045322226 -0.014265953
0.00032505952 -0.0061508734 -0.018788194
-0.0136525 0.0025898414 -0.0016682771
0.0045508333 0 -0.018465178
0.0048758928 -0.0051796827 -0.0090976749
-0.01332744 0.00064746034 -0.011358797
-0.011052024 0.0051796827 -0.012327848
-0.0026004761 -0.0029135717 -0.013942935
-0.0019503572 0.014891588 0.00091586146
-0.00032505952 -0.01683397 -0.0061905193
0.00032505952 -0.0051796827 -0.024925524
0.0022754166 -0.011654287 -0.017819142
-0.01332744 0.001942381 -0.00974371
0.010726964 -0.0048559527 -0.024925524
-0.0039007145 -0.0051796827 -0.022664402
0.00032505952 -0.012625477 -0.01458897
0.0045508333 0.0029135717 -0.029770784
-0.01332744 -0.001942381 -0.0013452597
0.0022754166 0.0077695241 -0.016527073
-0.01332744 0.0016186509 -0.003929398
-0.00097517861 -0.016510239 -0.0055444846
0.01332744 -0.00032373017 -0.016527073
0.0097517855 -0.0090644453 -0.016527073
-0.0016252976 0.0084169852 -0.015881039
0.011702143 -0.00097119051 -0.023956472
0.0013002381 -0.016510239 -0.0019912943
-0.0026004761 -0.0051796827 -0.0036063809
0.0035756547 -0.014567859 -0.013619917
-0.00032505952 0.01683397 -0.011681814
0.00065011904 0.013272937 -0.002637329
-0.011702143 -0.0048559527 -0.0013452597
0.0013002381 -0.0051796827 -0.0045754327
-0.0013002381 0.013596668 -0.0036063809
-0.00065011904 0.01683397 -0.0023143117
0.0035756547 0.0051796827 -0.02298742
-0.00065011904 -0.0051796827 -0.010712761
0.011377083 -0.00064746034 -0.024279488
-0.0074763694 0.001942381 -5.3190462e-05
-0.0019503572 0.013920397 -0.012650866
-0.0052009523 -0.0051796827 -0.0084516406
0.0029255357 0.0051796827 -0.011681814
-0.01332744 0.00032373017 -0.016204055
0.0016252976 -0.016186509 -0.0061905193
-0.0022754166 0.0097119054 -0.017819142
-0.0026004761 0.014244128 -0.0055444846
-0.00097517861 -0.0051796827 -0.023956472
-0.01332744 -0.0025898414 -0.0078056059
-0.0042257737 0.0051796827 -0.020726299
-0.0065011904 0.001942381 -0.028801732
0.0029255357 0.0051796827 -0.012650866
0.0136525 -0.0038847621 -0.0016682771
-0.008776607 0.0055034133 -0.0013452597
-0.0029255357 -0.0051796827 -0.025571559
-0.0136525 0.0025898414 -0.0078056059
0.01332744 -0.0022661113 -0.013619917
-0.0061761308 -0.0077695241 -0.015881039
-0.0035756547 0.001942381 -0.0300938
0 -0.013596668 -0.018465178
0.0026004761 -0.0029135717 -0.013942935
-0.0013002381 -0.00032373017 -0.022018367
0.00065011904 0.0038847621 -5.3190462e-05
0.0032505952 0.014244128 -0.012973883
0.00097517861 0.001942381 -5.3190462e-05
-0.0061761308 -0.0012949207 -0.029124748
-0.0016252976 0.0051796827 -0.0016682771
0.009426726 -0.0055034133 -0.0052214675
-0.010401905 0.0048559527 -0.024602506
0.0019503572 0.01586278 -0.00974371
0.0029255357 -0.014244128 -0.0036063809
-0.0029255357 -0.0045322226 -0.021049315
-0.0074763694 0.0055034133 -0.0029603464
-0.012677321 -0.0045322226 -0.012004831
0.0042257737 0.0051796827 -0.0061905193
0.0026004761 0.0022661113 -5.3190462e-05
-0.009426726 -0.0051796827 -0.012973883
0.013002381 0.0012949207 -0.003929398
-0.011052024 0.0029135717 -0.025248541
-0.0039007145 -0.0022661113 -0.015235004
0.0074763694 0.0061508734 -0.019111212
0.0029255357 0.015215319 -5.3190462e-05
-0.0048758928 0.0080932546 -0.017496126
-0.008126488 -0.0051796827 -0.00974371
-0.0136525 0.0045322226 -0.016527073
-0.012352262 -0.00064746034 -0.021372333
0.0032505952 0.0051796827 -0.021695351
-0.0136525 -0.003561032 -0.013619917
-0.0068262499 0.0055034133 -0.0058675022
0 0.0055034133 -0.015558021
-0.0055260118 -0.0051796827 -0.0052214675
0.0022754166 -0.01586278 -0.0055444846
0.00065011904 0.0051796827 -0.0032833635
0.0048758928 -0.0051796827 -0.0071595712
0.0071513094 0.0061508734 -0.016204055
-0.0042257737 -0.00064746034 -5.3190462e-05
0.009426726 0.0097119054 -0.016527073
-0.0035756547 0.0048559527 -0.020403281
0.013002381 -0.001942381 -0.021372333
0.00065011904 -0.006798334 -0.019111212
0.012677321 -0.0016186509 -5.3190462e-05
0.0061761308 -0.0055034133 -0.015235004
-0.01332744 -0.0022661113 -0.0036063809
-0.00097517861 0.013272937 -0.003929398
0.00032505952 -0.013272937 -0.012004831
-0.0045508333 -0.010035636 -0.017173108
-0.013002381 -0.00064746034 -0.0029603464
-0.0019503572 0.0038847621 -0.015881039
-0.0045508333 0.0055034133 -0.019111212
0.0026004761 -0.0051796827 -0.026540611
-0.0019503572 -0.0084169852 -0.017173108
-0.0136525 0.0038847621 -0.006836554
0.0065011904 0.0051796827 -0.021049315
0.0071513094 0.0051796827 -0.022341385
-0.010726964 -0.0022661113 -0.025248541
0.0042257737 -0.00064746034 -0.015881039
-0.008776607 0.0055034133 -0.0052214675
-0.0055260118 0.0058271433 -0.015558021
-0.0026004761 0.0025898414 -0.013942935
-0.00065011904 -0.0051796827 -0.012973883
0.0068262499 0.0061508734 -0.015881039
0.01332744 0.0029135717 -0.0023143117
0.010076845 0.0029135717 -0.026217593
0.0035756547 -0.0051796827 -0.013619917
0.011052024 -0.0055034133 -0.020080265
-0.0065011904 -0.010683096 -0.016204055
0.0035756547 -0.0029135717 -0.020403281
-0.0022754166 0.013920397 -0.016204055
0.00032505952 0.0048559527 -0.019111212
0.0048758928 -0.006798334 -0.018465178
-0.0019503572 -0.0048559527 -5.3190462e-05
-0.0061761308 0.0048559527 -0.025894575
0.0019503572 0.0051796827 -0.027832679
-0.0136525 0.0045322226 -0.0078056059
0.0013002381 0.0097119054 -0.015881039
0.0084515475 0.0051796827 -0.022018367
0.0074763694 -0.0051796827 -0.025248541
-0.008776607 -0.0051796827 -0.0052214675
-0.0058510713 -0.0051796827 -0.01458897
-0.0029255357 0.0051796827 -0.0013452597
-0.00032505952 0.012301747 -0.014911987
0.00065011904 -0.013272937 -0.0016682771
0.013002381 0.0055034133 -0.017496126
0.0045508333 -0.0025898414 -0.016204055
0.01332744 0.0022661113 -0.016204055
0.00032505952 -0.013272937 0.00026982685
-0.013002381 -0.00032373017 -0.0078056059
0.00032505952 0.016510239 -0.015235004
-0.0016252976 0.016186509 -0.013942935
0.012352262 0.0048559527 -0.0087746577
-0.0061761308 -0.0064746034 -0.019757247
0.01332744 -0.0012949207 -0.014911987
0.0022754166 0.011006827 -0.016204055
-0.0058510713 -0.011654287 -0.016204055
-0.0061761308 -0.0016186509 -5.3190462e-05
-0.013002381 -0.0042084926 -0.01458897
0.0029255357 -0.014244128 -0.012327848
-0.0074763694 0.0055034133 -0.0061905193
0.0022754166 0.0051796827 -0.024602506
0.010076845 -0.0042084926 -0.025894575
0.010401905 0.0051796827 -0.00037620778
0 0.0084169852 -0.018788194
0.0026004761 -0.015539048 -0.0048984503
0.013002381 0.0042084926 -0.012004831
0.01332744 -0.00097119051 -0.0042524156
0.0032505952 0.014244128 -0.0055444846
-0.01332744 -0.00097119051 -0.012650866
-0.0048758928 0.006798334 -0.017496126
-0.0048758928 0.0077695241 -0.017496126
0.00065011904 -0.0038847621 -0.022341385
0.0013002381 -0.001942381 -0.018465178
0.0016252976 -0.016186509 -0.0078056059
0.0055260118 0.0048559527 -0.027509661
0.0032505952 -0.014891588 -0.0029603464
0.0097517855 0.0051796827 -0.014911987
0.00097517861 0.0051796827 -0.0132969
0.012677321 -0.0045322226 -0.021695351
-0.0084515475 -0.0048559527 -5.3190462e-05
0.0026004761 -0.0051796827 -0.0010222424
-0.0026004761 0.0051796827 -0.026217593
-0.01332744 -0.0022661113 -0.0052214675
-0.008126488 0.0051796827 -0.024279488
0.0013002381 0.013596668 -0.011035779
0.0039007145 -0.0048559527 -0.029447766
-0.008776607 -0.0048559527 -5.3190462e-05
0.013002381 0.00032373017 -0.0061905193
-0.0052009523 -0.0051796827 -5.3190462e-05
-0.00032505952 0.016186509 0.0031769827
0.0022754166 -0.010359365 -0.016850092
0.00032505952 0.0087407148 -0.019111212
-0.0019503572 0.001942381 -0.017819142
-0.00065011904 -0.0032373017 -0.015881039
0.0022754166 0.0051796827 -0.0023143117
0.012027202 -0.0038847621 -0.00037620778
0.0019503572 0.0064746034 -0.016204055
0.0032505952 -0.0051796827 -0.021372333
0.0065011904 0.0045322226 -5.3190462e-05
0.009426726 0.0051796827 -0.00037620778
0 -0.00032373017 0.00091586146
-0.011702143 0.0048559527 -0.022664402
-0.00065011904 0.0077695241 -0.019111212
0.0019503572 -0.012625477 -0.018465178
0.01332744 -0.0022661113 -0.0081286235
0.0013002381 0.007122064 -0.015881039
0.00097517861 -0.0025898414 -0.018465178
-0.0013002381 -0.001942381 -0.013619917
0.0055260118 0.012301747 -0.015881039
-0.008126488 0.0058271433 -0.015881039
0.0032505952 -0.0051796827 -0.012004831
0.0029255357 0.0051796827 -0.0078056059
-0.0045508333 -0.0048559527 -0.017819142
-0.0039007145 0.014244128 -0.00037620778
0.0068262499 -0.0055034133 -0.0010222424
0.012677321 -0.0048559527 -0.0032833635
0.010076845 0.003561032 -0.026217593
-0.00032505952 0.001942381 -0.0132969
0.008126488 0.0051796827 -0.0055444846
-0.008776607 0.00032373017 -0.027509661
0.0068262499 -0.0051796827 -0.0061905193
0.0032505952 0.0051796827 -0.0042524156
-0.0048758928 0.0051796827 -0.026217593
0.0078014289 -0.0029135717 -0.028155698
-0.0055260118 0.0051796827 -0.0094206929
0.011377083 0.0074457941 -0.017173108
0.00065011904 0.00032373017 -5.3190462e-05
0.00032505952 -0.011006827 -0.018788194
-0.01332744 0 -0.014911987
-0.0061761308 0.006798334 -0.019111212
0.01332744 0.0029135717 -0.0010222424
-0.011377083 -0.0051796827 -0.020403281
0.0084515475 -0.0055034133 -0.00974371
0.0045508333 0.006798334 -0.016204055
0.013002381 0.0016186509 -0.01458897
-0.0029255357 -0.0051796827 -0.0087746577
0.010726964 0.0055034133 -0.016204055
0.01332744 -0.0025898414 -5.3190462e-05
0 0.016510239 -0.015558021
0.010726964 -0.0042084926 -0.025894575
0.0032505952 -0.0042084926 -0.020726299
-0.0019503572 -0.0029135717 -0.017819142
0.012352262 -0.0045322226 -0.0052214675
0.0019503572 0.0032373017 -5.3190462e-05
0.0074763694 -0.0055034133 -0.0019912943
-0.012352262 -0.0032373017 -5.3190462e-05
-0.0013002381 -0.0051796827 -0.0055444846
-0.00065011904 0.013272937 -0.0071595712
0.012677321 0.0045322226 -0.0094206929
-0.0045508333 -0.0038847621 -0.018465178
0.0026004761 0.015215319 -0.011358797
0.0091016665 0.0051796827 -0.0078056059
0.0026004761 0.014244128 -0.0078056059
0.0048758928 -0.0064746034 -0.019111212
-0.0045508333 0.0051796827 -0.017173108
0.0097517855 -0.0051796827 -0.023633454
-0.0029255357 -0.0029135717 -5.3190462e-05
-0.0052009523 0.0048559527 -0.027832679
0.0016252976 -0.007122064 -0.018788194
0.010726964 -0.00064746034 -0.025571559
-0.0136525 -0.0042084926 -0.0058675022
-0.0016252976 -0.014244128 -0.017496126
0.0097517855 -0.0045322226 -0.025894575
0.010726964 0.0051796827 -0.0058675022
0.0052009523 -0.0029135717 -5.3190462e-05
0.011377083 -0.0055034133 -0.015881039
0.0029255357 0.014244128 -0.0065135369
0.01332744 0.0022661113 -0.015881039
-0.0019503572 -0.014567859 -0.017173108
0.01332744 -0.0022661113 -0.010712761
0.0039007145 -0.0051796827 -0.02298742
-0.0078014289 -0.0038847621 -5.3190462e-05
0.012027202 0.0045322226 -0.021372333
0.0019503572 0.014567859 -0.015235004
-0.0013002381 -0.0051796827 -0.028801732
-0.0091016665 -0.001942381 -5.3190462e-05
-0.0019503572 -0.015539048 -5.3190462e-05
0.00032505952 -0.00032373017 -0.022341385
0.0071513094 -0.0084169852 -0.018788194
0.0019503572 -0.0051796827 -0.012004831
0.0045508333 -0.00032373017 -0.017819142
0.0026004761 -0.014244128 -0.006836554
-0.01332744 0.00097119051 -0.006836554
0.0042257737 0.00032373017 -0.019757247
0.0013002381 -0.016510239 -0.012973883
-0.0136525 0.0029135717 -0.0023143117
-0.01332744 -0.0016186509 -0.0081286235
-0.00097517861 -0.0051796827 -0.0087746577
0.0029255357 0.015215319 -0.003929398
-0.00097517861 -0.013596668 -0.002637329
0.0019503572 0.00032373017 -0.017173108
0.0013002381 -0.0051796827 -0.0087746577
-0.00097517861 -0.013596668 -0.00069922511
-0.01332744 0.00064746034 -0.017496126
-0.012677321 -0.0048559527 -0.020080265
-0.0058510713 0.0048559527 -0.028155698
0.00097517861 0.0051796827 -0.023310438
0.01332744 -0.0022661113 -0.0036063809
-0.0019503572 -0.014567859 -0.016527073
-0.0026004761 0.0051796827 -0.0019912943
0.01332744 0.001942381 -0.006836554
-0.0026004761 -0.0042084926 -0.022018367
-0.0074763694 -0.0051796827 -0.010066727
0.0032505952 -0.0051796827 -0.013619917
0.0045508333 0.0029135717 -5.3190462e-05
-0.0016252976 0.007122064 -0.018788194
-0.0078014289 0.0025898414 -5.3190462e-05
-0.011702143 -0.0048559527 -0.0074825888
0.0058510713 -0.0051796827 -0.01458897
-0.0055260118 -0.0051796827 -0.013619917
-0.0068262499 0.0042084926 -0.028801732
0.01332744 0 -0.0036063809
-0.0019503572 0.00097119051 -0.016204055
0.011702143 -0.0038847621 -0.024279488
0.0019503572 -0.010359365 -0.01814216
-0.011377083 -0.0012949207 -5.3190462e-05
0.0019503572 0.0022661113 -5.3190462e-05
-0.012677321 0.00097119051 -0.021372333
-0.0048758928 -0.0064746034 -0.019111212
0.0019503572 0.0042084926 -0.016850092
0.008776607 0.0051796827 -0.012973883
0.0032505952 0.0045322226 -0.029770784
-0.0078014289 0.003561032 -5.3190462e-05
-0.0026004761 0.014244128 -0.0084516406
0.0016252976 -0.016186509 -0.0090976749
-0.0026004761 -0.003561032 -0.021372333
-0.0048758928 -0.0051796827 -0.024279488
-0.0013002381 -0.012301747 -0.018788194
0.0068262499 -0.011330556 -0.016850092
0.0019503572 -0.011654287 -0.017496126
-0.012027202 -0.0051796827 -0.019111212
0 -0.013272937 -0.006836554
0.0097517855 -0.0051796827 -0.0061905193
-0.0071513094 0.0016186509 -0.028801732
-0.0026004761 -0.015539048 -0.0087746577
0.0019503572 -0.0016186509 -0.01814216
-0.0045508333 -0.00032373017 -0.017173108
0.01332744 0.0029135717 -0.015235004
0.0013002381 -0.0051796827 -0.027509661
0.0016252976 0.0051796827 -0.003929398
-0.0019503572 0.00032373017 -0.014265953
0.0045508333 0.0051796827 -0.024602506
0.0019503572 -0.006798334 -0.015881039
-0.0016252976 0.0051796827 -0.002637329
0.0013002381 -0.016186509 -0.014911987
0.0055260118 -0.0016186509 -0.029124748
0.011052024 -0.0048559527 -0.023633454
-0.0035756547 0.014891588 -0.012327848
0.0026004761 -0.014244128 -0.012004831
-0.012352262 -0.0051796827 -0.018788194
0.0091016665 -0.0051796827 -0.021049315
-0.00032505952 0.0042084926 -0.015558021
0.0097517855 0.0038847621 -0.026540611
-0.012352262 0.001942381 -0.022664402
-0.0065011904 -0.00032373017 0.0018849134
-0.0071513094 -0.0038847621 -0.028801732
-0.0091016665 0.0087407148 -0.017819142
0.013002381 0.00064746034 -0.01458897
0.00032505952 -0.013272937 -0.013619917
-0.0026004761 0.003561032 -5.3190462e-05
0.0013002381 -0.013596668 0.00091586146
-0.008776607 0.0093881749 -0.017173108
-0.0019503572 -0.0093881749 -0.017173108
0.013002381 0.0055034133 -0.016850092
-0.0048758928 0.011006827 -0.017819142
0.00097517861 -0.013596668 0.00059284415
0.013002381 0.0022661113 -0.018788194
0.009426726 0.0051796827 -0.015558021
0.0029255357 0.001942381 -0.0300938
0.0061761308 0.00032373017 0.002530948
-0.012352262 0.0048559527 -0.0016682771
-0.0019503572 -0.011978017 -0.018465178
-0.0045508333 -0.0051796827 -0.027186645
-0.0136525 0.0038847621 -0.010712761
-0.0078014289 0.00064746034 -0.027832679
0.0022754166 -0.0051796827 -0.0055444846
0.00097517861 0.011006827 -0.019111212
-0.010076845 0.0029135717 -5.3190462e-05
-0.00065011904 0.013272937 0.0015618961
-0.0058510713 0.0048559527 -0.029124748
0.0026004761 0.003561032 -0.021372333
0.0022754166 -0.0038847621 -0.013619917
-0.0019503572 0.0022661113 -0.030416818
-0.0019503572 -0.0080932546 -0.016204055
0.013002381 -0.0048559527 -0.011681814
-0.0035756547 -0.0022661113 -0.0300938
-0.00065011904 -0.01683397 -0.0071595712
0.0035756547 -0.0042084926 -0.020403281
0.0013002381 -0.003561032 -0.015881039
-0.0039007145 -0.0042084926 -0.029770784
0.0026004761 -0.014244128 -0.0016682771
-0.0136525 0.0029135717 -0.0019912943
-0.0013002381 -0.0048559527 -0.022341385
-0.01332744 -0.0032373017 -0.018788194
0.0022754166 0.0097119054 -0.017173108
0.0042257737 0.0038847621 -0.019111212
-0.0136525 0.0038847621 -0.0078056059
0.0065011904 0.0025898414 -5.3190462e-05
0.0097517855 -0.0038847621 -0.026863627
0.0019503572 0.00097119051 -0.022018367
0.0019503572 -0.014891588 0.00091586146
0.010076845 -0.0051796827 -0.0081286235
-0.013002381 0.0055034133 -0.017496126
-0.0039007145 0.014244128 -0.011035779
-0.0022754166 0.003561032 -0.0300938
-0.01332744 0.0048559527 -0.01458897
-0.0058510713 -0.00064746034 -0.029124748
-0.0032505952 -0.014244128 -0.0058675022
0.0078014289 0.010359365 -0.016204055
-0.0035756547 0.014891588 -0.0065135369
0.010401905 -0.0051796827 -0.010389744
0.013002381 -0.0048559527 -0.01458897
-0.00032505952 -0.01683397 -0.003929398
0.0029255357 0.015215319 -0.0074825888
-0.00032505952 0.01683397 -0.010389744
-0.011052024 0.0051796827 -0.0032833635
0.0042257737 -0.0042084926 -5.3190462e-05
-0.0022754166 0.0051796827 -0.023633454
-0.0016252976 -0.0074457941 -0.018788194
-0.0136525 0.0029135717 -0.01458897
-0.0013002381 0.016510239 0.0031769827
0.0136525 -0.0045322226 -0.0036063809
-0.0055260118 -0.0051796827 -0.023310438
0 -0.0051796827 -0.02298742
-0.00097517861 -0.013272937 -0.0132969
-0.010401905 0.00097119051 -5.3190462e-05
0.00097517861 0.007122064 -0.015881039
0.0136525 -0.0029135717 -0.014911987
-0.011702143 -0.0051796827 -0.020403281
0.0091016665 -0.0061508734 -0.018788194
0.0016252976 0.006798334 -0.018465178
-0.011052024 -0.0051796827 -0.012327848
0.0019503572 0.0012949207 -0.017819142
-0.011052024 -0.0051796827 -0.0132969
-0.010726964 -0.0012949207 -0.025248541
0.010401905 -0.0051796827 -0.0074825888
-0.0032505952 -0.014891588 -0.010066727
0.0035756547 -0.003561032 -0.0300938
-0.0061761308 0.0051796827 -0.006836554
0.00065011904 0.0025898414 -0.015881039
0.0065011904 -0.010359365 -0.01814216
0.01332744 0.0022661113 -0.0010222424
0.012677321 -0.0025898414 -0.021695351
-0.0065011904 0.011654287 -0.015881039
0.011377083 0.006798334 -0.016204055
0.0026004761 -0.015539048 -0.010389744
0.0035756547 0.0051796827 -0.010066727
-0.0026004761 -0.0051796827 -0.027832679
-0.0013002381 0.003561032 -0.013619917
0.0074763694 0.0051796827 -0.0032833635
0.0055260118 0.010035636 -0.016204055
0.0022754166 0.013920397 -0.0094206929
-0.0016252976 -0.013596668 -0.00974371
0.008776607 -0.0055034133 -0.0036063809
-0.0042257737 0.0029135717 -0.018788194
0.0013002381 0.0051796827 -0.0058675022
0.00097517861 0.013596668 -0.0045754327
-0.0019503572 -0.0016186509 -5.3190462e-05
0.012677321 -0.001942381 -0.022018367
0.00065011904 -0.013272937 -0.0090976749
0.0019503572 0.014891588 -0.015235004
0.0022754166 -0.0051796827 -0.025248541
-0.011052024 0.0055034133 -0.019111212
0.0097517855 0.0051796827 -0.011358797
-0.0019503572 0.0058271433 -0.017496126
-0.0019503572 -0.013920397 -0.010389744
-0.0035756547 0.0051796827 -0.021372333
-0.0074763694 -0.0051796827 -0.02298742
-0.0091016665 0.0048559527 -0.011035779
0.010726964 -0.00032373017 -0.025571559
0.0045508333 0.0012949207 -0.017496126
-0.0097517855 -0.0058271433 -0.016204055
0.0097517855 0.0051796827 -0.021049315
-0.00032505952 -0.0029135717 -0.0132969
-0.00097517861 0.0051796827 -0.012004831
-0.00097517861 -0.012625477 -0.014911987
0.00032505952 0.0051796827 -0.0029603464
0.010076845 -0.00097119051 -0.026217593
-0.013002381 0.0048559527 -0.010712761
-0.0032505952 -0.0051796827 -0.00037620778
-0.010726964 -0.0051796827 -0.022664402
0.0032505952 -0.014244128 -0.0074825888
-0.0019503572 0.014891588 0.00026982685
0 -0.0051796827 -0.025248541
0.0055260118 -0.0055034133 -0.019757247
0.0026004761 0.014244128 -0.011681814
0.0013002381 -0.0058271433 -0.015881039
-0.00097517861 0.0038847621 -0.022664402
0.01332744 0.0025898414 -0.0029603464
-0.010726964 0.0042084926 -5.3190462e-05
0.010076845 0.0055034133 -0.019434229
0.00032505952 0.0064746034 -0.015558021
0.0019503572 -0.014891588 0.00059284415
0.013002381 0.00032373017 -0.0132969
-0.0013002381 -0.0042084926 -0.0132969
0 0.00032373017 0.0028539654
-0.0068262499 -0.0051796827 -0.011681814
-0.0019503572 0.0038847621 -5.3190462e-05
-0.00032505952 0 -0.015881039
-0.0136525 0.0048559527 -0.003929398
-0.0026004761 -0.00097119051 -0.0300938
0.0058510713 -0.0087407148 -0.015881039
-0.0019503572 0.0016186509 -0.015881039
-0.0055260118 0.0051796827 -0.014265953
-0.008126488 -0.0051796827 -0.0045754327
-0.0016252976 0 -5.3190462e-05
0.0058510713 -0.0051796827 -0.022664402
-0.0016252976 -0.012301747 -0.015235004
-0.011702143 0.0022661113 -0.023956472
0.012677321 -0.0042084926 -0.002637329
-0.009426726 0.0042084926 -5.3190462e-05
0.009426726 0.0012949207 -0.026863627
-0.010401905 -0.001942381 -5.3190462e-05
-0.008126488 0.0055034133 -0.015235004
0.0048758928 0.011330556 -0.017173108
0.0136525 -0.0048559527 -0.0023143117
-0.01332744 -0.0012949207 -0.016527073
0.0035756547 0.014891588 -0.0074825888
0.0035756547 -0.0045322226 -0.0300938
0.0013002381 0.013920397 0.0031769827
0.00032505952 0 0.00091586146
-0.010401905 -0.0051796827 -0.02298742
0.010076845 -0.0051796827 -0.0036063809
-0.011702143 0.0051796827 -0.0061905193
0.00065011904 -0.0016186509 -0.022341385
-0.0084515475 0.0055034133 -0.011358797
0.00065011904 0.014244128 0.0031769827
-0.0136525 0.0029135717 -0.0036063809
-0.00097517861 -0.0074457941 -0.015881039
-0.00097517861 -0.0051796827 -0.012650866
0.0078014289 0.0074457941 -0.018788194
0.0032505952 0.014244128 -0.0023143117
0.00097517861 -0.0051796827 -0.0016682771
0 -0.0051796827 -0.0029603464
0.01332744 0.003561032 -0.012973883
0.011052024 -0.0051796827 -0.0061905193
-0.0026004761 0.014244128 -0.011035779
-0.0019503572 -0.015539048 -0.015881039
0.0074763694 -0.0048559527 -0.027509661
0.01332744 -0.00064746034 -0.0042524156
-0.0026004761 0.015539048 -0.0084516406
-0.0013002381 -0.0093881749 -0.018788194
0.0068262499 0.0022661113 -0.028801732
0.013002381 -0.0042084926 -0.010712761
0.0065011904 -0.0051796827 -0.0042524156
-0.008126488 0.0055034133 -0.012004831
-0.0032505952 0.0022661113 -0.0300938
-0.0019503572 -0.012949207 -0.017496126
0.0013002381 -0.013596668 -0.010066727
-0.01332744 -0.0029135717 -0.012004831
0.0091016665 0.0048559527 -0.023310438
0.0045508333 -0.0051796827 -0.0084516406
0.0022754166 -0.003561032 -0.0300938
0.0045508333 0.0080932546 -0.016527073
0 0.01586278 -0.016527073
0.0026004761 -0.014244128 -0.0019912943
-0.0061761308 -0.003561032 -5.3190462e-05
0.010726964 -0.0051796827 -0.0045754327
-0.0019503572 0.013920397 -0.0071595712
0.01332744 -0.0016186509 -0.015235004
-0.0052009523 0.0090644453 -0.016204055
0.0019503572 -0.0022661113 -0.016850092
-0.012677321 0.0048559527 -0.014911987
-0.00032505952 0.014244128 -0.01814216
-0.0016252976 -0.016186509 -0.0036063809
0.0022754166 0.0045322226 -5.3190462e-05
0.0048758928 0.012625477 -0.016850092
-0.0019503572 -0.013596668 -0.017496126
-0.00032505952 0.0045322226 -0.015558021
-0.008126488 0.0055034133 -0.015558021
0.0136525 -0.0045322226 -0.006836554
-0.012677321 0.0048559527 -0.013619917
-0.0016252976 0.0093881749 -0.018788194
-0.0061761308 -0.0048559527 -0.026217593
0.008776607 -0.0051796827 -0.023310438
0.0016252976 0.0022661113 -5.3190462e-05
-0.00032505952 0.0045322226 -0.022664402
0.0032505952 0.014891588 -0.0052214675
-0.0042257737 -0.0051796827 -0.0087746577
0.00032505952 -0.013272937 -0.010066727
0.0097517855 -0.0051796827 -0.00069922511
-0.0026004761 0.0051796827 -0.012973883
0.01332744 0.0025898414 -0.0042524156
-0.00097517861 -0.011006827 -0.015558021
-0.0045508333 0.0087407148 -0.016850092
-0.0045508333 0.00032373017 -0.017819142
0.01332744 -0.0025898414 -0.019757247
0.011702143 0.0048559527 -0.010389744
0.0061761308 0.0045322226 -0.028478714
-0.0136525 0.0025898414 -0.011681814
-0.0042257737 -0.0051796827 -0.00974371
0.0091016665 -0.0012949207 -0.027186645
-0.00032505952 0.012625477 -0.018788194
0.013002381 -0.00097119051 -5.3190462e-05
0.0026004761 0.0051796827 -0.011681814
-0.0032505952 0.0051796827 -0.0042524156
0 0.01683397 -0.0081286235
-0.00065011904 -0.0016186509 -0.030416818
0.013002381 0.00097119051 -0.012327848
0.0035756547 0.0042084926 -0.0300938
0.0091016665 0.0051796827 -0.0094206929
-0.00097517861 -0.0051796827 -0.00069922511
-0.01332744 0.0012949207 -0.0023143117
0.011377083 -0.003561032 -0.024602506
0.0013002381 -0.0048559527 -0.015881039
0.0052009523 0.010035636 -0.018788194
-0.01332744 -0.0032373017 -0.017173108
0.0042257737 -0.001942381 -0.018788194
-0.0045508333 0.0045322226 -0.016850092
0.00097517861 -0.0029135717 -0.0132969
0.0068262499 0.0051796827 -0.00037620778
0.0061761308 -0.0048559527 -0.028155698
-0.0029255357 0.015215319 -0.0094206929
0.0022754166 0.0051796827 -0.023310438
-0.0035756547 0 -0.014911987
-0.008126488 -0.001942381 -5.3190462e-05
0.0136525 -0.0038847621 -0.017173108
-0.010401905 0.0051796827 -0.021372333
0.0013002381 0.0051796827 -0.0052214675
0.0013002381 -0.00097119051 -0.015881039
-0.0084515475 -0.0048559527 -0.025571559
0.00097517861 0.0051796827 -0.0029603464
0.00097517861 0.006798334 -0.019111212
-0.008126488 -0.0051796827 -0.003929398
-0.011377083 -0.0032373017 -0.024602506
0.0068262499 0 0.00091586146
0.010076845 -0.0025898414 -0.026217593
0.0019503572 0.0029135717 -0.017819142
-0.0042257737 0.003561032 -0.029770784
-0.0136525 0.0048559527 -0.013942935
-0.011052024 -0.0022661113 -5.3190462e-05
0.0055260118 0.0051796827 -0.0074825888
-0.0019503572 0.0064746034 -0.017173108
0.0013002381 -0.0032373017 -0.030416818
-0.0052009523 -0.006798334 -0.015881039
0.013002381 -0.0029135717 -0.021049315
0.012027202 -0.0048559527 -0.010066727
0.01332744 -0.001942381 -0.012004831
-0.0035756547 0.0029135717 -0.0300938
-0.00032505952 -0.0038847621 -0.019111212
-0.013002381 -0.0042084926 -0.0065135369
0.010401905 0.006798334 -0.016204055
0.0045508333 -0.010683096 -0.015881039
0.0084515475 0.0051796827 -0.011681814
0.00032505952 -0.0048559527 -0.019111212
-0.0052009523 -0.003561032 -5.3190462e-05
0.00032505952 0.0016186509 -0.015881039
-0.00032505952 -0.012949207 -0.013942935
0.0029255357 0.0051796827 -0.00037620778
-0.00097517861 -0.013596668 -0.0036063809
-0.009426726 -0.0051796827 -0.0036063809
0.0078014289 0.007122064 -0.016204055
0.0136525 -0.0038847621 -0.00069922511
0.0016252976 0.0016186509 -0.01814216
0.0052009523 0.0051796827 -5.3190462e-05
0.013002381 0.0042084926 -0.0010222424
0.0055260118 0.0045322226 -5.3190462e-05
-0.0022754166 0.0025898414 -0.013942935
0.0071513094 -0.001942381 -5.3190462e-05
0.008776607 -0.0055034133 -0.0055444846
-0.0013002381 0.013596668 -0.011358797
-0.0032505952 0.0051796827 -0.0090976749
0.0074763694 -0.0055034133 -0.012973883
0.0052009523 -0.0051796827 -0.0023143117
0.0019503572 0.01586278 -0.0010222424
0 0.013272937 0.0015618961
-0.00065011904 -0.0097119054 -0.015881039
-0.0068262499 -0.0051796827 -0.0074825888
0.0032505952 -0.014567859 -0.0058675022
-0.013002381 0.00097119051 -5.3190462e-05
0.0013002381 0.0051796827 -0.0023143117
0.0016252976 -0.0038847621 -0.01814216
-0.009426726 0.00032373017 -5.3190462e-05
0.00032505952 -0.00064746034 -0.030739835
0.0019503572 0.0038847621 -0.017173108
0.0058510713 -0.0022661113 -5.3190462e-05
-0.00065011904 -0.0051796827 -0.006836554
0.00065011904 -0.0051796827 -0.012004831
0.010401905 0.0042084926 -5.3190462e-05
0.0039007145 -0.0051796827 -0.028155698
-0.0035756547 -0.014891588 -0.010066727
0.0048758928 -0.0051796827 -0.028801732
0.0045508333 0.0064746034 -0.018788194
-0.0042257737 0.013596668 -0.015558021
-0.01332744 0.0048559527 -0.011681814
0.0045508333 -0.0051796827 -0.02298742
0.0048758928 0.0051796827 -0.020080265
-0.01332744 -0.0016186509 -0.0013452597
-0.011377083 0.0051796827 -0.0058675022
-0.0042257737 -0.0012949207 -0.015881039
0.0022754166 -0.013920397 -0.0071595712
0.011702143 -0.001942381 -0.024279488
0.0045508333 0.0051796827 -0.02298742
-0.01332744 0.0048559527 -0.0087746577
-0.00032505952 -0.01683397 -0.0071595712
-0.0055260118 0.00064746034 -5.3190462e-05
0.008776607 0.0084169852 -0.016204055
-0.0016252976 0.0048559527 -0.013619917
0.008126488 0.0051796827 -0.002637329
0.01332744 0.001942381 -0.015558021
0.0016252976 0.016186509 -0.012327848
0.0061761308 0.00032373017 0.00059284415
-0.008776607 -0.0051796827 -0.021049315
-0.00032505952 0.003561032 -0.019111212
-0.010726964 0.0051796827 -0.0048984503
0.0013002381 0.0051796827 -0.012650866
0.0029255357 0.0048559527 -0.0300938
0.0016252976 -0.01586278 0.0015618961
-0.0068262499 0.007122064 -0.015881039
0.0091016665 0.0051796827 -0.021695351
0.0048758928 -0.0077695241 -0.018465178
0.0013002381 -0.011006827 -0.015558021
0.0026004761 0.015539048 -0.0058675022
-0.0016252976 -0.0045322226 -0.015558021
-0.011702143 -0.007122064 -0.017173108
0.0016252976 0.0029135717 -0.030416818
-0.0022754166 -0.00032373017 -0.0300938
0.00097517861 0.013272937 -0.018465178
0.012352262 -0.0048559527 -0.010712761
-0.01332744 -0.0032373017 -0.0058675022
0.0032505952 -0.0025898414 -0.021049315
-0.0039007145 0.0038847621 -0.029770784
-0.011377083 -0.0051796827 -0.002637329
-0.012027202 0.0016186509 -5.3190462e-05
-0.011377083 -0.0074457941 -0.016527073
0.011052024 -0.0022661113 -0.025248541
0.00097517861 -0.0045322226 -0.019111212
0.011052024 0.0074457941 -0.016204055
0.0035756547 -0.0051796827 -0.0029603464
-0.008126488 -0.0084169852 -0.018788194
-0.01332744 -0.0012949207 -0.0029603464
0.010076845 0.0051796827 -0.0048984503
0.0032505952 -0.0048559527 -0.029770784
0.0019503572 0.014891588 -0.015558021
0.0045508333 -0.006798334 -0.016204055
0.0061761308 -0.00032373017 0.00059284415
0.0016252976 -0.00097119051 -0.030416818
0.0019503572 -0.015539048 0.0018849134
-0.0055260118 0.0048559527 -0.026217593
-0.0013002381 -0.0038847621 -0.018788194
-0.0019503572 0.013920397 -0.00037620778
-0.0013002381 0.015539048 0.0031769827
0.0016252976 -0.013920397 -0.017819142
0 -0.013272937 -0.0071595712
-0.012677321 0.00097119051 -0.021049315
-0.010401905 -0.0051796827 -0.0013452597
-0.013002381 -0.00032373017 -0.012973883
0.0052009523 -0.006798334 -0.015881039
-0.0078014289 0.0055034133 -0.0019912943
-0.0045508333 0.0093881749 -0.016204055
-0.00065011904 0.013272937 -0.0023143117
0.0013002381 -0.0022661113 -0.030416818
-0.012352262 0.0055034133 -0.015235004
0.0071513094 -0.0051796827 -0.025894575
0.0042257737 0.0051796827 -0.022664402
-0.0016252976 0.01586278 0.0018849134
0.011702143 -0.0045322226 -0.024279488
0.010401905 -0.0051796827 -0.00069922511
-0.0048758928 0.0032373017 -0.029447766
-0.0013002381 -0.013596668 -5.3190462e-05
0.0013002381 0.00032373017 -5.3190462e-05
-0.0035756547 -0.014567859 -0.0081286235
0.0016252976 -0.014244128 0.0022079307
-0.0019503572 0.011978017 -0.018788194
-0.0019503572 0.013596668 -0.014911987
-0.0048758928 0.0051796827 -0.028155698
0 0.0048559527 -0.013942935
-0.012677321 -0.0022661113 -0.021372333
-0.0032505952 0 -0.014265953
0.0091016665 0.0058271433 -0.019757247
0 -0.0029135717 -0.022341385
-0.0042257737 0.010035636 -0.015881039
0.00032505952 -0.0051796827 -0.028155698
-0.0026004761 -0.0051796827 -0.025571559
-0.010726964 0.0016186509 -5.3190462e-05
-0.008126488 0.0048559527 -0.014265953
-0.0042257737 0.0045322226 -0.015558021
-0.0026004761 -0.014244128 -0.0013452597
0.0052009523 -0.0051796827 -0.025571559
0.0019503572 0.0048559527 -0.015881039
-0.0042257737 0.0051796827 -0.013942935
-0.0035756547 0.0051796827 -0.012327848
0.0042257737 0.0051796827 -0.013619917
0.011052024 -0.001942381 -5.3190462e-05
0.0058510713 0.010359365 -0.01814216
0.0022754166 -0.0016186509 -0.022018367
-0.0061761308 0.0051796827 -0.012327848
0.0045508333 -0.0025898414 -0.017819142
-0.0039007145 0.0045322226 -0.015235004
-0.00032505952 -0.0074457941 -0.019111212
0.01332744 0.001942381 -0.012327848
-0.0016252976 -0.0042084926 -0.018788194
0.009426726 -0.0055034133 -0.0058675022
-0.0016252976 0.0042084926 -0.015881039
0.00065011904 -0.0051796827 -0.0087746577
-0.0058510713 -0.010035636 -0.016527073
-0.0048758928 -0.011654287 -0.015881039
0.0068262499 -0.0055034133 -0.0013452597
-0.0042257737 0.0051796827 -0.006836554
-0.00097517861 0.013596668 -0.018465178
-0.0022754166 -0.0051796827 -0.026217593
0.00097517861 0.013272937 -0.014265953
0.0013002381 0.013596668 -0.0048984503
-0.00032505952 -0.0051796827 -0.0029603464
0.012677321 -0.0012949207 -0.021372333
0.0022754166 0.0029135717 -5.3190462e-05
-0.0068262499 -0.0051796827 -0.014265953
-0.0048758928 -0.0051796827 -0.0084516406
-0.0019503572 0.003561032 -0.030416818
-0.00097517861 0.0051796827 -0.0094206929
-0.01332744 -0.0032373017 -0.0065135369
0.0084515475 0.0051796827 -0.0013452597
-0.010076845 -0.0045322226 -0.025571559
0.01332744 -0.0048559527 -0.012650866
0.0048758928 0.0051796827 -0.021372333
-0.008126488 0.0055034133 -0.0132969
0.00032505952 -0.0058271433 -0.019111212
0.0071513094 -0.0051796827 -0.0081286235
0.0136525 -0.0025898414 -0.0013452597
-0.00032505952 0.016186509 -0.015881039
0.0078014289 0.0051796827 -0.0058675022
0.0045508333 -0.0048559527 -0.017173108
0.0042257737 0.0051796827 -0.0084516406
-0.013002381 0.00032373017 -0.018788194
0.0091016665 0.0093881749 -0.016850092
0.0029255357 0.0051796827 -0.028801732
-0.0071513094 -0.0055034133 -0.0013452597
0.010401905 0.0051796827 -0.00974371
-0.00097517861 -0.015215319 0.0031769827
0.010076845 0.0051796827 -0.022018367
-0.0055260118 -0.0051796827 -0.0065135369
0.01332744 0.0029135717 -0.016204055
0.01332744 -0.001942381 -0.016850092
-0.0035756547 0.0051796827 -0.025571559
0.0022754166 -0.010359365 -0.016204055
0.011702143 0.0048559527 -0.022664402
0 -0.013272937 -0.0084516406
0.0026004761 0.0051796827 -0.0090976749
-0.0013002381 -0.0032373017 -0.015881039
-0.00032505952 -0.013272937 -0.012327848
0.011702143 0.0022661113 -5.3190462e-05
-0.0052009523 0.0051796827 -0.021049315
0.0042257737 -0.0038847621 -0.019434229
-0.011702143 0.00032373017 -0.023633454
-0.0019503572 0.0051796827 -0.012650866
-0.01332744 0.0016186509 -0.002637329
0.0058510713 0.0032373017 -0.028801732
0.0019503572 -0.0051796827 -0.015558021
-0.0035756547 -0.001942381 -0.020080265
-0.00032505952 -0.00032373017 -0.015881039
-0.00032505952 0.0051796827 -0.0013452597
0.012352262 0.0042084926 -0.022018367
-0.0029255357 0.003561032 -0.0300938
-0.0013002381 0.0022661113 -0.030739835
-0.0045508333 -0.0042084926 -0.016850092
0.0042257737 0.0042084926 -0.019434229
0.0058510713 0.0051796827 -0.023633454
0.0042257737 0.0022661113 -0.015881039
0.01332744 0 -0.015881039
-0.0016252976 -0.014567859 0.0028539654
-0.0136525 0.0029135717 -0.014265953
0.0091016665 -0.0055034133 -0.019757247
0.012027202 0.0048559527 -0.0065135369
-0.01332744 -0.0038847621 -0.019434229
-0.00065011904 -0.01683397 -0.010712761
0.0029255357 0.0051796827 -0.006836554
0.01332744 -0.0048559527 -0.0010222424
0.0068262499 -0.00064746034 -0.028801732
-0.0068262499 -0.006798334 -0.018788194
0.0042257737 0.0051796827 -0.00069922511
0.0136525 -0.0032373017 -0.0052214675
-0.0058510713 -0.010035636 -0.01814216
-0.010726964 0 -0.025571559
-0.01332744 0.001942381 -0.0094206929
-0.00097517861 0.013272937 -0.00037620778
0.0136525 -0.0029135717 -0.011035779
0.0042257737 0.0051796827 -0.0013452597
0.012677321 -0.0055034133 -0.01814216
-0.0045508333 -0.0051796827 -0.028801732
-0.013002381 0.001942381 -0.021372333
0.0016252976 0.010035636 -0.018465178
-0.0048758928 0.0074457941 -0.017819142
0.0048758928 0.0051796827 -0.011681814
-0.008126488 -0.0048559527 -0.027186645
-0.013002381 0 -0.019111212
-0.0052009523 0.0051796827 -0.00974371
-0.0026004761 -0.0042084926 -0.0300938
0.00097517861 -0.01683397 -0.0087746577
0.0058510713 0.006798334 -0.019111212
-0.0022754166 0.013920397 -0.00974371
0.011052024 0.00064746034 -0.024925524
-0.012352262 0.0061508734 -0.017819142
-0.0055260118 -0.0093881749 -0.018788194
0.012352262 -0.0048559527 -0.0078056059
0.011052024 -0.001942381 -0.024925524
0.013002381 -0.00064746034 -0.018788194
0.011052024 -0.0061508734 -0.018788194
-0.0039007145 0.001942381 -0.019757247
0.010401905 -0.0058271433 -0.016204055
0.00065011904 -0.0051796827 -0.00037620778
-0.0074763694 0.0055034133 -0.023633454
0.0019503572 -0.01586278 -0.012327848
0.0013002381 0.0029135717 -0.022341385
-0.0097517855 0.0051796827 -0.020403281
0.0032505952 0.0051796827 -0.0061905193
-0.0048758928 -0.0051796827 -0.025571559
0.0035756547 -0.0051796827 -0.014265953
-0.013002381 -0.0045322226 -0.011358797
0.011702143 -0.006798334 -0.016527073
0.0042257737 -0.0042084926 -0.015881039
0.0078014289 -0.0055034133 -0.022018367
-0.0013002381 0.016510239 -0.0087746577
0.0022754166 -0.01586278 -0.0032833635
-0.0035756547 -0.0051796827 -0.010389744
0.012027202 0.0048559527 -0.012650866
-0.00032505952 -0.01683397 -0.0055444846
0.008776607 -0.0058271433 -0.019757247
0.013002381 0.0016186509 -0.011358797
0.0016252976 -0.0093881749 -0.015881039
-0.0026004761 -0.0051796827 -0.0023143117
-0.0019503572 -0.013272937 -0.014911987
0.0032505952 0.0051796827 -0.027186645
-0.0091016665 -0.0042084926 -0.027186645
0.009426726 -0.0077695241 -0.016204055
0.009426726 -0.0055034133 -0.0087746577
-0.0058510713 0.0048559527 -0.028478714
-0.00065011904 -0.010359365 -0.015881039
-0.0032505952 -0.014244128 -0.0045754327
-0.013002381 -0.00064746034 -0.00974371
0.00065011904 -0.001942381 -0.018788194
0.008126488 -0.0051796827 -0.02298742
0.011052024 0.0051796827 -0.0058675022
-0.0022754166 -0.0051796827 -0.0010222424
0.0084515475 -0.0077695241 -0.018788194
0.00097517861 0.013596668 0.00091586146
-0.0045508333 -0.0051796827 -0.024279488
-0.0084515475 -0.0051796827 -0.010389744
-0.01332744 -0.0029135717 -0.010066727
0.0061761308 -0.0051796827 -0.022018367
0.011702143 0.0048559527 -0.0058675022
-0.00097517861 0.0074457941 -0.015881039
-0.0045508333 0.0051796827 -0.020080265
0.011377083 -0.006798334 -0.016204055
-0.0045508333 -0.0097119054 -0.017173108
-0.0019503572 0.0055034133 -0.016527073
0.010401905 0.0016186509 -5.3190462e-05
-0.01332744 -0.0025898414 -0.0042524156
-0.0022754166 -0.0038847621 -0.0300938
0.00065011904 -0.0045322226 -0.0132969
-0.010401905 -0.0051796827 -0.0023143117
0.0022754166 0.015539048 -0.0010222424
0.0042257737 0 -0.015558021
0.0016252976 0.00064746034 -0.015881039
0.013002381 0.00097119051 -0.0084516406
0.00065011904 0.01586278 -0.016527073
0.0026004761 -0.014244128 -0.012327848
0.01332744 -0.003561032 -0.020080265
0.0071513094 0.0080932546 -0.016204055
0.00097517861 0.012625477 -0.018788194
-0.0019503572 -0.0090644453 -0.016527073
-0.0078014289 0.0051796827 -0.02298742
0.0019503572 -0.0084169852 -0.017173108
0.01332744 0.0029135717 -0.017819142
-0.0026004761 0.014244128 -0.012973883
0.0032505952 -0.014244128 -0.010712761
0.012352262 0.0061508734 -0.016204055
-0.0136525 -0.0038847621 -0.0081286235
0.0084515475 0.00097119051 -0.027509661
0.0019503572 0.003561032 -0.030416818
0.0016252976 -0.016186509 -0.012004831
-0.0013002381 0.016186509 0.0031769827
0.0019503572 0.0029135717 -0.01814216
0.0032505952 -0.0051796827 -0.0081286235
-0.0035756547 0.003561032 -5.3190462e-05
0.010076845 -0.0061508734 -0.016204055
0.01332744 0.0038847621 -0.0016682771
0.0048758928 0.0025898414 -0.029447766
0.0029255357 0.0051796827 -0.028155698
-0.0013002381 0.016510239 -0.0052214675
0.0091016665 -0.0058271433 -0.020080265
-0.011702143 0.0022661113 -0.023633454
-0.00097517861 -0.016510239 -0.0071595712
0.00032505952 -0.013596668 -0.018465178
-0.0022754166 -0.0051796827 -0.0084516406
-0.01332744 0.0048559527 -0.0132969
-0.0042257737 -0.010359365 -0.015881039
0.012027202 0.0048559527 -0.00069922511
-0.0052009523 -0.0090644453 -0.016204055
-0.013002381 -0.001942381 -0.020403281
-0.010076845 0.003561032 -5.3190462e-05
