# .PCD v0.7 - Point Cloud Data file format
VERSION 0.7
FIELDS x y z
SIZE 4 4 4
TYPE F F F
COUNT 1 1 1
WIDTH 1169
HEIGHT 1
VIEWPOINT 0 0 0 1 0 0 0
POINTS 1169
DATA ascii
0.0033317744 0.00044117647 -0.0023533334
0.003478226 0.0019117647 -0.00066666666
-0.0010617742 -0.0024999999 -0.00022666667
-0.0048695165 0.00044117647 -0.00081333332
0.0024530645 -7.3529409e-05 0.0013866667
0.0023066129 0 0.0024133334
-0.004503387 -0.0013235294 -0.0017666667
-0.0022333872 0.0022794118 -0.00015333333
0.0035514517 -0.0017647059 -0.00073999999
-0.00062241935 0.0015441177 -6.6666666e-06
0.00098854839 -0.001985294 -0.0022066666
-0.0050159679 -0.00058823527 -0.00073999999
-0.0025262905 0 0.0028533333
0.0028191938 0.0011029412 -0.0023533334
0.0029656452 0.0006617647 -0.0023533334
0.003478226 -0.00036764707 -0.0023533334
-0.0017208065 -0.00073529413 -0.0024266667
0.0036246777 0.0017647059 -0.00081333332
-0.0022333872 0.001617647 -6.6666666e-06
-0.00032951613 0.0017647059 -6.6666666e-06
0.00018306452 -0.0010294118 -6.6666666e-06
-0.0036979034 0.0017647059 -0.0017666667
-0.0044301613 -0.0005147059 -6.6666666e-06
-0.0040640323 -0.0013970588 -0.0024266667
-0.00010983871 0.00073529413 -0.0023533334
-0.0042837099 -0.0015441177 -0.0017666667
0.0048695165 0.0013235294 -6.6666666e-06
-0.0036246777 -0.001985294 -0.00052
-0.0015011291 0.00125 -0.0023533334
-0.0032585484 -0.0023529411 -6.6666666e-06
0.0030388711 0.0019117647 -0.0015466667
0.0031853227 0.0016911764 -0.0023533334
-0.0016475806 -0.0010294118 -6.6666666e-06
0.0047230646 -0.0016911764 -0.00044666667
0.0050891936 0.0011029412 -6.6666666e-06
0.00098854839 0.001985294 -0.0014
-0.0020869356 0.0020588236 -0.00052
0.00040274195 0.0010294118 -6.6666666e-06
0.0042104842 -0.0010294118 -0.0023533334
0.00091532263 0.00022058823 -0.0023533334
-0.0025995162 -0.001985294 -0.00162
0.00084209681 -0.001985294 -6.6666666e-06
-0.0037711291 -0.0010294118 -0.0024266667
-0.0020869356 -0.0013970588 -6.6666666e-06
-0.0033317744 0.0018382353 -0.00095999998
-0.0040640323 -0.0021323529 -6.6666666e-06
0.0022333872 0.001985294 -0.0019866666
0.0032585484 0.0022058825 -6.6666666e-06
0.0012082258 -0.001985294 -0.00088666665
0.0033317744 0.0023529411 -0.00022666667
-0.0026727421 -0.001985294 -0.0021333334
0.0015011291 0.0013970588 -0.0023533334
0.00025629034 -0.0011029412 -6.6666666e-06
0.00091532263 0.0005147059 -6.6666666e-06
-0.00091532263 -0.00095588237 -6.6666666e-06
-0.0039175809 -0.0023529411 -0.00015333333
0.0010617742 0.0022794118 -7.9999998e-05
0.00018306452 -0.00036764707 -6.6666666e-06
-0.0017208065 0.0019117647 -0.0020600001
0.0017940323 -0.00073529413 -0.0023533334
0.0024530645 -0.0011029412 -6.6666666e-06
-0.0024530645 -0.00036764707 -0.0024266667
0.0042837099 -0.0014705883 -0.0010333334
0.00084209681 0.0018382353 -0.0022799999
-0.0053820969 -0.00044117647 -0.00052
0.0010617742 0.0024264706 -0.00015333333
0.0014279033 -0.0013970588 -6.6666666e-06
0.0028191938 -0.0018382353 -0.0016933334
-0.0050159679 -0.00022058823 -0.0010333334
-0.00040274195 -0.001985294 -0.0012533333
-0.0023798388 0.0018382353 -0.0023533334
-0.0024530645 -0.0020588236 -6.6666666e-06
0.004503387 -0.001617647 -6.6666666e-06
0.0049427422 0.00073529413 -0.0020600001
-0.00040274195 0.0020588236 -0.00059333333
0.00069564517 -0.00125 -0.0023533334
0.00025629034 0.00095588237 -6.6666666e-06
-0.0031853227 0.00022058823 -0.0024266667
0.0055285487 0.00014705882 -0.00022666667
-0.0024530645 0.001617647 -0.0023533334
0.00040274195 0.0013235294 -0.0023533334
0.0035514517 -0.001617647 -0.0022799999
0.0023066129 0.0019117647 -0.0014733333
0.0027459678 0.0024264706 -0.00030000001
-0.0023066129 0.0015441177 -6.6666666e-06
0.00098854839 0.0016911764 -0.0023533334
-0.00040274195 0.0019117647 -0.0022799999
0.0048695165 0.0011029412 -6.6666666e-06
0.0052356455 0.00029411764 -0.00052
-0.001135 -0.001985294 -0.00118
-0.0042104842 0.00036764707 -0.0023533334
-0.0025262905 -0.0022794118 -0.00052
-0.0020869356 -0.001985294 -0.0017666667
0.0045766132 0.00125 -0.0019133333
0.0047230646 -0.00095588237 -0.00081333332
-0.00010983871 -0.001985294 -6.6666666e-06
3.6612906e-05 0.001985294 -0.0012533333
0.0015743549 -0.0022058825 -6.6666666e-06
-0.0031120968 -0.00088235294 -6.6666666e-06
0.00076887099 0.00088235294 -0.0023533334
-0.0012082258 -0.0005147059 -6.6666666e-06
-0.0025995162 -0.0005147059 -6.6666666e-06
-0.00062241935 0.0006617647 -0.0023533334
0.0013546775 -0.0016911764 -6.6666666e-06
-0.0050159679 -7.3529409e-05 -0.0020600001
0.0048695165 -0.00058823527 -0.00095999998
0.0050159679 0.0005147059 -0.00073999999
0.0030388711 0.0010294118 -6.6666666e-06
0.00040274195 0.0006617647 -6.6666666e-06
0.004503387 0.00022058823 -0.0023533334
-0.0015011291 0.0010294118 -6.6666666e-06
-0.001135 0.001985294 -0.0010333334
0.0031120968 0.0018382353 -6.6666666e-06
0.0042837099 0.00029411764 -0.0023533334
0.0042104842 0.0022058825 -0.00044666667
-0.0031853227 0.0023529411 -0.00044666667
-0.0029656452 -0.00044117647 -0.0024266667
0.003844355 -0.0022058825 -0.00030000001
0.0044301613 0.00125 -6.6666666e-06
0.00076887099 0.0006617647 -6.6666666e-06
0.0048695165 -0.0014705883 -0.00015333333
0.004503387 -0.0010294118 -6.6666666e-06
-0.0036979034 0.0014705883 -0.0023533334
0.0010617742 0.0013970588 -6.6666666e-06
0.0049427422 -0.00036764707 -0.00088666665
0.0019404839 -0.0023529411 -0.00030000001
-0.0046498389 -0.0005147059 -0.0024266667
-0.0013546775 0.0022794118 -0.00052
-0.00076887099 0.0014705883 -6.6666666e-06
-0.0020869356 0.00036764707 -0.0024266667
0.0045766132 -0.0013970588 -6.6666666e-06
0.0025262905 -0.0019117647 -0.00118
-0.0039908066 -0.0011764705 -6.6666666e-06
0.0034050001 -0.0017647059 -0.0012533333
-0.0024530645 -0.00014705882 -0.0024266667
-0.0033317744 0.0018382353 -0.0014
-0.003844355 -0.0017647059 -0.0019133333
-0.0023798388 -7.3529409e-05 0.0021200001
-0.0032585484 -0.00044117647 -0.0024266667
0.0012814517 0.001985294 -0.0016933334
-0.00091532263 0.001985294 -0.0021333334
0.00091532263 0.0024264706 -0.00022666667
0.004503387 0.001985294 -6.6666666e-06
-0.0025995162 0.0011764705 -0.0023533334
0.00076887099 0.00022058823 -6.6666666e-06
-0.00032951613 0.001985294 -0.00095999998
0.0050159679 0.00125 -0.00052
-0.003478226 -0.00073529413 -0.0024266667
0.0012082258 -0.001985294 -0.00073999999
-0.00091532263 -0.0011029412 -0.0023533334
0.0012814517 0.00014705882 -6.6666666e-06
0.003478226 0.0018382353 -0.0015466667
-0.004137258 -0.0017647059 -6.6666666e-06
0.00084209681 -0.001617647 -0.0023533334
0.00054919359 0.0019117647 -0.0022066666
0.00040274195 0.00073529413 -0.0023533334
-0.0028191938 0.0013970588 -6.6666666e-06
0.0031120968 0.0022794118 -0.00052
0.0034050001 -0.0021323529 -0.00044666667
-0.0020137099 -0.00095588237 -6.6666666e-06
-0.0046498389 -0.0011764705 -0.0019866666
-0.0017208065 -0.0010294118 -6.6666666e-06
0.0017940323 0.001617647 -0.0023533334
-0.0052356455 0.0005147059 -7.9999998e-05
-0.00047596777 0.001985294 -0.00081333332
3.6612906e-05 0 -6.6666666e-06
0.0029656452 0.0018382353 -0.0022799999
-0.0023066129 -0.0008088235 -0.0024266667
0.00025629034 -0.0024999999 -0.00022666667
0.00069564517 0.001985294 -0.00059333333
0.0046498389 0.0018382353 -0.00030000001
-0.0012814517 0 -0.0024266667
0.0035514517 -0.0017647059 -6.6666666e-06
-0.0042104842 -0.0021323529 -7.9999998e-05
-0.00069564517 -0.001985294 -0.0015466667
-0.003844355 0.00044117647 -0.0023533334
-0.0032585484 -0.0024264706 -0.00044666667
-0.004137258 0.0015441177 -0.00118
0.0050159679 7.3529409e-05 -0.00073999999
-0.004137258 0.00036764707 -0.0023533334
-0.00098854839 0.001985294 -0.0022066666
0.0043569356 0.001985294 -0.00052
0.0031120968 -0.00125 -6.6666666e-06
0.0028191938 -0.0018382353 -0.00081333332
-0.0017940323 0.0019117647 -0.0021333334
-0.00062241935 -0.0017647059 -6.6666666e-06
0.0032585484 -0.0011029412 -0.0023533334
-0.0035514517 0.0017647059 -0.0013266667
-0.0017208065 -0.001985294 -0.00081333332
-0.0025995162 -0.0011764705 -0.0024266667
-0.0010617742 -0.0021323529 -6.6666666e-06
0.0026727421 -0.0020588236 -0.00015333333
0.0045766132 0.0014705883 -6.6666666e-06
-0.00084209681 0.001985294 -0.00081333332
-0.00091532263 -0.001985294 -0.00088666665
0.0047230646 0.0011029412 -0.00095999998
0.0020869356 0.001985294 -0.0015466667
-0.00047596777 0.00044117647 -6.6666666e-06
0.0036246777 0.0005147059 -6.6666666e-06
-0.0050891936 -0.00029411764 -6.6666666e-06
-0.0015011291 0.0011764705 -0.0023533334
3.6612906e-05 -0.001985294 -0.00059333333
-0.0040640323 0.00036764707 -6.6666666e-06
-0.0015743549 0.0005147059 -0.0023533334
-0.0018672581 0.0019117647 -0.00088666665
-0.0025262905 0.00014705882 0.0015333333
0.0012814517 0.00058823527 -0.0023533334
0.0029656452 0.00022058823 -6.6666666e-06
-0.003478226 0.0022794118 -0.00030000001
-0.0024530645 -0.0008088235 -6.6666666e-06
0.00054919359 0.0018382353 -6.6666666e-06
0.0026727421 0.00058823527 -6.6666666e-06
-0.0023066129 -0.0015441177 -6.6666666e-06
0.0012082258 0.001985294 -0.0015466667
0.0031120968 0.0019117647 -0.0017666667
-0.0017208065 0.0019117647 -0.00162
-0.0044301613 0.0013970588 -0.00081333332
-0.001135 -0.0005147059 -6.6666666e-06
-0.0016475806 -0.0011029412 -0.0024266667
0.00062241935 0.001985294 -0.0014
0.0032585484 0.0018382353 -0.00081333332
-0.0046498389 -0.0014705883 -6.6666666e-06
-0.003844355 -0.0019117647 -6.6666666e-06
-0.0036246777 0.0017647059 -0.0014
-0.0025995162 0.0015441177 -0.0023533334
0.00040274195 -0.0016911764 -0.0023533334
0.0039908066 -0.001617647 -0.00088666665
-0.0024530645 0.0022794118 -7.9999998e-05
0.0036246777 -0.0018382353 -6.6666666e-06
-0.00025629034 -0.00036764707 -0.0023533334
-0.0043569356 0.00125 -6.6666666e-06
-0.00069564517 0.00044117647 -0.0023533334
0.0031120968 -0.0017647059 -0.0022066666
-0.00010983871 0.0016911764 -6.6666666e-06
-0.004137258 -0.001617647 -0.00118
0.0020869356 0.001985294 -0.0012533333
0.0032585484 -0.00022058823 -6.6666666e-06
-0.00098854839 0.001985294 -0.0019866666
-0.00069564517 0.001985294 -0.0017666667
0.0023798388 -0.0013235294 -6.6666666e-06
-0.0036246777 0.0017647059 -0.0016933334
-0.0025262905 0 0.0027066667
0.0027459678 0.00022058823 -6.6666666e-06
0.0013546775 -0.0011764705 -0.0023533334
0.0027459678 -0.0018382353 -0.00162
-3.6612906e-05 -0.0015441177 -6.6666666e-06
0.00040274195 -0.0014705883 -6.6666666e-06
-0.0027459678 0.0022058825 -6.6666666e-06
0.001135 0.001985294 -0.00095999998
-0.0025995162 0.0011029412 -6.6666666e-06
-0.0017208065 -0.00044117647 -6.6666666e-06
0.00025629034 -0.001985294 -0.0017666667
0.0049427422 0.0013235294 -6.6666666e-06
0.0023066129 -0.001985294 -6.6666666e-06
0.00062241935 -0.00058823527 -6.6666666e-06
-0.00010983871 -0.00073529413 -6.6666666e-06
0.004137258 -0.0014705883 -6.6666666e-06
-0.0017940323 -0.0014705883 -6.6666666e-06
-0.00047596777 0.00125 -6.6666666e-06
0.0031120968 0.0014705883 -6.6666666e-06
-0.0036979034 0.0019117647 -0.00052
-0.0019404839 -0.0013235294 -0.0023533334
0.00054919359 0.00014705882 -0.0023533334
0.00054919359 -0.0011764705 -0.0023533334
-0.0053088712 0.00073529413 -0.00015333333
-0.0032585484 0.00014705882 -0.0024266667
0.0044301613 0.0013970588 -0.00095999998
0.0036979034 0.0017647059 -0.00088666665
-0.0042837099 -0.00014705882 -0.0024266667
0.0035514517 0.00095588237 -6.6666666e-06
0.0012082258 0.0018382353 -0.0023533334
0.0025262905 -0.0011029412 -6.6666666e-06
-0.0021601613 0.0019117647 -0.0013266667
0.0021601613 -0.0016911764 -0.0022799999
-0.0025995162 0.0014705883 -6.6666666e-06
0.0039908066 -0.001985294 -0.00030000001
0.00054919359 0.00088235294 -0.0023533334
0.0029656452 -0.00044117647 -0.0023533334
-0.0024530645 0.00044117647 -0.0024266667
-0.0048695165 0.00088235294 -6.6666666e-06
-0.0029656452 0.0022058825 -6.6666666e-06
0.001135 0.001985294 -0.00162
-0.0020869356 0.0019117647 -0.00073999999
0.0047962903 -0.00073529413 -0.0013266667
-0.003844355 -0.001617647 -0.0023533334
0.0036246777 0.00036764707 -6.6666666e-06
0.00040274195 0.0011029412 -0.0023533334
0.0039908066 0.0022794118 -0.00044666667
0.0017208065 -0.0013235294 -6.6666666e-06
-0.0042104842 -0.00022058823 -0.0023533334
0.0030388711 -0.001617647 -0.0022799999
0.0026727421 -0.0021323529 -0.00015333333
-0.00010983871 -0.00058823527 -6.6666666e-06
-0.0017208065 -0.00022058823 -0.0024266667
0.0052356455 -0.00029411764 -0.00052
0.0033317744 0.00088235294 -0.0023533334
-0.0015743549 0.0013235294 -0.0023533334
-0.0025262905 -0.0005147059 -0.0024266667
0.00047596777 0.001985294 -0.0017666667
0.0017208065 -0.0019117647 -0.0022066666
-0.0021601613 -0.001985294 -0.00081333332
-0.0015743549 -0.001985294 -0.00095999998
0.0050159679 0.00022058823 -0.0013266667
0.0023798388 0 0.0018266666
0.0021601613 0.00095588237 -0.0023533334
-0.0054553226 0.00014705882 -0.00015333333
0.0022333872 0.001985294 -0.00118
3.6612906e-05 -0.00095588237 -0.0023533334
-0.0023066129 -0.0011029412 -6.6666666e-06
0.0052356455 -7.3529409e-05 -6.6666666e-06
-0.0034050001 0 -6.6666666e-06
-0.0032585484 -0.00088235294 -0.0024266667
0.0042104842 -0.0014705883 -6.6666666e-06
0.001135 -0.0005147059 -0.0023533334
-0.0047962903 -0.001617647 -0.00052
3.6612906e-05 0.0021323529 -6.6666666e-06
0.0015011291 0 -0.0023533334
-0.00076887099 -0.0022794118 -0.00052
-0.0043569356 0.0010294118 -6.6666666e-06
0.0020137099 0.0019117647 -0.00059333333
-0.0047230646 0.0014705883 -6.6666666e-06
0.0021601613 0.00088235294 -0.0023533334
-0.003478226 -0.0011029412 -0.0024266667
-0.0037711291 -0.00058823527 -0.0024266667
0.00040274195 0.00029411764 -6.6666666e-06
0.0050159679 -0.00014705882 -0.0014
-0.0045766132 -0.0014705883 -0.00059333333
0.0017940323 -0.0022058825 -0.00052
0.0033317744 -0.00058823527 -6.6666666e-06
-0.0031120968 -0.0013235294 -6.6666666e-06
-0.00010983871 -0.001985294 -0.0012533333
0.0025995162 0.0019117647 -0.0021333334
0.0046498389 -0.0010294118 -0.00118
0.0037711291 -0.0008088235 -6.6666666e-06
0.0037711291 -0.0013970588 -0.0022799999
0.0017208065 0.0019117647 -0.00066666666
-0.0044301613 -0.0015441177 -6.6666666e-06
-0.0025262905 -0.001985294 -0.0013266667
0.0023798388 -0.0019117647 -0.0012533333
-0.0025995162 0.0008088235 -0.0024266667
0.00010983871 -0.001985294 -0.0010333334
-0.0028924195 0.0017647059 -6.6666666e-06
-0.0012082258 -0.00073529413 -0.0024266667
-0.0020137099 -0.00022058823 -6.6666666e-06
0.00018306452 0.00044117647 -6.6666666e-06
-0.0028191938 0.0019117647 -0.00184
-0.003478226 0.0019117647 -0.00066666666
0.0049427422 0.0015441177 -7.9999998e-05
0.0015743549 0.00029411764 -0.0023533334
-0.0024530645 -0.0017647059 -0.0023533334
0.0043569356 -0.00014705882 -0.0023533334
-0.0039175809 -0.00029411764 -6.6666666e-06
-0.00091532263 -0.001985294 -0.00081333332
0.00062241935 -0.001985294 -0.0012533333
0.00047596777 -0.0020588236 -0.00052
0.0030388711 0.0008088235 -6.6666666e-06
0.0017940323 -0.001985294 -0.0011066666
-0.00047596777 -0.0006617647 -0.0023533334
0.0015743549 -0.0021323529 -0.00052
-0.0031120968 -0.0023529411 -0.00052
0.0039908066 -0.0011029412 -6.6666666e-06
0.0050159679 0.00044117647 -0.00162
-0.00062241935 0.0008088235 -6.6666666e-06
-0.00047596777 0.0017647059 -6.6666666e-06
-0.0016475806 -0.0019117647 -0.0023533334
0.0045766132 0.00088235294 -0.0023533334
-0.0020869356 -0.00095588237 -0.0024266667
0.0037711291 -0.0016911764 -0.00118
0.001135 -0.0013970588 -0.0023533334
-0.00040274195 -0.00014705882 -0.0024266667
0.0019404839 -0.001985294 -0.0019133333
-0.0025262905 0.0014705883 -6.6666666e-06
0.0012082258 0.0018382353 -0.0022799999
-0.00032951613 -0.001985294 -0.00118
-0.00098854839 -0.0020588236 -0.00052
0.0042837099 7.3529409e-05 -0.0023533334
-0.00069564517 -0.00044117647 -6.6666666e-06
0.00091532263 0.001985294 -6.6666666e-06
-0.0047230646 -0.0018382353 -0.00044666667
0.00018306452 -0.0023529411 -0.00052
0.001135 -0.001985294 -0.0020600001
-0.00062241935 -0.0018382353 -0.0023533334
0.0035514517 -0.0015441177 -6.6666666e-06
0.0036246777 0.00125 -6.6666666e-06
0.0039908066 -0.0017647059 -6.6666666e-06
0.0048695165 0.00036764707 -0.0023533334
-0.0035514517 -0.0019117647 -6.6666666e-06
-0.004137258 0.0021323529 -0.00030000001
0.00069564517 0.00014705882 -0.0023533334
0.0026727421 -0.0019117647 -0.0020600001
0.0018672581 0 -6.6666666e-06
0.0010617742 -0.001985294 -0.00073999999
0.0035514517 0.0018382353 -0.0011066666
0.0039908066 -0.00058823527 -6.6666666e-06
-0.0053088712 -0.00095588237 -6.6666666e-06
0.0020137099 -0.00095588237 -6.6666666e-06
-0.0036246777 -0.0017647059 -0.0010333334
-0.0050159679 -0.00036764707 -0.0013266667
-0.00091532263 0.001985294 -0.00073999999
-0.0027459678 -0.0013235294 -0.0024266667
0.004137258 0.00044117647 -0.0023533334
0.0013546775 0.00088235294 -0.0023533334
-0.0043569356 0.0014705883 -6.6666666e-06
-0.0020869356 -0.00029411764 -0.0024266667
0.0031120968 0.00125 -6.6666666e-06
-0.0013546775 -0.00058823527 -6.6666666e-06
-0.0034050001 -0.00125 -6.6666666e-06
-0.00025629034 -0.001985294 -6.6666666e-06
-0.0018672581 -0.0024999999 -7.9999998e-05
-0.0025262905 0.0008088235 -6.6666666e-06
0.0017208065 -0.001617647 -6.6666666e-06
-0.00076887099 -0.0018382353 -0.0023533334
0.0039908066 0.0014705883 -6.6666666e-06
0.0043569356 -0.0006617647 -0.0023533334
-0.00054919359 -0.0006617647 -0.0023533334
0.0036979034 0.00014705882 -0.0023533334
0.00018306452 0.0018382353 -6.6666666e-06
0.0031120968 -0.0013970588 -0.0023533334
0.0018672581 -0.0018382353 -0.0022799999
-0.0032585484 0.00088235294 -0.0023533334
-0.0054553226 -0.00058823527 -0.00044666667
0.0050159679 0.00036764707 -0.00088666665
-0.0010617742 -0.0018382353 -0.0023533334
-0.0013546775 -0.0017647059 -6.6666666e-06
-0.00032951613 -0.0022794118 -0.00052
3.6612906e-05 -0.0014705883 -6.6666666e-06
0.0021601613 -0.001985294 -6.6666666e-06
0.0012814517 -0.0016911764 -0.0023533334
0.0051624198 0.0013970588 -0.00015333333
-0.0046498389 0.0008088235 -0.0022799999
-0.0014279033 -0.0015441177 -6.6666666e-06
-0.0014279033 -0.001985294 -0.00088666665
0.0020869356 -0.001985294 -0.0019866666
-0.0025995162 -0.0018382353 -0.0023533334
0.0047230646 0.00095588237 -6.6666666e-06
0.0027459678 -0.0022058825 -0.00037333334
-0.0013546775 0.0023529411 -0.00015333333
-0.0043569356 0.0013970588 -0.0012533333
0.00025629034 -0.0011029412 -0.0023533334
0.0054553226 0.00014705882 -0.00052
-0.0026727421 -0.0013235294 -0.0024266667
-0.0020137099 0.00022058823 -0.0024266667
-0.0043569356 -0.0014705883 -0.0016933334
0.00062241935 -0.0024264706 -0.00044666667
-0.0036979034 0.0010294118 -0.0023533334
-0.0023066129 -0.001985294 -0.00066666666
-0.00069564517 -0.001985294 -0.0020600001
0.0033317744 7.3529409e-05 -6.6666666e-06
0.0029656452 -0.0018382353 -0.0016933334
0.00076887099 -0.00036764707 -6.6666666e-06
-0.00010983871 -0.00125 -0.0023533334
-0.00084209681 -0.001985294 -6.6666666e-06
-0.0053820969 -0.00095588237 -0.00044666667
-0.00010983871 0.001985294 -6.6666666e-06
-0.0020869356 0.0019117647 -0.0016933334
-0.0036246777 -0.001617647 -0.0023533334
0.0012814517 -0.0021323529 -6.6666666e-06
-0.00062241935 0.0013235294 -6.6666666e-06
0.0024530645 0.00014705882 0.00079999998
0.0019404839 0.0024264706 -0.00044666667
3.6612906e-05 0.0013970588 -6.6666666e-06
-0.0036246777 -0.0015441177 -6.6666666e-06
-0.0051624198 0.00095588237 -0.00037333334
-0.0037711291 0.00125 -0.0023533334
0.0031853227 -0.0006617647 -6.6666666e-06
0.0039908066 -0.001617647 -0.0014733333
-0.0016475806 0.0019117647 -0.0014733333
-0.0036246777 0.00095588237 -0.0023533334
0.0047962903 -0.00073529413 -0.0014
-0.0016475806 0.001985294 -0.00066666666
0.0035514517 -0.0020588236 -0.00030000001
0.0053820969 0.0011029412 -0.00044666667
0.0025995162 -0.0022794118 -0.00030000001
0.0012814517 0.0019117647 -6.6666666e-06
0.0025262905 0.00014705882 0.0013866667
-0.0023798388 -7.3529409e-05 0.0027066667
-0.0020869356 -0.00022058823 -0.0024266667
-0.0050891936 0.00073529413 -0.00052
0.0028191938 0.0005147059 -6.6666666e-06
0.0021601613 -0.00088235294 -6.6666666e-06
0.0012082258 -0.001985294 -6.6666666e-06
0.0014279033 -0.0023529411 -0.00015333333
-0.0050159679 0.00014705882 -0.0022066666
-0.0028191938 0.00044117647 -0.0024266667
0.0024530645 0.0024264706 -0.00030000001
-0.0044301613 -0.0020588236 -0.00030000001
-0.0044301613 0.0011029412 -0.0022799999
0.0024530645 -7.3529409e-05 0.00079999998
-0.001135 0.001985294 -0.0020600001
-0.003478226 0.0016911764 -0.0022066666
-0.0037711291 -0.0011764705 -6.6666666e-06
0.0039908066 -0.001617647 -0.00081333332
0.0036246777 -0.00036764707 -6.6666666e-06
-0.0036979034 0.0016911764 -0.00118
0.0052356455 -0.00088235294 -6.6666666e-06
0.0054553226 -0.00022058823 -0.00052
-0.0026727421 -0.0018382353 -0.0023533334
-0.0013546775 -7.3529409e-05 -0.0024266667
0.00054919359 -0.0020588236 -6.6666666e-06
-0.0047962903 0.0015441177 -0.00030000001
-0.00040274195 -0.00088235294 -6.6666666e-06
0.00098854839 0.00044117647 -6.6666666e-06
0.0013546775 -0.00125 -0.0023533334
0.0035514517 -0.0014705883 -0.0022799999
-0.0023798388 0.00029411764 -0.0024266667
0.0043569356 -0.00022058823 -6.6666666e-06
-0.003844355 0.00029411764 -6.6666666e-06
-0.0031120968 -0.0015441177 -6.6666666e-06
0.0040640323 0.0013235294 -0.0023533334
0.00025629034 0.001985294 -0.00184
-0.0045766132 0.00036764707 -6.6666666e-06
0.0029656452 -0.00022058823 -6.6666666e-06
0.0024530645 -0.0016911764 -6.6666666e-06
0.0017208065 -0.0024264706 -0.00030000001
0.0031853227 0.0013235294 -6.6666666e-06
0.00084209681 -0.0016911764 -6.6666666e-06
-0.0050159679 0.00029411764 -0.0013266667
0.00032951613 0.00022058823 -0.0023533334
0.003844355 0.0016911764 -0.0013266667
-0.00076887099 -0.001985294 -0.00184
0.0046498389 0.0013235294 -0.00066666666
-0.00032951613 -0.001985294 -0.0017666667
-0.0020137099 0.0019117647 -0.0021333334
-0.0013546775 -0.001985294 -0.0020600001
-0.0030388711 -0.001985294 -6.6666666e-06
-0.0035514517 -0.0016911764 -0.0023533334
0.004137258 0.0022058825 -0.00022666667
0.0017940323 0.0024999999 -0.00037333334
-0.0051624198 0.00095588237 -0.00044666667
0.0031853227 -0.00044117647 -6.6666666e-06
-0.0036246777 -0.0015441177 -0.0024266667
-0.0048695165 0.00058823527 -0.0015466667
0.0024530645 0.0014705883 -6.6666666e-06
0.0012814517 0.001985294 -0.00118
0.001135 -0.0006617647 -6.6666666e-06
-0.0037711291 -0.0018382353 -0.00066666666
-0.0051624198 -0.00022058823 -6.6666666e-06
-0.00054919359 0.001985294 -0.0017666667
0.0010617742 -0.0022058825 -0.00052
-0.0031120968 -0.0019117647 -0.00073999999
-0.00062241935 0.00014705882 -6.6666666e-06
0.0014279033 0.0011764705 -0.0023533334
-0.0044301613 -0.0013970588 -0.0015466667
0.00032951613 0.00044117647 -0.0023533334
0.00018306452 -0.0006617647 -6.6666666e-06
0.0024530645 0.0005147059 -0.0023533334
-0.00054919359 0.0011764705 -6.6666666e-06
-0.00091532263 0.0022058825 -0.00052
-0.0044301613 0.0013970588 -0.00088666665
-0.0017940323 -7.3529409e-05 -0.0024266667
-0.0028191938 0.00036764707 -6.6666666e-06
-0.0050159679 0.00022058823 -0.0012533333
-0.0019404839 -0.00073529413 -0.0024266667
0.00054919359 -0.0024999999 -0.00030000001
0.0042104842 -0.001617647 -0.00059333333
-0.0039175809 0.0017647059 -0.00052
-0.00054919359 0.00095588237 -6.6666666e-06
0.00032951613 -0.0011764705 -0.0023533334
0.0034050001 0.0021323529 -0.00052
-0.0016475806 -0.0021323529 -0.00052
0.0025262905 0 0.00124
0.003478226 0.0023529411 -0.00037333334
0.0039175809 0.00014705882 -0.0023533334
-0.00069564517 0.00044117647 -6.6666666e-06
-0.00010983871 0.001985294 -0.0017666667
-0.0035514517 0.00058823527 -6.6666666e-06
-0.00018306452 -0.001985294 -0.0022066666
-0.0050159679 0.0010294118 -6.6666666e-06
-0.00069564517 0.001985294 -0.0022066666
0.00069564517 -0.00036764707 -6.6666666e-06
-0.0023798388 -0.0024264706 -0.00030000001
0.0044301613 -0.00125 -0.0011066666
0.0028191938 -0.0011029412 -6.6666666e-06
0.0016475806 -0.0024999999 -0.00030000001
0.0040640323 -0.0018382353 -0.00052
-0.00025629034 -0.001985294 -0.0022066666
0.0028191938 0.0024264706 -0.00015333333
0.0047962903 -0.0008088235 -0.0019866666
0.0036246777 -0.0014705883 -0.0022799999
-0.00047596777 0.0008088235 -0.0023533334
0.00098854839 0.0022794118 -0.00052
-0.0017208065 -0.0010294118 -0.0024266667
0.0016475806 -0.00014705882 -0.0023533334
0.0025995162 -0.00029411764 -6.6666666e-06
-0.0020869356 -0.00036764707 -6.6666666e-06
-0.0042837099 0.00125 -6.6666666e-06
-0.00084209681 -0.0014705883 -0.0023533334
-0.0034050001 -0.0022794118 -6.6666666e-06
-0.0037711291 0.0008088235 -0.0023533334
-0.0037711291 -0.00125 -6.6666666e-06
-0.0034050001 0.0018382353 -0.0019133333
0.0028924195 -0.00073529413 -6.6666666e-06
-0.0026727421 0.001617647 -6.6666666e-06
-0.0028924195 0.00088235294 -6.6666666e-06
0.0044301613 0.001985294 -0.00030000001
0.0033317744 -7.3529409e-05 -0.0023533334
-0.0028924195 -0.00022058823 -0.0024266667
0.0050159679 0.00044117647 -0.00081333332
0.00062241935 -0.0018382353 -6.6666666e-06
-0.0023066129 0 0.0026333334
0.0015011291 0.00044117647 -0.0023533334
0.003478226 0.0013970588 -0.0023533334
0.0025262905 0.0022794118 -6.6666666e-06
0.0026727421 0.0011029412 -0.0023533334
-0.0029656452 -0.0024264706 -0.00015333333
-0.0036979034 0.001617647 -6.6666666e-06
0.0028924195 -0.0018382353 -0.0019866666
-0.0025262905 -7.3529409e-05 -0.0024266667
-0.0023066129 0.00073529413 -6.6666666e-06
-0.0025262905 0.0022058825 -0.00052
0.0031853227 0.00029411764 -6.6666666e-06
-0.0040640323 -0.001617647 -0.0014
0.0037711291 0.0017647059 -0.00095999998
-0.0047962903 0.001617647 -0.00015333333
-0.0053820969 -0.0008088235 -6.6666666e-06
-0.00084209681 0.00073529413 -6.6666666e-06
0.0025262905 0.00014705882 0.00124
0.0046498389 -0.0014705883 -6.6666666e-06
0.0019404839 0.0022058825 -0.00052
-0.00091532263 7.3529409e-05 -0.0024266667
0.0013546775 0.00036764707 -6.6666666e-06
0.0033317744 -0.0017647059 -6.6666666e-06
-0.003844355 0.00014705882 -0.0023533334
-0.0012814517 0.00125 -6.6666666e-06
-0.001135 0.001617647 -6.6666666e-06
0.00047596777 0.001985294 -0.0019133333
-0.00047596777 -0.0019117647 -0.0023533334
0.00040274195 -0.0022058825 -6.6666666e-06
0.0042104842 -0.0015441177 -0.00184
-0.0050159679 0.00014705882 -0.0010333334
-0.0048695165 0.00058823527 -0.0020600001
-0.0048695165 -0.00044117647 -6.6666666e-06
-0.0017208065 -0.001985294 -0.0013266667
0.0050159679 0.00014705882 -0.0012533333
-0.0012082258 0.0024264706 -0.00030000001
0.0052356455 0 -6.6666666e-06
0.0052356455 -0.00022058823 -6.6666666e-06
-0.00018306452 -0.00044117647 -6.6666666e-06
0.00098854839 0.0015441177 -6.6666666e-06
-0.0013546775 -0.0022058825 -6.6666666e-06
0.00040274195 0.0008088235 -6.6666666e-06
0.00054919359 -0.001985294 -0.0011066666
-0.0035514517 0.0018382353 -6.6666666e-06
-0.0016475806 0.00095588237 -0.0023533334
-0.004137258 -0.0013970588 -0.0023533334
0.0021601613 0.0022058825 -6.6666666e-06
-0.004503387 0.00029411764 -6.6666666e-06
0.00098854839 -0.00036764707 -0.0023533334
0.0013546775 0.001985294 -0.00081333332
-0.0024530645 -0.0024264706 -0.00044666667
-0.0039175809 0.00088235294 -0.0023533334
0.0012082258 0.00022058823 -0.0023533334
0.0034050001 0.0014705883 -6.6666666e-06
-0.00062241935 -0.00022058823 -0.0023533334
0.00018306452 -0.001985294 -0.0015466667
-0.0043569356 0.0013970588 -0.00095999998
0.0045766132 -0.0019117647 -0.00030000001
-0.0012082258 -0.0022794118 -6.6666666e-06
-0.003844355 -0.00058823527 -6.6666666e-06
0.0020869356 -0.0023529411 -0.00037333334
0.00084209681 0.0024264706 -0.00022666667
0.0010617742 0.00022058823 -0.0023533334
0.0050159679 -0.00022058823 -0.00162
-0.00010983871 0.00014705882 -0.0023533334
0.00010983871 -0.0011029412 -6.6666666e-06
0.0019404839 0.00073529413 -0.0023533334
0.0050159679 -0.00125 -0.00015333333
-0.0017940323 -0.0019117647 -0.0023533334
-0.004137258 0.0015441177 -0.0011066666
0.0025262905 0 0.0021933333
0.0021601613 0.001985294 -0.00184
-0.0022333872 -0.0011764705 -0.0024266667
-0.0012814517 -0.0024999999 -0.00030000001
0.0036979034 0.00088235294 -6.6666666e-06
0.0013546775 0.0017647059 -0.0023533334
-0.0042837099 0.00125 -0.0022799999
0.00018306452 0.00095588237 -6.6666666e-06
0.0050891936 -0.00058823527 -6.6666666e-06
0.0050159679 0.00125 -6.6666666e-06
0.0045766132 -0.0011029412 -0.0010333334
0.0046498389 0.0011764705 -0.0020600001
0.0053088712 0.00014705882 -0.00052
0.0015011291 0.0013970588 -6.6666666e-06
-0.0037711291 -0.0017647059 -0.0017666667
0.0015011291 -0.0022058825 -6.6666666e-06
-0.0047962903 0.00029411764 -0.0023533334
-0.0050159679 -0.00029411764 -0.0016933334
0.0019404839 -0.00095588237 -0.0023533334
-0.0034050001 -0.001985294 -6.6666666e-06
0.0032585484 0.0018382353 -0.0015466667
0.00084209681 0.0024264706 -0.00030000001
0.0020869356 0.00014705882 -6.6666666e-06
0.0053088712 -0.00058823527 -6.6666666e-06
-0.0031853227 0.0017647059 -0.00081333332
-0.00062241935 0.0011764705 -6.6666666e-06
0.0024530645 -0.0005147059 -6.6666666e-06
-0.0012082258 0.0013970588 -6.6666666e-06
0.00054919359 0.00022058823 -0.0023533334
-0.00025629034 -0.00029411764 -6.6666666e-06
-0.0022333872 0.0013970588 -0.0023533334
-0.0026727421 0.001985294 -6.6666666e-06
-0.00032951613 0.001617647 -6.6666666e-06
-0.0036979034 -0.0010294118 -6.6666666e-06
0.00018306452 0.0011764705 -6.6666666e-06
0.0023798388 -0.0017647059 -6.6666666e-06
-0.0044301613 0.0013235294 -0.0020600001
-0.0016475806 0.00058823527 -6.6666666e-06
-0.0026727421 -0.0021323529 -6.6666666e-06
-0.0043569356 7.3529409e-05 -6.6666666e-06
-0.0028191938 -0.00044117647 -0.0024266667
0.0036246777 0.0017647059 -0.00162
-0.0049427422 -0.0011029412 -0.00052
-0.00098854839 0.0011764705 -0.0023533334
0.003844355 -0.00095588237 -0.0023533334
0.0045766132 -0.001617647 -0.00015333333
0.0040640323 -0.0019117647 -0.00022666667
-0.0026727421 -0.0024264706 -0.00052
0.0015011291 -0.0018382353 -0.0022799999
-0.004503387 0.0011029412 -0.0022799999
0.0052356455 -0.00095588237 -0.00022666667
0.0015011291 -0.0014705883 -6.6666666e-06
-0.0022333872 -0.0006617647 -6.6666666e-06
0.0030388711 0.00029411764 -0.0023533334
0.0016475806 0.0015441177 -6.6666666e-06
0.0020137099 0.0006617647 -6.6666666e-06
0.0054553226 -0.00014705882 -0.00030000001
-0.0021601613 0.0019117647 -0.0021333334
0.0020869356 0.001985294 -0.0014
-0.0039908066 -0.00088235294 -0.0024266667
-3.6612906e-05 -0.0020588236 -6.6666666e-06
0.001135 0.001985294 -0.0012533333
0.00054919359 -0.0022058825 -6.6666666e-06
0.0015011291 -0.00029411764 -0.0023533334
0.0054553226 0.00044117647 -6.6666666e-06
0.0031853227 0.00088235294 -6.6666666e-06
0.001135 -0.001985294 -0.0012533333
0.00054919359 -0.00125 -6.6666666e-06
0.0025995162 0.0019117647 -0.0020600001
0.0020869356 0.0011029412 -0.0023533334
0.0048695165 0.0017647059 -0.00037333334
-0.0023798388 0.0013970588 -0.0023533334
-0.0023798388 0.0016911764 -0.0023533334
-0.0013546775 0.001985294 -0.0010333334
0.0036246777 -0.0016911764 -0.0011066666
-0.0048695165 0.0006617647 -0.0021333334
-0.00047596777 -0.0008088235 -0.0023533334
-0.0023066129 0 0.0017533334
0.0014279033 0.001985294 -0.00095999998
-0.00025629034 0.001985294 -6.6666666e-06
-0.004503387 -0.0013235294 -0.0019133333
-0.0026727421 -0.001985294 -0.00088666665
0.0054553226 7.3529409e-05 -0.00030000001
-0.0023066129 0.00014705882 -6.6666666e-06
0.0022333872 0.00095588237 -0.0023533334
-0.0028924195 -0.0019117647 -0.0011066666
3.6612906e-05 0.0018382353 -0.0023533334
-0.0021601613 0.0008088235 -0.0023533334
-0.0034050001 -0.00036764707 -0.0024266667
0.0017940323 -0.0011029412 -0.0023533334
0.0017940323 0.00022058823 -6.6666666e-06
-0.0046498389 0.0011029412 -0.0017666667
0.0029656452 0.0019117647 -0.0011066666
-0.0015011291 0.0017647059 -0.0023533334
0.0048695165 -0.0005147059 -0.0014733333
0.0014279033 0.00088235294 -0.0023533334
-0.0044301613 0 -6.6666666e-06
0.0028191938 -0.00022058823 -0.0023533334
0.00091532263 0.001985294 -0.0011066666
0.0022333872 -0.0022058825 -0.00052
0.0027459678 0.0014705883 -0.0023533334
0.0019404839 0.001985294 -0.00081333332
-0.0020137099 0.00036764707 -0.0024266667
-0.0027459678 0.001985294 -0.00059333333
0.0050159679 0.00058823527 -0.0012533333
0.00076887099 0.0022794118 -6.6666666e-06
0.0030388711 0.0018382353 -0.0023533334
-0.0012814517 -0.001985294 -0.0021333334
0.0033317744 0.0014705883 -0.0023533334
-0.0028924195 0.0019117647 -0.00095999998
-0.0035514517 0.0022058825 -0.00044666667
-0.0019404839 0.001985294 -0.00059333333
-0.0031853227 0.0016911764 -0.0023533334
0.0032585484 -0.0017647059 -0.0013266667
0.00018306452 0.0016911764 -0.0023533334
-0.00040274195 0.001985294 -0.00118
0.0027459678 -0.00088235294 -0.0023533334
-0.0033317744 0 -0.0024266667
0.0048695165 -0.0011029412 -0.00052
-0.0026727421 0.0010294118 -0.0023533334
-0.0036246777 -0.0013235294 -6.6666666e-06
0.0016475806 -0.00058823527 -6.6666666e-06
0.0032585484 0.00044117647 -0.0023533334
-0.00032951613 0.0005147059 -6.6666666e-06
-0.0013546775 0.0011764705 -6.6666666e-06
0.0029656452 -0.0005147059 -6.6666666e-06
0.0045766132 -0.0011029412 -0.0013266667
-0.00076887099 0.0024264706 -0.00022666667
0.0050159679 0.00044117647 -0.00184
-0.0033317744 0.0022058825 -0.00044666667
0.00040274195 -0.001985294 -0.00095999998
0.0030388711 0.0019117647 -0.00066666666
0.0035514517 0.0018382353 -0.0020600001
0.00010983871 -0.001985294 -0.0019866666
0.0023798388 0 -0.0023533334
0.0033317744 0.00036764707 -0.0023533334
0.0010617742 -0.0005147059 -0.0023533334
-0.0049427422 0.00044117647 -6.6666666e-06
0.0039908066 0.0020588236 -0.00052
0.0010617742 -0.00022058823 -6.6666666e-06
-0.0024530645 7.3529409e-05 -0.0024266667
0.0036246777 -0.0013970588 -6.6666666e-06
-0.0042104842 0.00125 -0.0022799999
-0.0015743549 -0.0017647059 -0.0023533334
0.0024530645 0.00014705882 0.0021200001
0.0044301613 0.0014705883 -0.00088666665
0.0039908066 -0.001617647 -0.00162
-0.00010983871 0.00044117647 -6.6666666e-06
0.0017208065 0.0024264706 -0.00044666667
-0.0051624198 -0.0013970588 -0.00022666667
0.0031120968 -0.00014705882 -6.6666666e-06
0.00047596777 0.00044117647 -0.0023533334
0.0031853227 -0.0011029412 -6.6666666e-06
-0.00018306452 -0.00022058823 -6.6666666e-06
0.0015011291 0.001617647 -6.6666666e-06
0.0053088712 -0.00073529413 -0.00030000001
-0.0053088712 0 -0.00052
0.0042837099 -0.00029411764 -0.0023533334
0.0031120968 0.0023529411 -6.6666666e-06
0.0050159679 0.00058823527 -0.0019866666
-0.0016475806 -0.0014705883 -0.0023533334
-0.0036979034 -0.0005147059 -0.0024266667
0.0018672581 0.0005147059 -6.6666666e-06
0.0015743549 -0.0022058825 -7.9999998e-05
0.0017208065 0.001985294 -0.00073999999
0.00018306452 -0.001985294 -0.0010333334
0.003844355 -0.0017647059 -0.00066666666
-0.00062241935 -0.0020588236 -0.00052
-0.00047596777 0.001985294 -0.00073999999
-0.004137258 0.001985294 -0.00044666667
-0.0023798388 7.3529409e-05 0.00036000001
0.00010983871 0.00073529413 -0.0023533334
-0.00018306452 -0.0024999999 -6.6666666e-06
-0.0023798388 -0.001985294 -0.0020600001
0.0015011291 -0.0013235294 -6.6666666e-06
0.00062241935 -0.0015441177 -6.6666666e-06
0.0036246777 0.0010294118 -0.0023533334
0.0030388711 0.00058823527 -6.6666666e-06
0.0014279033 -0.0005147059 -6.6666666e-06
0.0054553226 0.0010294118 -0.00044666667
0.0019404839 -0.00022058823 -6.6666666e-06
0.0031853227 0.0019117647 -0.0022066666
-0.0049427422 0.00036764707 -0.0013266667
0.0027459678 0.00125 -0.0023533334
-0.0046498389 0.0010294118 -0.0021333334
-0.00098854839 0.0018382353 -0.0023533334
-0.0036979034 0 -6.6666666e-06
0.0025262905 -0.00029411764 -6.6666666e-06
-0.0012814517 0.00073529413 -6.6666666e-06
0.0025262905 0.0015441177 -0.0023533334
-0.0031120968 -0.0019117647 -0.0022799999
0.0017940323 0.0015441177 -6.6666666e-06
-0.004503387 -0.00022058823 -0.0023533334
-0.0019404839 0.0019117647 -0.00088666665
-0.0052356455 -0.0011764705 -0.00044666667
-0.0012082258 0.0023529411 -0.00015333333
0.0023066129 0.0020588236 -0.00052
-0.003478226 0.0010294118 -0.0023533334
-0.0026727421 0.0022794118 -6.6666666e-06
0.0014279033 -0.00022058823 -6.6666666e-06
-0.0015011291 -0.001985294 -0.00162
0.0016475806 -0.0019117647 -6.6666666e-06
-0.003844355 0.0021323529 -7.9999998e-05
-0.0022333872 -0.001985294 -0.0019866666
0.0033317744 0.0018382353 -0.0019866666
-0.0025262905 -0.001985294 -0.00162
-0.0021601613 0.0016911764 -0.0023533334
0.0015011291 0.0021323529 -0.00052
-0.00032951613 0.00095588237 -6.6666666e-06
-0.004503387 0.00125 -0.00118
-0.003478226 0.00014705882 -6.6666666e-06
0.0020869356 -0.0019117647 -0.0021333334
-0.0025995162 0.0016911764 -6.6666666e-06
-0.00069564517 0.00088235294 -6.6666666e-06
0.0013546775 -0.0023529411 -0.00044666667
0.0012814517 -0.0013235294 -0.0023533334
-0.0020137099 0.0013235294 -6.6666666e-06
0.001135 0.0023529411 -0.00015333333
-0.0049427422 0.00036764707 -0.00073999999
-0.0018672581 -0.0022794118 -6.6666666e-06
0.0020869356 0.00029411764 -6.6666666e-06
-0.0033317744 0.00088235294 -6.6666666e-06
-0.003478226 0.00095588237 -0.0023533334
-0.0054553226 -0.00044117647 -0.00015333333
0.0037711291 -0.0016911764 -0.0022066666
0.0030388711 -0.0020588236 -0.00015333333
-0.003478226 0.00014705882 -0.0024266667
-0.0035514517 -0.0018382353 -0.0019133333
-0.0032585484 0.00036764707 -6.6666666e-06
-0.0015743549 0.0015441177 -6.6666666e-06
0.0029656452 -0.0018382353 -0.00088666665
0.00098854839 0 -6.6666666e-06
0.0019404839 0.0011029412 -0.0023533334
-0.003478226 -0.0019117647 -0.00059333333
0.0027459678 -0.00029411764 -0.0023533334
0.0048695165 -0.00088235294 -0.00066666666
0.0035514517 0.001617647 -0.0023533334
0.0010617742 0.001985294 -0.0010333334
-0.0025262905 -0.001617647 -6.6666666e-06
0.0046498389 0.0006617647 -0.0023533334
0.0053820969 -0.0005147059 -0.00015333333
-0.0050159679 0.00029411764 -0.0015466667
0.0015011291 -0.0008088235 -6.6666666e-06
0.0024530645 -0.0020588236 -6.6666666e-06
-0.0025995162 0.0020588236 -6.6666666e-06
-0.0012082258 -0.00088235294 -0.0024266667
-0.0036979034 0.0022058825 -0.00044666667
0.0018672581 -0.0020588236 -6.6666666e-06
0.0031120968 0.0019117647 -0.00088666665
0.0036246777 -0.00088235294 -6.6666666e-06
0.0012814517 0.0020588236 -0.00052
0.0015011291 0.001985294 -0.00081333332
0.001135 -0.001985294 -0.00081333332
-0.0048695165 -0.00088235294 -0.0022799999
0.00062241935 0.0013235294 -0.0023533334
0.00047596777 -0.0013235294 -6.6666666e-06
-0.00091532263 -0.0005147059 -0.0024266667
-0.0023798388 0.0013970588 -6.6666666e-06
0.0046498389 -0.0006617647 -0.0023533334
0.004137258 0.0008088235 -6.6666666e-06
0.0012082258 -0.0006617647 -0.0023533334
0.0040640323 0.00036764707 -0.0023533334
-0.0018672581 0.0005147059 -6.6666666e-06
-0.0028191938 0.0017647059 -6.6666666e-06
-0.0025995162 0 0.00065333332
-0.0042104842 -0.0015441177 -0.0022799999
-0.0050159679 -0.00029411764 -0.00088666665
-0.0023066129 0 0.0013133333
0.0032585484 -0.0011029412 -6.6666666e-06
0.0017208065 -0.00095588237 -0.0023533334
-0.0013546775 -0.0024999999 -0.00022666667
-0.0045766132 0.0011764705 -6.6666666e-06
-0.0014279033 -0.0016911764 -0.0023533334
0.0028924195 -0.0019117647 -0.00066666666
-0.00032951613 0.001985294 -0.0015466667
-0.0050159679 -0.0008088235 -0.00066666666
-0.0012082258 0.0015441177 -6.6666666e-06
0.0023798388 0 0.00102
0.0043569356 -0.0013970588 -0.0011066666
0.0036246777 -0.00088235294 -0.0023533334
-0.0025262905 7.3529409e-05 0.0021933333
-0.0036246777 0.0018382353 -0.00066666666
-0.0020137099 -0.001985294 -0.00118
0.0024530645 0.0018382353 -0.0022799999
0.0030388711 -0.0014705883 -6.6666666e-06
0.0019404839 0.0013235294 -6.6666666e-06
-0.00032951613 0.0011029412 -6.6666666e-06
0.0019404839 -0.00022058823 -0.0023533334
-0.003844355 0.0011029412 -0.0023533334
0.0048695165 0.00073529413 -6.6666666e-06
0.0037711291 -0.00022058823 -6.6666666e-06
0.0025995162 -0.00036764707 -6.6666666e-06
-0.00098854839 0.0015441177 -6.6666666e-06
-0.0013546775 -0.0024999999 -0.00030000001
-0.00040274195 0.00125 -0.0023533334
-0.0031853227 0.0021323529 -6.6666666e-06
0.00040274195 0.00036764707 -6.6666666e-06
-0.0020869356 0.0019117647 -0.0013266667
0.0020137099 0.0005147059 -0.0023533334
0.0033317744 -0.00014705882 -6.6666666e-06
0.0031120968 0.0013235294 -6.6666666e-06
-0.0024530645 0.00088235294 -0.0023533334
-0.0031120968 0.001617647 -6.6666666e-06
-0.0039175809 -0.0016911764 -0.0021333334
0.0023066129 -0.0019117647 -0.0021333334
0.0050891936 -0.00036764707 -6.6666666e-06
-0.0036979034 -0.0017647059 -0.0019866666
0.00010983871 -0.001985294 -0.00118
0.0036246777 -0.00022058823 -0.0023533334
0.0023066129 0.00095588237 -0.0023533334
-0.00069564517 0.0008088235 -6.6666666e-06
-0.0036246777 -0.0017647059 -0.0014733333
0.0047962903 -0.0006617647 -0.0010333334
0.001135 0.0022058825 -6.6666666e-06
0.0023798388 -0.0016911764 -0.0022799999
0.0029656452 -0.0019117647 -0.00066666666
0.0031120968 0.0024264706 -0.00037333334
-0.0023066129 -0.0024264706 -6.6666666e-06
0.00025629034 0.001985294 -0.0011066666
-0.0023798388 0.0006617647 -0.0023533334
0.0049427422 0.0006617647 -0.0014
-0.0020137099 -0.0015441177 -6.6666666e-06
0.0028924195 0.0011029412 -6.6666666e-06
0.0050159679 0.00014705882 -0.0014
0.0022333872 0.0018382353 -0.0022799999
-0.0045766132 0.0011029412 -0.0022799999
-0.00018306452 -0.0024999999 -0.00015333333
0.0028924195 -0.00036764707 -0.0023533334
-0.0026727421 -0.001985294 -0.0013266667
-0.0012082258 -0.0014705883 -6.6666666e-06
-0.0028924195 -0.0024264706 -0.00052
-0.0028924195 -0.0024264706 -0.00044666667
-0.0017208065 0.00022058823 -0.0024266667
-0.0049427422 -0.00058823527 -6.6666666e-06
-3.6612906e-05 0 -6.6666666e-06
0.0043569356 -0.0005147059 -6.6666666e-06
-0.0028191938 -0.0006617647 -6.6666666e-06
-0.0022333872 -0.00029411764 -0.0024266667
0.0027459678 0.001985294 -0.00052
0.0012814517 0.0021323529 -0.00052
0.00098854839 0.0018382353 -0.0022799999
-0.0054553226 -0.00044117647 -0.00022666667
-0.0013546775 -0.001985294 -0.0012533333
-0.0034050001 0.001617647 -6.6666666e-06
0.0013546775 -0.00044117647 -0.0023533334
0.0050891936 0.00088235294 -0.00052
-0.0043569356 -0.00058823527 -6.6666666e-06
-0.0049427422 0.0011029412 -6.6666666e-06
0.0032585484 -0.0021323529 -0.00030000001
0.0018672581 0.00036764707 -0.0023533334
0.0031853227 0.0019117647 -0.00066666666
0.0020137099 -0.00044117647 -6.6666666e-06
-0.0032585484 -0.00014705882 -6.6666666e-06
-0.0050159679 0.00014705882 -0.0014733333
0.0015743549 -0.0010294118 -0.0023533334
-0.00084209681 0.001985294 -0.0022799999
0.0027459678 -0.0018382353 -0.0019133333
-0.0047962903 0.00022058823 -0.0023533334
-0.00047596777 -0.0022058825 -0.00052
-0.0024530645 -0.0013970588 -0.0023533334
0.0025262905 7.3529409e-05 0.00065333332
-0.00084209681 0.0019117647 -0.0022799999
0.0014279033 -0.0022794118 -0.00044666667
0.0015011291 0.00014705882 -0.0023533334
-0.0028924195 -0.0019117647 -6.6666666e-06
-0.0034050001 -0.00014705882 -6.6666666e-06
0.0015011291 0.00022058823 -0.0023533334
0.0045766132 0.00125 -0.0012533333
-0.0043569356 -0.0010294118 -6.6666666e-06
0.0020137099 0.001985294 -0.0015466667
0.0025995162 0.0010294118 -0.0023533334
-0.00025629034 -0.0016911764 -0.0023533334
0.0028191938 0.0024264706 -0.00044666667
0.00091532263 0.0016911764 -0.0023533334
0.003478226 -0.00088235294 -0.0023533334
0.0053820969 0.00073529413 -6.6666666e-06
0.0030388711 0.001617647 -6.6666666e-06
-0.0023066129 -0.001985294 -0.0020600001
0.0028191938 -0.0011764705 -6.6666666e-06
0.0023798388 0 0.0015333333
-0.0017940323 -0.0005147059 -0.0024266667
0.00091532263 -0.001985294 -0.0017666667
0.003844355 -0.00088235294 -0.0023533334
0.0032585484 0.00044117647 -6.6666666e-06
-0.0047230646 -0.00073529413 -6.6666666e-06
0.0027459678 -0.0011764705 -6.6666666e-06
0.0022333872 0.001985294 -0.0019133333
0.00040274195 0.001985294 -0.0017666667
0.0047230646 -0.00088235294 -0.0021333334
-0.00076887099 0.0014705883 -0.0023533334
-0.00025629034 0.0021323529 -6.6666666e-06
0.0045766132 -0.0015441177 -0.00052
0.0031120968 0.0015441177 -0.0023533334
3.6612906e-05 0.001617647 -6.6666666e-06
-0.00025629034 0.00095588237 -0.0023533334
0.0042104842 -0.0015441177 -0.0016933334
0.0046498389 0.001617647 -0.00052
0.0014279033 -0.0024264706 -0.00030000001
-3.6612906e-05 -0.0006617647 -0.0023533334
-0.0031853227 -0.001617647 -6.6666666e-06
-0.00069564517 0.001985294 -0.00095999998
-0.0040640323 -0.00029411764 -0.0024266667
0.00047596777 0.0019117647 -0.0022066666
0.0046498389 0.0005147059 -0.0023533334
-0.00054919359 -0.001985294 -0.0014
-0.0010617742 -0.0013235294 -6.6666666e-06
0.0017940323 0.001985294 -0.0020600001
-0.0032585484 0.0022058825 -0.00044666667
-0.0052356455 0.00088235294 -0.00037333334
-0.0033317744 -0.0015441177 -0.0023533334
0.00076887099 -0.00088235294 -6.6666666e-06
0.003844355 -0.00044117647 -0.0023533334
-0.0018672581 0.0024264706 -0.00022666667
-0.0024530645 -0.001985294 -0.0020600001
-0.0032585484 -0.00044117647 -6.6666666e-06
0.0017940323 -0.0019117647 -0.0021333334
0.0013546775 -0.00029411764 -0.0023533334
0.0022333872 -0.0019117647 -0.00066666666
0.004137258 -0.00036764707 -0.0023533334
-0.0025262905 -0.001985294 -0.0012533333
-0.0026727421 0.0018382353 -0.00088666665
-0.0018672581 0.0016911764 -6.6666666e-06
0.003478226 0.0022794118 -0.00044666667
0.0033317744 -0.00095588237 -0.0023533334
0.00076887099 -0.001985294 -0.00073999999
0.0025995162 -0.0019117647 -0.0019866666
0.00010983871 0.001985294 -0.00081333332
-0.0031120968 0.0015441177 -0.0023533334
0.0022333872 -0.0023529411 -0.00030000001
0.0023066129 -0.0019117647 -0.0019866666
0.0023798388 7.3529409e-05 0.00087333331
0.00032951613 -0.0024264706 -0.00052
0.0027459678 -0.0016911764 -0.0022799999
-0.0028191938 0.0016911764 -6.6666666e-06
-0.004137258 0.0014705883 -0.0022799999
0.004137258 0.00044117647 -6.6666666e-06
0.0020869356 0.00073529413 -0.0023533334
-0.0031120968 0.0011029412 -0.0023533334
-0.0023798388 0.001985294 -0.00066666666
-0.0017940323 -0.0010294118 -0.0024266667
-0.00098854839 0.0023529411 -0.00015333333
-0.0039175809 0.0013970588 -6.6666666e-06
-0.0040640323 -0.001617647 -0.0022066666
-0.00069564517 -0.0014705883 -0.0023533334
-0.0046498389 -0.0015441177 -6.6666666e-06
0.0013546775 0.00014705882 -0.0023533334
-0.0029656452 0.0022794118 -7.9999998e-05
0.003844355 -0.00073529413 -6.6666666e-06
0.0020137099 0.00095588237 -0.0023533334
-0.0050159679 -0.00036764707 -0.0022066666
0.00084209681 0.001985294 -0.00073999999
-0.0047230646 -0.0011029412 -0.0011066666
-0.001135 -0.00073529413 -0.0024266667
0.0029656452 -0.0020588236 -0.00015333333
-0.0050159679 0.00029411764 -0.0010333334
-0.0018672581 -0.001985294 -0.0021333334
-0.0012814517 -0.00036764707 -0.0024266667
0.00091532263 0.001985294 -0.00162
0.0037711291 0.0015441177 -6.6666666e-06
-0.003844355 0.0016911764 -0.00184
0.0047230646 -0.00088235294 -0.0016933334
0.00032951613 0.0006617647 -6.6666666e-06
-0.0023798388 -7.3529409e-05 0.00014
0.0050159679 0.00014705882 -0.0019866666
-0.0023798388 -0.0017647059 -6.6666666e-06
0.0015011291 -0.0017647059 -6.6666666e-06
-0.0024530645 -0.0020588236 -0.00052
0.00062241935 0.00073529413 -0.0023533334
-0.0045766132 0.0016911764 -0.00015333333
0.00091532263 -0.001617647 -6.6666666e-06
0.0042837099 0.0020588236 -0.00030000001
-0.0040640323 0.0005147059 -6.6666666e-06
-0.0023798388 -0.0006617647 -6.6666666e-06
-0.00010983871 -0.001985294 -0.0015466667
0.0023798388 0.00014705882 0.0023399999
-0.0042837099 -0.0020588236 -6.6666666e-06
-0.00098854839 0.0011029412 -0.0023533334
-0.0035514517 -0.0019117647 -0.00059333333
-0.0013546775 -0.0005147059 -0.0024266667
-0.0045766132 0.0017647059 -0.00015333333
-0.0023066129 0.0019117647 -0.0017666667
0.00047596777 -0.0013235294 -0.0023533334
0.0018672581 0.0008088235 -0.0023533334
0.0043569356 0.00014705882 -6.6666666e-06
-0.00040274195 0.0006617647 -0.0023533334
-0.0035514517 0.0011029412 -6.6666666e-06
-0.0024530645 7.3529409e-05 0.00028666668
-0.0043569356 -0.0011029412 -6.6666666e-06
-0.0021601613 0.00044117647 -6.6666666e-06
-0.0015743549 0.00029411764 -6.6666666e-06
0.0025995162 -0.0006617647 -6.6666666e-06
0.00047596777 0.00014705882 -6.6666666e-06
0.0053088712 -0.00014705882 -6.6666666e-06
-0.0010617742 -0.00044117647 -0.0024266667
-0.0033317744 -0.0014705883 -0.0024266667
-0.0014279033 -0.0017647059 -0.0023533334
-0.0014279033 -0.0006617647 -6.6666666e-06
0.0046498389 0.00088235294 -6.6666666e-06
0.0020137099 -0.0006617647 -0.0023533334
-0.00084209681 -0.0016911764 -6.6666666e-06
