# .PCD v0.7 - Point Cloud Data file format
VERSION 0.7
FIELDS x y z
SIZE 4 4 4
TYPE F F F
COUNT 1 1 1
WIDTH 1373
HEIGHT 1
VIEWPOINT 0 0 0 1 0 0 0
POINTS 1373
DATA ascii
-0.028302856 0.00095249998 -0.013516049
0.027044952 0.00095249998 -0.002411111
-0.028931808 -0.00127 -0.014150617
-0.028931808 0.00127 -0.00050740736
-0.015094857 0.00127 -0.00082469132
0.0078619048 0.00127 -0.013833333
0.0091198087 0.00127 -0.00082469132
0.012579047 0.000635 -0.014467901
0.024843618 0 -0.0020938271
0.02956076 0.00095249998 -0.013833333
-0.011950094 -0.00127 -0.014150617
-0.0088053327 0.00127 -0.0014592592
0.0037737142 -0.0003175 -0.0074876542
0.0018868571 0.00127 -0.00019012341
0.018868571 0.0003175 -0.011295062
-0.0040881904 0 -0.0087567903
0.024214666 0.0003175 -0.0090740742
0.024214666 0 0.0023481483
-0.0091198087 0.0003175 -0.020179013
0.032391045 0.000635 -0.0020938271
0.026415998 0.00095249998 -0.00019012341
0.0015723809 0.000635 -0.015419752
0 -0.0003175 -0.013833333
-0.0062895236 0.0003175 -0.020496296
-0.0091198087 0.0003175 -0.011929629
-0.0094342856 0 -0.015419752
0.0056605712 -0.00095249998 -0.013516049
0.02798838 0.00127 -0.0020938271
0.022642285 -0.00127 -0.015102468
0.026415998 0.00127 -0.00019012341
0.0056605712 -0.00127 -0.0017765431
0.031133141 0.000635 -0.00019012341
0.013836952 -0.0003175 -0.018275307
0.01478038 0.00095249998 -0.002411111
0.018239617 -0.00127 -0.0020938271
0.030189713 0.00095249998 -0.015419752
-0.019183047 0.0003175 -0.01764074
-0.0059750471 0.00095249998 -0.013516049
-0.015094857 -0.000635 -0.00050740736
0.0066039995 -0.00127 -0.0020938271
0.021384381 0.0003175 -0.002411111
0.017925141 0.00095249998 -0.015419752
0.032076571 -0.00127 -0.013833333
-0.030818665 0.00127 -0.0014592592
-0.021384381 0.0003175 -0.0093913581
-0.016352762 0.0003175 -0.017006172
0.014151428 0.0003175 -0.0071703703
0.031447619 0.0003175 -0.0020938271
0.031762093 -0.00095249998 -0.00050740736
0.0097487615 -0.0003175 -0.013516049
-0.0031447618 0 -0.015419752
0.026730474 0 -0.0084395064
-0.031133141 0 -0.013516049
-0.021384381 0.0003175 -0.013516049
0.0012579047 -0.0003175 -0.017323457
0.021384381 0 -0.012564197
0.025158094 -0.00095249998 -0.013516049
0.01478038 0.00095249998 -0.014150617
0.02798838 -0.00127 -0.00082469132
-0.0037737142 0.0003175 -0.020813581
0.014151428 0.0003175 -0.009708642
0.0062895236 0 -0.009708642
0.014151428 0.000635 -0.015737036
-0.028302856 -0.00095249998 -0.015419752
-0.0040881904 -0.0003175 -0.0059012342
-0.0018868571 -0.00095249998 -0.014785185
-0.011635618 0 -0.0084395064
-0.019183047 -0.0003175 -0.0027283949
-0.013836952 0 -0.019861728
-0.016667238 0.000635 -0.015737036
-0.013836952 0 -0.0049493825
-0.016352762 0.0003175 -0.019544445
-0.0062895236 0.0003175 -0.0052666664
-0.025787046 -0.00127 -0.0014592592
0.0078619048 0.00127 -0.0014592592
-0.011950094 -0.00127 -0.015102468
0.013522476 0.00127 -0.0014592592
0.028617332 -0.00095249998 -0.015419752
0.01572381 -0.0003175 -0.015419752
-0.026730474 -0.0003175 -0.019544445
0.0081763808 -0.00127 -0.00082469132
-0.0037737142 0 -0.0043148147
-0.0062895236 -0.0003175 -0.0071703703
-0.020755427 0.000635 -0.013833333
0.022642285 -0.00095249998 -0.002411111
0.011321142 0 -0.0084395064
0.016352762 -0.0003175 0.0020308641
0.021069903 -0.00127 -0.002411111
0.003459238 -0.00095249998 -0.0020938271
-0.031447619 -0.00095249998 -0.013833333
0.018868571 0 0.0013962963
-0.0062895236 0.0003175 -0.0084395064
0.027673904 0.00127 -0.002411111
-0.031762093 0 -0.017323457
0.0025158094 0.000635 -0.014785185
-0.016352762 0 -0.0046320986
0.031447619 0 -0.002411111
0.029875236 0.00127 -0.00019012341
0.019183047 -0.00127 -0.0011419753
0.024843618 0.00127 -0.0014592592
0.029246284 0.00127 -0.0014592592
-0.0088053327 0 -0.0030456788
-0.018868571 -0.000635 -0.00050740736
0.021698857 -0.00127 -0.013516049
0.0031447618 -0.00127 -0.014467901
-0.016352762 0.0003175 -0.0087567903
-0.014151428 -0.0003175 -0.0046320986
0.014151428 0.0003175 -0.0074876542
-0.010063238 -0.00127 -0.0014592592
0.0062895236 0.0003175 -0.011929629
0.016038286 -0.000635 -0.015419752
0.0040881904 0 -0.0090740742
0.023271237 -0.00095249998 -0.015419752
0.019183047 -0.00127 -0.002411111
-0.0062895236 0.00127 -0.014150617
0.022642285 0.00095249998 -0.002411111
-0.021384381 0.0003175 -0.012564197
-0.028931808 0.00127 -0.013516049
-0.011635618 0 -0.011295062
-0.011635618 0.00127 -0.013833333
0.0091198087 0.0003175 -0.013198765
0.016667238 0 0.0023481483
-0.011635618 0 -0.012564197
-0.023900189 -0.0003175 -0.012564197
-0.021698857 0.0003175 -0.010660494
0.023585713 0.000635 -0.00050740736
-0.024214666 0 -0.0081222225
0.014465904 -0.0003175 -0.013516049
-0.026730474 -0.0003175 0.0020308641
0.013836952 -0.0003175 -0.0068530864
-0.006918476 0.0003175 -0.00019012341
0.0078619048 -0.0003175 -0.014150617
0.0012579047 0.0003175 -0.017006172
-0.021384381 0 0.00044444448
0.0050316188 0.00127 -0.0014592592
0.003459238 -0.00127 -0.0020938271
0.0056605712 0.00095249998 -0.00019012341
0.00094342855 0.0003175 -0.0093913581
0.0088053327 0.0003175 0.0026654322
-0.016352762 0 -0.016371604
-0.0053460952 -0.00127 -0.00082469132
-0.026730474 -0.0003175 -0.0033629627
-0.024214666 0.0003175 -0.012246913
-0.0018868571 0.0003175 -0.015419752
-0.013836952 0.000635 -0.014150617
-0.019183047 0.0003175 -0.01034321
0.0088053327 0.0003175 -0.0046320986
-0.0015723809 0 -0.009708642
-0.024529142 0.00127 -0.015102468
0.018868571 0 -0.0055839503
0.028302856 0.0003175 -0.00019012341
-0.0066039995 -0.0003175 -0.0036802469
0.019497523 0.0003175 -0.015737036
0.011635618 -0.0003175 -0.012246913
0.00031447617 -0.00095249998 -0.015419752
-0.021698857 0 -0.021765431
-0.023900189 0.00127 -0.00082469132
-0.023900189 0 0.00044444448
0.022327809 -0.00127 -0.013516049
-0.018868571 0.00127 -0.015419752
-0.026415998 0 -0.018592592
-0.013836952 0.0003175 -0.012564197
0.006918476 0.00127 -0.00019012341
-0.0028302856 0.00127 -0.013833333
-0.0088053327 0.00127 -0.015419752
0.016667238 0.00095249998 -0.002411111
0.0088053327 0 -0.0090740742
0.0066039995 0.0003175 -0.020179013
0.012579047 0.000635 -0.00050740736
-0.01478038 -0.00095249998 -0.015419752
-0.022956761 0.00127 -0.014467901
0.011635618 -0.000635 -0.014467901
0.00062895234 -0.0003175 -0.015419752
-0.0062895236 0 -0.021130864
0.013836952 0 0.0020308641
-0.014151428 -0.00127 -0.0017765431
0.027673904 -0.00095249998 -0.015419752
0.014151428 0.0003175 -0.017006172
0.014465904 -0.00127 -0.0011419753
-0.01069219 -0.00127 -0.013516049
0.02547257 0.000635 -0.015419752
-0.026730474 0 -0.010660494
0.011635618 -0.0003175 -0.020179013
-0.032705523 0 -0.0020938271
-0.0037737142 0.0003175 -0.013516049
0.019497523 -0.000635 -0.015419752
0.0012579047 0.0003175 -0.020813581
0.029246284 0.0003175 -0.020496296
-0.016352762 -0.0003175 0.0010790124
0.016352762 0.00127 -0.0020938271
-0.030504189 -0.00127 -0.013516049
0.027044952 0 -0.00019012341
-0.0018868571 0.00127 -0.00082469132
-0.019811999 -0.0003175 -0.002411111
0.02956076 -0.00095249998 -0.0020938271
0 0.00127 -0.014150617
0.014465904 0.0003175 -0.013833333
-0.023900189 0 -0.011612345
0.02956076 0 -0.013198765
-0.0037737142 0 -0.0084395064
0.016667238 -0.00095249998 -0.00019012341
-0.017296189 0.000635 -0.014150617
-0.0053460952 0.00095249998 -0.013516049
-0.026730474 0.00127 -0.015102468
-0.021698857 0 -0.0074876542
-0.01069219 0.00127 -0.0017765431
-0.021698857 0.0003175 -0.011929629
0.021384381 0.00127 -0.014785185
0.018554095 0 -0.002411111
0.024214666 0.00127 -0.013516049
0.029875236 0.00095249998 -0.0020938271
0.014465904 -0.00127 -0.002411111
0.019497523 -0.00127 -0.015419752
0.019497523 0.00127 -0.015102468
0.0088053327 0.0003175 -0.0052666664
0.00062895234 -0.000635 -0.002411111
0.0040881904 0 -0.0052666664
0.0066039995 -0.00095249998 -0.013516049
0.013522476 -0.00127 -0.013833333
-0.013836952 0 -0.0059012342
-0.015409333 -0.00127 -0.014150617
0.016667238 0.0003175 -0.0093913581
-0.019183047 0 -0.011929629
-0.0056605712 -0.00095249998 -0.00019012341
-0.027673904 -0.0003175 -0.00019012341
-0.018868571 -0.0003175 0.00012716054
-0.013836952 -0.0003175 -0.0084395064
0.0056605712 -0.000635 -0.00050740736
0.019183047 0.00095249998 -0.00019012341
-0.026415998 0 -0.009708642
0.0059750471 -0.0003175 -0.00019012341
-0.0088053327 0.00127 -0.014467901
0.027359428 -0.00127 -0.00019012341
0.01572381 0.00127 -0.002411111
0.024214666 0 -0.010660494
0.023585713 0.00127 -0.0011419753
-0.023585713 0.00127 -0.014150617
0.0059750471 0.00127 -0.0017765431
-0.024843618 -0.000635 -0.002411111
-0.029246284 0 -0.0062185186
-0.010377713 0.00127 -0.014150617
-0.018554095 -0.0003175 -0.00019012341
-0.0012579047 -0.0003175 -0.013516049
0.0040881904 0.00095249998 -0.00019012341
-0.003459238 0.00127 -0.014467901
0.0066039995 0 -0.0071703703
-0.021698857 -0.0003175 -0.017323457
-0.022956761 0 -0.013516049
0 0.00127 -0.013833333
-0.013836952 -0.0003175 -0.011929629
0.022327809 0.00095249998 -0.013833333
-0.006918476 0.00095249998 -0.00019012341
0.032705523 -0.000635 -0.014785185
-0.024843618 -0.0003175 -0.015419752
0.019811999 -0.00127 -0.002411111
-0.015094857 0.00127 -0.015419752
0.013836952 0.0003175 -0.0027283949
-0.018239617 0.00127 -0.0020938271
0.013836952 0.0003175 0.00012716054
-0.0037737142 0.00127 -0.015102468
0.032076571 -0.00095249998 -0.0011419753
0.029246284 0 -0.021130864
-0.017610665 0.00127 -0.00050740736
-0.014151428 -0.0003175 -0.0049493825
0.031762093 0.00095249998 -0.015419752
0.013836952 0.0003175 -0.021448148
-0.032705523 0 -0.014785185
-0.02956076 -0.00127 -0.014785185
-0.011321142 0.0003175 0.0013962963
-0.016038286 -0.00127 -0.015102468
0.024214666 0 -0.0065358025
-0.029875236 -0.00127 -0.014467901
-0.016667238 0.0003175 -0.013833333
-0.0047171428 0.0003175 -0.014150617
0.031447619 0.0003175 -0.015419752
-0.0088053327 0.0003175 -0.010977778
-0.02798838 -0.00127 -0.0011419753
0.011321142 0 -0.010977778
0.0062895236 0.000635 -0.015737036
0.00031447617 0.00127 -0.0011419753
-0.028617332 -0.0003175 -0.00019012341
-0.024214666 0.0003175 -0.0052666664
0.017296189 -0.000635 -0.015419752
-0.0066039995 0.00127 -0.014467901
-0.029246284 0.0003175 -0.010660494
-0.023900189 -0.0003175 -0.016054321
0.0037737142 0.00127 -0.0017765431
0 0.0003175 -0.013833333
-0.031133141 0.0003175 -0.00019012341
0.021384381 -0.0003175 -0.01034321
-0.017610665 -0.000635 -0.013833333
0.012893523 -0.00095249998 -0.015419752
0.018868571 0.0003175 -0.0027283949
-0.015409333 -0.00127 -0.014467901
0.014151428 0 -0.0081222225
-0.024214666 0.0003175 0.0026654322
0.021384381 -0.0003175 0.00012716054
0.016352762 -0.00095249998 -0.015419752
-0.019811999 -0.00127 -0.0014592592
-0.024214666 0 -0.012246913
0.032705523 0.0003175 -0.013516049
-0.016352762 0 -0.012564197
0.019497523 0.00127 -0.013833333
0.0081763808 0.0003175 -0.015419752
-0.022013333 0.00127 -0.013833333
-0.017296189 0.00127 -0.015102468
-0.011321142 -0.0003175 0.00044444448
-0.0037737142 -0.0003175 -0.010025926
-0.016352762 -0.00095249998 -0.014150617
-0.014465904 0.00095249998 -0.014150617
-0.011635618 -0.0003175 -0.018909875
-0.016352762 -0.0003175 -0.018275307
-0.024529142 -0.00127 -0.0014592592
0.0056605712 -0.000635 -0.002411111
-0.00031447617 -0.00095249998 -0.00019012341
0.015409333 0.000635 -0.015419752
-0.027359428 0 -0.00019012341
0.01572381 -0.00095249998 -0.002411111
-0.029875236 0.00127 -0.00082469132
-0.012893523 -0.00127 -0.014150617
-0.016038286 -0.0003175 -0.013516049
0.0062895236 0.00095249998 -0.015737036
-0.016667238 -0.00127 -0.015419752
0.0091198087 -0.00127 -0.0011419753
0.0040881904 0 -0.020813581
-0.011635618 0 -0.01764074
0.022956761 0.00127 -0.015102468
0.030504189 0.00127 -0.0017765431
0.0012579047 0 -0.021130864
-0.023900189 0 -0.018909875
-0.026415998 0 -0.0087567903
0.029246284 -0.0003175 0.00076172844
-0.016038286 0.00127 -0.013833333
-0.0037737142 0.0003175 -0.012246913
-0.026730474 0.0003175 -0.021130864
-0.027044952 -0.000635 -0.013516049
-0.0088053327 0.00127 -0.013833333
-0.0040881904 0 -0.01922716
-0.016667238 0.00127 -0.0011419753
0.0028302856 0.00127 -0.0014592592
-0.016667238 0 -0.0068530864
0.006918476 -0.00127 -0.014785185
0.016352762 0 -0.011295062
0.022013333 -0.00095249998 -0.00019012341
-0.0012579047 -0.0003175 -0.0027283949
0.0018868571 0.00127 -0.015102468
0.010063238 -0.00127 -0.015102468
0.0088053327 0.0003175 -0.01764074
-0.018868571 -0.00095249998 -0.013833333
-0.029246284 -0.0003175 -0.0081222225
0.020126475 0.00127 -0.014785185
0.0072329519 -0.00127 -0.002411111
0.027673904 -0.00095249998 -0.013516049
0.0088053327 0.00127 -0.002411111
-0.011321142 0 -0.010025926
-0.0037737142 -0.0003175 -0.0081222225
0.014151428 -0.0003175 -0.0039975308
0.031762093 0 -0.0078049381
0.0037737142 0.00127 -0.015419752
-0.019183047 0 -0.0027283949
-0.01572381 -0.00095249998 -0.00019012341
-0.0047171428 -0.00095249998 -0.014467901
-0.021698857 0.00095249998 -0.015419752
-0.011635618 0.0003175 -0.0043148147
-0.00094342855 -0.00095249998 -0.002411111
0.011321142 -0.0003175 -0.009708642
0.026730474 -0.0003175 -0.016688889
0.0012579047 0.00127 -0.0011419753
-0.0018868571 0.000635 -0.014785185
0.011635618 -0.0003175 0.0017135802
-0.013836952 0 -0.0078049381
0.024529142 -0.00095249998 -0.013516049
-0.0018868571 0.00127 -0.0014592592
0.022327809 0.0003175 -0.013516049
0.031762093 -0.000635 -0.013516049
0.022956761 0.00127 -0.014150617
-0.0012579047 -0.0003175 0.00012716054
-0.025158094 0.00127 -0.015419752
0.006918476 -0.00127 -0.00082469132
-0.016981713 0.0003175 -0.002411111
0.029246284 0 -0.018909875
-0.018868571 0.0003175 -0.019544445
-0.031447619 0 -0.01764074
-0.027673904 0.00127 -0.00050740736
0.0091198087 0 0.0013962963
0.0012579047 -0.00127 -0.014785185
-0.0012579047 0.000635 -0.015419752
-0.016352762 0 -0.018275307
0.0062895236 0.00095249998 -0.00019012341
-0.0037737142 0.0003175 0.00012716054
-0.023900189 0.0003175 -0.021130864
0.0088053327 0.0003175 -0.019544445
-0.014151428 0.0003175 -0.019544445
0.0053460952 0.0003175 -0.014150617
0.029246284 0 -0.010977778
0.028931808 0 -0.021130864
0.0037737142 -0.000635 -0.00050740736
0.018239617 0.00095249998 -0.015419752
-0.032391045 -0.00095249998 -0.0011419753
-0.018868571 -0.0003175 0.00044444448
-0.023900189 0 -0.021448148
-0.00094342855 0.0003175 -0.013516049
0.029875236 -0.00127 -0.00050740736
0.032076571 -0.00127 -0.014785185
0.0031447618 0.00127 -0.013516049
-0.016667238 0.0003175 -0.021130864
0.011950094 -0.00127 -0.013833333
0.022956761 0.0003175 -0.015419752
0.0053460952 -0.00127 -0.00019012341
0.023585713 0.00127 -0.013833333
-0.0040881904 0 -0.0055839503
0.014465904 -0.000635 -0.014150617
0.0091198087 -0.0003175 -0.01764074
-0.021698857 -0.0003175 -0.0036802469
0.029875236 0.00095249998 -0.013516049
-0.032076571 0.00095249998 -0.014785185
0.0037737142 -0.0003175 -0.010660494
0.011321142 0.00127 -0.0011419753
0.028931808 -0.00127 -0.015419752
0.0040881904 -0.00127 -0.015419752
0.0047171428 -0.00127 -0.014467901
-0.01572381 -0.000635 -0.0020938271
0.00094342855 0.0003175 -0.020496296
0.014151428 0 -0.0087567903
0.0053460952 0.0003175 -0.00019012341
-0.0018868571 -0.0003175 -0.014467901
-0.016038286 -0.0003175 -0.013833333
0.032076571 0.00095249998 -0.0020938271
0.022642285 0.00127 -0.0014592592
0.026415998 -0.0003175 -0.00019012341
0.013836952 -0.0003175 -0.0084395064
0.0044026664 0.00095249998 -0.00019012341
-0.028931808 0.000635 -0.00050740736
0.031762093 0 -0.0059012342
-0.018868571 -0.00127 -0.014150617
-0.016352762 -0.00127 -0.0020938271
-0.022327809 -0.0003175 -0.00019012341
-0.0062895236 0 -0.0036802469
-0.018868571 0 0.0020308641
-0.0088053327 0 0.00076172844
-0.0037737142 0.0003175 -0.0090740742
0.022956761 -0.00127 -0.015102468
-0.014151428 0.0003175 -0.0084395064
-0.013522476 0.00095249998 -0.015419752
0.031762093 0 -0.019861728
0.021384381 0 -0.0052666664
0.0053460952 0.00127 -0.00082469132
-0.011635618 -0.0003175 -0.0074876542
0.019497523 -0.00127 -0.00050740736
0.028302856 0.00127 -0.0011419753
0.0066039995 -0.0003175 -0.015737036
-0.027044952 -0.00127 -0.00019012341
0.026730474 0.0003175 -0.011612345
-0.029246284 0.0003175 -0.011612345
0.026415998 -0.00127 -0.013516049
0.032391045 0.00095249998 -0.0014592592
0.011321142 0.0003175 -0.0039975308
0.0066039995 0.0003175 -0.009708642
0.023271237 -0.000635 -0.002411111
-0.013207999 0.00127 -0.0017765431
-0.0044026664 -0.00127 -0.00019012341
-0.00062895234 0.00127 -0.015102468
-0.011321142 0.0003175 -0.020813581
-0.018868571 0 -0.012881481
0.003459238 -0.00127 -0.00082469132
0.0031447618 -0.000635 -0.015419752
0.017610665 -0.00127 -0.0014592592
0.026415998 0.0003175 -0.00019012341
0.0012579047 0 -0.019544445
-0.0031447618 0.00127 -0.0011419753
-0.012264571 0 -0.013516049
-0.029875236 0.00127 -0.014467901
-0.014151428 0.0003175 -0.020496296
0.017296189 -0.000635 -0.00050740736
-0.02547257 0.00095249998 -0.015419752
0.024843618 -0.00127 -0.0020938271
0.018554095 -0.0003175 -0.015419752
0.0028302856 0.00127 -0.00050740736
-0.006918476 0 -0.013516049
0.022013333 0.00127 -0.0011419753
0.0097487615 0.0003175 -0.002411111
-0.0088053327 -0.000635 -0.015737036
-0.017925141 0.000635 -0.015419752
-0.028302856 0 -0.015419752
0.031762093 0 -0.01764074
-0.014151428 0.0003175 -0.0062185186
0.0012579047 0.0003175 -0.010025926
-0.0025158094 -0.000635 -0.00050740736
0.0072329519 0 -0.00019012341
-0.0059750471 0.00127 -0.014467901
0.011321142 0.00095249998 -0.002411111
0.01572381 -0.00127 -0.00082469132
-0.0015723809 0.00127 -0.00019012341
0.0031447618 0.00127 -0.013833333
-0.015409333 0.00127 -0.00019012341
-0.015409333 -0.00127 -0.002411111
-0.0088053327 0.0003175 -0.010025926
-0.026730474 0.00127 -0.014785185
0.013836952 -0.0003175 -0.0065358025
0.017610665 0.00127 -0.015419752
-0.026730474 -0.0003175 -0.009708642
0.032705523 0.0003175 -0.00019012341
-0.011321142 0.00127 -0.014467901
-0.01069219 0.00095249998 -0.015419752
0.0022013332 -0.000635 -0.014785185
0.031762093 0 -0.011295062
0.012579047 0.0003175 -0.015419752
-0.0037737142 -0.0003175 -0.021130864
-0.031762093 0 -0.021448148
0.016981713 0.000635 -0.014150617
-0.0088053327 0.0003175 -0.0093913581
-0.0088053327 0.0003175 -0.0046320986
0.024214666 0 -0.016371604
0.0012579047 0 -0.020179013
0.00062895234 0.00127 -0.002411111
-0.026415998 0 -0.0062185186
0.027044952 -0.0003175 -0.015419752
0.028302856 0.00127 -0.00082469132
-0.00094342855 -0.00127 -0.00019012341
-0.0022013332 0.00095249998 -0.015419752
0.012893523 -0.00127 -0.015102468
-0.0050316188 -0.00127 -0.013833333
0.026415998 0 -0.0065358025
0.017925141 0 -0.015419752
-0.031447619 -0.0003175 -0.015419752
-0.0050316188 0.00095249998 -0.015419752
-0.023900189 -0.0003175 -0.015737036
-0.018868571 0 -0.020179013
0.019183047 0.00127 -0.015419752
-0.013836952 0 -0.015737036
-0.0066039995 0 0.0010790124
-0.027044952 0.0003175 -0.002411111
-0.012893523 0.00127 -0.0011419753
-0.031762093 0.00095249998 -0.013833333
-0.026730474 0.0003175 0.0023481483
-0.016981713 0.000635 -0.00050740736
-0.0088053327 0.0003175 -0.011612345
0.024214666 0.0003175 -0.011929629
0.018554095 0.0003175 -0.013516049
0 0.000635 -0.002411111
-0.0047171428 -0.00127 -0.00082469132
-0.0012579047 0.0003175 -0.015737036
0.0091198087 0 -0.016054321
-0.0047171428 0 -0.013516049
-0.031762093 0.0003175 -0.012564197
0.0062895236 -0.00127 -0.0017765431
0.032391045 -0.00095249998 -0.013516049
-0.029246284 -0.0003175 -0.012246913
-0.017610665 0 -0.0020938271
0.0053460952 -0.00095249998 -0.002411111
-0.010063238 -0.00127 -0.014150617
0.00062895234 -0.0003175 -0.002411111
0.0015723809 0 0.0013962963
-0.0012579047 -0.0003175 -0.0090740742
-0.013836952 0.0003175 -0.010660494
-0.024214666 0.00127 -0.00019012341
0.018868571 0 -0.0081222225
-0.0097487615 0.00127 -0.015419752
0.02956076 -0.00127 -0.014785185
0.011006666 0 -0.013198765
-0.00062895234 0.0003175 -0.00019012341
-0.026730474 0.0003175 -0.020813581
-0.025787046 0.00127 -0.013833333
0.027359428 -0.00127 -0.013833333
0.025787046 0.00127 -0.0017765431
-0.011635618 -0.0003175 -0.013833333
0.029875236 0.00095249998 -0.015419752
0.025158094 0.00095249998 -0.002411111
-0.032705523 0.00095249998 -0.0017765431
0.026730474 -0.0003175 -0.016371604
-0.0012579047 -0.0003175 0.0029827161
0.0066039995 -0.0003175 -0.013516049
-0.011635618 0 0.0020308641
-0.010063238 -0.0003175 -0.00019012341
0.026415998 0 -0.0046320986
-0.016667238 0.0003175 -0.021448148
0.015409333 -0.00127 -0.014467901
-0.026101522 0.00127 -0.0017765431
0.014465904 0.00095249998 -0.00019012341
0.0062895236 0 -0.0090740742
0.0088053327 -0.0003175 -0.0046320986
-0.0091198087 0.00127 -0.00050740736
0.017296189 0.00127 -0.00019012341
-0.011321142 0.0003175 0.00044444448
-0.023271237 -0.00127 -0.0017765431
-0.0066039995 0.00127 -0.0014592592
-0.027673904 -0.000635 -0.013516049
0.030504189 -0.00095249998 -0.0020938271
-0.0025158094 0.00095249998 -0.014785185
-0.02798838 -0.000635 -0.00050740736
-0.031447619 0.00095249998 -0.00019012341
-0.0044026664 -0.00095249998 -0.013833333
0.0094342856 -0.00095249998 -0.015419752
-0.019811999 0 -0.013516049
0.026730474 0 0.0023481483
0.030189713 0 -0.013516049
0.011321142 0 -0.0055839503
-0.0040881904 -0.00127 -0.00019012341
-0.00031447617 0 -0.015419752
0.027044952 -0.00127 -0.00050740736
-0.0044026664 0.00127 -0.014150617
-0.012579047 -0.000635 -0.0020938271
-0.028302856 -0.00127 -0.0011419753
-0.031447619 0 -0.0055839503
-0.013207999 -0.00127 -0.013833333
-0.032076571 0 -0.0039975308
0.020126475 0 -0.015419752
0.013207999 0.00127 -0.015102468
-0.011321142 0.0003175 -0.0033629627
-0.028931808 0 0.00012716054
-0.021698857 0.0003175 -0.013198765
-0.032391045 -0.00095249998 -0.014467901
0.0066039995 0 -0.011295062
0.012893523 0 -0.015419752
-0.0062895236 0.0003175 -0.011612345
0.031447619 0 -0.019544445
0.011006666 0.000635 -0.002411111
0.016667238 0 -0.0027283949
-0.016352762 -0.0003175 -0.010660494
-0.0044026664 0.0003175 -0.00019012341
-0.016667238 -0.00095249998 -0.014150617
0.016667238 0 0.00012716054
-0.032076571 0 0.0013962963
0.028617332 -0.00127 -0.015102468
0.0053460952 0.00127 -0.0014592592
-0.013836952 0 0.0023481483
-0.0062895236 0.0003175 -0.019861728
-0.0062895236 -0.00127 -0.002411111
0.028617332 -0.0003175 -0.013516049
0.0037737142 -0.00127 -0.014467901
-0.022327809 0.0003175 -0.015419752
0.0015723809 0.0003175 -0.015737036
-0.0062895236 0 -0.0030456788
-0.023271237 -0.0003175 -0.0020938271
0.0012579047 0.0003175 -0.0065358025
0.011635618 0 -0.0068530864
0.0066039995 0 -0.019544445
-0.018868571 0.0003175 -0.021130864
0.021069903 0 -0.013516049
0.030504189 0.00127 -0.00019012341
-0.018868571 0 -0.010977778
0.029875236 -0.000635 -0.015419752
-0.018554095 0.0003175 -0.013516049
0.015409333 0.00127 -0.00050740736
0.026415998 0.000635 -0.015419752
-0.016352762 -0.0003175 -0.010025926
0.026101522 -0.00127 -0.0017765431
0.010377713 -0.00095249998 -0.015419752
0.029246284 0 0.0017135802
0.013836952 0.0003175 -0.0033629627
-0.0059750471 -0.00127 -0.014785185
0.028302856 -0.000635 -0.013516049
-0.0012579047 -0.0003175 -0.0087567903
0.020440951 0.0003175 -0.013516049
-0.0037737142 -0.0003175 -0.020813581
-0.003459238 -0.0003175 -0.013833333
0.026730474 0.00095249998 -0.013516049
0.0037737142 0 -0.01034321
0.0066039995 -0.0003175 -0.014467901
-0.012264571 -0.000635 -0.00050740736
-0.013207999 -0.0003175 -0.002411111
-0.010377713 0.00127 -0.00082469132
0.019811999 0.0003175 -0.013516049
-0.030818665 -0.00127 -0.0011419753
0.02798838 -0.00127 -0.013833333
0.019183047 -0.0003175 -0.010025926
-0.031133141 0.000635 -0.015419752
-0.01572381 0.00127 -0.015102468
-0.031447619 0 -0.016371604
0.019497523 -0.00095249998 -0.015419752
-0.019183047 0 -0.011295062
-0.016352762 0.00095249998 -0.014150617
0.021384381 -0.0003175 -0.013516049
-0.020755427 -0.00127 -0.014150617
-0.024214666 0 -0.0036802469
0.031133141 0.00127 -0.015102468
0.013836952 0 -0.0030456788
0.016352762 0 -0.016054321
0.027673904 0.00127 -0.00019012341
0.019811999 -0.00127 -0.013833333
-0.031762093 0 -0.0084395064
-0.029246284 0 -0.019861728
-0.0012579047 0.0003175 -0.0078049381
0.013836952 0 -0.020179013
-0.011635618 0.0003175 -0.0078049381
0.031447619 0.000635 -0.00019012341
-0.0037737142 -0.0003175 -0.0084395064
0.024214666 0.0003175 -0.00019012341
0.0084908567 0.00095249998 -0.002411111
-0.011321142 0.0003175 0.0017135802
0.024843618 -0.0003175 -0.0020938271
0.0062895236 0.0003175 0.0023481483
-0.01572381 -0.00127 -0.014785185
-0.020126475 0.00095249998 -0.00019012341
0.030504189 0.00127 -0.014785185
-0.0025158094 -0.00095249998 -0.014785185
-0.0091198087 -0.00127 -0.0014592592
-0.024529142 -0.0003175 -0.002411111
-0.021384381 0.0003175 -0.017958025
0.0037737142 0.0003175 -0.01922716
-0.0066039995 0 -0.016688889
-0.013836952 0.0003175 0.00076172844
-0.021384381 0.0003175 -0.017006172
-0.018554095 -0.000635 -0.015419752
-0.011950094 0.00127 -0.014467901
-0.0028302856 0.00127 -0.0014592592
-0.012264571 0.000635 -0.015419752
0.030818665 -0.00127 -0.0014592592
-0.0088053327 -0.0003175 -0.0033629627
-0.032705523 -0.000635 -0.00082469132
-0.0094342856 -0.00127 -0.0020938271
0.014151428 0.0003175 -0.021448148
0.016667238 0.00127 -0.00019012341
0.0081763808 0.00127 -0.015102468
-0.021698857 0.0003175 -0.010025926
0.011950094 -0.000635 -0.00050740736
-0.018239617 0.00127 -0.0011419753
0.032705523 -0.0003175 -0.00019012341
-0.030818665 -0.00127 -0.015419752
-0.0050316188 -0.00127 -0.014785185
0.030818665 0 -0.0020938271
-0.024214666 0.0003175 -0.0087567903
-0.019183047 -0.00095249998 -0.002411111
-0.0012579047 0 -0.019544445
0.012264571 0.00127 -0.00019012341
0.011006666 0.00127 -0.015102468
0.020755427 -0.00095249998 -0.013833333
-0.02956076 0.0003175 -0.00019012341
-0.032076571 0 -0.0052666664
-0.023271237 0.00127 -0.0011419753
-0.026730474 0 -0.019544445
-0.0022013332 0.00127 -0.015102468
-0.012893523 -0.00095249998 -0.014150617
-0.0078619048 0 -0.002411111
0.020126475 0.00127 -0.013833333
-0.01572381 0.0003175 -0.015419752
0.031762093 0.00127 -0.0017765431
-0.0088053327 0.0003175 -0.019544445
0.015409333 0.000635 -0.00050740736
-0.0012579047 -0.00095249998 -0.013516049
-0.019183047 0.0003175 -0.015737036
-0.021698857 0 -0.018275307
-0.016352762 -0.0003175 -0.010977778
0.01069219 -0.00127 -0.014467901
-0.029246284 -0.0003175 -0.020179013
-0.016352762 0 0.0023481483
-0.0025158094 0.00127 -0.013516049
0.026730474 -0.0003175 -0.020496296
0.0088053327 -0.0003175 -0.0059012342
-0.0037737142 0.000635 -0.00050740736
-0.016667238 0 -0.018909875
0.0056605712 -0.000635 -0.015419752
0.013522476 0.00095249998 -0.002411111
-0.0059750471 -0.00127 -0.014467901
-0.0056605712 -0.00127 -0.014785185
0.0012579047 -0.00127 -0.0017765431
0.028617332 0.00095249998 -0.015419752
-0.0084908567 0.00127 -0.015102468
-0.030818665 -0.0003175 -0.00019012341
-0.0066039995 -0.0003175 -0.018592592
0.0062895236 0 -0.019544445
0.0066039995 0.000635 -0.00050740736
-0.00031447617 0.0003175 -0.00019012341
-0.0047171428 0.00127 -0.0020938271
0.0059750471 -0.00127 -0.0020938271
-0.031447619 0 0.00044444448
0.0022013332 0.00095249998 -0.015419752
-0.0040881904 0.0003175 -0.0071703703
-0.0018868571 0 -0.015737036
0.019497523 -0.00127 -0.014467901
-0.017296189 -0.00127 -0.014785185
0.026101522 -0.00127 -0.015419752
-0.0044026664 0.00127 -0.013516049
0.032076571 0.000635 -0.015419752
-0.013836952 -0.00127 -0.013833333
0.0022013332 0.00127 -0.013833333
0.026730474 -0.0003175 -0.0039975308
-0.030818665 -0.00127 -0.00019012341
0.012893523 0.00127 -0.0011419753
-0.00062895234 -0.00127 -0.013516049
-0.019183047 -0.0003175 -0.0039975308
0.026730474 -0.00127 -0.014150617
-0.0066039995 -0.0003175 -0.0065358025
0.011006666 0.00095249998 -0.014150617
-0.02547257 0.00127 -0.0011419753
0.0040881904 -0.0003175 -0.014150617
-0.026415998 0 -0.0033629627
0 0.0003175 -0.015419752
0.0037737142 0.00095249998 -0.00019012341
0.032705523 0.000635 -0.015419752
-0.011321142 0 -0.0052666664
0.018239617 -0.00127 -0.00050740736
0.018554095 0.00127 -0.0017765431
0.014151428 0.00127 -0.0014592592
-0.011635618 0.0003175 -0.01922716
-0.014465904 -0.0003175 -0.013833333
-0.01069219 -0.00127 -0.014467901
0.016667238 0.0003175 -0.0065358025
0.00094342855 0.0003175 -0.0062185186
0.031447619 0.00127 -0.00019012341
-0.016352762 0.0003175 -0.012881481
-0.0040881904 0 -0.016054321
0.027359428 0.00127 -0.013833333
-0.00031447617 0.00127 -0.015102468
-0.016667238 0.0003175 0.0023481483
0.024214666 -0.0003175 -0.0039975308
0.00094342855 0.0003175 -0.010660494
-0.011635618 0 -0.017006172
-0.0044026664 0.00127 -0.015102468
-0.020126475 -0.00127 -0.0020938271
-0.022327809 0.00127 -0.014467901
0.029875236 -0.00127 -0.013516049
-0.0012579047 0.0003175 -0.012881481
-0.013522476 -0.00095249998 -0.014150617
0.019183047 -0.00127 -0.014467901
0.00094342855 0.0003175 0.00076172844
-0.0088053327 -0.0003175 -0.020179013
-0.0091198087 0.00127 -0.013516049
0.014151428 0.0003175 -0.011295062
-0.0091198087 0.00127 -0.0017765431
0.0066039995 0 0.0010790124
-0.021698857 0.0003175 -0.012246913
0.032076571 -0.000635 -0.015419752
-0.011321142 0.0003175 -0.0036802469
0.022956761 -0.0003175 -0.002411111
0.013836952 0.0003175 -0.011612345
-0.0022013332 -0.00127 -0.00050740736
-0.027673904 -0.000635 -0.00050740736
0.030818665 0.000635 -0.013516049
0.010377713 0.00127 -0.0011419753
0.030504189 0.00095249998 -0.0020938271
-0.027044952 -0.00095249998 -0.00019012341
0.026101522 -0.00127 -0.013516049
-0.024214666 0.0003175 -0.0059012342
0.0044026664 -0.00095249998 -0.015419752
0.023585713 0.000635 -0.013833333
0.0018868571 0.0003175 -0.014150617
0.029246284 -0.0003175 -0.015737036
0.006918476 0.000635 -0.00050740736
-0.0066039995 -0.0003175 -0.0074876542
-0.028302856 0.00127 -0.00019012341
0.015094857 0 -0.00019012341
-0.013522476 -0.00127 -0.0011419753
-0.022013333 -0.00127 -0.0020938271
0.0015723809 -0.00095249998 -0.015419752
-0.006918476 0.00127 -0.014785185
-0.014151428 -0.0003175 -0.017323457
0.028931808 0 -0.021448148
-0.0031447618 0.00127 -0.014150617
0.011321142 -0.0003175 0.00076172844
-0.0059750471 0.000635 -0.014467901
-0.011635618 0.0003175 0.00076172844
0.026415998 0 -0.0052666664
-0.0062895236 0 -0.016371604
-0.020126475 0.00095249998 -0.015419752
0.021384381 0 0.0017135802
-0.022327809 0.00095249998 -0.013833333
-0.011635618 0.0003175 -0.0049493825
-0.0066039995 0 -0.020496296
-0.021069903 -0.0003175 -0.002411111
-0.022327809 -0.000635 -0.00050740736
-0.0012579047 -0.0003175 -0.018909875
0.016352762 -0.00127 -0.014785185
0.0056605712 0.00127 -0.0020938271
-0.022642285 -0.00095249998 -0.002411111
-0.0088053327 0.00095249998 -0.015419752
0.0078619048 -0.0003175 -0.002411111
0.027044952 0.00127 -0.014467901
-0.0088053327 0.0003175 -0.0043148147
0.0047171428 0.00127 -0.00050740736
-0.026415998 0 -0.018909875
0.027673904 -0.0003175 -0.00019012341
-0.029246284 0.0003175 -0.0081222225
0.026730474 -0.00127 -0.0017765431
0.019811999 0.00127 -0.002411111
0.019183047 0 0.0013962963
-0.026730474 0 -0.0078049381
-0.014151428 0 -0.0081222225
0.018868571 -0.00127 -0.00019012341
-0.027044952 0.00127 -0.0014592592
-0.016352762 0.0003175 -0.021448148
-0.019183047 -0.00127 -0.0011419753
0.01478038 -0.00127 -0.015102468
0.016038286 0 -0.015737036
0.016667238 -0.0003175 -0.0084395064
0.0037737142 0 -0.0039975308
-0.0031447618 -0.00127 -0.00050740736
-0.032705523 -0.0003175 -0.0014592592
0.031447619 0 -0.0046320986
-0.0028302856 0.00127 -0.00019012341
-0.01572381 0.0003175 -0.013516049
-0.0015723809 0 -0.0090740742
-0.0078619048 -0.0003175 -0.00019012341
-0.031133141 -0.00127 -0.0011419753
-0.012264571 0.00127 -0.0014592592
0.0091198087 0.00095249998 -0.015419752
0.022327809 0.000635 -0.002411111
0.00094342855 0.000635 -0.002411111
-0.011006666 -0.00127 -0.0017765431
-0.024214666 0.0003175 0.00012716054
-0.026730474 0.00127 -0.015419752
0.0044026664 0.00095249998 -0.015419752
-0.028302856 -0.00127 -0.014467901
0.017296189 0 -0.002411111
0.02956076 0.000635 -0.013516049
0.022013333 -0.00095249998 -0.015419752
0.0078619048 0 -0.013516049
-0.0062895236 -0.0003175 -0.0093913581
0.00031447617 0.00095249998 -0.014785185
-0.0012579047 0 -0.017323457
0.0084908567 0.00095249998 -0.014467901
0.0028302856 0.00127 -0.0011419753
0.024214666 0.0003175 -0.0027283949
0.031447619 0 0.00076172844
0.011321142 0 -0.01922716
-0.0066039995 0.00127 -0.014785185
0.019183047 0 -0.0087567903
-0.032705523 0 -0.015102468
0.013836952 0.0003175 -0.0093913581
0.006918476 0.0003175 -0.00019012341
-0.031762093 -0.00095249998 -0.013833333
-0.021384381 0.000635 -0.00050740736
0.021384381 -0.0003175 -0.0049493825
0.031447619 -0.00127 -0.0017765431
-0.015094857 -0.0003175 -0.0020938271
0.018868571 0.000635 -0.00050740736
0.014465904 -0.000635 -0.015419752
0.018239617 -0.000635 -0.014150617
-0.0091198087 0.0003175 -0.012564197
0.013836952 -0.000635 -0.002411111
-0.023271237 0.0003175 -0.013516049
0.013522476 -0.00127 -0.0017765431
-0.0025158094 0.0003175 -0.00019012341
0.021698857 -0.00127 -0.0020938271
0.026415998 0 0.00044444448
-0.029246284 0 -0.0052666664
-0.021384381 0 -0.011295062
-0.027673904 0.00095249998 -0.00019012341
-0.026415998 -0.00127 -0.00050740736
-0.021698857 0.0003175 -0.01922716
-0.012893523 -0.0003175 -0.015419752
-0.0028302856 -0.00095249998 -0.013516049
0.0091198087 0 -0.0055839503
-0.011006666 0.0003175 -0.0020938271
-0.024529142 0.0003175 -0.002411111
0.0066039995 0 -0.016688889
-0.031447619 0 -0.012246913
-0.028931808 -0.00095249998 -0.015419752
-0.01478038 0 -0.0020938271
0.0097487615 0.00127 -0.0017765431
0.017610665 0.00095249998 -0.002411111
0.029246284 0.0003175 -0.011612345
-0.012579047 0.00095249998 -0.0020938271
0.0022013332 0.0003175 -0.002411111
-0.0053460952 -0.00127 -0.002411111
0.013522476 -0.00127 -0.0014592592
-0.0037737142 -0.00127 -0.002411111
0.018868571 0.00127 -0.00082469132
-0.019183047 0.00127 -0.00082469132
-0.024214666 0 0.00044444448
-0.013836952 -0.0003175 -0.011295062
-0.014151428 0.0003175 -0.0039975308
0.027044952 0.00127 -0.014150617
-0.014465904 -0.000635 -0.014150617
-0.031447619 0 -0.019544445
-0.012264571 -0.00127 -0.014150617
0.011321142 -0.0003175 -0.0093913581
0.022327809 0.0003175 -0.015419752
-0.0040881904 0 -0.0071703703
-0.016352762 0 -0.01764074
0.016667238 0 -0.020813581
0.01572381 -0.000635 -0.015419752
0.010063238 -0.00095249998 -0.00019012341
0.023900189 0 -0.0033629627
-0.0088053327 -0.0003175 -0.016688889
-0.030189713 0.000635 -0.015419752
0.022013333 -0.000635 -0.015419752
-0.013522476 -0.00095249998 -0.002411111
-0.024843618 -0.000635 -0.015419752
0.011950094 0.0003175 -0.013833333
-0.0015723809 0 -0.020179013
0.0088053327 0 0.0023481483
-0.019811999 0 -0.0020938271
-0.027044952 -0.00127 -0.015102468
-0.014151428 0 -0.011612345
-0.018868571 -0.0003175 -0.010025926
0.019497523 0.00127 -0.015419752
-0.011321142 -0.00127 -0.014785185
0.024843618 0.00095249998 -0.015419752
0.019183047 0 -0.021130864
0.015094857 0.0003175 -0.013516049
-0.011321142 0 -0.017958025
-0.028931808 0 -0.01922716
0.0091198087 -0.0003175 -0.017323457
-0.0018868571 0.0003175 -0.013516049
-0.0018868571 0.00095249998 -0.00019012341
0.0012579047 -0.0003175 0.00076172844
0.0037737142 -0.00127 -0.0020938271
0.02956076 0.00095249998 -0.015419752
-0.0081763808 0.0003175 -0.00019012341
-0.021384381 0.00095249998 -0.015419752
0.0088053327 0 -0.0065358025
-0.02547257 0.000635 -0.0020938271
-0.013207999 0 -0.0020938271
0.032391045 -0.00095249998 -0.0017765431
-0.012893523 0.0003175 -0.0020938271
-0.024214666 -0.0003175 -0.0046320986
0.016667238 0.0003175 -0.0074876542
0.013207999 0.00127 -0.0020938271
0.0015723809 0 -0.010025926
0.0066039995 0 0.00076172844
-0.0047171428 0.000635 -0.014467901
0.0040881904 0 -0.0062185186
0.0012579047 0.0003175 -0.013198765
-0.019811999 -0.00127 -0.013833333
0.016667238 0 -0.0087567903
0.019183047 0.00127 -0.00082469132
0.0097487615 0.0003175 -0.013833333
-0.0028302856 0.000635 -0.015419752
0.019183047 -0.0003175 -0.011929629
-0.0037737142 0.0003175 0.0017135802
-0.0040881904 0.000635 -0.014785185
0.026730474 0 -0.011929629
0.0012579047 0 -0.0027283949
0.0091198087 -0.0003175 -0.013198765
0.0040881904 0 -0.0078049381
0.014465904 -0.00095249998 -0.002411111
-0.022327809 0.000635 -0.0020938271
-0.016981713 0.00127 -0.0020938271
-0.028617332 -0.000635 -0.013516049
-0.014151428 0.0003175 -0.01034321
0.0066039995 0.0003175 -0.016371604
0.010063238 -0.00127 -0.014785185
0.00094342855 -0.00127 -0.0020938271
0.022013333 0.00127 -0.013833333
0.00062895234 0.00127 -0.0014592592
-0.0091198087 -0.0003175 -0.013198765
0.023900189 0.00127 -0.013516049
0.0012579047 0.0003175 0.0023481483
0.014151428 -0.0003175 -0.018592592
0.016352762 0.00127 -0.014785185
-0.024214666 0.0003175 -0.021448148
-0.021384381 0 -0.01922716
-0.018868571 0.00127 -0.015102468
-0.0050316188 -0.00127 -0.002411111
0.028302856 0.000635 -0.00050740736
-0.026415998 0.00127 -0.015419752
0.0028302856 -0.0003175 -0.00019012341
0.0044026664 0.0003175 -0.013833333
0.0012579047 0 -0.0090740742
-0.011321142 0 0.0013962963
0.022642285 0 -0.00019012341
-0.0062895236 0 0.0017135802
0.00031447617 0.0003175 -0.013833333
-0.018868571 0.00127 -0.014150617
0.026730474 0 -0.012881481
-0.0037737142 0 -0.012246913
0.014151428 0.0003175 -0.0093913581
-0.016667238 0.00127 -0.0014592592
0.0088053327 0.0003175 -0.0084395064
-0.0062895236 -0.0003175 -0.0036802469
-0.015094857 -0.000635 -0.002411111
-0.021384381 0.0003175 -0.013198765
0.01478038 -0.000635 -0.014150617
-0.0040881904 0.00127 -0.0014592592
0.011635618 -0.0003175 0.0026654322
-0.0088053327 -0.0003175 -0.011612345
0.028302856 0.00127 -0.002411111
-0.0072329519 -0.0003175 -0.013833333
-0.024214666 -0.0003175 -0.0052666664
-0.022642285 0.00127 -0.014150617
0.006918476 0.0003175 -0.013516049
0.0028302856 0 -0.002411111
0.006918476 0.00127 -0.0011419753
-0.016667238 0.00127 -0.015102468
-0.024214666 -0.0003175 -0.0027283949
-0.010377713 0.0003175 -0.013833333
0.024214666 0 -0.011295062
-0.0088053327 0 -0.012564197
0.016667238 0.0003175 -0.002411111
-0.016981713 0.000635 -0.015419752
-0.024214666 0 -0.015737036
-0.011006666 0.00127 -0.013833333
-0.0015723809 -0.00127 -0.002411111
0.019183047 0.00127 -0.014150617
-0.0015723809 -0.00095249998 -0.014785185
-0.01478038 -0.00127 -0.002411111
0.011635618 -0.0003175 -0.0052666664
-0.026101522 0.00127 -0.015102468
0.029246284 -0.00127 -0.0011419753
-0.015409333 0.0003175 -0.013833333
0.0084908567 0.00127 -0.0017765431
-0.016981713 -0.00127 -0.0017765431
-0.025787046 0.0003175 -0.015419752
-0.0088053327 0 0.0010790124
0.0044026664 0.00095249998 -0.013516049
-0.026730474 0.00127 -0.013516049
-0.031762093 -0.00095249998 -0.015102468
-0.0040881904 -0.0003175 -0.0074876542
0.021069903 -0.00095249998 -0.015419752
-0.0091198087 0.00095249998 -0.015419752
0.0012579047 0 -0.018909875
-0.011321142 -0.00127 -0.014467901
0.024843618 -0.00127 -0.015419752
-0.032076571 0.000635 -0.014150617
0.019497523 0.00095249998 -0.013833333
-0.026415998 -0.0003175 -0.00019012341
-0.0062895236 -0.0003175 -0.017958025
0.0091198087 0.00127 -0.00019012341
0.0066039995 0 -0.0084395064
0.0066039995 0 -0.0093913581
-0.027359428 -0.00127 -0.0014592592
0.010377713 0.000635 -0.014467901
-0.030504189 -0.000635 -0.00050740736
-0.018239617 -0.00127 -0.014467901
-0.0088053327 -0.00095249998 -0.00019012341
-0.011635618 0 -0.0039975308
0.010063238 0.0003175 -0.00019012341
-0.032391045 -0.0003175 -0.00019012341
0.021698857 0.0003175 -0.020496296
-0.0031447618 0.0003175 -0.013516049
0.0056605712 0.00127 -0.0011419753
-0.023585713 0.00127 -0.00019012341
0.013836952 -0.0003175 -0.01922716
-0.013836952 0.0003175 -0.0033629627
-0.011635618 0 -0.010025926
0.0040881904 0 0.00044444448
-0.02956076 0.00095249998 -0.015102468
-0.016667238 -0.0003175 -0.0084395064
-0.006918476 0 -0.00019012341
0.014151428 -0.0003175 -0.017958025
-0.0047171428 -0.00127 -0.0014592592
-0.011321142 0.0003175 -0.0027283949
-0.022642285 -0.00127 -0.0017765431
0.012893523 0.00095249998 -0.00019012341
-0.021384381 0.0003175 -0.0065358025
0.026730474 0 -0.0052666664
0.0091198087 0.00095249998 -0.0020938271
0.0072329519 0.00127 -0.00082469132
0.018239617 0 -0.015419752
-0.0037737142 0 -0.0090740742
0.024843618 0.0003175 -0.0020938271
-0.00031447617 -0.00127 -0.014785185
0.011950094 0.00127 -0.002411111
-0.016667238 0.0003175 -0.0049493825
-0.0097487615 0.0003175 -0.013516049
0.011635618 -0.0003175 -0.0090740742
0.011006666 0.00127 -0.014785185
-0.027673904 -0.00095249998 -0.015419752
-0.032705523 0 -0.014467901
-0.0088053327 -0.0003175 -0.012246913
-0.026730474 -0.00127 -0.014150617
-0.022956761 0.0003175 -0.015419752
0.018554095 0.00095249998 -0.002411111
-0.021698857 -0.0003175 -0.020179013
-0.032391045 -0.00095249998 -0.00050740736
0.017296189 0.00095249998 -0.002411111
-0.026730474 0 -0.016371604
0.0091198087 -0.00127 -0.002411111
0.030504189 -0.000635 -0.015419752
0.013207999 -0.0003175 -0.00019012341
-0.028931808 -0.00127 -0.0020938271
-0.0022013332 0.00127 -0.014467901
0.014151428 0.0003175 -0.013516049
-0.011635618 -0.0003175 -0.0033629627
-0.020755427 0.00095249998 -0.00019012341
0.0015723809 -0.00127 -0.013516049
-0.013207999 0 -0.00019012341
-0.016352762 -0.0003175 -0.002411111
0.011321142 0 -0.017006172
-0.024214666 0 0.0029827161
0.021698857 0 -0.0052666664
-0.0091198087 0 -0.020813581
-0.032076571 -0.000635 -0.015419752
-0.021384381 0 -0.010660494
-0.0012579047 -0.0003175 0.00076172844
-0.018868571 0.00127 -0.002411111
-0.0022013332 -0.000635 -0.002411111
-0.0094342856 -0.00095249998 -0.015419752
0.016981713 -0.00095249998 -0.013833333
0.0040881904 -0.00095249998 -0.013516049
-0.016667238 0 -0.0046320986
0.015409333 0.00095249998 -0.00019012341
-0.01478038 -0.00127 -0.00050740736
-0.011635618 0 -0.0071703703
0.01478038 -0.00127 -0.0011419753
-0.027044952 -0.00127 -0.0014592592
0.0050316188 0.00127 -0.015419752
0.024214666 0.0003175 -0.017323457
-0.031133141 0.00095249998 -0.014785185
-0.0062895236 -0.0003175 -0.017006172
-0.023585713 -0.00095249998 -0.013833333
-0.028302856 0 -0.00019012341
0.00094342855 0.0003175 -0.0065358025
0.026730474 0.00127 -0.014150617
-0.030818665 -0.00127 -0.00050740736
-0.023585713 0 -0.013516049
-0.019183047 0 -0.016371604
0.012579047 -0.00095249998 -0.002411111
-0.025787046 0.00127 -0.0014592592
0.013836952 -0.0003175 -0.018909875
-0.029246284 0 -0.018275307
0.021698857 0 -0.0087567903
-0.0025158094 0 -0.002411111
-0.029246284 -0.0003175 -0.01922716
0.026730474 0 -0.0055839503
0.025158094 0.00127 -0.013516049
0.019183047 -0.0003175 -0.018909875
0.014151428 0.0003175 -0.016688889
-0.023585713 0.000635 -0.00050740736
-0.024214666 0.0003175 -0.012564197
-0.028617332 -0.00127 -0.0017765431
-0.0062895236 -0.00127 -0.014150617
-0.0056605712 0.000635 -0.015419752
0.0078619048 0.00127 -0.014467901
0.022956761 -0.00127 -0.002411111
-0.016352762 0 -0.0081222225
0.0012579047 0.0003175 -0.0090740742
-0.0037737142 -0.0003175 -0.0093913581
0.028931808 -0.00127 -0.014467901
0.0044026664 -0.0003175 -0.015419752
0.0028302856 0.00095249998 -0.00019012341
-0.013836952 -0.0003175 0.0010790124
-0.016667238 0 -0.01034321
-0.02956076 0.0003175 -0.013516049
0.021698857 0 -0.0068530864
-0.019497523 0.0003175 -0.00019012341
0.0022013332 -0.00095249998 -0.013516049
-0.020755427 0.00127 -0.015419752
-0.024214666 -0.00127 -0.014785185
-0.018554095 0.00127 -0.0020938271
0.00094342855 0.0003175 -0.0084395064
-0.020440951 -0.0003175 -0.013516049
-0.011321142 -0.0003175 -0.021448148
0.011635618 -0.0003175 -0.021448148
0.0094342856 -0.00095249998 -0.014467901
-0.031133141 -0.00095249998 -0.015419752
0.032391045 -0.000635 -0.013516049
0.032076571 -0.000635 -0.013516049
0.021384381 -0.0003175 -0.0036802469
0.019183047 0.0003175 -0.0062185186
0.017296189 0.0003175 -0.00019012341
0.0056605712 0 -0.015419752
0.026730474 -0.0003175 0.0013962963
0.029246284 0 -0.0046320986
-0.029246284 0.0003175 -0.017006172
-0.0062895236 -0.0003175 -0.010977778
0.030189713 0.000635 -0.00019012341
-0.011635618 -0.0003175 -0.016688889
0.00062895234 -0.00127 -0.00082469132
0.011321142 0.0003175 -0.009708642
-0.029246284 -0.0003175 -0.016054321
0.012264571 0.00095249998 -0.015737036
0.030504189 -0.000635 -0.013516049
0.020126475 0.00127 -0.0011419753
0.011950094 -0.00127 -0.014785185
-0.031133141 0.000635 -0.013516049
0.0037737142 0 -0.01764074
-0.030818665 0.00127 -0.00019012341
-0.021069903 0.000635 -0.00050740736
-0.016667238 -0.0003175 -0.0030456788
0.011321142 0 -0.018275307
-0.030189713 -0.00095249998 -0.014150617
-0.02547257 -0.00127 -0.015102468
-0.012893523 0 -0.00019012341
0.0028302856 -0.00127 -0.013833333
-0.0018868571 -0.00127 -0.015419752
-0.00094342855 0.00095249998 -0.015419752
0.019497523 0.00127 -0.0020938271
-0.011635618 0.0003175 -0.01764074
0.017296189 0.00127 -0.015102468
0.015409333 -0.00127 -0.014150617
0.011321142 0.0003175 -0.0065358025
-0.016667238 -0.0003175 -0.0059012342
-0.02798838 -0.00127 -0.002411111
-0.022956761 -0.00127 -0.014467901
-0.021384381 0.0003175 -0.010977778
0.023900189 0 -0.0049493825
0.031133141 -0.0003175 -0.013516049
-0.0050316188 -0.00127 -0.0020938271
-0.027044952 -0.00127 -0.00050740736
0.006918476 -0.00127 -0.013516049
-0.011321142 -0.0003175 -0.012564197
-0.0012579047 -0.0003175 -0.010660494
-0.032076571 0 -0.0049493825
0.016352762 0.0003175 -0.013516049
0.013836952 0 -0.020496296
-0.021698857 0 -0.011929629
0.0062895236 0.0003175 -0.0055839503
-0.029875236 0.00095249998 -0.014150617
0.0047171428 0.00127 -0.014467901
-0.0037737142 0 -0.0068530864
0.026730474 0.0003175 -0.0093913581
0.013836952 -0.0003175 -0.020179013
0.030504189 -0.00127 -0.014785185
0.011635618 0 -0.0036802469
0.010063238 0.00127 -0.014467901
-0.00062895234 0.0003175 -0.014150617
-0.0062895236 -0.0003175 -0.014150617
0.026730474 -0.0003175 -0.017006172
-0.0066039995 0.0003175 -0.015737036
0.011321142 0 -0.020179013
-0.023900189 0 -0.016688889
0.021384381 0.00127 -0.0017765431
0.011950094 -0.000635 -0.014467901
0.019183047 -0.00127 -0.013833333
-0.0015723809 0 -0.020496296
-0.032076571 -0.00095249998 -0.0014592592
0.018868571 0.0003175 -0.0059012342
-0.030504189 0.00127 -0.014467901
0.031447619 0 -0.0043148147
-0.029246284 0 -0.0055839503
0.019183047 -0.0003175 -0.019861728
0.014465904 0.00095249998 -0.002411111
0.02956076 -0.00127 -0.00050740736
-0.032705523 -0.000635 -0.013516049
0.016667238 0 -0.021130864
0.013522476 0.000635 -0.00050740736
-0.032076571 0 0.0020308641
-0.011006666 0.00095249998 -0.00019012341
-0.02798838 -0.00127 -0.014150617
-0.02956076 0.00095249998 -0.015419752
-0.026101522 -0.00127 -0.014467901
-0.018868571 -0.00127 -0.014467901
0.026730474 -0.000635 -0.00050740736
0.0062895236 0 -0.021130864
0.021384381 0.00127 -0.013833333
-0.003459238 0.000635 -0.015419752
-0.014151428 0.0003175 -0.012246913
0.021698857 0 -0.019861728
-0.00094342855 -0.000635 -0.00050740736
-0.0012579047 -0.0003175 -0.020496296
-0.021698857 0.0003175 -0.020813581
0.012264571 -0.00127 -0.0014592592
-0.019497523 -0.00095249998 -0.00019012341
-0.0040881904 -0.0003175 -0.017958025
0.013207999 0.00095249998 -0.00019012341
0.01572381 -0.000635 -0.014150617
0.011321142 -0.00127 -0.013833333
0.028931808 0.00127 -0.013833333
-0.0066039995 -0.0003175 -0.020179013
0.028302856 -0.000635 -0.00050740736
-0.0075474284 0.000635 -0.00050740736
-0.015409333 0.00095249998 -0.014150617
0.011950094 0.0003175 -0.015419752
0.028931808 0.00127 -0.014150617
-0.019183047 0 -0.019861728
0.0037737142 0.0003175 0.0026654322
0.0084908567 -0.00127 -0.0017765431
-0.011635618 -0.0003175 -0.0084395064
-0.0028302856 -0.00095249998 -0.014785185
0.0015723809 -0.0003175 -0.013198765
-0.021698857 0 0.0029827161
0.003459238 0.00095249998 -0.013516049
0.01572381 -0.00095249998 -0.00019012341
0.0088053327 -0.0003175 -0.0078049381
0.027673904 0 -0.013516049
-0.021069903 0 -0.013516049
-0.017610665 0.000635 -0.00050740736
-0.0047171428 -0.000635 -0.014467901
-0.026415998 -0.0003175 -0.002411111
0.00062895234 0.000635 -0.014785185
0.030818665 0.00127 -0.014785185
0.0012579047 0.00127 -0.014150617
0.0037737142 -0.0003175 -0.0033629627
0.023585713 -0.00095249998 -0.002411111
-0.021698857 0.000635 -0.015419752
0.026730474 0 0.0010790124
-0.022642285 -0.00127 -0.0014592592
0.012579047 0.00127 -0.0011419753
0.014151428 0 0.00044444448
0.024214666 -0.0003175 -0.009708642
-0.01478038 -0.000635 -0.015419752
