# .PCD v0.7 - Point Cloud Data file format
VERSION 0.7
FIELDS x y z
SIZE 4 4 4
TYPE F F F
COUNT 1 1 1
WIDTH 1342
HEIGHT 1
VIEWPOINT 0 0 0 1 0 0 0
POINTS 1342
DATA ascii
-0.033036351 0.0003175 -0.011053449
0.005216266 0.0003175 -0.010734483
0.0049001286 -0.00127 -0.0062689655
0.015332661 -0.0003175 0.0020241379
-0.0096421884 0.00095249998 -0.00020862065
-0.010274463 0.0003175 -0.0091396552
-0.033036351 0.0003175 -0.0043551722
-0.005216266 0.00127 -0.00020862065
-0.021023134 0.000635 -0.00052758615
-0.026713604 -0.00127 -0.0062689655
-0.0020548927 0.00127 -0.00052758615
-0.019126309 0 -0.0062689655
0.027978154 0.0003175 0.0010672414
0.033036351 0.00127 -0.0072258618
-0.00015806867 -0.0003175 -0.0030793103
-0.026713604 -0.00095249998 -0.0062689655
-0.005216266 0.0003175 -0.0056310343
0.022919957 0.0003175 -0.011691379
-0.010274463 0 -0.012010344
0.028610429 0.00127 -0.0014844827
0.023552231 0.000635 -0.00052758615
-0.033352491 0.000635 -0.0085017243
-0.030823391 0.00127 -0.0011655171
-0.0090099145 -0.00095249998 -0.0085017243
0.011539013 -0.0003175 -0.00020862065
0.032404076 -0.0003175 -0.0062689655
-0.022919957 0.0003175 -0.0049931034
0.00015806867 0 -0.013605172
0.011539013 -0.0003175 -0.0062689655
0.00015806867 0.00127 -0.0069068964
-0.027029742 -0.00127 -0.006587931
0.0074292272 0 -0.010415517
-0.027978154 -0.0003175 0.0013862069
0.034617037 0.00127 -0.0078637926
-0.00079034333 0 -0.0085017243
0.020706996 0.000635 -0.0085017243
-0.020390859 -0.0003175 -0.010734483
0.027029742 0.00127 -0.0085017243
0.011222876 -0.00127 -0.0024413792
0.033036351 0.00095249998 -0.00020862065
-0.026081331 0 -0.0021224138
0.034617037 0.000635 -0.0021224138
-0.014384249 -0.000635 -0.006587931
0.010274463 0.00127 -0.0075448276
-0.014700386 0.00127 -0.0085017243
0.027662016 -0.00127 -0.0024413792
0.0049001286 0 -0.010734483
-0.0036355793 0.00127 -0.0078637926
0.032720216 0.00127 -0.00084655167
-0.027662016 0.00127 -0.0018034482
0.024184506 -0.00127 -0.00084655167
-0.018177897 -0.000635 -0.0024413792
-0.015332661 -0.0003175 -0.012967241
-0.027345879 0.00127 -0.0018034482
0.0023710299 0.0003175 -0.0027603447
0.017229484 0.0003175 -0.00020862065
-0.022603819 0 -0.014243104
0.021971544 0.00127 -0.0081827585
-0.030507253 0.00095249998 -0.00020862065
0.032087941 -0.00095249998 -0.00020862065
0.027029742 -0.00127 -0.006587931
-0.00079034333 0.00127 -0.00052758615
0.027978154 -0.0003175 -0.0027603447
0.026397469 0.0003175 -0.0085017243
0.015964935 -0.00127 -0.0021224138
-0.0077453647 0 0.00011034486
-0.0026871674 0.00127 -0.00052758615
-0.027029742 0.000635 -0.0085017243
-0.033036351 -0.0003175 0.0010672414
0.017861759 0.0003175 -0.011053449
-0.0011064807 -0.00127 -0.0011655171
0.022603819 -0.00127 -0.0018034482
-0.0049001286 0 0.0017051725
0.015332661 0.00127 -0.0069068964
0.036513861 -0.0003175 -0.0081827585
0.0077453647 -0.0003175 -0.012648276
0.030507253 -0.0003175 -0.0049931034
0.005216266 0.0003175 -0.0091396552
0.015964935 -0.0003175 -0.0085017243
0.025765194 0.00127 -0.0011655171
0.013119699 0.00127 -0.00020862065
0.0077453647 0.0003175 -0.013924138
0.0083776396 0 -0.00020862065
-0.025449056 0.0003175 -0.012648276
0.019758584 -0.00095249998 -0.0085017243
0.00015806867 0.00095249998 -0.006587931
0.0077453647 0.0003175 -0.004674138
0.013435837 -0.000635 -0.0085017243
0.00015806867 -0.00127 -0.0069068964
-0.0049001286 -0.0003175 -0.01232931
0.000474206 -0.00127 -0.0078637926
0.0080615021 0 -0.0024413792
0.033668626 -0.00127 -0.00084655167
-0.033352491 -0.00127 -0.006587931
0.033036351 -0.000635 -0.0072258618
-0.0011064807 0.000635 -0.00052758615
-0.032087941 -0.0003175 -0.0085017243
0.0020548927 0.00127 -0.0075448276
0.029242704 -0.0003175 -0.00020862065
-0.012487425 0 -0.011372413
-0.010274463 0.00127 -0.0069068964
0.00015806867 -0.00095249998 -0.00020862065
0.000474206 0.00127 -0.0072258618
-0.0026871674 0.0003175 -0.0030793103
-0.016597209 0.00127 -0.0021224138
0.030191116 0.00127 -0.0021224138
-0.0090099145 0.000635 -0.0085017243
0.025449056 -0.00127 -0.0018034482
-0.019442447 0.00127 -0.0085017243
0.0058485409 0.0003175 -0.0062689655
-0.0026871674 0 -0.011053449
-0.0014226181 -0.00127 -0.0078637926
0.024816781 -0.00127 -0.0075448276
-0.020390859 -0.0003175 -0.0088206893
0.034300901 0.000635 -0.00020862065
0.015016523 0 -0.013605172
0.0099583259 0.0003175 -0.0062689655
0.013435837 0.00095249998 -0.0085017243
0.020390859 0 0.0029810346
-0.020390859 -0.0003175 -0.010096552
0.0058485409 -0.00127 -0.00020862065
-0.023552231 -0.00127 -0.0072258618
0.0083776396 0.0003175 -0.00020862065
0.0064808154 0.0003175 -0.0062689655
0.024184506 0 -0.0062689655
-0.036197726 0.00095249998 -0.0081827585
0.025765194 0.000635 -0.00052758615
-0.0020548927 0.00095249998 -0.00020862065
0.0067969528 -0.0003175 -0.0085017243
0.017545622 0.00127 -0.0081827585
0.0099583259 0.00095249998 -0.00020862065
-0.034617037 0.00127 -0.0011655171
0.025132919 0.00127 -0.0062689655
0.0039517167 -0.000635 -0.0069068964
0.00079034333 0 -0.0085017243
0.0049001286 -0.0003175 0.0026620689
-0.0099583259 -0.000635 -0.00052758615
0.020390859 0.0003175 0.0010672414
0.0036355793 -0.00127 -0.0014844827
0.031771801 -0.00127 -0.0018034482
0.0017387554 -0.00127 -0.0081827585
0.022603819 0 -0.0059499997
0.018494034 0 -0.0085017243
-0.022919957 -0.00127 -0.00052758615
-0.024500644 -0.00127 -0.0069068964
-0.015016523 0 0.0026620689
-0.033668626 -0.00127 -0.0081827585
0.0077453647 0 -0.012967241
0.0049001286 0.0003175 -0.011691379
0.0026871674 -0.00127 -0.0072258618
-0.0045839916 -0.00127 -0.0024413792
-0.014068112 -0.00127 -0.0069068964
0.0049001286 0.00127 -0.0024413792
-0.0080615021 0.00127 -0.0062689655
-0.012487425 0 -0.0059499997
0.033036351 0 -0.013286207
-0.005216266 -0.00127 -0.00020862065
-0.026713604 -0.00127 -0.0021224138
-0.0014226181 -0.00127 -0.006587931
-0.034300901 0.00127 -0.0021224138
-0.032087941 -0.00127 -0.0014844827
-0.019126309 -0.000635 -0.00052758615
-0.020390859 0.00095249998 -0.006587931
-0.017545622 0 -0.014243104
-0.010274463 -0.0003175 -0.00020862065
-0.024816781 0.0003175 -0.00020862065
-0.012803562 -0.000635 -0.0085017243
-0.019758584 0 -0.00020862065
-0.031455666 -0.00095249998 -0.0062689655
-0.0055324035 -0.00127 -0.00052758615
0.033036351 -0.0003175 -0.0094586201
0.028294291 0 -0.0062689655
-0.033036351 0.000635 -0.0062689655
-0.00015806867 0 -0.010096552
-0.023236094 0.00127 -0.0021224138
0.034300901 -0.00095249998 -0.0011655171
-0.018810172 0.00095249998 -0.006587931
0.0023710299 -0.00127 -0.0085017243
-0.0017387554 0.00127 -0.00020862065
-0.0026871674 -0.00095249998 -0.0021224138
-0.00079034333 -0.00127 -0.00084655167
0.0077453647 0 -0.013924138
-0.0074292272 0 -0.009777586
0.0058485409 0.000635 -0.0085017243
0.0058485409 0.000635 -0.0069068964
-0.0099583259 -0.0003175 0.00042931037
0.033036351 0.00127 -0.0085017243
0.020074721 -0.0003175 0.0023431035
0.015332661 0.000635 -0.0085017243
-0.0071130903 -0.00127 -0.0069068964
0.023236094 -0.00127 -0.006587931
-0.019126309 0.00095249998 -0.006587931
0.014068112 -0.00127 -0.0078637926
-0.034300901 0.000635 -0.0021224138
-0.014068112 -0.0003175 -0.00020862065
0.019442447 0.00127 -0.0011655171
-0.034933176 -0.00127 -0.0018034482
-0.017545622 -0.00127 -0.0011655171
0.008693777 0.00127 -0.0085017243
-0.0020548927 0 -0.0024413792
0.036513861 -0.0003175 -0.00084655167
0.030507253 -0.0003175 0.0010672414
0.0023710299 0 -0.0049931034
0.0074292272 -0.0003175 0.0026620689
-0.032720216 0.0003175 -0.0069068964
0.032720216 0.00127 -0.00020862065
0.0074292272 0.0003175 -0.006587931
0.012171287 0.00127 -0.0024413792
-0.015332661 0 -0.010096552
0.020074721 0 -0.0059499997
-0.033984765 -0.00095249998 -0.00020862065
-0.017861759 0.0003175 -0.010096552
0.008693777 0.0003175 -0.006587931
-0.010274463 -0.0003175 -0.0043551722
0.029558841 -0.0003175 -0.0085017243
0.013119699 0.0003175 -0.0024413792
0.012171287 -0.000635 -0.0069068964
-0.030507253 0.0003175 -0.012648276
-0.033036351 -0.0003175 -0.010734483
0.025449056 0.00127 -0.0062689655
-0.00015806867 0 -0.012648276
-0.018810172 -0.00127 -0.0018034482
-0.013119699 0.00127 -0.0062689655
0.0099583259 0.0003175 -0.004674138
-0.026713604 0 -0.0062689655
0.0096421884 -0.00127 -0.00084655167
0.0030033046 0.000635 -0.0085017243
0.0071130903 -0.0003175 -0.0062689655
0.022603819 0.00127 -0.0014844827
0.015332661 0.00095249998 -0.0085017243
-0.035565451 0 -0.013924138
-0.017861759 0 -0.014243104
0.028926566 -0.00127 -0.0021224138
0.0036355793 -0.00127 -0.0081827585
-0.035565451 0.0003175 -0.012648276
-0.012803562 -0.00095249998 -0.0085017243
-0.030823391 -0.00127 -0.0062689655
0.0058485409 -0.00127 -0.0011655171
-0.031139528 0.00127 -0.00052758615
-0.012171287 -0.00127 -0.0078637926
-0.024500644 -0.000635 -0.0085017243
0.0096421884 -0.00127 -0.0085017243
0.0049001286 0.0003175 -0.0030793103
-0.023236094 0.000635 -0.0021224138
-0.019758584 -0.000635 -0.0085017243
0.010274463 0.0003175 0.0010672414
-0.034933176 -0.000635 -0.0081827585
-0.018177897 -0.00127 -0.0081827585
-0.018177897 -0.000635 -0.0085017243
0.013751974 -0.00127 -0.0081827585
-0.025449056 0 -0.0056310343
-0.0055324035 -0.00127 -0.006587931
0.032720216 0 -0.0059499997
0.010274463 0.0003175 0.0017051725
0.036197726 -0.000635 -0.0081827585
-0.008693777 -0.00127 -0.0021224138
0.035249311 0.00127 -0.0018034482
0.009326051 -0.00127 -0.00084655167
0.026397469 -0.0003175 -0.0021224138
-0.035881586 -0.0003175 -0.0085017243
-0.021971544 -0.00095249998 -0.006587931
-0.017861759 0.0003175 -0.012010344
0.033036351 0.00095249998 -0.0062689655
-0.034300901 0.00127 -0.0078637926
0.014068112 0 -0.0085017243
0.020390859 0.0003175 -0.0043551722
0.0023710299 0.0003175 -0.013286207
-0.026081331 0 -0.0085017243
-0.0020548927 0.00127 -0.0021224138
-0.030507253 0 -0.0033982757
-0.024500644 -0.00127 -0.00084655167
0.030507253 0 -0.0030793103
0.0049001286 0.0003175 -0.010734483
-0.0026871674 -0.0003175 -0.0027603447
0.0026871674 0 0.00011034486
0.021339269 -0.00127 -0.0011655171
-0.023868369 -0.0003175 -0.0062689655
-0.027978154 0 -0.004674138
0.025449056 0.00127 -0.00084655167
-0.0049001286 0 -0.011053449
0.020390859 0.0003175 -0.012010344
-0.017229484 0.00127 -0.00084655167
-0.010906738 0.00127 -0.0021224138
0.030507253 0 -0.012648276
-0.032087941 0.000635 -0.0085017243
0.026713604 0.00127 -0.0085017243
0.0061646779 0.00095249998 -0.0024413792
-0.010274463 -0.0003175 -0.0062689655
-0.009326051 0.000635 -0.0085017243
-0.00015806867 -0.0003175 -0.010415517
-0.005216266 -0.0003175 -0.013924138
-0.027345879 -0.00127 -0.0085017243
0.025132919 0 -0.0030793103
-0.019758584 -0.00095249998 -0.00020862065
0.033036351 0.000635 -0.00020862065
0.0064808154 -0.00127 -0.0072258618
-0.033352491 -0.00127 -0.0021224138
0.0017387554 -0.00127 -0.0069068964
-0.00079034333 -0.00127 -0.0075448276
-0.022603819 0 -0.011053449
-0.0049001286 0.0003175 -0.0094586201
-0.017861759 0.00127 -0.0075448276
0.027029742 0.00127 -0.00084655167
-0.021339269 -0.00095249998 -0.006587931
-0.025765194 0.00127 -0.0014844827
0.016281072 -0.00127 -0.006587931
-0.033036351 0.000635 -0.00020862065
-0.021971544 0.00095249998 -0.0085017243
-0.010274463 -0.0003175 -0.0088206893
-0.032087941 -0.00127 -0.00052758615
-0.015016523 -0.0003175 -0.012967241
0.023236094 0.00095249998 -0.0021224138
-0.025132919 0 -0.0091396552
0.0049001286 0.00127 -0.00020862065
0.033668626 -0.00127 -0.0069068964
0.027345879 0 -0.0062689655
0.027345879 -0.00127 -0.0078637926
0.005216266 -0.0003175 -0.013924138
0.0026871674 -0.0003175 0.0026620689
-0.027345879 0.00127 -0.0069068964
0.031139528 0.0003175 -0.0085017243
0.025449056 -0.0003175 -0.012967241
0.026081331 0.000635 -0.0062689655
-0.025765194 0.00127 -0.0085017243
0.0055324035 0.00095249998 -0.006587931
0.036197726 -0.000635 -0.0021224138
0.035565451 0.0003175 -0.013286207
-0.011539013 0 -0.0085017243
-0.018810172 0.0003175 -0.0021224138
0.015016523 0.000635 -0.0021224138
0.0011064807 0.000635 -0.0085017243
-0.023868369 -0.0003175 -0.0085017243
0.0083776396 -0.0003175 -0.0062689655
0.012803562 -0.0003175 -0.011372413
-0.010906738 0.00127 -0.0072258618
-0.015964935 -0.00127 -0.0021224138
0.010274463 0 0.0029810346
-0.020074721 0 -0.013286207
0.035881586 -0.00095249998 -0.0018034482
-0.0023710299 0 -0.011372413
-0.025132919 -0.00095249998 -0.00020862065
-0.021655407 -0.00127 -0.0085017243
0.031771801 -0.00127 -0.0075448276
-0.015016523 0 0.00042931037
0.00015806867 -0.00127 -0.0075448276
0.029242704 0.0003175 -0.0021224138
0.0023710299 0.0003175 -0.0053120689
-0.016913347 0.00127 -0.0011655171
0.015332661 0.00095249998 -0.00020862065
-0.0067969528 -0.0003175 -0.00020862065
-0.0023710299 -0.0003175 0.0013862069
-0.028610429 0 -0.0062689655
-0.0055324035 -0.00095249998 -0.0069068964
-0.011539013 -0.00127 -0.00020862065
0.010274463 0.00127 -0.0011655171
-0.0099583259 0.00127 -0.00020862065
0.022603819 -0.000635 -0.006587931
-0.016281072 0.00127 -0.0078637926
-0.015016523 -0.0003175 -0.011372413
0.00079034333 0.00127 -0.00084655167
-0.017229484 0.00127 -0.0011655171
0.005216266 -0.0003175 0.0017051725
0.010274463 -0.0003175 -0.0088206893
-0.0099583259 0 -0.0056310343
0.033036351 0 -0.013605172
-0.025132919 0.00127 -0.0014844827
-0.015332661 -0.00127 -0.006587931
0.000474206 -0.00095249998 -0.0085017243
-0.017229484 0 -0.0024413792
-0.015964935 0.00127 -0.0078637926
0.0099583259 0.00127 -0.0021224138
0.0026871674 -0.00127 -0.0081827585
0.023868369 0.0003175 -0.00020862065
0.011539013 -0.00127 -0.006587931
-0.020706996 -0.000635 -0.0024413792
0.022919957 -0.0003175 -0.0088206893
-0.0055324035 -0.00127 -0.0078637926
-0.031455666 -0.000635 -0.00020862065
-0.021023134 0.0003175 -0.00020862065
-0.0090099145 -0.00127 -0.0081827585
-0.022603819 0 -0.0094586201
-0.018177897 0.000635 -0.006587931
-0.013119699 -0.00127 -0.0024413792
-0.017545622 0.00095249998 -0.006587931
-0.0042678542 0.000635 -0.0069068964
0.020074721 0.00095249998 -0.0021224138
0.034300901 -0.00127 -0.0018034482
0.0049001286 0 -0.011691379
-0.0083776396 -0.00127 -0.0018034482
-0.030191116 -0.00127 -0.0018034482
0.030507253 -0.0003175 -0.010415517
-0.033984765 -0.00127 -0.00020862065
0.022919957 -0.0003175 -0.0094586201
-0.0011064807 -0.000635 -0.0085017243
-0.033984765 -0.00127 -0.006587931
0.016597209 0.000635 -0.006587931
0.015016523 -0.0003175 -0.011691379
-0.027978154 0.0003175 -0.0094586201
0.025132919 -0.000635 -0.006587931
0.019442447 -0.00127 -0.0075448276
0.0020548927 0.00127 -0.006587931
-0.032404076 0.00095249998 -0.0062689655
-0.0020548927 0.00127 -0.0081827585
-0.015648799 0.00127 -0.00052758615
0.0030033046 0.000635 -0.0021224138
-0.031771801 -0.00127 -0.0011655171
0.027978154 -0.00095249998 -0.0021224138
-0.032404076 0.00127 -0.0021224138
-0.014700386 0.00127 -0.0018034482
0.030507253 -0.0003175 0.0026620689
0.030507253 -0.00095249998 -0.00020862065
-0.0049001286 0.0003175 -0.006587931
-0.017861759 -0.0003175 -0.011691379
-0.0030033046 -0.0003175 -0.0062689655
0.0030033046 -0.000635 -0.0024413792
0.0023710299 0 0.0017051725
0.016597209 -0.0003175 -0.00020862065
-0.0049001286 0 0.00011034486
0.021339269 -0.00095249998 -0.0021224138
-0.0074292272 -0.00127 -0.0072258618
-0.020390859 -0.0003175 0.0017051725
0.0099583259 0 -0.013605172
0.024184506 -0.00095249998 -0.0085017243
-0.0023710299 0 -0.012010344
-0.017229484 0 -0.0085017243
0.025765194 -0.00127 -0.0014844827
0.0061646779 0.000635 -0.0069068964
0.025449056 -0.0003175 0.0026620689
0.0049001286 0.0003175 -0.0049931034
0.00079034333 -0.00127 -0.006587931
0.025765194 0 -0.0037172413
0.0083776396 0.00095249998 -0.0021224138
-0.016913347 0.0003175 -0.0021224138
0.016913347 -0.00127 -0.006587931
0.0036355793 0.00127 -0.00020862065
0.030507253 -0.00095249998 -0.0085017243
0.036513861 -0.000635 -0.0069068964
0.0074292272 0 -0.0040362068
-0.0064808154 -0.00127 -0.0078637926
-0.015332661 0.000635 -0.006587931
0.023868369 -0.00127 -0.0072258618
0.023868369 0.00095249998 -0.00020862065
-0.0026871674 0 -0.012967241
0.033036351 0.0003175 0.00042931037
-0.036513861 -0.0003175 -0.0021224138
-0.022919957 0.0003175 -0.01232931
-0.0020548927 0.00127 -0.006587931
-0.014700386 0.00095249998 -0.0024413792
0.015332661 0.0003175 -0.0040362068
0.022919957 -0.0003175 -0.010096552
0.0023710299 -0.0003175 -0.006587931
-0.018494034 -0.00095249998 -0.0024413792
-0.017545622 0.00127 -0.0069068964
0.017861759 -0.0003175 0.0010672414
-0.036197726 0 -0.00020862065
0.0077453647 0.00127 -0.00020862065
-0.0077453647 0 -0.0037172413
0.015016523 0 -0.010415517
-0.0083776396 -0.0003175 -0.006587931
0.032087941 0 -0.0062689655
0.009326051 -0.00127 -0.00020862065
0.0071130903 -0.00127 -0.0021224138
-0.036830001 -0.0003175 -0.00052758615
0.027029742 0.00095249998 -0.0085017243
-0.021339269 -0.00127 -0.0014844827
-0.013119699 -0.000635 -0.006587931
-0.012803562 0 -0.0049931034
-0.020074721 0.0003175 -0.0033982757
0.019126309 0.00095249998 -0.00020862065
0.030507253 0.0003175 0.0013862069
-0.016597209 0 -0.0062689655
-0.017229484 0.00127 -0.006587931
0.0020548927 0.00127 -0.0085017243
0.0099583259 0.0003175 0.00042931037
-0.0080615021 0.0003175 -0.0062689655
-0.024500644 0 -0.0062689655
-0.026081331 -0.00127 -0.0011655171
-0.029242704 0 -0.00020862065
0.028926566 0.00095249998 -0.0085017243
0.025132919 0.00127 -0.0085017243
-0.025765194 -0.00127 -0.0081827585
0.021655407 0.00095249998 -0.0085017243
-0.026713604 -0.000635 -0.00052758615
0.012803562 -0.000635 -0.0069068964
-0.031139528 -0.000635 -0.0062689655
-0.015332661 0.00127 -0.0085017243
-0.025449056 0.0003175 -0.013605172
-0.035565451 0.0003175 -0.011053449
0.020390859 0 -0.014243104
-0.034617037 0.00127 -0.00020862065
0.022287682 0.00127 -0.0011655171
-0.0099583259 0.00127 -0.006587931
0.015016523 0.000635 -0.006587931
0.0030033046 0.00095249998 -0.0085017243
-0.023868369 0.00127 -0.00084655167
-0.018494034 0.00127 -0.0024413792
-0.005216266 -0.000635 -0.0085017243
0.034933176 -0.00127 -0.0014844827
-0.018177897 -0.00127 -0.00084655167
0.012803562 0.00127 -0.0081827585
-0.026397469 -0.00095249998 -0.0062689655
0.033352491 0.000635 -0.0085017243
-0.00079034333 -0.00127 -0.0081827585
-0.023236094 0.00127 -0.0069068964
0.020706996 -0.000635 -0.00052758615
0.033352491 -0.00095249998 -0.0021224138
0.015016523 -0.00127 -0.00084655167
0.0077453647 -0.00127 -0.006587931
0.029874979 0.0003175 -0.0021224138
0.00015806867 -0.0003175 -0.010734483
0.022919957 0 0.0026620689
-0.0049001286 0.00095249998 -0.0069068964
-0.029242704 0.00095249998 -0.0069068964
0.033036351 -0.0003175 0.0007482759
0.0011064807 0.0003175 -0.0021224138
-0.0077453647 -0.0003175 -0.0091396552
-0.00079034333 -0.00095249998 -0.0021224138
-0.0049001286 0.0003175 -0.012010344
-0.017861759 -0.0003175 -0.0091396552
0.021023134 0.000635 -0.006587931
0.011222876 -0.00127 -0.0011655171
0.034617037 -0.000635 -0.0062689655
0.029874979 -0.00127 -0.0021224138
0.025132919 -0.00127 -0.0072258618
0.024816781 -0.00127 -0.0069068964
-0.0099583259 0 -0.012010344
0.0067969528 -0.00127 -0.0075448276
-0.00079034333 0.00127 -0.0021224138
0.020390859 0 -0.014562069
0.018810172 0.000635 -0.0021224138
0.021339269 -0.00127 -0.0018034482
-0.023552231 0.00127 -0.0024413792
0.022919957 0 -0.0053120689
-0.023552231 0.000635 -0.00052758615
0.024184506 -0.00127 -0.0078637926
-0.035565451 -0.00127 -0.00084655167
-0.012171287 -0.00127 -0.0075448276
0.0026871674 0 -0.014562069
-0.017861759 -0.0003175 -0.0037172413
0.014700386 -0.00127 -0.0021224138
0.021971544 0.00127 -0.0069068964
-0.028294291 -0.0003175 -0.00020862065
-0.021339269 -0.00127 -0.00020862065
0.0090099145 0.0003175 -0.0062689655
0.023552231 0.00127 -0.0081827585
0.0011064807 0.00127 -0.0081827585
-0.027662016 -0.00127 -0.0078637926
-0.035565451 -0.0003175 -0.014243104
0.0026871674 -0.00127 -0.0014844827
-0.025449056 0.0003175 -0.011372413
0.015648799 0.00127 -0.0075448276
-0.0055324035 0.0003175 -0.006587931
0.010274463 -0.0003175 0.00011034486
-0.030507253 -0.00127 -0.0072258618
0.012803562 -0.00095249998 -0.00020862065
0.033668626 0.00127 -0.0021224138
0.022603819 -0.00127 -0.0069068964
-0.025132919 0.00127 -0.0062689655
-0.005216266 -0.0003175 -0.011053449
0.0049001286 0.0003175 -0.0053120689
-0.019442447 0.00127 -0.0021224138
0.023868369 -0.000635 -0.00052758615
0.033984765 -0.000635 -0.0062689655
0.033352491 -0.00127 -0.00020862065
-0.028610429 0.00095249998 -0.0072258618
0.012487425 -0.00095249998 -0.0085017243
0.0030033046 0.00127 -0.0062689655
-0.015016523 0.00127 -0.0021224138
0.0039517167 -0.00095249998 -0.0021224138
-0.00079034333 0.00127 -0.0075448276
-0.030507253 0.0003175 -0.004674138
-0.027978154 0 -0.0043551722
0.0017387554 -0.0003175 -0.0062689655
-0.030823391 -0.00095249998 -0.0062689655
-0.030823391 0.0003175 -0.0085017243
0.025765194 0 -0.0040362068
-0.029242704 -0.00127 -0.00052758615
-0.030191116 0 -0.0088206893
0.00015806867 0.0003175 -0.009777586
-0.016281072 -0.00127 -0.0081827585
-0.00015806867 0.0003175 0.0010672414
-0.0049001286 -0.0003175 -0.012648276
-0.023868369 0.00127 -0.00020862065
0.018494034 -0.0003175 -0.0085017243
0.018810172 -0.00127 -0.00084655167
0.035881586 0.00095249998 -0.00052758615
-0.016281072 0.00127 -0.0069068964
0.033984765 0.00127 -0.00084655167
0.017861759 -0.000635 -0.006587931
0.010590601 0.00127 -0.0011655171
-0.026397469 -0.00127 -0.0014844827
0.0074292272 -0.0003175 -0.009777586
0.010906738 0.000635 -0.006587931
-0.005216266 0.00127 -0.00084655167
-0.0049001286 0.0003175 -0.0024413792
-0.014384249 0.00127 -0.0018034482
0.0023710299 0.0003175 -0.0030793103
0.0099583259 0.0003175 -0.0059499997
-0.013751974 0.000635 -0.0024413792
0.032404076 0.00095249998 -0.00020862065
-0.003319442 0.00127 -0.0062689655
0.026081331 0.00095249998 -0.0021224138
-0.017545622 0 -0.0053120689
-0.017545622 0 0.0010672414
-0.00015806867 0 0.0026620689
0.019442447 0.000635 -0.0021224138
0.016913347 -0.0003175 -0.0085017243
-0.017861759 0.0003175 0.0017051725
-0.019126309 0.00095249998 -0.0024413792
0.0099583259 0.0003175 -0.010096552
-0.025449056 0.000635 -0.0085017243
-0.012487425 -0.00127 -0.0014844827
0.015648799 0.00127 -0.00084655167
-0.030507253 0.0003175 -0.011691379
-0.010590601 0.00127 -0.00052758615
0.035881586 0.00095249998 -0.0085017243
-0.015332661 0 -0.012648276
0.0023710299 0.00127 -0.0018034482
-0.011855151 0.000635 -0.00052758615
0.018177897 -0.00127 -0.006587931
0.011222876 0.00127 -0.0011655171
-0.018177897 -0.00127 -0.0069068964
0.021023134 0.00127 -0.0072258618
0.015332661 0.0003175 -0.012648276
0.0061646779 -0.00095249998 -0.00020862065
0.0099583259 0.0003175 -0.010415517
0.017861759 0.0003175 -0.0088206893
0.032087941 0.000635 -0.0021224138
0.011222876 -0.00127 -0.0081827585
0.0071130903 0.00127 -0.0085017243
-0.035565451 0 -0.004674138
0.0077453647 -0.0003175 0.0013862069
0.024500644 -0.00127 -0.0021224138
-0.012487425 -0.0003175 -0.0040362068
0.011222876 -0.00127 -0.0078637926
-0.00015806867 -0.0003175 0.0007482759
0.022919957 -0.0003175 -0.0043551722
-0.028926566 0.00127 -0.0069068964
0.016597209 -0.00127 -0.00020862065
0.033036351 -0.0003175 -0.01232931
-0.016913347 -0.000635 -0.00052758615
-0.0055324035 -0.00127 -0.0075448276
0.027662016 0 -0.0049931034
-0.031139528 -0.00127 -0.0021224138
-0.014384249 0.00095249998 -0.0085017243
-0.0026871674 -0.0003175 -0.006587931
0.033036351 0.00127 -0.0014844827
-0.030507253 -0.00095249998 -0.00020862065
-0.003319442 -0.00127 -0.00084655167
-0.016281072 0.00095249998 -0.00020862065
0.024816781 0.00127 -0.0018034482
0.0020548927 -0.000635 -0.0069068964
0.0030033046 0.00127 -0.0011655171
-0.0090099145 -0.0003175 -0.0062689655
-0.022919957 -0.00127 -0.0085017243
0.012803562 -0.0003175 0.0026620689
0.014384249 -0.00127 -0.0018034482
-0.010590601 0.0003175 -0.0062689655
0.0055324035 -0.0003175 -0.0062689655
0.021655407 -0.00127 -0.0085017243
0.011539013 -0.00127 -0.0011655171
-0.013751974 0 -0.0024413792
0.0067969528 -0.0003175 -0.00020862065
-0.015964935 -0.0003175 -0.0062689655
0.033984765 -0.0003175 -0.00020862065
-0.0074292272 -0.0003175 0.00011034486
0.0077453647 0 -0.0059499997
-0.0026871674 0.0003175 -0.0056310343
-0.005216266 0.00095249998 -0.0069068964
-0.0049001286 -0.0003175 -0.0094586201
0.015332661 0 -0.010734483
0.034617037 -0.00127 -0.0021224138
0.032720216 0 -0.0091396552
0.012171287 0.000635 -0.0085017243
0.0026871674 -0.000635 -0.00052758615
0.008693777 0.00127 -0.0011655171
0.022919957 0.00127 -0.0085017243
0.0011064807 0.00127 -0.0075448276
0.033036351 -0.0003175 0.0023431035
-0.026713604 -0.00127 -0.0078637926
-0.00015806867 -0.0003175 -0.006587931
0.034300901 0.00095249998 -0.0021224138
-0.035565451 -0.00095249998 -0.0085017243
-0.035565451 -0.0003175 -0.009777586
-0.0030033046 0.000635 -0.0069068964
0.021023134 0 -0.0021224138
0.022287682 -0.00127 -0.00052758615
0.031139528 0.00127 -0.00020862065
0.035249311 -0.00127 -0.0075448276
-0.027029742 0.00127 -0.00084655167
0.029242704 -0.00127 -0.0062689655
-0.036513861 -0.00095249998 -0.0062689655
0.0026871674 0.0003175 -0.014562069
-0.015332661 -0.0003175 -0.0027603447
-0.025449056 0.0003175 0.0023431035
0.020390859 0.00127 -0.0081827585
0.028610429 -0.00127 -0.006587931
-0.021023134 0.00127 -0.00020862065
0.005216266 -0.00095249998 -0.00020862065
-0.003319442 0.00127 -0.0075448276
-0.032720216 0.00095249998 -0.0078637926
0.014384249 0.00127 -0.00052758615
-0.026397469 -0.00127 -0.00084655167
0.011222876 0.00127 -0.00052758615
0.015016523 -0.00127 -0.0014844827
-0.029242704 -0.00127 -0.0018034482
0.0011064807 -0.00127 -0.00020862065
0.028294291 0.00127 -0.0062689655
0.020390859 -0.0003175 -0.0043551722
0.012803562 0.00095249998 -0.0085017243
-0.026713604 0.00127 -0.0078637926
0.00015806867 -0.0003175 -0.012648276
-0.033036351 0 0.0026620689
-0.010274463 -0.0003175 -0.0053120689
-0.016597209 0.00127 -0.0014844827
-0.027662016 -0.0003175 -0.0085017243
0.022603819 0 0.0020241379
0.0077453647 0.0003175 -0.0059499997
0.012171287 0 -0.00020862065
0.017861759 -0.0003175 -0.0056310343
0.025449056 -0.00127 -0.0024413792
0.0099583259 0 0.0010672414
0.0096421884 -0.00127 -0.0021224138
-0.022603819 -0.00127 -0.0072258618
0.018494034 0.00127 -0.0062689655
-0.0039517167 0.00095249998 -0.0069068964
-0.0042678542 -0.00127 -0.0081827585
0.036513861 0.0003175 -0.0078637926
-0.015016523 -0.000635 -0.006587931
-0.0042678542 -0.00127 -0.0011655171
0.00015806867 0.0003175 0.0023431035
0.012487425 -0.0003175 -0.012010344
0.032720216 -0.00127 -0.0081827585
0.014068112 -0.00127 -0.0069068964
-0.035565451 -0.0003175 -0.012010344
0.010274463 -0.0003175 0.00042931037
0.029242704 -0.00127 -0.006587931
-0.012487425 -0.0003175 0.0017051725
-0.019758584 0.00127 -0.0069068964
0.036513861 -0.0003175 -0.006587931
-0.015332661 0.00127 -0.0069068964
0.017545622 0 0.0007482759
-0.011222876 -0.00127 -0.0011655171
0.034300901 0.00127 -0.0021224138
-0.017229484 -0.00127 -0.0011655171
-0.020390859 -0.0003175 -0.004674138
-0.0074292272 0.00127 -0.0021224138
0.0026871674 0.0003175 -0.012967241
-0.0064808154 0.00127 -0.0062689655
-0.012171287 0 -0.00020862065
-0.017861759 0.0003175 -0.00020862065
0.0039517167 0.00127 -0.0075448276
-0.025132919 0 0.0010672414
0.014700386 0.00127 -0.0078637926
-0.022919957 0 -0.010415517
0.030191116 0.000635 -0.0085017243
0.010274463 -0.0003175 -0.012967241
-0.012487425 -0.000635 -0.00052758615
0.034617037 0.00127 -0.00020862065
0.025449056 0.00127 -0.0018034482
0.034300901 -0.0003175 -0.0021224138
0.005216266 0.0003175 -0.010096552
0.0045839916 0.00127 -0.0014844827
-0.0042678542 0.00127 -0.00052758615
-0.010274463 -0.0003175 0.0013862069
0.027029742 -0.00127 -0.0021224138
-0.015332661 0.00127 -0.0072258618
-0.027029742 0.00095249998 -0.0085017243
-0.022603819 0.00127 -0.00052758615
0.0049001286 0 -0.004674138
-0.033036351 -0.00095249998 -0.006587931
-0.026713604 0 -0.0021224138
-0.0039517167 0.00127 -0.0069068964
0.0049001286 0 0.0017051725
-0.025765194 -0.00127 -0.006587931
-0.011855151 -0.000635 -0.006587931
-0.017229484 0.000635 -0.0021224138
0.023236094 -0.00127 -0.00052758615
-0.018810172 0.00127 -0.00052758615
-0.024816781 0.00127 -0.0021224138
0.0042678542 -0.00127 -0.00020862065
-0.00079034333 0.000635 -0.00052758615
0.018177897 -0.00127 -0.00084655167
-0.0026871674 0.0003175 0.0026620689
0.019758584 0.00095249998 -0.0062689655
-0.032404076 0.00127 -0.00084655167
-0.0061646779 -0.00127 -0.0072258618
0.005216266 0.0003175 -0.013286207
0.011855151 -0.00127 -0.0069068964
-0.035249311 0.00127 -0.0018034482
-0.035565451 0.0003175 -0.0053120689
0.030507253 0.0003175 0.0017051725
-0.023868369 0.00127 -0.0014844827
0.016281072 0.0003175 -0.0085017243
-0.035565451 0 -0.011372413
-0.031139528 0.0003175 -0.0021224138
0.00015806867 0.0003175 -0.004674138
0.025765194 0.00127 -0.0024413792
-0.015332661 0.0003175 -0.014243104
0.0064808154 0.00127 -0.006587931
-0.013119699 -0.00127 -0.0085017243
0.0077453647 0.0003175 0.0007482759
-0.035881586 0.00095249998 -0.0085017243
0.020706996 0.00095249998 -0.0085017243
-0.016597209 -0.00127 -0.00084655167
0.015332661 -0.000635 -0.0085017243
0.012803562 0 -0.0088206893
-0.020074721 -0.00127 -0.006587931
0.0077453647 0 -0.014243104
0.023868369 -0.00127 -0.0018034482
0.025132919 0 -0.01232931
0.0077453647 -0.0003175 -0.0043551722
0.0083776396 -0.00095249998 -0.006587931
-0.023236094 0.00127 -0.00020862065
0.010906738 -0.000635 -0.0024413792
0.0099583259 0.00095249998 -0.006587931
0.028610429 -0.00127 -0.0081827585
0.027978154 0.0003175 0.0023431035
-0.028294291 0.0003175 -0.00020862065
0.008693777 0.00095249998 -0.00020862065
0.017545622 0.0003175 0.00011034486
-0.0049001286 0.00127 -0.0081827585
-0.029874979 0.00127 -0.0062689655
-0.021655407 -0.00127 -0.00052758615
0.016281072 0.00095249998 -0.0085017243
-0.0030033046 0.0003175 -0.006587931
-0.033036351 0 -0.0040362068
-0.025449056 -0.0003175 -0.0037172413
0.00079034333 -0.00127 -0.0081827585
-0.022919957 0 -0.0049931034
-0.015332661 -0.0003175 -0.011691379
-0.0026871674 0.00127 -0.0081827585
-0.005216266 0.0003175 -0.010415517
-0.019758584 0.000635 -0.00052758615
0.012171287 0.00127 -0.00020862065
0.00015806867 -0.0003175 -0.011691379
0.031771801 -0.00127 -0.0069068964
0.025449056 -0.00127 -0.0069068964
0.015648799 -0.00127 -0.0014844827
0.0080615021 0.00127 -0.0014844827
-0.018177897 -0.0003175 -0.0085017243
-0.0014226181 0.00127 -0.006587931
-0.0039517167 0.00127 -0.0078637926
0.035565451 0 0.0017051725
-0.024500644 0.00127 -0.0069068964
0.010906738 -0.0003175 -0.0085017243
-0.015332661 0.0003175 -0.0059499997
-0.015332661 0.0003175 -0.0040362068
0.022287682 -0.00127 -0.0069068964
0.021339269 -0.00127 -0.0062689655
-0.019442447 -0.00095249998 -0.0085017243
0.0039517167 0.00095249998 -0.0085017243
0.026713604 -0.00127 -0.0062689655
-0.029874979 -0.0003175 -0.00020862065
-0.031771801 0 -0.00020862065
-0.030191116 -0.00095249998 -0.0062689655
-0.0099583259 -0.000635 -0.0085017243
0.035565451 0.0003175 -0.012010344
0.008693777 0.000635 -0.00052758615
-0.034617037 -0.00095249998 -0.0062689655
-0.015332661 0 0.00011034486
0.0020548927 -0.00127 -0.0069068964
-0.013119699 0.0003175 -0.0024413792
-0.021971544 0.00127 -0.0075448276
-0.022919957 0.0003175 -0.012010344
-0.0042678542 -0.00127 -0.0024413792
0.021971544 0.00127 -0.0014844827
0.021339269 0.00127 -0.0078637926
-0.0074292272 0 -0.012648276
0.022287682 -0.00127 -0.0014844827
-0.022919957 -0.0003175 -0.0062689655
0.015016523 -0.000635 -0.00052758615
0.008693777 0.0003175 -0.0021224138
-0.0074292272 0 -0.0059499997
-0.028926566 0.000635 -0.0021224138
0.017545622 -0.00127 -0.00052758615
-0.020074721 -0.00127 -0.0081827585
0.032404076 0 -0.0021224138
0.017229484 0.00127 -0.0075448276
0.021023134 -0.00127 -0.0085017243
-0.00015806867 -0.00127 -0.0021224138
-0.035565451 0 0.00042931037
0.027345879 -0.00095249998 -0.0085017243
0.025765194 0.00095249998 -0.0062689655
-0.033668626 -0.00127 -0.00052758615
-0.005216266 0.0003175 0.0017051725
-0.031139528 0.00127 -0.0018034482
0.027662016 0.0003175 -0.0085017243
-0.025449056 0.000635 -0.00052758615
-0.030823391 -0.000635 -0.0085017243
0.0099583259 -0.0003175 -0.006587931
-0.021655407 -0.00095249998 -0.0021224138
-0.026397469 0.00095249998 -0.00020862065
0.032720216 -0.0003175 -0.00020862065
0.0074292272 -0.0003175 -0.0056310343
-0.036513861 -0.00095249998 -0.0085017243
-0.033036351 0.0003175 -0.0049931034
-0.0099583259 -0.00127 -0.0021224138
0.020706996 0 -0.0024413792
0.0023710299 0.0003175 0.0007482759
0.018177897 0.000635 -0.0021224138
-0.022919957 0 -0.0040362068
0.0020548927 -0.00095249998 -0.0069068964
-0.027978154 -0.00127 -0.0075448276
-0.020390859 -0.0003175 -0.013286207
0.016281072 -0.00127 -0.0069068964
-0.035249311 -0.00095249998 -0.00020862065
-0.0045839916 0.0003175 -0.0021224138
0.0039517167 -0.0003175 -0.00020862065
-0.027345879 0.0003175 -0.0024413792
0.035881586 0.00127 -0.0078637926
-0.005216266 -0.0003175 0.00042931037
-0.0045839916 0.00095249998 -0.0069068964
-0.016913347 -0.00127 -0.0011655171
0.012487425 0.00127 -0.0069068964
0.024500644 -0.00095249998 -0.0062689655
0.018810172 0.00127 -0.0081827585
-0.027029742 -0.00127 -0.0062689655
-0.025132919 0.00095249998 -0.0024413792
0.025765194 0 -0.014243104
0.0077453647 -0.0003175 -0.011053449
-0.018810172 0.00127 -0.0024413792
0.031455666 0.00127 -0.0021224138
0.0090099145 -0.00095249998 -0.006587931
-0.013119699 0.000635 -0.0085017243
-0.005216266 0.0003175 -0.0043551722
0.017861759 -0.00127 -0.0014844827
0.010906738 -0.00095249998 -0.00020862065
0.024184506 -0.0003175 -0.00020862065
0.000474206 -0.0003175 -0.006587931
-0.003319442 0 -0.0085017243
-0.0074292272 0 0.00042931037
-0.015016523 0.0003175 -0.0062689655
0.0099583259 -0.000635 -0.0069068964
0.033984765 0 -0.0062689655
0.034617037 0.0003175 -0.0085017243
-0.010906738 -0.00127 -0.0085017243
-0.0058485409 0.0003175 -0.0085017243
0.036513861 -0.00095249998 -0.00084655167
0.00015806867 0.00127 -0.00052758615
-0.0055324035 0.00127 -0.0085017243
0.019758584 0.00127 -0.0014844827
-0.017229484 -0.000635 -0.0085017243
0.0067969528 -0.00127 -0.006587931
-0.025449056 0.000635 -0.0062689655
0.020390859 0.0003175 -0.013286207
-0.035565451 0 -0.0033982757
0.014700386 -0.00127 -0.0069068964
0.023868369 -0.0003175 -0.0062689655
0.030507253 0 -0.0040362068
0.029242704 0.00095249998 -0.0062689655
0.027029742 0.000635 -0.0024413792
-0.022603819 0 -0.0033982757
-0.023552231 -0.00127 -0.00052758615
0.031455666 0.00095249998 -0.0062689655
-0.0026871674 0 -0.0027603447
-0.012487425 0 0.0017051725
0.027978154 0 0.0013862069
0.012803562 -0.00127 -0.0075448276
0.018494034 -0.00127 -0.00052758615
-0.030507253 0 -0.012967241
-0.0061646779 0.000635 -0.0069068964
-0.014068112 0 -0.0024413792
-0.025449056 0.0003175 -0.011691379
0.028926566 0.00127 -0.0078637926
-0.0049001286 0 -0.010096552
0.0077453647 -0.0003175 -0.004674138
0.010906738 0.00127 -0.006587931
0.019442447 0.00127 -0.00052758615
0.0090099145 0.00127 -0.0075448276
-0.027029742 0.00127 -0.0021224138
0.025449056 -0.0003175 -0.0037172413
0.036197726 0.00127 -0.0011655171
-0.031139528 -0.00127 -0.0062689655
-0.018494034 -0.00127 -0.0024413792
0.016281072 -0.0003175 -0.0021224138
-0.035565451 0 -0.010415517
-0.0074292272 0.00127 -0.00052758615
0.027978154 -0.00127 -0.0078637926
0.029242704 0.00127 -0.00052758615
0.010906738 -0.00127 -0.0021224138
-0.027978154 -0.0003175 -0.0088206893
-0.023552231 0.0003175 -0.0085017243
-0.028294291 -0.000635 -0.0085017243
-0.023868369 0.00127 -0.0085017243
-0.016281072 0.00127 -0.0024413792
-0.013435837 -0.00127 -0.0085017243
0.033984765 -0.00127 -0.0014844827
0.024184506 0.00095249998 -0.0085017243
-0.032087941 -0.00127 -0.0085017243
-0.000474206 0.00127 -0.006587931
0.008693777 0.00127 -0.00052758615
0.021655407 0.00127 -0.006587931
0.034300901 0.00095249998 -0.0075448276
-0.022603819 0 -0.011691379
0.017545622 -0.00095249998 -0.0085017243
-0.0036355793 0 -0.0021224138
-0.010590601 -0.0003175 -0.00020862065
0.029558841 0 -0.00020862065
0.00015806867 0.0003175 -0.0053120689
0.0011064807 0 -0.0021224138
-0.026713604 0.00127 -0.0018034482
-0.0071130903 -0.00095249998 -0.00020862065
-0.011539013 0.00127 -0.0081827585
0.033036351 -0.0003175 -0.013605172
-0.0020548927 0.00095249998 -0.0021224138
0.0026871674 0.00095249998 -0.00020862065
-0.013119699 0.00127 -0.0011655171
0.010590601 0.00095249998 -0.0085017243
-0.00015806867 0 0.0013862069
0.0083776396 0.00095249998 -0.0085017243
-0.031771801 -0.00127 -0.00052758615
0.026081331 0.00127 -0.00020862065
0.025449056 -0.0003175 -0.0059499997
0.012487425 0.0003175 -0.0094586201
-0.0026871674 -0.000635 -0.0024413792
-0.0077453647 -0.0003175 -0.004674138
0.020706996 0.00095249998 -0.0062689655
-0.0074292272 -0.00095249998 -0.0024413792
0.003319442 -0.00095249998 -0.0085017243
-0.028926566 -0.0003175 -0.0085017243
-0.015332661 0.0003175 0.00011034486
0.015332661 0 -0.013924138
-0.025132919 0 -0.010096552
-0.005216266 -0.0003175 -0.0030793103
-0.012487425 0 -0.009777586
-0.033668626 0.00127 -0.00020862065
0.0045839916 -0.00127 -0.0085017243
0.003319442 -0.00095249998 -0.0069068964
0.015016523 -0.00127 -0.0018034482
0.0074292272 -0.0003175 0.00011034486
0.012803562 0 0.0029810346
-0.028610429 0.0003175 -0.00020862065
-0.011855151 0 -0.0085017243
-0.012803562 0 -0.014243104
0.005216266 -0.0003175 0.0010672414
-0.00079034333 -0.000635 -0.0021224138
-0.024816781 0 -0.00020862065
-0.0058485409 -0.00127 -0.0062689655
0.0011064807 -0.000635 -0.0069068964
-0.0045839916 -0.000635 -0.0069068964
-0.021023134 -0.0003175 -0.0062689655
-0.031139528 -0.000635 -0.0085017243
-0.0030033046 0.00127 -0.0011655171
0.033036351 0.0003175 -0.0024413792
-0.011855151 -0.00127 -0.0069068964
-0.014384249 0.00127 -0.0075448276
-0.00015806867 0 -0.011053449
-0.019442447 0.0003175 -0.0062689655
-0.025449056 0.0003175 -0.013286207
-0.031771801 0.00127 -0.0081827585
0.0039517167 -0.0003175 -0.0085017243
-0.0074292272 0.0003175 0.0013862069
-0.022919957 0.0003175 -0.0043551722
0.0077453647 0.00127 -0.0062689655
-0.036197726 -0.00095249998 -0.0021224138
-0.030507253 0 -0.009777586
0.0055324035 0.00127 -0.0069068964
-0.005216266 0 -0.012648276
0.014384249 0.00127 -0.0085017243
-0.0067969528 0.000635 -0.0021224138
-0.00015806867 0 -0.0030793103
0.0077453647 0.00127 -0.0024413792
-0.0020548927 0.00127 -0.00084655167
-0.0080615021 0.00127 -0.0085017243
0.036513861 -0.0003175 -0.0072258618
0.008693777 0.00095249998 -0.006587931
-0.0049001286 -0.0003175 -0.0091396552
-0.021971544 -0.00127 -0.0078637926
0.019442447 0.00095249998 -0.00020862065
-0.015648799 -0.00127 -0.00052758615
0.010274463 0.00127 -0.0021224138
-0.000474206 -0.000635 -0.00052758615
0.021971544 0.00127 -0.00020862065
-0.035565451 0.0003175 -0.011372413
-0.020074721 0 -0.0033982757
0.021655407 -0.00127 -0.00020862065
0.013435837 0.0003175 -0.0021224138
-0.020390859 -0.0003175 -0.01232931
0.015332661 -0.0003175 -0.010415517
0.016281072 -0.00127 -0.00020862065
0.026081331 0.00127 -0.00084655167
-0.0039517167 0.00127 -0.00020862065
0.015332661 -0.00095249998 -0.00020862065
-0.036513861 0.00095249998 -0.00084655167
0.034300901 -0.00127 -0.0069068964
-0.028294291 0.00095249998 -0.0085017243
0.029558841 -0.00127 -0.00052758615
0.0067969528 -0.00127 -0.00052758615
-0.028294291 0 -0.0049931034
0.012487425 0.000635 -0.0024413792
0.023552231 -0.00095249998 -0.0085017243
-0.0077453647 0 -0.0091396552
0.020390859 -0.0003175 -0.0094586201
0.027978154 -0.0003175 -0.013286207
-0.031455666 0.00127 -0.00052758615
0.0055324035 0.000635 -0.00052758615
-0.010906738 -0.00127 -0.0021224138
0.011539013 0.000635 -0.0085017243
-0.00079034333 0.000635 -0.0021224138
0.0017387554 0.00127 -0.0075448276
-0.029242704 0.00095249998 -0.0072258618
0.025449056 0.0003175 0.0013862069
0.025132919 -0.00095249998 -0.0062689655
-0.026397469 0.00127 -0.00052758615
0.013751974 -0.00095249998 -0.00020862065
0.033036351 0.0003175 -0.012967241
-0.033036351 0.0003175 0.00011034486
-0.030507253 -0.0003175 0.00011034486
0.025449056 0.00095249998 -0.0021224138
-0.0099583259 -0.0003175 -0.0049931034
-0.020390859 0 -0.011053449
-0.022603819 0.00127 -0.0011655171
-0.015964935 -0.000635 -0.0085017243
-0.015016523 0 -0.01232931
0.021023134 0.00095249998 -0.0062689655
0.012803562 -0.0003175 -0.010734483
-0.013751974 -0.000635 -0.0024413792
0.025449056 -0.0003175 0.0013862069
0.032720216 0.0003175 -0.00020862065
-0.012803562 0.0003175 -0.0027603447
0.0077453647 0.00127 -0.0075448276
0.0023710299 0.0003175 -0.012010344
-0.0077453647 0 0.0017051725
0.018494034 0.00127 -0.0018034482
-0.013119699 0.00127 -0.0014844827
0.029242704 0 -0.0085017243
0.027345879 0.00127 -0.0062689655
0.005216266 0.00127 -0.0062689655
0.00015806867 0 0.00042931037
0.022603819 -0.0003175 -0.0024413792
0.030823391 -0.000635 -0.00020862065
0.021971544 0 -0.0085017243
0.003319442 -0.00127 -0.0011655171
-0.030507253 -0.0003175 -0.01232931
-0.000474206 0.00127 -0.0075448276
-0.030507253 0 -0.013286207
-0.015016523 -0.00127 -0.006587931
-0.021339269 -0.000635 -0.006587931
-0.029242704 0.00127 -0.00052758615
-0.020390859 -0.00127 -0.0021224138
-0.033036351 0.0003175 -0.0033982757
0.030507253 -0.00127 -0.0081827585
0.0061646779 0.0003175 -0.0024413792
-0.0049001286 -0.00127 -0.0018034482
-0.017545622 0 -0.010734483
-0.027029742 -0.000635 -0.0062689655
0.0023710299 0.0003175 -0.0043551722
0.015332661 -0.0003175 0.0023431035
0.030823391 0.00127 -0.00052758615
0.010274463 -0.000635 -0.0024413792
0.011539013 0.00127 -0.0081827585
0.0061646779 0.00127 -0.0081827585
0.014384249 -0.00127 -0.0014844827
-0.034617037 0.000635 -0.0081827585
-0.0039517167 -0.00127 -0.0072258618
-0.012803562 -0.0003175 -0.013605172
0.0014226181 0.00127 -0.006587931
0.012487425 0.0003175 -0.009777586
-0.010274463 -0.0003175 -0.011372413
0.00079034333 0.00127 -0.00020862065
0.026081331 0.0003175 -0.00020862065
0.019758584 -0.00127 -0.0072258618
-0.012171287 0.00095249998 -0.006587931
0.019442447 0 -0.0021224138
0.012803562 0.0003175 -0.010734483
-0.033036351 0.0003175 -0.0056310343
0.0074292272 0.0003175 0.0010672414
0.020390859 0.0003175 -0.01232931
-0.023552231 -0.000635 -0.0085017243
0.030191116 0.00127 -0.0018034482
-0.013119699 -0.00127 -0.0075448276
-0.016597209 0.000635 -0.00052758615
0.027978154 0.00127 -0.006587931
0.000474206 0.0003175 -0.0062689655
0.028294291 -0.0003175 -0.00020862065
-0.020390859 -0.000635 -0.0085017243
0.014068112 -0.0003175 -0.006587931
0.010906738 0.00127 -0.0078637926
0.0071130903 -0.00127 -0.00020862065
-0.0055324035 0.00127 -0.0062689655
-0.0049001286 0.00127 -0.0072258618
0.012803562 0.0003175 -0.0033982757
0.0014226181 0.00127 -0.00084655167
0.011222876 -0.00127 -0.0075448276
-0.0077453647 0 -0.0043551722
0.022919957 -0.0003175 -0.01232931
0.026397469 0.00095249998 -0.0085017243
-0.0017387554 0.00127 -0.006587931
0.009326051 0.0003175 -0.00020862065
0.0039517167 -0.000635 -0.0021224138
0.036513861 0.00095249998 -0.0078637926
0.0030033046 0.0003175 -0.006587931
0.0099583259 0 -0.0088206893
0.022919957 0 -0.0043551722
0.011222876 0.0003175 -0.00020862065
-0.022919957 0 -0.004674138
-0.015332661 -0.0003175 -0.012010344
-0.008693777 -0.00127 -0.0075448276
-0.0026871674 0 0.0020241379
0.0026871674 0.0003175 -0.014243104
-0.036513861 0.00095249998 -0.0021224138
0.0099583259 0.0003175 0.0007482759
-0.023868369 -0.00127 -0.00052758615
-0.015964935 0.00095249998 -0.0085017243
0.0099583259 -0.0003175 -0.0085017243
0.035565451 -0.00127 -0.0021224138
-0.036197726 -0.00095249998 -0.0011655171
-0.00015806867 0.0003175 0.0007482759
0.032720216 -0.00127 -0.0075448276
-0.015332661 0.0003175 -0.013605172
0.0049001286 0.0003175 -0.0043551722
0.036513861 0.00095249998 -0.0072258618
0.031771801 0.00127 -0.0085017243
0.0074292272 0 -0.004674138
0.0077453647 0 -0.0056310343
0.015648799 0.00127 -0.00020862065
0.015648799 -0.00095249998 -0.006587931
0.0055324035 0.00127 -0.0018034482
0.00015806867 0.00127 -0.0011655171
0.030507253 0.0003175 -0.013924138
-0.0099583259 -0.0003175 -0.0062689655
0.0077453647 -0.0003175 -0.009777586
0.009326051 0.00127 -0.0018034482
0.027029742 0 -0.0024413792
-0.014700386 0.00127 -0.0024413792
-0.0049001286 -0.0003175 -0.0040362068
0.017545622 0.000635 -0.0021224138
0.019442447 -0.00127 -0.0011655171
0.0030033046 0.00127 -0.0078637926
-0.003319442 0.00127 -0.006587931
0.026397469 0.00127 -0.0069068964
0.024816781 0.0003175 -0.0062689655
0.025132919 0.00127 -0.00020862065
-0.020074721 0.0003175 -0.0049931034
-0.029242704 0.000635 -0.00052758615
-0.017861759 0.00127 -0.0072258618
-0.0080615021 -0.00127 -0.0072258618
0.029558841 -0.00095249998 -0.0072258618
0.025765194 0.00127 -0.00020862065
0.0026871674 -0.00095249998 -0.0085017243
-0.015016523 -0.0003175 0.00011034486
-0.032087941 0.000635 -0.00020862065
0.014700386 -0.00127 -0.0072258618
-0.012803562 -0.00095249998 -0.0024413792
0.031771801 -0.00127 -0.0011655171
0.019126309 0.00127 -0.0021224138
0.036513861 -0.000635 -0.0075448276
-0.015964935 0.000635 -0.0024413792
0.035565451 0 -0.011372413
0.022919957 0.0003175 0.0020241379
0.012803562 -0.00095249998 -0.0085017243
-0.017861759 -0.0003175 -0.0056310343
0.022287682 0.000635 -0.00052758615
0.027029742 -0.0003175 -0.00020862065
-0.015016523 0 -0.012967241
-0.021655407 0.00127 -0.0014844827
-0.031771801 0.00127 -0.0011655171
0.030507253 0.0003175 -0.0037172413
-0.009326051 -0.0003175 -0.0024413792
0.021655407 0.00127 -0.00052758615
-0.012803562 0 -0.009777586
-0.019442447 -0.00127 -0.0085017243
0.0099583259 0.00127 -0.00084655167
-0.0096421884 0.000635 -0.0085017243
0.032087941 -0.000635 -0.0062689655
-0.033036351 -0.000635 -0.0062689655
0.035881586 0.00095249998 -0.0069068964
-0.024184506 -0.0003175 -0.0062689655
0.027662016 -0.00095249998 -0.00020862065
-0.031771801 -0.00127 -0.00020862065
0.0055324035 0.00127 -0.0062689655
-0.022287682 0.00127 -0.0021224138
-0.027029742 0 -0.0062689655
0.0096421884 -0.000635 -0.0069068964
0.035565451 0.0003175 -0.0094586201
-0.010274463 0.0003175 -0.0056310343
-0.0061646779 -0.0003175 -0.006587931
0.024184506 0.00095249998 -0.00020862065
0.016597209 -0.00095249998 -0.0021224138
-0.035881586 -0.00095249998 -0.0085017243
0.030823391 -0.0003175 -0.0024413792
0.017861759 0.0003175 0.0010672414
-0.010906738 -0.00127 -0.0075448276
-0.010274463 -0.000635 -0.0024413792
-0.023552231 -0.00127 -0.006587931
0.017861759 0.0003175 0.0020241379
0.005216266 -0.0003175 -0.0027603447
0.011222876 0.00127 -0.0085017243
0.016913347 0.00127 -0.00052758615
0.012171287 -0.0003175 -0.0024413792
-0.0045839916 0.00127 -0.0011655171
0.0030033046 0.00095249998 -0.00020862065
-0.027662016 0.00127 -0.0062689655
-0.027978154 0 0.00011034486
0.0026871674 0.0003175 0.0007482759
0.018494034 -0.000635 -0.0085017243
0.017861759 0.00127 -0.0011655171
0.0077453647 -0.0003175 -0.0053120689
-0.028294291 0 -0.0088206893
0.0055324035 -0.00127 -0.006587931
-0.015016523 0.0003175 -0.012967241
0.0058485409 0.00095249998 -0.00020862065
0.0023710299 -0.00127 -0.00020862065
-0.014384249 -0.00095249998 -0.0085017243
-0.032720216 0 -0.013605172
-0.022603819 -0.00127 -0.006587931
-0.019758584 0.00095249998 -0.00020862065
0.030507253 0 -0.0049931034
-0.00079034333 -0.00127 -0.0085017243
-0.031455666 0.00127 -0.00084655167
-0.0036355793 -0.0003175 -0.00020862065
-0.016281072 -0.00095249998 -0.0085017243
0.0026871674 -0.000635 -0.0021224138
-0.012487425 0 -0.012648276
-0.012171287 -0.00127 -0.0021224138
-0.00015806867 0.00095249998 -0.0021224138
0.015016523 -0.0003175 -0.0024413792
-0.010906738 0.00127 -0.0062689655
-0.030507253 -0.000635 -0.0021224138
-0.024184506 -0.000635 -0.0021224138
0.0049001286 0.0003175 -0.0088206893
-0.015648799 -0.00127 -0.0069068964
0.024500644 -0.00127 -0.0085017243
-0.00079034333 0.00127 -0.0014844827
0.024816781 -0.00127 -0.0018034482
0.0023710299 -0.00127 -0.0062689655
-0.012803562 0 -0.004674138
0.0064808154 0.00127 -0.0072258618
0.030823391 0.00127 -0.006587931
-0.012803562 -0.0003175 -0.0094586201
0.0090099145 0.000635 -0.0085017243
0.035249311 0.000635 -0.0021224138
0.0077453647 0 0.0017051725
0.030823391 -0.0003175 -0.0062689655
-0.0030033046 -0.00095249998 -0.00020862065
0.0055324035 -0.00127 -0.0078637926
0.011222876 0.00127 -0.0078637926
0.033036351 0.0003175 -0.0040362068
-0.019442447 0.00127 -0.00084655167
0.0064808154 -0.00127 -0.0069068964
0.034617037 -0.00127 -0.0069068964
