# .PCD v0.7 - Point Cloud Data file format
VERSION 0.7
FIELDS x y z
SIZE 4 4 4
TYPE F F F
COUNT 1 1 1
WIDTH 1403
HEIGHT 1
VIEWPOINT 0 0 0 1 0 0 0
POINTS 1403
DATA ascii
0.016998461 0.00127 -0.0005037036
0.012602308 0 -0.026544444
0.0093784612 0.00127 -0.020692592
0.0055684615 -0.00127 -0.020985184
0.020222308 0 -0.015718518
0.0023446153 0.0003175 -0.023033332
0.0032238462 0.00127 -0.00079629617
-0.02286 -0.0003175 -0.009866666
0.014067692 0 -0.019229628
-0.0052753845 0 8.1481565e-05
0.01905 0.000635 -0.019522222
0.016119231 -0.00095249998 -0.021277778
0.012016154 -0.0003175 -0.021277778
-0.010257692 0 -0.018937036
0.0049823076 0.0003175 -0.016888889
0.010257692 -0.0003175 -0.022448147
-0.0099646151 0 -0.0054777777
-0.013481539 0.00127 -0.0013814814
-0.01992923 0.00127 -0.0010888887
-0.018463846 -0.00127 -0.021277778
0.0026376923 -0.0003175 0.0021296297
-0.0049823076 0.0003175 -0.01718148
0.025204616 0.0003175 -0.012792592
0.01524 -0.0003175 -0.023325926
0.0023446153 0.00127 -0.0010888887
0.00029307691 -0.00127 -0.020985184
-0.0026376923 0.0003175 -0.009866666
0.012602308 -0.0003175 -0.0043074074
0.02667 0.0003175 -0.019522222
-0.017877692 -0.0003175 -0.015133332
-0.0084992303 -0.00127 -0.020399999
0.020515384 0 -0.011037037
-0.010257692 -0.00127 -0.020399999
-0.023153076 0 -0.018644445
0.022566922 0 -0.026837036
0.0049823076 0 -0.0095740734
-0.02373923 0.00095249998 -0.020399999
0.020515384 0 8.1481565e-05
0.012602308 0.0003175 -0.014548148
0.020222308 -0.00127 -0.00021111102
0.017877692 0 -0.023325926
0.012895385 0.0003175 -0.021862963
-0.0014653846 0 -0.019229628
0.013774616 0.00127 -0.019814814
0.017584614 -0.0003175 -0.016888889
-0.010257692 -0.0003175 -0.025959259
-0.00029307691 0 -0.024788888
-0.0026376923 0 -0.0054777777
-0.0079130773 -0.00127 -0.020692592
-0.020222308 -0.0003175 -0.018937036
0.0079130773 0 -0.024496296
0.0082061542 -0.00127 -0.020692592
0.010257692 -0.0003175 -0.010451851
-0.0070338459 -0.00127 -0.001674074
-0.012309231 0.00127 -0.020985184
-0.016998461 -0.00127 -0.0005037036
0.014360769 -0.00095249998 -0.00021111102
-0.0099646151 0 -0.013962963
0.026083846 0.00127 -0.001674074
-0.02579077 0.00127 -0.020107407
0.0061546154 -0.00095249998 -0.021277778
0.02286 0.00095249998 -0.00021111102
-0.012602308 -0.0003175 -0.024203703
-0.012602308 0 -0.02274074
-0.0026376923 -0.00127 -0.00021111102
0.015533077 0 -0.0048925923
-0.011136923 0.0003175 -0.021277778
-0.02286 -0.00127 -0.020107407
0.026376924 0.0003175 -0.00021111102
-0.0052753845 0.0003175 -0.0034296294
0.0026376923 0 -0.01367037
-0.017877692 0.0003175 -0.023325926
0.0049823076 0 -0.0066481479
-0.0082061542 0.00127 -0.0010888887
-0.0052753845 -0.0003175 -0.022448147
-0.020222308 -0.00095249998 -0.019522222
0.0052753845 0 -0.0075259255
0.025497692 0 -0.012792592
0.017584614 -0.00127 -0.001674074
-0.020515384 0.0003175 0.0015444445
-0.0052753845 0 -0.026544444
0.026376924 -0.000635 -0.020107407
0.012602308 0.0003175 -0.018351851
0.0029307692 0.00127 -0.00021111102
-0.022566922 0 -0.0066481479
-0.0093784612 0.00127 -0.00079629617
0.020222308 0.0003175 -0.017474074
0.015533077 0 -0.0078185182
-0.017877692 0.0003175 -0.0095740734
-0.0082061542 0 -0.021277778
0.01992923 0.00127 -0.001674074
0.014653846 0.0003175 -0.019229628
0.0087923072 -0.00095249998 -0.021277778
0.0052753845 -0.0003175 -0.014548148
0.025497692 0 -0.024788888
0.018463846 0.000635 -0.019814814
-0.020222308 -0.00095249998 -0.021277778
-0.025497692 0.00127 -0.020107407
-0.0049823076 0.0003175 -0.0069407406
0.0035169229 0.0003175 -0.021277778
0.020222308 0 -0.017766666
-0.0038099999 -0.00127 -0.001674074
-0.020515384 -0.0003175 -0.015718518
-0.010257692 0 -0.015425925
-0.025497692 0 -0.018644445
0.023153076 0 -0.012792592
0.017584614 -0.0003175 -0.017766666
0.0026376923 0 -0.018644445
-0.0026376923 0.00127 -0.0010888887
0.0041030771 0.00127 -0.020399999
-0.014067692 0.000635 -0.019814814
0.018170768 0.00127 -0.020399999
0.012602308 -0.0003175 -0.023618517
-0.020515384 0 -0.023033332
-0.0070338459 -0.0003175 -0.019814814
-0.014067692 0.00127 -0.019814814
-0.025204616 -0.00127 -0.0022592591
-0.0099646151 0 -0.026837036
0.012602308 0.0003175 -0.017474074
-0.014360769 0.00127 -0.00079629617
0.00029307691 0.000635 -0.0022592591
-0.023446154 0.0003175 -0.0022592591
-0.025497692 0.0003175 -0.023033332
-0.014653846 0.00095249998 -0.019814814
0.014653846 -0.00127 -0.0019666664
0.023446154 0.000635 -0.021277778
-0.018756922 0 -0.02157037
-0.024618462 -0.00127 -0.020107407
-0.017877692 -0.0003175 -0.018351851
0.0082061542 -0.0003175 -0.019229628
-0.020222308 0 -0.022155555
-0.012602308 0.0003175 -0.026251851
0.0049823076 0.0003175 -0.012207407
0.01992923 0.00127 -0.020985184
-0.021687692 -0.000635 -0.021277778
0.0052753845 0 -0.0048925923
-0.02286 0 -0.012207407
0.020222308 0.0003175 -0.026544444
-0.017291538 -0.00127 -0.020985184
-0.013774616 -0.0003175 -0.021277778
-0.0014653846 0 -0.0022592591
-0.0032238462 -0.00127 -0.00021111102
0.01524 -0.0003175 -0.010451851
0.01905 0.00127 -0.021277778
0.0049823076 -0.0003175 -0.0034296294
0.013774616 0.0003175 -0.019229628
0.022566922 0 0.00066666672
-0.02286 -0.0003175 -0.023325926
-0.0049823076 0 -0.02274074
0.0035169229 -0.0003175 -0.020107407
-0.0020515386 0.000635 -0.020692592
0.020222308 -0.00127 -0.0019666664
0.016998461 0.00127 -0.0019666664
0.0099646151 0.0003175 -0.012792592
0.024911538 0.0003175 -0.021277778
-0.022566922 0 -0.015425925
0.00058615382 0.00127 -0.0013814814
0 -0.0003175 0.0015444445
0.024325384 0.00127 -0.00079629617
-0.01524 0 -0.013085185
0.0023446153 0 -0.026251851
-0.010550769 -0.0003175 -0.019814814
-0.0099646151 -0.0003175 -0.011329629
-0.023153076 -0.00127 -0.020985184
0.016998461 0 -0.021277778
-0.00029307691 0 -0.011037037
-0.026376924 -0.00095249998 -0.0010888887
-0.020808462 0.00127 -0.0010888887
0.020515384 0.0003175 -0.0057703704
-0.01524 -0.00127 -0.0010888887
-0.0043961536 0.00127 -0.00079629617
0.0049823076 0.00127 -0.020985184
0.0052753845 0 0.00037407415
0.00087923073 0.0003175 -0.019814814
-0.0049823076 -0.0003175 -0.025959259
0.014653846 0.00127 -0.020985184
0.025497692 -0.00095249998 -0.019229628
-0.018463846 -0.00127 -0.020985184
0.017584614 -0.0003175 -0.026544444
-0.00029307691 0.00127 -0.0022592591
-0.0058615385 0.00095249998 -0.0022592591
0.017877692 0.0003175 -0.0066481479
-0.0011723076 -0.00095249998 -0.0022592591
-0.0049823076 -0.0003175 -0.019229628
0.017877692 -0.0003175 -0.012792592
0.0026376923 0 -0.0031370369
-0.018463846 0.00127 -0.001674074
0.017877692 -0.0003175 -0.025666665
-0.023153076 0 0.0024222222
0.02579077 0.00095249998 -0.019522222
0.0049823076 -0.000635 -0.0005037036
-0.019636154 0.00127 -0.0005037036
-0.012602308 0.0003175 -0.016888889
-0.01143 0.00127 -0.020692592
-0.015826155 0.00127 -0.0022592591
-0.014946923 0 -0.016888889
0.0058615385 -0.00095249998 -0.021277778
0.0058615385 0.00095249998 -0.0022592591
0.023446154 -0.00127 -0.020399999
-0.0052753845 -0.000635 -0.0022592591
-0.02667 0.0003175 -0.001674074
-0.020222308 0 0.0012518519
-0.017291538 -0.00095249998 -0.019522222
0.012602308 -0.00127 -0.001674074
-0.016119231 0.00095249998 -0.0022592591
-0.0023446153 0 -0.011622222
0.0023446153 0.0003175 -0.010744444
-0.025497692 0.00095249998 -0.019229628
0.02286 0.0003175 -0.0040148147
-0.017877692 -0.0003175 -0.01367037
-0.021394616 -0.000635 -0.019229628
0.0049823076 0.0003175 -0.019229628
-0.019636154 0 -0.021277778
0.0099646151 0.0003175 -0.02274074
-0.014360769 0.00127 -0.0022592591
-0.01992923 0.00127 -0.0019666664
0.018756922 0.00127 -0.00079629617
0.019636154 -0.0003175 -0.019229628
0.011723077 -0.00127 -0.020985184
0.012602308 0 -0.016596295
0.010257692 0 -0.013377777
0.0052753845 0 -0.0084037036
-0.017877692 0 -0.012207407
-0.015533077 0 -0.024496296
-0.0020515386 0.00127 -0.00021111102
-0.025497692 -0.0003175 -0.024496296
-0.01524 0.0003175 0.00037407415
0.020222308 0 -0.0089888889
-0.0049823076 -0.00127 -0.021277778
0.0096715381 0.00127 -0.0013814814
-0.02286 -0.0003175 -0.014548148
-0.014653846 -0.00127 -0.019814814
-0.0073269228 0 -0.0095740734
0.01524 -0.0003175 -0.016303703
0.025204616 0.0003175 -0.024788888
0.021101538 -0.00095249998 -0.0022592591
-0.011723077 -0.00127 -0.0005037036
-0.014067692 -0.00127 -0.001674074
0.020222308 0 -0.0034296294
-0.018463846 0.00127 -0.019814814
0.021394616 0 -0.00021111102
-0.02667 0 -0.020399999
-0.014946923 0.00127 -0.019814814
0.021394616 0.00095249998 -0.0022592591
0.00029307691 -0.0003175 -0.02508148
-0.0046892306 0.00127 -0.0013814814
0.02286 0.00127 -0.019522222
-0.01143 0 -0.021277778
0.0052753845 0 -0.0089888889
0.024032308 0.00127 -0.019522222
0.01524 0.0003175 -0.012207407
0.025497692 0 -0.012207407
0.020222308 -0.0003175 -0.02157037
-0.012602308 0.0003175 -0.025959259
-0.0058615385 0.00127 -0.0022592591
0.016998461 -0.00127 -0.001674074
-0.0064476924 -0.00127 -0.0019666664
0.017584614 0.0003175 0.00037407415
-0.019636154 -0.00127 -0.020692592
-0.015533077 0 -0.0048925923
0.010257692 -0.00127 -0.020692592
-0.01992923 0.0003175 -0.00021111102
0.0099646151 0.0003175 -0.0063555553
-0.01524 -0.0003175 -0.01367037
0.0049823076 0.0003175 -0.0054777777
-0.014360769 0.00095249998 -0.0022592591
0.0076199998 -0.0003175 -0.0095740734
0.0099646151 0 -0.0075259255
0.0026376923 0.0003175 -0.005185185
0.025204616 0.0003175 -0.011329629
-0.02373923 0 -0.00021111102
-0.012602308 -0.0003175 -0.0060629626
-0.020808462 0.00127 -0.019814814
0.0026376923 0.0003175 -0.019229628
0.0026376923 0.0003175 -0.0028444442
0.025204616 0.0003175 -0.0054777777
-0.011723077 0.00127 -0.019814814
-0.0090853842 -0.0003175 -0.021277778
0.023153076 0.00095249998 -0.00021111102
-0.0079130773 0 -0.023325926
0.017877692 -0.0003175 -0.02712963
-0.012602308 0.0003175 -0.0078185182
-0.017291538 -0.00127 -0.0005037036
0.0032238462 0.0003175 -0.0022592591
0.013481539 0.00127 -0.00021111102
0.013481539 -0.00127 -0.019814814
-0.017584614 0 -0.027422221
0.016119231 0.00127 -0.00079629617
0 -0.0003175 0.001837037
-0.017584614 0 -0.022155555
0.016119231 -0.000635 -0.019814814
-0.0026376923 0.0003175 -0.0054777777
-0.0082061542 -0.0003175 -0.021277778
0.020515384 0.0003175 -0.011329629
-0.01992923 -0.00127 -0.020985184
-0.0038099999 0.00095249998 -0.0022592591
-0.0099646151 0.00127 -0.0013814814
0.011723077 0.00127 -0.020985184
-0.0070338459 0 -0.0022592591
-0.011723077 0 -0.021277778
0 0.0003175 -0.013962963
-0.010257692 0.0003175 0.001837037
-0.0073269228 0 -0.02274074
0.013188462 0.00095249998 -0.00021111102
0.01992923 -0.000635 -0.0022592591
0.015533077 -0.00127 -0.020399999
-0.026376924 -0.0003175 -0.021277778
-0.020222308 0 -0.0031370369
0.0076199998 0.00127 -0.00079629617
0.0079130773 0 -0.0031370369
-0.0058615385 -0.00127 -0.0022592591
0.015533077 0 -0.015425925
0.012309231 -0.0003175 -0.0022592591
0.0038099999 -0.0003175 -0.020399999
-0.017877692 0.000635 -0.019522222
-0.012602308 0 0.0015444445
-0.01524 -0.0003175 -0.011329629
-0.020222308 -0.0003175 0.0015444445
-0.017877692 0.000635 -0.0005037036
-0.0026376923 0.0003175 -0.0089888889
0.00029307691 -0.00127 -0.0019666664
0.0052753845 0.00095249998 -0.021277778
0.010257692 0 -0.017474074
0.020222308 0.0003175 -0.0025518518
0.012895385 0.0003175 -0.0031370369
0.010550769 -0.0003175 -0.019229628
0.010843846 0.0003175 -0.0022592591
0.02579077 -0.00127 -0.00079629617
0.0023446153 0 -0.0075259255
-0.00029307691 0 -0.012499999
0.010257692 0 -0.011622222
-0.025497692 -0.000635 -0.019522222
0.011723077 -0.00127 -0.020692592
0.0079130773 0 -0.0048925923
0.024618462 -0.0003175 -0.0005037036
-0.00058615382 -0.000635 -0.020692592
0.0014653846 0 -0.00021111102
0.00087923073 0 -0.0022592591
-0.00087923073 -0.00127 -0.001674074
-0.012602308 -0.00127 -0.020985184
-0.0082061542 0.00127 -0.021277778
-0.016998461 0 -0.00021111102
0.017877692 0.0003175 -0.02712963
-0.015533077 0 -0.013085185
-0.02667 -0.000635 -0.0022592591
-0.00029307691 0.0003175 -0.014255555
0.025497692 0 8.1481565e-05
-0.0049823076 -0.0003175 -0.022155555
0.0046892306 -0.0003175 -0.0022592591
-0.0076199998 0.0003175 -0.02712963
-0.024911538 -0.00127 -0.019229628
-0.024911538 0.000635 -0.0005037036
0.02286 -0.0003175 -0.013085185
0 -0.0003175 -0.0075259255
0.015533077 0 -0.0043074074
-0.0052753845 0.0003175 -0.023911111
0.00058615382 -0.0003175 -0.0022592591
0.017877692 -0.0003175 -0.0028444442
0.00029307691 -0.000635 -0.020692592
0.0043961536 0.00127 -0.020692592
-0.026376924 0.000635 -0.0022592591
-0.012895385 -0.00127 -0.0013814814
-0.013188462 -0.00095249998 -0.021277778
-0.0023446153 -0.0003175 -0.0063555553
-0.0079130773 -0.000635 -0.0005037036
-0.019343076 0.0003175 -0.0022592591
-0.02286 -0.0003175 -0.012792592
0.0023446153 0.00095249998 -0.021277778
0.0049823076 0 0.0024222222
-0.020808462 0.00127 -0.0019666664
-0.01992923 -0.000635 -0.0022592591
-0.023446154 -0.00127 -0.0019666664
-0.025497692 -0.0003175 -0.0072333328
0.0038099999 0.00127 -0.020985184
0.016412308 -0.000635 -0.0005037036
0.0096715381 0.000635 -0.020399999
0.0026376923 0.00127 -0.020692592
0.0049823076 0 -0.0084037036
0.024032308 0.000635 -0.021277778
0.0023446153 0.00127 -0.0022592591
0.012602308 -0.0003175 -0.0095740734
0.019636154 0 -0.021277778
-0.0023446153 0 -0.0078185182
0 0.0003175 -0.011622222
-0.010257692 0 -0.018644445
0.020222308 0.0003175 -0.0084037036
-0.017877692 -0.00127 -0.019522222
-0.022273846 0.00127 -0.0010888887
-0.017584614 -0.0003175 -0.021862963
0.020222308 0.0003175 -0.024788888
0.014067692 0.00127 -0.021277778
0.026083846 -0.00127 -0.0013814814
0.00058615382 -0.00095249998 -0.00021111102
0.020515384 0.0003175 -0.026544444
0.018170768 0.00127 -0.019814814
0.017877692 -0.00095249998 -0.00021111102
0.017877692 -0.0003175 0.00037407415
0.0076199998 -0.0003175 -0.0048925923
0.0052753845 -0.0003175 0.00037407415
0.015533077 0 -0.017766666
0.019343076 0.00127 -0.020107407
0.021687692 0.00127 -0.019522222
-0.023153076 0.00127 -0.0019666664
-0.0070338459 -0.0003175 -0.0022592591
0.017291538 -0.00127 -0.0005037036
0.020515384 -0.0003175 -0.02712963
0.012895385 0.0003175 -0.011914815
-0.020515384 -0.000635 -0.0022592591
0.01524 0.0003175 -0.011037037
-0.015826155 0.00127 -0.019522222
0.01524 0 -0.013962963
-0.017584614 0.00095249998 -0.021277778
-0.0096715381 -0.00095249998 -0.0022592591
-0.010257692 0.0003175 -0.026251851
0.010257692 -0.0003175 -0.023325926
0.017584614 0 0.00095925934
0.017584614 -0.0003175 0.001837037
0.0099646151 0 8.1481565e-05
-0.012016154 -0.000635 -0.0022592591
0.0046892306 0.0003175 -0.020107407
-0.0049823076 0 -0.0092814816
-0.014653846 0.00095249998 -0.00021111102
0 0.0003175 -0.023033332
0.026376924 -0.00095249998 -0.0013814814
0.020515384 0 -0.012792592
-0.01524 -0.0003175 -0.022448147
0.017584614 0 -0.022448147
0.0014653846 -0.0003175 -0.020107407
-0.015533077 -0.00127 -0.0005037036
0.0099646151 0.0003175 -0.013962963
0.0076199998 -0.0003175 0.0015444445
-0.01992923 -0.00127 -0.020399999
-0.0029307692 0 -0.00021111102
0.0052753845 -0.0003175 -0.014255555
0.02286 0.0003175 -0.013962963
0.0073269228 0 -0.012499999
-0.0093784612 -0.00095249998 -0.021277778
0.020222308 0.0003175 -0.010744444
0.024325384 0.00127 -0.0005037036
-0.024911538 0.00127 -0.019522222
-0.015533077 0 -0.0060629626
0.0041030771 0 -0.019229628
-0.025497692 0 -0.0089888889
-0.01143 -0.0003175 -0.0022592591
0.02286 -0.0003175 -0.013377777
-0.0058615385 0.00127 -0.0005037036
-0.022273846 0.00127 -0.0022592591
-0.0023446153 0.00095249998 -0.00021111102
0.010257692 0.0003175 -0.013962963
0.0026376923 0.0003175 -0.011622222
-0.01524 -0.0003175 -0.0063555553
0.0046892306 0.00127 -0.00021111102
0.012895385 0.0003175 -0.019814814
0.019343076 0.0003175 -0.0022592591
-0.012309231 -0.00127 -0.0013814814
-0.0011723076 0.000635 -0.0005037036
-0.025497692 0.0003175 -0.011914815
0.013774616 -0.00127 -0.0010888887
-0.00029307691 -0.0003175 -0.019522222
0.025497692 0.00095249998 -0.021277778
-0.012016154 0.0003175 -0.00021111102
0.02373923 0.00095249998 -0.00021111102
0.0038099999 0.0003175 -0.00021111102
-0.0041030771 -0.0003175 -0.019814814
0.024325384 0.00127 -0.019229628
0.0017584615 0 -0.0022592591
0.0052753845 0.0003175 -0.0028444442
0.0082061542 0.00127 -0.0013814814
0.010550769 0.00127 -0.0013814814
0.010257692 0.0003175 -0.010159259
0.025497692 0.0003175 -0.01367037
-0.0093784612 -0.0003175 -0.019229628
0.0099646151 0 -0.015718518
0.0026376923 0.0003175 -0.00021111102
0.0076199998 0.0003175 -0.01367037
-0.010257692 0 -0.0066481479
-0.02579077 -0.00095249998 -0.021277778
-0.010257692 0.0003175 -0.025959259
0.0099646151 0.0003175 -0.018351851
-0.025497692 -0.0003175 -0.0060629626
0.0046892306 0 -0.0022592591
-0.020515384 -0.0003175 -0.022448147
-0.01524 0 0.0030074073
0.019343076 -0.00127 -0.001674074
-0.016119231 0.0003175 -0.00021111102
0.016998461 0.0003175 -0.019522222
0.0026376923 0.0003175 0.0024222222
-0.020222308 0 0.00037407415
0.0093784612 -0.00127 -0.0005037036
-0.00087923073 -0.00127 -0.0010888887
-0.023153076 0 0.00037407415
-0.012602308 0 -0.018351851
0.0082061542 0.0003175 -0.019522222
0.017584614 0.0003175 -0.010159259
-0.012016154 0.00127 -0.00021111102
-0.020515384 0 0.0027148149
-0.025204616 0 -0.016011111
-0.0035169229 -0.0003175 -0.019522222
-0.021101538 0.00127 -0.019522222
0.0052753845 0 -0.005185185
0.0079130773 0 -0.015425925
0.0096715381 0.0003175 -0.0022592591
0.0099646151 -0.0003175 -0.016888889
0.0052753845 0.00127 -0.0013814814
-0.00029307691 0.0003175 -0.0028444442
-0.00029307691 0.0003175 -0.0089888889
-0.012895385 -0.0003175 -0.022155555
-0.025204616 -0.00095249998 -0.021277778
0.021394616 -0.00095249998 -0.00021111102
0.025204616 0.00127 -0.020985184
0.010843846 0.00095249998 -0.0022592591
-0.0093784612 0 -0.02157037
0.014946923 0.000635 -0.021277778
-0.018756922 0.00127 -0.0022592591
0.015533077 0 -0.013085185
0.0099646151 -0.00127 -0.020985184
0.018463846 -0.0003175 -0.021277778
0.017877692 0 -0.011329629
-0.016705384 0.00127 -0.020399999
-0.012016154 0.00127 -0.0022592591
-0.0064476924 -0.00127 -0.020107407
-0.0079130773 -0.00095249998 -0.0022592591
-0.017877692 -0.0003175 -0.0034296294
-0.011723077 0.00127 -0.0005037036
0.010550769 -0.0003175 -0.00021111102
-0.016998461 -0.00127 -0.020985184
-0.0079130773 0.00095249998 -0.0022592591
-0.012895385 0 -0.005185185
-0.025497692 0 -0.016596295
-0.010843846 -0.00127 -0.020399999
-0.025497692 0.0003175 -0.022448147
0.016412308 -0.00127 -0.0019666664
-0.0099646151 0 -0.0025518518
0.0076199998 0.0003175 -0.01718148
-0.015533077 0 -0.0089888889
-0.02373923 -0.00095249998 -0.021277778
0.0058615385 0.00127 -0.020399999
0.0029307692 -0.0003175 -0.020107407
-0.0029307692 0.000635 -0.0005037036
-0.01143 0.00127 -0.021277778
0.014067692 0.00127 -0.020985184
-0.024325384 -0.0003175 -0.021277778
0 0.0003175 -0.0092814816
0.0099646151 -0.0003175 -0.016596295
-0.00029307691 0.0003175 -0.015718518
-0.014946923 -0.0003175 -0.0022592591
0.023446154 -0.000635 -0.0005037036
-0.025204616 0 -0.0025518518
-0.017877692 0.0003175 -0.0069407406
0.0099646151 -0.00127 -0.020399999
-0.0023446153 -0.0003175 0.00095925934
0.0052753845 0.00095249998 -0.0022592591
0.01992923 0.00095249998 -0.0022592591
0.021394616 0.00127 -0.0005037036
0.0052753845 0.000635 -0.0022592591
0.0079130773 0.00127 -0.021277778
-0.0079130773 0.00127 -0.0022592591
0.013774616 -0.0003175 -0.019522222
-0.020515384 0.0003175 -0.02508148
-0.014360769 0 -0.021277778
0.0017584615 0.00127 -0.001674074
-0.02286 -0.0003175 -0.013962963
-0.01524 -0.0003175 -0.012207407
0.01524 -0.00095249998 -0.021277778
0.025204616 -0.0003175 -0.00021111102
-0.025204616 -0.0003175 -0.018351851
0.019636154 0.00127 -0.020985184
0 0.0003175 -0.0089888889
-0.012895385 -0.0003175 -0.016888889
0.012016154 0.00127 -0.020107407
-0.02286 -0.0003175 -0.01367037
0.015533077 0 -0.010451851
-0.02667 0.0003175 -0.0013814814
0.0073269228 -0.00127 -0.0022592591
-0.0043961536 -0.00127 -0.020985184
0.024618462 -0.000635 -0.019522222
-0.0076199998 0 -0.026544444
0.010550769 -0.00127 -0.0013814814
-0.017877692 0 -0.0031370369
-0.01524 0.00127 -0.020985184
-0.011723077 -0.00127 -0.0019666664
-0.0076199998 -0.0003175 -0.0025518518
-0.019636154 0.00127 -0.0010888887
0.018756922 0 -0.021277778
-0.0073269228 -0.00127 -0.021277778
-0.0049823076 0 -0.016596295
0.017877692 -0.0003175 0.001837037
0.015826155 0 -0.019229628
-0.014946923 0 -0.025666665
-0.020515384 0.0003175 -0.01367037
-0.025204616 0 -0.027422221
0.017877692 0.0003175 -0.019229628
0.012309231 0.00127 -0.0019666664
0.023446154 -0.00095249998 -0.019522222
0.0049823076 -0.0003175 -0.017766666
0.025497692 0 0.0030074073
0.017584614 0.0003175 -0.019229628
0.020222308 0 -0.024203703
-0.0076199998 -0.0003175 -0.023033332
-0.025204616 0 -0.012792592
-0.013481539 -0.00127 -0.020107407
-0.025497692 -0.00127 -0.0005037036
-0.02286 0 -0.02274074
0.0014653846 -0.000635 -0.0022592591
0.013481539 0.000635 -0.020107407
-0.010257692 0 -0.0045999996
-0.0049823076 0.0003175 -0.025666665
0.00058615382 0.00127 -0.021277778
-0.0023446153 -0.000635 -0.0005037036
-0.017877692 0 -0.016303703
0 0.0003175 -0.0031370369
0.02373923 0.00095249998 -0.0022592591
-0.022273846 0.00127 -0.019814814
-0.018756922 0.00127 -0.0019666664
-0.015533077 -0.00127 -0.00079629617
-0.02286 0.0003175 0.00095925934
-0.014067692 0.00095249998 -0.021277778
-0.0026376923 -0.0003175 -0.022155555
0.018170768 0.00095249998 -0.021277778
0.0099646151 -0.0003175 -0.014548148
-0.0049823076 -0.0003175 -0.023618517
0.0043961536 0.00095249998 -0.00021111102
0.016998461 0.00095249998 -0.019522222
0.021394616 0.00127 -0.019522222
0.020222308 0.0003175 0.0027148149
0.0026376923 -0.0003175 0.00066666672
0.0076199998 0.000635 -0.019814814
0.0061546154 0.0003175 -0.00021111102
-0.022566922 0 -0.016303703
-0.0026376923 0.0003175 -0.0081111109
0.01524 0.00095249998 -0.0022592591
0.017291538 -0.0003175 -0.0022592591
0.012895385 0 -0.0075259255
0.026376924 0.00095249998 -0.001674074
-0.0055684615 0.000635 -0.021277778
0.025204616 -0.00127 -0.020985184
0.01524 0 -0.025374074
0.022566922 -0.00127 -0.00021111102
0.0046892306 0.00127 -0.0013814814
0.020515384 -0.0003175 -0.018937036
-0.020515384 0.0003175 -0.024496296
-0.010257692 0.0003175 -0.0072333328
-0.024325384 -0.00127 -0.00021111102
0.0017584615 0.0003175 -0.00021111102
-0.020222308 0.00127 -0.0013814814
0.010257692 0.0003175 -0.0037222221
-0.0011723076 0.00095249998 -0.020985184
0.0032238462 0.00127 -0.0005037036
-0.0096715381 0.00127 -0.00079629617
0.02579077 0.00095249998 -0.020985184
-0.0052753845 0.00127 -0.021277778
0.0073269228 0 -0.024203703
-0.017584614 -0.0003175 0.0015444445
0.0026376923 0 -0.012499999
0.0026376923 0 -0.024496296
-0.0076199998 0.000635 -0.0005037036
-0.012895385 0 -0.02508148
0.013774616 0.0003175 -0.021277778
-0.016412308 -0.00127 -0.0019666664
-0.025497692 0 -0.011037037
0.01524 -0.0003175 0.0024222222
-0.01524 0.00127 -0.021277778
-0.013188462 -0.00127 -0.020692592
-0.0049823076 0.0003175 -0.023618517
0.0046892306 -0.00127 -0.0022592591
-0.021394616 0.00127 -0.0019666664
0.0055684615 0.00127 -0.001674074
-0.015826155 0.00127 -0.019814814
0.025497692 0.0003175 -0.02157037
-0.018170768 0.00127 -0.019522222
-0.012895385 -0.0003175 0.00066666672
0.0082061542 0.000635 -0.0005037036
-0.0049823076 -0.0003175 -0.026251851
0.01524 0.0003175 -0.00021111102
-0.012895385 0.0003175 0.0021296297
0.0049823076 0 -0.016011111
-0.017584614 0.0003175 -0.022448147
0.018170768 -0.00127 -0.019814814
0.012602308 0 -0.005185185
0.022566922 -0.00127 -0.00079629617
0.0052753845 -0.0003175 -0.0081111109
-0.013188462 0 -0.0022592591
-0.013481539 -0.00127 -0.0022592591
-0.022273846 0.00127 -0.00079629617
-0.012602308 0 -0.024203703
0.0049823076 0 -0.013962963
0.0026376923 -0.0003175 -0.025374074
0.0052753845 0 -0.012207407
-0.00087923073 0.0003175 -0.00021111102
-0.020222308 -0.0003175 -0.015425925
0.0026376923 0 -0.005185185
0.0099646151 0 -0.013962963
-0.01992923 -0.0003175 -0.019229628
0.0052753845 0.000635 -0.0005037036
0.0011723076 0.00127 -0.0022592591
0.0043961536 -0.000635 -0.0022592591
0.025497692 0 -0.024203703
0.010843846 0.0003175 -0.00021111102
0.010257692 -0.00095249998 -0.00021111102
-0.010257692 -0.0003175 -0.0086962963
-0.01524 -0.00127 -0.0019666664
-0.025497692 0 -0.026837036
0.010257692 0 -0.016303703
-0.0014653846 0.0003175 -0.019229628
0.0090853842 0.0003175 -0.021277778
0.012602308 -0.0003175 -0.012792592
-0.0038099999 -0.00127 -0.0022592591
-0.0026376923 0 -0.018937036
-0.012602308 0.0003175 -0.0031370369
-0.020808462 -0.000635 -0.0005037036
-0.010257692 -0.00127 -0.020985184
0.020222308 -0.0003175 -0.024496296
0.019636154 0.00127 -0.020399999
0.020515384 0 -0.023618517
-0.0011723076 0.000635 -0.020692592
0.0099646151 0 -0.025959259
0.01905 -0.0003175 -0.021277778
0.024032308 -0.00127 -0.0005037036
0.021101538 0.00127 -0.019522222
-0.0079130773 -0.00127 -0.020985184
0.0067407694 0.0003175 -0.0022592591
0.012895385 0.0003175 -0.012207407
-0.022566922 0 -0.014840741
-0.0076199998 -0.0003175 -0.015718518
-0.020222308 -0.0003175 -0.026544444
-0.024618462 -0.00127 -0.020692592
-0.012016154 -0.00127 -0.020692592
0.0041030771 -0.00127 -0.001674074
0.010257692 0 -0.018351851
-0.025204616 0 -0.026251851
-0.0073269228 -0.00095249998 -0.00021111102
-0.013774616 0.00127 -0.020107407
0.010257692 0.0003175 -0.015425925
0.012602308 0.0003175 -0.010451851
0.017877692 -0.0003175 -0.0072333328
0.01143 0.0003175 -0.0022592591
-0.022566922 0 -0.02274074
-0.0052753845 0 -0.011329629
0.01992923 0.00095249998 -0.019522222
0.025204616 -0.000635 -0.0022592591
0.0099646151 0.00127 -0.020107407
0.012895385 0 -0.005185185
-0.017584614 0 -0.02508148
-0.0026376923 0.0003175 -0.026544444
-0.010550769 0.00127 -0.021277778
-0.016119231 0.00127 -0.020399999
0.0035169229 -0.000635 -0.020692592
0.0049823076 0 -0.01718148
0.01143 -0.00127 -0.020107407
0.019636154 -0.00127 -0.001674074
0.01524 0.0003175 -0.0043074074
-0.0093784612 0.000635 -0.0005037036
0.0023446153 0.0003175 -0.009866666
0.02579077 0.0003175 -0.019229628
0.025204616 0.00127 -0.0022592591
0.025497692 -0.00127 -0.019814814
0.016705384 -0.000635 -0.0005037036
-0.01524 -0.0003175 -0.024203703
-0.015533077 -0.00127 -0.019522222
0.021101538 0.000635 -0.0022592591
0.023446154 -0.000635 -0.021277778
-0.0073269228 0 -0.0084037036
-0.0026376923 -0.0003175 -0.016303703
-0.0014653846 -0.00127 -0.00079629617
-0.017291538 0.00127 -0.0022592591
-0.010843846 0.00127 -0.0019666664
0.0076199998 -0.0003175 -0.011622222
0.010257692 0.000635 -0.020107407
-0.015533077 -0.00127 -0.020692592
-0.025204616 0 -0.0060629626
0.026376924 -0.000635 -0.0010888887
-0.01905 0 -0.019229628
0.025204616 0.0003175 -0.0057703704
0.011136923 0.00127 -0.0005037036
-0.0079130773 0 -0.005185185
0.012602308 0.0003175 -0.012792592
-0.0023446153 -0.0003175 -0.018059259
0.0096715381 0 -0.0022592591
-0.0052753845 -0.000635 -0.0005037036
0.016412308 0.0003175 -0.00021111102
0.010257692 0.0003175 -0.0075259255
0.0026376923 -0.0003175 -0.010744444
-0.013481539 0.00127 -0.020399999
-0.0096715381 -0.00127 -0.00021111102
0.0023446153 0.0003175 -0.0095740734
0.016998461 -0.00127 -0.00079629617
-0.014946923 0 -0.014255555
-0.0023446153 0 -0.015133332
0.025497692 0.00127 -0.020692592
0.0026376923 0 -0.022155555
0.017584614 0.000635 -0.0005037036
-0.024325384 0.00127 -0.001674074
0.0026376923 0.0003175 -0.025374074
-0.01905 -0.00127 -0.0010888887
-0.022566922 0 -0.023033332
-0.0079130773 0 -0.01367037
0.023446154 0.00127 -0.020985184
-0.02286 -0.00127 -0.0013814814
0.011723077 -0.00127 -0.00021111102
0 -0.00127 -0.020692592
-0.0099646151 -0.0003175 -0.0086962963
-0.02286 0.0003175 -0.02712963
-0.0096715381 -0.00127 -0.019814814
0.0099646151 0.0003175 -0.0069407406
-0.01905 0.00095249998 -0.019522222
-0.01524 0.0003175 -0.0089888889
0.0011723076 0.00095249998 -0.021277778
0.014653846 0.00127 -0.00021111102
-0.014360769 0.00095249998 -0.00021111102
0.01143 0 -0.021277778
-0.0052753845 -0.0003175 0.00037407415
0.025204616 0 -0.013377777
0.012602308 0.0003175 -0.0028444442
-0.0076199998 -0.0003175 -0.016596295
-0.025497692 0 -0.009866666
0.0076199998 0.0003175 -0.013377777
0.017584614 -0.00127 -0.021277778
-0.01992923 -0.00127 -0.0013814814
0.0035169229 0.0003175 -0.00021111102
0.02579077 -0.00127 -0.0010888887
0.02286 -0.0003175 -0.0057703704
0.024911538 0 -0.021277778
-0.02667 -0.0003175 -0.020985184
0.0052753845 -0.00127 -0.0019666664
0.01524 0 -0.0054777777
0.0020515386 -0.0003175 -0.019814814
0.02667 -0.0003175 -0.020107407
-0.025204616 -0.0003175 -0.0043074074
0.01524 0 -0.010744444
-0.0023446153 0 -0.010744444
0.017877692 0 -0.010744444
0.016119231 -0.00127 -0.001674074
-0.023446154 0 -0.0022592591
0.020222308 -0.0003175 -0.018351851
-0.02286 0.00127 -0.0022592591
0.01905 -0.000635 -0.019522222
-0.014067692 -0.00127 -0.0022592591
0.024325384 -0.0003175 -0.0022592591
-0.0017584615 -0.0003175 -0.019229628
0.017584614 -0.0003175 -0.025374074
-0.00029307691 0 -0.023911111
0.013188462 -0.000635 -0.019814814
-0.017291538 -0.0003175 -0.00021111102
-0.016705384 -0.00095249998 -0.021277778
-0.012309231 -0.00127 -0.0019666664
0.021394616 -0.0003175 -0.019229628
-0.018170768 -0.00127 -0.020107407
0.017877692 0.0003175 -0.0092814816
-0.016119231 0.000635 -0.019814814
-0.0061546154 -0.0003175 -0.0022592591
-0.022566922 0.00095249998 -0.0022592591
0.0026376923 0.0003175 -0.009866666
-0.012602308 -0.0003175 -0.01367037
0.022566922 0 -0.024496296
0.0023446153 0.000635 -0.0005037036
0.0099646151 0 -0.01718148
0.018756922 0.000635 -0.0005037036
0.013774616 -0.00095249998 -0.00021111102
0.02579077 -0.0003175 -0.0022592591
-0.020515384 0.00095249998 -0.0022592591
0.025497692 0.00127 -0.0013814814
0.0023446153 0 0.0012518519
0.010843846 0.0003175 -0.019522222
0.010257692 -0.00127 -0.0022592591
-0.0099646151 0 -0.011622222
-0.023446154 -0.0003175 -0.021277778
-0.0023446153 -0.0003175 -0.0054777777
0.018463846 0 -0.021277778
-0.0070338459 -0.00095249998 -0.00021111102
-0.0073269228 0.00095249998 -0.0022592591
0.025497692 0 -0.0028444442
-0.0029307692 0.0003175 -0.020107407
0.012895385 -0.0003175 0.0024222222
-0.023153076 0 -0.02508148
-0.012602308 0.0003175 -0.026544444
-0.0061546154 -0.00095249998 -0.021277778
0.020222308 0 -0.010159259
-0.0076199998 -0.00127 -0.021277778
0.025497692 0.0003175 -0.02712963
-0.018170768 0.00127 -0.0022592591
0.013188462 0.00127 -0.019814814
-0.024911538 0.00095249998 -0.020107407
-0.020515384 -0.00127 -0.020985184
0.0049823076 -0.0003175 -0.0031370369
0.012309231 0.0003175 -0.0022592591
-0.0026376923 0 -0.015718518
0.020222308 0.0003175 -0.0086962963
-0.016998461 -0.00127 -0.0013814814
0.010257692 0.0003175 -0.014840741
0.0055684615 0.000635 -0.0005037036
-0.023446154 0.00127 -0.00021111102
-0.0087923072 0.0003175 -0.021277778
-0.021394616 -0.000635 -0.0005037036
-0.0099646151 -0.0003175 -0.010159259
-0.00029307691 -0.00095249998 -0.0022592591
-0.0079130773 -0.00127 -0.0013814814
0.01905 0.00095249998 -0.021277778
-0.0099646151 0 -0.01718148
0.0032238462 0 -0.02157037
0.014360769 0.00127 -0.020985184
0.012602308 0 -0.02274074
-0.017584614 0 -0.0084037036
0.021394616 0.000635 -0.0005037036
-0.0096715381 0.0003175 -0.0022592591
0.0026376923 0.0003175 -0.0086962963
-0.01524 0.0003175 0.00066666672
0.0049823076 0.0003175 -0.023325926
0.0099646151 0 -0.018937036
-0.0029307692 0.0003175 -0.019814814
0.025204616 0 -0.0089888889
0.02286 0 -0.016888889
-0.0052753845 -0.0003175 0.0024222222
0.0082061542 0.00127 -0.00021111102
0.02579077 0.00127 -0.00021111102
0.0035169229 -0.00127 -0.0013814814
0.00029307691 0 0.001837037
-0.019636154 -0.00095249998 -0.021277778
-0.020222308 0.0003175 -0.025666665
-0.0055684615 -0.0003175 -0.019229628
-0.0070338459 -0.00127 -0.0013814814
0.0082061542 -0.00127 -0.021277778
0.016705384 0 -0.00021111102
0.023153076 -0.00127 -0.00079629617
0.025497692 0 -0.014255555
0.0067407694 0.0003175 -0.00021111102
-0.0049823076 0.00127 -0.0022592591
-0.023153076 0.0003175 -0.019229628
-0.0026376923 0.00127 -0.0005037036
-0.00058615382 0.00095249998 -0.020985184
-0.0064476924 -0.0003175 -0.020107407
0.012895385 -0.00127 -0.0022592591
-0.025497692 0.00127 -0.001674074
-0.013774616 -0.00095249998 -0.021277778
0.0049823076 0 -0.026251851
-0.022566922 0 -0.0048925923
0.017877692 0 0.0030074073
0.022273846 0.00127 -0.0022592591
-0.0026376923 0.000635 -0.020692592
-0.010843846 0 -0.00021111102
-0.019343076 0.00095249998 -0.0022592591
-0.00029307691 0 -0.018059259
-0.016705384 0.000635 -0.0005037036
0.017877692 0.0003175 -0.014548148
-0.016119231 -0.000635 -0.0005037036
-0.0087923072 0 -0.0022592591
0.0096715381 -0.000635 -0.021277778
0.017291538 -0.00127 -0.019229628
-0.0026376923 0 -0.0025518518
-0.0049823076 0.0003175 -0.011622222
0.02286 0.00127 -0.020107407
-0.0023446153 0.0003175 -0.00021111102
0.024911538 0 -0.0022592591
-0.0055684615 0 -0.0022592591
-0.014067692 -0.000635 -0.019814814
-0.014067692 0.00127 -0.0013814814
0.02286 -0.00127 -0.020692592
-0.0073269228 0 -0.0034296294
-0.022273846 -0.00095249998 -0.019229628
0.0079130773 0 -0.02508148
0.010257692 0 -0.0028444442
-0.025497692 0.0003175 0.0015444445
0.020515384 0.0003175 -0.023911111
0.0061546154 0.0003175 -0.021277778
-0.00029307691 0.0003175 8.1481565e-05
-0.020515384 0 -0.0072333328
-0.025497692 -0.0003175 -0.013377777
0.0079130773 0 -0.015133332
0.014946923 -0.000635 -0.019814814
0.024325384 -0.00127 -0.0013814814
-0.0026376923 0 -0.014548148
-0.0099646151 -0.0003175 -0.024496296
0.0043961536 -0.00095249998 -0.0022592591
-0.025497692 0.0003175 -0.010159259
0.010257692 -0.0003175 -0.005185185
0.0076199998 0 -0.02274074
0.012602308 0.0003175 -0.016596295
-0.024911538 -0.00127 -0.019522222
0.023153076 0 -0.0063555553
0.019636154 -0.00127 -0.0022592591
0.024032308 -0.00127 -0.001674074
0.012016154 0.00127 -0.0010888887
0.017877692 0 -0.0089888889
0.024618462 0.00127 -0.019522222
0.017584614 0.0003175 -0.026837036
0.0026376923 0.0003175 -0.011914815
0.020515384 0.0003175 -0.018059259
0.0020515386 0.00127 -0.0022592591
0.023153076 0 -0.018937036
-0.020222308 -0.0003175 -0.0028444442
-0.019343076 0.00095249998 -0.019522222
0.020515384 0 -0.0057703704
0.0049823076 -0.0003175 -0.02712963
0.020222308 -0.0003175 0.001837037
0.025204616 0.0003175 -0.0025518518
-0.022566922 0 0.0024222222
0.020515384 0.00127 -0.001674074
0.0026376923 -0.00127 -0.0005037036
0.0026376923 0.00127 -0.0010888887
-0.019343076 -0.00095249998 -0.019522222
-0.0023446153 0 -0.0028444442
0.01524 -0.0003175 0.00095925934
-0.022273846 -0.00127 -0.0010888887
0.020808462 0.00127 -0.0019666664
-0.02286 0.000635 -0.021277778
-0.010843846 -0.0003175 -0.0022592591
0.014653846 0 -0.0022592591
-0.019636154 -0.00127 -0.020399999
-0.0087923072 0.000635 -0.021277778
-0.00029307691 0.0003175 -0.024496296
0.010257692 0 -0.0063555553
0.01143 -0.00095249998 -0.0022592591
0.013481539 -0.00127 -0.0022592591
-0.0093784612 0.00127 -0.020985184
-0.014067692 0.0003175 -0.00021111102
-0.012602308 -0.0003175 -0.0034296294
0.0011723076 0 -0.0022592591
0.022566922 -0.00127 -0.019814814
-0.010257692 -0.00127 -0.00079629617
-0.017877692 0.0003175 -0.015133332
-0.015826155 -0.00127 -0.019522222
0.0032238462 0.00095249998 -0.0022592591
-0.0026376923 0.0003175 -0.012207407
-0.0035169229 0.00095249998 -0.021277778
-0.017877692 -0.00127 -0.0010888887
-0.012602308 0 -0.010744444
-0.017291538 -0.00127 -0.001674074
0.0052753845 0.0003175 -0.005185185
0.0026376923 0.0003175 -0.016888889
0.023153076 0 -0.024788888
-0.0070338459 0 -0.021277778
0.0041030771 0.000635 -0.021277778
-0.0067407694 0.00095249998 -0.0022592591
0.017584614 0.0003175 -0.024203703
0.0014653846 0.00127 -0.020692592
-0.0026376923 -0.0003175 -0.024203703
-0.017584614 0.00127 -0.0010888887
0.0093784612 -0.00095249998 -0.020107407
-0.012602308 0 -0.016596295
-0.016998461 0.000635 -0.0022592591
0.012895385 0 -0.015425925
0.02667 0.0003175 -0.00021111102
-0.01524 -0.0003175 -0.0075259255
0.0049823076 0.0003175 -0.012499999
-0.017291538 0.0003175 -0.00021111102
-0.022566922 0.00127 -0.020692592
0.0096715381 0.00127 -0.0010888887
0.0070338459 0.00127 -0.020399999
-0.0052753845 0 -0.0095740734
0.02198077 -0.00095249998 -0.00021111102
-0.0099646151 0.000635 -0.0022592591
0.0082061542 0.00095249998 -0.020399999
-0.00029307691 -0.00127 -0.0013814814
0.01524 0 -0.025959259
0.01524 -0.0003175 -0.005185185
0.0076199998 0.0003175 -0.023911111
0.0023446153 0.00127 -0.0019666664
0.012895385 0 -0.011622222
-0.00058615382 -0.00127 -0.001674074
-0.0064476924 0.0003175 -0.019229628
0.0070338459 0.0003175 -0.020107407
-0.012016154 0.00127 -0.020985184
-0.0049823076 -0.0003175 -0.0078185182
0.0061546154 0.000635 -0.020399999
0 0.0003175 -0.020399999
-0.0052753845 -0.00127 -0.020399999
0.025204616 -0.00127 -0.021277778
-0.020515384 -0.0003175 -0.0045999996
0.022566922 -0.000635 -0.0022592591
-0.012602308 0 -0.022155555
0.012602308 0 -0.027422221
0.012602308 0.0003175 -0.0025518518
-0.0017584615 0.00127 -0.00021111102
-0.01143 0.00127 -0.020399999
0.022566922 0.00095249998 -0.00021111102
-0.012602308 0.0003175 -0.013962963
-0.012602308 0 -0.01367037
-0.025204616 0 0.0021296297
0.01905 0 -0.021277778
-0.017877692 0.00127 -0.021277778
-0.015533077 0 -0.0054777777
-0.0026376923 0 -0.018059259
-0.02286 0.00127 -0.020107407
0.018756922 0.00095249998 -0.019522222
-0.0035169229 0.00127 -0.0013814814
-0.010257692 -0.0003175 -0.017766666
-0.0087923072 -0.000635 -0.0022592591
0.024032308 -0.000635 -0.019522222
0.025497692 0 -0.018059259
0.020222308 0 -0.014840741
-0.022566922 0.00127 -0.0019666664
0.015533077 0.00095249998 -0.019814814
-0.02667 0 -0.019229628
0.0052753845 0.00127 -0.0010888887
-0.015533077 0 -0.011914815
-0.02286 -0.00095249998 -0.021277778
0.0017584615 0.00127 -0.00079629617
0.0076199998 -0.00127 -0.0022592591
-0.02286 -0.0003175 8.1481565e-05
0.012602308 0.0003175 -0.015133332
-0.020222308 -0.0003175 -0.0092814816
-0.016412308 -0.00127 -0.021277778
-0.022273846 0 -0.019229628
-0.022566922 0 0.001837037
0.0023446153 0 -0.013085185
-0.014067692 -0.00127 -0.020399999
0.01143 -0.0003175 -0.019229628
0.0023446153 0.0003175 -0.01367037
-0.025204616 -0.0003175 -0.014548148
-0.010843846 -0.0003175 -0.019814814
0.019636154 0.00127 -0.0013814814
-0.024911538 0.00127 -0.00079629617
-0.013481539 -0.00127 -0.00079629617
-0.022566922 0 -0.014255555
0.020222308 0.0003175 -0.013377777
0.0052753845 -0.0003175 0.0024222222
0.025497692 0.0003175 -0.015133332
-0.0049823076 0.0003175 -0.009866666
0.01524 0.00127 -0.020692592
-0.0029307692 -0.00095249998 -0.00021111102
-0.0090853842 0.0003175 -0.0022592591
0.0093784612 0.000635 -0.0005037036
0.010257692 0.0003175 -0.015133332
0.010843846 -0.0003175 -0.019229628
-0.020222308 -0.0003175 -0.02274074
-0.0076199998 0.0003175 -0.0063555553
0.0076199998 0 -0.018644445
-0.017877692 0 -0.0092814816
-0.0058615385 0.0003175 -0.020107407
-0.015533077 0 -0.018937036
-0.0032238462 -0.00127 -0.0019666664
0.00029307691 -0.0003175 -0.023033332
-0.026376924 -0.0003175 -0.0022592591
-0.0064476924 -0.00127 -0.001674074
0.0076199998 0.0003175 -0.022155555
0.01524 -0.0003175 -0.019522222
0.0073269228 0 -0.016303703
0.0041030771 0.0003175 -0.020107407
-0.012895385 0.0003175 -0.019229628
0.0079130773 0 0.00095925934
0.014067692 0 -0.00021111102
0.020808462 0.000635 -0.0005037036
0.018756922 0.00127 -0.020107407
-0.0023446153 0 -0.0063555553
-0.0026376923 -0.00127 -0.0010888887
0.00058615382 0.000635 -0.020985184
-0.0076199998 -0.0003175 -0.016011111
0.024032308 -0.00127 -0.0010888887
0.02286 0.00095249998 -0.019229628
-0.0096715381 0.0003175 -0.02157037
-0.0049823076 -0.00127 -0.00021111102
0.0049823076 -0.0003175 -0.009866666
0.010257692 -0.00127 -0.0010888887
0.017877692 0 -0.015718518
0.016119231 -0.000635 -0.021277778
0.0017584615 -0.0003175 -0.00021111102
0.0099646151 0.0003175 -0.022155555
-0.020222308 -0.0003175 -0.01367037
-0.0023446153 0 -0.0025518518
-0.021394616 0.00127 -0.0005037036
-0.012602308 -0.000635 -0.0022592591
-0.02286 0.0003175 -0.016888889
-0.0049823076 0 -0.011914815
0.01524 -0.0003175 -0.013085185
-0.010257692 0.0003175 -0.019229628
-0.0029307692 0.00127 -0.001674074
0.012016154 0.00127 -0.00021111102
-0.00029307691 0 -0.0081111109
-0.010843846 -0.0003175 -0.019229628
0.025497692 0 -0.0066481479
-0.0011723076 0 -0.00021111102
-0.0052753845 -0.00127 -0.021277778
-0.010257692 -0.0003175 0.0027148149
-0.017877692 0.0003175 -0.0078185182
0 -0.0003175 -0.018937036
-0.011136923 -0.00127 -0.019814814
-0.012016154 0.00127 -0.020107407
0.014946923 -0.00127 -0.0022592591
0.010257692 -0.0003175 -0.014255555
0.015826155 0.00127 -0.0005037036
-0.020222308 0 -0.0060629626
0.010257692 0.0003175 0.0027148149
-0.0017584615 -0.00127 -0.020399999
0.024325384 0.00127 -0.0010888887
0 -0.0003175 -0.0063555553
-0.022566922 0 -0.010159259
0.02373923 0.000635 -0.0022592591
0 0.0003175 -0.021862963
0 0.0003175 -0.014548148
-0.020515384 -0.0003175 -0.026251851
0.0099646151 0.00127 -0.0022592591
-0.025204616 -0.0003175 -0.0048925923
0.010257692 0 -0.0031370369
-0.012602308 -0.0003175 -0.011329629
-0.0073269228 0.0003175 -0.02157037
0.017877692 -0.0003175 -0.0081111109
0.0026376923 -0.0003175 -0.011622222
0.0035169229 -0.0003175 -0.0022592591
-0.015533077 0.00127 -0.020985184
-0.023446154 0 -0.00021111102
0.012895385 0 -0.026251851
-0.0026376923 -0.0003175 -0.018351851
0.025204616 0 0.00095925934
-0.0099646151 -0.0003175 -0.0040148147
0.014360769 0.00127 -0.020692592
-0.016998461 -0.0003175 -0.019229628
-0.01905 0.00127 -0.021277778
-0.01992923 0 -0.0025518518
-0.0046892306 -0.00127 -0.021277778
0.00029307691 -0.0003175 -0.0092814816
0.012309231 0.00095249998 -0.020107407
-0.014946923 -0.00127 -0.0022592591
0.017291538 0.00127 -0.020107407
0.0079130773 0.0003175 -0.02157037
0.017877692 0.0003175 -0.023618517
0.02286 -0.00127 -0.0005037036
-0.020515384 0 -0.023325926
0.011723077 0.0003175 -0.0022592591
-0.017584614 -0.00095249998 -0.019522222
0.0049823076 -0.0003175 -0.021862963
-0.00087923073 -0.00127 -0.00079629617
0.0038099999 -0.0003175 -0.019229628
-0.0084992303 0 -0.019229628
-0.015533077 0 -0.0072333328
0.0067407694 0.00127 -0.00021111102
0.017584614 -0.0003175 -0.015718518
0.0076199998 0.00127 -0.001674074
0.01992923 -0.00127 -0.0010888887
0.021687692 0.00127 -0.021277778
0.012895385 -0.00127 -0.00021111102
-0.0011723076 0.0003175 -0.0022592591
0.01524 -0.0003175 -0.024203703
-0.0099646151 0 -0.026251851
0.022566922 0 -0.0043074074
-0.0055684615 -0.00127 -0.021277778
-0.016119231 -0.0003175 -0.021277778
-0.0043961536 0.0003175 -0.019814814
0.025204616 0.0003175 -0.01718148
-0.019636154 0.00127 -0.020985184
-0.025204616 0 -0.0072333328
-0.0026376923 0.0003175 -0.02157037
0.012602308 0 -0.0075259255
0.010257692 0.0003175 -0.022448147
-0.023153076 0 -0.0063555553
-0.012895385 -0.0003175 -0.02508148
0.02286 0 -0.027422221
0.01524 -0.0003175 -0.014255555
-0.018463846 0.00127 -0.020692592
0.022273846 0.00127 -0.021277778
0.0032238462 0.00127 -0.00021111102
0.020222308 0 -0.01718148
-0.0026376923 0.0003175 -0.027422221
-0.0076199998 0.0003175 -0.0043074074
0.0014653846 0.0003175 -0.02157037
0.016412308 0.000635 -0.019814814
0.01524 0 -0.016888889
0.017584614 -0.0003175 -0.0054777777
-0.02286 0 -0.017474074
-0.019636154 0 -0.019229628
-0.0026376923 0.0003175 -0.018937036
0.011723077 -0.0003175 -0.00021111102
-0.00029307691 -0.00095249998 -0.00021111102
-0.0020515386 0.000635 -0.0005037036
0.0099646151 0 -0.0066481479
-0.011723077 -0.00127 -0.020107407
0.0049823076 0 -0.014548148
0.025204616 0.00127 -0.019522222
0.010257692 -0.00127 -0.021277778
-0.021687692 0.00127 -0.0019666664
0.012309231 0.000635 -0.0005037036
-0.0035169229 0.0003175 -0.0022592591
-0.0049823076 -0.00127 -0.0019666664
0.0049823076 -0.0003175 -0.00021111102
0.010257692 -0.0003175 -0.0063555553
-0.0017584615 0.0003175 -0.019814814
0.012895385 -0.00127 -0.00079629617
-0.0049823076 -0.000635 -0.0005037036
0.00029307691 0 -0.018644445
0.021687692 -0.000635 -0.0005037036
0.011136923 -0.00127 -0.0010888887
0.020515384 0.0003175 -0.011622222
0.016705384 0.0003175 -0.0022592591
-0.014946923 0.0003175 -0.019522222
-0.017877692 0 -0.010744444
0.0099646151 0.0003175 -0.023911111
0.0049823076 0 -0.026837036
-0.022273846 0.000635 -0.0005037036
-0.0099646151 0 8.1481565e-05
0.0061546154 -0.0003175 -0.019229628
-0.017584614 0 -0.018937036
-0.01905 0.00095249998 -0.00021111102
0 0.0003175 -0.024203703
-0.0099646151 0 -0.024496296
-0.020515384 -0.0003175 -0.010744444
-0.010550769 0.0003175 -0.00021111102
0.014360769 -0.00127 -0.021277778
0.015533077 0.00127 -0.020692592
0.015533077 0 -0.0031370369
0.00029307691 -0.0003175 -0.011329629
-0.010550769 0.00127 -0.0005037036
0.0099646151 -0.0003175 -0.012792592
0 -0.00127 -0.0005037036
-0.012895385 0 -0.0072333328
0.025204616 0.0003175 -0.014840741
0.020222308 0.0003175 -0.010451851
0.0064476924 0.0003175 -0.019522222
0.0093784612 -0.0003175 -0.019522222
0.0029307692 0.0003175 -0.019814814
-0.0076199998 0.00127 -0.021277778
-0.02579077 -0.000635 -0.0022592591
-0.020222308 -0.0003175 -0.0081111109
-0.02286 0 -0.027422221
0.017584614 0.0003175 -0.02157037
0.015533077 0.00127 -0.0022592591
0.012602308 0.0003175 -0.024788888
0.0046892306 -0.000635 -0.0005037036
-0.0026376923 0 -0.010744444
-0.016412308 -0.0003175 -0.019229628
-0.0049823076 -0.0003175 -0.015133332
-0.013188462 -0.00127 -0.0005037036
0.010257692 -0.0003175 0.001837037
0.017584614 -0.00095249998 -0.0022592591
-0.017584614 0 -0.012792592
0.024618462 0.00127 -0.021277778
-0.017877692 0.0003175 -0.014255555
0.01524 -0.0003175 -0.0086962963
0.0023446153 0.0003175 -0.0063555553
-0.0076199998 0.00127 -0.00021111102
0.0026376923 0 0.001837037
0.0076199998 -0.0003175 8.1481565e-05
0.011723077 0.0003175 -0.00021111102
-0.020515384 -0.0003175 0.0024222222
-0.017584614 0 -0.0063555553
0.024325384 0.00095249998 -0.019229628
-0.014360769 -0.00127 -0.00079629617
0.0052753845 -0.0003175 -0.0086962963
0.00087923073 -0.000635 -0.021277778
0.012016154 -0.000635 -0.0022592591
0.012016154 0.0003175 -0.019229628
0.021101538 -0.00127 -0.0013814814
-0.00029307691 0 -0.013085185
0.0076199998 0.0003175 -0.024203703
-0.016998461 0.00095249998 -0.021277778
0.021687692 -0.00095249998 -0.00021111102
-0.026376924 0.00095249998 -0.0005037036
0.018756922 0.00095249998 -0.00021111102
-0.0017584615 -0.00127 -0.0013814814
-0.017877692 0 -0.011914815
0.02286 0.0003175 0.0021296297
0.012895385 0.0003175 -0.01367037
0.013188462 0.0003175 -0.019522222
-0.010257692 0.0003175 -0.015425925
-0.0073269228 -0.00127 -0.020985184
0.024911538 0.00095249998 -0.019229628
0.022273846 -0.00127 -0.0019666664
-0.00058615382 0.00127 -0.0022592591
-0.0035169229 0.0003175 -0.019229628
-0.015826155 0.000635 -0.019814814
-0.0058615385 0.0003175 -0.019229628
-0.0079130773 0 -0.0086962963
0.0096715381 0.00095249998 -0.0022592591
-0.012602308 0.0003175 -0.0086962963
0.012602308 -0.0003175 -0.0031370369
-0.0076199998 -0.0003175 -0.011914815
-0.017877692 0.0003175 -0.010451851
-0.0076199998 -0.0003175 -0.020107407
0.0020515386 0 -0.0022592591
-0.020515384 0 -0.024496296
-0.020808462 -0.00127 -0.00021111102
0.0058615385 0.000635 -0.021277778
0.0052753845 0 0.0015444445
0.017877692 0 0.0012518519
-0.022566922 0 -0.0037222221
-0.0049823076 0.0003175 -0.023325926
0.013481539 -0.0003175 -0.019229628
0.012602308 0.0003175 -0.016303703
-0.0026376923 0 -0.011622222
-0.02286 0.0003175 -0.018937036
0.0023446153 0 -0.015718518
-0.0082061542 -0.00127 -0.0022592591
-0.015533077 0 -0.026251851
-0.01992923 0.00127 -0.001674074
-0.0035169229 -0.00127 -0.0013814814
0.01905 -0.00127 -0.0005037036
-0.026083846 -0.0003175 -0.019229628
-0.0090853842 0.00127 -0.001674074
-0.012602308 0 -0.010451851
-0.01905 0 -0.0022592591
-0.014946923 0 -0.016596295
-0.0079130773 0 -0.016303703
-0.02286 0.0003175 -0.017474074
-0.010550769 -0.00127 -0.020985184
0.014653846 0 -0.019229628
-0.0023446153 -0.0003175 -0.00021111102
0.012602308 -0.0003175 -0.024788888
-0.020515384 0.000635 -0.019522222
-0.01992923 0.00095249998 -0.0022592591
-0.016412308 0.0003175 -0.021277778
-0.0082061542 -0.0003175 -0.019814814
0.014946923 0.000635 -0.0005037036
-0.025204616 0.0003175 -0.00021111102
-0.0041030771 0.0003175 -0.019229628
-0.0082061542 -0.00127 -0.020399999
-0.0046892306 0.00127 -0.00079629617
