# .PCD v0.7 - Point Cloud Data file format
VERSION 0.7
FIELDS x y z
SIZE 4 4 4
TYPE F F F
COUNT 1 1 1
WIDTH 1379
HEIGHT 1
VIEWPOINT 0 0 0 1 0 0 0
POINTS 1379
DATA ascii
-0.028907306 0.00095249998 -0.019202041
0.020431865 0.0003175 0.0020836734
-0.009837565 0.00095249998 -0.0021734694
-0.015286063 -0.0003175 -0.023763265
0.0186157 -0.00095249998 -4.4897959e-05
0.001967513 0 -4.4897959e-05
-0.012864508 0.0003175 -0.014640816
0.015286063 0.0003175 -0.012816327
0.025274975 0 -0.022242857
-0.020431865 -0.0003175 -0.0097755101
0.0022702073 0 -0.0055183675
0.0052971505 0.0003175 -0.010687755
-0.028907306 0 -0.017681632
-0.0022702073 -0.0003175 -0.0070387754
-0.014983368 0 -0.024067348
0.0007567358 -0.00127 -0.019202041
0.014680674 -0.00127 -0.019202041
0.017707618 0.0003175 -0.012816327
-0.016194146 0.0003175 -0.017681632
-0.019523783 -0.0003175 -0.017681632
0.0046917619 0.0003175 -0.018289795
0.022853421 0.0003175 -0.0055183675
-0.022550726 0 -0.010687755
0.024669586 0.000635 -0.017681632
0.02073456 0.00127 -0.019202041
0.011956425 -0.0003175 -0.017681632
0.02709114 -0.00127 -0.00095714285
0.022550726 0 -0.015857143
-0.020129172 0.0003175 -0.003389796
-0.015286063 0.00127 -0.0012612245
0.026485752 -0.00127 -0.018593878
-0.018010311 0.00127 -0.017985715
0.015588757 -0.00127 -0.019506123
-0.020431865 -0.00127 -0.018289795
-0.014075286 0.00095249998 -0.017985715
-0.012561814 0 -0.0046061226
0.0095348703 -0.00095249998 -0.017985715
-0.0022702073 0 0.0020836734
-0.017707618 0.0003175 -0.0094714286
0.00015134715 -0.0003175 -0.0116
-0.0074160104 0 -0.0043020407
0.0049944562 0 -0.021938775
0.015286063 0 -0.012208163
-0.025274975 -0.000635 -0.017681632
0.023156114 -0.00127 -0.0006530612
-0.011956425 0.00127 -4.4897959e-05
-0.0007567358 0.0003175 -0.018593878
-0.022853421 0.0003175 0.00086734694
-0.023156114 0 -0.016769387
0.0052971505 0.0003175 -0.020418366
0.0031782903 -0.00127 -0.017985715
0.0062052333 0.00095249998 -0.018593878
-0.013469896 0.00127 -0.0015653061
0.02557767 0.00127 -0.0012612245
-0.0049944562 0.0003175 -0.0064306124
0.027696529 0 -0.016465306
0.027696529 0.00127 -0.0018693878
0.0013621243 0.00127 -0.017377552
0.021945337 0.0003175 -0.0021734694
-0.0186157 0.000635 -0.019506123
0.012259119 0.00127 -0.0015653061
0.012259119 0.0003175 -0.018289795
0.012864508 0 -0.01342449
-0.027999224 0 0.0017795918
-0.00015134715 0.0003175 -0.016465306
-0.012561814 0.0003175 -0.0043020407
-0.02497228 0.00095249998 -0.019506123
0.01014026 0 -0.017073469
0.0037836789 -0.00095249998 -0.017377552
0.014983368 0 -0.019810203
0.024669586 0.0003175 -4.4897959e-05
-0.015286063 0 -0.0076469388
-0.02709114 -0.00127 -0.0021734694
-0.021945337 0.0003175 -0.0021734694
0.013772591 0 -4.4897959e-05
0.019221088 0 -0.017377552
0.0049944562 -0.0003175 -0.023459183
0.0080213994 0.00095249998 -0.0021734694
0.027696529 -0.00127 -0.017985715
-0.02709114 -0.00127 -0.00095714285
-0.021945337 0 -0.0021734694
0.0074160104 0.0003175 -0.023763265
0.014680674 0.00127 -0.00095714285
-0.016194146 0.00127 -0.0015653061
-0.025274975 -0.00127 -0.00034897958
-0.0077187051 0 -0.0076469388
-0.0077187051 0.0003175 -0.0039979592
0.021945337 0.00095249998 -0.017681632
0.0080213994 0.00127 -0.0012612245
0.005902539 0.000635 -0.00034897958
-0.01014026 0 -0.0070387754
-0.012259119 0.000635 -0.0021734694
-0.018918395 -0.00095249998 -0.017985715
0.0010594301 0 -0.019506123
0.02557767 0.00127 -0.017985715
-0.0077187051 0.0003175 -0.014944898
0.012561814 0.0003175 -0.012208163
0.0077187051 -0.0003175 -0.013120408
0.017102228 0.00127 -0.017985715
-0.015891451 0.00127 -0.00034897958
0.022853421 0.0003175 -0.023155103
0.02557767 -0.0003175 -0.0067346939
-0.0022702073 -0.0003175 -0.021026531
0.00015134715 0.0003175 -0.0027816326
0.02557767 0 -0.0091673471
-0.011351037 0.00127 -0.018593878
-0.011956425 -0.00095249998 -4.4897959e-05
-0.013469896 0 -0.017377552
0.016799534 0.00127 -0.018593878
0.02709114 -0.000635 -0.00034897958
0.020431865 -0.0003175 -0.0073428573
-0.012561814 -0.0003175 -0.021634694
-0.020129172 -0.00127 -0.017985715
0.020129172 0 -0.020418366
-0.02557767 0 -0.024675511
0.0052971505 -0.00095249998 -4.4897959e-05
-0.0025729015 0 -0.0088632656
-0.015891451 0 -4.4897959e-05
0.014680674 0.000635 -0.00034897958
-0.020129172 0.00127 -0.0015653061
-0.0068106218 -0.00127 -0.0015653061
0.017102228 0.00127 -0.0012612245
-0.025880363 -0.00127 -0.0021734694
0.012259119 -0.00127 -0.0015653061
0.01014026 -0.0003175 -0.024979591
0.0022702073 -0.00095249998 -0.017681632
0.027999224 0.0003175 -0.010079592
0.014983368 0.0003175 -0.0079510203
-0.014983368 -0.0003175 -0.023459183
0.0052971505 0 -0.014944898
-0.01437798 0.0003175 -0.017377552
0.0077187051 0.00127 -0.019506123
-0.028301917 -0.00127 -0.0006530612
-0.017707618 0 -0.0091673471
0.018918395 -0.00095249998 -0.0021734694
0.015286063 -0.0003175 -0.015857143
-0.0016648187 0.00127 -0.019506123
-0.011048342 -0.000635 -0.0021734694
0.020431865 0 -0.003389796
-0.011956425 -0.00127 -0.019202041
-0.0049944562 0.0003175 -0.013120408
0.029210001 -0.0003175 -0.0021734694
-0.0025729015 -0.0003175 -0.013120408
-0.022853421 0.0003175 0.00025918367
-0.021945337 0.00095249998 -0.019506123
0.014983368 0.0003175 -0.0030857143
-0.02557767 -0.00095249998 -0.019506123
0.0025729015 0 -0.016769387
-0.027999224 0 -0.022242857
-0.027393835 -0.00127 -0.0021734694
0.009837565 0.00095249998 -4.4897959e-05
0.0074160104 0.0003175 -0.017985715
-0.02557767 0 -0.016465306
-0.02557767 0 -0.019810203
-0.020431865 0.00127 -0.01889796
0.019221088 -0.00095249998 -0.019506123
0.017404923 -0.00127 -0.0012612245
-0.013167202 0.00127 -0.0006530612
-0.027393835 -0.00127 -0.00034897958
0.0022702073 0.0003175 -0.010383673
-0.028604612 0.00127 -0.00095714285
0.0049944562 0 -0.0052142856
-0.00045404147 -0.00095249998 -0.0024775511
0.0077187051 0.0003175 -0.0046061226
-0.02073456 0.00127 -4.4897959e-05
-0.012864508 -0.0003175 -0.014336735
-0.014983368 0 -0.024979591
-0.0052971505 0.0003175 -4.4897959e-05
-0.00045404147 0.0003175 -0.017377552
-0.023156114 -0.00127 -0.018593878
-0.021339949 -0.00095249998 -0.0021734694
-0.015286063 0 -0.0067346939
0.024366891 0.00127 -0.018289795
0.0077187051 0 -0.0076469388
-0.02073456 -0.0003175 -0.0021734694
0.01014026 0.0003175 0.00056326529
-0.022248032 0.00127 -0.0015653061
-0.02557767 -0.000635 -0.0021734694
0.021945337 0.00127 -0.00034897958
0.01014026 -0.0003175 -0.023763265
0.012864508 0.0003175 -0.005822449
-0.017707618 0.00127 -0.018593878
-0.027999224 -0.0003175 -0.016465306
0.020129172 0.0003175 0.0014755102
0.0025729015 0 -0.024371428
-0.00015134715 0 -0.021634694
0.012864508 0.0003175 -0.0076469388
-0.020431865 -0.0003175 -0.010383673
0.0071133161 -0.0003175 -0.017681632
-0.020431865 0 -0.015857143
0.015286063 -0.0003175 -0.012816327
0.010442954 0.000635 -0.00034897958
-0.010442954 -0.000635 -0.019810203
0.015286063 0.00127 -0.0018693878
0.0086267879 -0.00127 -0.019202041
0.020129172 0.00127 -4.4897959e-05
-0.027999224 0.00127 -0.018593878
0.0049944562 -0.00127 -0.0015653061
0.020431865 0 0.0011714286
0.0086267879 -0.00127 -0.0012612245
-0.012864508 -0.0003175 -0.020114286
-0.012864508 -0.0003175 -0.021938775
0.0052971505 -0.00127 -0.0012612245
0.0040863734 0.00095249998 -4.4897959e-05
0.023156114 -0.00127 -0.0021734694
-0.023156114 -0.000635 -0.0021734694
0.0022702073 0.0003175 -0.0024775511
-0.018918395 -0.00127 -4.4897959e-05
0.017707618 -0.0003175 -0.021026531
0.020431865 0 -0.0030857143
0.0043890676 -0.0003175 -0.017377552
-0.0022702073 0 -0.013728571
0.0052971505 0 -0.013728571
0.018313006 -0.00095249998 -0.017985715
0.029210001 0.0003175 -0.00034897958
-0.0016648187 -0.00095249998 -0.019506123
0.0077187051 -0.000635 -0.019810203
-0.0074160104 -0.0003175 -0.0036938775
-0.012864508 -0.0003175 -0.023763265
-0.025880363 -0.00127 -0.017681632
0.01014026 0 -0.011904081
-0.0040863734 0.00127 -0.0006530612
0.012561814 -0.0003175 -0.023763265
-0.019523783 -0.00127 -0.019506123
-0.01014026 -0.0003175 0.00086734694
-0.014983368 -0.0003175 -0.024067348
-0.020431865 -0.0003175 0.0023877551
0.020129172 0 -0.0085591832
-0.0022702073 0.0003175 -0.017681632
-0.01014026 -0.0003175 -0.0073428573
0.022853421 0.0003175 -0.014944898
0.012561814 0 -0.015857143
0.0025729015 0.0003175 -0.0088632656
-0.017707618 0 -0.0027816326
-0.0052971505 -0.0003175 -0.017681632
0.01014026 0.0003175 -0.017681632
-0.0010594301 0.00127 -0.017377552
0.02497228 0.00127 -0.019506123
0.005902539 -0.0003175 -0.0021734694
-0.00015134715 -0.0003175 -0.0052142856
0.027999224 0.0003175 0.0020836734
0.012864508 0.0003175 -0.02285102
0.027999224 0 -0.02254694
0.015286063 0 -0.0046061226
-0.0049944562 0.0003175 -0.014944898
-0.025274975 0 -0.010079592
-0.0025729015 -0.0003175 -0.0027816326
-0.020129172 0.0003175 -0.024371428
-0.020431865 -0.0003175 0.00086734694
-0.022853421 0 -0.020114286
0.012259119 -0.00127 -0.0021734694
0.012864508 -0.0003175 -0.017985715
-0.0049944562 0 -0.016769387
-0.0043890676 -0.000635 -0.019506123
0.013167202 0.00095249998 -0.017985715
-0.013469896 -0.00127 -0.00034897958
-0.019523783 -0.0003175 -0.017377552
-0.00045404147 0.0003175 -4.4897959e-05
0.0049944562 -0.0003175 0.00056326529
-0.0049944562 0 -0.021330612
0.0077187051 0.00127 -0.019202041
-0.00015134715 0 -0.0027816326
-0.016194146 0.0003175 -4.4897959e-05
0.0077187051 0.0003175 -0.005822449
0.021339949 -0.00127 -0.01889796
-0.0007567358 0.0003175 -4.4897959e-05
0.0025729015 -0.0003175 -0.0097755101
0.012561814 -0.0003175 -0.0024775511
0.012561814 0.0003175 0.0026918368
0.014680674 0.00095249998 -0.018289795
-0.0034809846 -0.00095249998 -4.4897959e-05
0.001967513 -0.0003175 -0.018593878
-0.010745648 0 -0.019506123
0.0052971505 0.0003175 -0.0039979592
0.019523783 -0.00127 -0.0006530612
0.0052971505 -0.0003175 -0.017681632
-0.024366891 0.000635 -0.019506123
0.025274975 0 -0.01342449
0.0049944562 -0.00127 -4.4897959e-05
-0.0077187051 0 -0.0073428573
0.00015134715 0 -0.0067346939
-0.018313006 0.00127 -0.019202041
-0.0052971505 0 0.0020836734
0.014075286 0.00127 -0.00034897958
-0.0074160104 -0.0003175 -0.016465306
0.01014026 0.0003175 -0.015248979
0.0077187051 -0.0003175 -0.0073428573
-0.0074160104 0 -0.016465306
0.012561814 0 -0.003389796
0.011048342 0.0003175 -4.4897959e-05
0.005902539 0.0003175 -4.4897959e-05
0.012864508 -0.0003175 -0.023763265
-0.012259119 0.00127 -0.017985715
0.023761503 0.000635 -0.019506123
-0.0049944562 0.0003175 -0.010383673
0.021037254 0.00127 -0.0006530612
-0.012864508 0 -0.014944898
-0.0077187051 -0.0003175 -0.0046061226
0.022853421 0.0003175 -0.024371428
0.0016648187 0.0003175 -0.0021734694
0.0077187051 0 -0.014032653
-0.015286063 0.0003175 -0.0061265305
-0.012864508 0.0003175 -0.016465306
-0.020129172 0.0003175 -0.014944898
-0.001967513 0 -0.0021734694
-0.0013621243 -0.00095249998 -0.01889796
-0.022853421 0.0003175 -0.025587754
0.0074160104 0 -0.023459183
0.012864508 0 -0.023155103
0.020431865 -0.0003175 -0.012512245
-0.0010594301 -0.00127 -0.0006530612
-0.027999224 0 -0.0116
-0.0052971505 -0.0003175 -0.024067348
0.0046917619 -0.00127 -0.0006530612
0.0074160104 0 -0.02254694
0.009837565 -0.00127 -0.019506123
0.015588757 0.00127 -0.018593878
0.0077187051 0 -0.010687755
-0.023156114 0 -0.016161224
-0.025274975 0.0003175 -0.02254694
0.0025729015 -0.000635 -0.019810203
0.020431865 -0.00127 -0.00095714285
0.023156114 0 -0.024675511
0.022853421 0.0003175 0.00056326529
0.0034809846 0.0003175 -0.017985715
-0.020431865 -0.0003175 -0.025283674
0.011653731 -0.00127 -0.0006530612
0.020431865 0.0003175 -0.020418366
0.0055998447 -0.0003175 -0.017377552
0.0065079276 0.00127 -0.0015653061
-0.0092321765 -0.0003175 -0.017377552
0.016194146 -0.00127 -0.0006530612
0.014983368 0.00127 -0.018289795
0.022853421 0.0003175 -0.024979591
0.0025729015 0.0003175 -0.02285102
0.012259119 -0.00127 -0.019202041
-0.0052971505 0 -0.0088632656
-0.020129172 -0.0003175 -0.015857143
0.014680674 0.00127 -0.018593878
-0.026183058 0 -4.4897959e-05
-0.0040863734 -0.0003175 -0.018289795
-0.0049944562 0.0003175 -0.011295918
-0.0068106218 0.0003175 -0.017985715
0.014983368 0.00127 -0.0012612245
0.0022702073 0 -0.010383673
0.0049944562 0 -0.0091673471
-0.020129172 -0.0003175 -0.024067348
-0.027999224 -0.0003175 -0.013728571
0.017404923 0.00127 -0.0021734694
-0.010745648 0.00095249998 -4.4897959e-05
0.027999224 0 -0.0070387754
-0.025274975 -0.0003175 -0.02285102
0.01437798 0.0003175 -4.4897959e-05
0.0046917619 0 -0.017377552
0.00015134715 0.0003175 -0.0085591832
-0.015286063 0 -0.014336735
-0.012259119 0.00095249998 -4.4897959e-05
-0.022248032 0.00095249998 -0.0021734694
-0.025274975 0 -0.015248979
0.022853421 0 -0.0091673471
-0.010745648 -0.00127 -0.019202041
-0.0013621243 -0.00127 -0.0021734694
0.015588757 -0.000635 -0.017985715
0.023761503 0.00095249998 -0.017681632
-0.011653731 0.000635 -0.0021734694
0.018010311 -0.000635 -0.0024775511
-0.012259119 -0.00127 -0.0006530612
0.0068106218 -0.00127 -0.0006530612
-0.0013621243 0.0003175 -0.017681632
-0.017404923 -0.00127 -0.0015653061
-0.020431865 0.000635 -0.019506123
0.0074160104 0 0.0020836734
0.0071133161 0.00127 -0.01889796
-0.0025729015 0.0003175 -0.020418366
0.017707618 0.0003175 0.00056326529
-0.0077187051 0 -0.011904081
0.012864508 -0.0003175 -0.021330612
-0.022853421 0.00095249998 -4.4897959e-05
0.02073456 -0.00127 -0.019202041
0.016496839 -0.00095249998 -0.0021734694
0.015286063 0.0003175 -0.011295918
-0.020129172 0.0003175 -0.022242857
-0.017707618 0 0.0011714286
0.026485752 0.00127 -0.01889796
-0.026485752 -0.000635 -0.00034897958
-0.020431865 0.0003175 -0.0052142856
-0.0052971505 0 -0.017073469
0.027696529 0 0.0014755102
0.0025729015 0 -0.0079510203
-0.0052971505 0 -0.0094714286
0.0013621243 0.00127 -4.4897959e-05
0.0025729015 0.0003175 -0.010383673
0.0037836789 0.00095249998 -0.019506123
0.0025729015 0.0003175 -0.0085591832
-0.00015134715 -0.0003175 -0.025283674
0.017707618 -0.00127 -0.019506123
-0.0040863734 0.00127 -0.00034897958
0.015588757 -0.0003175 -0.019506123
-0.0022702073 -0.0003175 -0.0082551017
0.0010594301 -0.00127 -0.019202041
-0.020129172 -0.00095249998 -4.4897959e-05
0.005902539 0.00095249998 -0.019506123
-0.011048342 -0.0003175 -0.017985715
-0.024064198 -0.0003175 -0.017377552
-0.0077187051 0 -0.020418366
-0.029210001 0.000635 -0.0015653061
-0.0062052333 0.000635 -0.0021734694
0.0016648187 0.0003175 -0.019506123
0.027999224 0.00127 -0.019506123
-0.01014026 0.0003175 0.0020836734
-0.017102228 0.00127 -0.01889796
0.0095348703 -0.0003175 -0.017985715
-0.025880363 -0.00127 -0.019202041
0.005902539 0 -4.4897959e-05
0.025274975 0 -0.019810203
0.01014026 -0.0003175 -0.022242857
0.024366891 -0.00127 -0.019202041
0.0013621243 0.00095249998 -0.0021734694
0.012864508 0.0003175 0.00086734694
0.011048342 0.0003175 -0.0021734694
0.0074160104 0 -0.0030857143
-0.020129172 0.0003175 -0.0085591832
-0.00015134715 0.00127 -0.017377552
-0.0074160104 0.0003175 -0.014032653
-0.017707618 -0.0003175 -0.010687755
0.00015134715 -0.0003175 -0.021330612
0.0077187051 0.00127 -4.4897959e-05
0.0077187051 0 -0.02285102
0.02709114 -0.000635 -0.017681632
-0.0086267879 0.00127 -0.0015653061
0.0095348703 0.00095249998 -0.017985715
-0.012561814 0 -0.0064306124
-0.026788447 -0.00127 -4.4897959e-05
0.0010594301 0.000635 -0.00034897958
-0.024064198 0.00127 -0.018593878
-0.0049944562 -0.0003175 -0.014944898
-0.0007567358 0.00127 -0.019506123
-0.025274975 0.00095249998 -4.4897959e-05
-0.016194146 -0.00095249998 -0.019506123
0.009837565 0 -0.013728571
0.022853421 0.0003175 -0.021026531
-0.00015134715 0 0.0029959183
-0.025274975 0.0003175 -0.014944898
0.021037254 -0.00127 -0.018593878
-0.017404923 0.0003175 -0.017681632
-0.014983368 0.00127 -0.0015653061
0.012864508 0 -0.014336735
-0.022550726 -0.00127 -0.0006530612
-0.0074160104 -0.0003175 -0.020114286
-0.012561814 0 -0.0079510203
0.005902539 -0.000635 -0.0021734694
0.0089294817 0 -0.0021734694
-0.017707618 -0.0003175 -0.012208163
0.012561814 0.0003175 -0.015857143
-0.021339949 -0.00095249998 -4.4897959e-05
-0.0025729015 0 0.0020836734
0.0043890676 -0.00127 -0.018289795
-0.00015134715 -0.0003175 -0.017377552
-0.0055998447 -0.00127 -0.018289795
-0.022853421 0.0003175 -0.023459183
-0.012561814 0 -0.021026531
-0.024669586 0.00095249998 -0.0021734694
0.020431865 -0.0003175 -4.4897959e-05
0.014983368 0.0003175 -0.012512245
0.01437798 -0.000635 -0.019506123
-0.022853421 0.0003175 -0.0073428573
0.017102228 -0.00127 -0.018289795
-0.027999224 0.00127 -0.019506123
-0.01437798 -0.00127 -0.018289795
0.0022702073 0.000635 -0.0021734694
0.023156114 -0.0003175 -0.017377552
0.02709114 -0.00127 -0.019506123
0.017404923 -0.0003175 -4.4897959e-05
0.012561814 -0.0003175 -0.023459183
0.001967513 0 -0.0021734694
0.012561814 -0.00127 -0.018593878
0.0077187051 0 -0.024067348
-0.022853421 -0.0003175 0.0017795918
-0.011351037 0.00127 -0.0006530612
-0.018313006 -0.00127 -0.019202041
-0.013167202 -0.00127 -0.0012612245
-0.02557767 0 -0.011295918
-0.014983368 0.00127 -0.01889796
-0.018313006 0.000635 -0.019506123
-0.01014026 0.0003175 -0.021634694
-0.012864508 0.0003175 -0.024371428
0.0077187051 0 0.00056326529
-0.028301917 0.00127 -0.019202041
-0.028907306 0.00095249998 -0.01889796
-0.020129172 -0.0003175 -0.0094714286
0.020431865 -0.000635 -0.00034897958
0.0037836789 -0.0003175 -0.018289795
-0.017707618 0 -0.0036938775
-0.01014026 0 -0.016769387
0.0016648187 0.00127 -0.01889796
0.00015134715 0.0003175 -0.014944898
0.022853421 -0.00127 -0.00034897958
-0.0095348703 -0.00095249998 -0.018593878
0.0025729015 -0.0003175 -0.017985715
-0.015588757 0.000635 -0.0021734694
0.0010594301 0.0003175 -0.0021734694
-0.0065079276 0.00127 -0.01889796
-0.022853421 -0.0003175 -0.019810203
0.029210001 -0.000635 -0.00095714285
-0.014983368 0 -0.0091673471
0.028301917 -0.00127 -0.018289795
0.010442954 0.0003175 -4.4897959e-05
-0.018010311 0.00127 -0.0018693878
0.027999224 0 -0.013728571
0.014983368 0.0003175 -0.022242857
-0.013772591 0.00127 -0.00095714285
-0.020129172 0 -0.012816327
-0.0022702073 -0.0003175 -0.021330612
0.0037836789 -0.0003175 -0.018593878
0.020431865 0 -0.0085591832
-0.025274975 0.0003175 -0.022242857
-0.001967513 -0.0003175 -0.0021734694
0.025274975 0 -0.0043020407
-0.017707618 0.0003175 -0.0082551017
0.0071133161 -0.00127 -0.019202041
0.022248032 0.00127 -0.019202041
-0.02557767 -0.0003175 -0.005822449
-0.014075286 0.00127 -0.0021734694
-0.0022702073 0 -0.017073469
-0.005902539 -0.0003175 -0.018289795
0.0080213994 -0.00127 -0.0015653061
0.012864508 0.0003175 -0.010079592
-0.014680674 0.0003175 -0.017377552
0.026183058 -0.00127 -0.00034897958
-0.028907306 0.000635 -0.019506123
-0.021642644 0 -0.0021734694
0.016194146 0.0003175 -0.019506123
0.0007567358 0.00095249998 -0.019506123
0.020431865 -0.0003175 -0.0082551017
-0.027696529 0.00127 -0.0015653061
-0.027696529 0 -0.0064306124
0.022853421 -0.0003175 -0.012208163
-0.0007567358 0 -0.019506123
-0.022853421 0 -0.0079510203
0.0022702073 -0.000635 -0.00034897958
-0.027999224 0.0003175 -0.024675511
-0.0068106218 0.000635 -0.00034897958
0.023458809 0 -0.019506123
-0.0037836789 -0.00127 -4.4897959e-05
0.010442954 -0.00127 -4.4897959e-05
0.0077187051 -0.00127 -0.0018693878
-0.020431865 0.0003175 -0.024067348
-0.027696529 0 -0.025587754
0.014075286 -0.0003175 -0.0021734694
0.013469896 -0.00127 -0.018593878
-0.017707618 -0.0003175 0.0020836734
0.014983368 0.0003175 -0.0097755101
0.020129172 0 -0.0070387754
0.025274975 0.0003175 -0.0052142856
0.0043890676 -0.0003175 -0.017985715
0.014983368 0.0003175 -0.0039979592
-0.01014026 -0.0003175 -0.019810203
-0.0068106218 -0.00127 -0.019506123
-0.015286063 0 -0.0088632656
-0.0092321765 -0.00127 -0.0015653061
-0.010442954 0.00127 -0.0018693878
-0.012864508 -0.00095249998 -0.0021734694
0.012259119 -0.0003175 -0.017985715
0.01014026 0 -0.020722449
-0.012561814 0.0003175 -0.023155103
-0.022550726 0 -0.0082551017
-0.017707618 0.0003175 -4.4897959e-05
-0.027999224 0.000635 -0.00034897958
-0.012864508 0.0003175 -0.0088632656
-0.024669586 0.00127 -0.0006530612
-0.0016648187 0.0003175 -0.018289795
0.025274975 -0.0003175 -0.014032653
-0.0025729015 0 -0.011295918
-0.016496839 0.0003175 -4.4897959e-05
0.011351037 0.000635 -0.018593878
-0.0013621243 0.0003175 -0.0021734694
-0.022853421 0.0003175 0.00056326529
0.0074160104 0.00127 -0.0021734694
0.00045404147 -0.0003175 -0.018289795
0.021945337 0 -0.019506123
0.027696529 0 -0.010991837
-0.027393835 0 -0.019506123
0.027696529 0 -0.015248979
-0.028301917 0.00095249998 -0.0021734694
-0.010745648 0.000635 -0.019506123
-0.016194146 0.00127 -0.0018693878
-0.028907306 0.0003175 -0.00034897958
0.023458809 0.00127 -0.00095714285
-0.022248032 0.000635 -0.019506123
0.021339949 -0.00095249998 -0.017681632
-0.0055998447 -0.00127 -0.0012612245
-0.014075286 -0.00095249998 -0.018289795
0.0077187051 -0.00127 -0.00095714285
0.022853421 0.0003175 0.0026918368
-0.025274975 -0.0003175 -0.0091673471
-0.022248032 -0.00127 -0.01889796
0.012561814 0 -0.010991837
-0.023761503 0.00127 -4.4897959e-05
0.009837565 0.0003175 -0.018289795
0.017707618 -0.0003175 -0.012208163
-0.0086267879 0.00127 -0.018593878
0.0071133161 0.00127 -0.0012612245
-0.018918395 -0.0003175 -0.017681632
-0.017102228 -0.00127 -0.0021734694
0.0068106218 0.0003175 -0.017681632
0.0083240932 0.00127 -0.0012612245
0.022248032 0.00095249998 -0.017681632
0.0052971505 0 -0.0085591832
-0.0037836789 0.0003175 -0.017985715
-0.0065079276 0.00095249998 -0.017377552
-0.027393835 0.00127 -0.0015653061
0.025274975 -0.0003175 -0.015248979
0.020431865 -0.0003175 -0.016465306
0.018010311 0.00095249998 -0.019506123
0.025880363 0.0003175 -4.4897959e-05
0.027999224 0.0003175 -0.016465306
0.015286063 -0.00127 -0.0015653061
0.0077187051 0.0003175 -0.012512245
-0.012561814 -0.0003175 -0.0088632656
-0.012864508 0 -0.01342449
0.023156114 -0.00127 -0.019506123
0.0065079276 -0.000635 -0.00034897958
-0.027999224 0.0003175 0.0023877551
-0.00015134715 0 -0.0067346939
-0.0046917619 -0.0003175 -0.017681632
-0.013167202 -0.0003175 -0.017681632
-0.0049944562 0 -0.020722449
0.028301917 0.00127 -0.018593878
-0.0034809846 0 -0.019506123
0.0062052333 0 -0.0021734694
0.0074160104 -0.0003175 -0.0082551017
0.0055998447 -0.0003175 -0.017681632
-0.00015134715 0.0003175 -0.012512245
-0.015891451 -0.00127 -0.018289795
-0.018918395 -0.0003175 -0.0021734694
-0.013772591 -0.00095249998 -4.4897959e-05
0.016194146 0.00095249998 -0.019506123
-0.01014026 0 -0.0030857143
-0.026183058 0.00127 -0.0012612245
0.017707618 0.0003175 -0.024675511
0.0022702073 0 -0.017073469
-0.0077187051 0 -0.024675511
-0.0074160104 0.000635 -0.018593878
0.022248032 0 -0.017377552
0.021037254 0.00127 -0.00095714285
-0.0055998447 0.0003175 -0.017985715
0.0186157 -0.00095249998 -0.019506123
-0.0080213994 0.00127 -0.0021734694
-0.020129172 -0.00127 -4.4897959e-05
-0.0025729015 0 -0.0094714286
-0.02557767 -0.0003175 -0.0039979592
0.02557767 -0.0003175 -0.019810203
0.025274975 0 -0.0079510203
0.0074160104 -0.0003175 -0.02285102
-0.01014026 0.0003175 -0.003389796
-0.0022702073 0 0.0011714286
-0.015891451 -0.000635 -0.00034897958
-0.0080213994 0.00095249998 -0.0021734694
-0.012864508 0 -0.0094714286
-0.0022702073 -0.0003175 -0.0036938775
0.0013621243 0.00095249998 -0.01889796
-0.02557767 -0.0003175 -0.016769387
-0.0077187051 0 -0.0043020407
-0.020431865 -0.0003175 0.0026918368
0.0080213994 0 -0.019506123
0.0010594301 -0.00127 -0.0012612245
-0.015286063 -0.0003175 -0.017681632
0.0077187051 -0.0003175 0.00056326529
0.028907306 0.0003175 -0.0021734694
0.017707618 0 -0.024675511
0.013167202 0 -0.0024775511
-0.027999224 0.0003175 -0.023763265
-0.025274975 -0.0003175 -0.0082551017
0.017404923 -0.000635 -0.0024775511
-0.020129172 -0.00127 -0.0015653061
-0.013469896 0.0003175 -0.019506123
0.0055998447 0.00127 -0.0012612245
0.029210001 -0.0003175 -0.00095714285
-0.012864508 -0.00127 -0.018289795
0.012561814 0.0003175 -0.024371428
-0.0080213994 0.00127 -0.018593878
0.022550726 0.00095249998 -4.4897959e-05
-0.0186157 -0.0003175 -0.0021734694
-0.02557767 0 -0.024979591
0.028301917 0.00127 -0.019202041
-0.019523783 0.00127 -0.0012612245
0.0034809846 0.00095249998 -0.01889796
0.027696529 0 -0.0067346939
0.01437798 -0.000635 -0.018289795
0.024366891 -0.00127 -0.018593878
-0.027999224 0 -0.021330612
0.022550726 0.00127 -0.0006530612
0.027999224 0.0003175 -0.023459183
-0.026485752 -0.00127 -0.0006530612
0.019523783 -0.000635 -0.019506123
0.014983368 0.00127 -0.0015653061
0.012864508 0.00127 -0.0018693878
0.0013621243 0.00127 -0.0012612245
-0.009837565 0.00127 -0.017985715
0.0049944562 0.00127 -0.0018693878
-0.020431865 0.0003175 -0.019810203
-0.0037836789 0.00127 -0.0012612245
-0.012561814 0.0003175 -0.003389796
-0.001967513 -0.0003175 -0.019810203
0.023156114 0.00127 -0.0015653061
0.027999224 0.0003175 -0.010991837
-0.026183058 -0.0003175 -0.017377552
0.022550726 0 -0.024067348
0.017707618 0.00127 -0.019506123
-0.020129172 0.00095249998 -0.017985715
-0.022853421 -0.0003175 -0.012512245
-0.026183058 0.00127 -0.018593878
0.012864508 0 -0.02254694
0.012561814 0 -0.013120408
0.0186157 0.0003175 -4.4897959e-05
-0.012561814 0.0003175 -0.010687755
-0.0095348703 -0.00095249998 -0.0021734694
0.020129172 0 -0.010383673
0.0083240932 -0.0003175 -0.019506123
-0.024366891 -0.000635 -0.00034897958
-0.0052971505 0 -0.010079592
-0.027696529 -0.00127 -0.017681632
0.0065079276 -0.00127 -4.4897959e-05
0.015891451 -0.00127 -0.0006530612
-0.0007567358 0.00127 -0.017377552
0.0040863734 0.0003175 -0.0021734694
-0.0052971505 -0.0003175 -0.0116
0.0043890676 0.00127 -0.0012612245
0.0095348703 -0.0003175 -0.017681632
-0.0022702073 -0.0003175 -0.020722449
-0.019826477 0.00127 -0.0021734694
-0.0077187051 -0.0003175 -0.0043020407
0.022248032 -0.0003175 -0.019506123
-0.0083240932 0.000635 -0.0021734694
-0.023458809 -0.00127 -0.0021734694
0.0025729015 0.0003175 0.0020836734
-0.0022702073 -0.0003175 0.00086734694
-0.022550726 0 -0.0049102041
0.020129172 -0.00095249998 -0.0021734694
0.0074160104 0.0003175 -0.020418366
-0.0049944562 -0.0003175 -0.020418366
-0.010745648 0.0003175 -4.4897959e-05
-0.0052971505 0 -0.024371428
0.021037254 -0.00127 -0.019202041
-0.00015134715 0.0003175 -0.02285102
0.022550726 0 -0.0061265305
0.00015134715 0.0003175 -0.024675511
0.010442954 0.0003175 -0.018289795
0.015286063 0.0003175 0.0026918368
0.020431865 0.0003175 -0.0027816326
-0.011351037 0.0003175 -4.4897959e-05
0.027696529 0 -0.014640816
0.0074160104 0.0003175 -0.012512245
0.016194146 0.000635 -0.018289795
0.023156114 0.0003175 -0.019506123
0.020129172 0 -0.0079510203
0.0040863734 -0.0003175 -0.018593878
0.0052971505 0 -0.022242857
-0.025274975 0 -0.0064306124
-0.025274975 -0.0003175 -0.020418366
0.02073456 0.0003175 -0.017681632
-0.015286063 0 -0.020418366
0.025274975 0.0003175 -0.024067348
-0.012561814 0 -0.013120408
-0.028907306 0 -4.4897959e-05
0.00045404147 -0.000635 -0.0021734694
-0.0052971505 0 -0.021938775
-0.022853421 -0.0003175 -0.017073469
0.00015134715 -0.0003175 0.0011714286
0.027393835 0.00095249998 -0.019506123
0.0025729015 -0.0003175 -0.013120408
-0.0052971505 0 -0.021330612
0.013167202 -0.00127 -0.0006530612
0.020431865 0 -0.0067346939
-0.0074160104 0.00127 -0.019506123
0.0028755958 -0.0003175 -0.019810203
-0.00045404147 -0.0003175 -0.017985715
-0.0068106218 0.00127 -0.0012612245
-0.0046917619 -0.000635 -0.019506123
-0.0007567358 -0.00127 -0.0015653061
0.012864508 0.00127 -0.0021734694
-0.01014026 -0.00127 -0.0012612245
0.027393835 0.00127 -0.018593878
0.028301917 0.0003175 -0.017377552
0.022853421 -0.0003175 -0.0052142856
0.017707618 0 -0.016465306
-0.0186157 -0.0003175 -4.4897959e-05
-0.027696529 0.00127 -0.017681632
-0.01437798 0.00095249998 -0.0021734694
-0.0031782903 -0.00127 -0.00034897958
-0.0037836789 0.00127 -0.0006530612
-0.014075286 0.0003175 -0.017377552
0.012259119 0.0003175 -0.017985715
-0.020431865 0.0003175 -0.0097755101
0.015286063 0.0003175 -0.017985715
-0.012561814 -0.0003175 -0.010383673
0.0092321765 0.00127 -0.018593878
-0.029210001 -0.000635 -0.018593878
0.022550726 0 0.0017795918
0.0077187051 0.00127 -0.00034897958
-0.02557767 0 -0.0082551017
0.02497228 0.000635 -0.0021734694
-0.018010311 0.0003175 0.00086734694
-0.0074160104 -0.0003175 -0.010383673
-0.02557767 0 -0.015553061
0.018313006 0.00095249998 -0.017985715
-0.0077187051 0.0003175 -0.017377552
0.025274975 0 0.0023877551
-0.027999224 0.0003175 -0.0049102041
0.009837565 -0.000635 -0.018593878
-0.0049944562 0 -0.0039979592
-0.0049944562 0.0003175 -0.024979591
0.0025729015 0.0003175 -0.023763265
0.0013621243 0.00095249998 -0.017377552
-0.017707618 0.0003175 -0.0085591832
-0.025880363 -0.000635 -0.00034897958
0.0013621243 0.00127 -0.00034897958
-0.01014026 -0.0003175 -0.0027816326
0.0077187051 0 -0.0079510203
0.0092321765 -0.00095249998 -4.4897959e-05
0.026183058 0 -0.017377552
-0.001967513 -0.000635 -0.0021734694
0.019221088 0.00127 -0.0012612245
0.0055998447 -0.0003175 -4.4897959e-05
0.0022702073 0 -0.010687755
0.02497228 -0.00127 -0.00095714285
-0.0089294817 0.00127 -0.0015653061
0.025274975 0.0003175 -0.012816327
-0.0055998447 0.000635 -0.019506123
0.012561814 0.000635 -0.00034897958
-0.0062052333 0 -0.019506123
-0.01014026 -0.0003175 -0.0024775511
0.0013621243 0.00127 -0.0021734694
0.01014026 0 -0.005822449
-0.0062052333 0.00127 -0.019506123
-0.013772591 0.00127 -0.00034897958
-0.021339949 0.00127 -0.0006530612
0.0071133161 0.00127 -0.019506123
0.0077187051 -0.0003175 -0.015857143
-0.011956425 0.00127 -0.017985715
-0.0083240932 0.00095249998 -0.018593878
0.0049944562 0 -0.012816327
-0.021037254 0.00127 -0.0006530612
0.019523783 0 -0.017377552
0.0013621243 -0.0003175 -0.017377552
-0.018918395 -0.00127 -0.0015653061
0.015286063 0 -0.0039979592
-0.0022702073 -0.0003175 -0.0097755101
0.016496839 -0.00127 -0.019202041
-0.0025729015 0 -0.0064306124
0.019221088 -0.00127 -0.018593878
-0.00015134715 0.00127 -0.019202041
0.0074160104 -0.0003175 0.0017795918
0.012561814 0.00127 -0.0012612245
-0.02709114 0.00127 -0.0018693878
-0.0034809846 0.0003175 -0.017377552
0.018010311 0.0003175 -0.019810203
-0.021037254 0.0003175 -4.4897959e-05
0.0025729015 0.0003175 -4.4897959e-05
0.0037836789 0 -0.019506123
-0.0074160104 0 -0.0030857143
-0.014680674 0.00095249998 -0.0021734694
-0.026788447 -0.00127 -0.0006530612
-0.012864508 -0.0003175 -0.023459183
0.00015134715 0 0.00025918367
-0.009837565 0 -0.0024775511
-0.015286063 -0.0003175 -0.0064306124
0.0074160104 -0.0003175 -0.017681632
0.022853421 0.0003175 -0.010383673
-0.014680674 -0.00127 -4.4897959e-05
-0.01014026 0.0003175 -0.016465306
0.00015134715 0 -0.0073428573
-0.0052971505 0 -0.016769387
0.0055998447 -0.0003175 -0.017985715
-0.020431865 0 -0.015553061
-0.025880363 -0.00127 -0.0018693878
-0.025274975 0.000635 -0.00034897958
-0.021642644 0.000635 -0.019506123
0.0071133161 0.00127 -0.0006530612
-0.018313006 0.00127 -4.4897959e-05
-0.00015134715 -0.0003175 -0.02254694
-0.0065079276 -0.0003175 -0.019506123
-0.0186157 0.00127 -0.0006530612
0.022853421 0.0003175 -0.003389796
0.005902539 -0.00127 -0.0021734694
-0.014983368 0 0.00025918367
0.027999224 -0.0003175 -0.024067348
-0.018010311 0.0003175 -0.019810203
-0.017707618 -0.0003175 -0.024067348
0.015286063 -0.0003175 -0.025283674
-0.014983368 0 -0.0079510203
0.0092321765 0 -4.4897959e-05
-0.028907306 -0.000635 -0.017681632
-0.015286063 -0.0003175 -0.023459183
-0.020129172 0.0003175 -0.010991837
0.027696529 0 -0.0073428573
-0.0037836789 0.00127 -0.017985715
0.01014026 0 -0.024675511
0.014075286 -0.00095249998 -0.018289795
-0.02073456 0.00127 -0.00034897958
-0.0025729015 0 -0.013728571
-0.0055998447 0 -4.4897959e-05
-0.0065079276 -0.00095249998 -0.019506123
0.0077187051 -0.0003175 -0.017985715
-0.0025729015 0.0003175 -0.014336735
0.024669586 -0.00095249998 -0.019506123
-0.011048342 -0.0003175 -4.4897959e-05
0.0071133161 -0.0003175 -0.017985715
0.022853421 -0.0003175 -0.012816327
-0.0052971505 -0.00095249998 -0.0021734694
-0.027999224 -0.0003175 -0.0055183675
0.010745648 0.00127 -0.0018693878
-0.01437798 0.00095249998 -4.4897959e-05
-0.0052971505 -0.0003175 -0.010079592
-0.019826477 0.000635 -0.017985715
-0.0022702073 0 -0.02254694
-0.025274975 -0.0003175 -0.023459183
-0.020431865 -0.0003175 -0.014336735
0.02709114 0.00095249998 -0.019506123
0.0031782903 0.00127 -4.4897959e-05
-0.022550726 0 -0.0073428573
0.022853421 -0.0003175 -0.0073428573
-0.00015134715 -0.0003175 -0.0064306124
0.0007567358 0.00095249998 -4.4897959e-05
-0.026183058 0.00095249998 -0.0021734694
-0.00015134715 0.0003175 -0.0088632656
0.014983368 0.0003175 0.0023877551
0.0055998447 0.0003175 -0.017985715
0.022550726 -0.0003175 -0.017377552
-0.0043890676 0.00127 -0.019506123
0.014983368 0.0003175 -0.0024775511
-0.012864508 -0.0003175 -0.021026531
-0.027999224 -0.0003175 -0.017377552
-0.024669586 -0.00127 -0.00095714285
0.01014026 -0.000635 -0.00034897958
-0.020431865 0.00127 -0.018593878
0.0025729015 0 -0.012816327
0.027696529 0 -0.010079592
0.0040863734 -0.000635 -0.019506123
0.0083240932 -0.0003175 -0.0021734694
0.022248032 -0.00127 -0.01889796
0.022550726 0.00127 -4.4897959e-05
-0.013772591 0.00095249998 -4.4897959e-05
-0.023156114 -0.00127 -0.0015653061
0.01014026 -0.0003175 -0.0067346939
-0.0037836789 -0.00127 -0.0015653061
-0.0055998447 0.00127 -0.01889796
0.01014026 -0.0003175 -0.0030857143
0.018010311 -0.00127 -0.0012612245
0.022550726 0.00095249998 -0.019506123
-0.021339949 0.00095249998 -0.017681632
-0.027999224 0.00127 -0.0018693878
-0.0074160104 -0.0003175 -0.017073469
0.0037836789 0.00095249998 -0.0021734694
-0.014983368 -0.0003175 -0.012208163
0.0065079276 0.00127 -0.017985715
0.026183058 0.00127 -0.018289795
-0.0010594301 -0.00127 -0.017985715
-0.0025729015 0.00127 -0.0012612245
0.026788447 0.00127 -0.019506123
-0.025274975 -0.0003175 -0.015857143
-0.028301917 0.0003175 -4.4897959e-05
-0.014983368 0 -0.0061265305
-0.027696529 0 -0.0076469388
0.0077187051 0 -0.0055183675
0.0092321765 -0.0003175 -0.017985715
0.022853421 0 -0.0073428573
0.0049944562 0.000635 -0.01889796
-0.012561814 -0.0003175 -0.0085591832
0.0186157 -0.00127 -0.018289795
0.0074160104 0 -0.0046061226
-0.0083240932 0.000635 -0.019506123
0.0065079276 0.0003175 -0.017681632
-0.017102228 -0.000635 -0.00034897958
0.016496839 0.0003175 -4.4897959e-05
0.017404923 -0.000635 -0.017985715
-0.017707618 -0.0003175 -0.0043020407
0.027999224 0.00127 -0.0021734694
0.022853421 -0.0003175 -0.0085591832
0.021642644 -0.00127 -0.01889796
0.0077187051 -0.0003175 -0.0094714286
0.0077187051 0.000635 -0.00034897958
-0.027999224 -0.0003175 -0.0064306124
0.017404923 0.00127 -0.0018693878
0.016194146 0.00127 -0.0015653061
0.00015134715 -0.0003175 -0.0049102041
-0.011956425 -0.0003175 -0.017985715
-0.012864508 0 -0.0055183675
0.021945337 0.00127 -0.00095714285
0.005902539 0 -0.019506123
0.001967513 -0.00127 -4.4897959e-05
-0.0086267879 0.00127 -0.00034897958
0.0034809846 -0.0003175 -0.019506123
0.027999224 0 -0.0052142856
0.016496839 -0.000635 -0.0021734694
0.0025729015 0 -0.020722449
-0.013772591 0.000635 -0.018289795
0.020431865 -0.00127 -0.019506123
0.00015134715 -0.0003175 -0.01342449
-0.028301917 -0.00095249998 -0.017985715
0.0010594301 0.0003175 -4.4897959e-05
0.015286063 0.0003175 -0.02285102
0.0046917619 -0.00127 -0.017681632
0.0074160104 -0.0003175 0.0020836734
-0.00015134715 0 -0.025587754
0.014983368 0 -0.0116
-0.012864508 0.0003175 -0.012208163
0.0092321765 -0.000635 -0.00034897958
0.018313006 -0.00127 -0.0021734694
-0.02557767 -0.0003175 -0.0094714286
-0.0025729015 -0.00127 -0.017681632
-0.010442954 -0.00127 -0.0012612245
-0.017404923 0 -0.0021734694
-0.00015134715 0.000635 -0.00034897958
-0.018010311 0 -0.023459183
0.0095348703 -0.00127 -0.018289795
0.025274975 0.0003175 -0.0064306124
0.024669586 -0.00095249998 -0.017681632
-0.0049944562 0.0003175 -0.015248979
-0.014680674 -0.00127 -0.0012612245
-0.020129172 -0.0003175 -0.017681632
0.023156114 0.00127 -0.01889796
0.023761503 0.00127 -0.0006530612
-0.022853421 -0.0003175 -0.020722449
0.027999224 -0.0003175 -0.012208163
0.0086267879 -0.00127 -0.01889796
-0.015286063 0.00127 -0.019506123
-0.009837565 0.00127 -0.0012612245
-0.001967513 -0.000635 -0.019506123
-0.015286063 0.0003175 -0.020722449
0.022248032 -0.0003175 -0.017377552
-0.0055998447 0.00127 -0.0012612245
-0.020431865 0.0003175 -0.013120408
0.0040863734 0.00127 -0.0015653061
-0.012561814 -0.0003175 -4.4897959e-05
-0.020431865 0 -0.0055183675
-0.0052971505 0.000635 -0.01889796
0.0037836789 0.000635 -0.019506123
0.0031782903 -0.00127 -0.0015653061
-0.013772591 -0.00127 -0.0015653061
-0.027999224 0.0003175 0.00025918367
-0.025274975 0.0003175 -0.016161224
-0.016496839 0.00095249998 -0.0021734694
-0.0022702073 0 -0.016161224
0.011048342 0.00127 -0.0018693878
0.011351037 -0.00127 -0.00095714285
0.0068106218 -0.00127 -0.0018693878
-0.015286063 0.0003175 -0.015857143
0.00015134715 -0.0003175 -0.010079592
-0.0037836789 -0.00127 -0.01889796
0.020431865 0.0003175 -0.0079510203
0.0034809846 0 -0.0021734694
-0.022853421 0.0003175 -0.0049102041
-0.020431865 -0.00127 -0.0015653061
-0.024669586 0.00095249998 -0.019506123
0.015588757 0.00127 -0.0015653061
0.02557767 0 0.0026918368
0.023458809 -0.00127 -0.019506123
0.018313006 -0.0003175 -4.4897959e-05
0.015286063 0.0003175 -0.0076469388
0.0031782903 -0.0003175 -4.4897959e-05
-0.0077187051 0 -0.0055183675
-0.010745648 -0.00127 -0.0006530612
0.018918395 0.00127 -0.019202041
0.017707618 -0.0003175 -0.010991837
-0.014983368 0 -0.016769387
0.010745648 -0.00095249998 -4.4897959e-05
0.0031782903 0.00095249998 -4.4897959e-05
0.027999224 0 -0.0076469388
-0.020431865 -0.0003175 -0.0088632656
-0.009837565 -0.000635 -0.0021734694
0.0025729015 0 -0.023763265
0.017404923 0.000635 -0.017985715
-0.0186157 -0.000635 -0.0021734694
-0.00015134715 -0.0003175 -0.018289795
0.0186157 -0.00095249998 -0.017985715
-0.022550726 0.00095249998 -0.017681632
-0.02709114 0.00127 -0.00095714285
-0.005902539 0.00127 -0.0015653061
0.020431865 0 -0.022242857
-0.016799534 -0.00127 -0.0015653061
-0.00015134715 -0.0003175 -0.012816327
0.0049944562 0 -0.0088632656
-0.0074160104 -0.0003175 -0.0049102041
-0.017707618 0.000635 -0.017985715
0.027999224 0.0003175 -0.023155103
0.020129172 0 -0.017073469
0.0013621243 0.000635 -0.0021734694
-0.012259119 0.000635 -0.018289795
0.022550726 0 -0.0043020407
-0.020431865 -0.0003175 -0.016465306
-0.011956425 0.00095249998 -0.019506123
-0.0080213994 -0.0003175 -0.0024775511
0.012561814 -0.000635 -0.0021734694
0.017707618 0 -0.0039979592
0.0007567358 -0.0003175 -4.4897959e-05
-0.014680674 -0.0003175 -0.0021734694
-0.028301917 0.0003175 -0.019506123
0.016799534 0.00127 -0.0012612245
-0.011956425 0.00095249998 -0.017681632
-0.027999224 -0.0003175 -0.021026531
0.00015134715 0 -0.021634694
-0.020129172 -0.0003175 -0.012816327
-0.005902539 -0.0003175 -0.017681632
-0.020431865 0.00127 -0.0015653061
-0.01014026 0.0003175 -0.016769387
0.00015134715 0 0.0026918368
-0.023458809 0.0003175 -0.017377552
-0.012561814 0 -0.014944898
0.010745648 0 -0.017377552
0.0010594301 -0.000635 -0.0021734694
-0.012864508 0.0003175 0.0023877551
-0.027696529 0 -0.0030857143
-0.025274975 0.0003175 -0.011904081
-0.013469896 -0.00095249998 -0.019506123
-0.02557767 0 -0.010079592
0.0083240932 0.00127 -0.019506123
-0.00045404147 -0.00095249998 -0.019506123
0.022853421 -0.0003175 -0.003389796
0.022853421 -0.0003175 -0.010079592
0.020129172 0 -0.02254694
0.012561814 -0.0003175 -0.0094714286
0.0062052333 0.0003175 -0.0021734694
-0.027696529 0 -0.0116
-0.0010594301 -0.0003175 -0.018593878
0.0025729015 -0.0003175 -0.017681632
-0.024064198 -0.00095249998 -0.017681632
0.0025729015 -0.00127 -0.01889796
0.00015134715 0.0003175 0.00086734694
0.0052971505 0.00127 -0.017985715
-0.0031782903 0.0003175 -0.017985715
0.025274975 0 -0.021938775
0.022853421 -0.0003175 0.0020836734
0.028604612 -0.0003175 -0.019506123
0.011653731 -0.0003175 -0.017377552
-0.0043890676 0.00095249998 -0.019506123
-0.017707618 0.0003175 -0.014032653
-0.022853421 0.0003175 -0.017377552
0.0049944562 0.0003175 0.00086734694
0.020129172 0.00127 -0.019506123
-0.012864508 0.0003175 -0.0064306124
0.024669586 -0.0003175 -0.0021734694
0.0010594301 -0.000635 -0.00034897958
-0.00045404147 0.00127 -0.0012612245
-0.0092321765 0.000635 -0.018593878
0.015891451 -0.00127 -0.0021734694
-0.0095348703 0.00127 -0.01889796
0.0025729015 0 -0.021330612
0.0089294817 -0.0003175 -0.0021734694
-0.027999224 0.0003175 -0.012512245
0.014983368 0.00095249998 -4.4897959e-05
-0.02073456 0.00127 -0.019202041
0.012864508 0 -0.025283674
0.0077187051 0 -0.0052142856
-0.0083240932 -0.00095249998 -0.019506123
0.026183058 0.00127 -0.00034897958
-0.0077187051 -0.0003175 -0.0027816326
-0.019826477 -0.000635 -0.0021734694
-0.00015134715 0 -0.013120408
0.02557767 0 -0.023459183
-0.0040863734 0.00127 -0.01889796
0.012864508 -0.0003175 0.0017795918
0.027999224 0.0003175 -0.011295918
0.027696529 0.000635 -0.017681632
0.0007567358 -0.000635 -0.00034897958
-0.022248032 0.0003175 -4.4897959e-05
0.011351037 -0.00127 -0.0015653061
0.0049944562 0 -0.023155103
0.019826477 0.000635 -0.017985715
-0.02557767 -0.0003175 -0.012512245
-0.0031782903 -0.00127 -0.017681632
0.020431865 -0.0003175 -0.0070387754
-0.028301917 -0.00127 -0.01889796
-0.012561814 0 -0.0088632656
0.017102228 0.000635 -0.00034897958
0.013167202 -0.00127 -0.019506123
0.019221088 0.00127 -0.0006530612
-0.012561814 -0.0003175 -0.010687755
0.0049944562 0.0003175 -4.4897959e-05
-0.0049944562 0 -0.0082551017
-0.018010311 -0.00095249998 -0.019506123
-0.011351037 0.00127 -0.019506123
-0.0025729015 0.0003175 -0.0085591832
0.028907306 -0.00095249998 -0.019506123
-0.0089294817 0.0003175 -4.4897959e-05
0.020129172 -0.0003175 -0.0024775511
0.018918395 -0.00127 -0.018289795
0.0052971505 0 -0.0094714286
0.014983368 0 -0.0043020407
-0.012864508 0 -0.023155103
0.00015134715 0.0003175 -0.017681632
-0.026485752 0.0003175 -0.019506123
0.0052971505 0.0003175 -0.018593878
-0.0049944562 0.0003175 -0.0024775511
0.024366891 0 -0.019506123
0.012864508 -0.0003175 0.0023877551
0.024669586 0.00127 -0.018593878
0.010745648 0.00127 -0.0012612245
-0.015588757 0.00127 -0.0015653061
0.022853421 0.0003175 -0.012512245
0.0065079276 -0.0003175 -0.019506123
0.015286063 -0.0003175 -0.0030857143
0.014983368 -0.000635 -0.019506123
-0.018010311 0 -0.016769387
0.022853421 -0.000635 -0.017681632
-0.0092321765 0.0003175 -0.018289795
-0.022550726 0.00127 -0.0006530612
0.0052971505 0 -0.0061265305
0.017707618 0.0003175 -0.020114286
0.027696529 -0.00095249998 -0.00034897958
-0.017404923 -0.00127 -0.018289795
-0.0022702073 0 -0.0061265305
-0.012561814 0.0003175 -0.017073469
-0.022853421 0 -0.0088632656
-0.0025729015 -0.0003175 -0.023763265
-0.011048342 -0.0003175 -0.019506123
-0.0049944562 -0.0003175 -0.005822449
-0.022853421 -0.0003175 -0.0073428573
0.01014026 0 -0.015248979
0.017707618 0 -0.0043020407
0.00015134715 -0.0003175 -0.0039979592
0.022853421 0 -0.011295918
0.028604612 -0.0003175 -0.017681632
0.0077187051 0.0003175 -0.024979591
0.027696529 0.00127 -0.018289795
0.012561814 -0.0003175 -0.017681632
0.0077187051 -0.0003175 0.0026918368
0.020129172 0 -0.0064306124
-0.022853421 -0.0003175 -0.0094714286
-0.0062052333 -0.000635 -0.00034897958
-0.017404923 -0.0003175 -0.0021734694
0.02557767 -0.00127 -0.01889796
0.020129172 0.0003175 -0.015857143
0.012864508 0 -0.0027816326
0.0077187051 0.0003175 -0.024371428
-0.013772591 -0.0003175 -0.017681632
-0.021339949 -0.00127 -0.01889796
-0.012864508 0 -0.0036938775
0.010745648 0 -0.0021734694
-0.014983368 0 -0.0024775511
0.025274975 -0.0003175 -0.024979591
-0.0025729015 0.0003175 -0.016161224
0.023156114 0.00095249998 -0.017681632
-0.019221088 0.0003175 -4.4897959e-05
0.024064198 0.00127 -0.0012612245
-0.022550726 0 -0.019810203
-0.018010311 -0.00127 -0.01889796
-0.0186157 0 -0.019506123
0.017707618 0 0.0011714286
0.0052971505 -0.00127 -0.018289795
0.027999224 0.0003175 -0.0052142856
-0.0016648187 0 -0.017377552
-0.0052971505 -0.0003175 0.00025918367
-0.0025729015 0 0.00025918367
-0.015286063 0 0.0011714286
-0.027999224 0.0003175 0.00056326529
-0.0092321765 0.00127 -0.0018693878
0.0043890676 -0.00127 -0.0021734694
0.0092321765 0.0003175 -0.019506123
0.016194146 0.000635 -0.0021734694
0.018010311 -0.0003175 -0.017681632
-0.022550726 0.00127 -0.0012612245
-0.0186157 -0.00095249998 -0.019506123
-0.020431865 -0.00127 -0.0021734694
0.0095348703 -0.00127 -0.019202041
0.026485752 -0.00127 -0.01889796
0.027999224 0.0003175 -0.005822449
0.019221088 -0.000635 -0.019506123
-0.028907306 -0.000635 -0.018289795
0.0074160104 0 -0.0052142856
-0.0052971505 -0.000635 -0.019810203
0.022853421 -0.0003175 -0.024979591
-0.0022702073 -0.0003175 -0.0091673471
0.017707618 0 -0.020722449
0.011653731 -0.0003175 -0.017985715
-0.020431865 -0.00127 -0.018593878
-0.021037254 -0.00127 -0.019506123
-0.0013621243 0 -4.4897959e-05
-0.018010311 -0.00127 -0.0012612245
0.011653731 0.000635 -0.018593878
0.0037836789 0 -0.0021734694
-0.027999224 0.0003175 -0.020418366
0.020431865 0.0003175 -0.021938775
0.00015134715 0 -0.0052142856
-0.012864508 -0.0003175 0.00025918367
-0.028301917 0.00127 -0.0006530612
0.0037836789 0.00127 -0.017985715
-0.022853421 0 0.0011714286
0.021642644 0.0003175 -0.017681632
-0.0055998447 -0.00127 -0.00095714285
-0.012864508 -0.00127 -4.4897959e-05
0.015588757 -0.00127 -0.00095714285
-0.023156114 0.00095249998 -0.019506123
0.0077187051 0 -0.012816327
0.0028755958 -0.00095249998 -0.01889796
0.01014026 0 -0.010687755
0.01014026 -0.0003175 -0.0052142856
-0.017707618 0 -0.02254694
-0.0074160104 0.0003175 -0.011295918
0.022853421 -0.00127 -0.0006530612
-0.00015134715 -0.00127 -4.4897959e-05
-0.024366891 -0.00127 -0.00034897958
-0.01014026 0.0003175 -0.0043020407
0.020431865 0.0003175 -0.0064306124
-0.02497228 -0.00127 -0.00034897958
-0.014680674 0.00127 -4.4897959e-05
-0.013469896 0.00127 -0.01889796
-0.01014026 -0.0003175 -0.020418366
-0.016799534 0.0003175 -0.017681632
0.015286063 -0.00127 -0.018593878
0.021037254 -0.00127 -0.017985715
0.014983368 0.0003175 0.00025918367
-0.02557767 -0.0003175 -0.015857143
0.012864508 0 -0.0079510203
0.028604612 -0.00095249998 -0.0018693878
0.015286063 0 -0.0064306124
0.012561814 0 -0.0030857143
0.0022702073 0 -0.025587754
0.0089294817 0.00127 -4.4897959e-05
-0.012561814 0 -0.005822449
-0.0052971505 0.00095249998 -4.4897959e-05
0.012259119 -0.00095249998 -4.4897959e-05
0.025274975 0 -0.013728571
0.021642644 0.0003175 -0.019506123
0.019826477 0 -0.0021734694
-0.0092321765 -0.00095249998 -0.018593878
0.022853421 0.0003175 -0.011295918
0.0022702073 0.0003175 0.00025918367
0.026485752 -0.000635 -0.019506123
-0.012259119 0.00127 -0.018289795
0.020431865 0 -0.0088632656
0.00015134715 -0.000635 -0.019810203
-0.0025729015 -0.0003175 -0.021026531
-0.0007567358 -0.0003175 -0.018289795
-0.001967513 0.00127 -0.0015653061
-0.023458809 0.00127 -0.00034897958
-0.0028755958 0.00127 -0.0021734694
0.023156114 0.00127 -0.017985715
-0.01014026 0 -0.017073469
0.012561814 -0.00127 -0.0018693878
-0.001967513 0.00127 -0.0018693878
-0.01437798 0.000635 -0.019506123
0.020431865 0 -0.020722449
-0.0025729015 -0.0003175 -0.017073469
-0.027999224 -0.0003175 -0.023459183
0.02557767 0 -0.0046061226
-0.023156114 0.000635 -0.017681632
0.0040863734 -0.00127 -0.019202041
0.02557767 -0.0003175 -0.016769387
0.0013621243 0.000635 -0.00034897958
0.0049944562 0 -0.015248979
0.028301917 0 -0.0021734694
0.0074160104 -0.0003175 -0.0052142856
0.018313006 0.000635 -0.017985715
-0.015891451 -0.00127 -0.00095714285
0.018918395 -0.0003175 -4.4897959e-05
-0.015286063 0 0.0020836734
-0.026485752 0.00127 -0.0021734694
0.0074160104 0.00127 -0.00095714285
-0.0086267879 -0.000635 -0.018593878
-0.017707618 -0.0003175 -0.017073469
0.00015134715 0.0003175 -0.0052142856
0.0068106218 -0.00127 -0.017985715
0.0025729015 0 -0.010383673
-0.017707618 0.0003175 -0.024675511
-0.0077187051 -0.0003175 0.0014755102
-0.0074160104 -0.0003175 -0.0097755101
-0.025274975 0 -0.0036938775
-0.0028755958 0.0003175 -0.0024775511
-0.0065079276 -0.00127 -0.0018693878
0.012561814 0 0.0020836734
0.027696529 0 -0.0064306124
-0.0016648187 0.0003175 -0.017377552
-0.0016648187 -0.000635 -0.019506123
-0.014983368 0.00127 -0.018593878
0.024064198 -0.00127 -0.0021734694
-0.027999224 0.0003175 -0.023155103
0.020431865 -0.0003175 -0.0027816326
0.005902539 0.000635 -0.019506123
