# .PCD v0.7 - Point Cloud Data file format
VERSION 0.7
FIELDS x y z
SIZE 4 4 4
TYPE F F F
COUNT 1 1 1
WIDTH 1355
HEIGHT 1
VIEWPOINT 0 0 0 1 0 0 0
POINTS 1355
DATA ascii
0.03693537 0 -0.021596875
0.0049912664 -0.00042333335 -0.014770312
-0.014574498 0.00042333335 -0.01436875
0.00019965065 0.00127 -0.002321875
0.01217869 0.00127 -0.002321875
-0.0017968558 0.00127 -0.00151875
-0.017369607 -0.00127 -0.0019203124
-0.012577991 -0.00084666669 -0.015171874
0.0025954584 -0.00127 -0.00151875
0.030147249 0 -0.013565625
-0.03693537 -0.00042333335 -0.002321875
-0.00099825324 -0.00042333335 -0.015171874
0.022560524 0.00084666669 -0.002321875
-0.0077863755 0.00127 -0.0019203124
-0.0053905677 0.00127 -0.014770312
-0.04572 -0.00042333335 -0.014770312
-0.044122793 0 -0.015975
-0.040129781 0.00127 -0.00151875
0.0037933623 -0.00042333335 -0.015171874
-0.013376594 -0.00084666669 -0.00031406243
0.040529083 0.00127 -0.0011171874
0.029348645 0 8.7500048e-05
-0.041726988 0 -0.020392187
0.02176192 0.00127 -0.01436875
-0.042126287 0.00127 -0.00031406243
-0.038532577 0.00042333335 -0.013967187
-0.042126287 0 -0.0031249998
0.01856751 0.00127 -0.0019203124
-0.037733972 0.00127 -0.0011171874
-0.0097828815 -0.00127 -0.0019203124
-0.0093835806 -0.00084666669 -0.015171874
0.023359125 -0.00127 -0.00031406243
-0.01856751 -0.00084666669 -0.014770312
-0.0041926638 0.00042333335 -0.00031406243
-0.037334673 0 -0.013565625
-0.022161223 0 -0.00031406243
0.0049912664 0.00042333335 -0.015573437
0.013376594 0.00127 -0.01436875
0.045320697 -0.00084666669 -0.01436875
0.026553536 -0.00127 -0.00071562495
0.0085849781 0.00127 -0.00071562495
-0.0085849781 0.00042333335 -0.013565625
0.00059895194 -0.00084666669 -0.00031406243
0.0077863755 0.00127 -0.013967187
-0.03693537 -0.00127 -0.01436875
0.011380087 0 -0.0031249998
-0.03054655 0.00127 -0.0019203124
0.035737466 -0.00084666669 -0.002321875
-0.00099825324 0 -0.010754688
-0.041327685 0.00042333335 -0.015573437
0.026553536 0 -0.011959375
-0.023359125 -0.00127 -0.01436875
-0.044522095 0 8.7500048e-05
-0.015772402 0.00084666669 -0.002321875
0.022959825 0.00084666669 -0.01436875
-0.0017968558 -0.00127 -0.013967187
-0.042126287 0 -0.0035265624
-0.03374096 -0.00042333335 -0.015573437
-0.0041926638 0.00084666669 -0.015573437
0.018966813 -0.00042333335 -0.015975
-0.018168209 -0.00042333335 -0.013565625
-0.012977293 -0.00042333335 -0.01436875
-0.032942358 0.00042333335 -0.00031406243
0.029348645 0 -0.017581251
0.020164715 0.00042333335 -0.00031406243
-0.036136769 -0.00127 -0.00151875
0.043723494 0.00084666669 -0.01436875
0.0029947597 -0.00042333335 -0.013967187
0.0089842789 0.00042333335 -0.013967187
-0.022959825 -0.00042333335 -0.002321875
0.026952839 0.00127 -0.00031406243
0.040529083 0.00042333335 -0.002321875
0.011380087 0.00042333335 -0.018785937
-0.02176192 0 -0.013164062
0.017369607 0.00084666669 -0.013565625
0.00099825324 -0.00042333335 -0.013565625
0.0073870742 0.00127 -0.0011171874
-0.026952839 -0.00042333335 -0.015573437
0.022959825 -0.00042333335 -0.013565625
0.0065884716 0 -0.0075421873
-0.040928382 -0.00084666669 -0.013565625
-0.00059895194 -0.00084666669 -0.002321875
-0.0041926638 0.00127 -0.002321875
-0.041726988 0.00084666669 -0.015573437
-0.034140263 0 -0.013164062
0.038133275 0.00084666669 -0.002321875
-0.011380087 0 -0.018384375
-0.0069877729 0.00042333335 -0.01436875
0.038133275 0 -0.002321875
0.0037933623 -0.00042333335 -0.017179687
0.041726988 0.00084666669 -0.013565625
-0.034938864 0.00042333335 -0.002321875
-0.037733972 -0.00042333335 -0.015573437
-0.011380087 0.00127 -0.013967187
0.031744454 0 -0.017982813
-0.043723494 -0.00127 -0.015573437
-0.012577991 -0.00127 -0.01436875
0.0025954584 0.00042333335 -0.00031406243
-0.043723494 0.00042333335 -0.013565625
-0.010980786 -0.00127 -0.01436875
-0.012977293 0 -0.002321875
0.044522095 0.00127 -0.00031406243
-0.040529083 0.00042333335 -0.00031406243
0.032143753 -0.00127 -0.00151875
0.01856751 -0.00127 -0.0011171874
-0.02176192 0 0.00089062506
0.02176192 0.00084666669 -0.01436875
-0.030147249 0.00127 -0.00071562495
-0.040928382 0.00084666669 -0.002321875
0.038931876 0 -0.002321875
-0.042126287 0 -0.0063374997
0.035737466 0.00127 -0.01436875
0.0085849781 0 -0.0075421873
0.042126287 0.00127 -0.00031406243
-0.016970305 -0.00127 -0.00151875
-0.016571004 0.00042333335 -0.013967187
0.041726988 0 -0.019990625
0.016571004 0.00084666669 -0.014770312
-0.036136769 -0.00084666669 -0.002321875
0.0037933623 -0.00127 -0.00071562495
-0.038532577 -0.00127 -0.002321875
-0.028150741 -0.00127 -0.0011171874
0.01856751 -0.00127 -0.0019203124
0.0021961571 0.00042333335 -0.01436875
0.0081856763 -0.00084666669 -0.015171874
-0.029747946 0.00042333335 -0.00031406243
-0.016970305 -0.00042333335 -0.013565625
0.031744454 0 0.0012921875
0.0025954584 -0.00084666669 -0.015573437
0.02176192 0 -0.0035265624
0.018168209 -0.00127 -0.0019203124
0.0025954584 -0.00042333335 -0.013565625
0.031744454 -0.00127 -0.013565625
0.0093835806 -0.00084666669 -0.00031406243
-0.0081856763 -0.00042333335 -0.015573437
0.0069877729 -0.00084666669 -0.002321875
-0.02775144 0.00042333335 -0.013967187
-0.022560524 0.00127 -0.01436875
0.0073870742 0 -0.015573437
0.043723494 0.00127 -0.00151875
0.011779388 0.00042333335 -0.002321875
0.041726988 -0.00042333335 -0.002321875
-0.0049912664 0.00042333335 -0.013967187
-0.0045919651 -0.00127 -0.00031406243
0.042126287 -0.00084666669 -0.002321875
0.0069877729 0.00127 -0.0019203124
-0.028949345 -0.00084666669 -0.01436875
-0.012577991 -0.00084666669 -0.00031406243
0.018966813 0.00042333335 -0.016376562
0.0061891703 0 -0.012360937
-0.00099825324 0 -0.0035265624
0.034140263 0 -0.0079437494
0.031744454 0.00127 -0.015573437
0.015373101 -0.00127 -0.00031406243
0.014574498 0.00127 -0.013565625
-0.033341657 0.00127 -0.0019203124
0.0037933623 -0.00084666669 -0.002321875
0.035338167 0.00042333335 -0.00031406243
-0.038133275 -0.00042333335 -0.013565625
0.0061891703 0 -0.019187499
-0.022959825 -0.00042333335 -0.013565625
-0.035338167 0.00084666669 -0.00031406243
-0.045320697 -0.00084666669 -0.002321875
0.015373101 0.00042333335 -0.015573437
-0.045320697 0 -0.002321875
0.039730478 -0.00084666669 -0.015171874
0.029348645 0 -0.0075421873
-0.013775895 0.00127 -0.014770312
0.040928382 0.00127 -0.013565625
-0.024157729 -0.00084666669 -0.015573437
-0.020564018 0.00042333335 -0.015573437
0.0093835806 0.00084666669 -0.015171874
-0.01217869 0.00127 -0.00151875
-0.0029947597 -0.00042333335 -0.015573437
-0.03374096 0.00084666669 -0.015573437
0.018966813 0 -0.0039281249
-0.025355633 -0.00127 -0.002321875
-0.036136769 0.00127 -0.00071562495
0.045320697 0.00042333335 -0.015171874
0.020164715 -0.00127 -0.00151875
-0.031345151 0.00042333335 -0.013565625
-0.041726988 -0.00127 -0.0011171874
-0.01217869 0.00042333335 -0.01436875
0.0037933623 0 -0.019990625
-0.013376594 0.00127 -0.015573437
-0.014574498 0.00084666669 -0.014770312
0.0037933623 0 -0.020793749
0.016970305 0.00127 -0.00071562495
-0.029348645 0.00084666669 -0.00031406243
0.017768908 -0.00042333335 -0.013565625
-0.034140263 -0.00042333335 -0.013565625
-0.028550044 -0.00084666669 -0.015573437
0.0013975545 -0.00084666669 -0.015573437
0.01217869 -0.00127 -0.01436875
0.024157729 0.00127 -0.00151875
0.016970305 -0.00127 -0.0019203124
0.02176192 0 -0.0067390623
-0.010980786 -0.00127 -0.0019203124
0.0081856763 -0.00042333335 -0.013967187
-0.016970305 -0.00127 -0.00071562495
0.018966813 0 -0.0051328125
-0.042924888 0.00084666669 -0.015171874
0.033341657 -0.00084666669 -0.002321875
-0.0089842789 0 0.0028984374
-0.010581484 0.00042333335 -0.013565625
-0.039331179 0.00127 -0.0019203124
-0.018966813 0.00127 -0.0019203124
0.0045919651 0.00127 -0.015171874
-0.0013975545 0 0.0024968751
-0.019765414 -0.00127 -0.0019203124
0.0085849781 0.00042333335 -0.014770312
0.019765414 0.00127 -0.013565625
-0.014574498 0.00042333335 -0.013967187
0.029747946 -0.00127 -0.00031406243
-0.036136769 -0.00127 -0.002321875
0.031744454 0 -0.017179687
0.0061891703 -0.00042333335 -0.00031406243
0.04572 -0.00042333335 -0.013967187
0.0069877729 0.00042333335 -0.002321875
0.0029947597 -0.00042333335 -0.00031406243
-0.010182183 -0.00127 -0.0019203124
0.0093835806 -0.00127 -0.002321875
-0.040529083 0.00127 -0.0011171874
-0.041726988 0.00042333335 -0.015573437
0.034539562 0.00084666669 -0.002321875
0.0041926638 0.00042333335 -0.00031406243
0.028949345 -0.00127 -0.002321875
0.025355633 0.00127 -0.013565625
0.014175196 0.00127 -0.013967187
0.022560524 -0.00127 -0.0019203124
0.043723494 0.00127 -0.0011171874
-0.00059895194 0.00127 -0.014770312
0.010980786 -0.00084666669 -0.002321875
0.020564018 0.00127 -0.015171874
0.0077863755 0 -0.013565625
0.042924888 0.00127 -0.013967187
0.030945851 -0.00084666669 -0.01436875
-0.013376594 0.00042333335 -0.015573437
-0.037334673 0.00127 -0.015573437
0.029747946 0.00084666669 -0.00031406243
-0.011380087 0 -0.0071406248
-0.041726988 0.00127 -0.013967187
-0.040928382 0.00084666669 -0.013565625
0.021362619 0 -0.0099515626
-0.0017968558 0.00042333335 -0.014770312
-0.017369607 0.00084666669 -0.002321875
-0.036536068 0.00042333335 -0.013967187
-0.019765414 -0.00127 -0.00071562495
-0.029348645 -0.00084666669 -0.002321875
-0.0085849781 0 0.0012921875
0.035737466 0.00084666669 -0.00031406243
-0.022560524 0.00127 -0.00031406243
-0.038133275 0.00127 -0.0019203124
0.0089842789 -0.00127 -0.0011171874
-0.0037933623 -0.00042333335 -0.0127625
-0.040928382 0.00042333335 -0.015573437
-0.0089842789 0 -0.0095499996
-0.031744454 -0.00127 -0.0019203124
0.030945851 0 -0.002321875
0.042525589 -0.00127 -0.013565625
-0.039331179 0.00127 -0.013967187
-0.038931876 -0.00127 -0.015171874
0.021362619 -0.00127 -0.01436875
-0.045320697 0.00042333335 -0.014770312
-0.00099825324 0 -0.018384375
-0.018966813 0 0.00169375
-0.042126287 -0.00084666669 -0.002321875
-0.011380087 -0.00127 -0.00071562495
-0.024157729 -0.00042333335 -0.011557812
0.028949345 0.00127 -0.00151875
0.016571004 0.00127 -0.002321875
-0.018168209 0 -0.015573437
0.015772402 0.00127 -0.015171874
0.021362619 0 -0.0051328125
-0.0053905677 -0.00042333335 -0.01436875
0.0061891703 -0.00127 -0.015573437
0.015373101 0.00127 -0.0019203124
-0.028150741 0.00084666669 -0.002321875
-0.020963319 0.00127 -0.014770312
0.020963319 0.00042333335 -0.013565625
0.037334673 0.00042333335 -0.015573437
-0.02176192 0.00042333335 -0.00031406243
0.0065884716 0 -0.0031249998
0.015772402 0.00084666669 -0.014770312
0.039331179 0 -0.0079437494
-0.0097828815 0.00042333335 -0.015573437
0.0017968558 0.00042333335 -0.013565625
0.043324191 0.00084666669 -0.015573437
-0.020164715 0.00084666669 -0.002321875
-0.041327685 0.00084666669 -0.002321875
0.034539562 0 -0.010754688
-0.033341657 -0.00127 -0.013967187
-0.030147249 -0.00127 -0.00071562495
-0.034140263 0.00042333335 -0.002321875
-0.015373101 -0.00127 -0.00031406243
-0.0037933623 0.00042333335 -0.014770312
-0.031744454 0 -0.0035265624
-0.036536068 -0.00084666669 -0.015171874
-0.018168209 0.00127 -0.00151875
-0.028949345 0 0.0020953126
-0.044921398 -0.00084666669 -0.013967187
0.030147249 -0.00127 -0.01436875
-0.042525589 0 -0.013565625
-0.041726988 0 -0.0027234375
-0.00099825324 0.00042333335 -0.014770312
0.021362619 0 -0.020392187
-0.016571004 -0.00042333335 -0.0127625
-0.039331179 -0.00042333335 -0.016376562
0.017369607 -0.00042333335 -0.00031406243
-0.013775895 0 0.0020953126
0.0053905677 0.00127 -0.013967187
0.026553536 0.00042333335 -0.0027234375
0.0025954584 0 -0.015573437
-0.0049912664 0.00042333335 -0.015573437
0.0017968558 0.00127 -0.00031406243
0.042126287 -0.00127 -0.01436875
-0.028949345 0 -0.013164062
0.011779388 0.00042333335 -0.013565625
-0.0081856763 0.00127 -0.002321875
0.011779388 -0.00127 -0.00071562495
0.034539562 0.00127 -0.00071562495
0.040928382 -0.00042333335 -0.013565625
-0.039331179 0 -0.017581251
-0.017369607 0.00127 -0.002321875
-0.016571004 0 -0.0051328125
0.0017968558 -0.00042333335 -0.002321875
-0.044921398 -0.00084666669 -0.002321875
-0.02176192 0 8.7500048e-05
0.039331179 0 -0.013164062
0.034539562 0 -0.0035265624
-0.00099825324 0.00042333335 -0.002321875
0.044522095 0 -0.016376562
0.044921398 -0.00127 -0.0019203124
0.03374096 -0.00127 -0.0019203124
-0.0089842789 -0.00042333335 -0.01436875
-0.032942358 0.00042333335 -0.014770312
0.020164715 -0.00127 -0.015171874
-0.0097828815 -0.00127 -0.013967187
-0.010182183 0.00127 -0.0019203124
0.014973799 0.00127 -0.0019203124
0.019366113 0.00127 -0.015171874
0.03693537 -0.00127 -0.015171874
-0.044122793 -0.00127 -0.00151875
-0.019765414 0.00084666669 -0.014770312
-0.014574498 -0.00127 -0.00031406243
0.023758428 -0.00084666669 -0.00031406243
-0.026553536 0.00042333335 -0.013565625
-0.035338167 -0.00127 -0.00031406243
-0.02176192 -0.00042333335 -0.013565625
-0.031345151 0.00042333335 -0.002321875
-0.031744454 0 -0.0067390623
-0.0045919651 -0.00127 -0.015573437
-0.023359125 -0.00127 -0.00071562495
-0.040928382 -0.00127 -0.014770312
0.0089842789 0 -0.0051328125
-0.013376594 0.00084666669 -0.015171874
-0.018966813 -0.00042333335 -0.0127625
-0.0089842789 -0.00042333335 -0.013565625
0.043324191 -0.00084666669 -0.013565625
0.014175196 0.00042333335 -0.01436875
0.0077863755 0.00084666669 -0.00031406243
0.03693537 -0.00127 -0.00151875
0.043324191 0.00084666669 -0.013565625
0.023758428 0.00127 -0.002321875
-0.01856751 -0.00127 -0.0011171874
-0.0037933623 0 0.0024968751
0.00099825324 0.00042333335 -0.002321875
0.014175196 0.00042333335 -0.013565625
0.005789869 -0.00084666669 -0.002321875
-0.0013975545 0 -0.0063374997
0.0021961571 -0.00042333335 -0.002321875
0.015373101 0.00042333335 -0.002321875
0.016571004 0 -0.0055343751
0.016571004 -0.00042333335 -0.018785937
-0.010581484 0.00084666669 -0.00031406243
-0.022959825 -0.00042333335 -0.015573437
-0.0029947597 0.00127 -0.00071562495
0.039331179 0 -0.019187499
-0.018966813 0 -0.019187499
-0.024157729 0 -0.0071406248
-0.0077863755 -0.00127 -0.013967187
0.031744454 0 -0.00473125
-0.028949345 0 -0.0083453124
0.038532577 0.00042333335 -0.013565625
0.037334673 0.00127 -0.00071562495
0.018966813 0.00042333335 -0.012360937
0.0065884716 0 0.0012921875
-0.04572 -0.00042333335 -0.013565625
0.0081856763 0.00042333335 -0.002321875
-0.0061891703 0 -0.0091484375
-0.0029947597 0.00127 -0.00151875
0.042525589 -0.00127 -0.00151875
-0.034938864 -0.00042333335 -0.013565625
-0.028550044 0.00084666669 -0.015573437
0.030945851 -0.00042333335 -0.013565625
0.02775144 0.00042333335 -0.013565625
0.034140263 0.00042333335 -0.002321875
-0.026553536 -0.00042333335 -0.013164062
-0.040529083 -0.00084666669 -0.013967187
0.025355633 -0.00127 -0.01436875
0.022161223 -0.00127 -0.014770312
0.030147249 0.00127 -0.00071562495
0.041327685 -0.00084666669 -0.002321875
-0.028550044 0.00127 -0.0011171874
-0.016571004 0 -0.0071406248
-0.028550044 -0.00127 -0.00071562495
-0.0049912664 0.00127 -0.014770312
0.0061891703 0.00127 -0.0011171874
-0.03693537 -0.00042333335 -0.014770312
-0.028949345 0 -0.0043296875
-0.013775895 0.00127 -0.00031406243
-0.015373101 0.00084666669 -0.002321875
-0.041726988 0 -0.017581251
-0.011779388 -0.00127 -0.00031406243
-0.026154235 0.00084666669 -0.00031406243
-0.028550044 -0.00127 -0.015171874
0.016571004 0.00042333335 -0.016376562
0.0097828815 -0.00042333335 -0.014770312
-0.031345151 0 -0.002321875
-0.042126287 0 -0.0079437494
-0.033341657 -0.00127 -0.00151875
0.024956331 -0.00127 -0.0019203124
0.038133275 0.00042333335 -0.002321875
0.032143753 -0.00084666669 -0.013967187
-0.039331179 0 -0.0083453124
0.042924888 0.00127 -0.0019203124
0.021362619 0 -0.017581251
0.042924888 -0.00127 -0.015171874
-0.020564018 0.00042333335 -0.01436875
0.0073870742 0.00084666669 -0.015573437
0.015373101 0.00127 -0.013967187
-0.01217869 0 -0.002321875
-0.015373101 -0.00127 -0.0011171874
0.028550044 -0.00127 -0.00151875
0.012577991 -0.00127 -0.01436875
-0.010182183 -0.00084666669 -0.002321875
-0.0013975545 -0.00042333335 -0.015975
-0.019765414 -0.00127 -0.002321875
-0.0025954584 -0.00042333335 -0.00031406243
0.01856751 0.00042333335 -0.002321875
0.031744454 0 -0.015975
0.031744454 -0.00127 -0.002321875
0.044122793 0.00084666669 -0.00031406243
0.0065884716 0.00127 -0.013967187
-0.023359125 -0.00084666669 -0.01436875
-0.018966813 0.00084666669 -0.00031406243
-0.0081856763 0.00042333335 -0.002321875
-0.0013975545 0.00042333335 -0.016778124
0.025754934 -0.00127 -0.002321875
0.021362619 0 -0.021195313
-0.041327685 0.00127 -0.00151875
-0.034539562 0 -0.0063374997
-0.011380087 0 -0.010353125
-0.024157729 -0.00127 -0.013565625
0.026553536 0 -0.0079437494
-0.025355633 0.00127 -0.01436875
-0.024157729 0 -0.0127625
0.0097828815 -0.00127 -0.015573437
0.028550044 0.00127 -0.015171874
0.0045919651 -0.00127 -0.00071562495
-0.034539562 0 0.0020953126
0.031744454 0 -0.01115625
0.020963319 0.00127 -0.0019203124
0.0025954584 0.00127 -0.00151875
0.010182183 0.00127 -0.0019203124
0.024956331 -0.00127 -0.002321875
0.0037933623 0.00127 -0.015573437
0.0097828815 -0.00042333335 -0.002321875
0.044522095 0 -0.021596875
-0.042126287 0 -0.0083453124
-0.038931876 0.00042333335 -0.015171874
-0.0085849781 -0.00084666669 -0.002321875
-0.032543056 0.00084666669 -0.015573437
0.020564018 0 -0.015573437
-0.0089842789 0 -0.017179687
0.03374096 0.00084666669 -0.002321875
-0.012977293 0.00127 -0.0019203124
0.029348645 0 -0.012360937
0.014574498 0.00042333335 -0.013565625
-0.037334673 -0.00042333335 -0.002321875
-0.028550044 0.00084666669 -0.01436875
-0.010581484 -0.00127 -0.002321875
-0.02775144 0 -0.013565625
0.02775144 -0.00127 -0.014770312
-0.034140263 0 -0.019187499
0.026553536 -0.00042333335 -0.013164062
0.03693537 0 0.0020953126
0.010581484 -0.00127 -0.015573437
0.026952839 0 -0.0075421873
-0.00059895194 -0.00127 -0.015171874
0.036536068 -0.00127 -0.014770312
-0.022560524 -0.00127 -0.0019203124
0.028949345 0 -0.0095499996
-0.0053905677 0 -0.015573437
0.00019965065 0.00127 -0.01436875
0.040529083 0 -0.015573437
0.010581484 0.00127 -0.002321875
0.035737466 -0.00127 -0.013565625
0.03693537 0.00042333335 -0.013565625
0.04572 0.00042333335 -0.00071562495
-0.003394061 0.00042333335 -0.014770312
0.032143753 0.00084666669 -0.013967187
-0.029348645 0.00042333335 -0.002321875
-0.045320697 -0.00084666669 -0.00031406243
0.021362619 0 -0.0039281249
-0.02176192 -0.00127 -0.015171874
-0.010980786 0.00127 -0.002321875
0.018966813 0.00042333335 -0.01436875
0.039730478 0 -0.015573437
-0.011779388 0.00042333335 -0.00031406243
-0.038532577 0.00042333335 -0.013565625
-0.023758428 0.00127 -0.0011171874
-0.005789869 -0.00084666669 -0.00031406243
-0.026553536 -0.00042333335 -0.00031406243
0.016571004 -0.00127 -0.00151875
-0.011380087 0.00042333335 -0.002321875
0.025355633 -0.00042333335 -0.00031406243
-0.012977293 -0.00084666669 -0.002321875
-0.043723494 0.00042333335 -0.002321875
0.024157729 0 -0.0043296875
-0.00099825324 0.00127 -0.0019203124
0.033341657 0.00084666669 -0.002321875
-0.038133275 -0.00127 -0.0019203124
-0.0061891703 -0.00042333335 -0.002321875
-0.031744454 0.00127 -0.00151875
0.039331179 0.00042333335 -0.015573437
-0.042924888 -0.00127 -0.013967187
0.012577991 0.00127 -0.015171874
0.039331179 0 -0.0031249998
0.020164715 0.00084666669 -0.015573437
-0.027352139 -0.00084666669 -0.002321875
0.0053905677 0.00042333335 -0.01436875
-0.0069877729 0.00127 -0.00151875
0.025355633 -0.00084666669 -0.015573437
0.025754934 -0.00042333335 -0.00031406243
-0.033341657 0.00127 -0.00151875
0.044522095 0 -0.0087468745
0.024157729 0.00042333335 -0.015975
0.0021961571 -0.00127 -0.0011171874
0.03693537 -0.00042333335 -0.013164062
0.013376594 -0.00127 -0.002321875
-0.020963319 -0.00127 -0.01436875
-0.045320697 0.00084666669 -0.01436875
0.0085849781 0 -0.017982813
0.010980786 0.00042333335 -0.01436875
0.015772402 0.00127 -0.00071562495
-0.035338167 0.00127 -0.00071562495
0.003394061 0.00084666669 -0.00031406243
-0.041726988 0 -0.019990625
0.037334673 -0.00127 -0.0019203124
0.040529083 0.00127 -0.00031406243
-0.038532577 0 -0.015573437
-0.0037933623 0.00042333335 -0.015171874
-0.036136769 0.00127 -0.015573437
0.01856751 -0.00127 -0.014770312
0.03054655 0.00042333335 -0.013565625
-0.028550044 0.00127 -0.015171874
-0.029348645 0 -0.0027234375
0.0037933623 -0.00042333335 -0.01436875
0.044522095 0 -0.020793749
-0.01217869 -0.00127 -0.014770312
-0.034539562 0.00042333335 -0.015171874
-0.044522095 0 0.00089062506
-0.0017968558 0.00127 -0.015573437
-0.01856751 0 -0.002321875
-0.040928382 0 -0.002321875
0.014574498 -0.00042333335 -0.002321875
-0.0013975545 0.00127 -0.01436875
-0.014574498 0.00127 -0.014770312
-0.0021961571 -0.00127 -0.00151875
-0.013775895 0.00127 -0.00151875
-0.040529083 -0.00084666669 -0.002321875
0.022959825 -0.00127 -0.015171874
-0.044122793 0.00042333335 -0.015573437
-0.031345151 -0.00127 -0.00031406243
0.016970305 -0.00127 -0.014770312
-0.035737466 -0.00127 -0.0011171874
0.045320697 -0.00042333335 -0.015171874
0.0013975545 -0.00042333335 -0.013164062
0.024157729 -0.00084666669 -0.015573437
0.036536068 0.00084666669 -0.00031406243
-0.039331179 0.00127 -0.013565625
0.010980786 -0.00042333335 -0.00031406243
-0.03693537 0 -0.020392187
-0.0077863755 0.00127 -0.01436875
0.0049912664 0.00127 -0.00071562495
0.028550044 -0.00127 -0.013565625
-0.039331179 0 -0.019990625
-0.039331179 0 0.0020953126
0.044921398 0 -0.002321875
-0.012977293 0.00042333335 -0.015573437
0.01856751 0 -0.002321875
0.01217869 -0.00127 -0.015171874
0.030945851 -0.00127 -0.002321875
-0.0097828815 0.00042333335 -0.014770312
-0.0081856763 0.00042333335 -0.014770312
-0.031744454 0 -0.011557812
-0.011779388 -0.00127 -0.0011171874
0.039331179 0 -0.020793749
-0.016571004 0.00042333335 -0.016778124
-0.0013975545 0.00042333335 -0.015171874
0.03054655 0 -0.013565625
-0.023758428 0.00084666669 -0.01436875
-0.038133275 -0.00084666669 -0.00031406243
0.03374096 0.00042333335 -0.00031406243
0.0093835806 0 -0.00031406243
-0.0013975545 0 -0.0095499996
-0.018168209 -0.00084666669 -0.00031406243
-0.013376594 -0.00042333335 -0.015573437
0.0037933623 0 -0.0099515626
0.022959825 -0.00127 -0.002321875
-0.024157729 0.00042333335 -0.013967187
-0.0061891703 0 -0.0027234375
0.016970305 -0.00127 -0.002321875
-0.041726988 -0.00127 -0.002321875
0.039331179 0.00127 -0.01436875
0.032942358 0.00127 -0.002321875
-0.030945851 -0.00127 -0.0019203124
-0.040129781 0.00127 -0.002321875
0.0061891703 0.00127 -0.01436875
0.013775895 0 -0.019990625
-0.0037933623 -0.00084666669 -0.002321875
-0.0085849781 0 -0.0059359372
0.014175196 -0.00084666669 -0.014770312
-0.015772402 0.00042333335 -0.00031406243
0.035737466 -0.00127 -0.014770312
0.010581484 0.00084666669 -0.00031406243
0.01217869 -0.00042333335 -0.015573437
0.034140263 0 0.00169375
0.016171703 0.00042333335 -0.00031406243
0.020164715 -0.00042333335 -0.013565625
-0.022959825 -0.00084666669 -0.00031406243
-0.019765414 -0.00084666669 -0.00031406243
0.019765414 0 -0.015573437
0.0021961571 -0.00127 -0.002321875
-0.040928382 -0.00127 -0.00031406243
0.03693537 0.00042333335 -0.019990625
0.0089842789 -0.00042333335 -0.013967187
-0.010581484 0.00127 -0.00151875
-0.023758428 0.00084666669 -0.002321875
0.036536068 0.00127 -0.01436875
0.010581484 0.00042333335 -0.00031406243
0.01217869 -0.00084666669 -0.015171874
-0.02455703 -0.00127 -0.0011171874
0.0013975545 0.00042333335 -0.002321875
0.021362619 0.00127 -0.015573437
-0.020963319 -0.00042333335 -0.013967187
0.023359125 0.00127 -0.00071562495
0.0061891703 -0.00042333335 -0.015573437
0.037733972 0 -0.015573437
-0.022560524 -0.00127 -0.014770312
-0.012977293 -0.00127 -0.00071562495
0.020164715 -0.00084666669 -0.014770312
0.022560524 0.00042333335 -0.00031406243
-0.038931876 -0.00127 -0.015573437
0.023758428 0 -0.00031406243
0.038532577 0.00084666669 -0.00031406243
-0.034938864 0.00127 -0.002321875
-0.020564018 -0.00127 -0.0019203124
0.031744454 0.00042333335 -0.017581251
0.022161223 -0.00042333335 -0.002321875
0.03693537 0 -0.011557812
-0.044122793 0.00127 -0.00151875
-0.029747946 -0.00084666669 -0.013967187
-0.011380087 0 -0.0095499996
0.02176192 0.00042333335 -0.013164062
0.031345151 0 -0.002321875
-0.041726988 0 -0.011557812
0.026553536 0 -0.0051328125
-0.0041926638 -0.00127 -0.0019203124
-0.039730478 -0.00127 -0.002321875
-0.003394061 0.00127 -0.013565625
-0.040529083 -0.00127 -0.015573437
-0.028949345 0 -0.0059359372
-0.01856751 -0.00127 -0.015171874
-0.013376594 -0.00127 -0.015171874
0.016571004 0 -0.0083453124
0.033341657 0.00127 -0.013967187
0.032543056 0.00127 -0.0019203124
0.0053905677 -0.00042333335 -0.01436875
0.012577991 0.00127 -0.0019203124
-0.00099825324 0 -0.0059359372
0.0037933623 0 -0.0127625
-0.0045919651 -0.00127 -0.00071562495
-0.0045919651 0.00084666669 -0.002321875
0.0085849781 0.00127 -0.015573437
0.00019965065 0.00084666669 -0.015573437
-0.02775144 -0.00084666669 -0.002321875
0.0073870742 -0.00127 -0.002321875
-0.00099825324 0.00127 -0.0011171874
0.0073870742 0 -0.00031406243
0.003394061 -0.00127 -0.00031406243
-0.010182183 0.00042333335 -0.01436875
0.0077863755 -0.00127 -0.002321875
0.03693537 0 -0.0055343751
-0.037334673 -0.00127 -0.013967187
0.032143753 -0.00042333335 -0.002321875
0.00099825324 -0.00042333335 -0.002321875
0.017369607 0.00042333335 -0.00031406243
-0.036136769 -0.00042333335 -0.014770312
0.0053905677 0.00127 -0.015573437
-0.042126287 0 -0.018384375
0.0069877729 -0.00042333335 -0.013967187
0.029747946 0.00084666669 -0.015573437
0.010980786 -0.00042333335 -0.013565625
0.014175196 -0.00042333335 -0.013164062
-0.034140263 0 -0.018785937
0.024157729 0 -0.0071406248
0.00019965065 -0.00127 -0.002321875
-0.039331179 0.00127 -0.00071562495
-0.00059895194 -0.00084666669 -0.00031406243
-0.01217869 0.00127 -0.0019203124
-0.022959825 0.00127 -0.00071562495
0.0085849781 -0.00127 -0.015573437
-0.036136769 -0.00042333335 -0.013565625
-0.041726988 -0.00127 -0.00031406243
0.03693537 0 -0.015975
0.040129781 -0.00084666669 -0.002321875
0.018966813 0.00042333335 -0.0127625
0.014574498 0.00127 -0.014770312
0.041327685 0.00084666669 -0.002321875
-0.0037933623 0 -0.0067390623
0.032543056 -0.00042333335 -0.013565625
0.0093835806 0.00127 -0.01436875
-0.039331179 0 -0.013164062
-0.029348645 0 -0.019589063
0.015772402 -0.00127 -0.00031406243
-0.031345151 -0.00042333335 -0.00031406243
0.039331179 0.00127 -0.013967187
0.0085849781 0 -0.011557812
-0.039331179 0.00042333335 -0.019589063
-0.040129781 -0.00084666669 -0.013565625
-0.0021961571 -0.00084666669 -0.00031406243
-0.0069877729 -0.00042333335 -0.013967187
-0.040928382 0.00127 -0.00071562495
0.026952839 0 -0.0087468745
0.029348645 0.00127 -0.002321875
0.0013975545 0 -0.0075421873
-0.03693537 0 -0.0039281249
-0.029348645 0 -0.0071406248
-0.0053905677 0 -0.00031406243
-0.0013975545 0 -0.020793749
-0.013376594 -0.00084666669 -0.002321875
-0.0069877729 0.00042333335 -0.013967187
0.026952839 0.00042333335 -0.00031406243
0.029348645 0.00127 -0.013967187
-0.039331179 0.00042333335 -0.00031406243
0.039331179 0 0.00048906257
-0.0069877729 -0.00042333335 -0.01436875
0.03693537 0.00042333335 -0.013164062
0.02455703 0.00127 -0.00071562495
0.044921398 0.00084666669 -0.013565625
0.016571004 0 -0.0071406248
-0.025754934 -0.00042333335 -0.00031406243
-0.041726988 0.00127 -0.002321875
-0.020164715 -0.00127 -0.00151875
-0.0085849781 -0.00042333335 -0.00031406243
-0.023758428 0.00084666669 -0.00031406243
0.028150741 0.00127 -0.00071562495
-0.0089842789 0 -0.018384375
-0.015373101 0.00127 -0.00031406243
0.028949345 0 -0.01115625
0.034539562 0.00084666669 -0.015573437
-0.024157729 0 -0.0055343751
0.022959825 0.00042333335 -0.002321875
-0.025754934 -0.00042333335 -0.013967187
0.042126287 0 -0.015975
0.016970305 -0.00127 -0.01436875
0.028949345 0 -0.011557812
0.0025954584 0.00127 -0.00071562495
-0.044122793 0.00042333335 -0.002321875
0.00059895194 -0.00127 -0.00071562495
-0.010980786 -0.00127 -0.014770312
-0.022959825 0.00042333335 -0.015573437
-0.029747946 0.00042333335 -0.002321875
0.003394061 -0.00084666669 -0.00031406243
0.037334673 0.00084666669 -0.013565625
0.016571004 -0.00127 -0.014770312
-0.035737466 0 -0.002321875
0.0045919651 0.00084666669 -0.00031406243
0.012977293 0 -0.015573437
-0.039331179 0.00042333335 -0.017982813
-0.010980786 -0.00127 -0.015573437
0.024956331 0.00084666669 -0.013565625
0.0021961571 -0.00084666669 -0.015573437
0.015373101 0.00084666669 -0.015573437
0.02775144 -0.00127 -0.015171874
0.014175196 0 -0.020793749
0.0065884716 0 -0.012360937
-0.0089842789 0 -0.012360937
-0.014973799 0.00084666669 -0.002321875
-0.014175196 0 -0.0095499996
0.0017968558 0.00042333335 -0.015171874
-0.016171703 0 -0.013164062
-0.029348645 0 -0.00473125
-0.0029947597 0.00127 -0.014770312
0.023359125 0.00127 -0.0019203124
-0.026553536 0 -0.012360937
0.025355633 -0.00042333335 -0.015573437
-0.042126287 0 -0.0051328125
0.028150741 0.00127 -0.014770312
-0.018168209 0 -0.002321875
0.02176192 0 -0.013164062
0.010980786 0.00127 -0.0011171874
-0.003394061 0.00127 -0.00031406243
0.0085849781 0 -0.011959375
0.02176192 0.00127 -0.00151875
0.012977293 0.00127 -0.0019203124
-0.0061891703 0 -0.0051328125
0.014574498 0.00042333335 -0.00031406243
0.014574498 -0.00042333335 -0.01436875
0.00099825324 0 -0.019187499
-0.0025954584 -0.00042333335 -0.002321875
-0.031345151 0.00127 -0.0011171874
-0.030945851 0 -0.015573437
0.018966813 0 -0.011959375
-0.019366113 -0.00127 -0.00031406243
-0.021362619 0 0.0024968751
0.0025954584 0.00127 -0.0019203124
-0.024157729 0.00127 -0.0019203124
-0.014175196 0.00042333335 -0.002321875
0.011779388 0.00127 -0.00071562495
0.00059895194 0.00127 -0.002321875
0.010581484 -0.00084666669 -0.002321875
0.042126287 -0.00127 -0.014770312
0.0077863755 -0.00042333335 -0.014770312
0.013775895 0 -0.0099515626
0.0025954584 -0.00127 -0.013967187
-0.0089842789 -0.00042333335 -0.00031406243
0.034539562 -0.00127 -0.002321875
-0.039331179 0 -0.012360937
0.03693537 0 -0.012360937
-0.035737466 -0.00042333335 -0.002321875
-0.029348645 -0.00042333335 -0.013565625
-0.012577991 -0.00127 -0.00071562495
-0.04572 -0.00042333335 -0.0011171874
0.0013975545 -0.00127 -0.015171874
0.032143753 -0.00084666669 -0.014770312
0.0097828815 0 -0.00031406243
-0.03054655 -0.00127 -0.00071562495
0.015772402 0.00127 -0.015573437
0.0037933623 0.00084666669 -0.00031406243
0.038532577 0.00042333335 -0.002321875
0.014175196 0.00042333335 -0.002321875
0.034539562 -0.00127 -0.015573437
-0.040529083 0.00127 -0.00031406243
0.029747946 0.00127 -0.00031406243
-0.005789869 -0.00042333335 -0.002321875
0.036136769 0.00084666669 -0.00031406243
-0.00019965065 0 -0.002321875
0.00059895194 -0.00042333335 -0.013967187
-0.036136769 0.00042333335 -0.01436875
-0.010980786 0.00042333335 -0.015573437
0.036136769 -0.00127 -0.00031406243
0.041726988 0 -0.0043296875
0.00099825324 0.00042333335 -0.013967187
0.003394061 -0.00042333335 -0.01436875
-0.04572 0 -0.0019203124
0.040529083 -0.00127 -0.013967187
-0.039331179 0.00042333335 -0.019187499
0.044522095 0 -0.019187499
-0.00099825324 0 -0.0043296875
-0.013775895 0 -0.0031249998
0.026154235 -0.00127 -0.00151875
0.011779388 0.00127 -0.002321875
-0.029348645 0 -0.01115625
-0.023359125 0.00127 -0.0011171874
-0.042126287 0.00127 -0.00071562495
-0.0085849781 0 -0.0031249998
0.014175196 -0.00127 -0.01436875
-0.028150741 -0.00127 -0.00151875
-0.034539562 0 -0.013164062
-0.0069877729 0.00127 -0.014770312
0.03693537 0 -0.010353125
0.028550044 -0.00084666669 -0.002321875
-0.005789869 -0.00042333335 -0.013967187
-0.0081856763 -0.00084666669 -0.00031406243
-0.044122793 -0.00042333335 -0.00031406243
0.037733972 0 -0.00031406243
0.0025954584 0.00127 -0.015573437
0.033341657 -0.00084666669 -0.014770312
-0.037334673 0.00042333335 -0.013565625
-0.017369607 0.00042333335 -0.013565625
0.00019965065 0.00042333335 -0.00031406243
-0.038931876 0.00042333335 -0.014770312
0.031345151 0 -0.00031406243
-0.0093835806 -0.00042333335 -0.015573437
0.018966813 0 0.0024968751
0.044522095 -0.00127 -0.00071562495
-0.016571004 0 -0.012360937
0.012977293 -0.00084666669 -0.00031406243
0.043723494 -0.00127 -0.01436875
0.0081856763 0.00127 -0.0019203124
0.021362619 0 -0.0063374997
-0.025355633 -0.00127 -0.013967187
0.044122793 -0.00042333335 -0.00031406243
0.0077863755 0.00042333335 -0.002321875
-0.0021961571 0.00084666669 -0.002321875
0.016571004 -0.00042333335 -0.00031406243
-0.042126287 0 -0.010353125
0.014175196 -0.00127 -0.00071562495
0.0089842789 0 -0.0031249998
0.015772402 -0.00042333335 -0.00031406243
-0.036136769 -0.00127 -0.0019203124
0.019366113 -0.00127 -0.015573437
0.0013975545 0 8.7500048e-05
-0.029348645 0 -0.0063374997
-0.0041926638 -0.00127 -0.002321875
0.0089842789 -0.00042333335 -0.0127625
-0.03693537 -0.00042333335 -0.017982813
0.0065884716 0 -0.018785937
-0.0093835806 0.00084666669 -0.015573437
-0.017369607 0.00127 -0.01436875
-0.039331179 -0.00127 -0.015573437
0.0085849781 0.00127 -0.00031406243
0.042924888 0.00127 -0.00071562495
0.018966813 -0.00042333335 -0.013967187
-0.026553536 -0.00042333335 -0.013967187
0.033341657 0.00127 -0.00151875
0.039331179 0.00127 -0.00071562495
-0.0041926638 -0.00042333335 -0.002321875
-0.035737466 -0.00042333335 -0.014770312
-0.021362619 0.00127 -0.00031406243
-0.029747946 -0.00127 -0.013967187
-0.0077863755 -0.00127 -0.014770312
-0.02775144 -0.00127 -0.014770312
0.0029947597 0 -0.00031406243
-0.0037933623 0.00127 -0.00071562495
-0.042525589 0.00127 -0.015171874
-0.0029947597 -0.00127 -0.00151875
0.016171703 -0.00127 -0.00071562495
0.017768908 0.00127 -0.013565625
-0.013376594 0.00084666669 -0.002321875
0.0013975545 0 -0.0051328125
0.028949345 0 -0.011959375
-0.024956331 0.00042333335 -0.00031406243
-0.005789869 -0.00127 -0.01436875
-0.028949345 0 -0.0035265624
0.014175196 -0.00084666669 -0.00031406243
-0.01856751 -0.00127 -0.015573437
0.036136769 0.00127 -0.014770312
-0.005789869 0.00127 -0.0011171874
0.018966813 0.00127 -0.013565625
0.026553536 0 -0.0083453124
0.025754934 -0.00084666669 -0.002321875
-0.0037933623 0 -0.0039281249
-0.040928382 0.00042333335 -0.013967187
-0.034140263 0.00127 -0.00071562495
-0.0025954584 -0.00127 -0.00071562495
0.040928382 0.00127 -0.015171874
0.0085849781 0.00042333335 -0.01436875
-0.011779388 -0.00042333335 -0.014770312
-0.036136769 0.00042333335 -0.014770312
0.037733972 0.00084666669 -0.002321875
0.044122793 0.00127 -0.0011171874
-0.022560524 -0.00084666669 -0.01436875
-0.024157729 0 -0.019187499
-0.039331179 0 -0.0027234375
0.023359125 0.00127 -0.00031406243
0.031744454 0 -0.0067390623
-0.022161223 -0.00127 -0.002321875
0.011380087 0.00042333335 -0.014770312
0.044522095 0 -0.0067390623
-0.0089842789 0.00042333335 -0.016778124
0.032942358 -0.00084666669 -0.01436875
0.029348645 0 -0.021195313
0.042525589 0.00127 -0.01436875
0.022560524 -0.00042333335 -0.013967187
-0.025754934 -0.00127 -0.013967187
0.040529083 -0.00084666669 -0.013565625
0.033341657 -0.00084666669 -0.015573437
-0.017369607 0.00127 -0.0019203124
-0.022959825 -0.00127 -0.015573437
-0.045320697 0.00084666669 -0.00031406243
0.0041926638 -0.00084666669 -0.00031406243
-0.034140263 0 -0.0083453124
-0.015373101 -0.00084666669 -0.002321875
-0.01856751 0.00127 -0.00151875
-0.040529083 -0.00127 -0.01436875
0.016571004 0.00042333335 -0.017982813
-0.0037933623 0 -0.0055343751
-0.00099825324 0.00127 -0.013565625
-0.017768908 -0.00084666669 -0.00031406243
-0.00099825324 0 -0.0063374997
0.0029947597 -0.00042333335 -0.002321875
0.0081856763 -0.00084666669 -0.00031406243
0.017768908 0.00084666669 -0.013565625
0.026952839 0 -0.017179687
-0.028550044 0.00042333335 -0.00031406243
0.044122793 0.00127 -0.0019203124
-0.0013975545 -0.00084666669 -0.00031406243
-0.0037933623 -0.00042333335 -0.013565625
-0.013775895 0 0.00048906257
0.034539562 -0.00127 -0.00071562495
-0.031744454 0 -0.00473125
-0.042924888 -0.00127 -0.013565625
0.020164715 0.00127 -0.015573437
-0.024157729 0 -0.00473125
0.02176192 0 0.0020953126
-0.031744454 0 -0.0079437494
-0.03054655 -0.00084666669 -0.013967187
-0.017369607 -0.00042333335 -0.013967187
0.036136769 0.00127 -0.00151875
0.016571004 0 -0.020392187
0.021362619 0.00127 -0.002321875
0.018966813 -0.00127 -0.01436875
0.0061891703 0 -0.017179687
0.026553536 0 0.00048906257
-0.026553536 0.00127 -0.002321875
-0.011779388 -0.00084666669 -0.00031406243
0.0049912664 0.00084666669 -0.015573437
-0.02176192 0 -0.021195313
-0.011380087 0 -0.017982813
-0.030147249 -0.00084666669 -0.015573437
-0.022161223 0.00127 -0.0019203124
0.018966813 0 -0.017581251
0.03693537 0.00042333335 -0.017179687
0.0089842789 0 0.0020953126
-0.015373101 0.00127 -0.015171874
-0.042525589 0.00042333335 -0.015573437
-0.028949345 0 0.0024968751
-0.031744454 0.00127 -0.014770312
0.0085849781 -0.00042333335 -0.00031406243
-0.023359125 0.00127 -0.014770312
0.034539562 0 -0.0091484375
-0.039730478 0.00127 -0.00151875
0.043324191 -0.00127 -0.0019203124
0.032942358 -0.00127 -0.00071562495
0.00059895194 0.00127 -0.00071562495
0.0093835806 0.00127 -0.015171874
0.023359125 -0.00127 -0.00071562495
-0.003394061 0.00042333335 -0.013565625
0.026952839 0 -0.016778124
0.021362619 0 -0.019187499
-0.013376594 -0.00127 -0.002321875
-0.0037933623 -0.00042333335 -0.015171874
0.02775144 0 -0.013565625
0.0081856763 0.00127 -0.015573437
-0.0073870742 -0.00042333335 -0.01436875
0.042126287 0 -0.017179687
-0.0065884716 0 -0.020392187
0.010182183 0.00084666669 -0.015171874
-0.028949345 -0.00084666669 -0.00031406243
-0.016571004 0 -0.0091484375
-0.0093835806 -0.00127 -0.0019203124
-0.003394061 -0.00084666669 -0.015573437
0.005789869 -0.00042333335 -0.01436875
-0.031744454 0 -0.0099515626
-0.005789869 -0.00127 -0.013967187
-0.0061891703 0.00042333335 -0.002321875
0.010581484 -0.00127 -0.0019203124
-0.005789869 -0.00127 -0.00031406243
0.024956331 0.00127 -0.00031406243
0.011380087 0.00042333335 -0.018384375
0.024157729 -0.00042333335 -0.0027234375
0.010980786 -0.00127 -0.002321875
-0.023758428 -0.00127 -0.01436875
-0.013775895 -0.00127 -0.00031406243
0.038133275 0 -0.00031406243
0.0025954584 0.00127 -0.01436875
0.0021961571 0 -0.015573437
-0.016970305 0.00084666669 -0.014770312
-0.0069877729 -0.00084666669 -0.015573437
-0.01856751 0.00042333335 -0.002321875
0.021362619 0 -0.020793749
-0.014973799 -0.00127 -0.014770312
-0.019765414 -0.00127 -0.01436875
-0.010581484 -0.00042333335 -0.002321875
-0.016171703 0.00127 -0.0011171874
-0.023758428 -0.00127 -0.014770312
0.014973799 0.00127 -0.014770312
-0.024956331 -0.00127 -0.00151875
0.019366113 -0.00042333335 -0.015573437
0.010980786 0.00042333335 -0.002321875
0.040529083 -0.00127 -0.013565625
0.036536068 0.00127 -0.00071562495
-0.020164715 0.00042333335 -0.015573437
-0.034140263 0 0.00048906257
0.010980786 0.00127 -0.014770312
0.016571004 0 -0.021596875
0.036536068 0.00127 -0.002321875
-0.029747946 -0.00127 -0.0019203124
0.029348645 -0.00084666669 -0.015171874
-0.03374096 0.00127 -0.00031406243
0.0021961571 -0.00042333335 -0.015573437
0.016571004 0 0.00169375
-0.021362619 0 -0.0039281249
-0.034938864 -0.00084666669 -0.013967187
-0.04572 -0.00084666669 -0.013967187
-0.012577991 0.00127 -0.013967187
0.010182183 -0.00042333335 -0.015573437
-0.03054655 -0.00084666669 -0.002321875
0.015772402 -0.00042333335 -0.015573437
-0.0025954584 0.00042333335 -0.015171874
0.026553536 0 -0.0127625
-0.0065884716 -0.00042333335 -0.01436875
-0.038931876 0 -0.00031406243
0.037733972 0.00042333335 -0.013565625
0.005789869 -0.00127 -0.014770312
-0.034938864 0.00127 -0.0011171874
0.026154235 -0.00127 -0.002321875
0.034140263 0 -0.021195313
-0.022161223 0 -0.015573437
0.037733972 -0.00084666669 -0.002321875
0.005789869 0.00127 -0.002321875
-0.016571004 -0.00084666669 -0.00031406243
0.0037933623 0 8.7500048e-05
-0.00099825324 0.00127 -0.00071562495
0.0013975545 -0.00127 -0.013967187
0.040129781 -0.00084666669 -0.00031406243
0.037334673 0.00127 -0.0011171874
-0.015772402 0.00042333335 -0.002321875
-0.0025954584 -0.00127 -0.002321875
-0.041726988 0 -0.015573437
0.0085849781 0 -0.0031249998
0.033341657 0.00127 -0.015171874
-0.0049912664 -0.00042333335 -0.013565625
0.0089842789 -0.00042333335 -0.011959375
-0.042126287 0.00042333335 -0.015573437
0.0097828815 -0.00127 -0.002321875
-0.038133275 -0.00127 -0.00151875
0.034539562 0 -0.0059359372
-0.039331179 0 0.0028984374
-0.005789869 0.00127 -0.01436875
-0.023758428 -0.00127 -0.002321875
-0.045320697 -0.00042333335 -0.01436875
-0.031744454 0 -0.011959375
0.00099825324 0 -0.0075421873
-0.0065884716 0.00042333335 -0.013565625
0.0049912664 0.00042333335 -0.002321875
0.032942358 -0.00084666669 -0.00031406243
-0.014175196 0.00042333335 -0.013967187
-0.017768908 -0.00127 -0.00151875
0.013775895 -0.00042333335 -0.013164062
-0.042126287 0.00042333335 -0.013565625
-0.039730478 0.00127 -0.0011171874
0.044522095 0 -0.0083453124
0.016571004 -0.00042333335 -0.012360937
0.0049912664 0.00042333335 -0.015171874
0.032543056 0.00127 -0.014770312
0.037334673 -0.00084666669 -0.013967187
-0.0077863755 -0.00084666669 -0.015171874
0.025355633 0.00127 -0.00071562495
-0.0041926638 0.00084666669 -0.00031406243
0.017768908 -0.00042333335 -0.01436875
-0.003394061 0.00127 -0.0011171874
-0.013775895 -0.00127 -0.015573437
-0.023758428 0.00127 -0.00151875
-0.032543056 -0.00127 -0.0011171874
0.022959825 -0.00127 -0.0011171874
0.010581484 0.00042333335 -0.01436875
-0.0017968558 -0.00042333335 -0.00031406243
-0.024157729 0 -0.012360937
-0.042525589 0.00127 -0.015573437
-0.028150741 0.00042333335 -0.013565625
0.0017968558 -0.00127 -0.01436875
0.022560524 -0.00084666669 -0.002321875
-0.038532577 -0.00084666669 -0.00031406243
0.0037933623 0 0.00169375
0.039331179 -0.00084666669 -0.013565625
0.0081856763 -0.00127 -0.015171874
-0.028949345 0 -0.0039281249
-0.0037933623 0.00042333335 -0.011557812
-0.0085849781 0 -0.017179687
-0.031345151 0.00127 -0.013565625
0.010182183 -0.00042333335 -0.01436875
0.010980786 0.00084666669 -0.00031406243
-0.03693537 0.00084666669 -0.002321875
0.014175196 0 0.00169375
0.011380087 0 -0.0075421873
0.0061891703 -0.00127 -0.00151875
0.010980786 0.00127 -0.0019203124
-0.02775144 -0.00127 -0.01436875
0.029348645 0.00127 -0.00031406243
0.021362619 0.00127 -0.00071562495
0.0013975545 -0.00042333335 -0.013967187
-0.026553536 0 -0.0035265624
-0.029747946 -0.00042333335 -0.015573437
-0.025754934 -0.00042333335 -0.002321875
0.031744454 -0.00084666669 -0.013967187
-0.0089842789 0.00084666669 -0.00031406243
-0.042924888 0.00127 -0.002321875
0.029348645 0 -0.019990625
-0.041327685 -0.00084666669 -0.013565625
-0.013775895 0.00127 -0.0019203124
0.022959825 0.00084666669 -0.015573437
-0.018966813 0 -0.0063374997
0.040129781 0 -0.013565625
-0.0021961571 -0.00127 -0.014770312
-0.028150741 0.00127 -0.00151875
0.01217869 -0.00042333335 -0.013565625
-0.029348645 0 -0.021195313
0.024157729 0.00127 -0.014770312
0.040529083 -0.00042333335 -0.002321875
-0.005789869 0.00127 -0.00071562495
-0.023758428 0 -0.015573437
-0.026553536 -0.00127 -0.00151875
0.031744454 0 -0.0091484375
0.0021961571 0 -0.013565625
-0.032942358 -0.00042333335 -0.00031406243
-0.026553536 -0.00042333335 -0.015975
0.0081856763 -0.00042333335 -0.015573437
0.019765414 0.00127 -0.00071562495
0.017768908 -0.00084666669 -0.00031406243
0.018168209 -0.00127 -0.0011171874
-0.043324191 0.00084666669 -0.015171874
-0.018168209 -0.00084666669 -0.015573437
0.012977293 -0.00127 -0.013967187
-0.018966813 0 -0.016376562
-0.019765414 0.00127 -0.00151875
-0.019366113 -0.00042333335 -0.01436875
-0.041726988 0 -0.0055343751
0.041726988 0 0.00089062506
-0.0049912664 0.00042333335 -0.015171874
-0.014574498 -0.00084666669 -0.015573437
-0.039730478 -0.00084666669 -0.015573437
-0.039730478 -0.00127 -0.013967187
-0.030147249 -0.00127 -0.00151875
0.016571004 -0.00084666669 -0.014770312
-0.028150741 -0.00084666669 -0.002321875
0.0085849781 -0.00042333335 -0.002321875
0.020963319 -0.00042333335 -0.01436875
-0.018966813 0.00127 -0.00151875
-0.015373101 -0.00042333335 -0.013967187
-0.016571004 -0.00042333335 -0.012360937
-0.024157729 0 -0.021596875
-0.011779388 -0.00042333335 -0.013967187
0.021362619 0 -0.0035265624
0.0085849781 0 -0.019990625
-0.021362619 0 -0.017179687
0.0045919651 0.00127 -0.002321875
-0.02775144 0.00042333335 -0.00031406243
0.028949345 0.00127 -0.00071562495
0.014175196 0.00127 -0.00151875
-0.01217869 0.00127 -0.002321875
-0.028150741 0.00084666669 -0.01436875
0.016970305 0.00042333335 -0.015573437
0.014175196 0 -0.0079437494
-0.0049912664 0.00127 -0.00071562495
-0.034539562 0 -0.0127625
-0.039331179 0 -0.0127625
-0.040529083 -0.00042333335 -0.013565625
-0.0089842789 -0.00127 -0.014770312
-0.0077863755 -0.00042333335 -0.00031406243
0.012577991 0 -0.002321875
0.018966813 0 -0.015975
0.044122793 0 -0.002321875
-0.0093835806 0 -0.00031406243
0.010581484 0 -0.00031406243
-0.011380087 0 -0.011959375
0.0041926638 -0.00127 -0.013967187
0.015772402 0.00042333335 -0.013565625
-0.040928382 0.00042333335 -0.00031406243
-0.023758428 0.00042333335 -0.00031406243
0.010581484 0 -0.002321875
0.024157729 0 0.00169375
0.016970305 0.00127 -0.00151875
0.022560524 -0.00042333335 -0.015573437
-0.0061891703 -0.00127 -0.015573437
-0.020963319 0.00127 -0.0011171874
-0.035737466 0.00127 -0.0019203124
-0.023359125 0.00042333335 -0.015573437
-0.0025954584 -0.00127 -0.014770312
-0.034539562 0 -0.011959375
0.029348645 0 -0.019187499
-0.0061891703 -0.00042333335 -0.01436875
0.00019965065 -0.00042333335 -0.00031406243
-0.025754934 -0.00127 -0.00151875
-0.03054655 -0.00127 -0.00151875
-0.044122793 -0.00084666669 -0.002321875
0.020963319 0.00127 -0.00151875
0.00099825324 0 -0.020793749
-0.023758428 0 -0.00031406243
0.038931876 0.00127 -0.013967187
-0.014175196 -0.00084666669 -0.002321875
-0.020164715 0.00042333335 -0.01436875
0.011380087 0 -0.0059359372
0.010980786 -0.00127 -0.01436875
0.034539562 0.00042333335 -0.00031406243
-0.013376594 -0.00042333335 -0.013967187
0.0093835806 0.00084666669 -0.00031406243
-0.020164715 -0.00127 -0.002321875
-0.021362619 0 -0.0075421873
-0.030147249 0 -0.002321875
-0.026553536 0 -0.0063374997
0.0013975545 0 -0.0067390623
-0.0061891703 0 -0.0063374997
0.044921398 -0.00084666669 -0.015573437
0.014175196 0 -0.010353125
-0.0089842789 0 -0.0091484375
-0.03693537 0 -0.016376562
0.020564018 -0.00042333335 -0.01436875
0.045320697 0.00084666669 -0.002321875
0.041726988 0 -0.0095499996
0.031744454 -0.00084666669 -0.015573437
0.02455703 -0.00084666669 -0.01436875
-0.0089842789 0.00042333335 -0.014770312
0.039730478 -0.00127 -0.00151875
-0.034140263 0.00042333335 -0.013565625
0.022959825 0 -0.015573437
0.0089842789 -0.00127 -0.015171874
0.032543056 -0.00127 -0.0019203124
0.018168209 -0.00127 -0.015573437
-0.038532577 0.00127 -0.002321875
0.022560524 0.00127 -0.013967187
-0.030945851 0.00127 -0.002321875
0.044122793 0.00042333335 -0.00031406243
0.018168209 0.00084666669 -0.015573437
0.030945851 0.00127 -0.015573437
-0.011380087 -0.00127 -0.015171874
0.0061891703 0.00127 -0.014770312
-0.0037933623 0.00042333335 -0.016376562
-0.040529083 0.00127 -0.014770312
-0.036136769 0.00127 -0.002321875
0.02455703 -0.00042333335 -0.013967187
-0.0017968558 -0.00042333335 -0.014770312
-0.00099825324 0 -0.019187499
-0.0089842789 0.00127 -0.01436875
-0.023758428 0 -0.002321875
0.041726988 0 -0.016376562
-0.037733972 -0.00127 -0.01436875
0.02176192 0 -0.0071406248
0.016571004 0.00042333335 -0.016778124
-0.0021961571 0.00042333335 -0.013565625
0.024157729 0 0.0012921875
0.025754934 0.00127 -0.01436875
-0.043324191 0.00084666669 -0.002321875
-0.042525589 -0.00042333335 -0.014770312
-0.032543056 0 -0.002321875
0.022959825 0.00127 -0.013565625
-0.018168209 0.00127 -0.0011171874
0.013775895 -0.00042333335 -0.013967187
0.013376594 0 -0.002321875
-0.040529083 0.00084666669 -0.002321875
-0.014574498 0.00084666669 -0.002321875
0.032942358 0.00127 -0.01436875
0.034938864 -0.00127 -0.002321875
-0.0037933623 0 -0.018384375
0.032543056 -0.00084666669 -0.01436875
-0.011380087 0 0.0020953126
-0.043324191 0.00084666669 -0.015573437
-0.0061891703 -0.00127 -0.0019203124
0.041327685 0 -0.00031406243
0.026952839 0 -0.017581251
-0.038532577 0 -0.00031406243
-0.018966813 0 -0.020392187
0.024956331 -0.00084666669 -0.002321875
0.0089842789 0 -0.0087468745
-0.041726988 -0.00042333335 -0.002321875
0.016571004 0.00042333335 -0.019187499
-0.0065884716 -0.00042333335 -0.002321875
0.0085849781 0 -0.0127625
0.034140263 0.00042333335 -0.015573437
0.021362619 -0.00084666669 -0.002321875
-0.0013975545 -0.00127 -0.015171874
