# .PCD v0.7 - Point Cloud Data file format
VERSION 0.7
FIELDS x y z
SIZE 4 4 4
TYPE F F F
COUNT 1 1 1
WIDTH 1197
HEIGHT 1
VIEWPOINT 0 0 0 1 0 0 0
POINTS 1197
DATA ascii
-0.018623827 0.00018142856 -0.00059577456
0.015384899 0.00018142856 -0.027866196
-0.010202617 -0.00018142856 -0.037605632
-0.0089070471 -0.00054428569 -0.0012450704
-0.0040486581 0.00127 -0.034683801
-0.0085831545 -0.00054428569 -0.034034505
-0.017652148 0.00018142856 -0.03793028
-0.0050203358 0.00018142856 -0.02267183
0.020891074 0.00018142856 -0.03338521
-0.0059920135 -0.00090714288 -0.0015697182
-0.010202617 0.00090714288 -0.034034505
-0.0027530873 -0.00054428569 -0.00092042243
0.020891074 -0.00018142856 -0.034683801
0.0069636917 0.00054428569 -0.034359153
-0.015061007 -0.00127 -0.0018943661
0.0011336242 0.00127 -0.035657745
0.015384899 0.00018142856 -0.036956336
-0.0079353694 -0.00018142856 -0.018776055
0.0076114768 -0.00018142856 -0.00092042243
0.011498189 0.00018142856 -0.033709858
-0.02283443 -0.00127 -0.0015697182
-0.01052651 0.00127 -0.00092042243
0.018299934 -0.00090714288 -0.0015697182
-0.01668047 -0.00018142856 -0.033709858
0.019595504 0.00090714288 -0.034034505
0.00080973154 0.00090714288 -0.0022190141
0.012793759 0.00018142856 -0.012932394
0.0037247653 0.00090714288 -0.035657745
-0.008259262 -0.00018142856 -0.03338521
-0.011174296 0.00127 -0.035657745
-0.0076114768 0.00018142856 0.0010274649
-0.0014575168 -0.00054428569 -0.033709858
-0.017652148 -0.00018142856 -0.03793028
-0.0017814095 -0.00054428569 -0.0015697182
0.0050203358 0.00018142856 -0.038254928
0.0040486581 -0.00127 -0.0022190141
0.020243289 0.00054428569 -0.00092042243
0.016356578 0.00127 -0.00092042243
0.0024291947 0.00018142856 -0.035982393
-0.0059920135 -0.00018142856 -0.034359153
0.015061007 0.00018142856 -0.041501407
0.0063159061 0.00054428569 -0.035657745
-0.021214968 -0.00054428569 -0.0018943661
-0.022510538 0.00018142856 -0.035657745
-0.013117651 0.00127 -0.0012450704
-0.015384899 0.00018142856 -0.031112675
-0.015384899 0.00127 -0.035333097
0.0076114768 0.00018142856 -0.019100703
0.010202617 0.00018142856 -0.00059577456
-0.0027530873 -0.00018142856 -0.01195845
0.008259262 0.00054428569 -0.035657745
-0.012469866 0.00018142856 5.3521184e-05
-0.019271612 0.00018142856 -0.00027112669
0.0024291947 -0.00018142856 -0.035333097
0.021862753 -0.00054428569 -0.035333097
0.012469866 -0.00054428569 -0.033709858
-0.01797604 -0.00018142856 -0.025593661
0.008259262 -0.00018142856 -0.034683801
-0.023158323 -0.00090714288 -0.034034505
-0.017652148 -0.00054428569 -0.00092042243
0.0056681209 -0.00090714288 -0.0012450704
0.011822081 0.00127 -0.035008449
0.01797604 0.00054428569 -0.034683801
-0.0059920135 0.00054428569 -0.00027112669
-0.015384899 0.00018142856 -0.040527463
0.020891074 0.00127 -0.0022190141
0.017652148 -0.00018142856 -0.002543662
0.012469866 -0.00127 -0.0015697182
0.0034008727 -0.00018142856 -0.035333097
0.0098787248 0.00054428569 -0.035657745
0.012469866 -0.00018142856 -0.025269013
0.0017814095 0.00018142856 -0.0018943661
-0.020567182 -0.00018142856 -0.012607746
-0.017652148 0.00018142856 -0.040202815
0.0056681209 0.00127 -0.00092042243
-0.0056681209 -0.00127 -0.00027112669
0.0043725506 -0.00090714288 -0.0018943661
0.012793759 -0.00018142856 -0.020723943
-0.012469866 0.00018142856 -0.030463379
0.0059920135 0.00054428569 -0.03338521
0.011498189 0.00018142856 -0.035657745
-0.00016194631 -0.00018142856 -0.038904224
0.023806108 0.00090714288 -0.0018943661
0.00016194631 0.00018142856 -0.021373238
0.020891074 -0.00018142856 -0.0012450704
-0.0040486581 -0.00054428569 -0.03338521
0.0043725506 -0.00018142856 -0.035657745
0.00016194631 -0.00018142856 -0.012283098
-0.01668047 0.00127 -0.00027112669
0.010850403 -0.00018142856 -0.00027112669
-0.0085831545 -0.00018142856 -0.00059577456
0.023158323 0.00018142856 -0.034683801
-0.00016194631 0.00018142856 -0.023645774
-0.0011336242 0.00127 -0.034359153
-0.0079353694 -0.00018142856 -0.014230985
-0.00016194631 -0.00018142856 -0.0080626756
0.011822081 -0.00054428569 -0.033709858
0.016356578 0.00018142856 -0.035333097
-0.015708793 -0.00018142856 -0.03338521
0.022510538 0.00090714288 -0.034683801
-0.01797604 -0.00018142856 -0.0083873235
-0.01052651 -0.00018142856 -0.00059577456
-0.0050203358 -0.00018142856 -0.023645774
-0.00016194631 0.00018142856 -0.0018943661
-0.0034008727 -0.00127 -0.00092042243
-0.018299934 0.00090714288 -0.035008449
0.017652148 0.00018142856 -0.0054654926
-0.0095548322 -0.00018142856 -0.00027112669
-0.012469866 0.00018142856 -0.026567604
-0.0076114768 -0.00018142856 -0.010010563
0.01797604 0.00127 -0.034359153
-0.010202617 0.00018142856 -0.022022534
0.0059920135 -0.00018142856 -0.033709858
-0.010850403 -0.00127 -0.035008449
0.00016194631 -0.00018142856 -0.013581689
-0.018299934 0.00054428569 -0.00059577456
0.0095548322 -0.00127 -0.0012450704
0.0053442284 0.00018142856 -0.02884014
-0.01797604 0.00018142856 0.0016767606
0.015384899 -0.00018142856 -0.024619717
-0.015061007 -0.00090714288 -0.034683801
-0.0046964432 0.00054428569 -0.033709858
-0.013441544 0.00090714288 -0.034034505
-0.0085831545 0.00018142856 -0.035008449
0.012469866 -0.00090714288 -0.035008449
-0.00016194631 -0.00018142856 -0.016178872
0.020243289 -0.00127 -0.035333097
-0.0092309397 -0.00054428569 -0.033709858
-0.015384899 0.00127 -0.0015697182
-0.0011336242 0.00090714288 -0.033709858
0.0053442284 -0.00018142856 -0.023645774
0.017652148 -0.00018142856 -0.0022190141
0.0063159061 0.00018142856 -0.034034505
0.0024291947 -0.00018142856 -0.012283098
-0.0034008727 -0.00127 -0.035008449
0.012793759 0.00018142856 -0.02267183
-0.010202617 0.00018142856 -0.035657745
-0.0050203358 0.00090714288 -0.00027112669
0.015708793 -0.00018142856 -0.00027112669
-0.02283443 0.00018142856 -0.035657745
0.023158323 -0.00090714288 -0.034683801
-0.015384899 -0.00090714288 -0.0022190141
-0.0011336242 0.00127 -0.0022190141
-0.02283443 -0.00018142856 -0.03793028
-0.0014575168 0.00090714288 -0.00027112669
0.0079353694 0.00018142856 -0.0067640841
0.0027530873 0.00018142856 -0.023645774
-0.012469866 -0.00090714288 -0.00059577456
0.02283443 -0.00018142856 -0.0074133803
0.00016194631 -0.00018142856 -0.012932394
0.02283443 -0.00018142856 -0.0041669011
0.017328255 -0.00018142856 -0.0015697182
0.0040486581 0.00054428569 -0.034034505
-0.019595504 0.00018142856 -0.033709858
0.00016194631 -0.00018142856 -0.00092042243
-0.022510538 -0.00127 -0.0018943661
-0.012469866 0.00127 -0.00059577456
-0.017652148 -0.00018142856 -0.035657745
-0.0076114768 -0.00127 -0.0018943661
0.021214968 -0.00127 -0.035333097
-0.0050203358 -0.00018142856 -0.011309154
0.0092309397 -0.00090714288 -0.00027112669
-0.0072875842 0.00127 -0.0015697182
0.015384899 0.00018142856 -0.0074133803
0.0072875842 0.00054428569 -0.034683801
-0.021214968 0.00018142856 -0.034359153
-0.021214968 -0.00018142856 -0.00027112669
-0.0024291947 -0.00127 -0.0018943661
-0.020891074 -0.00054428569 -0.034034505
0.0034008727 -0.00090714288 -0.0018943661
0.0072875842 -0.00090714288 -0.033709858
-0.017004363 0.00018142856 -0.00027112669
0.0027530873 -0.00018142856 -0.036307041
0.011822081 0.00090714288 -0.0012450704
0.01797604 -0.00018142856 -0.013257042
0.0021053022 0.00018142856 -0.00092042243
0.010202617 0.00018142856 -0.036956336
-0.01052651 0.00054428569 -0.0022190141
0.0024291947 -0.00018142856 -0.0272169
0.011822081 -0.00054428569 -0.034683801
0.011174296 0.00127 -0.0022190141
-0.019595504 -0.00127 -0.0022190141
-0.00016194631 -0.00054428569 -0.035657745
-0.012145974 0.00090714288 -0.033709858
0.010202617 0.00127 -0.035333097
0.019919397 -0.00090714288 -0.00027112669
-0.0027530873 0.00018142856 -0.016828168
-0.012469866 -0.00018142856 -0.022996478
-0.0024291947 0.00090714288 -0.034034505
0.013765437 -0.00054428569 -0.035008449
-0.020567182 0.00090714288 -0.0018943661
-0.013765437 0.00018142856 -0.0015697182
-0.0050203358 0.00127 -0.00092042243
-0.015708793 0.00127 -0.00027112669
0.021538859 -0.00090714288 -0.034683801
0.011822081 -0.00018142856 -0.035657745
-0.012793759 -0.00018142856 -0.004491549
-0.0079353694 -0.00018142856 -0.0061147884
-0.015384899 0.00018142856 -0.040852111
0.020243289 0.00018142856 -0.0077380282
0.012469866 0.00018142856 -0.01195845
0.0050203358 -0.00018142856 -0.00027112669
-0.020567182 -0.00018142856 -0.036956336
0.020567182 -0.00090714288 -0.00027112669
0.020567182 0.00018142856 -0.0090366192
0.0059920135 -0.00127 -0.034359153
0.018623827 -0.00127 -0.00027112669
-0.0063159061 -0.00090714288 -0.0012450704
0.01797604 0.00018142856 -0.0022190141
-0.0056681209 0.00090714288 -0.0015697182
0.00048583894 0.00054428569 -0.034034505
0.0066397991 -0.00018142856 -0.03338521
-0.023482215 -0.00054428569 -0.00092042243
-0.0021053022 0.00018142856 -0.035008449
0.012469866 -0.00018142856 -0.0015697182
0.01797604 -0.00018142856 -0.027866196
-0.017328255 -0.00127 -0.033709858
0.0063159061 -0.00090714288 -0.033709858
-0.012793759 -0.00090714288 -0.0018943661
-0.017004363 -0.00127 -0.035657745
0.020243289 -0.00018142856 -0.034683801
0.0053442284 -0.00018142856 -0.032735914
0.0034008727 0.00127 -0.035333097
-0.0053442284 0.00090714288 -0.0018943661
-0.018623827 0.00054428569 -0.034034505
-0.012469866 -0.00018142856 -0.040202815
0.012793759 0.00018142856 -0.009685915
0.012793759 0.00018142856 -0.01650352
-0.015061007 0.00018142856 -0.023970421
0.0050203358 -0.00018142856 -0.0022190141
-0.0043725506 -0.00127 -0.035333097
-0.015384899 -0.00018142856 -0.0061147884
-0.013441544 -0.00090714288 -0.035008449
0.012145974 0.00018142856 -0.0015697182
-0.0063159061 0.00127 -0.034034505
-0.0059920135 0.00054428569 -0.034359153
0.0076114768 -0.00018142856 -0.038904224
0.0095548322 0.00018142856 -0.03338521
-0.020891074 0.00054428569 -0.0022190141
-0.0085831545 0.00018142856 -0.0018943661
-0.016032685 -0.00090714288 -0.034683801
-0.00048583894 -0.00090714288 -0.0015697182
0.0011336242 0.00127 -0.0015697182
-0.012469866 0.00054428569 -0.00059577456
-0.020567182 -0.00090714288 -0.033709858
0.015384899 -0.00018142856 0.0020014085
0.017652148 0.00018142856 -0.016178872
0.022510538 -0.00090714288 -0.0018943661
0.012793759 -0.00018142856 -0.035982393
0.0017814095 0.00054428569 -0.035333097
0.010202617 -0.00018142856 -0.0051408447
-0.0027530873 -0.00018142856 -0.015204929
0.0024291947 0.00018142856 -0.028515492
0.0043725506 -0.00018142856 -0.035008449
-0.0092309397 -0.00127 -0.034359153
0.0076114768 0.00018142856 5.3521184e-05
0.00048583894 -0.00090714288 -0.0015697182
-0.0040486581 -0.00018142856 -0.034683801
0.0076114768 -0.00018142856 -0.033060562
-0.0011336242 0.00054428569 -0.00059577456
0.015061007 -0.00018142856 -0.014880281
0.020243289 0.00018142856 -0.011633802
-0.018947719 -0.00018142856 -0.035008449
0.015061007 0.00018142856 -0.014230985
0.02283443 -0.00018142856 -0.035657745
0.011822081 -0.00127 -0.00027112669
-0.0027530873 -0.00090714288 -0.0015697182
0.015061007 -0.00018142856 -0.031112675
0.023806108 -0.00018142856 -0.034034505
-0.0072875842 -0.00018142856 -0.035657745
0.01052651 0.00090714288 -0.035333097
0.021214968 -0.00127 -0.00059577456
-0.0076114768 0.00018142856 -0.039878167
0.0079353694 0.00018142856 -0.034359153
0.0066397991 0.00018142856 -0.00059577456
0.013441544 -0.00090714288 -0.0022190141
-0.00048583894 -0.00018142856 -0.0022190141
0.019919397 0.00018142856 -0.00092042243
-0.011174296 -0.00090714288 -0.035008449
0.0024291947 -0.00127 -0.0022190141
-0.017004363 0.00018142856 -0.0022190141
-0.012793759 0.00054428569 -0.035333097
-0.0027530873 -0.00018142856 -0.020074647
0.012793759 -0.00127 -0.034683801
-0.018299934 0.00018142856 -0.035008449
-0.010202617 -0.00018142856 -0.0083873235
-0.00016194631 -0.00018142856 -0.036631688
-0.0076114768 0.00018142856 -0.020399295
0.0037247653 0.00090714288 -0.00059577456
0.0076114768 -0.00018142856 -0.0070887324
-0.0056681209 0.00090714288 -0.0022190141
0.0079353694 0.00018142856 -0.03793028
-0.020891074 -0.00054428569 -0.034683801
-0.018299934 0.00054428569 -0.0018943661
0.020567182 0.00018142856 -0.040202815
-0.0072875842 0.00018142856 -0.034359153
0.0053442284 -0.00018142856 -0.00027112669
-0.0095548322 -0.00018142856 -0.035008449
0.012793759 -0.00018142856 -0.023645774
-0.017004363 0.00018142856 -0.0018943661
-0.0076114768 -0.00018142856 -0.035333097
0.010202617 -0.00018142856 -0.026567604
0.013765437 0.00090714288 -0.00027112669
-0.0098787248 -0.00090714288 -0.034683801
0.015384899 -0.00090714288 -0.0022190141
0.014089329 -0.00054428569 -0.035008449
-0.023482215 -0.00090714288 -0.034683801
0.020243289 -0.00018142856 -0.033709858
0.0037247653 -0.00054428569 -0.0022190141
0.0053442284 -0.00054428569 -0.034359153
0.0037247653 0.00127 -0.033709858
-0.0076114768 -0.00018142856 -0.040852111
-0.01797604 0.00018142856 -0.039553519
-0.011498189 -0.00018142856 -0.00027112669
0.0027530873 -0.00127 -0.034683801
-0.01797604 0.00018142856 -0.034359153
-0.019919397 -0.00054428569 -0.00027112669
0.020567182 0.00018142856 -0.032086618
-0.02283443 -0.00018142856 -0.025593661
-0.0046964432 0.00054428569 -0.00059577456
0.012793759 0.00018142856 -0.0022190141
-0.010202617 0.00018142856 -0.016828168
0.017328255 0.00054428569 -0.033709858
-0.00016194631 -0.00090714288 -0.0012450704
0.019271612 -0.00018142856 -0.035008449
0.00016194631 -0.00018142856 -0.021048591
-0.017652148 -0.00018142856 -0.016178872
0.010202617 -0.00018142856 -0.031437322
0.01797604 -0.00018142856 -0.01812676
-0.00080973154 -0.00054428569 -0.0015697182
-0.017004363 0.00127 -0.00027112669
-0.008259262 -0.00090714288 -0.033709858
-0.012793759 -0.00090714288 -0.035657745
-0.0027530873 0.00018142856 -0.028515492
-0.0024291947 -0.00018142856 -0.03338521
-0.0079353694 -0.00018142856 -0.025918309
-0.0095548322 -0.00127 -0.00059577456
0.0030769799 -0.00018142856 -0.034359153
0.0076114768 -0.00054428569 -0.033709858
-0.0050203358 0.00018142856 -0.014555633
-0.0014575168 -0.00018142856 -0.035657745
-0.023806108 0.00018142856 -0.0015697182
0.012793759 0.00018142856 -0.0028683098
-0.020243289 0.00018142856 -0.023970421
0.0011336242 0.00018142856 -0.0015697182
-0.0017814095 -0.00090714288 -0.0018943661
0.0066397991 -0.00054428569 -0.034683801
-0.012469866 -0.00018142856 -0.019749999
-0.0079353694 -0.00018142856 -0.020074647
-0.020891074 -0.00054428569 -0.00027112669
-0.012469866 -0.00018142856 -0.023970421
-0.012469866 -0.00018142856 -0.010984506
0.0095548322 0.00054428569 -0.0022190141
0.018623827 0.00127 -0.00092042243
-0.0030769799 -0.00054428569 -0.00059577456
0.012793759 0.00018142856 -0.0074133803
0.012469866 -0.00018142856 -0.025918309
0.02283443 0.00018142856 -0.0093612671
-0.0027530873 0.00018142856 -0.017477464
0.021538859 0.00054428569 -0.033709858
0.018947719 0.00090714288 -0.033709858
-0.0046964432 -0.00127 -0.035333097
-0.019271612 -0.00054428569 -0.035008449
0.02283443 -0.00054428569 -0.035008449
0.0027530873 -0.00018142856 -0.009685915
0.014413222 -0.00054428569 -0.033709858
0.0072875842 0.00090714288 -0.034034505
-0.015708793 0.00054428569 -0.00092042243
-0.018623827 -0.00127 -0.035657745
0.020243289 -0.00054428569 -0.034034505
0.021862753 -0.00090714288 -0.0015697182
0.00080973154 0.00018142856 -0.00027112669
-0.0037247653 0.00054428569 -0.033709858
-0.0098787248 0.00054428569 -0.034683801
0.0092309397 -0.00127 -0.0018943661
-0.00016194631 -0.00018142856 -0.010984506
0.017004363 0.00127 -0.035657745
-0.010850403 -0.00090714288 -0.0015697182
-0.0053442284 0.00127 -0.0015697182
0.012793759 -0.00018142856 0.0026507042
0.00080973154 -0.00054428569 -0.033709858
-0.0072875842 0.00090714288 -0.0022190141
0.018947719 0.00090714288 -0.035657745
-0.0024291947 0.00018142856 -0.0080626756
0.0040486581 -0.00127 -0.0015697182
0.0014575168 -0.00018142856 -0.034359153
-0.0079353694 -0.00018142856 -0.011633802
-0.0095548322 0.00127 -0.034359153
-0.0027530873 0.00018142856 -0.038254928
0.010202617 -0.00018142856 -0.0022190141
0.00016194631 -0.00018142856 -0.026242957
0.0027530873 -0.00018142856 0.0026507042
0.012793759 -0.00018142856 -0.0087119713
0.01797604 -0.00018142856 -0.016178872
-0.0059920135 0.00054428569 -0.0018943661
-0.018623827 -0.00127 -0.0022190141
0.0037247653 -0.00127 -0.034359153
0.0069636917 0.00090714288 -0.0018943661
-0.010202617 0.00018142856 -0.01195845
-0.012793759 -0.00018142856 -0.0015697182
0.020243289 0.00127 -0.00059577456
0.010202617 0.00090714288 -0.035657745
0.014089329 0.00127 -0.035657745
0.012793759 -0.00018142856 -0.024619717
-0.017004363 -0.00127 -0.0022190141
0.0066397991 -0.00018142856 -0.0012450704
-0.00016194631 -0.00127 -0.034683801
0.014089329 -0.00127 -0.0022190141
0.011174296 0.00090714288 -0.035008449
0.0027530873 0.00018142856 -0.041501407
0.0079353694 0.00018142856 -0.017477464
-0.016032685 0.00090714288 -0.00092042243
0.010202617 0.00127 -0.0012450704
0.011174296 -0.00090714288 -0.0022190141
-0.019271612 -0.00090714288 -0.033709858
0.00080973154 -0.00127 -0.00092042243
0.015384899 0.00018142856 -0.035333097
-0.019595504 0.00018142856 -0.00059577456
-0.01797604 -0.00018142856 -0.033709858
-0.0089070471 -0.00127 -0.0015697182
0.0030769799 -0.00054428569 -0.0012450704
-0.0076114768 0.00018142856 -0.0090366192
0.012145974 -0.00127 -0.0015697182
-0.013441544 -0.00018142856 -0.0012450704
-0.020243289 -0.00018142856 -0.022022534
0.00016194631 0.00018142856 -0.0272169
-0.015061007 0.00018142856 -0.0048161969
-0.0014575168 0.00054428569 -0.00027112669
0.012469866 -0.00018142856 -0.018776055
0.0050203358 -0.00018142856 -0.0061147884
0.013441544 -0.00018142856 -0.0015697182
-0.00016194631 0.00018142856 -0.041501407
-0.021538859 -0.00090714288 -0.00092042243
-0.0069636917 -0.00127 -0.034359153
0.014737114 -0.00090714288 -0.0022190141
-0.012469866 -0.00018142856 -0.018776055
-0.0069636917 0.00018142856 -0.035333097
0.0076114768 -0.00018142856 -0.0083873235
-0.023806108 0.00018142856 -0.033709858
0.0053442284 0.00018142856 0.00037816906
0.0069636917 -0.00018142856 -0.034359153
0.01797604 0.00018142856 -0.032735914
0.0027530873 0.00054428569 -0.033709858
0.015708793 -0.00018142856 -0.033709858
-0.0056681209 -0.00054428569 -0.0015697182
0.015061007 -0.00018142856 -0.012607746
-0.01797604 -0.00127 -0.00092042243
-0.017652148 0.00054428569 -0.034034505
-0.008259262 0.00127 -0.0018943661
0.019271612 -0.00090714288 -0.033709858
-0.0050203358 0.00018142856 -0.019100703
0.017652148 -0.00018142856 -0.0018943661
-0.015061007 -0.00018142856 -0.020399295
0.00016194631 0.00018142856 -0.02267183
-0.0066397991 -0.00018142856 -0.00059577456
0.00016194631 -0.00018142856 0.0026507042
0.021214968 -0.00127 -0.034683801
0.020243289 -0.00018142856 -0.0272169
0.0098787248 -0.00090714288 -0.00092042243
-0.01668047 -0.00054428569 -0.0015697182
0.018947719 -0.00127 -0.034034505
-0.02283443 0.00018142856 -0.034683801
-0.013765437 0.00127 -0.034683801
0.011822081 -0.00127 -0.034683801
-0.01668047 0.00090714288 -0.034683801
-0.015384899 0.00018142856 -0.029489435
-0.0085831545 0.00054428569 -0.0018943661
-0.0040486581 0.00127 -0.034034505
-0.015708793 -0.00018142856 -0.033709858
-0.0076114768 -0.00018142856 -0.032735914
-0.013117651 0.00090714288 -0.034683801
-0.015061007 -0.00018142856 -0.0057901405
0.0098787248 -0.00090714288 -0.035333097
-0.0072875842 -0.00054428569 -0.035333097
-0.0089070471 0.00127 -0.034034505
0.015061007 0.00018142856 -0.0022190141
-0.023482215 0.00054428569 -0.034359153
0.0076114768 -0.00018142856 -0.038579576
-0.02283443 -0.00018142856 -0.014555633
-0.0095548322 0.00090714288 -0.035657745
0.015061007 -0.00018142856 -0.014555633
-0.0037247653 -0.00018142856 -0.034034505
0.00048583894 -0.00127 -0.00059577456
0.0027530873 -0.00018142856 -0.019100703
-0.0027530873 0.00018142856 -0.022347182
0.0037247653 0.00054428569 -0.0012450704
0.019919397 0.00018142856 -0.03338521
0.015061007 -0.00018142856 -0.029164787
0.0027530873 -0.00018142856 -0.035657745
-0.022186644 0.00090714288 -0.0018943661
0.0024291947 -0.00018142856 -0.031437322
-0.0046964432 -0.00018142856 -0.00092042243
-0.0050203358 0.00054428569 -0.035657745
-0.010202617 -0.00054428569 -0.035982393
0.0063159061 -0.00127 -0.034683801
-0.012793759 -0.00018142856 0.0016767606
-0.0027530873 0.00054428569 -0.0022190141
0.017652148 -0.00090714288 -0.035333097
0.020567182 0.00018142856 -0.00027112669
0.020891074 0.00090714288 -0.035333097
0.0030769799 -0.00054428569 -0.035008449
-0.022510538 0.00127 -0.00027112669
-0.020243289 -0.00018142856 -0.02267183
0.015061007 -0.00018142856 -0.015529577
0.014737114 -0.00090714288 -0.035657745
0.02283443 0.00018142856 -0.017152816
0.020243289 0.00018142856 -0.01812676
-0.011498189 -0.00090714288 -0.0018943661
0.020243289 -0.00018142856 -0.030463379
0.01797604 -0.00127 -0.00092042243
-0.017652148 -0.00018142856 -0.023970421
-0.0076114768 0.00127 -0.034359153
0.018299934 -0.00054428569 -0.0015697182
0.017652148 0.00018142856 -0.038254928
0.010850403 0.00018142856 -0.034034505
-0.013117651 -0.00054428569 -0.00092042243
-0.0024291947 -0.00018142856 -0.026242957
0.012469866 -0.00018142856 -0.020723943
-0.0063159061 -0.00090714288 -0.034359153
0.018623827 -0.00018142856 -0.0015697182
0.020567182 0.00054428569 -0.00092042243
-0.023158323 -0.00018142856 -0.033709858
0.00080973154 -0.00054428569 -0.0015697182
-0.0076114768 -0.00018142856 -0.023321126
-0.016356578 -0.00127 -0.035008449
0.019595504 0.00090714288 -0.00059577456
-0.01797604 -0.00018142856 -0.019100703
-0.021862753 0.00090714288 -0.033709858
0.017652148 -0.00018142856 -0.014230985
-0.015061007 -0.00018142856 -0.013257042
0.015708793 -0.00127 -0.035657745
-0.017328255 0.00127 -0.00059577456
0.021538859 -0.00127 -0.00059577456
-0.014737114 -0.00054428569 -0.0018943661
0.0027530873 0.00054428569 -0.035008449
0.00080973154 -0.00127 -0.035333097
-0.0063159061 -0.00054428569 -0.034359153
0.008259262 -0.00018142856 -0.0022190141
0.014737114 0.00018142856 -0.035008449
-0.00080973154 0.00127 -0.00092042243
0.017652148 0.00127 -0.0015697182
-0.013765437 0.00054428569 -0.034683801
0.01797604 0.00090714288 -0.0012450704
-0.010850403 -0.00018142856 -0.0012450704
0.012793759 0.00018142856 -0.017802112
0.0043725506 -0.00054428569 -0.0022190141
-0.017652148 0.00018142856 -0.015854225
0.0098787248 -0.00054428569 -0.034359153
-0.0066397991 0.00018142856 -0.035333097
0.020567182 -0.00127 -0.034359153
0.0024291947 -0.00018142856 -0.029489435
0.011822081 0.00018142856 -0.034359153
0.0027530873 -0.00018142856 -0.010335211
0.0021053022 0.00054428569 -0.035008449
0.019595504 -0.00090714288 -0.0012450704
-0.018623827 -0.00127 -0.035008449
0.00048583894 -0.00090714288 -0.034034505
0.019271612 0.00018142856 -0.035333097
0.017652148 -0.00018142856 -0.019425351
-0.014413222 0.00127 -0.00092042243
-0.012469866 0.00054428569 -0.0022190141
-0.0027530873 -0.00018142856 -0.0093612671
0.0024291947 -0.00018142856 -0.011633802
0.017652148 0.00018142856 -0.0083873235
-0.020891074 0.00127 -0.00059577456
-0.01052651 -0.00090714288 -0.00027112669
0.0011336242 -0.00018142856 -0.0015697182
0.013765437 0.00018142856 -0.034683801
0.0034008727 -0.00054428569 -0.0018943661
-0.020243289 0.00090714288 -0.0018943661
0.01797604 0.00018142856 -0.0035176056
0.015061007 0.00127 -0.0015697182
-0.015061007 -0.00054428569 -0.00059577456
-0.015061007 0.00018142856 -0.020723943
-0.0053442284 -0.00018142856 -0.029489435
-0.012793759 -0.00018142856 -0.0074133803
-0.021538859 -0.00018142856 -0.034683801
-0.0076114768 0.00018142856 0.0026507042
-0.012793759 0.00018142856 -0.041501407
-0.017004363 -0.00054428569 -0.034683801
0.0053442284 0.00018142856 -0.0087119713
-0.010850403 0.00127 -0.034683801
-0.014089329 -0.00090714288 -0.033709858
0.00016194631 -0.00018142856 -0.030463379
0.020243289 0.00018142856 -0.022996478
0.0024291947 -0.00018142856 -0.027866196
-0.015708793 -0.00090714288 -0.00027112669
0.019271612 -0.00127 -0.0015697182
-0.018623827 -0.00127 -0.034683801
-0.019595504 -0.00018142856 -0.03338521
0.012469866 0.00018142856 -0.02267183
-0.010202617 0.00018142856 -0.022347182
-0.0024291947 0.00018142856 -0.027541548
0.012793759 -0.00090714288 -0.0015697182
0.021862753 -0.00127 -0.034359153
-0.0043725506 -0.00090714288 -0.034359153
0.02283443 -0.00018142856 -0.016828168
-0.010202617 -0.00018142856 0.0020014085
0.02283443 0.00018142856 -0.00027112669
-0.023482215 0.00054428569 -0.0022190141
0.0059920135 0.00090714288 -0.035657745
-0.0076114768 -0.00018142856 -0.031437322
-0.020243289 -0.00018142856 -0.0087119713
0.019271612 -0.00018142856 -0.035657745
0.0014575168 -0.00127 -0.035657745
-0.010202617 -0.00018142856 -0.011309154
-0.012145974 0.00054428569 -0.0012450704
0.015708793 -0.00090714288 -0.034683801
-0.0079353694 -0.00018142856 -0.0070887324
0.020243289 0.00018142856 -0.014230985
-0.00080973154 -0.00090714288 -0.00059577456
-0.0076114768 0.00054428569 -0.00092042243
-0.0098787248 -0.00054428569 -0.00059577456
0.014737114 0.00090714288 -0.0018943661
-0.01668047 0.00090714288 -0.034034505
0.014089329 0.00127 -0.00092042243
-0.01797604 -0.00018142856 -0.032735914
0.0011336242 -0.00018142856 -0.00092042243
-0.020567182 -0.00018142856 -0.028515492
0.012793759 0.00090714288 -0.0015697182
0.0095548322 0.00018142856 -0.034359153
-0.008259262 0.00054428569 -0.034359153
-0.013441544 -0.00090714288 -0.00027112669
0.0050203358 0.00018142856 -0.0074133803
0.0063159061 -0.00090714288 -0.0018943661
0.00048583894 0.00054428569 -0.033709858
-0.0089070471 0.00127 -0.034683801
-0.017652148 0.00127 -0.035008449
0.008259262 -0.00127 -0.0015697182
0.020243289 0.00018142856 -0.03793028
-0.018299934 0.00018142856 -0.0012450704
0.011498189 -0.00018142856 -0.035333097
0.0072875842 -0.00127 -0.035657745
0.0027530873 -0.00018142856 -0.01812676
-0.017328255 0.00090714288 -0.034034505
-0.00016194631 0.00018142856 -0.026567604
-0.0076114768 0.00018142856 -0.032735914
0.0011336242 -0.00127 -0.033709858
-0.015384899 0.00018142856 -0.004491549
0.00016194631 0.00090714288 -0.00092042243
0.0043725506 0.00127 -0.034683801
-0.0024291947 -0.00127 -0.0022190141
-0.0034008727 -0.00018142856 -0.034034505
-0.010202617 0.00018142856 -0.029164787
-0.010202617 0.00018142856 -0.021697886
-0.00016194631 -0.00054428569 -0.033709858
0.01797604 0.00018142856 -0.02884014
-0.020567182 0.00018142856 -0.037605632
0.0030769799 -0.00018142856 -0.0022190141
-0.0079353694 0.00054428569 -0.034683801
0.00016194631 -0.00018142856 -0.01650352
-0.0059920135 0.00018142856 -0.0015697182
-0.0072875842 -0.00018142856 -0.0015697182
0.017652148 -0.00018142856 -0.022022534
-0.015061007 0.00054428569 -0.034034505
-0.0050203358 -0.00018142856 -0.036956336
0.0024291947 0.00018142856 -0.035657745
-0.017652148 0.00054428569 -0.035333097
0.017004363 -0.00127 -0.0022190141
-0.022510538 -0.00127 -0.0015697182
-0.0046964432 -0.00090714288 -0.00027112669
0.0037247653 -0.00090714288 -0.00059577456
-0.017652148 0.00018142856 -0.038904224
-0.012469866 -0.00018142856 -0.035333097
0.015061007 0.00018142856 -0.013906337
0.0024291947 -0.00018142856 -0.039553519
0.0017814095 0.00054428569 -0.0012450704
0.0053442284 -0.00018142856 -0.024619717
-0.012793759 0.00018142856 -0.034359153
0.012793759 0.00127 -0.0018943661
-0.017328255 0.00054428569 -0.0018943661
-0.0098787248 -0.00127 -0.034359153
0.0021053022 0.00127 -0.034359153
0.020567182 0.00018142856 -0.0054654926
-0.0027530873 0.00018142856 -0.022996478
0.018299934 0.00090714288 -0.035657745
0.008259262 0.00054428569 -0.035008449
-0.0037247653 0.00127 -0.034034505
-0.0076114768 -0.00054428569 -0.0018943661
0.0046964432 -0.00018142856 -0.00092042243
-0.020243289 -0.00018142856 -0.024944365
-0.017652148 -0.00090714288 -0.035333097
-0.017652148 0.00090714288 -0.035333097
0.01668047 -0.00054428569 -0.034359153
0.0027530873 -0.00018142856 -0.028515492
-0.023482215 -0.00054428569 -0.0012450704
0.0066397991 0.00090714288 -0.0015697182
-0.0079353694 -0.00018142856 -0.03176197
0.017652148 0.00090714288 -0.0012450704
-0.02283443 -0.00090714288 -0.034359153
0.0076114768 -0.00018142856 -0.021048591
0.0076114768 0.00018142856 -0.035008449
0.023158323 -0.00018142856 -0.00092042243
-0.023482215 -0.00054428569 -0.0015697182
0.017652148 0.00127 -0.034359153
-0.023158323 0.00090714288 -0.00059577456
-0.015708793 -0.00127 -0.0012450704
-0.014413222 -0.00018142856 -0.034359153
-0.012145974 0.00127 -0.034683801
0.0053442284 0.00018142856 -0.0015697182
-0.0076114768 0.00018142856 -0.026567604
-0.017652148 0.00018142856 -0.041176759
-0.0021053022 -0.00018142856 -0.035008449
-0.020243289 -0.00018142856 -0.0070887324
-0.0079353694 -0.00018142856 -0.0015697182
0.0076114768 -0.00127 -0.034034505
-0.0066397991 -0.00127 -0.035657745
0.012469866 0.00018142856 -0.0093612671
-0.015061007 0.00054428569 -0.03338521
-0.0017814095 -0.00127 -0.035008449
-0.011498189 -0.00127 -0.034359153
-0.00080973154 -0.00127 -0.035333097
0.016032685 0.00018142856 -0.034359153
0.01797604 0.00018142856 -0.01650352
-0.017652148 -0.00127 -0.033709858
-0.020243289 0.00018142856 -0.015529577
-0.0024291947 -0.00018142856 -0.028515492
-0.020567182 0.00018142856 -0.033060562
0.0076114768 0.00090714288 -0.00059577456
0.018947719 -0.00090714288 -0.0015697182
0.011822081 0.00018142856 -0.0012450704
0.015384899 -0.00018142856 -0.002543662
0.0079353694 -0.00018142856 -0.0022190141
-0.015384899 0.00018142856 -0.016828168
0.018947719 0.00054428569 -0.034034505
-0.019271612 -0.00018142856 -0.0012450704
0.010850403 0.00054428569 -0.0012450704
0.011174296 0.00127 -0.00027112669
0.0079353694 -0.00018142856 -0.015854225
-0.01797604 0.00054428569 -0.00092042243
0.0024291947 -0.00018142856 -0.0022190141
-0.0085831545 0.00018142856 -0.034683801
0.013765437 -0.00054428569 -0.034683801
0.015061007 -0.00018142856 0.0016767606
0.018623827 0.00018142856 -0.033709858
0.02283443 0.00127 -0.034034505
-0.013441544 -0.00018142856 -0.035333097
-0.0011336242 0.00054428569 -0.00092042243
-0.023806108 -0.00090714288 -0.00027112669
-0.018623827 -0.00018142856 -0.035333097
-0.0053442284 -0.00127 -0.0015697182
-0.0063159061 0.00018142856 -0.00092042243
-0.010202617 -0.00018142856 -0.030463379
-0.019919397 0.00054428569 -0.034359153
0.011174296 0.00054428569 -0.00059577456
0.012469866 0.00018142856 -0.014880281
0.0014575168 0.00054428569 -0.034359153
-0.010202617 0.00054428569 -0.034359153
-0.011498189 -0.00127 -0.035333097
0.00048583894 0.00127 -0.0018943661
-0.0027530873 0.00018142856 -0.036307041
-0.017328255 0.00054428569 -0.00027112669
-0.0050203358 -0.00018142856 -0.010984506
0.010202617 0.00018142856 -0.027541548
0.0024291947 0.00018142856 -0.029489435
-0.020567182 -0.00018142856 0.0010274649
-0.0063159061 0.00054428569 -0.033709858
-0.023158323 -0.00018142856 -0.0057901405
0.0069636917 0.00127 -0.0015697182
-0.0079353694 -0.00018142856 -0.0090366192
0.00016194631 -0.00018142856 -0.0022190141
0.017652148 -0.00018142856 -0.010659859
-0.017328255 0.00127 -0.0012450704
-0.0053442284 -0.00018142856 -0.035982393
-0.0027530873 -0.00018142856 5.3521184e-05
0.0050203358 -0.00018142856 -0.038254928
0.012469866 0.00018142856 -0.040202815
0.00016194631 -0.00090714288 -0.035657745
0.012469866 0.00018142856 -0.030788027
-0.0079353694 -0.00018142856 -0.010335211
-0.00016194631 0.00090714288 -0.00027112669
-0.01797604 -0.00018142856 -0.023970421
-0.010202617 0.00018142856 -0.004491549
-0.015384899 0.00090714288 -0.033709858
-0.00016194631 0.00018142856 -0.033060562
-0.014413222 0.00127 -0.00027112669
-0.023482215 0.00090714288 -0.034359153
0.018623827 -0.00127 -0.034683801
-0.02283443 0.00018142856 -0.017802112
-0.0076114768 0.00018142856 -0.00027112669
-0.01668047 0.00090714288 -0.0012450704
0.012469866 -0.00018142856 -0.036307041
0.0027530873 -0.00018142856 -0.025593661
0.017652148 0.00018142856 -0.0077380282
0.014089329 -0.00090714288 -0.034359153
0.010202617 -0.00127 -0.0012450704
0.010202617 -0.00018142856 -0.034359153
-0.0034008727 -0.00090714288 -0.0022190141
0.0063159061 -0.00018142856 -0.035657745
0.012145974 -0.00018142856 -0.033709858
-0.0024291947 -0.00018142856 -0.020723943
0.020891074 -0.00127 -0.035333097
-0.012469866 0.00018142856 -0.022022534
0.017652148 0.00018142856 -0.021048591
-0.016356578 0.00018142856 -0.0012450704
-0.0027530873 -0.00018142856 -0.029489435
0.012793759 0.00090714288 -0.034359153
-0.01668047 0.00090714288 -0.00092042243
-0.011174296 -0.00090714288 -0.0015697182
0.0098787248 -0.00054428569 -0.033709858
0.022510538 -0.00018142856 -0.034359153
0.0034008727 0.00090714288 -0.00059577456
0.0095548322 -0.00090714288 -0.00027112669
0.0059920135 0.00090714288 -0.0012450704
-0.0024291947 0.00018142856 -0.0077380282
-0.0037247653 -0.00090714288 -0.00059577456
0.021214968 -0.00090714288 -0.035333097
-0.00016194631 0.00018142856 -0.028515492
0.0043725506 0.00054428569 -0.034683801
-0.0092309397 0.00127 -0.00027112669
0.015708793 0.00090714288 -0.00092042243
-0.0017814095 -0.00018142856 -0.033709858
-0.0069636917 0.00054428569 -0.0015697182
0.0011336242 -0.00090714288 -0.033709858
-0.023158323 0.00127 -0.035657745
-0.0050203358 0.00018142856 -0.025918309
0.012469866 0.00018142856 -0.010984506
-0.017652148 0.00018142856 -0.016178872
0.012469866 0.00090714288 -0.035657745
-0.023482215 -0.00127 -0.0018943661
0.01797604 -0.00018142856 -0.020074647
0.012145974 0.00018142856 -0.0022190141
-0.010202617 -0.00127 -0.0018943661
0.020567182 -0.00018142856 -0.00027112669
-0.01052651 0.00054428569 -0.035657745
0.017004363 -0.00127 -0.035333097
0.02283443 0.00018142856 -0.035008449
-0.020243289 -0.00018142856 -0.030788027
0.0059920135 0.00127 -0.00092042243
-0.017652148 -0.00018142856 -0.019100703
-0.016032685 0.00090714288 -0.034683801
0.022186644 -0.00090714288 -0.035657745
0.0063159061 -0.00054428569 -0.00059577456
0.012469866 -0.00018142856 -0.031437322
0.012469866 -0.00090714288 -0.035657745
0.01797604 0.00018142856 -0.029489435
0.020243289 0.00127 -0.0015697182
-0.019919397 0.00090714288 -0.0015697182
-0.008259262 -0.00127 -0.00059577456
0.019919397 -0.00127 -0.035333097
-0.011498189 0.00090714288 -0.00092042243
0.0050203358 0.00018142856 -0.031437322
0.015061007 0.00018142856 -0.028515492
-0.015061007 0.00127 -0.0022190141
-0.0079353694 0.00054428569 -0.0018943661
0.017652148 0.00018142856 0.0016767606
0.020243289 0.00018142856 -0.02884014
-0.0024291947 -0.00054428569 -0.00027112669
-0.010202617 -0.00018142856 -0.0054654926
0.022510538 -0.00090714288 -0.034683801
-0.023158323 -0.00054428569 -0.00027112669
-0.0011336242 -0.00127 -0.035008449
0.012145974 -0.00054428569 -0.0018943661
-0.0027530873 0.00018142856 -0.018451408
-0.02283443 0.00054428569 -0.035008449
-0.010202617 0.00018142856 -0.0067640841
0.0030769799 0.00054428569 -0.00027112669
0.014089329 -0.00127 -0.00059577456
-0.0014575168 0.00090714288 -0.00092042243
-0.0069636917 -0.00018142856 -0.0018943661
0.0011336242 0.00090714288 -0.033709858
0.012145974 0.00018142856 -0.00092042243
-0.017004363 -0.00054428569 -0.03338521
0.015061007 -0.00018142856 -0.0022190141
-0.021538859 0.00018142856 -0.0022190141
-0.01797604 -0.00018142856 -0.018451408
0.017652148 0.00127 -0.0018943661
-0.0079353694 -0.00018142856 -0.016178872
0.0089070471 0.00054428569 -0.035657745
0.0079353694 -0.00090714288 -0.034359153
0.015384899 0.00018142856 -0.029489435
-0.022186644 -0.00090714288 -0.034683801
-0.012793759 0.00018142856 -0.017152816
0.019595504 -0.00127 -0.0015697182
0.022186644 -0.00127 -0.00059577456
0.0053442284 -0.00018142856 -0.040852111
-0.010202617 -0.00018142856 -0.0077380282
-0.0079353694 -0.00018142856 -0.0012450704
0.011822081 -0.00127 -0.00059577456
-0.017004363 -0.00054428569 -0.034359153
0.0011336242 -0.00018142856 -0.0018943661
0.0037247653 0.00054428569 -0.034359153
-0.0069636917 0.00127 -0.035657745
-0.0092309397 -0.00018142856 -0.035008449
0.01797604 0.00018142856 -0.036631688
-0.00080973154 -0.00054428569 -0.0018943661
-0.01052651 -0.00127 -0.035333097
-0.023806108 0.00018142856 -0.034034505
0.0063159061 0.00127 -0.00092042243
-0.023158323 -0.00090714288 -0.00027112669
-0.0050203358 -0.00018142856 -0.016178872
0.010202617 -0.00018142856 -0.023645774
0.0053442284 -0.00018142856 -0.010335211
-0.015061007 0.00018142856 -0.020399295
-0.01052651 0.00018142856 -0.00092042243
-0.0014575168 0.00018142856 -0.00027112669
-0.0050203358 0.00127 -0.034683801
0.0024291947 -0.00018142856 -0.030138731
-0.010202617 -0.00018142856 -0.02884014
-0.020243289 0.00018142856 -0.0028683098
-0.00016194631 -0.00018142856 -0.029164787
-0.022186644 -0.00018142856 -0.0022190141
-0.02283443 0.00018142856 -0.024944365
-0.02283443 -0.00018142856 0.00070281693
0.0024291947 0.00018142856 -0.041826054
0.0027530873 0.00018142856 -0.01812676
-0.018299934 -0.00090714288 -0.034683801
0.00016194631 -0.00018142856 -0.017152816
-0.00080973154 0.00054428569 -0.0015697182
-0.012469866 -0.00018142856 -0.011633802
-0.0069636917 0.00054428569 -0.035333097
0.01052651 0.00018142856 -0.035657745
-0.0050203358 -0.00018142856 -0.022347182
0.014089329 0.00090714288 -0.00092042243
0.0079353694 0.00018142856 -0.00027112669
-0.0046964432 -0.00018142856 -0.0015697182
-0.0076114768 0.00090714288 -0.0015697182
0.023158323 0.00054428569 -0.034359153
-0.0076114768 -0.00018142856 -0.029489435
-0.012469866 -0.00018142856 -0.032086618
0.023158323 0.00127 -0.00027112669
-0.0027530873 -0.00018142856 0.0016767606
-0.010202617 -0.00018142856 -0.0035176056
-0.013441544 0.00090714288 -0.035008449
0.0027530873 -0.00018142856 -0.0018943661
0.019919397 -0.00090714288 -0.0018943661
-0.0066397991 0.00018142856 -0.033709858
-0.012469866 -0.00018142856 -0.036307041
0.01052651 -0.00127 -0.00059577456
0.0072875842 -0.00018142856 -0.00027112669
-0.019595504 -0.00054428569 -0.00059577456
-0.017652148 -0.00018142856 -0.016828168
-0.01668047 -0.00090714288 -0.03338521
0.016356578 0.00090714288 -0.035657745
-0.0050203358 -0.00018142856 0.0010274649
-0.020243289 -0.00018142856 -0.00092042243
0.0059920135 0.00090714288 -0.0022190141
-0.00080973154 0.00018142856 -0.034359153
0.015384899 0.00018142856 -0.02884014
0.0017814095 0.00090714288 -0.034034505
0.023158323 -0.00018142856 -0.034359153
0.0092309397 0.00127 -0.00092042243
0.0027530873 0.00018142856 -0.035982393
-0.023482215 0.00018142856 -0.034359153
-0.020243289 0.00090714288 -0.0012450704
0.0021053022 -0.00090714288 -0.00092042243
0.0014575168 0.00127 -0.034034505
-0.0050203358 0.00018142856 -0.025269013
-0.02283443 0.00018142856 -0.030788027
0.014737114 0.00018142856 -0.00027112669
-0.010202617 0.00018142856 -0.0074133803
-0.0066397991 -0.00054428569 -0.034034505
0.0050203358 0.00018142856 -0.034683801
-0.0024291947 -0.00018142856 -0.015529577
-0.012469866 -0.00018142856 -0.023321126
0.012793759 0.00018142856 -0.013257042
0.013117651 0.00127 -0.035008449
-0.0046964432 0.00127 -0.035333097
-0.013441544 0.00090714288 -0.034683801
-0.022510538 0.00018142856 -0.0012450704
-0.0085831545 0.00090714288 -0.035657745
0.0095548322 -0.00127 -0.035333097
-0.011498189 0.00018142856 -0.034034505
-0.0017814095 0.00018142856 -0.0015697182
0.0027530873 0.00018142856 -0.0090366192
0.0024291947 0.00018142856 -0.034034505
-0.00016194631 0.00018142856 -0.040527463
0.020891074 -0.00090714288 -0.00092042243
0.020567182 0.00090714288 -0.0018943661
-0.010202617 0.00018142856 -0.021048591
-0.0034008727 -0.00090714288 -0.00027112669
0.020891074 0.00018142856 -0.035657745
0.012145974 -0.00054428569 -0.034034505
-0.0034008727 0.00018142856 -0.0012450704
-0.020567182 -0.00054428569 -0.00059577456
-0.017328255 -0.00127 -0.035657745
0.017652148 -0.00054428569 -0.034359153
-0.0030769799 -0.00090714288 -0.034034505
-0.0085831545 -0.00127 -0.00027112669
0.011174296 -0.00127 -0.034683801
-0.017652148 -0.00018142856 -0.028515492
-0.014737114 0.00018142856 -0.0022190141
-0.0059920135 0.00127 -0.0015697182
0.012793759 -0.00018142856 -0.0028683098
-0.0053442284 0.00018142856 -0.034359153
-0.017004363 -0.00127 -0.034034505
0.02283443 -0.00018142856 0.0023260564
0.015061007 0.00018142856 0.0013521127
-0.020891074 -0.00090714288 -0.035008449
-0.0085831545 -0.00018142856 -0.0012450704
-0.02283443 -0.00018142856 -0.010010563
0.024130002 0.00018142856 -0.00027112669
0.0027530873 0.00018142856 -0.023321126
-0.01668047 0.00090714288 -0.0022190141
0.00080973154 0.00090714288 -0.0012450704
-0.021862753 0.00127 -0.00092042243
-0.0043725506 0.00054428569 -0.035333097
0.02283443 -0.00018142856 -0.033060562
-0.0021053022 -0.00018142856 -0.0018943661
0.0014575168 0.00090714288 -0.00092042243
0.021538859 -0.00018142856 -0.035333097
-0.0072875842 -0.00018142856 -0.034683801
0.018623827 0.00127 -0.0022190141
-0.0046964432 0.00054428569 -0.035008449
-0.00080973154 0.00054428569 -0.0018943661
0.019919397 0.00090714288 -0.034683801
0.020243289 0.00018142856 -0.0083873235
0.024130002 0.00018142856 -0.035333097
0.0066397991 0.00054428569 -0.0022190141
0.020567182 -0.00018142856 -0.034034505
-0.0092309397 0.00127 -0.0012450704
0.020567182 0.00018142856 -0.0061147884
-0.020243289 0.00090714288 -0.0015697182
0.0027530873 0.00018142856 -0.027541548
0.00048583894 -0.00054428569 -0.0015697182
0.0021053022 0.00054428569 -0.035657745
0.0040486581 -0.00127 -0.035657745
0.01797604 0.00018142856 -0.002543662
-0.0079353694 -0.00018142856 -0.014880281
-0.0043725506 0.00018142856 -0.034683801
0.015061007 -0.00018142856 -0.012932394
-0.0050203358 -0.00018142856 -0.029489435
0.0079353694 0.00018142856 -0.0074133803
-0.023158323 -0.00018142856 -0.026567604
-0.0043725506 -0.00090714288 -0.00027112669
-0.0050203358 -0.00018142856 -0.0048161969
0.010202617 -0.00018142856 -0.019749999
-0.02283443 0.00018142856 -0.030138731
0.019271612 -0.00018142856 -0.0018943661
0.02283443 0.00018142856 0.0026507042
0.020567182 -0.00018142856 -0.021697886
-0.020567182 -0.00018142856 -0.004491549
0.0050203358 0.00018142856 -0.02267183
-0.01052651 -0.00090714288 -0.00092042243
-0.014413222 -0.00127 -0.00027112669
-0.0050203358 -0.00018142856 -0.01812676
0.0050203358 -0.00018142856 -0.036956336
0.00080973154 -0.00018142856 -0.0022190141
0.012793759 0.00018142856 -0.023321126
-0.0072875842 0.00018142856 -0.00092042243
-0.012793759 -0.00018142856 -0.040527463
-0.0040486581 -0.00054428569 -0.034359153
-0.0030769799 0.00090714288 -0.00027112669
0.011498189 0.00090714288 -0.0022190141
-0.020243289 -0.00018142856 -0.0018943661
-0.0017814095 0.00018142856 -0.0012450704
0.020891074 -0.00127 -0.0012450704
-0.0089070471 0.00090714288 -0.00027112669
-0.0069636917 -0.00054428569 -0.035333097
-0.02283443 -0.00090714288 -0.00059577456
0.0056681209 0.00054428569 -0.00027112669
0.017652148 0.00018142856 -0.004491549
-0.0011336242 0.00054428569 -0.034359153
-0.01797604 0.00127 -0.00059577456
0.0046964432 -0.00090714288 -0.0015697182
0.0053442284 0.00018142856 -0.0061147884
0.019919397 0.00054428569 -0.034359153
0.023158323 -0.00018142856 -0.035982393
0.0063159061 0.00054428569 -0.0015697182
-0.0027530873 0.00018142856 -0.014555633
0.010850403 -0.00054428569 -0.033709858
-0.0027530873 0.00018142856 -0.026892252
0.0079353694 -0.00054428569 -0.035008449
-0.0011336242 0.00127 -0.00092042243
-0.0034008727 -0.00090714288 -0.03338521
-0.0027530873 0.00018142856 -0.0018943661
-0.0027530873 -0.00018142856 -0.0012450704
-0.011174296 -0.00127 -0.00027112669
-0.020567182 0.00018142856 -0.0015697182
-0.0024291947 0.00018142856 -0.0012450704
0.0043725506 0.00018142856 -0.033709858
-0.0014575168 0.00018142856 -0.034359153
-0.022186644 0.00090714288 -0.034683801
0.020567182 -0.00018142856 -0.032735914
0.01668047 0.00127 -0.034359153
-0.020891074 -0.00018142856 -0.035333097
0.015061007 -0.00018142856 -0.0057901405
0.0027530873 -0.00018142856 -0.034683801
0.010202617 -0.00018142856 -0.015529577
-0.0066397991 0.00127 -0.034683801
0.019271612 0.00054428569 -0.03338521
-0.0053442284 -0.00090714288 -0.03338521
-0.0024291947 0.00018142856 -0.0064394362
-0.0050203358 0.00018142856 -0.010335211
-0.0092309397 0.00090714288 -0.0012450704
0.0024291947 -0.00127 -0.0018943661
-0.021214968 -0.00054428569 -0.035008449
0.0095548322 0.00018142856 -0.034683801
0.014737114 0.00018142856 -0.0022190141
0.0095548322 0.00054428569 -0.034359153
0.0027530873 0.00090714288 -0.00092042243
0.0076114768 0.00018142856 -0.023645774
0.0043725506 -0.00054428569 -0.035008449
-0.0024291947 0.00054428569 -0.035333097
-0.0021053022 -0.00127 -0.034359153
0.015384899 -0.00018142856 -0.038579576
0.019919397 0.00054428569 -0.0012450704
0.00016194631 0.00018142856 -0.031437322
0.010202617 0.00018142856 -0.012607746
-0.020243289 0.00018142856 -0.025593661
0.0034008727 0.00127 -0.034034505
0.0027530873 0.00018142856 -0.02267183
0.0027530873 -0.00090714288 -0.00027112669
-0.020567182 -0.00018142856 0.0016767606
0.018623827 0.00054428569 -0.035008449
-0.01797604 -0.00018142856 -0.020399295
-0.010202617 0.00018142856 -0.0064394362
0.015708793 -0.00018142856 -0.035657745
-0.00016194631 0.00018142856 -0.004491549
-0.017652148 0.00018142856 0.0026507042
-0.0079353694 -0.00018142856 -0.017152816
0.017004363 0.00090714288 -0.035657745
0.012469866 -0.00018142856 -0.034359153
-0.0043725506 0.00054428569 -0.033709858
0.00016194631 0.00018142856 -0.029164787
0.012469866 0.00090714288 -0.034683801
-0.0069636917 0.00018142856 -0.0018943661
0.014737114 0.00127 -0.00092042243
-0.0037247653 -0.00054428569 -0.00092042243
0.0056681209 0.00054428569 -0.00092042243
0.020567182 -0.00018142856 -0.014230985
0.0085831545 0.00127 -0.0022190141
-0.020243289 -0.00018142856 -0.026892252
-0.021214968 -0.00127 -0.034683801
0.017328255 -0.00054428569 -0.035008449
0.0053442284 0.00018142856 -0.022347182
0.017652148 0.00018142856 -0.021697886
0.00016194631 0.00018142856 -0.041826054
0.014089329 0.00090714288 -0.0015697182
-0.021538859 0.00018142856 -0.00092042243
-0.021862753 -0.00127 -0.00059577456
0.02283443 -0.00018142856 -0.0087119713
-0.012793759 -0.00018142856 -0.032735914
0.0024291947 -0.00018142856 0.0023260564
-0.010850403 -0.00127 -0.035333097
0.0024291947 -0.00018142856 -0.036956336
-0.011822081 0.00018142856 -0.0015697182
0.0024291947 0.00054428569 -0.0018943661
0.0059920135 0.00090714288 -0.0018943661
-0.020243289 -0.00127 -0.00027112669
-0.0072875842 0.00127 -0.00059577456
-0.012469866 -0.00054428569 -0.035333097
0.00048583894 0.00127 -0.034359153
-0.012793759 0.00018142856 -0.013581689
0.0069636917 -0.00127 -0.0015697182
0.015061007 0.00054428569 -0.00027112669
-0.01052651 -0.00054428569 -0.0018943661
0.0017814095 -0.00127 -0.00027112669
0.010850403 -0.00090714288 -0.00027112669
-0.020243289 -0.00018142856 -0.026242957
0.00080973154 0.00054428569 -0.00059577456
0.012793759 -0.00018142856 -0.034683801
0.015061007 -0.00018142856 -0.013257042
-0.015384899 0.00018142856 -0.025918309
0.00016194631 -0.00018142856 -0.011309154
-0.0040486581 -0.00018142856 -0.00059577456
-0.015384899 -0.00018142856 -0.03176197
0.02283443 0.00018142856 -0.011633802
0.02283443 0.00090714288 -0.0015697182
-0.018947719 0.00054428569 -0.035657745
-0.010850403 0.00018142856 -0.035333097
0.020243289 -0.00018142856 -0.0012450704
-0.0030769799 -0.00127 -0.035657745
-0.013441544 -0.00054428569 -0.0015697182
-0.015384899 -0.00018142856 -0.038579576
-0.015061007 -0.00018142856 0.0016767606
-0.0021053022 0.00018142856 -0.0022190141
-0.010202617 -0.00018142856 0.0023260564
-0.02283443 -0.00018142856 -0.030788027
-0.00016194631 -0.00018142856 -0.013906337
0.010850403 -0.00090714288 -0.034359153
-0.0024291947 -0.00018142856 -0.036307041
0.015061007 -0.00054428569 -0.00027112669
-0.0021053022 0.00018142856 -0.00059577456
0.018623827 0.00090714288 -0.0022190141
0.018947719 -0.00090714288 -0.0018943661
0.010850403 0.00054428569 -0.0018943661
0.010202617 0.00018142856 -0.030788027
0.010202617 -0.00018142856 -0.011309154
-0.00080973154 0.00090714288 -0.0022190141
0.01797604 -0.00127 -0.034683801
0.0024291947 0.00018142856 -0.009685915
0.018947719 0.00018142856 -0.0018943661
-0.017328255 0.00054428569 -0.0015697182
0.021538859 -0.00090714288 -0.0018943661
-0.0076114768 -0.00018142856 -0.0061147884
0.0043725506 -0.00054428569 -0.00027112669
0.00016194631 0.00054428569 -0.0018943661
0.019271612 -0.00018142856 -0.00059577456
-0.0056681209 -0.00127 -0.033709858
0.0046964432 0.00127 -0.0015697182
0.015384899 -0.00054428569 -0.035657745
0.017328255 -0.00090714288 -0.0022190141
0.010202617 -0.00090714288 -0.034683801
-0.0040486581 0.00090714288 -0.0022190141
0.0043725506 -0.00054428569 -0.00059577456
0.020567182 -0.00018142856 -0.030138731
