# .PCD v0.7 - Point Cloud Data file format
VERSION 0.7
FIELDS x y z
SIZE 4 4 4
TYPE F F F
COUNT 1 1 1
WIDTH 1233
HEIGHT 1
VIEWPOINT 0 0 0 1 0 0 0
POINTS 1233
DATA ascii
0.0090497006 -0.00011545455 -0.019615833
-0.014373054 -0.00127 -0.013833333
-0.013734252 -0.00011545455 -0.01212
0.011604911 -0.00011545455 -0.0095499996
0.011604911 -0.00011545455 -0.019187499
-0.010966108 -0.0010390909 -0.0022683332
-0.0013840719 -0.00034636364 -0.0093358336
-0.0064944914 -0.00034636364 -0.017902499
0.0088367667 0.00034636364 -0.010834999
0.013947186 0.00034636364 -0.015760833
0.0071332934 0.0010390909 -0.00012666661
0.0011711378 -0.00034636364 -0.0029108333
-0.006281557 -0.00034636364 -0.012548333
0.0018099402 0.00080818182 -0.0140475
0.0094755692 -0.00057727273 -0.00034083327
-0.0088367667 -0.00011545455 -0.0217575
-0.0073462278 -0.00057727273 -0.015546666
0.0039392817 -0.00034636364 -0.0061233332
-0.0011711378 0.00057727273 -0.015760833
0.007772096 0.00127 -0.0020541665
-0.0028746109 -0.00127 -0.0140475
-0.006281557 -0.00034636364 -0.0086933328
0.012456647 -0.00127 -0.0153325
0.017567066 0.00057727273 -0.0016258332
0.014373054 -0.00057727273 -0.015546666
-0.011604911 -0.00034636364 -0.0091216667
-0.010327306 0.00127 -0.015118334
-0.0026616766 0.00057727273 -0.0022683332
-0.0041522156 -0.00127 -0.015118334
0.00010646707 -0.0010390909 -0.00012666661
-0.00074526947 0.00127 -0.0016258332
-0.0071332934 -0.00057727273 -0.00034083327
0.0088367667 -0.00127 -0.0018399999
-0.011391976 0.00127 -0.015118334
0.0060686227 -0.00057727273 -0.0022683332
-0.013734252 -0.00011545455 -0.021543333
-0.010327306 -0.00127 -0.013833333
-0.003087545 -0.00057727273 -0.013619167
-0.008410898 0.00127 -0.00098333322
0.015011856 0.00127 -0.0020541665
-0.00010646707 0.00034636364 -0.013405
-0.011604911 0.00011545455 8.7500048e-05
0.01778 0.00034636364 -0.014475833
-0.016502395 0.00011545455 -0.015760833
-0.0069203596 -0.00080818182 -0.0022683332
0.013734252 0.00011545455 -0.0204725
0.016289461 -0.00011545455 -0.020258334
-0.0092626354 -0.0010390909 -0.00012666661
-0.0018099402 0.00011545455 -0.00012666661
0.001597006 0.00011545455 0.0026575001
0.01416012 -0.00127 -0.0140475
0.015437725 0.00011545455 -0.00012666661
-0.016289461 -0.00034636364 -0.013405
0.014585989 0.00034636364 -0.015546666
0.0013840719 -0.00127 -0.00098333322
-0.0039392817 -0.00034636364 -0.016617499
-0.0056427545 0.00127 -0.014261667
-0.0022358084 -0.00127 -0.0011974999
-0.0064944914 0.00011545455 -0.010834999
-0.0060686227 0.00011545455 -0.017474167
0.0069203596 -0.00011545455 -0.00012666661
0.00031940121 0.00011545455 -0.0022683332
-0.016502395 -0.00127 -0.0016258332
-0.016502395 0.00127 -0.015546666
0.006281557 -0.00034636364 -0.010406666
-0.0060686227 0.0010390909 -0.0022683332
0.0088367667 -0.00034636364 -0.0095499996
0.001597006 0.00011545455 -0.0026966666
0.0064944914 0.0010390909 -0.013619167
0.00031940121 0.00127 -0.0022683332
0.0045780838 0.00127 -0.014475833
0.0056427545 -0.00127 -0.0018399999
0.0043651499 -0.00127 -0.015118334
0.01054024 0.00127 -0.014475833
-0.017567066 0.00080818182 -0.0016258332
-0.0064944914 -0.00034636364 -0.0076225
-0.0094755692 0.00127 -0.013833333
0.0069203596 -0.00127 -0.00034083327
0.0011711378 -0.00127 -0.0022683332
-0.01565066 -0.00011545455 -0.015546666
-0.010966108 -0.00127 -0.0153325
-0.0039392817 0.00127 -0.00012666661
0.0013840719 -0.00011545455 -0.015975
-0.016289461 -0.00011545455 -0.0080508329
0.0060686227 0.00011545455 -0.011905833
0.006281557 0.00127 -0.0011974999
0.0071332934 -0.00127 -0.0018399999
-0.0035134132 0.00011545455 -0.0065516667
-0.0013840719 -0.00034636364 -0.017474167
-0.01309545 -0.00127 -0.00098333322
-0.014373054 -0.00080818182 -0.00012666661
-0.017354133 0.0010390909 -0.0140475
-0.0039392817 -0.00034636364 -0.011049166
0.0073462278 0.00127 -0.01469
0.0013840719 -0.00080818182 -0.0022683332
0.0022358084 0.00127 -0.014261667
-0.01054024 -0.00080818182 -0.015546666
-0.014373054 -0.00127 -0.00055499992
-0.012882515 0.00127 -0.015118334
0.0011711378 -0.00011545455 0.0015866667
-0.01416012 -0.00127 -0.0153325
0.00074526947 -0.00127 -0.014904167
0.00053233537 -0.00127 -0.00076916663
-0.016715329 0.00011545455 -0.010834999
0.011391976 -0.00034636364 -0.0033391665
0.0039392817 0.00011545455 -0.0056949998
0.012669581 -0.00080818182 -0.0022683332
0.0064944914 -0.00034636364 8.7500048e-05
-0.011604911 -0.00011545455 -0.0067658331
0.006281557 -0.00127 -0.00034083327
-0.011179042 0.00011545455 -0.020258334
0.016715329 0.00127 -0.015546666
0.0064944914 -0.00011545455 -0.01983
-0.0043651499 0.00127 -0.014904167
0.016502395 0.00011545455 -0.0076225
0.010327306 -0.00127 -0.014261667
-0.0052168863 0.00127 -0.015118334
-0.0013840719 0.00034636364 -0.0089074997
0.0011711378 -0.00034636364 -0.0037674999
-0.0058556888 -0.00127 -0.00034083327
0.0052168863 0.0010390909 -0.013833333
-0.010327306 0.00127 -0.00076916663
0.0050039524 0.00011545455 -0.00012666661
0.00095820363 0.00011545455 -0.020044167
-0.010327306 -0.00011545455 -0.013405
0.016289461 0.00080818182 -0.0022683332
-0.009901437 -0.0010390909 -0.015546666
-0.017567066 0.0010390909 -0.0016258332
0.01565066 0.00127 -0.013405
-0.006281557 0.00011545455 -0.015975
0.0071332934 0.00127 -0.0020541665
-0.001597006 -0.00011545455 0.0003016667
-0.0050039524 -0.00080818182 -0.013833333
0.015224791 -0.0010390909 -0.015546666
0.0013840719 -0.00011545455 -0.0080508329
-0.0086238328 0.00011545455 -0.016403332
0.0090497006 0.00011545455 0.00051583338
0.001597006 -0.00080818182 -0.015546666
-0.0054298206 0.00034636364 -0.00012666661
0.008410898 -0.00127 -0.015118334
-0.0037263473 -0.00057727273 -0.0024824999
0.0064944914 0.00011545455 -0.0067658331
0.0086238328 0.00011545455 -0.010834999
0.0045780838 -0.00034636364 -0.00012666661
-0.010753174 -0.0010390909 -0.013405
-0.011391976 -0.00034636364 -0.0056949998
0.0045780838 -0.00127 -0.014904167
0.011604911 0.00011545455 -0.007408333
0.006281557 0.00034636364 -0.019615833
-0.013734252 0.00011545455 -0.020044167
0.0064944914 0.00011545455 -0.01212
0.0086238328 -0.00011545455 -0.021543333
0.0079850303 0.00127 -0.014904167
-0.014373054 -0.00127 -0.014475833
0.013947186 0.00034636364 -0.0052666664
-0.016715329 -0.00127 -0.01469
-0.011179042 0.00011545455 -0.020900832
0.0039392817 -0.00011545455 0.0018008334
0.006281557 0.0010390909 -0.0024824999
0.0058556888 -0.00127 -0.0014116666
-0.0060686227 0.00011545455 -0.021329166
-0.0064944914 -0.00011545455 -0.0127625
-0.0050039524 -0.00127 -0.014904167
0.0045780838 0.00011545455 -0.015546666
-0.0011711378 0.00011545455 -0.017688332
-0.0058556888 -0.00011545455 -0.015546666
-0.0037263473 -0.00034636364 -0.0037674999
-0.011179042 -0.00011545455 -0.0080508329
0.0090497006 -0.00057727273 -0.015546666
0.0039392817 0.00011545455 -0.011905833
-0.016502395 -0.00011545455 -0.010834999
-0.0090497006 0.00034636364 -0.018545
-0.0045780838 -0.00127 -0.00076916663
0.010966108 0.00034636364 -0.013405
-0.013734252 -0.00011545455 -0.0069800001
0.013734252 -0.00011545455 -0.01983
-0.007772096 -0.00034636364 -0.0022683332
-0.013734252 -0.00127 -0.0022683332
-0.0035134132 0.00011545455 8.7500048e-05
-0.00053233537 0.00080818182 -0.015546666
-0.013947186 -0.00011545455 0.0028716666
-0.010327306 -0.00127 -0.0153325
-0.0020228743 0.00127 -0.013833333
-0.011817845 0.00034636364 -0.0022683332
0.0037263473 0.00080818182 -0.0022683332
-0.013521317 0.00127 -0.0011974999
-0.016076528 0.00057727273 -0.015546666
0.016502395 -0.00127 -0.015118334
0.01565066 -0.0010390909 -0.013619167
0.0060686227 0.00011545455 -0.018330833
-0.001597006 -0.00011545455 -0.017045833
0.003087545 0.0010390909 -0.015546666
0.010327306 0.00057727273 -0.015546666
0.013947186 0.00034636364 -0.021329166
-0.012882515 -0.00011545455 -0.00012666661
-0.011391976 -0.00034636364 -0.016617499
0.0013840719 0.00034636364 -0.004838333
-0.010114372 0.00011545455 -0.015546666
-0.0011711378 0.00127 -0.0153325
-0.016289461 -0.00127 -0.00076916663
0.01416012 -0.00011545455 -0.0063374997
-0.016502395 0.00034636364 -0.012976666
0.01416012 -0.00011545455 -0.0084791668
-0.0075591616 -0.00057727273 -0.00034083327
-0.0069203596 -0.00127 -0.0014116666
0.013947186 -0.00034636364 -0.021114999
0.0039392817 -0.00011545455 -0.018973334
0.013947186 0.00034636364 -0.0071941665
-0.0022358084 0.0010390909 -0.0024824999
0.0090497006 -0.00034636364 -0.010834999
-0.011604911 0.00011545455 -0.019615833
0.010753174 0.00127 -0.00055499992
-0.017567066 -0.00057727273 -0.0153325
-0.015224791 -0.00034636364 -0.013405
0.00053233537 -0.00127 -0.00098333322
-0.011391976 -0.00034636364 -0.0086933328
0.0039392817 -0.00127 -0.014261667
0.0086238328 0.00011545455 -0.012334166
0.013521317 0.00127 -0.0018399999
-0.015011856 0.00127 -0.014904167
0.01416012 0.00011545455 -0.018330833
-0.015863594 0.00011545455 -0.0022683332
-0.015437725 0.00057727273 -0.013405
-0.0086238328 -0.00011545455 -0.0033391665
-0.0090497006 -0.00011545455 0.002015
-0.003087545 0.00057727273 -0.0022683332
-0.0011711378 -0.00034636364 -0.011263333
-0.0039392817 0.00127 -0.00034083327
-0.0071332934 0.00127 -0.00098333322
0.017141199 0.00011545455 -0.015546666
-0.00095820363 -0.00011545455 -0.01726
-0.0086238328 0.00011545455 -0.0033391665
0.010753174 0.00127 -0.014904167
0.0047910181 0.00127 -0.0020541665
-0.00095820363 -0.00011545455 -0.0067658331
-0.00095820363 -0.00011545455 -0.010834999
-0.0024487425 0.00127 -0.00076916663
-0.007772096 -0.00127 -0.0140475
-0.0060686227 0.00011545455 -0.0033391665
0.014373054 0.00127 -0.013405
-0.011179042 -0.00011545455 -0.0095499996
-0.01416012 0.00011545455 -0.020686666
-0.012669581 0.00127 -0.015118334
0.0058556888 0.00057727273 -0.0024824999
-0.012882515 0.00127 -0.00034083327
-0.0060686227 -0.00011545455 0.00051583338
-0.015437725 -0.00127 -0.0140475
-0.0090497006 -0.00011545455 -0.0095499996
-0.006281557 0.00034636364 -0.0037674999
-0.0090497006 0.00034636364 -0.0204725
0.011391976 0.00057727273 -0.015760833
0.013734252 -0.00011545455 -0.017688332
-0.011179042 -0.00011545455 -0.019401666
0.0088367667 0.00034636364 -0.004838333
-0.0086238328 0.00127 -0.0022683332
0.0088367667 0.00034636364 8.7500048e-05
0.012243713 -0.00057727273 -0.015546666
0.0039392817 -0.00127 -0.013833333
-0.0086238328 -0.00127 -0.00034083327
0.0060686227 -0.00011545455 -0.019187499
-0.008410898 0.00080818182 -0.00012666661
-0.0090497006 -0.00011545455 -0.016831666
-0.011817845 0.00127 -0.01469
-0.001597006 -0.00011545455 -0.019187499
-0.011391976 -0.00034636364 -0.0031249998
-0.0079850303 0.00034636364 -0.013405
-0.0081979642 0.00011545455 -0.013405
0.016502395 0.00127 -0.00098333322
-0.011604911 0.00034636364 -0.012976666
0.0067074252 -0.00127 -0.013619167
-0.012456647 0.0010390909 -0.00012666661
-0.013734252 0.00011545455 -0.019187499
-0.011817845 0.0010390909 -0.0022683332
0.001597006 -0.00057727273 -0.013619167
-0.00095820363 -0.00034636364 -0.015975
-0.016715329 0.00011545455 -0.0080508329
-0.0088367667 -0.00057727273 -0.0022683332
-0.0041522156 0.00127 -0.014261667
0.0086238328 -0.00011545455 -0.0059091663
0.0026616766 -0.00127 -0.0016258332
-0.0090497006 0.00034636364 -0.019615833
0.011604911 -0.00011545455 -0.018545
-0.0052168863 0.0010390909 -0.0022683332
-0.013734252 -0.00011545455 0.0022291667
-0.0052168863 0.00127 -0.0018399999
0.013947186 0.00127 -0.015546666
-0.015224791 0.00127 -0.013405
0.008410898 0.00127 -0.0016258332
0.0035134132 -0.00127 -0.0022683332
-0.011604911 -0.00011545455 -0.0046241665
-0.011179042 -0.00011545455 -0.017688332
0.00095820363 0.00034636364 -0.00012666661
-0.010753174 -0.0010390909 -0.015546666
0.0041522156 -0.00034636364 -0.0024824999
0.013947186 -0.00034636364 -0.010834999
0.0037263473 -0.0010390909 -0.015546666
-0.0011711378 -0.00034636364 -0.0063374997
-0.015011856 0.00011545455 -0.015546666
0.01778 0.00034636364 -0.014904167
-0.0094755692 0.00080818182 -0.013619167
-0.0073462278 0.0010390909 -0.013619167
-0.0075591616 -0.00080818182 -0.00012666661
-0.0075591616 -0.00080818182 -0.015546666
0.0090497006 0.00011545455 -0.0044100001
0.016502395 -0.00011545455 -0.0204725
0.0011711378 -0.00011545455 -0.0031249998
-0.007772096 0.00080818182 -0.0022683332
0.0011711378 0.00034636364 -0.0127625
0.0086238328 0.00011545455 -0.007408333
-0.015863594 0.00127 -0.0020541665
-0.0073462278 -0.0010390909 -0.013619167
-0.0064944914 0.00034636364 -0.0204725
0.0058556888 -0.00080818182 -0.015546666
-0.0060686227 -0.0010390909 -0.013619167
0.0020228743 -0.0010390909 -0.013405
0.015437725 0.00127 -0.00076916663
0.0064944914 -0.00127 -0.00012666661
-0.012456647 0.00127 -0.015118334
-0.0018099402 -0.00127 -0.013619167
0.0041522156 -0.0010390909 -0.013405
-0.001597006 0.00057727273 -0.00034083327
-0.003087545 0.00127 -0.0018399999
0.014373054 -0.00127 -0.014475833
0.01054024 0.00127 -0.00034083327
0.010327306 0.00127 -0.013833333
0.015437725 -0.00127 -0.015546666
0.0035134132 0.00011545455 -0.0065516667
-0.011604911 0.00127 -0.0011974999
0.016289461 0.00011545455 -0.012548333
-0.016289461 -0.00011545455 -0.016617499
-0.011179042 0.00011545455 -0.015760833
0.0050039524 0.00127 -0.0140475
-0.0067074252 -0.00057727273 -0.0022683332
0.012456647 -0.00011545455 -0.0022683332
-0.0039392817 -0.00034636364 -0.0039816666
-0.0060686227 -0.00011545455 -0.017688332
-0.013308384 -0.00057727273 -0.0022683332
0.0071332934 0.00127 -0.0153325
0.013521317 -0.00057727273 -0.0022683332
-0.0067074252 0.00080818182 -0.015546666
0.0092626354 0.00080818182 -0.015546666
-0.0064944914 0.00011545455 -0.0026966666
-0.0011711378 -0.00034636364 -0.020686666
0.011391976 -0.00034636364 -0.0086933328
-0.012882515 0.00057727273 -0.015546666
0.016502395 0.00011545455 -0.018116666
-0.013734252 -0.00011545455 -0.007408333
0.01565066 0.00080818182 -0.013405
-0.006281557 0.00127 -0.0140475
0.012030778 -0.00127 -0.013619167
0.010753174 0.00127 -0.0011974999
0.011391976 0.00127 -0.0011974999
0.017567066 -0.00080818182 -0.0016258332
0.013947186 -0.00034636364 -0.021329166
-0.0052168863 0.00057727273 -0.013833333
-0.01416012 -0.00011545455 -0.0026966666
-0.00031940121 0.00127 -0.00098333322
-0.0041522156 -0.00034636364 -0.0024824999
0.0011711378 -0.00127 -0.0020541665
0.0039392817 0.00127 -0.0020541665
-0.013947186 0.00034636364 8.7500048e-05
-0.01565066 0.00011545455 -0.00012666661
0.00095820363 0.00127 -0.014475833
-0.0039392817 -0.00011545455 -0.012976666
-0.0039392817 -0.00011545455 -0.01212
0.0071332934 0.00127 -0.0140475
-0.0064944914 0.00011545455 -0.011691666
-0.011817845 0.00011545455 -0.00012666661
-0.0011711378 -0.00080818182 -0.0022683332
-0.0050039524 -0.00080818182 -0.015546666
0.0086238328 0.00034636364 -0.015760833
-0.01054024 0.00011545455 -0.0022683332
-0.0064944914 -0.00080818182 -0.0022683332
0.0035134132 0.00011545455 -0.0099783335
-0.0035134132 -0.00034636364 -0.0099783335
0.013734252 -0.00034636364 -0.015760833
-0.016928263 0.00080818182 -0.015546666
0.01416012 -0.00011545455 -0.0099783335
-0.0013840719 0.00127 -0.0140475
0.0067074252 0.00127 -0.0011974999
-0.017567066 -0.0010390909 -0.014904167
0.003087545 -0.00080818182 -0.0022683332
-0.0088367667 0.0010390909 -0.00012666661
-0.010327306 0.00127 -0.0014116666
-0.012456647 0.00127 -0.00076916663
-0.00053233537 -0.00011545455 -0.0022683332
-0.016289461 -0.00011545455 -0.0050524999
0.0041522156 0.00057727273 -0.013405
-0.0011711378 0.00034636364 -0.0080508329
-0.009901437 -0.00127 -0.0020541665
0.0075591616 -0.00127 -0.0018399999
-0.012669581 0.00011545455 -0.015546666
0.013734252 0.00011545455 -0.0082649998
0.011604911 0.00011545455 -0.0082649998
0.016502395 -0.00011545455 -0.011049166
-0.0039392817 0.00011545455 -0.018330833
-0.0060686227 0.00011545455 -0.020258334
0.0024487425 0.00127 -0.0140475
-0.011391976 -0.00034636364 0.0013725
-0.01416012 -0.00011545455 -0.017045833
-0.00095820363 -0.00011545455 -0.018545
0.007772096 -0.00127 -0.00076916663
-0.0013840719 -0.00127 -0.00076916663
-0.0043651499 0.00127 -0.0014116666
-0.0050039524 -0.00011545455 -0.0022683332
0.006281557 -0.00057727273 -0.013405
0.013734252 -0.00011545455 -0.019615833
-0.011391976 0.00127 -0.00034083327
-0.0047910181 0.0010390909 -0.013405
-0.011604911 0.00011545455 -0.0037674999
-0.0024487425 0.00127 -0.00055499992
-0.012243713 -0.00127 -0.015546666
-0.01416012 0.00011545455 -0.0071941665
0.0050039524 -0.00057727273 -0.0022683332
0.0073462278 0.00127 -0.0020541665
0.0039392817 -0.00011545455 -0.0067658331
0.01054024 -0.00080818182 -0.015546666
0.0064944914 -0.00127 -0.00098333322
0.012882515 0.00011545455 -0.013405
0.016715329 0.00011545455 -0.0095499996
0.012669581 -0.00127 -0.015546666
-0.009901437 0.00034636364 -0.00012666661
0.0060686227 0.00011545455 -0.0097641665
-0.0064944914 -0.00034636364 0.00094416668
-0.016715329 0.00011545455 -0.0204725
0.0054298206 0.00080818182 -0.0022683332
-0.0086238328 0.00011545455 -0.0063374997
-0.0086238328 -0.00127 -0.0016258332
0.00095820363 0.00011545455 -0.016617499
0.013521317 0.00127 -0.0140475
0.0013840719 0.00034636364 -0.0084791668
-0.0064944914 0.00127 -0.00012666661
-0.0020228743 0.00011545455 -0.013405
0.012882515 0.00034636364 -0.00012666661
0.00031940121 0.00127 -0.00012666661
0.01416012 0.00127 -0.015546666
-0.014798922 0.00127 -0.01469
-0.01416012 0.00011545455 -0.0026966666
-0.014798922 0.00127 -0.00055499992
-0.0033004791 0.00034636364 -0.0022683332
0.0039392817 -0.00011545455 0.002015
0.016289461 0.00034636364 -0.013405
-0.0037263473 -0.00034636364 0.0024433334
0.016715329 0.00011545455 -0.0097641665
-0.013734252 0.00011545455 -0.0071941665
-0.011604911 -0.00011545455 -0.017902499
-0.015863594 -0.00127 -0.013619167
0.016715329 -0.00011545455 -0.0114775
0.011391976 0.00034636364 -0.011905833
0.011179042 -0.00011545455 -0.0059091663
-0.0011711378 0.00080818182 -0.015546666
0.015224791 -0.00127 -0.00055499992
0.013947186 -0.00034636364 -0.018973334
0.0060686227 -0.00011545455 -0.0076225
-0.0011711378 0.00034636364 -0.0093358336
0.008410898 -0.00127 -0.013833333
0.013734252 0.00127 -0.00098333322
-0.0090497006 -0.00011545455 8.7500048e-05
-0.00053233537 -0.00034636364 -0.015546666
0.0052168863 0.00080818182 -0.013833333
-0.011817845 -0.00034636364 -0.013405
-0.0039392817 -0.00034636364 -0.010192499
-0.0026616766 -0.00080818182 -0.013833333
0.0013840719 0.00034636364 -0.021114999
0.0088367667 0.00034636364 -0.0091216667
-0.006281557 -0.00127 -0.00012666661
-0.012882515 -0.00127 -0.0153325
0.0041522156 0.00127 -0.0014116666
0.0067074252 0.00057727273 -0.0022683332
-0.013947186 0.00127 -0.00098333322
-0.008410898 0.00057727273 -0.00034083327
-0.01778 -0.00034636364 -0.01469
0.0090497006 0.00011545455 -0.016831666
-0.013734252 0.00011545455 -0.0078366669
-0.0026616766 0.00127 -0.0016258332
-0.011179042 0.00011545455 -0.018545
-0.012456647 0.00080818182 -0.015546666
0.0054298206 -0.00127 -0.0020541665
0.011179042 0.00011545455 -0.0059091663
-0.0035134132 -0.00034636364 -0.0114775
-0.006281557 0.00011545455 0.00094416668
-0.0045780838 0.00057727273 -0.013833333
0.00010646707 0.00057727273 -0.015546666
0.009901437 -0.00057727273 -0.013619167
-0.0094755692 -0.00034636364 -0.0022683332
-0.016076528 0.00011545455 -0.0022683332
0.01309545 0.00127 -0.0020541665
-0.001597006 -0.00127 -0.014475833
0.0037263473 0.00034636364 -0.016189167
-0.016502395 -0.00127 -0.00076916663
0.017354133 -0.0010390909 -0.014261667
0.0090497006 0.00011545455 -0.0035533332
-0.0011711378 -0.00034636364 -0.021114999
-0.010966108 -0.00127 -0.015118334
-0.010114372 -0.00080818182 -0.0022683332
0.0041522156 0.00057727273 -0.013619167
-0.013734252 0.00011545455 -0.016831666
-0.014585989 0.00080818182 -0.00012666661
0.011391976 0.00034636364 -0.0037674999
-0.013947186 -0.00034636364 -0.011263333
0.0037263473 0.00034636364 0.0026575001
-0.0018099402 -0.00127 -0.015546666
-0.01416012 -0.00011545455 -0.0054808334
-0.016715329 0.00011545455 -0.016189167
-0.0026616766 0.00127 -0.00012666661
-0.0056427545 -0.0010390909 -0.013405
0.0039392817 -0.00034636364 -0.017688332
0.0058556888 0.00057727273 -0.013619167
-0.011179042 0.00011545455 -0.021543333
-0.0047910181 0.00127 -0.00076916663
-0.0064944914 0.00080818182 -0.013619167
0.01416012 0.00011545455 -0.017045833
-0.011179042 0.00011545455 -0.012548333
0.0045780838 0.00127 -0.0153325
-0.0075591616 -0.00080818182 -0.0022683332
0.001597006 0.00011545455 0.0022291667
-0.0088367667 -0.00034636364 0.0026575001
0.016289461 0.00011545455 -0.0031249998
-0.016715329 0.00011545455 0.00094416668
-0.010966108 0.00057727273 -0.013405
0.0075591616 -0.00127 -0.014475833
-0.0058556888 -0.00080818182 -0.013619167
-0.0054298206 -0.0010390909 -0.013833333
0.006281557 0.00127 -0.014904167
-0.0039392817 0.00127 -0.013619167
0.0094755692 0.0010390909 -0.0022683332
0.011391976 0.00034636364 -0.010192499
0.00010646707 0.00127 -0.00034083327
0.012243713 -0.00127 -0.00034083327
0.0039392817 0.00011545455 -0.0052666664
0.013947186 0.00011545455 -0.0080508329
0.003087545 0.00127 -0.014261667
-0.016715329 -0.00034636364 -0.015546666
0.007772096 0.00057727273 -0.013405
-0.01054024 -0.00127 -0.015118334
-0.0054298206 0.00127 -0.0016258332
-0.013734252 -0.00011545455 -0.0046241665
-0.0020228743 0.00127 -0.014261667
0.007772096 0.0010390909 -0.013619167
0.0092626354 -0.00127 -0.00098333322
0.00010646707 -0.00127 -0.015118334
0.01565066 0.00127 -0.00055499992
0.01416012 0.00127 -0.00012666661
-0.011391976 -0.00080818182 -0.00012666661
0.0058556888 0.0010390909 -0.0022683332
0.0020228743 -0.00127 -0.014261667
0.0090497006 0.00011545455 -0.018116666
0.011604911 0.00034636364 -0.0204725
-0.0011711378 -0.0010390909 -0.015546666
0.0060686227 0.00011545455 -0.0065516667
0.0047910181 0.00034636364 -0.015546666
0.00074526947 -0.00127 -0.0011974999
-0.00095820363 -0.00011545455 -0.017045833
0.001597006 -0.00011545455 -0.019401666
-0.011391976 0.00034636364 -0.0037674999
-0.003087545 -0.00034636364 -0.00012666661
-0.01565066 -0.00127 -0.0014116666
0.0011711378 0.00034636364 -0.016403332
0.0092626354 0.00127 -0.0014116666
-0.0060686227 -0.00011545455 -0.0029108333
-0.013521317 0.00080818182 -0.0022683332
0.014798922 0.00127 -0.0018399999
0.009901437 0.00057727273 -0.0022683332
-0.0011711378 -0.00034636364 0.0003016667
-0.010114372 0.00057727273 -0.013405
-0.01565066 -0.00057727273 -0.00034083327
-0.0039392817 -0.00011545455 -0.0095499996
-0.014373054 0.00080818182 -0.015546666
0.010114372 0.00034636364 -0.015546666
0.0060686227 -0.0010390909 -0.015546666
0.0064944914 0.00011545455 -0.010406666
-0.0056427545 -0.00127 -0.0022683332
-0.0086238328 -0.00011545455 -0.0114775
0.0039392817 0.00127 -0.0140475
0.013521317 -0.0010390909 -0.0022683332
0.0047910181 -0.00127 -0.0018399999
0.014373054 -0.00127 -0.00055499992
-0.0013840719 0.00011545455 -0.0054808334
-0.015863594 -0.0010390909 -0.0022683332
0.0037263473 -0.00034636364 -0.018116666
-0.0011711378 -0.00057727273 -0.013405
0.0043651499 -0.00127 -0.0020541665
-0.0090497006 -0.00011545455 -0.0035533332
-0.010966108 0.00127 -0.0014116666
-0.016502395 -0.00011545455 -0.010406666
-0.011604911 0.00011545455 0.0003016667
-0.016928263 -0.00127 -0.01469
-0.0035134132 -0.00011545455 -0.018973334
-0.015437725 0.00057727273 -0.0022683332
0.016289461 -0.00080818182 -0.00012666661
-0.011604911 -0.00011545455 -0.0071941665
0.0011711378 -0.00011545455 0.0018008334
0.001597006 0.00011545455 -0.018330833
0.00053233537 0.00080818182 -0.015546666
-0.011391976 -0.00034636364 0.0026575001
0.0096885031 -0.00127 -0.014475833
0.011391976 -0.00080818182 -0.013619167
-0.0088367667 0.00034636364 -0.01212
-0.013734252 0.0010390909 -0.013405
-0.012456647 -0.00127 -0.014475833
0.013521317 -0.00127 -0.014904167
0.011179042 0.00034636364 -0.00012666661
0.0011711378 -0.00034636364 -0.0099783335
-0.013308384 0.0010390909 -0.0022683332
0.014585989 0.0010390909 -0.0022683332
0.0058556888 0.00127 -0.0018399999
0.006281557 -0.00034636364 0.00094416668
0.016289461 -0.00011545455 -0.015760833
0.016715329 0.00011545455 -0.0044100001
-0.012456647 -0.00034636364 -0.00012666661
-0.0086238328 -0.00034636364 -0.0024824999
0.012882515 0.0010390909 -0.00012666661
0.0090497006 0.00011545455 -0.0046241665
-0.0060686227 -0.00057727273 -0.013619167
-0.0024487425 -0.00127 -0.01469
-0.0033004791 0.00127 -0.0022683332
0.0039392817 0.00011545455 -0.0095499996
0.009901437 -0.00127 -0.0016258332
0.00095820363 0.00011545455 -0.0033391665
-0.015011856 -0.00057727273 -0.00034083327
0.0073462278 -0.00127 -0.0016258332
0.0079850303 0.00127 -0.014475833
-0.00031940121 0.00127 -0.00034083327
0.0020228743 -0.00080818182 -0.0140475
0.0090497006 0.00011545455 -0.01726
0.0039392817 -0.00034636364 -0.011691666
0.010753174 -0.00127 -0.0018399999
-0.008410898 0.0010390909 -0.0022683332
0.0092626354 0.00127 -0.0011974999
-0.0045780838 -0.00011545455 -0.0022683332
0.012456647 -0.00127 -0.00034083327
0.0043651499 -0.00127 -0.014261667
0.0043651499 -0.00057727273 -0.00034083327
-0.0037263473 -0.0010390909 -0.015546666
-0.016076528 0.00127 -0.00034083327
0.003087545 0.00127 -0.013833333
0.013521317 0.00127 -0.015118334
-0.0035134132 -0.00011545455 0.0024433334
-0.0033004791 0.00080818182 -0.013833333
0.0060686227 0.00011545455 -0.010834999
0.0018099402 -0.00127 -0.015118334
-0.012882515 -0.00127 -0.00098333322
-0.0045780838 -0.00034636364 -0.00012666661
0.010966108 -0.00057727273 -0.013619167
0.0045780838 0.00057727273 -0.015546666
-0.0058556888 -0.00011545455 -0.013405
-0.0064944914 -0.00011545455 -0.0089074997
0.0060686227 -0.00011545455 0.0022291667
-0.0056427545 0.00011545455 -0.015546666
-0.0064944914 -0.00034636364 -0.021114999
0.017567066 0.00034636364 -0.013405
-0.01054024 0.00127 -0.00055499992
-0.0090497006 0.00011545455 -0.0039816666
-0.015437725 0.00080818182 -0.00012666661
0.01565066 0.00057727273 -0.015546666
-0.0018099402 0.00127 -0.00034083327
-0.0071332934 0.0010390909 -0.0022683332
0.011391976 0.00034636364 0.0022291667
-0.0035134132 -0.00011545455 -0.0061233332
0.0039392817 -0.00034636364 -0.0069800001
-0.011817845 0.00011545455 -0.015760833
-0.010114372 0.0010390909 -0.013405
0.0020228743 -0.00127 -0.00076916663
0.0043651499 0.00127 -0.01469
0.0075591616 0.0010390909 -0.015546666
-0.017567066 -0.00034636364 -0.013405
-0.0056427545 0.00127 -0.0020541665
-0.013734252 -0.00011545455 -0.016189167
0.016928263 0.00057727273 -0.00034083327
-0.012243713 0.00127 -0.015546666
-0.016928263 -0.00127 -0.0011974999
-0.006281557 0.00034636364 -0.0039816666
-0.0011711378 0.00034636364 -0.0054808334
0.01565066 -0.0010390909 -0.013833333
-0.013521317 -0.0010390909 -0.00012666661
0.0060686227 0.00127 -0.0016258332
0.013734252 0.00011545455 -0.019187499
0.0054298206 0.0010390909 -0.013833333
0.011604911 0.00034636364 -0.016403332
0.0041522156 -0.00127 -0.0020541665
0.0022358084 -0.00127 -0.0014116666
-0.0035134132 -0.00011545455 -0.0026966666
0.015437725 -0.00127 -0.00012666661
-0.010966108 0.00127 -0.0018399999
-0.017567066 -0.00080818182 -0.014904167
-0.012882515 0.00080818182 -0.013405
0.007772096 -0.00057727273 -0.00034083327
-0.014585989 -0.0010390909 -0.0022683332
0.0090497006 0.00011545455 -0.012548333
0.013734252 0.00011545455 -0.015975
0.0011711378 -0.00011545455 -0.017902499
0.008410898 0.00034636364 -0.0022683332
-0.0037263473 -0.00127 -0.015546666
-0.00031940121 0.0010390909 -0.0140475
0.016928263 0.0010390909 -0.0022683332
0.01416012 0.00011545455 -0.018116666
-0.0018099402 0.00127 -0.013619167
-0.00053233537 -0.00011545455 -0.00012666661
-0.006281557 -0.00034636364 -0.011049166
-0.0088367667 -0.00034636364 -0.0037674999
0.0058556888 -0.00080818182 -0.013833333
-0.011391976 0.00034636364 0.0022291667
0.00010646707 0.00080818182 -0.0140475
-0.013947186 -0.00034636364 -0.011691666
0.0081979642 0.00034636364 -0.013405
0.00010646707 -0.00127 -0.01469
0.0086238328 -0.00011545455 -0.016189167
-0.013947186 0.00011545455 0.0030858333
-0.0090497006 -0.00011545455 -0.01726
-0.013947186 -0.00034636364 -0.012334166
-0.010114372 0.00127 -0.00012666661
-0.0088367667 -0.00127 -0.00012666661
-0.0069203596 -0.00057727273 -0.00034083327
-0.0013840719 -0.00034636364 -0.0029108333
0.011817845 -0.00127 -0.013619167
-0.015863594 -0.00127 -0.013833333
0.011391976 -0.00034636364 -0.021329166
0.013734252 -0.00127 -0.00012666661
0.0060686227 -0.00011545455 -0.0026966666
-0.016289461 0.00011545455 0.0018008334
-0.01309545 -0.00057727273 -0.015546666
-0.01565066 -0.00057727273 -0.015546666
-0.0013840719 -0.00034636364 -0.0067658331
-0.0011711378 0.00034636364 0.00073000003
0.00010646707 -0.00127 -0.013619167
-0.016289461 -0.00011545455 -0.018116666
-0.0081979642 0.00127 -0.01469
0.0064944914 -0.00034636364 -0.013190833
-0.0039392817 -0.00034636364 -0.0097641665
0.013734252 -0.00011545455 -0.0029108333
0.0022358084 0.00127 -0.014904167
0.013734252 -0.00011545455 -0.0076225
-0.012669581 -0.00011545455 -0.0022683332
0.016715329 0.00011545455 -0.0080508329
-0.0088367667 -0.00127 -0.00055499992
0.011604911 0.00011545455 -0.0059091663
0.011391976 0.00034636364 -0.019615833
-0.017567066 0.0010390909 -0.014261667
0.0011711378 0.00034636364 -0.021329166
-0.011179042 -0.00011545455 -0.016617499
0.0060686227 0.00011545455 -0.020044167
-0.0090497006 0.00034636364 -0.021114999
0.016502395 0.00034636364 -0.0127625
0.010753174 -0.00127 -0.0016258332
-0.00031940121 0.00127 -0.014261667
0.0052168863 0.00080818182 -0.0022683332
-0.016715329 0.00127 -0.013619167
0.0086238328 -0.00011545455 -0.021329166
-0.016715329 0.00011545455 -0.018116666
-0.0060686227 0.00011545455 -0.0024824999
-0.017141199 -0.00127 -0.0153325
0.016715329 -0.00080818182 -0.015546666
0.0011711378 -0.00011545455 -0.018973334
0.010327306 0.00034636364 -0.013405
0.0037263473 -0.00080818182 -0.013833333
-0.014585989 -0.00127 -0.014475833
0.0058556888 -0.00127 -0.00076916663
-0.0039392817 0.00011545455 0.00051583338
0.0035134132 -0.00011545455 -0.016617499
-0.0094755692 0.00127 -0.014475833
0.016289461 0.00011545455 -0.016189167
-0.014585989 -0.00127 -0.015118334
0.0026616766 -0.00127 -0.00012666661
0.013734252 0.00127 -0.00076916663
0.016715329 -0.00011545455 -0.010834999
-0.0013840719 -0.00034636364 -0.018330833
-0.0033004791 -0.00057727273 -0.0024824999
0.0039392817 -0.00034636364 -0.0046241665
0.016289461 -0.00011545455 -0.020900832
-0.0020228743 -0.00011545455 -0.015546666
0.0086238328 -0.00011545455 -0.015975
-0.0090497006 0.00034636364 -0.011263333
-0.0081979642 0.00127 -0.0153325
-0.0039392817 0.00011545455 -0.019187499
-0.0088367667 -0.00034636364 -0.0033391665
-0.013947186 0.00057727273 -0.0153325
-0.0064944914 -0.00011545455 -0.004838333
0.0039392817 -0.00034636364 -0.0093358336
-0.0039392817 -0.0010390909 -0.00012666661
-0.0064944914 -0.00034636364 -0.0054808334
-0.013947186 -0.00127 -0.00076916663
-0.015863594 0.00127 -0.014904167
0.0064944914 -0.00080818182 -0.00012666661
-0.017567066 0.0010390909 -0.014475833
0.0060686227 -0.00011545455 -0.010620833
-0.0013840719 0.00011545455 -0.011691666
-0.0039392817 0.00034636364 -0.01983
0.008410898 0.00127 -0.0140475
-0.0039392817 0.00011545455 -0.01726
0.011604911 0.00011545455 -0.0084791668
-0.0096885031 0.00127 -0.0140475
-0.0064944914 0.00011545455 -0.0078366669
-0.011179042 0.00011545455 -0.0024824999
-0.0013840719 0.00034636364 -0.015975
0.0060686227 -0.00011545455 0.0013725
0.010114372 0.00127 -0.00076916663
0.017567066 0.00080818182 -0.014475833
-0.015011856 0.00057727273 -0.015546666
-0.016502395 0.00011545455 -0.0037674999
0.016076528 -0.00127 -0.00034083327
0.0033004791 -0.00034636364 -0.013405
-0.0058556888 0.00127 -0.0011974999
0.0035134132 -0.00057727273 -0.015546666
0.0020228743 -0.00127 -0.013833333
0.012243713 0.00057727273 -0.0022683332
-0.015011856 -0.00080818182 -0.00012666661
0.0071332934 0.00057727273 -0.0022683332
-0.006281557 -0.00034636364 -0.01983
-0.0060686227 -0.00011545455 -0.01726
-0.0090497006 -0.00011545455 -0.018759167
-0.0018099402 -0.00127 -0.00098333322
0.017567066 0.0010390909 -0.00098333322
0.0020228743 0.00080818182 -0.015546666
-0.0037263473 0.00034636364 -0.011905833
-0.011817845 -0.00127 -0.0022683332
0.013734252 0.00011545455 -0.011049166
-0.0075591616 -0.00127 -0.00076916663
-0.0013840719 0.00034636364 -0.0046241665
0.0043651499 -0.00034636364 -0.00012666661
0.0088367667 -0.00034636364 -0.018545
-0.00095820363 0.00127 -0.015118334
-0.0086238328 -0.00011545455 -0.0127625
-0.013734252 0.00011545455 -0.0059091663
0.016076528 0.00127 -0.0014116666
0.008410898 0.00127 -0.01469
0.0039392817 -0.00011545455 0.0028716666
0.0013840719 0.00127 -0.0011974999
-0.006281557 0.0010390909 -0.00012666661
-0.0013840719 -0.00057727273 -0.013190833
-0.0039392817 -0.00011545455 -0.0050524999
0.001597006 0.00011545455 -0.0056949998
0.0022358084 0.00127 -0.0153325
0.014798922 -0.00127 -0.014904167
0.0018099402 0.00127 -0.0018399999
-0.0026616766 0.00011545455 -0.00012666661
-0.00095820363 -0.00011545455 -0.0052666664
-0.0035134132 0.00011545455 -0.0033391665
-0.012882515 -0.00011545455 -0.013405
-0.0064944914 0.00034636364 0.00073000003
0.0067074252 -0.00127 -0.015546666
-0.0088367667 0.00034636364 -0.013190833
-0.0052168863 -0.00080818182 -0.013833333
0.0060686227 0.00011545455 -0.0071941665
0.0045780838 0.00080818182 -0.015546666
-0.00010646707 0.00080818182 -0.00034083327
0.0035134132 -0.00011545455 -0.01983
0.0060686227 -0.00127 -0.0018399999
-0.016289461 0.00057727273 -0.013405
-0.0037263473 0.00034636364 -0.0039816666
-0.011604911 0.00034636364 -0.0024824999
-0.0090497006 0.00034636364 -0.012976666
0.0037263473 0.00034636364 -0.010192499
-0.011604911 -0.00011545455 -0.0091216667
0.016928263 0.0010390909 -0.00012666661
-0.0041522156 0.00127 -0.013619167
-0.011179042 0.00011545455 -0.0086933328
-0.0050039524 0.00127 -0.00098333322
0.0090497006 -0.00011545455 -0.0026966666
-0.017354133 -0.0010390909 -0.00076916663
0.006281557 -0.00057727273 -0.0024824999
0.011391976 0.00034636364 -0.018759167
0.013521317 -0.00080818182 -0.00012666661
-0.0035134132 0.00011545455 -0.0044100001
0.013734252 0.00011545455 -0.013190833
0.009901437 -0.00127 -0.0014116666
-0.016715329 0.00011545455 -0.0059091663
-0.013947186 -0.00034636364 -0.012548333
0.0041522156 -0.00127 -0.00076916663
-0.01778 -0.00011545455 -0.0016258332
-0.009901437 -0.00034636364 -0.015546666
0.0090497006 -0.00011545455 0.0013725
0.015011856 0.00127 -0.015118334
0.013734252 -0.00127 -0.015546666
-0.016715329 0.00011545455 -0.0044100001
-0.0039392817 -0.00127 -0.0011974999
-0.0035134132 0.00034636364 -0.013190833
0.011391976 0.00127 -0.01469
0.001597006 -0.00011545455 -0.017474167
-0.013947186 -0.00011545455 -0.0114775
-0.013947186 -0.00011545455 -0.0052666664
0.0013840719 0.00034636364 -0.0037674999
-0.0086238328 0.00011545455 -0.0086933328
0.0054298206 -0.00080818182 -0.015546666
-0.013734252 0.00011545455 -0.0026966666
0.0013840719 0.00127 -0.013619167
-0.0037263473 -0.00127 -0.00055499992
0.006281557 -0.00034636364 -0.0031249998
-0.011179042 -0.00127 -0.0016258332
-0.011391976 0.00034636364 -0.0035533332
-0.0088367667 0.00034636364 -0.012976666
-0.015863594 -0.00011545455 -0.00012666661
-0.013947186 -0.00011545455 -0.004838333
0.0028746109 0.00080818182 -0.0140475
0.016502395 -0.00011545455 -0.0071941665
-0.006281557 0.00034636364 -0.0069800001
-0.016289461 0.00011545455 -0.016831666
-0.0081979642 0.00127 -0.014904167
-0.012243713 0.00127 -0.014261667
-0.00031940121 -0.00034636364 -0.0022683332
-0.010753174 0.00057727273 -0.013405
-0.0094755692 0.00127 -0.0022683332
0.001597006 -0.00011545455 -0.011263333
0.0094755692 0.00034636364 -0.015546666
-0.0037263473 0.00034636364 -0.0071941665
-0.013947186 0.00127 -0.013619167
-0.0086238328 0.00127 -0.013833333
0.013521317 0.00034636364 -0.015546666
-0.01054024 0.00127 -0.015118334
-0.0086238328 0.00011545455 -0.018545
-0.012243713 0.00127 -0.013833333
0.0054298206 -0.0010390909 -0.013619167
0.0020228743 0.00011545455 -0.013405
0.013734252 0.00011545455 -0.019401666
0.00053233537 0.00034636364 -0.015546666
0.01565066 -0.00011545455 -0.013405
0.0054298206 0.00034636364 -0.00012666661
-0.016502395 -0.00011545455 -0.021329166
-0.0039392817 -0.00127 -0.00055499992
-0.0045780838 0.00127 -0.0153325
0.0086238328 0.00127 -0.00055499992
-0.0054298206 0.00127 -0.0018399999
0.00074526947 -0.00127 -0.015546666
-0.0050039524 0.00011545455 -0.015546666
0.001597006 0.00011545455 -0.0204725
0.0018099402 0.00057727273 -0.013619167
-0.00010646707 -0.00011545455 -0.013190833
0.010753174 -0.00127 -0.00034083327
-0.016715329 -0.00127 -0.0140475
-0.0047910181 -0.00127 -0.015118334
-0.006281557 -0.00034636364 8.7500048e-05
-0.0086238328 0.00011545455 -0.017474167
-0.0075591616 0.00127 -0.0022683332
-0.01416012 0.00127 -0.0020541665
0.010753174 -0.00080818182 -0.015546666
0.011604911 -0.00011545455 -0.0031249998
-0.0064944914 0.00011545455 -0.020044167
0.00053233537 0.0010390909 -0.00012666661
0.010753174 -0.00127 -0.015546666
-0.0090497006 -0.00011545455 -0.010406666
-0.017354133 0.0010390909 -0.014261667
0.017567066 -0.0010390909 -0.00034083327
-0.0039392817 -0.00011545455 -0.0114775
-0.015437725 -0.00080818182 -0.015546666
-0.0060686227 -0.00011545455 -0.0033391665
0.0086238328 -0.00011545455 -0.011691666
-0.0039392817 0.00011545455 -0.015975
0.0039392817 -0.00034636364 -0.017045833
-0.010753174 0.0010390909 -0.0022683332
-0.0069203596 -0.00127 -0.014904167
-0.0037263473 0.00034636364 -0.0065516667
0.0039392817 0.00011545455 -0.012976666
0.014798922 -0.00127 -0.0153325
-0.0088367667 0.00127 -0.0153325
-0.016502395 0.0010390909 -0.015546666
-0.016502395 -0.00011545455 -0.0078366669
-0.01416012 0.00127 -0.0016258332
-0.0071332934 -0.00011545455 -0.013405
0.0013840719 -0.00127 -0.015118334
0.0039392817 0.00011545455 -0.0093358336
-0.014585989 0.00034636364 -0.00012666661
0.006281557 0.0010390909 -0.013619167
-0.0067074252 0.00127 -0.014904167
0.0022358084 0.00127 -0.0140475
-0.0086238328 -0.00011545455 -0.0024824999
0.016502395 -0.00011545455 0.00094416668
-0.0013840719 -0.00034636364 0.0022291667
0.0037263473 -0.00127 -0.015546666
0.011179042 -0.00011545455 0.0011583334
-0.011604911 -0.00011545455 -0.018116666
-0.0064944914 0.00034636364 -0.020044167
-0.0090497006 0.00011545455 -0.0044100001
0.016715329 -0.00011545455 0.0022291667
0.00053233537 0.00011545455 -0.013405
0.016715329 -0.00011545455 -0.0089074997
0.011391976 0.00034636364 -0.01726
0.011179042 0.00011545455 0.002015
-0.013947186 0.00034636364 -0.0065516667
0.0033004791 -0.00034636364 -0.0022683332
-0.00053233537 -0.0010390909 -0.00012666661
-0.0022358084 0.00057727273 -0.00034083327
0.0013840719 -0.00034636364 0.0013725
0.0064944914 0.00127 -0.01469
-0.011391976 -0.00034636364 0.0015866667
-0.001597006 0.00127 -0.015118334
0.012030778 0.00080818182 -0.015760833
-0.0058556888 0.00080818182 -0.0022683332
0.013947186 -0.00127 -0.0014116666
-0.013734252 -0.00011545455 -0.020686666
0.0013840719 -0.00011545455 -0.0093358336
-0.0039392817 0.00034636364 -0.0071941665
-0.01309545 0.00011545455 -0.013405
-0.0011711378 -0.00034636364 -0.016189167
0.017567066 0.0010390909 -0.013833333
-0.008410898 0.00127 -0.013833333
0.017354133 0.00034636364 -0.0022683332
-0.016928263 0.00127 -0.015118334
-0.016502395 0.00127 -0.014261667
-0.0090497006 0.00011545455 -0.011263333
-0.0060686227 -0.00011545455 -0.0114775
0.016502395 -0.00011545455 8.7500048e-05
-0.0058556888 0.00127 -0.01469
-0.00053233537 -0.0010390909 -0.0140475
0.0039392817 -0.00011545455 -0.020686666
0.006281557 -0.00127 -0.01469
-0.0035134132 0.00011545455 -0.011049166
-0.0011711378 -0.00034636364 -0.007408333
-0.0073462278 0.00127 -0.01469
0.013947186 -0.00034636364 -0.011905833
0.00095820363 0.00011545455 -0.0095499996
0.0035134132 0.00011545455 -0.01212
0.0011711378 -0.00011545455 -0.021329166
0.01309545 -0.00011545455 -0.0022683332
-0.0035134132 0.00011545455 -0.0054808334
0.014798922 -0.0010390909 -0.00012666661
0.0018099402 -0.00080818182 -0.0140475
-0.010753174 0.00034636364 -0.013405
0.0011711378 0.00127 -0.014475833
0.016502395 -0.00011545455 -0.018545
-0.0060686227 0.00011545455 0.0013725
0.014798922 0.00127 -0.00034083327
0.0060686227 0.00011545455 -0.0099783335
-0.016289461 -0.00011545455 -0.016189167
0.014585989 -0.00127 -0.015546666
0.011604911 0.00011545455 -0.01726
-0.001597006 0.00127 -0.0014116666
-0.0071332934 0.00127 -0.014904167
0.006281557 0.00034636364 -0.010834999
0.0090497006 0.00011545455 -0.0114775
-0.0071332934 -0.00080818182 -0.00012666661
0.017354133 0.00057727273 -0.013405
0.006281557 -0.00011545455 -0.0217575
-0.007772096 -0.00080818182 -0.0022683332
-0.016076528 0.00011545455 -0.015546666
0.008410898 -0.00011545455 -0.00012666661
-0.0064944914 0.00127 -0.00076916663
-0.014798922 0.00127 -0.0018399999
0.01416012 -0.00011545455 -0.011905833
-0.0039392817 -0.00034636364 -0.0050524999
-0.0018099402 -0.00127 -0.014475833
0.0011711378 -0.00034636364 -0.0089074997
-0.0064944914 0.00011545455 -0.004838333
-0.0058556888 0.00034636364 -0.0022683332
0.0011711378 0.00034636364 -0.01726
-0.010114372 -0.00080818182 -0.00012666661
-0.0069203596 0.00127 -0.0020541665
0.013734252 -0.0010390909 -0.00012666661
-0.013734252 0.00011545455 -0.017474167
-0.015011856 -0.00127 -0.0153325
0.011817845 0.00127 -0.0022683332
0.013947186 -0.00034636364 -0.016403332
-0.015011856 -0.00127 -0.00055499992
0.0035134132 -0.00011545455 -0.010834999
-0.016715329 -0.00011545455 -0.018973334
0.011604911 -0.00011545455 -0.004838333
-0.01416012 0.00011545455 -0.0089074997
-0.013734252 -0.00011545455 -0.0071941665
0.015437725 -0.00080818182 -0.013405
0.0064944914 -0.00080818182 -0.015546666
-0.0037263473 -0.00034636364 0.0003016667
0.0096885031 0.0010390909 -0.015546666
-0.0037263473 0.00034636364 -0.0052666664
0.0039392817 0.0010390909 -0.015546666
0.01778 0.00034636364 -0.0011974999
0.0092626354 0.00127 -0.014904167
0.011391976 0.00034636364 -0.0099783335
-0.0069203596 0.00127 -0.0011974999
0.016076528 0.00127 -0.0018399999
0.0086238328 0.00011545455 0.0024433334
-0.0088367667 0.00034636364 -0.0056949998
-0.00010646707 -0.00127 -0.00098333322
-0.011391976 -0.0010390909 -0.0022683332
0.010327306 0.00127 -0.00055499992
0.0064944914 0.00011545455 -0.018545
0.010114372 0.00034636364 -0.00012666661
-0.0013840719 0.00127 -0.015118334
0.0011711378 -0.00011545455 -0.0084791668
0.011391976 0.00034636364 -0.0035533332
0.006281557 0.00034636364 -0.0033391665
-0.0088367667 -0.00034636364 -0.018116666
0.010114372 -0.00011545455 -0.013405
-0.00053233537 0.00127 -0.0018399999
-0.016289461 0.00011545455 -0.0050524999
0.011604911 0.00034636364 -0.0127625
0.0039392817 -0.00011545455 -0.0041958331
-0.009901437 -0.00127 -0.0016258332
-0.017354133 -0.0010390909 -0.015546666
-0.0088367667 -0.00127 -0.014261667
0.001597006 -0.00011545455 -0.0033391665
0.0035134132 0.00011545455 -0.020900832
-0.0011711378 0.00034636364 -0.0071941665
-0.011604911 -0.00011545455 -0.013190833
-0.011604911 -0.00080818182 -0.015546666
-0.010327306 0.0010390909 -0.013405
0.0020228743 -0.00057727273 -0.00034083327
0.011179042 -0.00011545455 -0.0099783335
0.0037263473 -0.00034636364 -0.020900832
0.0028746109 0.00127 -0.0020541665
-0.0013840719 0.00034636364 -0.0061233332
0.0041522156 0.00127 -0.014261667
-0.0035134132 -0.00011545455 -0.0114775
0.011604911 0.00034636364 -0.0084791668
0.010114372 0.00127 -0.00012666661
0.016502395 0.00011545455 -0.010406666
0.0064944914 0.00127 -0.013833333
0.00095820363 0.00057727273 -0.00034083327
0.0013840719 -0.00034636364 -0.0078366669
0.012669581 -0.0010390909 -0.013619167
-0.010114372 0.00080818182 -0.015546666
-0.0037263473 -0.00034636364 -0.021114999
0.001597006 0.00011545455 -0.0039816666
0.0088367667 0.00034636364 -0.010192499
-0.013521317 -0.00034636364 -0.015546666
0.01054024 -0.00127 -0.015546666
-0.0011711378 0.00011545455 -0.0029108333
0.006281557 -0.00034636364 8.7500048e-05
-0.017567066 0.00080818182 -0.00076916663
-0.0058556888 -0.0010390909 -0.00012666661
-0.014798922 0.0010390909 -0.00012666661
-0.00074526947 -0.00080818182 -0.015546666
0.0041522156 -0.00057727273 -0.015546666
-0.010327306 0.00080818182 -0.00012666661
-0.0039392817 0.0010390909 -0.015546666
-0.0011711378 -0.00127 -0.013619167
0.0013840719 0.00034636364 0.0026575001
0.0090497006 0.0010390909 -0.0022683332
-0.0064944914 -0.00034636364 -0.0033391665
0.016715329 0.00127 -0.0014116666
0.0024487425 0.00127 -0.014261667
0.01565066 -0.00080818182 -0.0022683332
-0.0013840719 0.00127 -0.0016258332
0.0043651499 -0.0010390909 -0.013405
-0.011391976 0.00034636364 0.0011583334
0.0041522156 -0.00057727273 -0.013405
-0.016928263 0.00011545455 -0.013190833
0.00053233537 0.0010390909 -0.0140475
-0.0088367667 -0.00034636364 -0.017474167
0.0090497006 -0.00011545455 -0.018330833
0.0064944914 0.00011545455 -0.011691666
0.01416012 0.00011545455 -0.016617499
0.008410898 -0.00057727273 -0.015546666
-0.0064944914 -0.00127 -0.00055499992
0.0039392817 0.00034636364 -0.01726
0.016502395 -0.00011545455 -0.0093358336
0.0013840719 -0.00034636364 -0.020044167
0.001597006 -0.00127 -0.0014116666
-0.0018099402 0.00127 -0.0022683332
-0.0067074252 -0.00057727273 -0.015546666
-0.016502395 -0.00011545455 -0.016831666
0.0033004791 0.00127 -0.01469
-0.0013840719 0.00127 -0.0020541665
0.011179042 -0.00011545455 0.0018008334
0.013734252 -0.00011545455 -0.0054808334
0.01565066 0.00127 -0.01469
-0.015011856 0.00127 -0.0153325
-0.0013840719 -0.00057727273 -0.015760833
-0.017354133 -0.00057727273 -0.0022683332
0.010753174 -0.0010390909 -0.0022683332
-0.016715329 0.00011545455 0.00073000003
0.0081979642 -0.00127 -0.013833333
0.01416012 -0.00011545455 -0.0054808334
0.016076528 -0.00011545455 -0.00012666661
0.016289461 0.00011545455 0.00094416668
-0.017567066 0.00080818182 -0.013619167
-0.00053233537 -0.00127 -0.01469
-0.0026616766 -0.00034636364 -0.015546666
-0.011391976 -0.00034636364 -0.01212
-0.001597006 0.00080818182 -0.00034083327
0.012669581 0.00127 -0.0016258332
-0.01416012 -0.00011545455 0.00094416668
0.015863594 -0.00080818182 -0.013405
-0.008410898 -0.00057727273 -0.015546666
-0.0090497006 0.0010390909 -0.013619167
-0.010753174 -0.00127 -0.015118334
-0.0037263473 0.00011545455 -0.0041958331
0.011391976 -0.00034636364 -0.018545
-0.015863594 -0.00127 -0.0011974999
0.0088367667 0.00034636364 -0.0044100001
-0.017141199 -0.00127 -0.0022683332
0.0047910181 0.00127 -0.0140475
-0.0047910181 0.00080818182 -0.0022683332
-0.0090497006 -0.00127 -0.0022683332
0.0060686227 0.00011545455 -0.01983
0.009901437 -0.00011545455 -0.0022683332
0.0056427545 0.00127 -0.0020541665
-0.007772096 -0.00127 -0.00055499992
0.0026616766 0.00057727273 -0.013833333
0.0041522156 0.00011545455 -0.00012666661
-0.0075591616 0.00127 -0.015546666
0.0011711378 0.00011545455 0.0028716666
0.0035134132 -0.00011545455 -0.020044167
-0.008410898 -0.00034636364 -0.015546666
-0.0018099402 0.00034636364 -0.013405
-0.0081979642 0.00127 -0.0014116666
0.00074526947 -0.0010390909 -0.013405
0.0033004791 0.00127 -0.0014116666
0.0073462278 -0.0010390909 -0.015546666
0.0069203596 0.00127 -0.0153325
0.0090497006 -0.00034636364 -0.018545
0.011391976 -0.00127 -0.0016258332
-0.0079850303 -0.00127 -0.0020541665
0.00095820363 0.00011545455 -0.018759167
0.0081979642 -0.00127 -0.013619167
-0.01565066 0.00127 -0.00012666661
-0.016715329 -0.0010390909 -0.015546666
0.011817845 -0.00057727273 -0.0022683332
-0.009901437 -0.00057727273 -0.0022683332
-0.012243713 0.00127 -0.0140475
0.0039392817 0.00011545455 -0.0046241665
-0.0060686227 0.00011545455 -0.017902499
-0.017567066 0.00080818182 -0.01469
0.0035134132 -0.00011545455 -0.0089074997
0.0022358084 0.0010390909 -0.00012666661
-0.0064944914 0.00011545455 -0.017688332
0.017567066 -0.00057727273 -0.014475833
-0.0039392817 0.00034636364 -0.021543333
-0.006281557 0.00080818182 -0.015546666
0.0060686227 -0.00127 -0.0153325
0.01309545 0.00080818182 -0.0022683332
-0.0041522156 0.00127 -0.0140475
0.015437725 0.00127 -0.013619167
0.011179042 -0.00127 -0.0153325
-0.0020228743 -0.00127 -0.015118334
-0.0037263473 -0.00034636364 -0.016617499
0.0090497006 0.00011545455 -0.010834999
-0.014798922 0.00127 -0.014475833
0.00031940121 0.00057727273 -0.00034083327
-0.011391976 0.00034636364 8.7500048e-05
0.017567066 -0.00080818182 -0.0153325
0.016289461 -0.00011545455 -0.0071941665
0.0047910181 -0.00127 -0.01469
-0.0067074252 0.00127 -0.00076916663
-0.013521317 0.0010390909 -0.013405
0.0064944914 0.00011545455 0.0011583334
