# .PCD v0.7 - Point Cloud Data file format
VERSION 0.7
FIELDS x y z
SIZE 4 4 4
TYPE F F F
COUNT 1 1 1
WIDTH 1248
HEIGHT 1
VIEWPOINT 0 0 0 1 0 0 0
POINTS 1248
DATA ascii
0.0116586 -0.00127 -0.0021956521
0.022974299 -0.00018142856 -0.0028826084
0.021945599 0.00054428569 -0.00047826077
-0.012687299 -0.00018142856 0.00055217399
0.0099440999 0.00018142856 -0.024521738
-0.0048006 -0.00054428569 -0.020399999
-0.0072008995 0.00127 -0.020399999
-0.027774898 -0.00018142856 -0.027269565
0.0048006 0.00090714288 -0.021086955
-0.0048006 -0.00018142856 -0.0070043476
0.00034289999 -0.00018142856 -0.011813043
0.016802099 0.00090714288 -0.020399999
-0.0178308 0.00054428569 -0.00047826077
0.025374599 -0.00018142856 -0.010782609
0.023317199 0.00127 -0.0021956521
-0.028460698 -0.00054428569 -0.019369565
-0.010287 0.00018142856 -0.0056304345
-0.0027431999 0.00018142856 0.0012391305
0.0202311 -0.00018142856 -0.0049434779
-0.022974299 0.00018142856 -0.026926085
0.0305181 -0.00127 -0.020743478
0.0027431999 0.00018142856 -0.016621739
0.0078866994 0.00018142856 -0.0056304345
0.013030199 0.00054428569 -0.00047826077
0.00034289999 -0.00018142856 -0.014560869
-0.024688799 0.00127 -0.021086955
0.028117798 -0.00018142856 -0.018339129
-0.027089098 -0.00054428569 -0.0021956521
-0.021945599 0.00127 -0.021086955
0.015773399 0.00090714288 -0.0021956521
0.025374599 -0.00018142856 -0.023491304
-0.016802099 -0.00127 -0.0021956521
-0.0075437999 -0.00127 -0.021086955
0.0120015 0.00054428569 -0.021430435
0.015773399 -0.00127 -0.020056522
-0.027431998 -0.00127 -0.020743478
-0.0298323 -0.00127 -0.0011652173
0.020574 -0.00127 -0.021086955
-0.0068579996 -0.00127 -0.00013478252
-0.0082295993 0.00018142856 -0.019369565
-0.0010286999 0.00090714288 -0.00013478252
0.0198882 0.00054428569 -0.019369565
0.012687299 0.00018142856 -0.0049434779
0.022288499 -0.00127 -0.0015086955
0.0154305 0.00018142856 -0.0045999996
0.0113157 -0.00054428569 -0.019713042
0.0178308 -0.00018142856 -0.0052869562
0 -0.00018142856 -0.017652173
0.0024003 0.00018142856 -0.013530434
0.0020573998 0.00127 -0.00082173903
0.025374599 -0.00018142856 -0.010095652
0.020574 0.00018142856 -0.013530434
0.032232597 0.00054428569 -0.0021956521
-0.0178308 0.00090714288 -0.021430435
-0.0092583001 -0.00127 -0.020743478
0.0154305 -0.00018142856 0.00020869572
-0.0061721997 -0.00090714288 -0.00013478252
-0.0154305 0.00018142856 -0.0032260867
0.021945599 0.00127 -0.00082173903
0.0027431999 -0.00127 -0.0011652173
-0.031546798 0.00054428569 -0.00047826077
0.0106299 0.00127 -0.0015086955
0.0198882 0.00090714288 -0.020056522
-0.00068579998 0.00018142856 -0.019026086
-0.020574 -0.00018142856 0.00089565222
0.032918397 -0.00018142856 -0.021430435
0.0216027 0.00090714288 -0.020056522
0.0198882 -0.00127 -0.020056522
-0.0305181 -0.00090714288 -0.021430435
0.010287 -0.00018142856 -0.026582608
-0.0075437999 -0.00018142856 -0.011469564
-0.0212598 -0.00127 -0.0018521738
0.0099440999 0.00018142856 -0.024178261
0.0054863999 0.00090714288 -0.021430435
-0.0027431999 0.00018142856 -0.020743478
-0.0013716 -0.00127 -0.0015086955
-0.0024003 -0.00018142856 -0.013186956
-0.022631399 0.00018142856 -0.011126087
0.00034289999 -0.00018142856 -0.0052869562
0.0106299 -0.00054428569 -0.020399999
-0.032918397 0.00018142856 -0.011126087
0.0113157 0.00090714288 -0.0021956521
0.0054863999 0.00127 -0.0011652173
0.027774898 -0.00018142856 -0.026926085
0.027431998 -0.00127 -0.020743478
-0.0192024 -0.00018142856 -0.019369565
-0.0054863999 -0.00127 -0.00047826077
-0.0099440999 0.00018142856 -0.0059739128
0.028117798 0.00018142856 -0.015247826
-0.0044577001 -0.00127 -0.0021956521
-0.0099440999 0.00018142856 -0.015247826
0.025031699 -0.00090714288 -0.021086955
-0.022631399 -0.00127 -0.020399999
0.010287 -0.00018142856 -0.003569565
0.022631399 0.00018142856 -0.0063173911
-0.0051434999 0.00018142856 -0.027613042
0.024688799 -0.00018142856 -0.019369565
0.0154305 0.00090714288 -0.021430435
0.026060399 -0.00054428569 -0.021086955
0.0192024 -0.00127 -0.021086955
0.0202311 0.00018142856 -0.027613042
-0.025374599 0.00018142856 -0.019026086
-0.025374599 0.00018142856 -0.017995652
0.0075437999 0.00018142856 -0.0049434779
-0.0150876 0.00018142856 -0.014217391
-0.012687299 -0.00018142856 -0.0076913042
0.028460698 -0.00127 -0.00082173903
-0.0154305 0.00018142856 -0.018682608
-0.032918397 -0.00127 -0.020056522
-0.026403299 0.00090714288 -0.00013478252
0.020574 -0.00018142856 -0.014217391
-0.021945599 -0.00018142856 -0.021430435
-0.025374599 0.00018142856 -0.0080347825
-0.0202311 0.00018142856 -0.025895651
-0.0305181 0.00018142856 -0.014560869
-0.0078866994 -0.00018142856 -0.013530434
0.032232597 -0.00054428569 -0.00047826077
0.0024003 -0.00018142856 -0.011469564
0.0305181 0.00018142856 -0.013873912
-0.0024003 -0.00018142856 0.0029565217
0.026746199 -0.00127 -0.020056522
0.0030860999 0.00054428569 -0.019369565
-0.020574 0.00018142856 -0.016278259
0.0027431999 -0.00018142856 -0.022804348
0.0024003 0.00018142856 -0.024865218
0.0120015 -0.00018142856 -0.021430435
0.0027431999 -0.00018142856 -0.017995652
0 -0.00018142856 0.0026130434
0.032575499 -0.00090714288 -0.0021956521
0.0147447 -0.00018142856 -0.0021956521
-0.0030860999 -0.00127 -0.0018521738
-0.012687299 -0.00054428569 -0.019026086
0.0078866994 0.00018142856 -0.027269565
0.022631399 0.00018142856 -0.011469564
-0.028117798 -0.00018142856 -0.0039130431
-0.0202311 0.00127 -0.00013478252
-0.012687299 0.00018142856 -0.026239129
0.025717499 0.00018142856 -0.00013478252
-0.0024003 -0.00054428569 -0.020399999
0.020574 0.00018142856 -0.0025391304
0.012687299 0.00018142856 -0.014217391
-0.029146498 -0.00127 -0.00013478252
-0.027774898 0.00018142856 -0.0080347825
-0.0027431999 -0.00018142856 -0.016278259
-0.00034289999 0.00018142856 -0.024178261
-0.021945599 -0.00127 -0.020743478
0.0181737 0.00018142856 -0.019026086
0.0181737 0.00090714288 -0.020056522
-0.032918397 -0.00090714288 -0.019369565
-0.0150876 -0.00018142856 -0.011813043
0.027774898 -0.00018142856 -0.0066608693
-0.032575499 0.00018142856 -0.00013478252
0.0116586 0.00127 -0.0018521738
-0.022974299 -0.00127 -0.021086955
-0.025717499 -0.00054428569 -0.019369565
0.0150876 0.00018142856 -0.0080347825
0.0113157 -0.00054428569 -0.021430435
-0.023317199 -0.00127 -0.00082173903
-0.028117798 0.00018142856 -0.0076913042
-0.0092583001 0.00018142856 -0.019713042
0.0178308 -0.00054428569 -0.021430435
0.0065150997 -0.00054428569 -0.00047826077
-0.0150876 0.00018142856 0.00055217399
-0.029146498 0.00127 -0.020056522
0.021945599 -0.00127 -0.00013478252
-0.0096012 0.00018142856 -0.020056522
0.0154305 0.00018142856 0.0026130434
-0.0154305 0.00018142856 -0.0066608693
0.010287 0.00018142856 -0.016621739
-0.032918397 0.00018142856 -0.014217391
-0.0113157 0.00054428569 -0.021430435
0.0294894 0.00090714288 -0.021086955
0.0147447 -0.00127 -0.020399999
-0.0082295993 -0.00127 -0.00047826077
-0.024002999 -0.00127 -0.020743478
-0.0072008995 0.00127 -0.00013478252
0.024002999 -0.00127 -0.019713042
0.017487898 0.00018142856 -0.0021956521
0.0312039 0.00090714288 -0.019713042
0.032918397 0.00018142856 -0.023834782
-0.012687299 -0.00018142856 -0.013530434
-0.0034289998 -0.00090714288 -0.021086955
0.025374599 0.00018142856 -0.024521738
-0.023317199 0.00127 -0.021086955
-0.012687299 0.00018142856 -0.019713042
-0.027089098 0.00127 -0.019713042
0.025374599 0.00018142856 -0.023834782
0.0048006 -0.00018142856 -0.0087217391
0.0051434999 -0.00018142856 -0.0045999996
0.0024003 -0.00018142856 -0.023491304
0.033947099 0.00090714288 -0.0021956521
-0.013030199 -0.00127 -0.0018521738
-0.026060399 -0.00127 -0.00047826077
0.010287 -0.00018142856 -0.018682608
-0.0150876 0.00018142856 -0.0087217391
-0.0078866994 -0.00018142856 -0.0063173911
-0.016459199 -0.00090714288 -0.0021956521
-0.027089098 -0.00054428569 -0.00047826077
0.023317199 -0.00127 -0.0015086955
-0.028117798 0.00018142856 -0.012843478
0.0209169 -0.00127 -0.00013478252
-0.012687299 -0.00018142856 -0.0073478259
0.0051434999 0.00018142856 -0.012843478
-0.0216027 -0.00054428569 -0.0021956521
-0.0048006 -0.00018142856 -0.0083782608
0.029146498 -0.00018142856 -0.00013478252
-0.0034289998 -0.00054428569 -0.020743478
0.013715999 0.00090714288 -0.0021956521
-0.0178308 -0.00127 -0.00082173903
0.021945599 -0.00127 -0.0015086955
-0.0150876 0.00127 -0.0021956521
0.0051434999 -0.00018142856 -0.011813043
0.0120015 -0.00054428569 -0.0021956521
-0.0058292998 -0.00018142856 -0.0021956521
0.030861 -0.00127 -0.0021956521
-0.0041147997 0.00127 -0.020399999
-0.0216027 0.00018142856 -0.021430435
0.0051434999 -0.00018142856 0.00089565222
0.026746199 0.00127 -0.0011652173
0.0034289998 0.00054428569 -0.019369565
0.022631399 -0.00018142856 -0.016278259
0.022974299 0.00054428569 -0.019026086
-0.012687299 -0.00018142856 -0.013186956
-0.020574 -0.00054428569 -0.021430435
0.0099440999 -0.00018142856 -0.0070043476
0 0.00018142856 -0.015247826
-0.0150876 0.00018142856 -0.0028826084
-0.023660099 -0.00127 -0.021430435
0.0202311 0.00018142856 -0.0028826084
0.033947099 0.00054428569 -0.020743478
0.0027431999 0.00127 -0.021430435
0.0178308 0.00018142856 -0.011813043
-0.026746199 -0.00127 -0.0011652173
-0.0078866994 0.00018142856 -0.020399999
0.0078866994 -0.00018142856 -0.0052869562
-0.022974299 -0.00018142856 -0.023834782
0.025374599 0.00127 -0.0015086955
-0.0150876 0.00018142856 -0.013186956
-0.032575499 0.00054428569 -0.019713042
-0.0020573998 -0.00127 -0.021430435
0.032232597 0.00054428569 -0.020743478
0.021945599 -0.00127 -0.0018521738
-0.032575499 0.00127 -0.0021956521
-0.0298323 0.00090714288 -0.021086955
0.021945599 -0.00127 -0.020056522
-0.0150876 0.00127 -0.00013478252
-0.0198882 -0.00127 -0.00082173903
0.0178308 0.00054428569 -0.019369565
0.031889699 0.00127 -0.00047826077
0.0041147997 0.00054428569 -0.020743478
0.0041147997 -0.00127 -0.0015086955
0.022974299 -0.00127 -0.020743478
0.0202311 -0.00018142856 -0.026239129
-0.0072008995 -0.00054428569 -0.019713042
-0.022631399 -0.00127 -0.00013478252
-0.022974299 -0.00018142856 0.00020869572
-0.0030860999 0.00127 -0.00047826077
-0.013373099 -0.00090714288 -0.020399999
0.0051434999 -0.00018142856 -0.026239129
0.0027431999 0.00090714288 -0.00013478252
-0.020574 -0.00018142856 -0.0097521739
0.0054863999 -0.00127 -0.00047826077
0.0024003 -0.00018142856 -0.0087217391
-0.014058899 0.00127 -0.020743478
-0.0075437999 -0.00018142856 -0.00013478252
-0.0075437999 0.00018142856 -0.0049434779
0.0150876 0.00018142856 -0.0087217391
-0.024688799 -0.00127 -0.021430435
0.00068579998 0.00054428569 -0.021086955
-0.0068579996 0.00054428569 -0.021430435
0.020574 0.00018142856 -0.018339129
0.013715999 -0.00127 -0.00082173903
0 0.00018142856 -0.011813043
-0.0209169 -0.00018142856 -0.021430435
0.0075437999 0.00054428569 -0.00047826077
-0.026403299 -0.00127 -0.00047826077
-0.0150876 0.00018142856 -0.026926085
0.0154305 -0.00018142856 -0.025895651
-0.0150876 -0.00018142856 -0.0087217391
0.021945599 0.00127 -0.00047826077
-0.0048006 -0.00018142856 -0.024178261
-0.017144999 0.00127 -0.0021956521
0.031889699 -0.00127 -0.020056522
0.024688799 -0.00127 -0.020399999
-0.0188595 -0.00018142856 -0.021430435
0.012687299 -0.00018142856 0.0015826088
-0.022631399 0.00018142856 -0.017308695
-0.022631399 -0.00018142856 0.00055217399
-0.012687299 0.00018142856 -0.012499999
0.0027431999 0.00018142856 -0.01043913
-0.00068579998 -0.00090714288 -0.021430435
-0.010287 -0.00018142856 -0.016965216
-0.0082295993 0.00127 -0.021086955
0.027774898 0.00018142856 -0.003569565
0.0202311 0.00018142856 -0.0087217391
0.0178308 -0.00018142856 -0.013186956
-0.017487898 -0.00090714288 -0.020056522
0.024688799 0.00127 -0.00013478252
0.022288499 0.00054428569 -0.021430435
0.0048006 0.00018142856 -0.016278259
0.0099440999 0.00018142856 -0.011813043
0.032918397 0.00018142856 -0.017995652
-0.026403299 -0.00090714288 -0.019713042
0.022631399 0.00018142856 -0.017652173
-0.0312039 0.00090714288 -0.00013478252
-0.0301752 0.00090714288 -0.021430435
0.016802099 0.00127 -0.0021956521
0.0096012 -0.00127 -0.00047826077
-0.027774898 0.00018142856 -0.025895651
-0.0037719 -0.00018142856 -0.0021956521
0.0192024 0.00127 -0.021086955
-0.033261299 -0.00090714288 -0.021086955
0.0312039 -0.00127 -0.0021956521
0.027089098 -0.00018142856 -0.019369565
0.010287 0.00018142856 -0.024521738
0.030861 -0.00090714288 -0.019369565
-0.0048006 -0.00018142856 -0.012499999
-0.00034289999 0.00018142856 -0.00013478252
0.028803598 -0.00054428569 -0.019369565
-0.020574 0.00127 -0.00047826077
-0.010287 0.00018142856 -0.014560869
0.0020573998 -0.00054428569 -0.021086955
-0.015773399 -0.00054428569 -0.019369565
0.0301752 0.00090714288 -0.019713042
-0.022631399 -0.00018142856 -0.024865218
0.0195453 -0.00054428569 -0.00047826077
-0.0034289998 0.00127 -0.020399999
0.00034289999 0.00054428569 -0.021086955
0.020574 0.00018142856 0.00089565222
-0.0099440999 -0.00018142856 -0.025208695
0.0013716 0.00054428569 -0.019369565
0.0150876 -0.00054428569 -0.021430435
0.012687299 -0.00018142856 -0.027269565
0.0106299 -0.00090714288 -0.020743478
-0.0085724993 0.00090714288 -0.00013478252
-0.0054863999 0.00054428569 -0.019369565
-0.033947099 0.00090714288 -0.020056522
0.014401799 -0.00127 -0.0015086955
-0.020574 0.00018142856 -0.0025391304
0.027431998 -0.00127 -0.00047826077
0.023660099 -0.00127 -0.0011652173
-0.0202311 -0.00018142856 -0.026582608
0.028117798 0.00018142856 -0.012156521
-0.022631399 0.00018142856 -0.019026086
-0.033947099 0.00018142856 -0.00013478252
-0.020574 -0.00018142856 -0.015934782
0.0181737 0.00127 -0.021086955
0.0312039 -0.00127 -0.0018521738
0.032575499 0.00090714288 -0.021430435
-0.012687299 0.00018142856 -0.025895651
0.0202311 0.00018142856 -0.0080347825
-0.0195453 0.00090714288 -0.00013478252
-0.025374599 -0.00018142856 -0.023147825
0.0188595 -0.00090714288 -0.0021956521
0.012687299 0.00018142856 -0.0083782608
-0.022631399 0.00054428569 -0.021430435
0.030861 0.00127 -0.0011652173
-0.0305181 -0.00018142856 -0.016278259
-0.025374599 -0.00018142856 -0.016965216
-0.0154305 -0.00018142856 -0.022117391
-0.0051434999 -0.00054428569 -0.019713042
0.022974299 0.00018142856 -0.010095652
0.026060399 0.00127 -0.020399999
0.032918397 0.00018142856 -0.013186956
-0.012687299 0.00018142856 0.0015826088
-0.0154305 -0.00018142856 -0.0059739128
0.033947099 -0.00090714288 -0.0015086955
0.0075437999 -0.00018142856 -0.022804348
-0.027774898 0.00018142856 -0.023491304
0.022631399 -0.00018142856 -0.011469564
0.022631399 -0.00018142856 -0.013873912
-0.0024003 -0.00018142856 -0.015247826
0 -0.00018142856 -0.0070043476
-0.0185166 -0.00127 -0.00082173903
0.028117798 -0.00018142856 -0.010782609
0.0113157 -0.00127 -0.020399999
-0.0216027 -0.00054428569 -0.019369565
-0.023317199 -0.00090714288 -0.00013478252
0.0030860999 0.00054428569 -0.020743478
-0.022631399 -0.00018142856 -0.015247826
-0.0041147997 -0.00090714288 -0.021430435
-0.0027431999 0.00018142856 -0.011126087
-0.0041147997 0.00018142856 -0.020743478
-0.012344399 -0.00127 -0.00082173903
-0.013030199 -0.00127 -0.00082173903
-0.033947099 0.00018142856 -0.019369565
0.0209169 -0.00127 -0.020399999
-0.020574 -0.00127 -0.0015086955
-0.033947099 -0.00090714288 -0.020056522
-0.025374599 0.00018142856 -0.016965216
0.0113157 0.00127 -0.0018521738
0.0037719 -0.00127 -0.0021956521
0.0061721997 0.00018142856 -0.019369565
-0.017487898 -0.00054428569 -0.0021956521
0.0041147997 0.00054428569 -0.019713042
0.0178308 -0.00018142856 -0.010782609
0.0078866994 0.00018142856 -0.0063173911
-0.022974299 0.00018142856 -0.026582608
0.0154305 0.00018142856 -0.014217391
0.0078866994 0.00018142856 -0.025208695
-0.012687299 0.00018142856 -0.015934782
-0.0216027 -0.00127 -0.021086955
-0.0202311 -0.00018142856 0.00089565222
-0.0209169 0.00090714288 -0.0021956521
0.0294894 -0.00054428569 -0.0021956521
0.012687299 -0.00018142856 -0.011126087
0.022631399 -0.00127 -0.00013478252
-0.022631399 0.00018142856 -0.003569565
0.0305181 0.00018142856 -0.011813043
-0.032918397 -0.00018142856 -0.0042565214
0.028803598 -0.00127 -0.0011652173
0.015773399 0.00127 -0.0015086955
0.0024003 0.00054428569 -0.019026086
-0.032575499 0.00127 -0.0018521738
-0.0065150997 -0.00127 -0.021430435
-0.0212598 -0.00090714288 -0.00013478252
0.0024003 0.00054428569 -0.019713042
0.0305181 0.00018142856 -0.014904347
-0.0301752 0.00127 -0.00013478252
0.029146498 0.00127 -0.0021956521
-0.032918397 -0.00018142856 -0.018339129
0.0195453 -0.00127 -0.019713042
0.0051434999 0.00018142856 -0.014217391
-0.0075437999 -0.00127 -0.0011652173
0.022974299 0.00018142856 -0.015247826
-0.0150876 0.00018142856 -0.023147825
-0.0305181 -0.00018142856 -0.0052869562
0.0116586 0.00127 -0.0011652173
-0.017144999 -0.00054428569 -0.019713042
0.0178308 0.00018142856 -0.012843478
-0.029146498 -0.00018142856 -0.021430435
-0.027774898 0.00018142856 -0.0025391304
-0.0150876 0.00018142856 -0.022117391
0.0298323 -0.00054428569 -0.019369565
0.0178308 0.00018142856 -0.021773912
0.0188595 -0.00127 -0.00047826077
0.0178308 -0.00018142856 -0.023834782
-0.0092583001 0.00018142856 -0.0021956521
-0.0195453 0.00054428569 -0.019369565
-0.026403299 -0.00127 -0.0015086955
-0.010287 -0.00018142856 -0.012843478
-0.027431998 0.00127 -0.019369565
0.0154305 -0.00018142856 -0.0063173911
-0.022631399 -0.00127 -0.020056522
-0.017487898 0.00054428569 -0.00047826077
-0.012687299 -0.00090714288 -0.00013478252
0.0188595 0.00054428569 -0.00047826077
-0.027774898 -0.00018142856 -0.023834782
-0.032918397 0.00018142856 -0.021430435
-0.0061721997 0.00054428569 -0.00047826077
0.020574 0.00018142856 -0.003569565
0.010287 -0.00018142856 -0.0076913042
0.0075437999 0.00018142856 -0.021773912
-0.014058899 0.00018142856 -0.019713042
0.0048006 0.00127 -0.00047826077
0.031889699 0.00090714288 -0.021086955
0.012687299 -0.00018142856 -0.012156521
-0.0024003 -0.00018142856 -0.003569565
0.0027431999 0.00018142856 -0.018682608
-0.013373099 -0.00127 -0.020743478
0.012687299 0.00127 -0.020743478
-0.032232597 -0.00054428569 -0.0021956521
0.0198882 -0.00054428569 -0.019713042
0.0301752 -0.00018142856 -0.021430435
-0.0202311 0.00018142856 -0.011126087
0.0301752 -0.00090714288 -0.0021956521
0.0202311 0.00090714288 -0.021430435
-0.0048006 0.00090714288 -0.0021956521
0.0048006 -0.00127 -0.0011652173
0.0075437999 0.00018142856 -0.0066608693
-0.0061721997 0.00018142856 -0.021430435
0.029146498 0.00127 -0.00013478252
0.010287 -0.00127 -0.00047826077
-0.014058899 0.00127 -0.0018521738
-0.0202311 0.00018142856 -0.015247826
-0.024688799 -0.00054428569 -0.019369565
0.0013716 -0.00127 -0.00013478252
-0.0051434999 -0.00018142856 -0.016278259
0.029146498 0.00018142856 -0.00013478252
0.0178308 0.00018142856 -0.022117391
0.0212598 0.00090714288 -0.0021956521
-0.0027431999 -0.00018142856 -0.022804348
-0.0294894 0.00054428569 -0.021086955
-0.0044577001 0.00127 -0.00013478252
0.034289997 0.00054428569 -0.021086955
0.0209169 0.00018142856 -0.00013478252
-0.027774898 0.00018142856 -0.027269565
0.0312039 -0.00090714288 -0.00013478252
-0.022631399 0.00018142856 -0.0090652173
0.0178308 0.00018142856 -0.022460869
-0.0048006 -0.00018142856 -0.025552174
0.0202311 0.00054428569 -0.021430435
0.0202311 0.00127 -0.0015086955
-0.022974299 0.00018142856 -0.0042565214
-0.0068579996 0.00018142856 -0.0021956521
-0.0195453 -0.00090714288 -0.020056522
0.028117798 -0.00090714288 -0.019713042
-0.0013716 0.00018142856 -0.0021956521
-0.034289997 -0.00054428569 -0.0015086955
0.0027431999 0.00018142856 -0.016278259
-0.027431998 0.00127 -0.00013478252
0.0054863999 -0.00127 -0.0018521738
-0.0099440999 -0.00018142856 -0.0070043476
-0.0051434999 0.00018142856 -0.026926085
-0.025717499 0.00054428569 -0.021086955
0.0195453 -0.00054428569 -0.021430435
0.0099440999 -0.00018142856 -0.023491304
-0.023660099 -0.00090714288 -0.0021956521
0.022631399 0.00018142856 -0.003569565
0.0061721997 0.00127 -0.0021956521
-0.0154305 0.00127 -0.0018521738
0.0037719 0.00054428569 -0.019369565
0.0024003 0.00018142856 -0.0059739128
-0.0150876 0.00018142856 -0.015934782
0.0075437999 0.00018142856 0.00055217399
-0.024002999 -0.00127 -0.0015086955
0.032918397 0.00054428569 -0.00047826077
0.012687299 -0.00018142856 -0.0032260867
0.0072008995 -0.00054428569 -0.020743478
0.0301752 0.00090714288 -0.0021956521
0.013030199 -0.00018142856 -0.00013478252
-0.010287 0.00018142856 -0.0090652173
0.0099440999 -0.00018142856 -0.022804348
0.030861 0.00090714288 -0.021430435
0.0051434999 0.00018142856 -0.016278259
-0.020574 0.00018142856 0.00055217399
0.0150876 0.00018142856 -0.0090652173
0.0092583001 0.00127 -0.0015086955
0.032918397 -0.00018142856 -0.013530434
0.022631399 -0.00018142856 -0.015591304
-0.0150876 -0.00018142856 -0.010782609
0.0051434999 -0.00018142856 -0.0052869562
-0.0027431999 -0.00054428569 -0.0021956521
0.032918397 0.00018142856 -0.0032260867
-0.0154305 -0.00127 -0.021430435
-0.033261299 0.00018142856 0.00055217399
-0.0068579996 -0.00090714288 -0.0021956521
-0.0154305 0.00127 -0.020743478
-0.024345899 0.00127 -0.019713042
0.0150876 -0.00018142856 -0.0056304345
0.012687299 -0.00018142856 -0.0028826084
-0.033261299 -0.00127 -0.020743478
0.033947099 0.00054428569 -0.0021956521
0.025717499 -0.00090714288 -0.019713042
-0.032232597 -0.00054428569 -0.019369565
0.0120015 0.00127 -0.0015086955
0.024002999 0.00127 -0.0021956521
-0.0048006 -0.00090714288 -0.021086955
-0.024002999 -0.00018142856 -0.021430435
0.0024003 -0.00018142856 -0.013873912
0.0178308 -0.00018142856 -0.0042565214
0.0154305 0.00018142856 -0.0025391304
0.0195453 -0.00127 -0.0011652173
0.0178308 -0.00090714288 -0.0021956521
0.014401799 0.00090714288 -0.021086955
0.0305181 -0.00054428569 -0.00047826077
-0.0044577001 -0.00054428569 -0.0021956521
-0.0178308 0.00127 -0.00047826077
-0.012687299 0.00018142856 -0.020056522
0.022631399 -0.00018142856 -0.017652173
0.0024003 0.00018142856 -0.018682608
0.0185166 -0.00018142856 -0.00013478252
-0.028117798 -0.00018142856 -0.012499999
0 -0.00018142856 0.00020869572
0.024688799 -0.00127 -0.019713042
0.033947099 0.00018142856 -0.00082173903
-0.0301752 -0.00127 -0.0021956521
-0.017144999 0.00018142856 -0.021430435
-0.028803598 0.00127 -0.0018521738
0.022631399 -0.00018142856 -0.018339129
0.0075437999 0.00018142856 -0.022804348
0.028117798 -0.00018142856 -0.022804348
0.0027431999 0.00018142856 -0.011469564
0.0178308 0.00018142856 -0.0087217391
0.0065150997 0.00127 -0.021086955
0.0061721997 -0.00127 -0.021086955
0.0075437999 0.00127 -0.00013478252
0.0024003 -0.00018142856 -0.017995652
-0.028460698 -0.00090714288 -0.0021956521
-0.0150876 -0.00018142856 -0.0083782608
-0.010287 -0.00018142856 -0.014560869
-0.0068579996 -0.00018142856 -0.019369565
0.022631399 -0.00127 -0.019713042
0.0099440999 -0.00090714288 -0.0021956521
-0.0216027 -0.00090714288 -0.021430435
0.00034289999 -0.00018142856 -0.0045999996
-0.028117798 -0.00018142856 -0.012156521
0.025374599 -0.00127 -0.0015086955
-0.0017144999 -0.00127 -0.0021956521
-0.015773399 0.00018142856 -0.019369565
0.0089154001 -0.00054428569 -0.019369565
0.026060399 -0.00127 -0.020056522
-0.027774898 0.00018142856 -0.0045999996
-0.0082295993 -0.00018142856 -0.00013478252
0.012687299 -0.00018142856 -0.0073478259
-0.028117798 -0.00018142856 -0.0032260867
-0.0301752 -0.00090714288 -0.021430435
0.026060399 0.00090714288 -0.019713042
0.010287 -0.00018142856 -0.011469564
0.0178308 -0.00018142856 0.0022695651
-0.0078866994 0.00018142856 -0.018682608
-0.0202311 0.00018142856 0.001926087
-0.0147447 -0.00127 -0.00013478252
0.0202311 -0.00018142856 -0.015247826
-0.027089098 0.00127 -0.020399999
0.0154305 -0.00018142856 -0.022117391
0.00034289999 -0.00018142856 -0.017652173
0.022974299 -0.00127 -0.00082173903
-0.0305181 0.00018142856 -0.021773912
0.0312039 -0.00054428569 -0.00047826077
-0.0178308 0.00018142856 0.0012391305
0.0209169 -0.00018142856 -0.00013478252
0.033604197 0.00127 -0.0018521738
0.0044577001 -0.00127 -0.00013478252
0.022974299 0.00018142856 -0.003569565
-0.0178308 -0.00018142856 -0.0028826084
0.012687299 0.00018142856 -0.015591304
-0.022974299 -0.00018142856 -0.010095652
-0.0034289998 0.00018142856 -0.020056522
-0.0154305 0.00127 -0.021430435
0.0150876 0.00127 -0.0021956521
0.0198882 -0.00127 -0.00047826077
-0.028117798 -0.00018142856 -0.025895651
0.027774898 0.00127 -0.0021956521
-0.013030199 -0.00054428569 -0.00047826077
0.0034289998 -0.00127 -0.020743478
0.032918397 0.00018142856 -0.015591304
-0.00034289999 0.00018142856 -0.017308695
0.028117798 0.00127 -0.0015086955
-0.0202311 0.00018142856 -0.026926085
0.016459199 -0.00127 -0.0015086955
0.0198882 -0.00090714288 -0.0021956521
0.023660099 0.00018142856 -0.0021956521
0.028117798 0.00090714288 -0.0021956521
0.0030860999 0.00127 -0.0015086955
-0.022974299 0.00018142856 -0.013873912
-0.013715999 0.00127 -0.0018521738
0.016459199 0.00054428569 -0.020056522
0 -0.00018142856 -0.024865218
0.022974299 -0.00018142856 0.0012391305
-0.00034289999 0.00018142856 -0.012843478
0.022974299 0.00018142856 -0.016965216
-0.010287 -0.00054428569 -0.020056522
0.0185166 0.00018142856 -0.0021956521
-0.016802099 0.00127 -0.00047826077
0.0078866994 -0.00018142856 -0.0097521739
-0.0154305 -0.00018142856 -0.013186956
-0.0075437999 0.00127 -0.021430435
0.012687299 0.00018142856 -0.0066608693
-0.0178308 -0.00018142856 0.00089565222
0.0024003 -0.00018142856 0.00020869572
0.0092583001 0.00090714288 -0.0021956521
0.0106299 0.00018142856 -0.00013478252
0.0312039 0.00090714288 -0.020056522
0.0109728 0.00127 -0.0021956521
0.027774898 -0.00127 -0.019713042
-0.0305181 0.00018142856 -0.0083782608
0.0198882 -0.00090714288 -0.021086955
-0.0085724993 0.00127 -0.021430435
0.0150876 0.00054428569 -0.021430435
-0.0061721997 -0.00054428569 -0.020743478
-0.033261299 0.00018142856 -0.011126087
0.0150876 0.00018142856 -0.0076913042
0.022974299 0.00018142856 -0.021773912
-0.0178308 0.00018142856 -0.013873912
-0.032918397 -0.00018142856 -0.014560869
-0.0154305 -0.00018142856 -0.023834782
0.0181737 0.00127 -0.0018521738
-0.0048006 -0.00018142856 -0.013873912
-0.0027431999 -0.00018142856 -0.014560869
-0.032918397 0.00018142856 0.0012391305
-0.027089098 0.00054428569 -0.0021956521
-0.0027431999 -0.00018142856 -0.011813043
-0.022631399 -0.00127 -0.021086955
-0.0017144999 -0.00127 -0.00047826077
0.0092583001 0.00054428569 -0.00047826077
-0.0216027 -0.00127 -0.0015086955
0.017487898 -0.00018142856 -0.00013478252
-0.020574 0.00054428569 -0.021430435
0.0078866994 -0.00090714288 -0.021086955
0.0178308 0.00018142856 -0.025552174
0.0150876 -0.00018142856 -0.0032260867
0.033604197 0.00090714288 -0.019713042
-0.033261299 0.00018142856 -0.020743478
0.023660099 -0.00127 -0.0018521738
-0.033261299 -0.00054428569 -0.021086955
-0.0061721997 0.00018142856 -0.020056522
0.023317199 0.00018142856 -0.021430435
-0.0298323 0.00090714288 -0.020399999
-0.0017144999 0.00127 -0.021086955
-0.0099440999 0.00018142856 -0.025552174
0.0034289998 0.00127 -0.00082173903
0.0120015 0.00127 -0.00047826077
-0.0150876 0.00018142856 -0.015247826
-0.0037719 0.00127 -0.021086955
-0.0061721997 -0.00127 -0.0018521738
0.026746199 -0.00018142856 -0.0021956521
0.0099440999 0.00018142856 -0.0090652173
-0.0150876 -0.00018142856 -0.016965216
0.0212598 0.00127 -0.00082173903
-0.012344399 0.00127 -0.021430435
-0.025374599 0.00018142856 -0.0052869562
0.014401799 -0.00054428569 -0.021430435
0.0078866994 0.00018142856 -0.01043913
0.0150876 0.00127 -0.020399999
-0.022631399 0.00127 -0.0015086955
0.0301752 0.00090714288 -0.00013478252
0.0294894 -0.00127 -0.00047826077
0.022631399 -0.00018142856 0.0015826088
0.0078866994 0.00018142856 -0.012156521
0.0312039 0.00090714288 -0.020399999
-0.025374599 0.00018142856 -0.0059739128
0.0099440999 0.00018142856 -0.0063173911
-0.0017144999 0.00127 -0.00082173903
0.0054863999 0.00054428569 -0.019713042
-0.014401799 0.00054428569 -0.020399999
-0.0150876 0.00054428569 -0.020399999
-0.025031699 -0.00054428569 -0.021430435
-0.012687299 -0.00018142856 -0.017308695
-0.0078866994 -0.00018142856 0.0022695651
-0.0150876 -0.00018142856 -0.015591304
0.013715999 -0.00054428569 -0.020056522
-0.0305181 0.00018142856 -0.012499999
-0.0109728 0.00054428569 -0.021430435
-0.031889699 0.00054428569 -0.0021956521
0.022631399 -0.00018142856 -0.011126087
-0.0020573998 0.00054428569 -0.019713042
-0.0027431999 0.00018142856 -0.0042565214
0.0075437999 -0.00090714288 -0.0021956521
-0.0089154001 0.00054428569 -0.021430435
0.022974299 -0.00018142856 -0.010782609
-0.0113157 0.00127 -0.020743478
0.014401799 -0.00127 -0.0018521738
0.028460698 -0.00127 -0.0018521738
-0.0051434999 0.00018142856 -0.012156521
0.026060399 0.00018142856 -0.021430435
-0.00034289999 0.00018142856 -0.0066608693
0.0305181 0.00018142856 -0.022804348
-0.0305181 0.00018142856 -0.013873912
-0.0294894 -0.00127 -0.00013478252
-0.028803598 -0.00054428569 -0.021430435
0.0044577001 -0.00018142856 -0.019369565
-0.032918397 -0.00018142856 -0.0097521739
0.024002999 -0.00054428569 -0.00047826077
0.0092583001 -0.00054428569 -0.019369565
-0.025374599 0.00018142856 -0.00013478252
-0.0113157 0.00018142856 -0.0021956521
-0.0154305 -0.00018142856 -0.0083782608
-0.028117798 0.00018142856 -0.014217391
-0.00034289999 0.00018142856 -0.0083782608
0.027774898 0.00018142856 -0.017652173
0.0305181 0.00018142856 -0.027269565
-0.0305181 -0.00018142856 -0.016965216
0.027774898 -0.00127 -0.0015086955
-0.0085724993 0.00018142856 -0.00013478252
-0.029146498 0.00127 -0.0015086955
-0.0195453 -0.00054428569 -0.019369565
0.033947099 -0.00090714288 -0.00082173903
0.00034289999 -0.00018142856 -0.0059739128
-0.0178308 -0.00090714288 -0.021430435
-0.0075437999 0.00018142856 0.001926087
-0.0202311 -0.00127 -0.0011652173
-0.0051434999 -0.00018142856 0.0015826088
-0.033947099 0.00018142856 -0.0021956521
0.0298323 0.00127 -0.0018521738
-0.026746199 -0.00090714288 -0.019713042
-0.022631399 0.00018142856 -0.015247826
-0.0202311 0.00018142856 -0.0063173911
0.0298323 0.00090714288 -0.019369565
-0.013373099 -0.00090714288 -0.0021956521
-0.022974299 -0.00018142856 -0.0083782608
0.012687299 0.00018142856 -0.017995652
0.0202311 -0.00018142856 -0.024178261
-0.028117798 -0.00127 -0.0015086955
-0.0024003 -0.00018142856 -0.0028826084
0.0072008995 -0.00127 -0.020743478
-0.0024003 0.00018142856 -0.018682608
-0.0099440999 0.00018142856 -0.015591304
-0.032918397 -0.00018142856 -0.013873912
0.0178308 0.00018142856 -0.0090652173
0.0154305 -0.00018142856 -0.0070043476
-0.033947099 -0.00090714288 -0.00047826077
-0.010287 -0.00018142856 0.0026130434
-0.0082295993 0.00127 -0.0018521738
0.028117798 0.00018142856 -0.014904347
-0.0106299 -0.00018142856 -0.0021956521
-0.029146498 0.00127 -0.00013478252
-0.0178308 -0.00018142856 0.0012391305
-0.0202311 0.00018142856 -0.012499999
-0.0058292998 -0.00127 -0.021086955
-0.0051434999 0.00018142856 -0.013186956
0.033261299 0.00090714288 -0.00013478252
0.0051434999 -0.00018142856 -0.0059739128
-0.027774898 -0.00018142856 -0.017652173
-0.012344399 -0.00127 -0.00047826077
0.0037719 0.00127 -0.0021956521
0.026746199 0.00018142856 -0.019369565
-0.027089098 -0.00127 -0.020399999
0.033261299 0.00054428569 -0.021086955
0.031546798 0.00127 -0.020056522
0.025031699 -0.00127 -0.020743478
0.024002999 -0.00127 -0.020056522
0.0192024 -0.00018142856 -0.00013478252
-0.0048006 -0.00018142856 -0.013186956
-0.0099440999 -0.00018142856 -0.016621739
-0.0192024 -0.00127 -0.021430435
-0.0154305 0.00018142856 -0.023834782
-0.033604197 -0.00127 -0.020743478
-0.027774898 -0.00018142856 -0.016278259
-0.032918397 -0.00018142856 -0.013186956
-0.0198882 0.00054428569 -0.00047826077
0.0096012 0.00127 -0.00047826077
0.0027431999 -0.00018142856 -0.025208695
0.0096012 -0.00127 -0.00013478252
0.0120015 0.00090714288 -0.0021956521
0 0.00018142856 -0.016621739
-0.0106299 0.00127 -0.00047826077
-0.032918397 0.00018142856 -0.0045999996
-0.015773399 0.00054428569 -0.00047826077
-0.022974299 0.00018142856 -0.0039130431
-0.013030199 -0.00090714288 -0.0021956521
0.0075437999 -0.00018142856 -0.012843478
-0.0294894 -0.00127 -0.019713042
-0.0195453 -0.00090714288 -0.00013478252
0.0075437999 -0.00018142856 -0.0063173911
0.027774898 -0.00018142856 -0.003569565
-0.031546798 0.00018142856 -0.019369565
0.00034289999 -0.00018142856 -0.019026086
-0.028460698 -0.00018142856 -0.0021956521
-0.0188595 -0.00127 -0.020743478
-0.0305181 -0.00018142856 0.00089565222
-0.0010286999 -0.00127 -0.021086955
-0.0030860999 0.00018142856 -0.019369565
-0.022631399 0.00018142856 -0.0045999996
0.0099440999 0.00018142856 -0.0087217391
-0.0024003 -0.00054428569 -0.020056522
-0.0202311 0.00018142856 -0.021773912
0.031546798 -0.00090714288 -0.020743478
0.022631399 -0.00018142856 0.0012391305
-0.012344399 0.00127 -0.0011652173
0.0116586 -0.00090714288 -0.00013478252
0.014058899 0.00054428569 -0.021430435
-0.0188595 0.00127 -0.0021956521
-0.025374599 -0.00127 -0.0021956521
-0.017487898 0.00090714288 -0.021430435
-0.0058292998 0.00090714288 -0.0021956521
0.0195453 0.00090714288 -0.020056522
-0.022288499 -0.00127 -0.020743478
0.0027431999 -0.00018142856 -0.012156521
0.020574 0.00018142856 0.0022695651
-0.020574 0.00018142856 -0.0032260867
0.0010286999 -0.00127 -0.0018521738
0.0154305 -0.00018142856 -0.012156521
-0.020574 -0.00018142856 -0.0090652173
0.0181737 -0.00054428569 -0.020056522
-0.0301752 -0.00018142856 -0.0025391304
0.022974299 -0.00018142856 -0.027269565
0 0.00127 -0.00013478252
0.0034289998 0.00018142856 -0.0021956521
-0.0120015 0.00018142856 -0.019713042
0.025374599 0.00018142856 -0.0087217391
0.027089098 0.00127 -0.020743478
0.020574 -0.00018142856 -0.012843478
-0.0078866994 -0.00090714288 -0.0021956521
0.028117798 -0.00018142856 -0.014904347
-0.0078866994 0.00018142856 0.001926087
0.0024003 -0.00018142856 -0.016965216
0.024345899 -0.00127 -0.0011652173
-0.022974299 0.00018142856 -0.014217391
0.028117798 -0.00127 -0.019713042
-0.025374599 -0.00018142856 -0.0049434779
-0.0185166 -0.00127 -0.00013478252
0.022974299 -0.00127 -0.019369565
0.010287 -0.00127 -0.00013478252
0.022974299 0.00018142856 -0.0097521739
-0.0044577001 0.00127 -0.0015086955
-0.0154305 0.00018142856 -0.0039130431
0.00034289999 -0.00018142856 -0.016965216
0.030861 0.00090714288 -0.020056522
0.023317199 0.00090714288 -0.00013478252
0.032918397 -0.00018142856 -0.016278259
0.0027431999 -0.00018142856 -0.0039130431
0.0017144999 -0.00127 -0.0021956521
-0.015773399 0.00127 -0.020399999
0.0298323 -0.00090714288 -0.0021956521
-0.0068579996 -0.00127 -0.00082173903
0.0044577001 -0.00054428569 -0.019369565
0.0198882 -0.00054428569 -0.021086955
-0.0202311 -0.00018142856 -0.018682608
-0.0216027 0.00127 -0.0018521738
0.0024003 -0.00054428569 -0.0021956521
-0.025374599 -0.00018142856 -0.015934782
-0.017487898 -0.00127 -0.00047826077
-0.022631399 0.00018142856 -0.01043913
-0.0092583001 -0.00018142856 -0.019369565
0.00034289999 -0.00090714288 -0.0021956521
-0.027774898 0.00018142856 -0.0063173911
0.0209169 -0.00127 -0.020056522
-0.022631399 0.00018142856 -0.022117391
0.0027431999 -0.00018142856 -0.014904347
-0.0027431999 0.00018142856 -0.0087217391
-0.014401799 -0.00090714288 -0.021430435
0.028117798 0.00018142856 -0.018682608
0.0051434999 -0.00018142856 0.00020869572
0.0188595 -0.00054428569 -0.021086955
0.022631399 0.00018142856 0.00089565222
-0.015773399 0.00018142856 -0.021430435
-0.0178308 -0.00018142856 -0.011469564
-0.0198882 0.00018142856 -0.00013478252
0.024345899 0.00127 -0.021086955
0.0085724993 0.00127 -0.0011652173
0.027774898 -0.00018142856 -0.010782609
0.0065150997 0.00054428569 -0.00047826077
0.030861 0.00127 -0.0021956521
0.0120015 0.00090714288 -0.020743478
-0.033261299 0.00018142856 -0.010095652
-0.0178308 0.00127 -0.0021956521
0.0216027 0.00127 -0.00082173903
0.0150876 0.00018142856 -0.026926085
0.022631399 -0.00018142856 -0.026926085
0.0051434999 0.00090714288 -0.021086955
0.032918397 -0.00018142856 -0.0028826084
-0.0198882 0.00018142856 -0.0021956521
-0.016459199 -0.00054428569 -0.020056522
0.033261299 -0.00090714288 -0.0015086955
-0.0150876 0.00127 -0.00047826077
-0.0312039 -0.00127 -0.0015086955
-0.026060399 -0.00127 -0.0015086955
-0.0078866994 -0.00018142856 -0.016278259
0.017144999 -0.00127 -0.021086955
-0.0013716 -0.00127 -0.021086955
-0.024345899 0.00054428569 -0.00047826077
0.0178308 -0.00054428569 -0.019713042
0.016459199 0.00127 -0.00047826077
0.0027431999 0.00127 -0.0011652173
-0.010287 -0.00018142856 -0.017652173
-0.0195453 -0.00018142856 -0.0021956521
0.0041147997 -0.00054428569 -0.020743478
0.0099440999 0.00127 -0.021430435
0.0154305 -0.00054428569 -0.021430435
-0.030861 -0.00127 -0.020743478
0.0013716 0.00127 -0.021430435
-0.0099440999 -0.00018142856 -0.0073478259
0.0202311 -0.00018142856 -0.011813043
-0.022974299 -0.00018142856 -0.011813043
0.027774898 -0.00018142856 -0.016278259
-0.032232597 0.00127 -0.019713042
0.0048006 0.00018142856 -0.014217391
0.025717499 0.00127 -0.00082173903
0.014058899 -0.00090714288 -0.021430435
0.0020573998 0.00018142856 -0.00013478252
0.0198882 0.00018142856 -0.0021956521
-0.023660099 -0.00127 -0.019713042
-0.0024003 -0.00018142856 -0.0070043476
-0.0181737 -0.00127 -0.00047826077
-0.0051434999 -0.00018142856 0.00089565222
0.0075437999 0.00018142856 -0.003569565
-0.0051434999 -0.00018142856 -0.0097521739
0.0065150997 -0.00054428569 -0.020056522
-0.031546798 -0.00054428569 -0.021430435
0.022974299 -0.00018142856 -0.011813043
-0.0030860999 0.00054428569 -0.019713042
-0.024002999 -0.00090714288 -0.019713042
0.028117798 -0.00018142856 -0.025895651
-0.0178308 -0.00090714288 -0.020056522
0.026403299 0.00018142856 -0.00013478252
-0.033604197 -0.00127 -0.0015086955
0.022974299 0.00018142856 -0.013530434
0.024688799 0.00127 -0.0015086955
-0.031889699 0.00127 -0.00047826077
0 -0.00054428569 -0.020743478
0.0041147997 0.00018142856 -0.021430435
0.00034289999 -0.00127 -0.0011652173
0.0075437999 -0.00018142856 0.0012391305
0.0181737 0.00127 -0.00013478252
-0.025031699 0.00127 -0.020056522
0.0096012 -0.00090714288 -0.021430435
-0.0037719 -0.00018142856 -0.019369565
0.0024003 0.00018142856 -0.010782609
-0.0178308 -0.00018142856 -0.018339129
-0.0216027 -0.00054428569 -0.021430435
-0.025374599 -0.00127 -0.021086955
-0.010287 0.00018142856 -0.003569565
0.0017144999 -0.00054428569 -0.019369565
-0.0209169 -0.00127 -0.0018521738
-0.031546798 -0.00018142856 -0.00013478252
-0.010287 -0.00018142856 0.0012391305
-0.0061721997 0.00090714288 -0.00013478252
-0.0212598 -0.00018142856 -0.019369565
0.027774898 0.00127 -0.0015086955
0.027774898 0.00018142856 -0.018339129
0 0.00018142856 -0.023491304
0.0092583001 -0.00090714288 -0.021430435
-0.027774898 0.00018142856 0.00055217399
0.00068579998 -0.00054428569 -0.020056522
0.0099440999 -0.00018142856 -0.0056304345
-0.0305181 -0.00018142856 -0.016621739
-0.031546798 -0.00018142856 -0.019369565
-0.022974299 0.00127 -0.0018521738
-0.017144999 0.00090714288 -0.021086955
-0.0058292998 0.00127 -0.0021956521
-0.016116299 -0.00127 -0.0018521738
0.0312039 -0.00018142856 -0.00013478252
0.027089098 0.00018142856 -0.021430435
-0.0099440999 -0.00018142856 -0.027269565
-0.0185166 0.00127 -0.020743478
0.0041147997 0.00127 -0.021430435
-0.0150876 -0.00018142856 -0.017652173
-0.0051434999 0.00018142856 0.0022695651
0.027089098 -0.00054428569 -0.0021956521
0.022631399 0.00018142856 -0.0056304345
-0.0099440999 -0.00018142856 -0.014217391
-0.025031699 -0.00127 -0.021086955
0.029146498 -0.00127 -0.0015086955
-0.0072008995 0.00018142856 -0.019026086
-0.0051434999 0.00018142856 -0.023491304
0.0150876 0.00018142856 -0.014217391
-0.017144999 0.00127 -0.0015086955
-0.0051434999 -0.00054428569 -0.019026086
0.0147447 0.00090714288 -0.020399999
0.0150876 0.00018142856 -0.025895651
-0.029146498 0.00090714288 -0.021086955
0.0178308 -0.00127 -0.020056522
-0.020574 0.00018142856 -0.022117391
0.012687299 -0.00018142856 -0.023147825
0.0051434999 -0.00018142856 -0.017308695
-0.0024003 0.00018142856 -0.0049434779
0.025374599 0.00127 -0.00013478252
-0.025031699 0.00127 -0.020399999
-0.0150876 0.00127 -0.0011652173
0.014401799 0.00127 -0.0018521738
-0.028117798 0.00018142856 -0.023491304
0.0181737 -0.00018142856 -0.021430435
0.027774898 -0.00054428569 -0.0021956521
-0.020574 -0.00018142856 -0.0073478259
-0.0099440999 0.00127 -0.00082173903
0.014401799 -0.00090714288 -0.021430435
0.031889699 -0.00127 -0.021086955
0.0178308 0.00127 -0.0015086955
0.013715999 -0.00127 -0.0018521738
0.0305181 0.00018142856 -0.015591304
0.027089098 -0.00090714288 -0.00013478252
-0.0075437999 -0.00018142856 -0.027269565
-0.0048006 -0.00090714288 -0.0021956521
0.0113157 -0.00090714288 -0.0021956521
-0.0089154001 -0.00090714288 -0.00013478252
0.0058292998 0.00054428569 -0.020743478
0.032918397 0.00127 -0.00082173903
-0.0216027 0.00127 -0.0015086955
0.0058292998 0.00018142856 -0.021430435
-0.022631399 0.00018142856 -0.0039130431
0.00034289999 0.00127 -0.00082173903
0.0034289998 -0.00054428569 -0.020056522
0.010287 -0.00054428569 -0.019369565
0.0202311 0.00018142856 -0.0049434779
0.025374599 -0.00127 -0.020743478
-0.0305181 0.00018142856 -0.010782609
-0.028117798 -0.00054428569 -0.0021956521
-0.033261299 -0.00018142856 -0.022804348
-0.0010286999 0.00127 -0.020399999
0.025717499 -0.00018142856 -0.0021956521
-0.0120015 0.00090714288 -0.020743478
0.0051434999 0.00127 -0.00082173903
-0.014058899 0.00090714288 -0.0021956521
0.010287 -0.00054428569 -0.0021956521
0.0192024 -0.00127 -0.019713042
0.016802099 0.00127 -0.020399999
0.0010286999 0.00018142856 -0.020399999
-0.0078866994 -0.00018142856 -0.013873912
0 -0.00054428569 -0.019713042
0.0054863999 0.00018142856 -0.021430435
-0.0048006 0.00018142856 -0.0025391304
-0.0154305 0.00090714288 -0.00013478252
-0.022288499 -0.00054428569 -0.0021956521
-0.010287 -0.00018142856 -0.013873912
0.027774898 0.00018142856 0.00020869572
0.0202311 0.00018142856 -0.013873912
0.017144999 0.00054428569 -0.019713042
-0.0099440999 -0.00018142856 -0.026582608
-0.022631399 0.00018142856 -0.024865218
-0.028117798 -0.00018142856 -0.0090652173
0.032918397 0.00018142856 -0.026582608
0.022631399 0.00018142856 -0.0087217391
-0.0202311 -0.00018142856 -0.016965216
0.0010286999 0.00054428569 -0.019713042
-0.0048006 -0.00018142856 -0.01043913
0.0216027 0.00127 -0.00013478252
-0.0150876 0.00090714288 -0.021086955
0.0085724993 0.00054428569 -0.019713042
-0.022974299 0.00018142856 -0.015934782
0.0154305 -0.00018142856 -0.016278259
0.0202311 0.00018142856 -0.010095652
-0.020574 0.00018142856 -0.0059739128
-0.022631399 0.00018142856 -0.012156521
-0.025717499 -0.00127 -0.019369565
-0.027431998 -0.00090714288 -0.0021956521
-0.020574 0.00018142856 -0.017652173
0.028117798 -0.00018142856 -0.0032260867
0.0113157 0.00127 -0.021086955
-0.033261299 -0.00054428569 -0.019369565
0.0092583001 0.00127 -0.021430435
0.0178308 -0.00018142856 -0.024865218
0.0085724993 0.00054428569 -0.0021956521
-0.032575499 -0.00054428569 -0.00047826077
-0.0048006 -0.00018142856 -0.021773912
0.0209169 -0.00090714288 -0.020056522
0.020574 -0.00018142856 -0.022117391
-0.0195453 -0.00127 -0.0015086955
-0.0195453 -0.00127 -0.00013478252
-0.020574 -0.00018142856 -0.0070043476
0.0051434999 0.00018142856 0.00055217399
0.025717499 -0.00054428569 -0.019713042
-0.0099440999 -0.00018142856 -0.023834782
-0.0301752 0.00054428569 -0.020743478
-0.025374599 -0.00018142856 -0.022460869
0.0078866994 -0.00018142856 -0.0080347825
0.017487898 -0.00127 -0.020056522
-0.00034289999 -0.00127 -0.00047826077
-0.0099440999 0.00018142856 -0.018339129
0.0305181 -0.00018142856 -0.0042565214
-0.0051434999 0.00018142856 -0.015247826
0.025374599 0.00054428569 -0.00047826077
0.0092583001 0.00090714288 -0.020743478
0.0092583001 -0.00018142856 -0.021430435
-0.0305181 -0.00018142856 -0.021773912
-0.012344399 0.00127 -0.021086955
0.0178308 -0.00090714288 -0.00013478252
0.0096012 -0.00127 -0.021086955
0.0154305 0.00127 -0.0018521738
0.0078866994 0.00018142856 -0.018682608
-0.0147447 -0.00127 -0.021430435
0.025374599 -0.00018142856 -0.0073478259
-0.0178308 0.00018142856 -0.018682608
-0.024345899 0.00018142856 -0.00013478252
-0.031546798 0.00018142856 -0.021430435
0.025717499 0.00090714288 -0.00013478252
0.010287 0.00054428569 -0.019026086
0.0099440999 0.00018142856 0.0012391305
-0.0051434999 -0.00018142856 -0.014217391
-0.010287 -0.00018142856 -0.011813043
0.010287 0.00018142856 -0.011813043
0.024002999 -0.00127 -0.00047826077
-0.0048006 -0.00018142856 0.0026130434
-0.0198882 -0.00127 -0.0021956521
0.0192024 -0.00018142856 -0.0021956521
-0.0092583001 -0.00054428569 -0.019713042
0.015773399 -0.00054428569 -0.00047826077
0.029146498 -0.00054428569 -0.019369565
0.0202311 0.00018142856 0.0022695651
0.028460698 -0.00090714288 -0.00013478252
-0.0099440999 -0.00018142856 -0.0032260867
-0.0044577001 -0.00090714288 -0.00013478252
-0.00068579998 -0.00090714288 -0.0021956521
-0.00068579998 -0.00054428569 -0.0021956521
0.032918397 -0.00018142856 -0.010095652
-0.031546798 0.00090714288 -0.019713042
-0.0096012 -0.00018142856 -0.00013478252
0.0048006 0.00018142856 -0.025208695
0.013715999 0.00127 -0.021430435
-0.017487898 0.00127 -0.0015086955
-0.0037719 -0.00127 -0.00047826077
-0.026746199 -0.00127 -0.0015086955
-0.0099440999 -0.00018142856 -0.0090652173
0.0202311 0.00018142856 -0.024521738
-0.022631399 -0.00018142856 -0.024178261
-0.0061721997 0.00018142856 -0.020399999
-0.0096012 0.00127 -0.0011652173
0.025374599 -0.00127 -0.019369565
0.020574 0.00018142856 -0.0042565214
-0.0192024 0.00054428569 -0.019369565
-0.0051434999 -0.00018142856 0.00020869572
-0.010287 0.00054428569 -0.00047826077
-0.022974299 -0.00018142856 -0.018682608
0.023317199 -0.00127 -0.021086955
0.020574 -0.00018142856 -0.003569565
-0.0198882 0.00090714288 -0.00013478252
-0.0154305 0.00018142856 -0.0042565214
-0.0027431999 0.00018142856 -0.0039130431
-0.0178308 0.00018142856 -0.017995652
0.014401799 -0.00018142856 -0.0021956521
-0.013030199 -0.00054428569 -0.0021956521
0.0312039 -0.00127 -0.00082173903
0.0048006 0.00018142856 -0.0056304345
0.012687299 0.00018142856 -0.0087217391
-0.028460698 0.00090714288 -0.019369565
-0.0078866994 -0.00018142856 0.00089565222
0.031546798 -0.00090714288 -0.0021956521
0.0216027 -0.00127 -0.019713042
-0.0075437999 -0.00018142856 0.0026130434
-0.022288499 0.00127 -0.020743478
0.022288499 -0.00018142856 -0.00013478252
0.0024003 -0.00127 -0.020743478
0.012687299 -0.00018142856 -0.024178261
-0.022974299 -0.00018142856 -0.026239129
0.0072008995 -0.00127 -0.020399999
0.022288499 -0.00090714288 -0.021086955
0.0312039 -0.00090714288 -0.020743478
-0.021945599 0.00018142856 -0.00013478252
0.016802099 -0.00127 -0.019713042
0 -0.00090714288 -0.00013478252
-0.0027431999 -0.00018142856 -0.0066608693
0.0048006 0.00018142856 -0.012156521
-0.0078866994 -0.00054428569 -0.021430435
0.027774898 -0.00018142856 -0.0059739128
0.0301752 -0.00090714288 -0.019369565
0.028117798 -0.00018142856 -0.023491304
-0.013373099 0.00127 -0.00082173903
-0.016459199 0.00018142856 -0.019713042
0.0209169 -0.00127 -0.0018521738
-0.0212598 0.00018142856 -0.019369565
0.0048006 -0.00018142856 -0.01043913
0.0078866994 0.00018142856 -0.014560869
-0.0099440999 0.00127 -0.021430435
0.015773399 -0.00127 -0.00013478252
0.0051434999 0.00018142856 -0.0049434779
0.016802099 -0.00054428569 -0.021430435
0 0.00018142856 0.00089565222
0.0185166 0.00127 -0.0011652173
0.032918397 0.00018142856 -0.0049434779
0.013030199 -0.00090714288 -0.00013478252
-0.0013716 -0.00127 -0.00013478252
0.010287 0.00090714288 -0.020743478
0.028803598 0.00127 -0.0015086955
0 0.00018142856 -0.013873912
0.0178308 -0.00018142856 -0.0066608693
-0.0150876 -0.00018142856 -0.0076913042
0.0150876 -0.00018142856 -0.012843478
-0.017487898 -0.00127 -0.020743478
-0.0294894 -0.00054428569 -0.021430435
-0.0099440999 -0.00018142856 -0.024865218
-0.0099440999 0.00018142856 -0.024178261
-0.027089098 0.00127 -0.021086955
-0.022974299 -0.00018142856 -0.017995652
0.0051434999 -0.00127 -0.0021956521
0.033604197 0.00054428569 -0.020056522
-0.0044577001 -0.00090714288 -0.021086955
0.012687299 0.00018142856 -0.024521738
-0.013030199 -0.00018142856 -0.019369565
0.023317199 0.00127 -0.021086955
-0.025717499 -0.00127 -0.020056522
0.016116299 0.00018142856 -0.0021956521
-0.012344399 0.00054428569 -0.00047826077
0.032232597 0.00090714288 -0.021430435
-0.020574 -0.00018142856 -0.013873912
-0.0089154001 0.00090714288 -0.021430435
-0.0027431999 0.00018142856 -0.016965216
0.0075437999 0.00018142856 0.0026130434
0.0109728 -0.00018142856 -0.019369565
