# .PCD v0.7 - Point Cloud Data file format
VERSION 0.7
FIELDS x y z
SIZE 4 4 4
TYPE F F F
COUNT 1 1 1
WIDTH 1477
HEIGHT 1
VIEWPOINT 0 0 0 1 0 0 0
POINTS 1477
DATA ascii
0.0066674999 -0.00127 -0.0014633586
0.0088900002 -0.00127 -0.0024160305
0.015875001 0.00095249998 -0.0001931297
-0.0063499999 0.0003175 -0.031631298
0.01651 0.0003175 -0.013848091
-0.0053975 0.00095249998 -0.030996183
0.0015875 0 -0.032266412
0.0079375003 -0.00127 -0.029408397
0.01524 -0.00095249998 -0.0001931297
0.0127 -0.00127 -0.0020984733
0.021272499 -0.00127 -0.030361068
0.0063499999 -0.00127 -0.0008282442
-0.00095249998 0 -0.013530534
0.0063499999 -0.0003175 -0.019564122
0.0136525 0 -0.031631298
0.0079375003 0.00127 -0.0011458014
0.0041275001 0.00095249998 -0.0024160305
-0.017462499 0.00095249998 -0.0001931297
0.023177499 -0.00127 -0.0011458014
-0.02159 0 -0.019564122
0.01397 0.0003175 -0.0033687023
-0.005715 -0.000635 -0.029090839
-0.0038099999 0.00127 -0.030043511
-0.0038099999 0 -0.012260305
0.01143 0 -0.016070992
0.0142875 0.00127 -0.0024160305
-0.018415 -0.0003175 -0.029090839
-0.01905 -0.0003175 -0.01511832
0.01905 -0.0003175 0.00012442755
-0.0076199998 0.00095249998 -0.0020984733
-0.0088900002 0 0.0023473282
0.02032 0.00095249998 -0.029090839
0.01651 -0.00127 -0.0020984733
-0.013335 0.0003175 -0.0001931297
0.0038099999 -0.0003175 0.0004419848
-0.01905 0 0.00075954205
0.0069849999 0.00095249998 -0.0001931297
0.02413 0 -0.020199236
0.0117475 0 -0.029090839
-0.01143 0.0003175 -0.0059091602
-0.01651 -0.0003175 0.0004419848
0.0003175 0.000635 -0.03131374
0.0063499999 0.0003175 -0.019881679
0.01524 -0.000635 -0.00051068695
0.0136525 -0.000635 -0.0024160305
-0.021272499 0.0003175 -0.0024160305
-0.0038099999 0.0003175 0.002029771
-0.0047625001 -0.00127 -0.029725954
-0.0082550002 -0.000635 -0.029408397
0.0085725002 0 -0.013530534
0.0082550002 0.000635 -0.029090839
-0.00127 0 -0.031948853
0.01905 0.0003175 -0.037029769
0.016827499 0 -0.019881679
0.01397 0.0003175 -0.037029769
-0.016827499 0.00127 -0.0024160305
0.001905 -0.0003175 -0.029408397
0.0088900002 -0.0003175 -0.028455725
0.02159 0.00127 -0.0014633586
0.01397 0 -0.023057252
-0.00127 0.0003175 -0.02210458
0.00127 0.00127 -0.029090839
-0.017145 -0.00127 -0.03131374
-0.02413 0.0003175 -0.017341221
-0.0088900002 -0.0003175 0.00075954205
-0.0015875 0.00127 -0.030361068
0.02032 -0.00127 -0.0017809159
0.01397 0.0003175 -0.036712214
-0.0022225 -0.00127 -0.030996183
-0.01143 0 -0.0046389312
-0.00095249998 -0.000635 -0.00051068695
-0.021907499 -0.0003175 -0.031631298
0.025082499 0.0003175 -0.029408397
0.00127 0.0003175 -0.011942748
0.0038099999 -0.0003175 -0.02210458
0.02159 0 -0.0046389312
0.0063499999 0 -0.017658778
-0.0044450001 0.0003175 -0.030043511
0.0003175 0.00095249998 -0.030361068
0.01143 0 -0.023692366
0.0085725002 0 -0.02782061
-0.02413 0.0003175 -0.032583971
0.025082499 0 -0.0001931297
0.02413 0.0003175 -0.0036862595
-0.001905 -0.00127 -0.030361068
-0.020637499 0.00127 -0.030678626
0.020637499 0.00127 -0.029090839
0.01143 0.0003175 -0.0065442747
-0.00095249998 0 -0.017976336
0.01905 -0.0003175 -0.011942748
-0.02413 -0.0003175 -0.00940229
-0.0015875 0 -0.019246565
0.01651 0.0003175 -0.017658778
-0.01016 0.00127 -0.030361068
0.00508 -0.0003175 -0.0024160305
0.0034924999 0 -0.02210458
0.01143 -0.0003175 -0.02782061
-0.021907499 -0.00127 -0.0001931297
0.0088900002 -0.0003175 -0.024327481
0.01905 0 -0.011942748
-0.00254 0.00127 -0.029090839
-0.017145 0.00127 -0.030678626
-0.0053975 0.00127 -0.030996183
0.0015875 0 -0.015435877
0.01905 0.0003175 0.0004419848
0.00095249998 -0.00127 -0.0008282442
-0.0117475 0 -0.0024160305
0.0038099999 0 -0.022422137
-0.0111125 -0.00127 -0.030996183
-0.0034924999 0 -0.0027335878
0.018732499 -0.00095249998 -0.03131374
0.0053975 0.00127 -0.0001931297
-0.0047625001 0.0003175 -0.029725954
-0.01905 0.0003175 -0.0087671755
0.0063499999 0 -0.014483206
0.0063499999 0.0003175 -0.018293893
0.0038099999 0 -0.035124429
-0.0022225 0.00127 -0.0011458014
-0.01143 -0.00127 -0.029725954
-0.01905 0.0003175 0.0026648855
0.00127 -0.0003175 -0.033854198
0.00508 -0.00095249998 -0.029090839
-0.0082550002 0.0003175 -0.029725954
-0.0088900002 0 0.0004419848
0.010795 -0.0003175 -0.029408397
0.00254 0.00127 -0.0008282442
-0.0076199998 0.00095249998 -0.030996183
-0.02032 0.00127 -0.030678626
0.01397 0.0003175 -0.016388549
-0.0088900002 0.0003175 0.00012442755
0.01016 -0.00127 -0.00051068695
0.0088900002 0.000635 -0.029090839
0.019367499 0.00127 -0.0014633586
0.0015875 -0.00127 -0.0014633586
-0.005715 -0.00127 -0.03131374
0.0142875 0.00127 -0.029725954
-0.013335 0.00095249998 -0.03131374
-0.0095250001 0.00127 -0.030996183
0.0073024998 -0.00127 -0.029408397
0.01397 0 -0.034489311
-0.00127 0.0003175 -0.012260305
-0.0104775 0.0003175 -0.0020984733
0.010795 -0.0003175 -0.029725954
-0.01397 0 -0.02559771
-0.00095249998 0 -0.02559771
-0.0063499999 -0.0003175 -0.028455725
-0.02413 0 -0.024962595
-0.0063499999 0 0.0026648855
0.02413 0.0003175 -0.0001931297
-0.02159 0 0.00012442755
0.02286 0.00095249998 -0.030996183
-0.0088900002 -0.0003175 -0.012260305
0.020955 0.00127 -0.029408397
-0.01651 -0.0003175 -0.023057252
-0.018415 -0.00127 -0.0024160305
-0.0063499999 0.0003175 -0.012260305
0.025082499 0.00095249998 -0.029408397
0.00127 -0.0003175 -0.028773282
-0.01905 0.0003175 -0.01511832
-0.00127 0.0003175 -0.017976336
-0.00095249998 0 -0.023374809
0.0063499999 0 -0.017341221
-0.012065 0.0003175 -0.029408397
-0.02413 0.0003175 -0.033536639
-0.0095250001 0 -0.029090839
-0.0063499999 -0.00095249998 -0.029408397
-0.02159 0.0003175 0.0023473282
-0.01143 -0.0003175 -0.0071793892
-0.01397 0 -0.027503053
-0.00095249998 0.000635 -0.029090839
-0.0028575 -0.00127 -0.030996183
0.01651 -0.0003175 -0.012895419
0.01651 0 -0.017341221
-0.02413 0.0003175 -0.026867939
0.0092075001 0 -0.031631298
0.02159 0 -0.032266412
-0.01651 0.00127 -0.00051068695
-0.0088900002 -0.0003175 -0.023374809
-0.017145 -0.00127 -0.029090839
0.0123825 0.00095249998 -0.029408397
0.01397 0.00127 -0.00051068695
-0.0041275001 0.0003175 -0.03131374
-0.021272499 0 -0.028455725
0.0063499999 -0.0003175 -0.0087671755
0.01651 0 -0.004321374
-0.0136525 0.00095249998 -0.029408397
0.01397 0.0003175 -0.0062267175
0.01905 0 -0.035759542
0.01143 0.0003175 -0.025915267
-0.017145 0.00127 -0.029725954
0.0063499999 0 -0.020516794
0.0038099999 0 0.00075954205
0.0038099999 0.00127 -0.029408397
-0.0088900002 -0.0003175 -0.0090847323
0.0053975 -0.000635 -0.029408397
-0.0063499999 0.00127 -0.0001931297
0.01905 -0.0003175 -0.016070992
0.0130175 0 -0.0001931297
-0.0088900002 -0.00127 -0.0001931297
0.023495 -0.00095249998 -0.029408397
0.0079375003 0.000635 -0.03131374
0.0022225 0.0003175 -0.0024160305
-0.01397 -0.0003175 -0.027503053
0.0041275001 0.00127 -0.029090839
0.024765 -0.00095249998 -0.029725954
0.0015875 0 -0.018293893
0.0111125 0 -0.024645038
0.018097499 0.000635 -0.029090839
0.020002499 -0.00127 -0.0008282442
0.010795 -0.00127 -0.00051068695
0.02159 -0.0003175 -0.024962595
-0.0127 -0.00095249998 -0.03131374
-0.019685 -0.000635 -0.029090839
0.02159 -0.0003175 0.002029771
-0.01651 -0.0003175 -0.03480687
-0.010795 -0.00095249998 -0.03131374
0.0117475 0.00095249998 -0.0024160305
0.02159 0 0.002029771
-0.003175 0.000635 -0.03131374
0.001905 0.0003175 -0.029090839
-0.0038099999 0.0003175 -0.033219084
-0.0041275001 -0.00127 -0.0008282442
0.0038099999 0 -0.015435877
-0.0063499999 -0.0003175 -0.008132061
0.0015875 -0.00095249998 -0.0001931297
-0.01651 0 -0.016070992
-0.01397 0.0003175 -0.019246565
0.01397 0 -0.0065442747
0.01143 0 -0.021469465
-0.010795 0 -0.0024160305
0.00254 -0.00127 -0.030678626
0.0063499999 0.0003175 -0.0001931297
0.021272499 0 -0.016706107
0.0088900002 0.0003175 -0.019246565
0.017145 0.000635 -0.00051068695
0.00508 0 -0.0001931297
-0.01905 -0.0003175 -0.010990076
-0.0063499999 0.0003175 -0.0078145033
0.0038099999 -0.0003175 -0.0071793892
0.01905 0.0003175 -0.0036862595
0.022542499 -0.00127 -0.030361068
-0.018732499 -0.00127 -0.0008282442
0.02159 0 -0.034171756
0.0085725002 0 -0.037029769
-0.00254 0.00127 -0.029408397
-0.00508 0.00127 -0.030043511
0.015875001 0.00127 -0.030361068
-0.02413 0 -0.031948853
0.016827499 0 -0.020834351
0.0038099999 0.0003175 -0.017658778
0.0088900002 -0.0003175 -0.027185496
-0.00095249998 0 -0.0065442747
-0.0104775 -0.00127 -0.0011458014
-0.020637499 0.00127 -0.0020984733
0.020002499 -0.0003175 -0.0020984733
0.013335 0.00127 -0.029725954
-0.00127 0.0003175 -0.0033687023
0.0063499999 0.0003175 -0.021151908
0.0028575 -0.00095249998 -0.029090839
-0.01397 0 -0.01162519
-0.022542499 0.00127 -0.0017809159
-0.017145 0.00127 -0.0017809159
-0.01651 0 -0.014165648
-0.0038099999 0.0003175 -0.023057252
0.0063499999 -0.0003175 -0.03480687
-0.0136525 0.00095249998 -0.0001931297
-0.0111125 0 -0.033219084
0.0127 -0.000635 -0.0024160305
-0.0076199998 0.0003175 -0.029408397
0.018732499 -0.00095249998 -0.0020984733
-0.01905 -0.00127 -0.030996183
-0.0076199998 0 -0.03131374
-0.02413 0.0003175 -0.0071793892
0.02159 -0.0003175 -0.028138168
-0.01905 -0.0003175 -0.00940229
-0.0130175 0 -0.029090839
0.01143 0.0003175 -0.010990076
0.0073024998 0.00127 -0.0020984733
0.0149225 0.000635 -0.0024160305
0.022225 0.00127 -0.0001931297
-0.019685 0.0003175 -0.0024160305
-0.00127 0.0003175 -0.035124429
-0.0088900002 -0.0003175 -0.0074969465
-0.0038099999 0.000635 -0.03131374
-0.02413 0.0003175 -0.010672519
-0.0034924999 0 -0.023692366
-0.005715 0.0003175 -0.029090839
-0.0047625001 0.00127 -0.0024160305
-0.01905 0 -0.013212977
0.02159 0 -0.0062267175
0.0038099999 0.0003175 -0.012577862
0.0117475 -0.0003175 -0.0001931297
0.0088900002 0 -0.033536639
0.01143 -0.0003175 -0.0062267175
0.0142875 -0.0003175 -0.029408397
-0.01397 0.0003175 -0.028773282
-0.02159 0 -0.022422137
0.0038099999 -0.0003175 -0.012260305
0.01524 0.00127 -0.03131374
-0.01905 0.0003175 -0.0027335878
-0.021907499 0 -0.032901525
-0.01397 0.00127 -0.0017809159
-0.0111125 0 -0.016070992
-0.02159 0.0003175 -0.003051145
0.0088900002 -0.0003175 0.0013946565
-3.469447e-18 0.00095249998 -0.0001931297
-0.00127 0.0003175 -0.02782061
0.017145 -0.00127 -0.030361068
-0.0047625001 0.00127 -0.029090839
-0.02413 0.00127 -0.0014633586
-0.02413 -0.0003175 -0.0040038167
0.02413 -0.0003175 -0.031948853
0.022542499 0.00127 -0.0014633586
0.0136525 -0.0003175 -0.029408397
0.018732499 0 -0.031948853
0.00095249998 0 -0.01511832
0.017145 -0.00127 -0.029725954
-0.0123825 0.00127 -0.030361068
0.0095250001 -0.0003175 -0.029408397
-0.0044450001 0.0003175 -0.0001931297
0.0076199998 -0.00095249998 -0.030996183
-0.0015875 -0.00127 -0.029090839
-0.01651 0.0003175 -0.036712214
-0.0095250001 0.00127 -0.0017809159
-0.0038099999 0 -0.0036862595
-0.02413 0 -0.0033687023
0.01143 -0.0003175 -0.017023664
-0.0038099999 0.00127 -0.030361068
0.01397 0 -0.037029769
0.023177499 0.00127 -0.030361068
0.021907499 0.00127 -0.0020984733
-0.00127 0.0003175 -0.004321374
0.01397 -0.0003175 -0.024327481
0.024447499 0.0003175 -0.030996183
0.01397 -0.0003175 -0.012895419
0.021272499 0 -0.005591603
-0.0076199998 0.00095249998 -0.030043511
0.010795 0.00095249998 -0.029408397
-0.0015875 0 -0.024327481
0.019367499 0.0003175 -0.03131374
-0.02159 0 -0.0097198468
-0.022225 -0.00127 -0.0017809159
-0.017145 -0.00127 -0.0017809159
0.0161925 0 -0.018293893
0.0066674999 0 -0.011942748
-0.01524 0.00127 -0.030043511
-0.012065 -0.000635 -0.029090839
0.0088900002 -0.0003175 -0.02559771
0.0047625001 -0.00095249998 -0.0001931297
-0.0060325 -0.0003175 -0.03131374
-0.001905 -0.00127 -0.0001931297
-0.0034924999 0 -0.0036862595
-0.0063499999 -0.0003175 -0.0027335878
0.00095249998 0 -0.033536639
0.01143 -0.0003175 -0.0049564885
0.0022225 -0.00127 -0.0001931297
0.0130175 -0.00095249998 -0.0001931297
0.0085725002 0 -0.021787023
0.0127 -0.000635 -0.03131374
-0.0142875 0 -0.028773282
0.021272499 0 -0.0065442747
-0.01651 0 -0.017976336
-0.0038099999 0 -0.037029769
-0.0047625001 -0.00095249998 -0.029408397
-0.0098425001 0.0003175 -0.029090839
0.0123825 0.00127 -0.0008282442
-0.0082550002 0.00127 -0.0008282442
0.00095249998 0 -0.0040038167
-0.0104775 0.00127 -0.029408397
-0.0015875 0 -0.010672519
-0.0073024998 0.000635 -0.029090839
-0.00127 -0.000635 -0.03131374
-0.01651 0.0003175 -0.012260305
-0.025082499 0.0003175 -0.0008282442
0.01397 -0.0003175 -0.005591603
-0.014605 0.000635 -0.00051068695
0.00508 -0.00127 -0.030678626
0.01143 0 -0.031948853
0.02286 0.00127 -0.0020984733
0.0063499999 -0.0003175 -0.032583971
0.0044450001 -0.00095249998 -0.0020984733
0.01905 -0.0003175 -0.033536639
-0.003175 0.000635 -0.029725954
0.0066674999 0 -0.005591603
0.0022225 0.00095249998 -0.0001931297
-0.0034924999 0 -0.024327481
-0.02159 -0.0003175 -0.03480687
-0.01397 0 -0.021787023
-0.01397 0 -0.00940229
0.001905 -0.00095249998 -0.0024160305
0.01905 0.0003175 -0.011942748
0.02159 0.0003175 -0.026550381
0.0038099999 0.00127 -0.0008282442
-0.0117475 -0.00127 -0.00051068695
-0.013335 -0.00127 -0.0017809159
-0.021272499 -0.00095249998 -0.03131374
0.01397 0 -0.010354961
0.0130175 -0.00127 -0.030361068
0.02413 -0.0003175 -0.0071793892
0.02032 -0.0003175 -0.0020984733
0.000635 0.00095249998 -0.0001931297
0.02413 -0.00127 -0.0017809159
-0.02159 0.0003175 -0.021787023
0.01397 -0.0003175 -0.020834351
-0.0063499999 0.0003175 -0.010354961
-0.025082499 -0.0003175 -0.029725954
-0.017145 -0.00095249998 -0.0024160305
0.02413 0 -0.032901525
-0.0066674999 -0.00127 -0.030361068
-0.01651 -0.0003175 -0.005591603
-0.019685 0.00127 -0.030996183
-0.01651 0.0003175 -0.017023664
-0.0111125 0 -0.018929007
-0.003175 0.00127 -0.03131374
-0.024765 0.00127 -0.0011458014
0.024447499 0.00095249998 -0.029725954
-0.0088900002 0 -0.0059091602
-0.01651 0.0003175 -0.005591603
-0.0038099999 -0.0003175 -0.012577862
-0.0066674999 0 0.0017122137
0.02413 0 -0.032266412
0.018415 0 -0.0020984733
0.003175 0 -0.029090839
0.0085725002 0 -0.00940229
-0.00127 -0.0003175 0.0026648855
0.02159 0.0003175 -0.00940229
0.0066674999 0 -0.02782061
-0.00095249998 -0.0003175 -0.013848091
0.020637499 0.00127 -0.029725954
-0.024765 -0.0003175 -0.0001931297
0.023812499 -0.000635 -0.030996183
-0.0117475 0.000635 -0.00051068695
-0.00127 0.0003175 -0.030043511
-0.0038099999 -0.0003175 -0.010990076
0.0069849999 0 -0.029090839
-0.01143 -0.0003175 -0.018293893
-0.0088900002 -0.0003175 -0.0097198468
0.0003175 0.0003175 -0.0001931297
-0.017145 0.00095249998 -0.0001931297
0.01397 -0.0003175 -0.0033687023
0.021907499 0 -0.028773282
-0.018732499 -0.0003175 -0.029090839
0.024765 0 -0.0020984733
0.01905 -0.0003175 -0.021469465
-0.003175 0.00127 -0.030361068
0.01905 -0.0003175 -0.0033687023
-0.01016 -0.00127 -0.030678626
0.0095250001 -0.000635 -0.03131374
-0.025082499 -0.00095249998 -0.0020984733
-0.01143 0.0003175 -0.014483206
0.0088900002 -0.0003175 -0.010990076
-0.0155575 0.0003175 -0.03131374
0.00127 0.00095249998 -0.029725954
0.01905 0.0003175 -0.013530534
0.0155575 0.00127 -0.0017809159
-0.0069849999 -0.00127 -0.0020984733
-0.018415 -0.00127 -0.0020984733
-0.02159 -0.0003175 -0.017023664
0.01143 -0.0003175 -0.021151908
-0.014605 0.0003175 -0.029408397
0.0047625001 -0.00095249998 -0.03131374
-0.02413 0 -0.017341221
0.0038099999 0.0003175 -0.004321374
0.0063499999 -0.0003175 -0.02210458
-0.01651 0 -0.03480687
0.01397 0.0003175 -0.0078145033
0.02159 -0.00127 -0.030361068
-0.015875001 0 -0.0024160305
-0.014605 0.00127 -0.0024160305
-0.01143 0 -0.0059091602
0.017145 0.00127 -0.030996183
0.0136525 0.00127 -0.0011458014
0.016827499 0 -0.012260305
-0.02286 -0.00127 -0.0011458014
-0.02159 -0.00127 -0.0001931297
0.0123825 -0.00127 -0.029725954
-0.0117475 -0.0003175 -0.03131374
0.0015875 0 -0.00940229
0.023495 0.00127 -0.029725954
0.01651 -0.0003175 -0.015753435
0.02159 0 -0.013530534
0.0149225 0 -0.03131374
-0.00508 -0.00127 -0.030361068
-0.00508 0 -0.0020984733
-0.0082550002 -0.000635 -0.03131374
0.0044450001 0.0003175 -0.029090839
0.0088900002 0 -0.02782061
-0.005715 0.0003175 -0.030043511
-0.01651 -0.0003175 -0.027185496
0.021272499 0 -0.033536639
-0.01651 -0.00127 -0.030361068
-0.0127 0 -0.0024160305
-0.0063499999 0 0.0013946565
-0.01651 0.0003175 -0.0097198468
-0.016827499 -0.000635 -0.0024160305
0.018732499 0.00127 -0.0014633586
-0.0003175 0.00127 -0.030996183
0.012065 0 -0.029090839
0.00127 0.0003175 -0.010354961
0.01905 0.00127 -0.030043511
-0.0044450001 0.000635 -0.029090839
-0.01778 0.00127 -0.030678626
-0.0088900002 0.0003175 0.0004419848
0.0015875 0 -0.0078145033
-0.01524 -0.00127 -0.030043511
0.014605 0.00095249998 -0.029090839
0.0038099999 -0.0003175 -0.029090839
-0.0088900002 -0.0003175 -0.016706107
-0.0038099999 -0.00127 -0.0001931297
-0.0028575 0.00127 -0.0024160305
0.0111125 -0.000635 -0.030043511
-0.02159 0.0003175 -0.0049564885
0.02413 0.0003175 -0.0084496178
-0.0142875 -0.0003175 -0.03131374
-0.01651 -0.0003175 -0.014483206
-0.0038099999 0 -0.019246565
-0.001905 -0.000635 -0.030361068
-0.0069849999 -0.0003175 -0.0020984733
0.02413 0 -0.017023664
-0.02032 0.0003175 -0.0024160305
0.024447499 0 -0.0001931297
0.017145 0 -0.0001931297
0.0155575 -0.0003175 -0.029090839
-0.00127 -0.00095249998 -0.03131374
-0.019685 0.00127 -0.030361068
0.02159 0.0003175 -0.014165648
-0.016827499 0.0003175 -0.0001931297
0.0038099999 0.0003175 -0.012260305
0.0063499999 0 -0.032266412
-0.01778 0.00127 -0.030996183
0.0088900002 0.0003175 -0.0036862595
0.0088900002 -0.0003175 0.0026648855
-0.0060325 0.00095249998 -0.03131374
0.020637499 0.000635 -0.03131374
-0.0053975 -0.00095249998 -0.03131374
-0.0060325 -0.00127 -0.0014633586
-0.01143 0 -0.016070992
-0.0063499999 -0.0003175 -0.021469465
0.02413 0.0003175 -0.02782061
0.00254 0.0003175 -0.029090839
0.01651 0.00127 -0.0014633586
0.0130175 0.00127 -0.0008282442
0.0161925 0 -0.02782061
-0.01905 0.0003175 -0.0062267175
-0.0155575 -0.00127 -0.029090839
0.01905 -0.000635 -0.0020984733
0.0003175 -0.00127 -0.00051068695
-3.469447e-18 0.00127 -0.0024160305
-0.02413 0.0003175 -0.036077097
0.0155575 -0.00127 -0.030996183
-0.0098425001 0.0003175 -0.030043511
0.020955 0.0003175 -0.0020984733
0.0076199998 -0.000635 -0.0020984733
-0.019367499 0.00127 -0.030996183
-0.022542499 0.000635 -0.029408397
0.0060325 -0.0003175 -0.03131374
-0.017462499 -0.00095249998 -0.0024160305
0.022225 -0.00127 -0.0017809159
-0.012065 -0.0003175 -0.0001931297
0.020002499 -0.00095249998 -0.0001931297
-0.0088900002 0 -0.026867939
-0.0003175 -0.00095249998 -0.0001931297
-0.01651 0 -0.014800763
0.0015875 0 -0.013530534
-0.005715 0.00127 -0.00051068695
0.00127 -0.0003175 0.0023473282
-0.01651 -0.0003175 -0.032901525
0.022542499 0 -0.0001931297
-0.01905 -0.0003175 -0.025915267
-0.0092075001 0.00095249998 -0.0024160305
-0.0060325 -0.000635 -0.0020984733
-0.0111125 0.00127 -0.0020984733
0.01143 -0.0003175 0.0010770992
0.0053975 0.00127 -0.029090839
-0.02159 0.0003175 -0.026867939
0.000635 0.000635 -0.03131374
-0.021907499 -0.000635 -0.03131374
0.0098425001 0.00127 -0.00051068695
-0.000635 0.00127 -0.0017809159
0.0063499999 0.0003175 -0.0033687023
-0.00127 -0.0003175 -0.03480687
-0.0034924999 0 -0.035759542
0.02413 0.0003175 -0.0097198468
0.0111125 0 -0.017658778
-0.010795 0.00127 -0.030361068
-0.0047625001 -0.00127 -0.00051068695
-3.469447e-18 -0.0003175 -0.03131374
0.0149225 0.0003175 -0.0001931297
-0.0060325 0.00127 -0.0014633586
-0.0095250001 0.0003175 -0.030043511
0.0111125 0 -0.015435877
0.01905 0 -0.017341221
0.0028575 -0.000635 -0.029725954
0.01905 0 -0.026232824
-0.0063499999 0.0003175 -0.027503053
0.005715 0.00127 -0.030361068
0.0076199998 -0.00127 -0.029090839
-0.0053975 0.00095249998 -0.029090839
-0.023177499 0.000635 -0.029408397
-0.02159 -0.0003175 0.002029771
0.0063499999 0 -0.0071793892
-0.01143 -0.00095249998 -0.029725954
-0.0066674999 -0.00095249998 -0.029725954
0.0127 0.00127 -0.0008282442
-0.0038099999 0.0003175 -0.034489311
0.0034924999 0.00127 -0.0020984733
-0.01905 -0.0003175 -0.027503053
0.01778 0 -0.0020984733
-0.017462499 -0.00095249998 -0.03131374
0.010795 -0.00095249998 -0.03131374
0.016827499 0 -0.0024160305
0.020637499 0.00095249998 -0.0001931297
-0.017145 0.00127 -0.030043511
0.0038099999 -0.0003175 0.0010770992
-0.02159 0 -0.014483206
0.01905 0 -0.012260305
-0.01651 0 -0.020834351
0.01397 0 -0.02782061
0.0063499999 0 -0.035759542
-0.014605 0.000635 -0.029725954
-0.01651 0 -0.021787023
-0.0053975 -0.00127 -0.0020984733
-0.0088900002 0.0003175 -0.020516794
-0.0038099999 0.0003175 -0.033854198
0.0123825 0.00127 -0.0020984733
0.016827499 -0.00127 -0.03131374
0.0038099999 0.0003175 -0.014483206
-0.0092075001 0.00095249998 -0.029408397
0.01651 0.0003175 -0.017023664
0.0063499999 0.0003175 -0.035759542
0.02413 0 -0.016070992
0.01651 0.0003175 -0.024327481
0.0063499999 -0.00095249998 -0.03131374
0.01397 0.00127 -0.0001931297
0.02159 0.0003175 -0.01861145
0.025082499 0.00095249998 -0.0008282442
0.0085725002 -0.00095249998 -0.030361068
-0.0060325 0 -0.028773282
0.01397 0 -0.016388549
0.0038099999 0 0.0004419848
0.023177499 0.00095249998 -0.0001931297
0.010795 -0.00127 -0.0014633586
-0.0088900002 0 -0.035759542
0.0015875 -0.00127 -0.0024160305
0.01397 -0.0003175 0.0004419848
-0.01397 -0.00127 -0.0020984733
-0.0130175 0 -0.0001931297
-0.020002499 -0.00127 -0.029090839
-0.0003175 0.0003175 -0.029090839
-0.013335 -0.00127 -0.030996183
0.01397 -0.00127 -0.0011458014
0.0123825 0.000635 -0.029090839
-0.01397 0 -0.027185496
-0.0015875 0 -0.0036862595
-0.00127 -0.0003175 -0.00940229
-0.022225 0.000635 -0.0024160305
0.0034924999 0 -0.037029769
-0.025082499 -0.00095249998 -0.0024160305
0.0047625001 0.00127 -0.030361068
-0.0082550002 -0.00127 -0.030361068
-0.0063499999 -0.0003175 -0.0059091602
0.00508 -0.000635 -0.00051068695
-0.012065 -0.00095249998 -0.0024160305
0.02413 -0.000635 -0.0020984733
-0.0104775 -0.00127 -0.0017809159
0.0015875 0.00095249998 -0.029408397
-0.0085725002 0.00127 -0.0008282442
0.0085725002 -0.0003175 -0.0001931297
-0.015875001 0 -0.029090839
0.01905 0 -0.0065442747
0.01905 0 -0.025915267
0.02159 0.0003175 -0.01162519
-0.0015875 0 -0.037029769
0.01651 0 -0.013530534
-0.0088900002 0 -0.017023664
0.02159 -0.0003175 -0.014483206
-0.0161925 -0.00127 -0.029725954
0.0085725002 0.00127 -0.0017809159
0.0127 -0.0003175 -0.0024160305
0.013335 0.00127 -0.030361068
0.0076199998 -0.0003175 -0.029090839
0.0088900002 -0.0003175 0.0004419848
-0.0130175 -0.00127 -0.0024160305
0.0022225 -0.00095249998 -0.029408397
0.0053975 -0.00095249998 -0.030361068
-0.0111125 -0.0003175 -0.0024160305
-0.02159 -0.0003175 0.0013946565
0.0098425001 0.00127 -0.030678626
0.0044450001 0 -0.0001931297
-0.000635 -0.000635 -0.00051068695
0.00127 0.0003175 -0.035124429
0.00127 -0.0003175 -0.0087671755
0.0034924999 0 -0.026550381
0.0038099999 0.0003175 -0.0049564885
-0.0111125 0 -0.027503053
0.0066674999 0 -0.025915267
-0.0098425001 0.00127 -0.0020984733
0.01143 -0.0003175 -0.008132061
-0.01397 0.0003175 -0.036394656
-0.0082550002 -0.0003175 -0.03131374
-0.0111125 0 -0.031631298
0.0111125 0 -0.0024160305
-0.0028575 -0.00095249998 -0.029090839
-0.0063499999 0 -0.032901525
0.01778 -0.000635 -0.0020984733
-0.0047625001 0.00095249998 -0.0024160305
-0.024765 0.00127 -0.030043511
0.0038099999 -0.0003175 -0.032266412
-0.000635 0 -0.0001931297
-0.017462499 0.0003175 -0.03131374
0.02413 0.0003175 -0.018293893
0.0088900002 -0.0003175 -0.014165648
-0.02413 -0.0003175 -0.0078145033
-0.0069849999 0.00127 -0.0024160305
0.01143 -0.00127 -0.030996183
-0.0053975 0.00127 -0.0024160305
-0.022542499 -0.00127 -0.030043511
0.02413 0 -0.0097198468
0.00508 0.00127 -0.030678626
0.01905 -0.0003175 -0.013212977
-0.0085725002 0 -0.0087671755
0.01016 0.00127 -0.0001931297
-0.0098425001 -0.00127 -0.0020984733
-0.02159 0.0003175 -0.006861832
-0.001905 0.00127 -0.030043511
0.023812499 0.00127 -0.00051068695
0.01905 -0.00127 -0.00051068695
0.0063499999 0.0003175 -0.013530534
0.01016 -0.0003175 -0.029408397
0.00095249998 0.00127 -0.029725954
-0.017145 -0.00127 -0.0008282442
0.0088900002 -0.0003175 -0.026550381
0.0034924999 0 -0.005591603
-0.01143 0 -0.036077097
0.023177499 -0.000635 -0.029090839
-0.0038099999 0.00127 -0.030996183
0.01905 0 -0.024645038
-0.02159 0.000635 -0.029408397
-0.01905 -0.000635 -0.00051068695
-0.0063499999 0.0003175 -0.015435877
0.0038099999 -0.0003175 -0.023057252
-0.010795 0.0003175 -0.0024160305
0.01143 0 -0.019564122
0.01143 0.0003175 0.0026648855
-0.0034924999 -0.00095249998 -0.030678626
0.0082550002 -0.00127 -0.0008282442
-0.01397 -0.0003175 -0.00940229
-0.0127 -0.00127 -0.00051068695
0.0088900002 0 -0.0027335878
-0.0066674999 0 -0.028455725
-0.0044450001 -0.000635 -0.029090839
-0.0022225 -0.00095249998 -0.0001931297
-0.01651 -0.0003175 -0.012577862
-0.00095249998 -0.00095249998 -0.03131374
-0.0111125 0.00127 -0.029725954
-0.0066674999 -0.00095249998 -0.029408397
-0.0038099999 0.0003175 -0.024645038
0.001905 -0.00127 -0.0011458014
0.02159 0.0003175 -0.0040038167
0.01651 0.0003175 -0.021151908
-0.022542499 0.00127 -0.030361068
-0.02032 0.00127 -0.0011458014
0.0066674999 0.0003175 -0.0001931297
-0.01397 -0.0003175 -0.008132061
-0.00127 -0.00127 -0.029090839
-0.01397 -0.0003175 0.002029771
-0.0038099999 0.0003175 -0.003051145
0.00127 -0.0003175 -0.023057252
0.0015875 0 -0.021151908
0.0127 0.00127 -0.0020984733
0.01905 0 0.0026648855
-0.01016 0 -0.029090839
0.003175 -0.00095249998 -0.0001931297
0.0073024998 -0.00095249998 -0.029725954
0.0098425001 0.000635 -0.029090839
0.0069849999 -0.0003175 -0.0001931297
-0.0149225 -0.00127 -0.0008282442
-3.469447e-18 0 -0.0024160305
0.02413 0.0003175 -0.024327481
-0.024447499 0 -0.035124429
0.016827499 -0.00095249998 -0.03131374
0.01397 0.0003175 -0.0040038167
-0.02159 0.0003175 0.0004419848
-0.01778 -0.00127 -0.00051068695
0.0104775 -0.000635 -0.00051068695
-0.015875001 0.00127 -0.0011458014
0.02413 0 0.0010770992
0.014605 -0.000635 -0.00051068695
-0.0111125 0 -0.017658778
-0.0082550002 -0.00095249998 -0.03131374
0.013335 0.00127 -0.030678626
-0.02159 0.0003175 -0.036077097
0.0041275001 -0.00127 -0.029725954
-0.01397 -0.0003175 -0.024962595
0.02413 0 -0.03480687
0.025082499 0.000635 -0.030043511
-0.0161925 0.00095249998 -0.029408397
-0.0161925 0.00127 -0.030996183
-0.02159 0.00095249998 -0.029408397
-0.00095249998 0.00127 -0.0008282442
-0.01651 -0.0003175 -0.020834351
0.023177499 0.00127 -0.0001931297
0.019685 0.0003175 -0.03131374
0.005715 0.00095249998 -0.029725954
-0.0034924999 0 -0.024645038
-0.01651 0 -0.022739694
0.018415 0.00127 -0.0020984733
0.01524 -0.00127 -0.030996183
0.017462499 -0.000635 -0.00051068695
0.005715 0.00127 -0.0017809159
-0.01397 0.0003175 -0.024009923
0.01905 0.0003175 -0.034171756
-0.01651 0 -0.015753435
0.018097499 0.00127 -0.00051068695
-0.02413 0 -0.0027335878
-0.00508 -0.0003175 -0.0001931297
0.0044450001 0.00095249998 -0.029090839
0.0003175 -0.000635 -0.029725954
0.018097499 0.00127 -0.029725954
-3.469447e-18 -0.00127 -0.029408397
-0.01397 0.0003175 -0.010990076
-0.01905 0 0.00012442755
-0.018732499 -0.00127 -0.0024160305
-0.0088900002 0.0003175 -0.014483206
-0.00508 -0.00127 -0.0017809159
-3.469447e-18 -0.00127 -0.030361068
-0.01397 0.00095249998 -0.0024160305
0.0034924999 0 -0.017341221
0.0085725002 0 -0.0062267175
-0.01143 -0.0003175 -0.028455725
-0.02159 0.00127 -0.03131374
0.0142875 0 -0.0024160305
0.00095249998 0.00095249998 -0.029725954
0.0015875 -0.00095249998 -0.029090839
0.0085725002 0 -0.026550381
-0.0038099999 0.0003175 0.00012442755
-0.0127 0.00095249998 -0.029408397
-0.01397 -0.0003175 -0.0049564885
0.02159 0.00127 -0.030043511
-0.0130175 0 -0.0024160305
-0.023495 -0.00127 -0.0024160305
0.01905 0 -0.028138168
-0.0063499999 -0.0003175 -0.013530534
-0.015875001 -0.00127 -0.030361068
0.01905 0.00127 -0.0011458014
0.0044450001 0.00127 -0.030043511
-0.0041275001 0.00127 -0.029725954
-0.0079375003 0.00127 -0.029090839
0.0034924999 0.00127 -0.029408397
0.018732499 0.00127 -0.0001931297
0.02413 0.0003175 -0.0027335878
-0.018732499 0.000635 -0.0024160305
0.02159 0.0003175 -0.018293893
-0.0034924999 0 -0.02559771
-0.0085725002 0 -0.0049564885
-0.0063499999 0.0003175 0.002029771
-0.02159 0.000635 -0.03131374
0.0015875 0 -0.037029769
0.017145 -0.000635 -0.00051068695
-0.0136525 0 -0.0001931297
-0.00254 0.000635 -0.030996183
-0.0038099999 0.0003175 -0.023374809
0.02413 0.0003175 -0.027185496
0.01397 0.00095249998 -0.030043511
0.01143 -0.0003175 0.002029771
-0.0088900002 0 -0.026232824
-0.02159 -0.0003175 -0.02559771
-0.0092075001 -0.00127 -0.029725954
0.0034924999 -0.00127 -0.00051068695
0.018415 0.00127 -0.029408397
-0.0034924999 0 0.0013946565
0.0111125 0.00127 -0.0011458014
-0.0063499999 0.0003175 -0.00940229
0.001905 0.00127 -0.030043511
0.01651 0.0003175 -0.012577862
0.02159 -0.0003175 -0.0046389312
0.01016 0.00127 -0.029725954
-0.01143 -0.0003175 -0.005591603
0.02413 -0.0003175 -0.0049564885
-0.01524 -0.00127 -0.0011458014
0.0088900002 -0.0003175 -0.0090847323
0.019685 -0.00127 -0.0001931297
0.020002499 0.00095249998 -0.029408397
-0.0015875 0.00127 -0.029725954
0.00127 0.0003175 0.0017122137
-0.023177499 -0.00127 -0.0011458014
0.017145 -0.00095249998 -0.029090839
-0.0038099999 -0.0003175 -0.032901525
0.0079375003 0 -0.0020984733
0.0088900002 0.0003175 -0.013212977
0.018732499 -0.000635 -0.029408397
0.0085725002 0 -0.016070992
-0.019367499 0.00127 -0.0017809159
-0.01397 0 -0.011942748
0.020637499 0.0003175 -0.029090839
0.024447499 -0.00127 -0.030678626
0.0038099999 0 -0.0046389312
-0.0076199998 -0.00127 -0.0024160305
-0.02159 -0.0003175 0.00075954205
0.0149225 -0.00127 -0.0008282442
0.00095249998 0 -0.010037404
0.005715 -0.00127 -0.0014633586
-0.0111125 0.00095249998 -0.029725954
0.01397 -0.0003175 -0.012260305
-0.0088900002 0.0003175 -0.0046389312
-0.0015875 0 -0.008132061
0.01651 -0.00127 -0.0017809159
-0.0066674999 0 0.0023473282
-0.0155575 0.000635 -0.03131374
0.0098425001 0.00127 -0.030996183
0.00508 -0.00127 -0.029408397
-0.02286 0.00127 -0.0014633586
-0.0038099999 0 -0.023057252
-0.005715 0.00127 -0.03131374
0.00127 -0.0003175 -0.022422137
-0.0038099999 0.0003175 -0.021787023
-0.0015875 0 -0.032901525
-0.01143 0.0003175 -0.024009923
0.0123825 -0.0003175 -0.0001931297
0.01143 0.0003175 -0.0078145033
-0.0079375003 0.00127 -0.030678626
0.0015875 0 -0.011307633
0.0034924999 -0.00095249998 -0.030043511
0.017462499 -0.000635 -0.03131374
-0.020637499 0.00095249998 -0.0001931297
-0.01143 0.0003175 -0.0033687023
0.0111125 0 -0.006861832
0.01397 0.000635 -0.0024160305
0.0038099999 -0.00127 -0.0008282442
0.021907499 0.00095249998 -0.0020984733
0.01143 0 -0.017341221
-0.0111125 0 -0.028455725
-0.003175 0.00095249998 -0.03131374
0.01905 0.0003175 -0.011307633
0.01143 0 0.00012442755
0.0028575 -0.000635 -0.03131374
-0.0041275001 0 -0.032583971
0.01143 0 -0.012577862
0.0161925 0.000635 -0.03131374
0.0092075001 0.0003175 -0.0001931297
-0.01905 0.0003175 -0.0059091602
-0.012065 0.00127 -0.029725954
0.0063499999 0.0003175 -0.004321374
0.016827499 0 -0.026867939
-0.0038099999 0 -0.0046389312
-0.021907499 -0.0003175 -0.028773282
0.0015875 0.00127 -0.030043511
0.0063499999 0.0003175 -0.033536639
-0.0063499999 0 -0.032583971
0.020637499 0 -0.029090839
-0.0066674999 -0.00127 -0.0014633586
0.00095249998 0.0003175 -0.011307633
0.016827499 -0.0003175 -0.0001931297
0.0088900002 -0.0003175 -0.034171756
0.020002499 -0.0003175 -0.0001931297
0.02159 0 -0.0084496178
-0.012065 -0.0003175 -0.03131374
0.02159 0.00127 -0.0011458014
-0.0041275001 0 -0.02559771
0.0038099999 0.0003175 -0.02782061
0.01143 0.0003175 -0.033219084
0.0149225 0.00127 -0.0017809159
-0.01397 0.0003175 -0.010672519
0.0060325 0.00127 -0.0020984733
0.0063499999 0 -0.014800763
0.0063499999 -0.0003175 -0.012260305
0.005715 -0.00127 -0.030996183
-0.018732499 -0.00127 -0.0011458014
0.01397 0 0.0029824427
-0.0111125 0 -0.023374809
0.01397 -0.0003175 -0.013848091
-0.01143 0.0003175 -0.036077097
0.0063499999 -0.0003175 0.0010770992
-0.02413 0.0003175 -0.014800763
0.01905 -0.0003175 -0.026867939
-0.0034924999 0 -0.011942748
-0.01397 -0.0003175 -0.0062267175
-0.0085725002 -0.0003175 -0.0001931297
-0.02159 0.00127 -0.0017809159
-0.02159 -0.0003175 -0.024645038
0.01651 -0.0003175 -0.024645038
0.01143 0.00127 -0.029725954
0.02159 -0.0003175 0.00075954205
-0.00254 0.00127 -0.0020984733
0.0003175 -0.0003175 -0.0024160305
-0.015875001 -0.00095249998 -0.029408397
-0.0015875 -0.00127 -0.0014633586
0.0069849999 -0.0003175 -0.03131374
0.01778 0.0003175 -0.03131374
-0.0041275001 0.00127 -0.030996183
-0.0028575 0.00127 -0.00051068695
-0.01778 -0.000635 -0.029090839
0.000635 -0.000635 -0.00051068695
0.0066674999 0 -0.0049564885
0.016827499 0 -0.0071793892
0.0088900002 0.0003175 -0.016070992
-0.0085725002 0 -0.0027335878
0.01397 -0.0003175 -0.027185496
0.01143 0.0003175 -0.034171756
-0.0066674999 -0.00095249998 -0.0001931297
-0.0127 0.00127 -0.029725954
0.00095249998 -0.00127 -0.0001931297
0.02159 0.00095249998 -0.03131374
-0.00127 -0.00127 -0.029408397
0.0063499999 -0.0003175 -0.021469465
-0.024765 -0.00095249998 -0.030361068
0.01905 -0.0003175 -0.014800763
-0.0038099999 0 -0.008132061
-0.01905 -0.0003175 -0.0033687023
0.02159 0.0003175 -0.027503053
0.01397 -0.0003175 -0.0040038167
-0.0095250001 -0.000635 -0.029090839
0.001905 0.00095249998 -0.030361068
-0.01143 0 -0.024645038
-0.003175 0 -0.029090839
0.02159 0.0003175 -0.003051145
0.02413 -0.00127 -0.0020984733
0.02413 0.0003175 -0.015435877
0.0063499999 -0.0003175 -0.017023664
0.013335 -0.00127 -0.030996183
-0.0082550002 0.00127 -0.030996183
-0.024447499 -0.00127 -0.0011458014
0.01651 -0.0003175 -0.021469465
0.025082499 0.000635 -0.0020984733
-0.0015875 0.0003175 -0.0024160305
0.0038099999 -0.0003175 0.00075954205
-0.02286 -0.00095249998 -0.0020984733
0.00095249998 0 -0.020516794
0.0111125 0 -0.03480687
0.018097499 -0.00127 -0.0011458014
0.01905 0 -0.013848091
-0.017462499 0.00127 -0.030361068
0.01397 -0.0003175 -0.026550381
-0.0066674999 0.00095249998 -0.0024160305
-0.0015875 0 -0.016070992
-0.01651 0.0003175 -0.0090847323
-0.00095249998 -0.0003175 -0.0097198468
-0.01397 -0.0003175 -0.006861832
0.018732499 -0.000635 -0.00051068695
-0.0063499999 0 -0.016388549
-0.0082550002 0.00095249998 -0.030043511
-0.0063499999 0 -0.006861832
-0.001905 0.00127 -0.03131374
0.020002499 0.00095249998 -0.0001931297
-0.021272499 0 -0.003051145
0.0066674999 -0.000635 -0.00051068695
0.00508 0.00095249998 -0.030996183
-0.0015875 0.00127 -0.0017809159
0.00254 0.00127 -0.030996183
0.021272499 0.0003175 -0.029090839
0.017145 0.00127 -0.029725954
0.02159 0 0.0013946565
-0.010795 0.0003175 -0.029725954
-0.005715 -0.00127 -0.0011458014
-0.0123825 -0.00095249998 -0.0024160305
-0.0063499999 0 0.002029771
-0.019685 0.00127 -0.029725954
-0.0111125 0 -0.015753435
0.0117475 -0.00095249998 -0.0001931297
-0.015875001 -0.0003175 -0.03131374
-0.0063499999 -0.0003175 0.00012442755
-0.018415 0.000635 -0.030996183
-0.019367499 -0.00127 -0.0008282442
0.018415 -0.00127 -0.030043511
0.0104775 -0.00127 -0.0001931297
-0.00095249998 -0.0003175 -0.013212977
0.0038099999 0 -0.020199236
0.0155575 -0.00127 -0.0011458014
-0.02413 0 -0.02559771
0.00254 -0.0003175 -0.0024160305
-0.01016 0.000635 -0.0024160305
0.01524 -0.00127 -0.030678626
0.0130175 -0.00095249998 -0.03131374
0.019367499 0.00127 -0.030678626
0.0034924999 -0.00127 -0.0014633586
-0.01905 0.0003175 -0.028138168
-0.003175 -0.0003175 -0.0001931297
0.023812499 0.00127 -0.029090839
0.00254 0.00127 -0.029725954
0.0022225 -0.00127 -0.0008282442
0.01651 0.00095249998 -0.0001931297
-0.01651 0 -0.032901525
0.012065 -0.000635 -0.030043511
-0.02032 -0.00127 -0.030678626
-0.010795 0.00127 -0.0024160305
-0.01397 0.0003175 -0.018293893
-0.0088900002 0.0003175 0.0013946565
-0.02413 -0.0003175 -0.016070992
0.01524 0.000635 -0.00051068695
0.00095249998 0.0003175 -0.008132061
0.01397 0.00127 -0.030361068
-0.0066674999 0 -0.0027335878
-0.021272499 0 -0.01511832
0.019367499 0.0003175 -0.0024160305
-0.01143 0.0003175 -0.028773282
0.023177499 0 -0.029090839
0.0053975 0.00127 -0.030361068
0.017145 -0.0003175 -0.029090839
0.0082550002 0.0003175 -0.0001931297
0.01397 0 -0.021151908
0.023812499 -0.000635 -0.029408397
0.0063499999 -0.0003175 -0.024962595
-0.0015875 0 -0.02559771
-0.01651 0.0003175 -0.011942748
-0.0063499999 -0.0003175 -0.016070992
0.0022225 0.00127 -0.030996183
0.01143 0 -0.0059091602
0.02159 0.0003175 -0.033536639
0.012065 0.00127 -0.030361068
-0.0022225 0.0003175 -0.030043511
0.01524 0.0003175 -0.0001931297
-0.02413 0 -0.037347328
0.0063499999 0 -0.033219084
-0.0098425001 0 -0.03131374
-0.02413 0.0003175 -0.02559771
0.003175 0.00127 -0.030678626
0.0111125 0 -0.019564122
0.016827499 0.00127 -0.00051068695
-0.0104775 0 -0.0001931297
-0.014605 0.0003175 -0.03131374
-0.023177499 0.000635 -0.00051068695
0.023495 0.000635 -0.00051068695
0.00508 0.00127 -0.030361068
-0.022542499 0.000635 -0.0024160305
0.02413 -0.0003175 -0.0084496178
0.022542499 -0.00127 -0.030678626
-0.0038099999 0.0003175 -0.0078145033
0.00127 -0.00127 -0.0008282442
-0.0034924999 0.00095249998 -0.03131374
0.0063499999 -0.0003175 -0.034489311
-0.0088900002 0 -0.037029769
-0.020637499 0.00127 -0.030361068
0.025082499 0.00095249998 -0.0001931297
-0.00095249998 0.00095249998 -0.030043511
0.01905 0.0003175 -0.0071793892
0.005715 -0.00127 -0.029090839
-0.0022225 0.00127 -0.029408397
-0.014605 0.00127 -0.00051068695
-0.0161925 0.00127 -0.030043511
-0.00095249998 0 -0.027185496
0.01651 -0.0003175 -0.0065442747
-0.01905 0 -0.011942748
0.024447499 0.000635 -0.00051068695
-0.00095249998 -0.0003175 -0.015753435
0.01905 0.0003175 -0.020834351
0.01905 0 -0.032266412
-0.02159 -0.0003175 -0.033536639
0.0038099999 0.0003175 0.0004419848
-0.02413 0 -0.013848091
-0.003175 0.00127 -0.00051068695
0.0015875 0 -0.023057252
-0.01651 0.0003175 -0.004321374
-0.014605 -0.00127 -0.0001931297
-0.019367499 0.00127 -0.03131374
0.018415 0.00095249998 -0.029090839
0.0088900002 0 -0.023692366
-0.0088900002 -0.0003175 -0.006861832
0.022542499 0.00127 -0.030361068
-0.02159 -0.000635 -0.03131374
-0.021907499 0 0.0023473282
0.01651 0.00127 -0.0020984733
0.0127 0.0003175 -0.0001931297
0.0088900002 -0.0003175 -0.0036862595
-0.001905 0 -0.0024160305
0.01143 0.0003175 -0.01162519
0.01905 -0.0003175 -0.017976336
0.02159 -0.0003175 -0.0033687023
-0.0082550002 0 -0.03131374
0.020002499 -0.00095249998 -0.030996183
0.024765 0.00095249998 -0.030678626
0.017145 -0.00127 -0.0017809159
0.0082550002 0.00127 -0.030678626
-0.0079375003 0.00127 -0.0008282442
-0.01651 0 -0.037029769
-0.0088900002 -0.0003175 -0.0084496178
-0.0098425001 0.00127 -0.030361068
0.024447499 -0.000635 -0.00051068695
0.019685 -0.00127 -0.030678626
-0.01905 0.000635 -0.00051068695
0.0034924999 0 -0.0036862595
-0.01143 -0.0003175 0.002029771
-0.02413 0.0003175 -0.031631298
-0.025082499 -0.00095249998 -0.03131374
0.019367499 0.00127 -0.0017809159
0.00095249998 0 -0.013848091
-0.01905 0.0003175 -0.0097198468
-0.0088900002 0 -0.0078145033
0.02159 -0.0003175 -0.016388549
-0.010795 -0.00127 -0.030678626
-0.0041275001 -0.00095249998 -0.0024160305
0.0111125 0 0.0010770992
0.00254 0 -0.0024160305
-0.000635 -0.00095249998 -0.029408397
-0.0047625001 -0.000635 -0.030361068
0.01905 0 -0.031948853
-0.024447499 0 -0.024009923
0.0066674999 0.00127 -0.0014633586
-0.0130175 0.00095249998 -0.03131374
0.014605 0.00127 -0.0024160305
-0.01651 0.0003175 -0.019564122
0.00095249998 0 -0.028138168
0.0066674999 0.00127 -0.03131374
-0.0079375003 -0.0003175 -0.0020984733
0.0111125 -0.00095249998 -0.03131374
-0.0082550002 0.000635 -0.030361068
-0.01016 0.0003175 -0.0001931297
0.0034924999 0 -0.021469465
-0.01143 0 -0.01162519
-0.017462499 0.000635 -0.03131374
0.0111125 0 -0.022422137
-0.0041275001 0 -0.031631298
-0.0015875 0 0.0013946565
-0.000635 0.00127 -0.0001931297
-0.0015875 0 -0.0052740457
0.01905 0 -0.0036862595
0.00127 -0.0003175 -0.027503053
0.02159 -0.0003175 -0.011942748
0.01905 0 -0.019881679
0.02286 -0.000635 -0.029090839
-0.018415 -0.00095249998 -0.0001931297
0.0123825 0.00127 -0.0011458014
-0.02413 0 -0.034489311
-0.00127 0.0003175 0.00075954205
0.01397 0.0003175 -0.017976336
-0.01143 0.0003175 -0.033854198
0.0111125 0.000635 -0.029090839
-0.024447499 -0.00095249998 -0.0001931297
-0.00508 -0.00095249998 -0.029090839
0.0130175 0.00095249998 -0.0024160305
-0.02413 0.0003175 -0.034171756
-0.00508 0.00127 -0.030996183
0.024765 -0.000635 -0.0020984733
-0.0063499999 0 0.00075954205
0.017462499 0.00095249998 -0.029408397
-0.024765 -0.00095249998 -0.0024160305
-0.0022225 0.000635 -0.00051068695
0.01143 0 -0.02559771
0.02159 0 -0.017341221
0.01778 0.00127 -0.030996183
0.020955 -0.00127 -0.0011458014
0.01651 0.0003175 -0.035759542
0.0098425001 0.00127 -0.0014633586
-0.0034924999 0.0003175 -0.03131374
-0.02159 0 -0.021469465
-0.021907499 0.000635 -0.0024160305
0.02286 -0.00095249998 -0.0020984733
-0.0117475 0.00127 -0.030996183
-0.024447499 -0.000635 -0.030996183
0.010795 -0.0003175 -0.029090839
-0.0041275001 0.0003175 -0.030361068
-0.02286 -0.00127 -0.0008282442
-0.01143 -0.0003175 -0.0001931297
0.02159 0 -0.028455725
-0.019367499 -0.00127 -0.029408397
0.01651 -0.0003175 0.0023473282
0.01397 -0.00127 -0.0024160305
-0.0111125 0 0.00012442755
0.0161925 0 -0.010354961
-0.0028575 0 -0.0001931297
0.0161925 -0.00127 -0.030678626
0.0063499999 0.0003175 -0.024009923
-0.0038099999 -0.0003175 -0.036077097
-0.0053975 -0.00127 -0.0008282442
-0.01905 0 -0.013530534
0.01905 0.0003175 -0.014483206
-0.0088900002 0.00127 -0.030361068
0.01397 -0.0003175 -0.029090839
-0.02286 -0.00127 -0.0001931297
-0.01905 0 -0.036077097
-0.024447499 0 -0.034489311
0.017462499 -0.0003175 -0.03131374
0.00095249998 0.0003175 -0.028455725
0.0028575 -0.00127 -0.0001931297
-0.00127 -0.00127 -0.030361068
-0.018097499 0.00095249998 -0.029408397
0.0085725002 0 -0.0040038167
0.0034924999 0.00127 -0.030361068
-0.01905 0.0003175 0.0017122137
0.0047625001 -0.00127 -0.0014633586
0.0117475 0.00127 -0.0011458014
0.01397 0.0003175 0.00012442755
0.02413 0.0003175 -0.034489311
-0.0041275001 0.00095249998 -0.029090839
0.0041275001 0.0003175 -0.03131374
-0.0161925 0.00127 -0.030361068
0.0015875 -0.00127 -0.029408397
0.0104775 0.00095249998 -0.030361068
0.02159 0 -0.033854198
-0.0082550002 -0.00095249998 -0.0020984733
-0.023495 -0.00127 -0.0017809159
0.02159 0.0003175 -0.012260305
0.0085725002 0.00127 -0.0008282442
-0.0130175 0.00095249998 -0.029725954
0.022542499 -0.00095249998 -0.0001931297
-0.021272499 -0.0003175 -0.0024160305
0.0127 0.00095249998 -0.029408397
-0.020955 -0.0003175 -0.03131374
0.0130175 -0.00127 -0.030043511
0.021907499 -0.00095249998 -0.0020984733
-0.01397 0 -0.0049564885
-0.0076199998 0.00127 -0.030043511
0.0038099999 0 -0.032901525
-0.023177499 0.00127 -0.0020984733
-0.01143 0.0003175 -0.02210458
-0.02159 0.0003175 -0.031948853
0.01397 0 -0.035759542
0.00127 -0.0003175 -0.019881679
-0.01905 0 -0.0087671755
0.0038099999 -0.0003175 -0.0046389312
-0.01651 0.0003175 -0.023057252
-0.02159 -0.00127 -0.0014633586
-0.0161925 -0.00127 -0.0008282442
-0.003175 0.0003175 -0.03131374
0.018415 -0.00095249998 -0.029408397
-0.02159 -0.0003175 -0.033854198
0.01397 -0.0003175 0.0017122137
0.0063499999 0.0003175 -0.026867939
-0.0079375003 0.000635 -0.029090839
0.0015875 0.000635 -0.0024160305
-0.02159 -0.0003175 -0.018929007
-0.00095249998 0.00095249998 -0.03131374
0.01143 -0.0003175 -0.032266412
-0.0044450001 -0.00127 -0.0024160305
-0.0022225 -0.00095249998 -0.0024160305
-0.020955 -0.000635 -0.03131374
0.0063499999 0 -0.013530534
0.024765 0 -0.0001931297
-0.02159 0.0003175 -0.028455725
0.0066674999 0 -0.0036862595
-0.023177499 0.0003175 -0.029090839
-0.02032 0.00127 -0.029725954
-0.022542499 0.00127 -0.0024160305
-0.00127 0.0003175 -0.024645038
0.018415 0.0003175 -0.0001931297
-0.00508 0.0003175 -0.030361068
-0.0161925 0.00095249998 -0.029090839
-0.00127 0.00127 -0.03131374
-0.0028575 0.00127 -0.029408397
-0.018732499 0.00127 -0.00051068695
-0.0069849999 0.00127 -0.0020984733
0.020955 0.00127 -0.030996183
-0.022225 -0.0003175 -0.0001931297
-0.0063499999 0.000635 -0.0024160305
-0.0076199998 -0.000635 -0.029090839
-0.024765 0.0003175 -0.00051068695
-0.0104775 0.000635 -0.030996183
-0.02413 0.0003175 -0.026232824
0.021272499 0 -0.025915267
-0.0088900002 0.0003175 -0.033536639
-0.02159 0.0003175 -0.00940229
-0.019685 -0.00127 -0.0020984733
-0.000635 -0.00127 -0.03131374
-0.01778 0.0003175 -0.0001931297
-0.0088900002 0.0003175 -0.0062267175
0.0082550002 -0.00127 -0.030043511
-0.01651 0 -0.0097198468
0.00127 -0.0003175 -0.035759542
-0.0038099999 0.0003175 -0.0052740457
-0.01016 -0.000635 -0.00051068695
-0.02413 0 -0.024009923
-0.01905 -0.00095249998 -0.0024160305
-0.021907499 -0.00127 -0.0020984733
0.0079375003 0.00095249998 -0.0020984733
0.014605 0.000635 -0.029090839
0.0082550002 -0.000635 -0.00051068695
-0.0063499999 0.0003175 -0.02782061
-0.02159 0 -0.037347328
0.022542499 0.00127 -0.0011458014
0.01905 0 -0.032583971
-0.01651 -0.0003175 -0.0087671755
0.024447499 0.00127 -0.029090839
0.0003175 0.00095249998 -0.029725954
-0.01905 -0.0003175 -0.0027335878
-0.0088900002 0 -0.01511832
0.02032 0.00127 -0.00051068695
0.01143 -0.00095249998 -0.029725954
0.01651 0 -0.032583971
0.0088900002 -0.000635 -0.029725954
0.0088900002 -0.0003175 -0.006861832
0.021272499 0.0003175 -0.0024160305
-0.01651 0.0003175 -0.020834351
-0.0063499999 -0.00127 -0.0020984733
0.01016 0 -0.0020984733
0.0095250001 0.00095249998 -0.0001931297
-0.01778 -0.00127 -0.0008282442
0.003175 -0.00127 -0.00051068695
-0.016827499 -0.00127 -0.0024160305
0.01651 -0.0003175 -0.008132061
0.0079375003 0.00127 -0.0024160305
0.015875001 -0.00127 -0.0014633586
-0.0136525 0 -0.0024160305
0.01651 -0.00095249998 -0.0024160305
-0.024765 -0.00127 -0.0008282442
-0.01397 -0.0003175 -0.021787023
0.013335 -0.0003175 -0.029408397
-0.0127 0.00127 -0.0008282442
0.0095250001 0.00127 -0.0017809159
-0.0104775 0 -0.0024160305
0.01905 0.0003175 -0.026550381
0.02159 0 -0.010354961
0.0104775 -0.00095249998 -0.029408397
-0.0155575 0.00127 -0.0008282442
-0.0098425001 -0.000635 -0.03131374
0.0063499999 0.0003175 -0.036712214
-0.012065 0 -0.03131374
0.00095249998 0 -0.024645038
0.0022225 0.00095249998 -0.0024160305
-0.0038099999 -0.0003175 -0.021151908
-0.0015875 -0.00127 -0.00051068695
0.01778 -0.00127 -0.030043511
-0.02413 0 -0.032583971
-0.001905 -0.000635 -0.029725954
0.01651 0.0003175 -0.015435877
-0.00127 -0.000635 -0.00051068695
-0.02413 0.0003175 -0.016388549
-0.00127 -0.0003175 0.0004419848
0.01397 0 -0.021469465
-0.019685 -0.0003175 -0.03131374
-0.0136525 -0.000635 -0.00051068695
-0.02413 0.0003175 -0.024962595
0.0088900002 0.0003175 -0.022739694
-0.01143 0 0.00075954205
-0.017145 0.00127 -0.030361068
-0.02159 0 -0.024327481
-0.019367499 -0.00127 -0.0017809159
0.023177499 0.00127 -0.0014633586
-0.0161925 0.00127 -0.030678626
-0.01397 0 -0.016388549
0.01143 -0.000635 -0.00051068695
-0.0111125 0 -0.0049564885
-0.02159 -0.0003175 -0.02782061
-0.016827499 0.00095249998 -0.029408397
-0.01143 0 -0.0097198468
-0.019367499 -0.0003175 -0.0024160305
-0.022542499 -0.0003175 -0.03131374
0.0155575 -0.00095249998 -0.0001931297
-0.0111125 -0.000635 -0.029408397
-0.01397 0 -0.0074969465
-0.0127 -0.00095249998 -0.0001931297
-0.025082499 -0.000635 -0.030361068
0.0142875 0.000635 -0.00051068695
0.0034924999 0 -0.0052740457
0.02159 0.0003175 -0.012895419
0.0088900002 0.0003175 -0.025915267
0.0022225 0.00127 -0.030678626
0.01651 -0.00127 -0.0011458014
-0.0088900002 0.00127 -0.0001931297
-0.014605 0.0003175 -0.0001931297
-0.012065 -0.00127 -0.0011458014
-0.00095249998 0.00095249998 -0.029725954
0.019685 0.00127 -0.029408397
0.0003175 0.00095249998 -0.03131374
-0.02413 0 -0.035441983
-0.0041275001 0.00127 -0.0024160305
0.0092075001 -0.00127 -0.00051068695
-0.0063499999 -0.0003175 -0.003051145
-0.022542499 -0.00127 -0.030996183
-0.0082550002 -0.000635 -0.029090839
-0.01905 0 -0.020199236
-0.01905 -0.00127 -0.029408397
-0.0104775 -0.0003175 -0.029090839
0.00127 0.0003175 -0.013530534
0.0161925 0.00095249998 -0.0024160305
0.023812499 -0.000635 -0.0024160305
-0.0063499999 0 -0.024009923
0.0034924999 -0.0003175 -0.0024160305
-0.02159 -0.0003175 -0.015753435
0.0022225 0.00095249998 -0.029090839
-0.0117475 0.0003175 -0.0001931297
0.01651 0.0003175 -0.013212977
0.02159 0 -0.016706107
0.01397 -0.0003175 -0.02210458
-0.000635 -0.00127 -0.0017809159
-0.0034924999 -0.00127 -0.00051068695
-0.0038099999 0.0003175 -0.0036862595
-0.0022225 0 -0.03131374
0.0028575 0.00095249998 -0.0024160305
