# .PCD v0.7 - Point Cloud Data file format
VERSION 0.7
FIELDS x y z
SIZE 4 4 4
TYPE F F F
COUNT 1 1 1
WIDTH 1364
HEIGHT 1
VIEWPOINT 0 0 0 1 0 0 0
POINTS 1364
DATA ascii
0.011253611 0 -0.00022894736
-0.038029447 0 -0.016305264
-0.02988028 0.00042333335 -0.01905
-0.02988028 0.00042333335 -0.019442106
0.018626668 0.00042333335 -0.017481579
-0.036089167 0.00127 -0.00062105263
-0.0058208336 0.00042333335 -0.017873684
0.0073730559 0 -0.0053263158
-0.012417778 0.00042333335 -0.017481579
0.020566946 0 -0.0076789474
0.02367139 -0.00042333335 -0.00022894736
-0.025223613 0 -0.011992105
0.036865279 -0.00127 -0.0021894737
-0.027551945 -0.00042333335 -0.017873684
-0.04035778 0 0.001731579
0.0081491666 -0.00042333335 -0.017481579
0.032596666 0.00042333335 -0.00022894736
0.019402778 0.00127 -0.0017973684
-0.012805833 0 -0.014736842
0.017850555 0.00042333335 -0.014736842
-0.022895278 0 -0.0041499999
-0.02367139 -0.00042333335 -0.017481579
0.010089445 -0.00042333335 -0.0029736841
-0.039193612 0.00127 -0.0017973684
0.02017889 0.00084666669 -0.019442106
0.015134167 -0.00042333335 -0.020618422
0.033760834 -0.00127 -0.018265789
0.032984722 0.00084666669 -0.019442106
-0.024447501 -0.00042333335 -0.0021894737
-0.014358056 -0.00127 -0.0017973684
-0.010089445 0 -0.006894737
0.0046566669 -0.00042333335 -0.0021894737
-0.041521944 0.00084666669 -0.0021894737
0.0011641667 0 -0.017481579
0.02017889 -0.00127 -0.018265789
-0.010865556 -0.00127 -0.017873684
-0.022895278 0 -0.0084631583
-0.040745836 0 -0.016305264
-0.017850555 0 -0.021402631
0.015134167 -0.00042333335 -0.0025815789
0.025223613 0.00127 -0.018265789
0.032984722 0.00127 -0.0014052632
0.041521944 0.00042333335 -0.01905
-0.03065639 0.00042333335 -0.019834211
0.017850555 -0.00042333335 -0.0045421054
0.018626668 0.00042333335 -0.0021894737
-0.037641391 0.00127 -0.0017973684
-0.0077611115 0 -0.020618422
-0.039193612 0.00042333335 -0.018265789
-0.026387779 0 -0.019442106
-0.030268334 0 -0.015913159
0.0089252777 0.00042333335 -0.018657895
-0.0058208336 0.00127 -0.0014052632
-0.033372778 -0.00127 -0.00022894736
-0.033372778 0.00042333335 -0.0021894737
0.025999723 -0.00127 -0.01905
-0.0046566669 -0.00127 -0.0014052632
-0.015134167 0 -0.0084631583
-0.010089445 -0.00042333335 -0.0084631583
-0.012417778 0.00042333335 -0.018657895
-0.011641667 -0.00127 -0.00022894736
-0.036477223 0.00042333335 -0.018657895
-0.012417778 0 -0.016697368
0.038029447 0 0.0021236842
-0.012805833 0.00042333335 -0.0037578947
-0.034925003 -0.00127 -0.01905
0.010089445 0 -0.020226317
0.029104168 -0.00127 -0.018265789
0.020566946 0 -0.0049342103
0.010865556 0.00042333335 -0.017481579
-0.005432778 0.00127 -0.017481579
-0.00077611115 -0.00042333335 -0.019442106
0.016298333 0.00127 -0.0010131579
0.032984722 0.00127 -0.01905
-0.00077611115 0 -0.017481579
0.0384175 -0.00042333335 -0.00022894736
-0.012805833 0 0.00055526313
0.0031044446 -0.00127 -0.0017973684
0.0093133338 -0.00127 -0.0014052632
0.024835557 0 -0.017481579
0.019402778 -0.00127 -0.018657895
0.0069850003 0.00127 -0.017481579
-0.037253335 0.00042333335 -0.019442106
0.040745836 0 -0.0080710528
-0.017074445 -0.00042333335 -0.018657895
0.019402778 -0.00127 -0.0010131579
0.0031044446 -0.00127 -0.0014052632
0.012029722 -0.00042333335 -0.00022894736
-0.032984722 0 -0.012384211
0.0050447225 0.00127 -0.017481579
-0.039581668 -0.00127 -0.0021894737
-0.0046566669 -0.00042333335 -0.018657895
-0.038029447 0 -0.0037578947
-0.020566946 -0.00042333335 -0.018265789
0 0.00042333335 -0.017873684
-0.037253335 0.00127 -0.0021894737
0.0038805557 -0.00127 -0.0021894737
0.023283334 0.00127 -0.019442106
-0.02017889 0 -0.023363158
-0.034148891 0.00084666669 -0.019442106
0.025611667 0 -0.021794736
-0.03065639 0 -0.021794736
-0.02017889 0.00042333335 0.00094736845
0.022895278 0 0.0013394736
0.033760834 0.00042333335 -0.017481579
-0.010089445 0.00042333335 -0.0080710528
-0.011641667 0.00042333335 -0.0021894737
-0.039969724 -0.00042333335 -0.00022894736
-0.02017889 0 -0.015521052
0.002716389 0 -0.010423684
-0.022895278 -0.00127 -0.019442106
0.032984722 -0.00042333335 -0.014736842
0.021343056 0 -0.019442106
0.002716389 0 -0.012776316
0.020566946 0 -0.0045421054
0.025223613 0 -0.0049342103
-0.038029447 0 -0.0096394736
-0.018626668 -0.00084666669 -0.018657895
0.041521944 -0.00084666669 -0.018657895
0.017850555 0 -0.0037578947
-0.0065969448 -0.00127 -0.0010131579
-0.039193612 -0.00127 -0.01905
0.0093133338 -0.00084666669 -0.00022894736
-0.014746112 0 -0.019442106
0.024447501 0.00127 -0.018657895
0.019402778 0.00127 -0.018265789
-0.015522223 0 -0.0065026316
-0.017850555 0 -0.0076789474
0.030268334 0 -0.014736842
0.019014724 0.00127 -0.0021894737
-0.0023283334 0 -0.011207894
-0.014746112 0 -0.00022894736
-0.016298333 0.00084666669 -0.019442106
-0.0042686113 -0.00042333335 -0.017873684
0.0058208336 -0.00042333335 -0.017481579
0.0042686113 -0.00042333335 -0.019442106
0.0050447225 0.00042333335 -0.0033657895
-0.012805833 0 -0.0029736841
0.025223613 0 -0.016697368
0.025999723 -0.00127 -0.0021894737
-0.022507222 0.00042333335 -0.019442106
0.0077611115 -0.00042333335 0.001731579
-0.015134167 0 -0.019834211
0.010865556 0 -0.017481579
-0.015134167 0.00042333335 -0.018265789
0 0.00042333335 -0.022186842
-0.0089252777 0 -0.0021894737
-0.0384175 0.00127 -0.0021894737
-0.025223613 0.00127 -0.00022894736
-0.021343056 -0.00127 -0.018657895
0.0058208336 0.00042333335 -0.01905
0.0038805557 0 -0.0021894737
0.016686389 0.00042333335 -0.018265789
-0.0073730559 0 -0.01081579
-0.0089252777 -0.00042333335 -0.019442106
-0.01319389 -0.00042333335 -0.019442106
-0.029104168 0.00127 -0.0010131579
-0.025611667 -0.00042333335 -0.017481579
0.020566946 -0.00127 -0.00022894736
0.035313059 0 -0.020226317
-0.015134167 -0.00042333335 -0.014344737
-0.041521944 0 -0.018265789
0.012805833 0 -0.0029736841
-0.028328057 -0.00127 -0.017873684
0.0081491666 0.00042333335 -0.018265789
-0.022895278 -0.00042333335 -0.013560526
0.011253611 0.00127 -0.0021894737
-0.021343056 0.00127 -0.00022894736
0.017850555 0 -0.022971053
-0.019402778 0.00127 -0.01905
-0.035313059 0 -0.012776316
0.037253335 -0.00127 -0.0014052632
-0.020566946 0 -0.012384211
-0.022895278 -0.00042333335 -0.013952632
0.02988028 -0.00127 -0.019442106
0.017850555 -0.00042333335 -0.018265789
0.0073730559 0.00127 -0.0021894737
-0.012029722 0.00042333335 -0.018265789
0.0031044446 -0.00042333335 -0.01905
0.0093133338 0.00042333335 -0.0021894737
0.032208614 -0.00084666669 -0.00022894736
0.010089445 -0.00042333335 -0.021010526
0.034536947 -0.00084666669 -0.00022894736
0.037641391 -0.00042333335 -0.018657895
0.025611667 0 -0.0037578947
0.027940001 0 -0.015521052
0.018626668 0.00127 -0.01905
0.022507222 -0.00127 -0.00062105263
-0.002716389 0.00042333335 -0.019442106
-0.0023283334 0 -0.022578947
0.018626668 0.00127 -0.0014052632
0.010089445 -0.00042333335 -0.015521052
0.0015522223 0.00084666669 -0.00022894736
0.039969724 -0.00127 -0.017481579
-0.031820558 -0.00084666669 -0.017873684
-0.0077611115 0.00042333335 -0.020226317
-0.02017889 -0.00042333335 0.00094736845
0.03065639 -0.00042333335 -0.017481579
-0.012805833 0.00042333335 -0.014344737
0.0023283334 0 -0.019834211
0.04035778 0 -0.006894737
0.026387779 0.00042333335 -0.00022894736
-0.0104775 0.00084666669 -0.019442106
0.02017889 -0.00042333335 -0.015913159
0.017850555 0.00042333335 0.001731579
0.021343056 0.00042333335 -0.00022894736
-0.0077611115 0 0.0029078948
-0.019014724 -0.00127 -0.0017973684
0.012805833 0.00042333335 -0.023363158
-0.025999723 -0.00127 -0.0021894737
-0.019790834 0 -0.017481579
0.015522223 0.00042333335 -0.00022894736
0.021731112 -0.00042333335 -0.017481579
-0.035313059 0 -0.024539474
-0.022895278 -0.00042333335 -0.010423684
-0.0062088892 0.00042333335 -0.019442106
-0.033760834 0.00127 -0.0017973684
0.012805833 -0.00127 -0.00062105263
-0.025611667 0.00127 -0.00062105263
-0.022895278 0 -0.022971053
0.030268334 0 -0.016697368
-0.02017889 -0.00042333335 -0.0053263158
-0.034148891 0 -0.00022894736
-0.032208614 0.00084666669 -0.0021894737
-0.0015522223 -0.00127 -0.00022894736
-0.012029722 0.00084666669 -0.0021894737
0.035701111 -0.00084666669 -0.0021894737
-0.0097013889 -0.00127 -0.019442106
0.026775835 -0.00042333335 -0.0021894737
-0.032596666 -0.00127 -0.018657895
0.035313059 0.00042333335 -0.017481579
-0.0050447225 -0.00042333335 -0.0076789474
0.029492224 0.00084666669 -0.018265789
0.032596666 0.00127 -0.017873684
0.039193612 0.00127 -0.01905
0.0093133338 0.00127 -0.00062105263
-0.029104168 -0.00127 -0.0010131579
-0.039193612 0.00042333335 -0.01905
-0.031820558 0.00042333335 -0.017481579
-0.041521944 0.00084666669 -0.0014052632
-0.002716389 0.00042333335 -0.00022894736
0.0093133338 -0.00042333335 -0.017873684
-0.017462501 -0.00127 -0.0021894737
-0.010089445 0.00042333335 -0.0057184212
0.0093133338 0.00042333335 -0.018657895
0.010089445 -0.00042333335 -0.007286842
0.033760834 -0.00084666669 -0.0021894737
-0.0023283334 0 0.00055526313
0.02017889 -0.00042333335 -0.0021894737
0.01319389 -0.00127 -0.00062105263
-0.035701111 0 -0.023755264
0.025611667 0.00127 -0.00022894736
0.02988028 0.00127 -0.018657895
0.0023283334 0 -0.0084631583
0.03065639 -0.00042333335 -0.00022894736
0.0077611115 0.00084666669 -0.00022894736
-0.016298333 -0.00042333335 -0.00022894736
-0.027163889 -0.00042333335 -0.017481579
0.025611667 -0.00042333335 -0.017481579
-0.026775835 0.00084666669 -0.00022894736
0.034148891 0.00042333335 -0.0021894737
0.027551945 0.00127 -0.0014052632
-0.017850555 0 -0.0049342103
-0.0034925002 0 -0.00022894736
-0.012805833 -0.00042333335 -0.013560526
-0.0015522223 0 -0.0021894737
-0.002716389 -0.00127 -0.0021894737
0.012805833 0.00042333335 -0.013560526
-0.025611667 -0.00042333335 -0.017873684
-0.018238612 0.00127 -0.0021894737
-0.027940001 -0.00127 -0.018265789
-0.021343056 0.00084666669 -0.018657895
-0.00077611115 -0.00127 -0.0014052632
0.032984722 -0.00042333335 -0.017089473
-0.012417778 0 -0.022578947
-0.019014724 0.00042333335 -0.017873684
0.025223613 0.00127 -0.00062105263
-0.010089445 0.00042333335 -0.014344737
-0.035701111 0 -0.0053263158
-0.0069850003 0.00084666669 -0.0021894737
0.037253335 0.00127 -0.0017973684
0.012805833 -0.00042333335 -0.0096394736
-0.0089252777 -0.00042333335 -0.018657895
0.038029447 0.00127 -0.018657895
-0.040745836 0.00127 -0.0010131579
0.0038805557 0.00042333335 -0.0021894737
0.0077611115 0.00127 -0.0014052632
-0.019014724 0.00127 -0.00022894736
0.0065969448 0.00042333335 -0.00022894736
0.0023283334 -0.00042333335 -0.019834211
0.04035778 -0.00127 -0.0014052632
-0.015134167 -0.00042333335 -0.018265789
-0.032208614 -0.00084666669 -0.019442106
-0.036089167 -0.00042333335 -0.00022894736
0.010865556 0.00042333335 -0.01905
0.0050447225 0 -0.015521052
-0.027163889 0.00127 -0.017481579
0.033372778 0.00127 -0.01905
-0.014358056 0.00042333335 -0.017481579
0.0023283334 0 -0.016697368
-0.022895278 0.00127 -0.00022894736
-0.014746112 0.00042333335 -0.018265789
0.022895278 0.00084666669 -0.017873684
0.022895278 0.00042333335 -0.021402631
0.02017889 0.00127 -0.019442106
-0.034925003 0.00127 -0.0017973684
-0.025223613 0 -0.0037578947
0.037641391 0.00127 -0.01905
0.012805833 0.00042333335 -0.022578947
-0.028716112 0 -0.0021894737
0.010089445 0 -0.010031579
-0.0062088892 -0.00127 -0.0010131579
-0.035701111 -0.00084666669 -0.019442106
-0.034536947 0.00042333335 -0.018657895
-0.012805833 -0.00042333335 -0.016697368
0.014358056 0.00084666669 -0.00022894736
-0.0097013889 -0.00042333335 -0.018657895
0.016298333 0.00042333335 -0.00022894736
-0.026387779 0.00042333335 -0.00022894736
-0.025611667 0 0.0013394736
-0.023283334 0.00127 -0.0021894737
0.0050447225 0 -0.011207894
0.039581668 0 -0.0021894737
-0.0050447225 0 -0.0088552628
0.035701111 0 0.0013394736
-0.011641667 -0.00127 -0.017873684
0.012805833 -0.00042333335 -0.0065026316
-0.028328057 0 -0.019442106
0.031820558 -0.00127 -0.017873684
0.019790834 0.00042333335 -0.017481579
0.0065969448 -0.00127 -0.0017973684
-0.032596666 -0.00127 -0.0010131579
0.0384175 0.00127 -0.0014052632
0.0023283334 0 0.00094736845
0.0050447225 0.00042333335 -0.0061105262
0.024447501 0 -0.017481579
0.022119168 -0.00127 -0.018265789
-0.017850555 0 -0.0033657895
0.025999723 0.00127 -0.019442106
-0.037641391 0 -0.017481579
0.039969724 0.00042333335 -0.017481579
-0.010089445 -0.00042333335 -0.0049342103
0.03065639 0 -0.012384211
-0.014746112 0.00127 -0.0017973684
-0.0081491666 0.00042333335 -0.018265789
0.036089167 -0.00042333335 -0.017481579
0.011253611 -0.00042333335 -0.01905
-0.034925003 0.00042333335 -0.017481579
0.041133892 -0.00042333335 -0.00022894736
0.002716389 0 -0.022971053
0.017850555 0.00127 -0.018265789
-0.025611667 0 -0.0029736841
0.035701111 0.00042333335 -0.0021894737
0.016298333 -0.00084666669 -0.01905
0.037641391 0.00084666669 -0.0021894737
-0.02367139 0.00127 -0.0014052632
-0.027940001 0.00127 -0.017873684
-0.012805833 0.00042333335 -0.016697368
-0.022895278 -0.00042333335 -0.012384211
-0.037641391 0.00042333335 -0.019442106
-0.026775835 0 -0.0021894737
0.04035778 0 -0.02493158
-0.0073730559 -0.00042333335 -0.018657895
-0.0097013889 -0.00127 -0.018265789
-0.0050447225 0.00042333335 0.001731579
-0.037641391 -0.00084666669 -0.017481579
0.011253611 0.00042333335 -0.00022894736
-0.038805556 -0.00042333335 -0.0021894737
0.022507222 0 -0.019442106
-0.022895278 0 -0.01081579
0.02017889 0 -0.013952632
0.017462501 -0.00042333335 -0.017481579
0.0058208336 0 -0.0021894737
-0.0065969448 0.00042333335 -0.01905
0.030268334 -0.00084666669 -0.019442106
-0.016298333 0 -0.019442106
-0.0073730559 0 -0.0025815789
-0.020566946 0 -0.021402631
-0.035313059 -0.00127 -0.01905
-0.0384175 -0.00127 -0.019442106
0.023283334 0 -0.0021894737
0.0050447225 0.00042333335 -0.018265789
-0.0104775 0.00042333335 -0.017481579
-0.021343056 0.00084666669 -0.0021894737
0.022119168 -0.00084666669 -0.00022894736
0.036089167 0.00127 -0.0010131579
-0.012417778 0.00042333335 -0.00022894736
-0.012417778 0 -0.022186842
-0.0077611115 0.00042333335 -0.006894737
0.036089167 -0.00127 -0.017481579
-0.020566946 0 -0.023363158
0.04035778 -0.00042333335 -0.018657895
0.017850555 0.00042333335 0.00016315789
0.0077611115 -0.00127 -0.00062105263
-0.0062088892 0.00042333335 -0.01905
-0.0069850003 0.00084666669 -0.00022894736
0.025999723 0.00127 -0.017873684
-0.016298333 -0.00042333335 -0.017481579
-0.0058208336 0.00127 -0.017873684
-0.017074445 0.00042333335 -0.017481579
-0.037641391 0.00127 -0.0014052632
0.032984722 0 -0.014736842
-0.0050447225 0 -0.02493158
-0.01319389 -0.00084666669 -0.01905
-0.010089445 -0.00127 -0.0014052632
-0.0081491666 0.00127 -0.00062105263
0.027940001 0 -0.021402631
-0.012805833 0.00042333335 -0.020226317
0.017074445 -0.00127 -0.018657895
0.00038805557 -0.00042333335 -0.01905
0.026387779 -0.00084666669 -0.00022894736
0.002716389 0 -0.020618422
-0.015134167 0 0.0021236842
0.035701111 -0.00042333335 -0.00022894736
0.039581668 0 -0.019442106
-0.013581945 -0.00042333335 -0.017481579
-0.0073730559 0 -0.022971053
0.03065639 0 0.0029078948
0.0050447225 0.00042333335 -0.0049342103
-0.031044446 -0.00127 -0.0021894737
0.017850555 0 0.001731579
0.010089445 0.00042333335 0.001731579
0.041521944 0 -0.0021894737
0.031044446 0.00127 -0.00062105263
0.017074445 -0.00084666669 -0.0021894737
-0.010089445 -0.00042333335 -0.0057184212
0.029492224 0.00127 -0.00062105263
0.030268334 -0.00127 -0.0021894737
0.012805833 0.00042333335 -0.020226317
-0.022895278 0.00042333335 -0.014344737
0.0065969448 0.00127 -0.017481579
-0.002716389 0 0.0021236842
0.017074445 0 -0.019442106
0.038029447 0.00127 -0.017873684
0.0050447225 -0.00042333335 -0.0025815789
0.012805833 -0.00042333335 -0.017089473
0.040745836 0 -0.021794736
0.010089445 0.00042333335 -0.0045421054
-0.034148891 -0.00084666669 -0.017873684
-0.039193612 0.00127 -0.0010131579
-0.019014724 0.00127 -0.0010131579
-0.0042686113 -0.00127 -0.0017973684
0.027551945 0.00127 -0.01905
-0.040745836 0 -0.0080710528
0.04035778 -0.00084666669 -0.019442106
0.0050447225 -0.00042333335 -0.024539474
0.0050447225 0.00042333335 -0.011207894
-0.014358056 -0.00084666669 -0.019442106
0.02017889 0.00042333335 -0.017089473
0.0077611115 -0.00127 -0.0017973684
0.034536947 0 -0.0021894737
-0.03065639 0 -0.011207894
-0.033372778 -0.00127 -0.00062105263
-0.02017889 0 0.0013394736
0.014358056 0.00042333335 -0.0021894737
0.031044446 -0.00127 -0.00022894736
-0.024835557 0.00084666669 -0.019442106
0.019402778 0 -0.00022894736
0.02017889 -0.00042333335 -0.017873684
-0.015134167 0 -0.010423684
-0.0015522223 -0.00042333335 -0.017481579
-0.022119168 0.00042333335 -0.00022894736
0.0065969448 0 -0.00022894736
-0.026387779 -0.00127 -0.0010131579
-0.0050447225 -0.00042333335 -0.0065026316
-0.038805556 0 -0.019442106
-0.024447501 -0.00127 -0.0021894737
-0.012417778 0 0.0025157896
-0.022895278 0.00042333335 -0.017873684
0.04035778 0 -0.0076789474
0.0097013889 -0.00127 -0.00062105263
-0.0058208336 -0.00042333335 -0.019442106
-0.019790834 0 -0.0021894737
-0.017850555 0.00127 -0.0014052632
0.002716389 0 -0.016305264
0.012029722 0.00042333335 -0.00022894736
-0.03065639 0 -0.012776316
0.0046566669 -0.00042333335 -0.018657895
-0.0093133338 0.00042333335 -0.019442106
-0.0050447225 -0.00042333335 -0.01081579
-0.025223613 -0.00127 -0.018657895
-0.041133892 -0.00084666669 -0.01905
-0.010089445 -0.00042333335 -0.016697368
0.039581668 0.00042333335 -0.017481579
-0.022895278 -0.00042333335 -0.017089473
-0.035701111 0 -0.012384211
0.0050447225 0 0.00016315789
0.022895278 0.00042333335 -0.023363158
0.00077611115 0.00127 -0.00062105263
0.032208614 0.00042333335 -0.00022894736
-0.03065639 0 -0.014736842
0.025223613 0 -0.020226317
0.023283334 -0.00127 -0.0017973684
0.032984722 0 -0.0053263158
0.0019402779 0 -0.017481579
-0.0058208336 0.00127 -0.018265789
-0.010865556 -0.00127 -0.0014052632
-0.02017889 0 -0.020618422
-0.022895278 -0.00042333335 -0.016305264
0.013970001 0.00042333335 -0.019442106
-0.0034925002 0.00042333335 -0.00022894736
0.038805556 0.00127 -0.017481579
0.038805556 0.00127 -0.0010131579
-0.022895278 -0.00042333335 -0.0037578947
-0.02017889 0.00127 -0.0010131579
0.020566946 0 -0.011207894
-0.034925003 0.00084666669 -0.017873684
-0.002716389 0 -0.016697368
-0.032984722 0 -0.0084631583
0.019790834 -0.00127 -0.0021894737
-0.010089445 0 -0.0116
-0.018626668 -0.00042333335 -0.00022894736
0.024447501 -0.00042333335 -0.019442106
0.036089167 0 -0.017481579
-0.022895278 0 -0.012384211
-0.024059445 0.00127 -0.0017973684
0.031432502 0.00127 -0.0010131579
-0.019402778 0.00127 -0.0014052632
-0.025611667 0 -0.015128948
-0.040745836 0 -0.019834211
-0.0058208336 -0.00127 -0.018657895
-0.013581945 0.00127 -0.018265789
0 0.00042333335 -0.0041499999
-0.032596666 0.00042333335 -0.0021894737
-0.002716389 0.00042333335 -0.01905
0.01319389 -0.00042333335 -0.00022894736
-0.027551945 0.00127 -0.00062105263
0.0384175 0.00084666669 -0.019442106
0.025611667 0 0.001731579
-0.010089445 -0.00042333335 -0.01081579
-0.012805833 0.00042333335 -0.015128948
-0.035313059 0.00042333335 -0.019442106
-0.041521944 -0.00084666669 -0.017481579
0.014358056 0.00042333335 -0.018657895
0.035701111 0 -0.016305264
0.022895278 0.00042333335 -0.020618422
0 0 0.00055526313
-0.02017889 0 -0.0041499999
-0.0011641667 -0.00042333335 -0.018265789
0.010865556 -0.00042333335 -0.018657895
0.014746112 -0.00042333335 -0.018657895
0.005432778 0.00042333335 -0.017481579
0.020566946 0 -0.021010526
-0.0062088892 0.00127 -0.0014052632
-0.0050447225 0 -0.024147369
-0.037641391 0.00127 -0.0021894737
-0.0097013889 0.00127 -0.017481579
-0.022895278 -0.00084666669 -0.00022894736
0.022895278 0.00042333335 -0.012776316
0.02017889 0 -0.020618422
0.022119168 0.00042333335 -0.00022894736
0.0050447225 0.00127 -0.0017973684
0.019790834 -0.00084666669 -0.0021894737
0.027551945 0.00127 -0.018265789
0.02017889 0.00042333335 0.0013394736
-0.017850555 -0.00084666669 -0.01905
0.024447501 0.00127 -0.017873684
0.010089445 -0.00084666669 -0.0021894737
-0.012029722 -0.00127 -0.019442106
0.014746112 -0.00042333335 -0.018265789
0.018626668 0 -0.017481579
-0.026775835 -0.00084666669 -0.0021894737
-0.0097013889 -0.00042333335 -0.018265789
0.037253335 -0.00042333335 -0.017481579
-0.0085372226 0.00042333335 -0.0021894737
0.0023283334 0 0.0013394736
-0.015134167 0 0.0029078948
0.027163889 -0.00127 -0.00062105263
-0.0011641667 -0.00127 -0.0021894737
0.012805833 0.00042333335 -0.0025815789
-0.019402778 0.00042333335 -0.017481579
0.030268334 0 -0.0092473682
-0.033760834 0.00042333335 -0.0021894737
0.04035778 0 -0.0057184212
-0.0050447225 0.00042333335 -0.024539474
-0.024835557 -0.00127 -0.0010131579
0.022895278 0.00042333335 -0.0041499999
-0.034148891 0 -0.017481579
0.034536947 -0.00127 -0.01905
0.035313059 -0.00042333335 -0.0021894737
-0.0042686113 0.00127 -0.0010131579
0.01319389 -0.00127 -0.0010131579
0.002716389 0 0.0025157896
0.0046566669 -0.00084666669 -0.00022894736
0.026775835 0 -0.017481579
0.025223613 0 -0.020618422
-0.010089445 0 -0.0076789474
-0.010089445 -0.00042333335 -0.015521052
-0.005432778 0 -0.017481579
-0.030268334 0 -0.012384211
-0.015522223 0 -0.016305264
0.0077611115 0 -0.015128948
-0.0046566669 -0.00127 -0.00062105263
0.010089445 -0.00042333335 -0.0061105262
0.0069850003 0.00127 -0.0021894737
0.02017889 -0.00042333335 -0.013168421
0.040745836 0 -0.011207894
-0.014358056 0 -0.0021894737
-0.036477223 0 -0.017481579
0.020566946 0.00127 -0.0017973684
-0.018626668 0 -0.00022894736
0.012805833 -0.00042333335 -0.0033657895
-0.013581945 0.00042333335 -0.017481579
-0.0023283334 0.00042333335 -0.018657895
0.026775835 0.00127 -0.0014052632
0.02017889 0.00127 -0.018265789
-0.020955 -0.00042333335 -0.0021894737
0.017850555 0 -0.025715789
0.024835557 0.00042333335 -0.00022894736
-0.0085372226 0.00084666669 -0.0021894737
-0.014746112 -0.00127 -0.00062105263
-0.0023283334 0.00042333335 -0.00022894736
-0.040745836 0.00084666669 -0.017873684
-0.010089445 -0.00127 -0.0010131579
0.0077611115 0 -0.0033657895
0.0097013889 -0.00042333335 -0.017481579
-0.035701111 0 -0.013168421
-0.03065639 0.00084666669 -0.0021894737
-0.025223613 0 -0.0065026316
-0.012805833 -0.00042333335 -0.0061105262
-0.015134167 0 -0.010031579
-0.00077611115 -0.00127 -0.0021894737
-0.024059445 -0.00127 -0.019442106
0.0093133338 -0.00042333335 -0.017481579
0.0031044446 0.00042333335 -0.017481579
0.012805833 0 -0.010031579
0.04035778 0.00042333335 -0.0021894737
-0.0023283334 0 0.001731579
-0.0050447225 0.00042333335 -0.023363158
0.034536947 -0.00042333335 -0.018657895
-0.0073730559 0.00084666669 -0.019442106
0.025223613 0 -0.010031579
-0.040745836 0 0.001731579
0.017462501 0.00127 -0.0017973684
0.037253335 -0.00042333335 -0.01905
-0.0077611115 0.00042333335 -0.0045421054
-0.0050447225 0 0.0013394736
-0.0077611115 0 -0.0084631583
0.0015522223 -0.00084666669 -0.00022894736
-0.022895278 0.00042333335 -0.018265789
-0.00077611115 0.00127 -0.00062105263
0.019790834 0.00042333335 -0.018657895
0.013581945 -0.00127 -0.0021894737
0.026775835 0.00084666669 -0.018265789
-0.017850555 0.00042333335 -0.0041499999
0.03065639 0 -0.0053263158
-0.0046566669 -0.00127 -0.018657895
0.041133892 -0.00127 -0.0010131579
0.02017889 0.00042333335 -0.011207894
0.00038805557 0.00127 -0.0021894737
0.0031044446 -0.00127 -0.00022894736
0 0 -0.012776316
0.0069850003 -0.00042333335 -0.0021894737
-0.031044446 -0.00127 -0.01905
0.0015522223 0 -0.00022894736
-0.012029722 0 -0.00022894736
0.021731112 -0.00084666669 -0.0021894737
-0.0093133338 -0.00084666669 -0.0021894737
-0.010089445 0 -0.010031579
-0.010089445 -0.00042333335 -0.0061105262
0.039581668 0.00084666669 -0.017481579
-0.015522223 0.00042333335 -0.018657895
0.010089445 0 0.001731579
-0.015910279 -0.00127 -0.00062105263
0.0089252777 -0.00084666669 -0.0021894737
0.012805833 -0.00127 -0.01905
-0.024447501 0 -0.00022894736
0.022507222 0.00084666669 -0.019442106
0.019790834 -0.00127 -0.018657895
0.015134167 0 -0.0065026316
-0.038805556 -0.00042333335 -0.017481579
-0.0089252777 0.00127 -0.0021894737
0.016298333 -0.00127 -0.019442106
-0.0097013889 -0.00127 -0.00062105263
0.012805833 -0.00127 -0.00022894736
-0.03065639 0 -0.0061105262
0.039193612 0 -0.00022894736
-0.0023283334 0 -0.024539474
0.0104775 -0.00127 -0.017873684
-0.017462501 0.00127 -0.01905
-0.029492224 -0.00127 -0.018265789
0.029492224 -0.00127 -0.017481579
0.012805833 0.00042333335 -0.011992105
0.035313059 0 0.00094736845
0.0023283334 0 -0.020618422
-0.0023283334 -0.00127 -0.00062105263
-0.020566946 0 -0.0049342103
-0.0077611115 0.00042333335 -0.0049342103
0.04035778 0 0.0013394736
0.015522223 -0.00042333335 -0.019442106
-0.0050447225 -0.00042333335 -0.017873684
0.039969724 -0.00042333335 -0.01905
0.020955 0.00042333335 -0.00022894736
0.027940001 0.00127 -0.018657895
-0.027551945 0.00127 -0.0010131579
-0.013970001 -0.00042333335 -0.018657895
-0.0077611115 -0.00042333335 -0.018657895
0.036089167 -0.00127 -0.0014052632
0.013970001 0.00042333335 -0.018265789
-0.038805556 -0.00127 -0.0014052632
0.014358056 -0.00042333335 -0.019442106
0.002716389 0 -0.021010526
0.027163889 -0.00127 -0.018265789
-0.032984722 0.00042333335 -0.015913159
-0.015134167 0.00042333335 -0.007286842
-0.015134167 -0.00042333335 -0.017873684
0.033372778 0.00127 -0.018657895
0.031432502 0.00042333335 -0.017481579
0.011641667 -0.00127 -0.01905
-0.021731112 -0.00127 -0.0014052632
0.033760834 0.00084666669 -0.00022894736
-0.0023283334 0 -0.0061105262
0.037253335 -0.00127 -0.018265789
0.0019402779 0.00042333335 -0.01905
0.0093133338 0.00042333335 -0.01905
0.022895278 0.00042333335 -0.0057184212
-0.034536947 -0.00127 -0.0017973684
0.023283334 0.00084666669 -0.019442106
0.0073730559 0 -0.010031579
0.027940001 0.00127 -0.01905
0.02988028 0.00127 -0.00062105263
-0.015522223 -0.00042333335 -0.018657895
0.020566946 0 0.0021236842
-0.032984722 0.00042333335 -0.018265789
0.031432502 0.00127 -0.00062105263
-0.0077611115 0.00042333335 -0.0096394736
-0.0077611115 0 -0.0025815789
0.041521944 0 -0.00062105263
-0.017850555 0.00042333335 -0.018265789
0 0.00042333335 -0.006894737
-0.030268334 0 -0.0061105262
-0.039581668 -0.00042333335 -0.0021894737
0.0073730559 0 -0.012384211
-0.041133892 0.00042333335 -0.0021894737
0.002716389 0.00127 -0.0010131579
-0.014746112 -0.00084666669 -0.0021894737
0.0077611115 0 -0.0037578947
-0.02367139 0.00084666669 -0.0021894737
0.02367139 0.00127 -0.00022894736
-0.0046566669 0.00127 -0.0021894737
-0.015134167 0 -0.021402631
-0.04035778 0 -0.0065026316
0.038029447 0 -0.022971053
0.031820558 0.00084666669 -0.017873684
-0.022895278 -0.00042333335 -0.0029736841
0.022507222 -0.00084666669 -0.00022894736
0.03065639 0 -0.0096394736
0.0050447225 -0.00042333335 -0.0096394736
0.029492224 -0.00127 -0.0017973684
0.01319389 0.00084666669 -0.0021894737
0.041133892 0.00042333335 -0.00022894736
0.0050447225 0.00042333335 -0.01081579
0.0089252777 -0.00042333335 -0.01905
0.0089252777 0 -0.017481579
0.0089252777 0.00084666669 -0.00022894736
-0.039969724 -0.00042333335 -0.019442106
0.04035778 0 -0.014344737
0.014358056 0.00084666669 -0.0021894737
-0.012805833 0.00042333335 -0.018657895
0.03065639 0 0.00055526313
-0.038029447 0 -0.020618422
0.037641391 -0.00127 -0.0010131579
0.0050447225 0 0.0025157896
-0.025611667 0 0.00016315789
0.036865279 0.00127 -0.017481579
0.002716389 0 -0.0025815789
0.017850555 0 -0.015128948
0.0062088892 0.00042333335 -0.00022894736
-0.019402778 0.00127 -0.00022894736
0.024835557 0.00042333335 -0.019442106
0.0015522223 0.00127 -0.017481579
0.011641667 -0.00042333335 -0.017481579
-0.02017889 0 -0.016697368
-0.041133892 -0.00127 -0.0010131579
0.0065969448 0.00084666669 -0.0021894737
-0.00038805557 0 -0.00022894736
0.0050447225 0 -0.012776316
-0.014358056 -0.00127 -0.0010131579
0.019790834 0.00127 -0.0010131579
-0.0069850003 -0.00042333335 -0.017481579
-0.040745836 -0.00084666669 -0.0021894737
0.027163889 0 -0.00022894736
-0.0031044446 0.00042333335 -0.018657895
0.023283334 -0.00042333335 -0.017481579
0.002716389 -0.00127 -0.0017973684
-0.010089445 0 -0.0045421054
0.02017889 0.00042333335 -0.0076789474
-0.0038805557 -0.00042333335 -0.019442106
0.0031044446 -0.00042333335 -0.017481579
0.02017889 0 -0.022578947
-0.025999723 0.00084666669 -0.01905
-0.033760834 0.00084666669 -0.0021894737
-0.0085372226 -0.00127 -0.0014052632
-0.022895278 0 -0.0076789474
0.034536947 0.00127 -0.019442106
-0.032208614 -0.00042333335 -0.017481579
-0.035701111 0 -0.015128948
-0.013970001 -0.00042333335 -0.017873684
-0.0093133338 0.00042333335 -0.017873684
0.017850555 -0.00042333335 0.00016315789
-0.0077611115 0 -0.011992105
0.033372778 0.00127 -0.018265789
0.039969724 -0.00127 -0.00062105263
0.036865279 0.00127 -0.0021894737
0.0077611115 -0.00127 -0.019442106
0.0050447225 0.00042333335 -0.021402631
-0.022119168 0.00042333335 -0.0021894737
0.015522223 0 -0.015521052
-0.0050447225 0 -0.011207894
0.031432502 -0.00084666669 -0.018265789
-0.0038805557 -0.00127 -0.017481579
0.038805556 0.00084666669 -0.017481579
0.011641667 0.00127 -0.0017973684
0.0093133338 -0.00042333335 -0.019442106
0.040745836 0 -0.0057184212
0.014746112 0.00084666669 -0.01905
-0.032984722 0 -0.0037578947
0.012029722 0.00042333335 -0.018265789
-0.032984722 0 -0.015128948
-0.0065969448 -0.00042333335 -0.018265789
0.00038805557 -0.00127 -0.0014052632
0.022119168 0.00127 -0.0010131579
0.031432502 -0.00084666669 -0.00022894736
0.019014724 0.00127 -0.01905
0.027940001 0 -0.020226317
0.031820558 -0.00127 -0.01905
0.035701111 0 -0.0084631583
-0.00038805557 0.00127 -0.017481579
0.0093133338 -0.00127 -0.019442106
0 -0.00042333335 -0.013168421
0.025999723 0.00127 -0.00022894736
0.032984722 0 -0.023755264
0.024447501 -0.00084666669 -0.018657895
-0.002716389 0 -0.024147369
-0.032208614 -0.00127 -0.00022894736
0.041133892 -0.00084666669 -0.017481579
-0.0050447225 0.00127 -0.017481579
0 0 -0.0092473682
-0.0097013889 0.00042333335 -0.017481579
0.025223613 0 -0.025715789
0.0019402779 0.00127 -0.00062105263
-0.032984722 0 -0.0065026316
0.0023283334 0 -0.015913159
0.0384175 -0.00042333335 -0.018265789
0.011253611 -0.00127 -0.019442106
0.021343056 0.00127 -0.0014052632
0.022507222 -0.00084666669 -0.019442106
0.031044446 0.00127 -0.0017973684
-0.040745836 0 0.00094736845
0.0077611115 0 -0.0061105262
0.027163889 0.00042333335 -0.00022894736
0.025999723 0.00042333335 -0.019442106
-0.035701111 -0.00127 -0.0010131579
-0.031432502 -0.00127 -0.0010131579
0.032208614 0.00127 -0.0010131579
0.028716112 -0.00127 -0.017873684
0.023283334 -0.00127 -0.018265789
0.010089445 0.00042333335 -0.0029736841
-0.0011641667 -0.00084666669 -0.0021894737
-0.026775835 -0.00042333335 -0.019442106
0.036477223 -0.00127 -0.017873684
0.041521944 0.00084666669 -0.017481579
0.013970001 -0.00127 -0.0010131579
-0.015134167 0.00042333335 -0.015128948
-0.017074445 -0.00084666669 -0.01905
0.012417778 0.00127 -0.018657895
-0.00077611115 -0.00127 -0.017481579
0.0077611115 0 -0.0025815789
-0.012805833 -0.00042333335 -0.022186842
-0.0093133338 0.00042333335 -0.018265789
0.035313059 0 -0.006894737
-0.026387779 -0.00084666669 -0.018265789
-0.0077611115 0 -0.010031579
0 -0.00042333335 -0.019442106
-0.032984722 0 -0.013560526
-0.028328057 0.00127 -0.0021894737
0.002716389 0 -0.012384211
-0.0085372226 -0.00084666669 -0.00022894736
-0.0023283334 0 -0.010423684
-0.035313059 0 -0.021010526
-0.028716112 -0.00042333335 -0.019442106
-0.012805833 -0.00042333335 -0.023755264
-0.013581945 -0.00042333335 -0.018265789
-0.0042686113 0.00127 -0.017481579
0.015522223 0.00042333335 -0.019834211
0.023283334 -0.00127 -0.0014052632
0.0050447225 0.00042333335 -0.0116
0.0089252777 -0.00127 -0.00022894736
-0.027940001 0 -0.0092473682
-0.038029447 -0.00127 -0.017873684
-0.034148891 0.00042333335 -0.0021894737
-0.0019402779 0 -0.017481579
0.00077611115 -0.00127 -0.00022894736
-0.010089445 0 0.001731579
-0.017850555 -0.00042333335 0.0021236842
0.002716389 0 -0.0029736841
0.028328057 -0.00127 -0.0021894737
0.040745836 0 -0.014344737
-0.010089445 -0.00042333335 -0.017089473
-0.012417778 0 -0.0080710528
0.041521944 0.00084666669 -0.017873684
-0.038029447 -0.00127 -0.019442106
0.040745836 0 0.0013394736
-0.020955 0 -0.017481579
0.035701111 0 -0.013168421
0.02017889 0.00042333335 0.00016315789
-0.012805833 0.00042333335 -0.021010526
0.015134167 0.00042333335 -0.014736842
0.036477223 -0.00084666669 -0.00022894736
-0.04035778 0 0.0013394736
0.036089167 0 -0.019442106
-0.039969724 -0.00127 -0.018657895
0.015134167 0.00084666669 -0.0021894737
0.021343056 -0.00127 -0.0021894737
-0.036477223 0.00127 -0.0014052632
-0.031432502 0.00084666669 -0.00022894736
0.02017889 0.00084666669 -0.018657895
0.03065639 0 -0.016305264
-0.030268334 -0.00042333335 -0.00022894736
0.017850555 -0.00042333335 -0.013560526
-0.029492224 -0.00127 -0.00022894736
0.012417778 0 0.001731579
0.034536947 0.00084666669 -0.019442106
-0.028328057 -0.00127 -0.018265789
0.034925003 -0.00127 -0.0021894737
0.025223613 0 -0.019834211
0.019014724 0.00127 -0.018265789
-0.010089445 0.00042333335 -0.021010526
-0.027551945 -0.00127 -0.0021894737
0.027940001 0.00127 -0.00022894736
0.0097013889 0 -0.0021894737
0.022119168 -0.00127 -0.019442106
0.022895278 0.00042333335 -0.021010526
-0.012029722 0.00127 -0.00022894736
-0.025223613 0.00127 -0.018265789
0.021731112 0.00042333335 -0.018265789
0.00038805557 -0.00127 -0.017481579
-0.017462501 -0.00127 -0.019442106
0.027163889 0.00084666669 -0.018265789
0.029492224 0.00042333335 -0.0021894737
0.035701111 0 -0.022186842
0.017850555 0 -0.0092473682
-0.020566946 -0.00127 -0.0010131579
0.015522223 0 -0.0084631583
-0.017850555 0.00042333335 -0.023755264
-0.015134167 0 -0.015521052
0.010089445 -0.00042333335 -0.0116
0.015910279 -0.00084666669 -0.00022894736
0.0081491666 -0.00084666669 -0.0021894737
-0.035701111 0 -0.0096394736
-0.021343056 0.00042333335 -0.017873684
0.039969724 0.00127 -0.017481579
0.040745836 0.00127 -0.018265789
-0.023283334 0.00084666669 -0.00022894736
0.024835557 -0.00042333335 -0.017873684
-0.030268334 0 -0.015128948
0.031820558 0.00127 -0.0017973684
-0.024835557 -0.00084666669 -0.00022894736
0.020955 0 -0.019442106
-0.0073730559 0 0.0025157896
-0.010089445 0.00042333335 -0.007286842
0.019014724 0.00042333335 -0.017873684
0.0050447225 0.00042333335 -0.013168421
0.0031044446 0.00042333335 -0.018657895
0.030268334 0.00127 -0.01905
0.019402778 0.00042333335 -0.019442106
0.015134167 0 -0.022578947
-0.035701111 -0.00042333335 -0.019834211
0.0097013889 0.00084666669 -0.0021894737
-0.0058208336 -0.00042333335 -0.0021894737
0.04191 0.00042333335 -0.018657895
0 0.00042333335 -0.019834211
0.012805833 0.00042333335 -0.0049342103
0.002716389 0 -0.0049342103
0.005432778 0.00042333335 -0.018265789
0.020566946 0 -0.020618422
-0.0050447225 0 -0.016305264
-0.014358056 -0.00042333335 -0.018265789
-0.0023283334 -0.00127 -0.00022894736
-0.026775835 -0.00127 -0.0010131579
0.014746112 -0.00042333335 -0.0021894737
-0.0050447225 -0.00042333335 -0.011992105
-0.022895278 0.00042333335 -0.022971053
0.014746112 -0.00042333335 -0.017481579
0.012417778 0 -0.0092473682
0.0046566669 0.00042333335 -0.0021894737
-0.027940001 -0.00127 -0.019442106
-0.031044446 -0.00042333335 -0.017481579
0.017074445 -0.00042333335 -0.017481579
0.040745836 0 -0.020618422
0.019790834 -0.00084666669 -0.00022894736
0.002716389 0.00042333335 -0.018265789
-0.031820558 -0.00127 -0.00022894736
0.037641391 -0.00127 -0.00062105263
-0.012029722 0 -0.0021894737
-0.035701111 0 -0.0084631583
0.038029447 -0.00042333335 -0.013560526
0.02367139 -0.00127 -0.00062105263
0.026775835 -0.00127 -0.018265789
0.02367139 0 -0.019442106
0.0031044446 0.00042333335 -0.0021894737
0.0073730559 0 -0.011207894
-0.014746112 -0.00127 -0.019442106
0 0.00042333335 -0.017089473
0.025611667 -0.00127 -0.0017973684
0.0050447225 0 -0.0080710528
0.026775835 0.00084666669 -0.0021894737
-0.026387779 0.00084666669 -0.0021894737
-0.012417778 0 -0.0076789474
0.028716112 0.00127 -0.019442106
-0.011641667 0 -0.019442106
0.034536947 -0.00084666669 -0.017873684
-0.0097013889 0 -0.017481579
-0.025223613 0 0.001731579
-0.015910279 0.00042333335 -0.017873684
-0.010089445 0 -0.020226317
0.012805833 0 -0.024147369
-0.038805556 0.00084666669 -0.017481579
-0.0023283334 0.00042333335 -0.017873684
-0.0034925002 -0.00127 -0.0010131579
-0.012805833 0 -0.019834211
0.032984722 0 -0.0041499999
0.013970001 -0.00042333335 -0.017873684
-0.012417778 0 -0.0037578947
-0.030268334 0 -0.020226317
-0.024447501 0.00127 -0.00022894736
0.017462501 0.00042333335 -0.019442106
-0.012805833 -0.00042333335 -0.018265789
-0.0019402779 -0.00042333335 -0.017873684
0.020566946 0 -0.024147369
0.012805833 -0.00084666669 -0.019442106
-0.0073730559 0 -0.024539474
-0.0089252777 -0.00127 -0.0014052632
0.025223613 0 -0.023755264
-0.0042686113 -0.00127 -0.0014052632
-0.0085372226 0 -0.0021894737
0.023283334 0.00127 -0.01905
-0.0089252777 0.00127 -0.019442106
0.033372778 0.00127 -0.00062105263
-0.002716389 0.00042333335 -0.0041499999
0.025611667 0 -0.010031579
0.034925003 0.00127 -0.00062105263
-0.0042686113 0 -0.017481579
0.04035778 0 -0.0025815789
-0.010089445 -0.00042333335 -0.011207894
0.027940001 -0.00127 -0.01905
-0.017850555 0.00042333335 -0.017481579
-0.035701111 0.00084666669 -0.019442106
0 0 -0.022186842
-0.034925003 -0.00127 -0.00062105263
0.026775835 0.00127 -0.019442106
-0.012805833 -0.00042333335 -0.015521052
0.025223613 -0.00127 -0.00022894736
-0.012805833 -0.00127 -0.019442106
-0.010865556 -0.00042333335 -0.018265789
-0.0089252777 -0.00127 -0.00062105263
0.015522223 0.00084666669 -0.017481579
-0.010089445 0.00042333335 0.0025157896
0.0062088892 0.00127 -0.00062105263
0.010865556 0.00042333335 -0.00022894736
0.03065639 -0.00127 -0.01905
0.022895278 0 -0.010423684
-0.039969724 0.00127 -0.00062105263
0.039193612 0.00127 -0.0014052632
-0.03065639 -0.00084666669 -0.0021894737
-0.029492224 -0.00042333335 -0.0021894737
0.020955 -0.00127 -0.0014052632
0.027163889 0.00127 -0.00022894736
-0.019790834 0 -0.019442106
0.0062088892 -0.00127 -0.0017973684
-0.011641667 0.00042333335 -0.017481579
0.016686389 0.00042333335 -0.0021894737
-0.022895278 0 -0.022186842
-0.0023283334 0.00042333335 -0.019442106
-0.011641667 0.00127 -0.0014052632
0.0384175 -0.00127 -0.0021894737
-0.012805833 0 -0.0116
0.037253335 0.00042333335 -0.00022894736
0.0042686113 0 -0.019442106
0.025223613 -0.00127 -0.018265789
-0.0073730559 0 -0.02493158
-0.030268334 0 -0.02493158
-0.032984722 0.00042333335 -0.015128948
-0.0031044446 -0.00042333335 -0.00022894736
-0.0073730559 0 -0.0080710528
0.03065639 0 -0.013952632
-0.03065639 0 -0.0088552628
-0.025999723 -0.00127 -0.018657895
0.010865556 -0.00042333335 -0.018265789
0.038029447 -0.00042333335 0.00016315789
-0.010089445 -0.00127 -0.00022894736
-0.015522223 0 -0.0057184212
-0.03065639 0 -0.021402631
0.024835557 0.00127 -0.01905
-0.033760834 0 -0.00022894736
0.025611667 0 -0.013952632
0.022119168 -0.00084666669 -0.018657895
0.0073730559 0 -0.015913159
0.021343056 0.00127 -0.018265789
0.0058208336 0.00127 -0.019442106
0.0097013889 -0.00042333335 -0.018657895
-0.034148891 -0.00127 -0.0021894737
0 0 -0.02493158
0.021343056 0.00042333335 -0.017873684
-0.020566946 -0.00127 -0.00022894736
-0.002716389 0 -0.015913159
0.0023283334 0 -0.011992105
0.029492224 0.00127 -0.01905
-0.010089445 -0.00042333335 -0.018265789
0.037641391 -0.00127 -0.017481579
0.031820558 0 -0.017481579
0.015910279 -0.00127 -0.0021894737
0 0.00042333335 -0.0053263158
0.032596666 -0.00084666669 -0.017873684
-0.015134167 -0.00042333335 -0.019834211
-0.017850555 0.00042333335 -0.022971053
0.024447501 0.00127 -0.018265789
0.0050447225 -0.00042333335 -0.022186842
-0.025999723 0.00127 -0.0014052632
0.0011641667 0.00127 -0.0017973684
0.017462501 -0.00084666669 -0.00022894736
0.002716389 0 -0.01081579
0.017850555 0 -0.013168421
-0.02017889 -0.00042333335 -0.0080710528
0.031044446 0.00084666669 -0.019442106
0.027163889 0.00127 -0.0014052632
0.010089445 0.00127 -0.0021894737
0.0097013889 0 -0.019442106
-0.028716112 0.00084666669 -0.0021894737
-0.011253611 -0.00127 -0.00062105263
0.016686389 -0.00127 -0.018265789
-0.0046566669 0.00127 -0.00062105263
0.029104168 0.00127 -0.018657895
0.019402778 0.00042333335 -0.018265789
-0.036477223 -0.00084666669 -0.017873684
0.02017889 0 -0.020226317
0.0073730559 0 -0.0025815789
0.015522223 0 -0.006894737
0.027940001 0.00127 -0.0017973684
0.038029447 -0.00042333335 -0.015128948
-0.030268334 0 -0.020618422
0.017462501 -0.00127 -0.00062105263
0.012417778 0.00042333335 -0.017481579
0.032208614 0.00127 -0.017481579
0.03065639 0.00127 -0.0010131579
0.015134167 0.00042333335 -0.015128948
-0.0023283334 -0.00127 -0.0010131579
-0.025611667 0 -0.0033657895
0.029492224 -0.00042333335 -0.017481579
-0.017462501 -0.00042333335 -0.0021894737
0.040745836 0 -0.014736842
0.015134167 0 -0.010423684
-0.0050447225 0 -0.023755264
0.0011641667 -0.00127 -0.018265789
0 0 0.001731579
0.012029722 0.00127 -0.00022894736
0.0023283334 0.00042333335 -0.00022894736
0.02017889 0.00042333335 0.00055526313
-0.0011641667 -0.00042333335 -0.019442106
-0.015910279 0.00084666669 -0.019442106
-0.041521944 -0.00042333335 -0.0021894737
0.015134167 -0.00127 -0.00062105263
0.013970001 0.00127 -0.0014052632
-0.0097013889 0.00127 -0.0021894737
-0.020566946 0 -0.014736842
0.019790834 -0.00127 -0.018265789
0.020955 0.00127 -0.01905
0.0046566669 -0.00042333335 -0.00022894736
-0.03065639 0 -0.022971053
-0.021731112 0.00084666669 -0.0021894737
0.036089167 -0.00127 -0.0017973684
-0.022895278 -0.00042333335 -0.0092473682
0.038029447 -0.00042333335 -0.014736842
0.015134167 0.00042333335 -0.017873684
-0.040745836 0.00042333335 -0.00022894736
0.0011641667 0.00042333335 -0.017873684
-0.0015522223 -0.00127 -0.017481579
-0.017462501 0.00127 -0.0010131579
-0.015134167 0 -0.0065026316
-0.0023283334 -0.00084666669 -0.0021894737
-0.030268334 0 -0.023363158
0.0104775 0.00042333335 -0.019442106
0.020566946 0 -0.023363158
0.019014724 0.00127 -0.00062105263
-0.0034925002 0.00042333335 -0.017481579
0.035701111 0 -0.022971053
0.0073730559 -0.00084666669 -0.00022894736
0.0077611115 0 -0.017089473
-0.0093133338 0.00084666669 -0.019442106
0.0023283334 0 0.0021236842
0.025223613 -0.00084666669 -0.0021894737
-0.038029447 -0.00127 -0.018657895
-0.017850555 -0.00042333335 -0.016305264
0.012417778 0 0.0013394736
-0.034148891 0.00084666669 -0.0021894737
-0.02367139 0 -0.00022894736
-0.035313059 0 0.00016315789
-0.036865279 -0.00127 -0.0010131579
-0.022507222 0.00127 -0.0010131579
0.012805833 0.00127 -0.01905
0.0050447225 0 -0.015128948
0.039581668 -0.00042333335 -0.00022894736
0.038029447 -0.00042333335 -0.016697368
0.028328057 0.00084666669 -0.00022894736
0.0050447225 0.00042333335 0.00094736845
0.025611667 0 -0.021010526
-0.017850555 0 -0.015128948
-0.0058208336 0.00127 -0.00022894736
0.0050447225 -0.00042333335 -0.0116
-0.010089445 0 -0.015521052
-0.02017889 0 -0.021794736
0.017462501 0.00042333335 -0.0021894737
0.010089445 -0.00084666669 -0.00022894736
-0.022895278 0 -0.0049342103
0 0 -0.0076789474
0.033372778 0.00084666669 -0.0021894737
0.037253335 0.00127 -0.017481579
0.036089167 -0.00042333335 -0.00022894736
0.036477223 0 -0.0021894737
0.035313059 -0.00127 -0.0017973684
-0.0077611115 0 -0.0092473682
0.0065969448 -0.00042333335 -0.017481579
0.025999723 -0.00042333335 -0.0021894737
0.031044446 0.00127 -0.01905
0.018626668 -0.00042333335 -0.0021894737
-0.0019402779 0.00127 -0.017481579
-0.012805833 0 -0.02493158
-0.016686389 -0.00127 -0.019442106
0.020955 0.00084666669 -0.00022894736
-0.020566946 0 -0.015913159
0.00077611115 -0.00042333335 -0.018265789
0.017462501 0.00042333335 -0.018657895
0.034536947 -0.00127 -0.017481579
0.010089445 0.00042333335 -0.010423684
0.002716389 0 -0.0116
0.0089252777 0.00084666669 -0.019442106
0.012417778 0.00127 -0.01905
-0.0104775 -0.00042333335 -0.0021894737
-0.0046566669 0 -0.00022894736
-0.010089445 0.00042333335 -0.0053263158
-0.032208614 -0.00084666669 -0.0021894737
0.027940001 0.00042333335 -0.014736842
0.0077611115 -0.00042333335 -0.007286842
0.025223613 0 -0.021010526
0.032596666 -0.00042333335 -0.019442106
-0.02367139 -0.00127 -0.0017973684
0.011641667 0.00084666669 -0.0021894737
-0.017074445 0.00042333335 -0.019442106
-0.02988028 0.00127 -0.0010131579
-0.035701111 0 -0.025323683
0.014358056 0.00042333335 -0.00022894736
0.031820558 0 -0.019442106
-0.012805833 -0.00042333335 -0.021794736
-0.002716389 0 -0.011207894
0.002716389 0 0.00094736845
0.010089445 0 -0.022971053
0.031044446 -0.00084666669 -0.019442106
-0.032596666 0 -0.0021894737
0.0081491666 0.00127 -0.017873684
-0.012805833 0.00127 -0.0021894737
0.0058208336 0 -0.017481579
-0.034148891 -0.00127 -0.0017973684
0.0073730559 -0.00127 -0.0017973684
-0.0023283334 0.00042333335 -0.018265789
-0.017850555 0.00042333335 -0.0084631583
-0.020566946 0.00127 -0.00022894736
-0.02988028 0.00042333335 -0.018265789
-0.03065639 -0.00042333335 -0.00022894736
-0.017850555 0.00042333335 -0.010031579
0.032984722 0 -0.0116
-0.012805833 -0.00042333335 -0.024147369
0.012805833 -0.00042333335 -0.025323683
-0.0019402779 0.00127 -0.00022894736
0.013581945 0.00042333335 -0.018657895
-0.022895278 0.00042333335 -0.020618422
0.0384175 0.00042333335 -0.00022894736
-0.022119168 -0.00084666669 -0.019442106
-0.034536947 0.00084666669 -0.0021894737
-0.025611667 -0.00127 -0.01905
-0.020566946 0 -0.015128948
-0.029104168 -0.00042333335 -0.00022894736
-0.0042686113 0.00084666669 -0.0021894737
-0.0046566669 -0.00042333335 -0.0021894737
0.032208614 -0.00042333335 -0.019442106
-0.032596666 0.00127 -0.00062105263
0.013581945 0.00127 -0.0021894737
0.031432502 0.00127 -0.017481579
0.010089445 -0.00042333335 -0.016305264
0.022119168 -0.00042333335 -0.0021894737
0.015522223 0 -0.025323683
0.012029722 -0.00042333335 -0.018657895
0.0015522223 -0.00042333335 -0.017873684
-0.04035778 0 -0.014736842
0.012417778 0 -0.0033657895
-0.031820558 0.00042333335 -0.017873684
0.0058208336 0.00084666669 -0.00022894736
0.035701111 0 -0.015913159
0.0050447225 0.00042333335 -0.015521052
-0.017850555 -0.00042333335 -0.007286842
-0.032984722 0.00127 -0.00062105263
-0.0046566669 0.00127 -0.00022894736
-0.0081491666 -0.00127 -0.019442106
-0.02988028 0.00127 -0.00022894736
-0.036865279 -0.00127 -0.0014052632
-0.025223613 0 -0.015521052
-0.0019402779 0.00042333335 -0.017481579
-0.04035778 0.00127 -0.0014052632
0.019790834 -0.00127 -0.00022894736
0.020566946 -0.00127 -0.00062105263
0.040745836 -0.00084666669 -0.017481579
0.012805833 0 -0.0049342103
0.014746112 0 -0.0021894737
-0.02367139 -0.00042333335 -0.0021894737
-0.020566946 -0.00042333335 -0.019834211
-0.025611667 0 -0.022578947
0.0073730559 0 -0.015128948
-0.010865556 0.00042333335 -0.017873684
0.0050447225 -0.00042333335 -0.018657895
0.022119168 0.00127 -0.0014052632
-0.022895278 -0.00042333335 -0.022186842
-0.015134167 0.00042333335 -0.0076789474
0.020955 0.00127 -0.019442106
0.0081491666 0 -0.0021894737
-0.024059445 -0.00042333335 -0.018265789
0.012029722 0.00042333335 -0.019442106
0.037641391 -0.00042333335 -0.0021894737
0.020566946 0 -0.0096394736
0.0077611115 0 0.00094736845
0.012417778 -0.00127 -0.00062105263
-0.0077611115 0 -0.012776316
-0.019402778 -0.00127 -0.0010131579
0.04035778 0 -0.01081579
-0.036865279 -0.00127 -0.0021894737
0.034925003 -0.00127 -0.0017973684
0.041521944 0 -0.019442106
0.039193612 -0.00127 -0.018265789
0.027940001 0.00042333335 -0.015128948
0.00077611115 -0.00084666669 -0.00022894736
-0.024059445 -0.00127 -0.0021894737
0.032984722 0 -0.021794736
-0.0050447225 -0.00042333335 -0.013168421
-0.014358056 0.00127 -0.017873684
0.015134167 -0.00127 -0.017873684
0.010089445 -0.00042333335 -0.018657895
0.0089252777 0.00127 -0.017873684
0.0015522223 -0.00042333335 -0.019442106
0.04035778 0 -0.012776316
-0.02017889 -0.00042333335 -0.0088552628
-0.011641667 -0.00042333335 -0.01905
0.022895278 -0.00127 -0.0010131579
-0.0034925002 -0.00042333335 -0.00022894736
-0.010089445 -0.00127 -0.0021894737
-0.017850555 -0.00042333335 -0.013168421
-0.020566946 0 -0.013952632
0.025223613 0 -0.013952632
-0.029492224 0.00042333335 -0.018657895
0.014358056 0.00042333335 -0.017481579
-0.03065639 -0.00127 -0.00062105263
0.0034925002 -0.00042333335 -0.0021894737
0.010089445 0.00042333335 -0.0025815789
-0.036089167 -0.00127 -0.0014052632
-0.035701111 0 -0.010423684
0.030268334 0 -0.0061105262
-0.015134167 0 -0.0057184212
