# .PCD v0.7 - Point Cloud Data file format
VERSION 0.7
FIELDS x y z
SIZE 4 4 4
TYPE F F F
COUNT 1 1 1
WIDTH 1202
HEIGHT 1
VIEWPOINT 0 0 0 1 0 0 0
POINTS 1202
DATA ascii
-0.0076200003 -0.00034636364 -0.018394623
0.010309412 0.00011545455 -0.0087774191
0.0051547061 -0.00034636364 -0.025998924
0.005827059 0.00127 -0.0013967741
-0.0026894119 0.00011545455 -0.0096720429
0.0051547061 -0.00034636364 0.0021817205
-0.0076200003 0.00034636364 -0.03226129
0.0073958826 0.00011545455 -0.028235484
-0.010085294 -0.00034636364 0.0017344087
0.00022411766 -0.00034636364 -0.03226129
0.0060511767 -0.00011545455 -0.0022913977
0.0015688236 -0.00127 -5.4838645e-05
-0.0042582355 0.00011545455 -0.0022913977
0.0049305884 -0.00011545455 -0.0040806448
-0.010085294 0.00011545455 -0.015934408
0.0076200003 0.00034636364 -0.017052688
-0.0082923528 0.00080818182 -0.0022913977
-0.0073958826 0.00011545455 0.0019580645
-0.0073958826 -0.00011545455 -0.017947311
-0.006499412 0.00127 -5.4838645e-05
0.0078441175 -0.00011545455 -0.010343011
0.00022411766 0.00034636364 -0.024433333
-0.0080682356 0.00080818182 -0.00027849455
0.011205883 0.0010390909 -0.0018440859
0.0078441175 -0.00080818182 -0.00027849455
0.010085294 0.00080818182 -0.0022913977
-0.0024652942 -0.00034636364 -0.014592472
0.0049305884 -0.00011545455 0.0028526881
-0.0073958826 0.00127 -0.030695699
-0.0020170589 0.00034636364 -0.031366665
-0.0049305884 -0.00034636364 -0.022867741
0.0011205883 -0.00127 -0.0007258064
0.010309412 -0.00011545455 -5.4838645e-05
-0.0060511767 -0.00057727273 -0.0022913977
-0.00022411766 -0.00011545455 -0.03718172
0.0098611768 0.00034636364 -0.0022913977
-0.0015688236 0.00011545455 -5.4838645e-05
-0.0096370587 -0.00057727273 -0.028906452
0.0076200003 0.00127 -0.00027849455
-0.00022411766 -0.00034636364 -0.016829032
-0.0073958826 -0.00011545455 -0.019512903
-0.0085164709 -0.00127 -0.03002473
0.0026894119 -0.0010390909 -0.029130107
-0.010981765 -0.00011545455 -0.03114301
0.00022411766 0.00034636364 -0.017276343
0.00067235297 -0.00127 -0.029130107
0.0029135295 0.00127 -0.030919354
-0.0051547061 0.00034636364 -0.03561613
0.0049305884 0.00011545455 -0.014592472
-0.0026894119 -0.00011545455 -0.0031860215
-0.0024652942 -0.00034636364 0.0019580645
0.0049305884 -0.00011545455 -0.010566667
-0.0026894119 -0.00127 -0.030695699
-0.010533529 0.00127 -0.029577419
0.0053788237 0.00011545455 -0.034274194
-0.0067235297 -0.00127 -0.029353762
0.0049305884 0.00011545455 -0.0090010753
-0.0024652942 0.00011545455 -0.028235484
-0.0026894119 0.00034636364 -0.011237634
-0.0089647062 0.00127 -0.030695699
0.010085294 -0.00011545455 -0.03382688
-0.00022411766 0.00011545455 -0.035839785
-0.0076200003 0.00011545455 -0.006988172
0.0076200003 0.00034636364 -0.020631183
-0.0038100001 -0.00057727273 -0.00027849455
-0.010981765 0.00034636364 -0.0022913977
0.0024652942 0.00034636364 -0.020183871
-0.0044823531 -0.00127 -0.029801074
-0.0026894119 0.00011545455 -0.00654086
0.0073958826 -0.0010390909 -0.030472042
0.0026894119 -0.00034636364 -0.017723655
-0.00022411766 0.00011545455 -0.0327086
-0.0051547061 -0.00011545455 0.0021817205
-0.0053788237 -0.00011545455 -0.03382688
0.006499412 -0.00127 -0.030919354
0.007171765 0.00127 -0.030695699
0.0078441175 -0.00011545455 -0.010566667
-0.010085294 -0.00011545455 -0.023538709
-0.0067235297 -0.0010390909 -0.031366665
0.00022411766 0.00034636364 -0.01257957
-0.0044823531 -0.00127 -5.4838645e-05
-0.0029135295 0.00034636364 -0.028906452
-0.00089647062 0.0010390909 -0.03114301
0 0.00034636364 -0.011237634
-0.0096370587 -0.00127 -0.00162043
-0.0029135295 -0.00127 -0.030919354
-0.0056029414 -0.00034636364 -5.4838645e-05
0.0049305884 -0.00011545455 -0.010119354
-0.0078441175 0.00127 -0.0007258064
0.011205883 -0.00080818182 -0.0011731182
-0.0017929412 0.00127 -0.030695699
0.0082923528 0.00057727273 -0.029130107
-0.0078441175 -0.00011545455 -0.020854838
-0.0098611768 -0.00127 -0.029801074
0.00067235297 0.00034636364 -0.029130107
-0.010085294 0.00011545455 0.0010634409
-0.0067235297 -0.00080818182 -0.029130107
-0.00022411766 0.00011545455 -0.017947311
0.0029135295 0.00011545455 -0.0025150536
-0.0026894119 -0.00034636364 -0.01638172
0.0026894119 -0.00011545455 -0.031813979
0.010309412 -0.00011545455 -0.034274194
-0.0051547061 -0.00034636364 -0.028011827
-0.0076200003 -0.00034636364 0.0017344087
0.0098611768 0.00057727273 -0.028906452
0.00044823531 0.00127 -0.029130107
-0.010085294 -0.00127 -0.00094946229
0.0053788237 0.00011545455 -0.0038569891
0.0049305884 0.00034636364 -0.0031860215
0.0024652942 -0.00011545455 -0.036510751
0.0042582355 -0.00127 -5.4838645e-05
-0.0080682356 -0.00011545455 -0.031366665
0.0024652942 -0.00011545455 -0.010790322
0.010309412 -0.00011545455 -0.01257957
-0.0026894119 0.00011545455 -0.035168815
-0.0024652942 0.00034636364 -0.0092247305
-0.0069476473 0.00127 -0.030919354
-0.0049305884 0.00011545455 -0.036958065
-0.0096370587 0.0010390909 -0.0022913977
0.00022411766 -0.00034636364 -0.023986021
0.0022411766 0.00080818182 -0.029130107
0.010085294 0.00011545455 -0.03561613
-0.0026894119 -0.00034636364 -0.0090010753
0.0076200003 0.00034636364 -0.022420429
-0.011205883 -0.00034636364 -0.029130107
0.0080682356 0.00127 -0.030472042
0.0024652942 0.00034636364 -0.027340859
-0.0033617648 -0.00080818182 -0.031366665
0.0073958826 -0.00011545455 -0.0072118277
-0.0089647062 0.00127 -0.00094946229
-0.00022411766 0.00011545455 -0.01369785
0.0015688236 -0.00127 -0.0011731182
0.010533529 0.00127 -0.00094946229
-0.00089647062 -0.00034636364 -0.029130107
-0.0011205883 -0.00080818182 -0.029801074
0.0073958826 -0.00011545455 -0.019736558
0.0024652942 -0.00080818182 -0.029353762
-0.007171765 -0.00080818182 -5.4838645e-05
-0.0011205883 -0.00127 -0.0020677419
-0.0024652942 -0.00011545455 -0.033603225
0.00022411766 0.00034636364 0.00061612908
-0.0049305884 -0.00011545455 -0.025775269
0.0049305884 0.00034636364 -0.014816129
-0.0026894119 0.00011545455 -0.015487096
0.0080682356 -0.00127 -0.0007258064
-0.0024652942 -0.00011545455 -0.012803226
-0.0076200003 -0.00034636364 0.0019580645
-0.00022411766 0.00011545455 -0.011013978
-0.011205883 0.00057727273 -0.00027849455
-0.010085294 0.00011545455 -0.0094483867
-0.0076200003 -0.0010390909 -5.4838645e-05
0.0024652942 0.00034636364 -0.0081064515
0.0082923528 0.00034636364 -0.028906452
-0.010757647 0.00127 -0.0022913977
0.0049305884 0.00034636364 -0.013250537
0.010085294 -0.00011545455 -0.012132258
0.0078441175 -0.00011545455 -0.013250537
0.0024652942 -0.00034636364 -0.019960215
-0.0062752943 -0.00034636364 -0.029130107
0.0049305884 -0.00011545455 0.0017344087
0.010757647 0.00127 -0.0011731182
-0.010309412 0.00011545455 -0.021749461
0.0078441175 -0.00127 -0.0020677419
0.0067235297 -0.00127 -0.0007258064
0.0049305884 0.00034636364 -0.0096720429
0.0049305884 0.00034636364 -0.01146129
0.0020170589 -0.00057727273 -0.029353762
-0.0024652942 0.00011545455 -0.025775269
-0.00022411766 0.0010390909 -0.0022913977
-0.00022411766 0.00034636364 -0.011013978
-0.0024652942 -0.00034636364 -0.017052688
-0.0049305884 -0.00034636364 -0.0025150536
0.00022411766 0.00011545455 -0.026669892
-0.011205883 -0.00034636364 -0.0020677419
-0.005827059 0.00034636364 -5.4838645e-05
0.010085294 0.00034636364 -0.0036333331
0.0098611768 -0.00011545455 -0.031813979
-0.0011205883 0.00034636364 -0.031366665
0.0049305884 -0.00034636364 -0.035392471
0.0022411766 0.00011545455 -0.025327956
0.0051547061 0.00034636364 -0.017947311
0.0026894119 -0.00011545455 -0.032484945
0.00022411766 -0.00034636364 -0.027564516
0.0013447059 0.00080818182 -0.029577419
0.0078441175 0.00011545455 -0.024433333
0.0026894119 -0.00034636364 -0.00654086
-0.0024652942 0.00034636364 -0.0067645158
-0.0087405881 0.00127 -5.4838645e-05
0.0051547061 -0.00011545455 -0.018841935
-0.0051547061 0.00034636364 -0.036958065
-0.0060511767 -0.00127 -0.03002473
0.00022411766 0.00011545455 -0.020631183
-0.00022411766 -0.00034636364 -0.035839785
-0.010757647 -0.00034636364 -5.4838645e-05
0.010309412 0.00011545455 -0.03382688
0.00044823531 -0.00011545455 -0.028906452
0.010757647 -0.00034636364 -0.0022913977
0.0076200003 -0.00034636364 -0.0074354839
-0.0094129415 -0.00127 -0.029801074
-0.0053788237 -0.00011545455 -0.011237634
0.0080682356 0.0010390909 -0.0022913977
-0.00022411766 -0.00011545455 -0.024656989
-0.0026894119 0.00011545455 -0.03673441
-0.0022411766 -0.00057727273 -0.029353762
0.0024652942 -0.00011545455 0.0017344087
-0.010085294 -0.00011545455 -0.011013978
0.00022411766 0.00011545455 -0.0067645158
-0.00022411766 0.00011545455 -0.037405375
0.01143 0.00034636364 -0.029577419
0.00089647062 0.00127 -0.00162043
-0.0051547061 0.00034636364 -0.027564516
-0.0049305884 0.00011545455 -0.0049752686
-0.0035858825 0.00034636364 -0.029130107
-0.0026894119 0.00034636364 -0.0049752686
-0.0051547061 0.00034636364 -0.023091398
-0.0051547061 0.00034636364 -0.019065591
-0.0091888234 0.00127 -0.00094946229
0.005827059 -0.00011545455 -5.4838645e-05
0.0026894119 0.00080818182 -0.031366665
0.0049305884 -0.00034636364 -0.0045279567
0.011205883 -0.00011545455 -0.030919354
-0.0051547061 0.00034636364 -0.03606344
-0.005827059 -0.00057727273 -0.029130107
0.0024652942 0.00034636364 0.0012870968
0.01143 -0.00011545455 -0.030695699
0.00022411766 -0.00011545455 -0.019512903
0 0.00034636364 -0.019065591
0.0017929412 0.0010390909 -5.4838645e-05
-0.0094129415 -0.00127 -0.00027849455
-0.0078441175 -0.00011545455 -0.011013978
-0.00089647062 0.00127 -0.0022913977
0.0085164709 0.0010390909 -0.029353762
-0.0024652942 -0.00011545455 -0.022644086
-0.00089647062 0.00034636364 -5.4838645e-05
0.0053788237 0.00011545455 -0.0094483867
0.00044823531 0.00080818182 -0.031366665
0.010085294 0.00127 -0.0022913977
-0.0051547061 0.00034636364 -0.0047516129
-0.0049305884 -0.00011545455 -0.026446236
-0.0049305884 -0.00011545455 -0.0047516129
-0.0024652942 -0.00011545455 -0.0081064515
-0.0056029414 0.0010390909 -0.029130107
0.010085294 0.00011545455 0.0021817205
0.010309412 0.00011545455 -0.027564516
-0.00022411766 -0.00011545455 -0.03382688
-0.0073958826 0.00034636364 -0.028682794
-0.010757647 0.00127 -0.0018440859
0.0031376472 0.00127 -0.030248387
0.0024652942 -0.00034636364 -0.01257957
-0.0026894119 -0.0010390909 -5.4838645e-05
0 0.00034636364 -0.015487096
-0.0087405881 0.00034636364 -0.0022913977
-0.010981765 0.0010390909 -0.029577419
-0.010981765 -0.00080818182 -0.00027849455
0.0026894119 -0.00034636364 -0.010566667
-0.0049305884 -0.00127 -0.0018440859
-0.010757647 -0.0010390909 -0.0022913977
-0.0073958826 -0.00034636364 -0.024433333
-0.0053788237 -0.00127 -0.0020677419
0.0024652942 0.00034636364 -0.0040806448
0.0026894119 0.00011545455 -0.017276343
-0.0011205883 -0.0010390909 -0.0022913977
-0.0024652942 0.00011545455 -0.027564516
0.00022411766 -0.00034636364 -0.036958065
0.0078441175 0.00011545455 -0.026446236
-0.0094129415 0.00127 -0.03114301
-0.0078441175 0.00011545455 -0.021973118
0.0022411766 0.00011545455 -0.03494516
-0.0098611768 -0.00011545455 -0.025551612
-0.0022411766 0.00127 -0.03114301
0.0053788237 0.00034636364 -0.03159032
-0.0098611768 -0.00011545455 -0.025327956
-0.0060511767 0.00127 -0.03114301
0.0026894119 -0.00034636364 -0.017052688
-0.010309412 -0.00011545455 -0.03673441
-0.0051547061 0.00011545455 -0.0045279567
0.0026894119 0.00034636364 -0.0081064515
0.0022411766 0.00057727273 -0.028906452
-0.010757647 -0.0010390909 -0.0020677419
0.0017929412 0.00127 -0.03114301
-0.010085294 -0.00034636364 -5.4838645e-05
-0.0024652942 0.00034636364 -0.01638172
0.0053788237 0.00080818182 -0.029130107
0.0047064708 0.00127 -0.031366665
0.0053788237 -0.00011545455 -0.024880644
-0.0078441175 -0.00011545455 -0.0085537629
-0.0094129415 -0.00011545455 -0.0022913977
0.0096370587 -0.0010390909 -0.030472042
-0.0026894119 -0.00034636364 -0.024209676
0.00067235297 -0.00034636364 -0.0022913977
0.0035858825 0.00127 -0.030248387
0.00022411766 -0.00011545455 0.0012870968
-0.0076200003 0.00034636364 -0.03718172
0.00022411766 -0.00011545455 -0.03561613
0.0078441175 0.00011545455 -0.0098956991
-0.00067235297 -0.00057727273 -0.029577419
0.0067235297 0.00127 -0.00094946229
0.0026894119 -0.00034636364 -0.03606344
-0.00022411766 -0.00011545455 -0.036958065
0.0026894119 0.00011545455 0.00061612908
0.00022411766 -0.00011545455 -0.0040806448
-0.0073958826 0.00011545455 -0.018394623
0.0076200003 0.00034636364 -0.03337957
0.0096370587 0.0010390909 -0.029577419
-0.00022411766 -0.00034636364 -0.015487096
-0.0060511767 0.00127 -0.030695699
-0.0060511767 -0.00057727273 -0.029130107
-0.00022411766 -0.00011545455 -0.0175
0 0.00127 -0.030248387
-0.0076200003 -0.00034636364 -0.03606344
0.010533529 -0.0010390909 -0.00094946229
0.0033617648 0.00057727273 -0.0022913977
0.010757647 -0.0010390909 -0.029130107
0.010085294 -0.00011545455 -0.0047516129
0.0053788237 0.00011545455 -0.012132258
-0.0078441175 0.00011545455 0.0019580645
-0.0078441175 0.00011545455 -0.020407526
-0.0062752943 -0.00080818182 -5.4838645e-05
-0.0078441175 0.00011545455 -0.0040806448
-0.0051547061 -0.00011545455 -0.035839785
-0.0051547061 0.00011545455 -0.016158065
-0.0051547061 0.00011545455 -0.0056462362
0.0078441175 -0.00011545455 -0.021525806
0.0089647062 0.00034636364 -0.0022913977
-0.011205883 -0.0010390909 -0.00094946229
0.0067235297 -0.0010390909 -0.030248387
0.0022411766 0.00011545455 -0.032484945
0.00089647062 -0.00127 -0.0013967741
0.0085164709 -0.00080818182 -0.03114301
-0.010309412 0.00011545455 -0.012132258
0.0078441175 -0.00011545455 -0.016158065
-0.0076200003 0.00034636364 -0.032037634
-0.0024652942 0.00011545455 -0.015934408
-0.0024652942 0.00011545455 -0.014368817
-0.0047064708 0.00034636364 -0.028906452
-0.0073958826 -0.00011545455 -0.03449785
-0.0011205883 -0.00011545455 -5.4838645e-05
-0.0069476473 -0.00080818182 -0.029130107
0.010309412 0.00011545455 -0.014592472
-0.0038100001 -0.00011545455 -0.031366665
-0.0026894119 -0.00127 -0.029130107
0.0049305884 -0.00034636364 -0.033603225
0.0042582355 0.00080818182 -0.00027849455
0 -0.00034636364 -0.034721505
-0.0076200003 0.00011545455 -0.011684946
0.00067235297 -0.0010390909 -0.029130107
0.00067235297 0.00127 -5.4838645e-05
-0.0078441175 -0.00011545455 0.0019580645
0.010085294 0.00011545455 -0.013921505
-0.0053788237 0.00127 -0.030919354
0.010309412 0.00080818182 -0.03114301
0.00022411766 0.00034636364 -0.0040806448
0.010085294 -0.00011545455 0.0017344087
0.010309412 0.00011545455 -0.025998924
-0.0024652942 -0.00034636364 -0.023091398
0.0056029414 -0.00127 -0.0020677419
0.0013447059 0.00127 -0.0022913977
0.010309412 0.00034636364 -0.0022913977
-0.0073958826 -0.00011545455 -0.0078827953
-0.010309412 -0.00011545455 -0.0040806448
-0.0049305884 0.00034636364 -0.03494516
0.0078441175 -0.00011545455 -0.012803226
-0.0082923528 0.00127 -0.029577419
-0.010533529 0.00011545455 -0.0022913977
-0.0029135295 -0.0010390909 -0.031366665
0 0.00034636364 -0.01257957
0.0015688236 -0.00057727273 -0.00027849455
0.0022411766 0.00011545455 -0.0087774191
-0.0024652942 -0.00011545455 -0.019736558
0.00022411766 0.00127 -5.4838645e-05
0.010309412 -0.00011545455 -0.0054225805
0.0076200003 -0.00034636364 -0.021973118
0.010309412 0.00011545455 -0.036510751
0.00022411766 0.00034636364 -0.026222579
-0.00067235297 0.0010390909 -5.4838645e-05
-0.0026894119 -0.00011545455 -0.018170968
0.0026894119 0.00057727273 -0.00027849455
-0.006499412 -0.00127 -0.00094946229
-0.010309412 0.00011545455 -0.03449785
-0.0026894119 -0.00011545455 -0.033155914
-0.0078441175 -0.00011545455 -0.006988172
0.010085294 -0.00127 -0.00027849455
0.0049305884 -0.00011545455 -0.011908602
-0.0053788237 -0.00011545455 -0.032037634
0.0076200003 0.00034636364 -0.025327956
-0.0026894119 -0.00080818182 -0.0025150536
-0.0026894119 0.00011545455 -0.022644086
-0.011205883 0.00011545455 -0.00050215045
-0.0078441175 0.00011545455 -0.017052688
0.010309412 0.00011545455 -0.010566667
0.0073958826 0.0010390909 -5.4838645e-05
-0.0049305884 -0.00011545455 -0.026222579
-0.00022411766 0.00034636364 -0.013474193
0.0082923528 -0.00127 -0.030695699
-0.010085294 0.00080818182 -0.0022913977
0.010309412 -0.00011545455 -0.020631183
-0.010309412 0.00127 -0.030248387
0.0091888234 0.00127 -0.0020677419
0.0078441175 0.00011545455 -0.013921505
0.0091888234 -0.00057727273 -0.00027849455
0.010085294 0.00011545455 -0.032484945
0.0078441175 0.00011545455 -0.0074354839
0.0094129415 -0.00034636364 -0.03114301
0.0049305884 -0.00034636364 -0.03561613
-0.0067235297 -0.00034636364 -5.4838645e-05
-0.0017929412 -0.00034636364 -0.028906452
-0.0053788237 -0.00011545455 0.0010634409
-0.0042582355 -0.00080818182 -0.0022913977
-0.0026894119 0.00034636364 -0.0040806448
-0.0026894119 0.00127 -0.030695699
-0.00044823531 0.0010390909 -5.4838645e-05
0.0076200003 0.00034636364 -0.010119354
0.0026894119 0.00011545455 -0.012132258
0.0022411766 0.00011545455 -0.03718172
0.0024652942 0.00034636364 -0.034721505
0.0060511767 0.00127 -0.03114301
-0.0015688236 -0.00127 -0.00094946229
-0.0026894119 -0.00034636364 -0.0087774191
0.00022411766 -0.00011545455 -0.036510751
-0.0047064708 0.00127 -0.029801074
-0.0076200003 0.00057727273 -0.031366665
0.0049305884 0.00127 -0.029801074
-0.0051547061 0.00034636364 -0.014816129
-0.0078441175 -0.00011545455 -0.03382688
0.0022411766 0.00011545455 -0.0074354839
-0.0056029414 -0.00127 -0.03002473
0.0051547061 0.00011545455 -0.019289248
-0.010309412 0.00011545455 -0.0096720429
0.0087405881 -0.0010390909 -0.03002473
0.010309412 -0.0010390909 -0.029577419
-0.0076200003 0.00034636364 0.0019580645
0.0011205883 -0.00034636364 -0.0022913977
-0.0098611768 0.00127 -0.030919354
0.0053788237 -0.00127 -0.0013967741
0.0053788237 0.0010390909 -0.031366665
0.0053788237 -0.00011545455 -0.013250537
0.0076200003 0.00080818182 -0.031366665
0.0049305884 0.00034636364 -0.01257957
0.0067235297 0.0010390909 -5.4838645e-05
0.0026894119 0.00034636364 -0.0058698924
0.0053788237 -0.00011545455 -0.019960215
0.00022411766 -0.00034636364 -0.0092247305
-0.011205883 -0.00011545455 -0.0018440859
-0.0076200003 -0.00034636364 -0.0038569891
-0.00022411766 -0.00011545455 -0.011684946
-0.0024652942 0.00011545455 -0.021973118
-0.0094129415 -0.00127 -0.030695699
0.0026894119 -0.00127 -0.0011731182
0.0076200003 -0.00080818182 -0.029130107
0.0044823531 -0.00127 -0.0018440859
0.0078441175 0.00011545455 -0.0060935481
-0.0094129415 -0.00080818182 -0.03114301
-0.010309412 0.00011545455 -0.015487096
-0.010085294 -0.00057727273 -0.028906452
-0.0051547061 0.00011545455 -0.028682794
0.00022411766 -0.00034636364 -0.0056462362
0.0042582355 -0.00127 -0.029353762
-0.0076200003 0.00011545455 -0.0175
0.0082923528 -0.0010390909 -0.0022913977
0.0098611768 -0.00011545455 -0.020854838
-0.0078441175 0.00127 -0.030695699
-0.0033617648 -0.0010390909 -5.4838645e-05
0.0087405881 -0.00034636364 -0.029130107
0.0098611768 -0.0010390909 -0.00027849455
0.0051547061 -0.00127 -0.03114301
0.0040341178 0.00057727273 -0.031366665
0.0024652942 -0.00011545455 -0.021078493
0.0062752943 -0.00034636364 -5.4838645e-05
0 -0.00127 -0.030248387
-0.0049305884 0.00011545455 -0.013474193
-0.0049305884 -0.00011545455 0.0012870968
0.0078441175 -0.00011545455 -0.026669892
-0.0078441175 0.00011545455 -0.015710752
0.0056029414 0.00011545455 -0.028906452
0.0076200003 0.00127 -0.0007258064
0.00067235297 -0.00011545455 -5.4838645e-05
-0.00022411766 0.00034636364 0.0024053764
-0.0013447059 0.00080818182 -0.0022913977
-0.0026894119 -0.00034636364 0.0012870968
-0.010309412 -0.00011545455 -0.013921505
0.0073958826 0.00011545455 -0.0327086
0.0024652942 -0.00011545455 -0.025775269
-0.0042582355 0.00127 -0.029577419
-0.0015688236 -0.00080818182 -0.0022913977
-0.0029135295 0.00080818182 -0.031366665
0.0076200003 -0.00034636364 -0.013921505
0.0051547061 0.00034636364 -0.028682794
0.0035858825 -0.00127 -0.029577419
-0.010309412 -0.00011545455 -0.0054225805
-0.010533529 0.00127 -0.03002473
0.0082923528 -0.00011545455 -0.0022913977
0.0026894119 -0.00011545455 -0.0056462362
-0.0049305884 0.00011545455 -0.036510751
-0.0024652942 0.00127 -0.0007258064
0.010085294 0.00011545455 -0.010790322
0.0024652942 -0.00034636364 -0.015710752
0.011205883 0.00057727273 -0.029130107
-0.0080682356 0.00057727273 -0.031366665
0.0049305884 -0.00011545455 -0.0175
0.0053788237 -0.00011545455 -0.012355913
-0.0073958826 -0.00034636364 -0.015487096
0.0024652942 -0.00011545455 -0.016158065
0.010085294 -0.0010390909 -0.029801074
-0.010085294 0.00011545455 -0.03449785
0.0056029414 0.00127 -0.0011731182
-0.010757647 -0.00127 -0.00094946229
0.011205883 0.0010390909 -0.030695699
-0.010085294 0.00011545455 -0.017723655
0.0042582355 0.00127 -0.00027849455
-0.00022411766 0.00034636364 -0.028235484
0.010309412 0.00011545455 -0.0098956991
-0.0047064708 0.00057727273 -0.029130107
0.0067235297 0.00127 -0.0018440859
0 0.00127 -0.0013967741
0.010981765 0.00080818182 -5.4838645e-05
-0.0080682356 -0.00127 -0.0013967741
0.0073958826 -0.00011545455 -0.013474193
0.0049305884 0.00011545455 -0.028235484
-0.0098611768 -0.00011545455 -0.03449785
-0.0026894119 -0.00034636364 -0.011684946
0.010309412 -0.00011545455 0.0019580645
0.00044823531 0.0010390909 -0.029353762
-0.0024652942 -0.00011545455 -0.0058698924
0.0076200003 0.00034636364 -0.03494516
-0.0020170589 0.00034636364 -0.029130107
0 0.00034636364 -0.017947311
-0.0026894119 0.00034636364 -0.027340859
-0.0049305884 0.00011545455 -0.034721505
0.0013447059 -0.00127 -0.03114301
-0.00089647062 -0.0010390909 -0.029353762
0.0087405881 -0.0010390909 -0.029801074
0.0051547061 -0.00034636364 -0.024209676
-0.0026894119 0.00011545455 -0.016158065
-0.0049305884 -0.00011545455 -0.021525806
0.0035858825 -0.00127 -0.0007258064
0.0073958826 0.00034636364 -0.01146129
0.0078441175 -0.00127 -0.0018440859
0.0031376472 0.00011545455 -5.4838645e-05
0.0026894119 0.00011545455 -0.021302151
-0.00022411766 -0.00011545455 -0.026446236
0.005827059 0.00034636364 -0.028906452
0.0089647062 -0.00127 -0.03114301
-0.0047064708 -0.00127 -0.029130107
-0.00044823531 -0.00127 -0.00050215045
-0.0098611768 0.00127 -0.029801074
0.010757647 -0.0010390909 -0.029801074
-0.0062752943 -0.00011545455 -0.031366665
0.0053788237 -0.00011545455 -0.0063172043
0.0053788237 0.00011545455 0.0026290324
-0.0024652942 0.00034636364 -0.019960215
-0.0024652942 -0.00011545455 -0.031813979
-0.0082923528 -0.00127 -0.029801074
-0.0026894119 -0.00127 -5.4838645e-05
-0.0076200003 0.00011545455 -0.018841935
0.005827059 -0.00034636364 -5.4838645e-05
0.0026894119 -0.00011545455 -0.006988172
-0.0022411766 0.00057727273 -0.00027849455
-0.00022411766 -0.00011545455 -0.03226129
0.0033617648 -0.00127 -0.030695699
0.0049305884 -0.00034636364 -0.028235484
0.0051547061 0.00034636364 -5.4838645e-05
0.0035858825 0.00011545455 -5.4838645e-05
0.006499412 0.0010390909 -0.029130107
0.0033617648 0.00080818182 -0.0022913977
-0.006499412 -0.00127 -0.0018440859
0.0051547061 -0.00034636364 -0.0074354839
-0.0040341178 -0.00034636364 -0.0022913977
-0.0024652942 0.00127 -0.0018440859
-0.010085294 0.00011545455 -0.026446236
0.0051547061 -0.00034636364 -0.01526344
0.0044823531 -0.00127 -0.00094946229
0.00044823531 0.00057727273 -0.029130107
0.0053788237 -0.00011545455 -0.018394623
0.010981765 -0.0010390909 -0.00050215045
-0.0024652942 -0.00034636364 -0.019960215
0.0073958826 -0.00011545455 -0.0045279567
0.0047064708 0.00057727273 -0.0022913977
0 -0.00034636364 -0.021078493
-0.0051547061 0.00034636364 -0.004304301
-0.0073958826 0.00011545455 -0.0083301077
0.0051547061 0.00034636364 -0.023315053
-0.0049305884 -0.00011545455 -0.0096720429
-0.0049305884 -0.00057727273 -0.029130107
-0.0073958826 -0.00011545455 -0.017276343
-0.0073958826 0.00011545455 -0.0036333331
0.0096370587 0.00127 -0.0013967741
-0.010309412 0.00011545455 -0.026669892
0.0076200003 0.00034636364 -0.035168815
-0.0073958826 -0.00034636364 -0.012355913
0.0051547061 -0.00034636364 -0.0034096772
-0.0091888234 0.00127 -0.03002473
-0.00022411766 -0.00011545455 -0.019512903
0.00022411766 0.00011545455 -0.0036333331
0.0024652942 0.00034636364 -0.01861828
0.00044823531 0.0010390909 -5.4838645e-05
-0.0076200003 0.00127 -5.4838645e-05
0.0073958826 -0.00011545455 -0.010790322
-0.00022411766 -0.00034636364 -0.021525806
0.0073958826 0.00011545455 -0.031813979
-0.0026894119 0.00011545455 -0.01257957
0.006499412 0.00011545455 -0.029130107
0.0024652942 -0.00034636364 -5.4838645e-05
-0.0069476473 -0.0010390909 -0.031366665
0.0024652942 -0.00034636364 -0.021078493
-0.0073958826 0.00011545455 -0.021078493
-0.0042582355 0.00127 -0.029130107
-0.010085294 0.00011545455 -0.036510751
-0.0026894119 -0.00011545455 -0.026446236
-0.0085164709 0.00011545455 -0.031366665
-0.00022411766 0.00034636364 -0.012803226
-0.0080682356 -0.00127 -0.00094946229
0.0038100001 -0.00127 -0.00050215045
-0.0051547061 0.00034636364 0.0024053764
-0.0024652942 -0.00034636364 0.00016881726
-0.0051547061 0.00011545455 -0.017947311
0.0024652942 -0.00011545455 -0.027117204
-0.0049305884 -0.00034636364 -0.01638172
0.0073958826 -0.00057727273 -0.0022913977
-0.0024652942 -0.00011545455 -0.014592472
-0.0013447059 -0.00080818182 -5.4838645e-05
0.00022411766 -0.00011545455 0.0021817205
0.0078441175 -0.00011545455 -0.023986021
0.0089647062 0.0010390909 -0.0022913977
-0.0015688236 -0.00127 -0.030919354
-0.0024652942 -0.00011545455 -0.0029623655
0.00022411766 0.00011545455 -0.010566667
-0.0044823531 -0.0010390909 -0.029130107
-0.0049305884 0.00011545455 0.00016881726
-0.0078441175 -0.00011545455 -0.025775269
-0.0049305884 -0.00011545455 -0.0036333331
0.0091888234 0.00127 -0.0007258064
-0.0047064708 0.00127 -0.00094946229
-0.0026894119 0.00034636364 -0.0027387096
0.0073958826 0.00011545455 -0.010343011
0.0026894119 0.00034636364 -0.006988172
-0.0078441175 0.00034636364 -0.0025150536
-0.0098611768 0.00127 -0.0018440859
-0.0087405881 -0.0010390909 -5.4838645e-05
-0.0098611768 -0.00127 -0.00027849455
-0.00022411766 0.00034636364 -0.019512903
-0.0082923528 -0.00011545455 -0.031366665
-0.005827059 0.00011545455 -0.031366665
-0.010757647 0.00080818182 -0.03114301
-0.0051547061 0.00011545455 0.0012870968
-0.0042582355 0.00057727273 -0.029130107
0.0078441175 -0.00011545455 0.00083978497
0.0089647062 -0.00034636364 -0.031366665
-0.00044823531 0.00034636364 -0.031366665
-0.0026894119 -0.00011545455 -0.012132258
-0.0049305884 -0.00011545455 -0.013921505
-0.011205883 -0.00011545455 -0.0020677419
0.0049305884 0.00034636364 -0.03159032
-0.0049305884 0.00011545455 -0.0085537629
-0.0049305884 0.00127 -0.00162043
0.0051547061 0.00034636364 -0.01638172
0.0024652942 0.00034636364 -0.00654086
-0.005827059 0.0010390909 -0.03114301
0.0024652942 -0.00034636364 -0.036510751
0.010309412 0.00011545455 -0.015934408
-0.0042582355 0.00034636364 -0.0022913977
0.00022411766 0.00011545455 -0.026446236
0.0078441175 0.00011545455 -0.0090010753
-0.00022411766 -0.00011545455 -0.019289248
0.0062752943 -0.00034636364 -0.029130107
0.0080682356 0.00057727273 -0.029130107
0.0073958826 -0.00011545455 0.0026290324
-0.0062752943 0.00080818182 -0.0022913977
-0.0051547061 -0.00057727273 -0.031366665
0.0011205883 0.00011545455 -5.4838645e-05
0.0044823531 -0.0010390909 -0.029801074
0.0049305884 0.00034636364 -0.015710752
-0.0026894119 0.00127 -0.00050215045
0.0073958826 -0.00011545455 -0.018394623
-0.0024652942 -0.00034636364 -0.023762366
0.01143 -0.00034636364 -0.030695699
-0.0051547061 0.00034636364 0.00039247319
-0.0047064708 -0.00011545455 -0.0025150536
0.005827059 0.00127 -0.00094946229
0.0031376472 0.00127 -0.0022913977
-0.0049305884 0.00034636364 -0.036287095
-0.0051547061 0.00011545455 -0.0078827953
-0.0024652942 -0.00034636364 -0.0078827953
0.0024652942 0.00127 -0.030919354
0.0087405881 -0.00127 -0.0018440859
0.00022411766 0.00127 -0.00027849455
0.010085294 -0.00011545455 -0.027564516
0.0078441175 0.00011545455 -0.028011827
0.0024652942 0.00034636364 -0.019065591
0.0051547061 -0.00034636364 -0.0058698924
0.010085294 -0.00011545455 -0.015039785
-0.0056029414 -0.00127 -0.030248387
-0.0076200003 -0.00034636364 -0.010566667
-0.010309412 0.00127 -0.0011731182
-0.0073958826 0.00011545455 -0.028682794
0.0073958826 -0.00011545455 -0.0081064515
0.0051547061 -0.00034636364 -0.0096720429
0.0076200003 -0.00034636364 -0.010119354
0.0029135295 -0.00127 -5.4838645e-05
-0.0076200003 -0.00034636364 -0.028682794
-0.00067235297 -0.0010390909 -0.0022913977
-0.010757647 -0.00127 -0.0013967741
0.0076200003 0.00034636364 -0.0040806448
-0.0096370587 0.00080818182 -0.0022913977
0.0026894119 0.00034636364 -0.022420429
-0.0060511767 -0.00127 -0.030695699
-0.0026894119 -0.00034636364 -0.014816129
-0.0051547061 0.00011545455 -0.037405375
0.0031376472 0.00127 -0.029577419
-0.010309412 0.00011545455 -0.0078827953
0.0049305884 -0.00034636364 -0.03337957
-0.0026894119 -0.00011545455 -0.016158065
0.00022411766 -0.00011545455 -0.015934408
0.0062752943 0.00080818182 -0.029130107
-0.0082923528 -0.00127 -0.030248387
0.0073958826 -0.00011545455 -0.018170968
0.007171765 -0.00034636364 -5.4838645e-05
-0.0011205883 0.00127 -0.0022913977
-0.0047064708 0.00127 -0.0013967741
-0.0024652942 0.00034636364 -0.013026881
0.00022411766 -0.00057727273 -0.00027849455
0.0049305884 -0.00034636364 -0.027340859
0.00022411766 0.00011545455 -0.017947311
-0.0013447059 0.00127 -0.029577419
0.006499412 -0.0010390909 -0.029577419
0.010533529 -0.0010390909 -0.029353762
0.01143 0.00011545455 -0.03002473
-0.0060511767 0.00127 -0.030248387
0.0044823531 -0.00127 -0.00050215045
0.0049305884 0.00127 -0.00050215045
-0.0085164709 0.00057727273 -0.0022913977
0.0051547061 0.00127 -0.0018440859
0.0076200003 -0.00034636364 -0.022644086
0 -0.00034636364 -0.014368817
-0.0051547061 0.00034636364 -0.0085537629
0.0020170589 -0.00127 -0.00162043
0.0053788237 -0.00011545455 0.00083978497
0.0049305884 0.00011545455 -0.025775269
0.0026894119 -0.00034636364 -0.034721505
-0.010309412 -0.00011545455 -0.019065591
-0.00022411766 0.00034636364 -0.03226129
0.0076200003 -0.0010390909 -0.030248387
0.010533529 -0.0010390909 -0.03002473
-0.0082923528 0.00127 -0.00162043
-0.010309412 -0.00011545455 -0.016158065
-0.00022411766 -0.00011545455 0.00061612908
-0.00022411766 0.00034636364 -0.028682794
-0.0053788237 -0.00034636364 -0.0025150536
-0.0024652942 -0.00034636364 -0.0056462362
-0.0051547061 -0.00011545455 -0.018170968
0.0049305884 0.00127 -0.030248387
0.010981765 0.00127 -0.00162043
0.0053788237 0.00011545455 0.0024053764
-0.0049305884 -0.00011545455 -0.017947311
0.0026894119 -0.00034636364 -0.03673441
-0.0060511767 -0.00127 -0.029801074
0.0082923528 -0.00127 -0.03114301
0.0078441175 -0.00011545455 -0.0058698924
-0.0024652942 -0.00011545455 -0.027564516
0.00067235297 0.00127 -0.029577419
-0.0035858825 0.00127 -0.00162043
0.0031376472 0.00034636364 -0.0022913977
0 0.00057727273 -0.028906452
0.0024652942 -0.00011545455 -0.019960215
-0.0017929412 0.00127 -0.029130107
-0.0056029414 -0.0010390909 -5.4838645e-05
-0.010085294 -0.00011545455 -0.019512903
0.0053788237 0.00127 -0.0011731182
-0.0056029414 -0.00011545455 -0.0022913977
0 -0.00034636364 -0.03494516
-0.0049305884 -0.00034636364 -0.019736558
0.0013447059 -0.00127 -0.030472042
-0.0051547061 0.00011545455 -0.023986021
-0.0056029414 0.00127 -0.029353762
0.0053788237 0.00011545455 -0.0051989243
-0.00089647062 0.00057727273 -0.00027849455
0.0026894119 -0.00011545455 -0.023091398
-0.0051547061 -0.00011545455 -0.026222579
0.0026894119 0.00011545455 -0.036287095
-0.0076200003 -0.0010390909 -0.029353762
0.0085164709 -0.00057727273 -0.0022913977
0.0049305884 -0.00011545455 -0.025775269
0.010309412 0.00011545455 -0.01526344
0.0024652942 -0.00034636364 -0.018841935
0.0078441175 0.00127 -0.0018440859
-0.0033617648 -0.00127 -0.0018440859
0.010085294 -0.00127 -0.00162043
-0.0026894119 -0.00011545455 0.0026290324
-0.0049305884 -0.00011545455 -0.018394623
-0.00044823531 0.00127 -0.03002473
-0.0098611768 -0.00011545455 -0.032484945
-0.0051547061 -0.00127 -0.029577419
0.010085294 0.00011545455 0.00083978497
-0.010981765 0.00011545455 -0.03114301
0.0087405881 0.00127 -0.00162043
-0.010981765 -0.0010390909 -0.029353762
0.010085294 0.00034636364 -0.033155914
-0.010085294 0.00011545455 -0.019512903
-0.010309412 0.00011545455 -0.027788172
0.0029135295 0.00127 -0.029130107
0.00022411766 -0.00011545455 -0.012355913
-0.00067235297 0.00127 -0.030919354
-0.0073958826 -0.00011545455 -0.0036333331
-0.00022411766 -0.00011545455 -0.0027387096
-0.0049305884 -0.00034636364 -0.021973118
0.0049305884 0.00011545455 -0.019512903
0.0085164709 -0.00057727273 -0.029130107
0.0069476473 -0.0010390909 -0.0022913977
-0.0051547061 0.00034636364 -0.014368817
-0.0026894119 0.00011545455 -0.034050535
0.010085294 -0.00011545455 -0.016829032
-0.0049305884 -0.00127 -0.029577419
-0.0024652942 -0.00034636364 -0.03673441
-0.0047064708 0.00011545455 -5.4838645e-05
-0.0098611768 -0.00127 -0.03114301
-0.0013447059 -0.00127 -0.00050215045
-0.0033617648 0.00080818182 -0.029353762
-0.0049305884 0.00011545455 -0.036287095
0.0078441175 0.00034636364 -0.0022913977
-0.0026894119 -0.00057727273 -0.03159032
0.00022411766 0.00011545455 -0.031813979
0 0.00034636364 -0.0094483867
0.0049305884 0.00034636364 0.00061612908
-0.0091888234 0.00127 -0.030248387
0.0060511767 0.0010390909 -5.4838645e-05
0.0051547061 -0.0010390909 -0.029577419
0.0073958826 -0.00011545455 -0.035392471
0.0049305884 0.00011545455 -0.0056462362
-0.0062752943 0.00127 -0.00094946229
-0.010085294 -0.00011545455 -0.026669892
-0.0013447059 -0.00127 -0.00027849455
-0.007171765 0.00127 -0.00050215045
0.00089647062 -0.00127 -0.0022913977
0.0098611768 0.00127 -0.0007258064
0.0051547061 -0.00034636364 -0.022644086
0.0017929412 -0.00011545455 -0.029130107
-0.0051547061 -0.00127 -0.029801074
0.0022411766 0.00011545455 0.00039247319
0.0044823531 -0.00127 -0.0007258064
-0.0078441175 0.00011545455 -0.012132258
-0.0033617648 -0.00127 -0.029130107
0.0035858825 0.00127 -0.00094946229
0.0049305884 0.00034636364 -0.019736558
0.007171765 0.00127 -0.030248387
0.0073958826 0.00011545455 -0.015487096
0.00067235297 -0.00127 -0.0018440859
0.0017929412 -0.00127 -0.029801074
-0.0053788237 -0.00011545455 0.00083978497
-0.0051547061 -0.00034636364 -0.0025150536
0.0051547061 0.00034636364 -0.019960215
0 0.00034636364 -0.034050535
0.0049305884 0.00034636364 -0.0034096772
0.0013447059 0.00034636364 -0.029130107
0.00022411766 0.00011545455 -0.023986021
0.010533529 0.00127 -0.029353762
0.0022411766 -0.00127 -0.00162043
-0.010309412 0.00011545455 -0.0083301077
-0.0024652942 0.00011545455 -0.0074354839
-0.00022411766 0.00034636364 0.0019580645
-0.010757647 -0.00127 -0.00027849455
-0.010309412 -0.00011545455 -0.0085537629
-0.0011205883 -0.00127 -0.0013967741
0.0091888234 -0.0010390909 -0.030248387
0.0080682356 0.00127 -0.03002473
0.0073958826 -0.00011545455 -0.03337957
-0.00022411766 0.00011545455 -0.024880644
0.0029135295 -0.00127 -0.030695699
0.0056029414 -0.0010390909 -0.029801074
0.0024652942 0.00034636364 -0.015039785
-0.0053788237 -0.00011545455 0.00016881726
-0.0011205883 -0.00080818182 -5.4838645e-05
-0.0031376472 -0.00127 -0.029130107
0.00022411766 -0.00034636364 -0.0058698924
-0.0015688236 -0.00034636364 -0.031366665
0.007171765 -0.00011545455 -0.0022913977
0.0067235297 -0.0010390909 -0.029801074
-0.0049305884 -0.00080818182 -0.029353762
-0.00022411766 0.00011545455 -0.032932259
0.00022411766 -0.00034636364 -0.03673441
-0.0076200003 0.00034636364 0.0015107527
0.00022411766 0.00034636364 -0.0038569891
-0.005827059 -0.00034636364 -0.028906452
0.0022411766 -0.00127 -0.029801074
0.011205883 0.0010390909 -0.030248387
0.00022411766 -0.00034636364 -0.01638172
-0.0073958826 -0.00011545455 -0.031813979
0.0044823531 0.00127 -0.00094946229
0.0085164709 -0.00080818182 -0.029130107
-0.0026894119 -0.00011545455 -0.033603225
-0.0049305884 0.00011545455 -0.014592472
-0.0056029414 0.00057727273 -0.031366665
0.0051547061 -0.00011545455 -0.021302151
0.0026894119 -0.00011545455 -0.019960215
0.0073958826 -0.00011545455 -0.020183871
0.0017929412 0.00127 -0.030472042
-0.0024652942 0.00011545455 -0.034721505
0.0076200003 -0.00080818182 -0.031366665
-0.010309412 0.00011545455 -0.011908602
0.0026894119 0.00011545455 -0.010566667
0.0024652942 -0.00011545455 -0.011908602
0.010533529 0.00080818182 -0.029130107
0.010309412 -0.00011545455 -0.037405375
-0.010533529 0.00127 -0.030472042
-0.0076200003 0.00034636364 -0.031813979
0.0062752943 0.00127 -0.00050215045
-0.010309412 0.00011545455 -0.023091398
0.0053788237 -0.00011545455 -0.010119354
0.010085294 -0.00011545455 -0.0051989243
0.011205883 -0.0010390909 -0.029577419
0.00022411766 -0.00034636364 0.00016881726
0.007171765 -0.0010390909 -0.029577419
0.00022411766 0.00011545455 -0.025775269
0.00089647062 0.00011545455 -0.031366665
0.0078441175 0.00011545455 -0.0175
-0.0056029414 0.00127 -0.030248387
0.0051547061 0.0010390909 -0.0022913977
-0.010085294 -0.00011545455 0.00083978497
-0.0049305884 0.00034636364 -0.027788172
0.0035858825 -0.00127 -0.029353762
0.0091888234 -0.00127 -0.00094946229
0.00022411766 0.00011545455 -0.021973118
0.010085294 0.00011545455 -0.021749461
0.0078441175 0.00011545455 0.0021817205
0.0024652942 0.00127 -0.0013967741
0.0049305884 -0.00011545455 -0.023986021
0.010085294 -0.00011545455 -0.026669892
-0.00022411766 0.00034636364 -0.0094483867
0.0015688236 0.00127 -0.029577419
-0.010309412 0.00011545455 -0.03382688
0.005827059 -0.00011545455 -0.029130107
-0.00022411766 -0.00011545455 -0.03673441
0.0022411766 0.00011545455 -0.025104301
0.00022411766 -0.00034636364 -0.0081064515
0.0049305884 0.00011545455 -0.021302151
-0.00022411766 0.00011545455 -0.0049752686
-0.0053788237 0.00127 -0.00050215045
0.0078441175 -0.00011545455 -0.011684946
-0.0049305884 -0.00034636364 -0.0090010753
0.00067235297 0.00127 -0.0011731182
-0.0073958826 -0.00011545455 -0.0027387096
-0.0029135295 0.00034636364 -5.4838645e-05
0.0073958826 -0.00011545455 -0.026446236
-0.0024652942 0.00011545455 -0.0036333331
0.0024652942 -0.00011545455 -0.025998924
0 -0.00034636364 -0.01369785
0.00089647062 0.00011545455 -0.0022913977
0 0.00011545455 0.0028526881
0.0087405881 -0.00011545455 -0.029130107
-0.0024652942 0.00011545455 -0.03561613
0.0078441175 0.00011545455 0.0010634409
-0.0049305884 -0.00011545455 -0.028011827
-0.0051547061 -0.00011545455 -0.035392471
-0.00022411766 0.00034636364 -0.03449785
0.0094129415 -0.00080818182 -0.00027849455
-0.0013447059 -0.00127 -0.0018440859
0 0.00034636364 -0.027117204
0.010085294 -0.00011545455 -0.0045279567
-0.011205883 0.00057727273 -0.029130107
-0.0026894119 0.00011545455 -0.0072118277
0.0053788237 -0.00127 -0.0011731182
0.00067235297 0.00127 -0.00050215045
0.00089647062 -0.00011545455 -5.4838645e-05
0.0049305884 0.00011545455 0.0019580645
0.010085294 -0.00011545455 -0.0078827953
0.0040341178 0.00127 -0.03002473
-0.010309412 -0.00034636364 -0.031366665
-0.0011205883 -0.00080818182 -0.031366665
0.00022411766 0.00034636364 -0.028906452
-0.0053788237 -0.00011545455 -0.035839785
0.0026894119 -0.00127 -0.030472042
0.0031376472 0.00127 -0.00027849455
0.010085294 -0.00011545455 -0.0056462362
0.0091888234 0.00011545455 -0.029130107
0.010309412 -0.00011545455 -0.0085537629
0 -0.00080818182 -0.029801074
0.0073958826 -0.00127 -0.0007258064
-0.0049305884 -0.00011545455 0.00083978497
0.0076200003 -0.00127 -0.0018440859
0.0022411766 0.00011545455 -0.035839785
0.0029135295 -0.00057727273 -0.031366665
0.0051547061 0.00034636364 -0.027117204
-0.0049305884 -0.00011545455 0.0015107527
-0.0073958826 -0.00011545455 -0.011013978
-0.0098611768 0.00034636364 -0.028906452
-0.0076200003 0.00034636364 -0.0040806448
0.010309412 0.00011545455 -0.021302151
0.0024652942 -0.00034636364 -0.0081064515
0.010309412 0.00011545455 -0.0047516129
0.0024652942 -0.00080818182 -0.031366665
-0.0024652942 0.00011545455 -0.01861828
0.0026894119 0.00011545455 -0.011684946
-0.0024652942 -0.00057727273 -0.03159032
-0.0015688236 -0.00127 -0.029353762
0.0026894119 0.00034636364 -0.027117204
0.010085294 -0.00011545455 -0.0090010753
0 -0.00034636364 -0.036510751
-0.0073958826 -0.00011545455 -0.028011827
-0.005827059 -0.00057727273 -0.00027849455
-0.0053788237 -0.00127 -0.029801074
-0.010533529 -0.00057727273 -0.03114301
-0.010309412 0.00011545455 0.00083978497
-0.00022411766 0.00034636364 -0.023762366
-0.0076200003 -0.00034636364 -0.026893549
-0.0073958826 -0.00011545455 0.0021817205
-0.0056029414 0.00127 -0.03002473
-0.0076200003 0.00034636364 0.0012870968
0.010309412 -0.00011545455 -0.014592472
0.0051547061 -0.00034636364 -0.019736558
0.0078441175 0.00011545455 -0.023538709
0.0078441175 -0.00011545455 -0.033603225
-0.0073958826 -0.00011545455 -0.021302151
-0.0015688236 -0.00057727273 -0.0022913977
0 -0.00034636364 -0.0074354839
0.00022411766 -0.00011545455 -0.03337957
-0.00022411766 -0.00034636364 -0.018170968
0.0078441175 -0.00011545455 -0.01638172
-0.0026894119 -0.00011545455 -0.035392471
-0.010981765 0.0010390909 -0.03114301
0.0024652942 -0.00011545455 0.0015107527
-0.00022411766 -0.00011545455 -0.028235484
0.0076200003 0.00034636364 -0.016829032
-0.0073958826 0.00034636364 -0.031366665
-0.0073958826 0.00011545455 -0.013921505
0.010085294 0.00011545455 0.0017344087
-0.0051547061 0.00034636364 -0.034050535
0.0073958826 0.00011545455 -0.017052688
0.00022411766 -0.00034636364 -0.014592472
0.0053788237 -0.00034636364 -5.4838645e-05
-0.0040341178 -0.00057727273 -0.0022913977
-0.0098611768 0.00080818182 -0.0022913977
-0.0078441175 -0.00011545455 -0.026222579
-0.0073958826 0.00011545455 -0.0098956991
0.0024652942 -0.00011545455 -0.028011827
-0.0082923528 0.00127 -0.0007258064
0.0073958826 -0.00011545455 -0.01638172
0.010981765 -0.00057727273 -0.0022913977
0.010309412 0.00011545455 -0.0085537629
-0.0098611768 -0.00011545455 -0.033155914
0.0026894119 -0.00034636364 -0.018170968
0.0013447059 0.00127 -5.4838645e-05
-0.0024652942 0.00034636364 -0.013474193
0.0049305884 -0.00034636364 -0.0036333331
-0.0024652942 -0.00011545455 -0.0067645158
0.0053788237 0.00034636364 -0.028682794
0.0049305884 -0.00011545455 -0.0047516129
0.00022411766 -0.00034636364 -0.017723655
0.0049305884 0.00011545455 -0.03718172
0.010981765 0.0010390909 -0.029801074
-0.0076200003 -0.00034636364 -0.011908602
-0.0044823531 0.00011545455 -0.028906452
-0.0049305884 -0.00011545455 -0.011908602
-0.0051547061 0.00011545455 -0.019960215
0.00022411766 0.00034636364 -0.01369785
-0.0078441175 -0.00011545455 -0.036510751
0.0026894119 0.00034636364 0.00039247319
-0.0076200003 0.00011545455 -0.0051989243
-0.00022411766 0.00034636364 -0.014592472
0.0026894119 0.00034636364 -0.015487096
-0.0051547061 0.00034636364 -0.01861828
0.00044823531 0.00057727273 -0.0022913977
-0.0067235297 0.00011545455 -0.031366665
0.010085294 -0.00011545455 -0.035392471
0.010085294 0.00034636364 -0.032484945
-0.010533529 -0.00057727273 -0.00027849455
0.0076200003 0.00034636364 0.0010634409
-0.0091888234 0.00011545455 -0.0022913977
0.0026894119 -0.00011545455 -0.027117204
0.00022411766 -0.00034636364 -0.0074354839
-0.00067235297 -0.0010390909 -0.029577419
-0.0060511767 0.00127 -0.0020677419
-0.0049305884 0.00011545455 -0.028682794
-0.0026894119 -0.00127 -0.029353762
-0.00022411766 -0.00011545455 -0.0063172043
0.010981765 -0.00011545455 -0.029130107
-0.0040341178 -0.0010390909 -0.029577419
-0.0051547061 -0.00011545455 -0.035168815
0.0067235297 -0.00127 -0.00050215045
0.0049305884 0.00011545455 -0.0078827953
0.0056029414 -0.00011545455 -5.4838645e-05
-0.0038100001 0.00127 -0.00094946229
-0.011205883 -0.0010390909 -0.030695699
-0.0013447059 0.0010390909 -5.4838645e-05
0.010085294 0.00034636364 -0.028682794
-0.0026894119 -0.00034636364 -0.026669892
-0.0082923528 0.00127 -0.00027849455
-0.0011205883 -0.00127 -0.029353762
0.0089647062 0.00080818182 -5.4838645e-05
0.0040341178 -0.00127 -0.030919354
-0.0049305884 -0.00011545455 -0.0049752686
-0.007171765 0.00034636364 -0.029130107
0.0024652942 0.00034636364 -0.022644086
-0.0051547061 -0.00034636364 -0.0092247305
-0.0067235297 0.00127 -0.0013967741
-0.0024652942 0.00127 -0.00162043
-0.0026894119 0.00034636364 -0.013474193
-0.0020170589 0.00127 -0.030919354
-0.0017929412 -0.00127 -0.031366665
-0.0026894119 0.00034636364 -0.013921505
0.0049305884 0.00080818182 -0.029130107
-0.0024652942 -0.00011545455 -0.011684946
0.010309412 0.00011545455 0.0012870968
0.0078441175 -0.00011545455 -0.027564516
-0.00022411766 0.00011545455 -0.012803226
-0.0073958826 0.00011545455 -0.010119354
-0.0078441175 0.00011545455 -0.025551612
-0.00022411766 0.00034636364 -0.0067645158
-0.0044823531 0.0010390909 -0.03114301
0.010533529 0.00011545455 -0.0025150536
0.0017929412 0.00034636364 -5.4838645e-05
-0.0031376472 -0.00011545455 -5.4838645e-05
-0.0076200003 0.00011545455 -0.0063172043
0.0078441175 0.00127 -0.030695699
-0.00022411766 -0.00011545455 -0.011908602
-0.010981765 -0.0010390909 -0.00162043
0.0094129415 0.00011545455 -0.028906452
0 -0.00034636364 -0.032932259
0.0026894119 -0.00011545455 -0.03561613
-0.0024652942 -0.00011545455 -0.023762366
-0.005827059 -0.00127 -0.030248387
-0.0051547061 -0.00034636364 -0.017276343
-0.0049305884 -0.00034636364 -0.026222579
-0.011205883 0.00011545455 -0.0007258064
-0.0051547061 -0.00034636364 -0.0054225805
-0.011205883 0.00011545455 -0.00162043
-0.0098611768 -0.00011545455 -0.022420429
-0.0094129415 -0.00127 -0.0018440859
-0.010309412 -0.00011545455 -0.028011827
-0.0026894119 -0.00011545455 0.00061612908
-0.0087405881 0.00127 -0.0018440859
-0.010757647 0.00034636364 -0.0022913977
-0.0087405881 -0.00057727273 -0.0022913977
-0.0026894119 -0.00127 -0.0022913977
0.00044823531 0.00127 -0.0011731182
-0.0049305884 -0.00011545455 -0.011013978
0.0011205883 0.00034636364 -0.029130107
0.00022411766 0.00011545455 -0.025998924
0.00089647062 0.0010390909 -5.4838645e-05
0.0067235297 0.00034636364 -0.0022913977
-0.0096370587 -0.00011545455 -0.028906452
-0.0053788237 -0.00011545455 -0.03561613
-0.0011205883 -0.00127 -0.030472042
-0.010309412 0.00011545455 -0.024656989
-0.0078441175 -0.00011545455 -0.0036333331
-0.0098611768 -0.00011545455 -0.035392471
-0.010309412 -0.00127 -0.030248387
-0.007171765 0.00127 -0.0011731182
-0.0051547061 0.00011545455 -0.024209676
0.0067235297 0.00127 -0.030472042
-0.0051547061 0.00011545455 -0.035168815
-0.0015688236 -0.00127 -5.4838645e-05
0.0076200003 0.00034636364 -0.012355913
0.010981765 0.00127 -0.00027849455
0.0033617648 0.00127 -0.030248387
0.0082923528 0.00057727273 -0.00027849455
0.0049305884 -0.00011545455 -0.034721505
0.010085294 0.00011545455 -0.014145161
0.0015688236 0.00057727273 -0.029130107
-0.0024652942 0.00034636364 -0.028682794
-0.0056029414 -0.00057727273 -0.00027849455
0.0017929412 -0.00034636364 -5.4838645e-05
0.0053788237 0.00011545455 -0.0054225805
0.0049305884 -0.00127 -0.00050215045
0.0076200003 0.00127 -0.00162043
-0.005827059 -0.0010390909 -0.0022913977
0.0076200003 0.0010390909 -0.0022913977
0.0049305884 -0.00011545455 -0.036510751
0.0017929412 -0.0010390909 -5.4838645e-05
0.0026894119 -0.00127 -0.029577419
0.0056029414 0.00034636364 -0.028906452
-0.0076200003 0.00034636364 -0.024880644
-0.0073958826 0.00011545455 -0.010343011
0.0011205883 0.0010390909 -5.4838645e-05
0.0033617648 -0.00127 -0.029577419
-0.0051547061 0.00011545455 -0.020183871
-0.0076200003 -0.00034636364 -0.0063172043
-0.00022411766 -0.00034636364 -0.021078493
-0.0073958826 0.00057727273 -0.00027849455
0.0026894119 -0.00034636364 -0.03226129
-0.0015688236 -0.00127 -0.029577419
0.0049305884 0.00034636364 -0.024880644
-0.00022411766 0.00034636364 -0.01257957
0.0051547061 0.00034636364 -0.036510751
-0.0082923528 0.00057727273 -0.0022913977
0.0022411766 0.00011545455 -0.012803226
-0.0024652942 -0.00034636364 -0.0074354839
0.00022411766 -0.00011545455 -0.022644086
-0.010757647 0.00057727273 -0.029130107
0.0051547061 0.00080818182 -5.4838645e-05
0.0049305884 -0.00080818182 -0.029130107
-0.0017929412 -0.00127 -0.029577419
0.0026894119 0.00034636364 -0.0038569891
-0.0076200003 0.00034636364 -0.0049752686
-0.0024652942 0.00011545455 -0.0040806448
-0.0024652942 0.00034636364 -0.034050535
-0.010757647 -0.00127 -0.030248387
-0.01143 -0.00057727273 -0.030919354
-0.0024652942 0.00034636364 -0.019065591
-0.010533529 0.00127 -0.0022913977
0.0022411766 0.00011545455 -0.020854838
0.005827059 -0.0010390909 -0.029130107
-0.007171765 -0.0010390909 -0.031366665
-0.0051547061 -0.00034636364 -0.016829032
-0.010085294 0.00011545455 -0.021749461
