# .PCD v0.7 - Point Cloud Data file format
VERSION 0.7
FIELDS x y z
SIZE 4 4 4
TYPE F F F
COUNT 1 1 1
WIDTH 1386
HEIGHT 1
VIEWPOINT 0 0 0 1 0 0 0
POINTS 1386
DATA ascii
0.027978292 0.00127 -0.00078510621
-0.0083730659 0.00084666669 -0.026521275
-0.034513369 -0.00127 -0.00037659559
0.035738695 0.00084666669 -0.026112765
-0.034513369 0 -0.0093638292
-0.016541909 -0.00127 -0.0024191488
0.011232161 0 -0.033874467
0.027161408 0.00084666669 -0.026521275
0.030428946 0.00042333335 -0.028155318
-0.0046970854 0.00042333335 -0.028155318
-0.019401006 -0.00127 -0.00037659559
0.034104925 0 -0.028563829
-0.0022464322 0.00127 -0.027746808
0.026752966 0.00127 -0.00037659559
-0.0051055276 0.00042333335 -0.026112765
-0.034104925 -0.00127 -0.0024191488
0.024710754 -0.00084666669 -0.027338296
0.026344523 0 -0.028155318
0.010415277 0.00127 -0.00037659559
-0.036964022 0 -0.0073212762
0.021443216 0 -0.032648936
-0.014091257 0 -0.02284468
-0.023076985 -0.00127 -0.00037659559
-0.02920362 0.00127 -0.0016021274
0.012457488 -0.00042333335 -0.026112765
-0.038597789 0.00127 -0.0020106381
0.022668544 -0.00084666669 -0.027746808
-0.00020422111 0.00127 -0.026112765
0.010823719 0.00127 -0.00037659559
-0.034104925 0.00042333335 -0.028155318
-0.036964022 0 -0.018351063
-0.021034775 -0.00127 -0.0020106381
0.034104925 -0.00127 -0.0016021274
-0.018992564 0 -0.023253191
0.0042886431 0.00127 -0.00037659559
0.037372462 -0.00127 -0.0020106381
-0.0087815076 0 -0.0036446806
-0.011232161 0 -0.0077297869
-0.022668544 -0.00084666669 -0.028155318
0.02920362 0.00042333335 -0.025295744
0.0038802011 0.00042333335 -0.031014893
-0.020626333 -0.00127 -0.00078510621
0.036147136 -0.00127 -0.026929786
-0.020626333 -0.00127 -0.0011936169
-0.021851659 -0.00042333335 -0.028155318
-0.016133469 0 -0.028155318
0.036147136 -0.00084666669 -0.026112765
-0.039414674 0 -0.024478722
-0.016950352 -0.00127 -0.026929786
0.029612061 -0.00127 -0.027746808
0.0042886431 0.00127 -0.026521275
0.026752966 0 -0.028972339
-0.030428946 -0.00042333335 -0.00037659559
-0.011232161 -0.00127 -0.026112765
0.018992564 0.00042333335 -0.026929786
0.0063308543 0 -0.017942552
0.014091257 0.00042333335 -0.026112765
0.023076985 -0.00084666669 -0.0024191488
-0.039823115 -0.00127 -0.0020106381
0.021443216 0 -0.015491488
-0.021851659 -0.00042333335 -0.026112765
0.0055139698 -0.00084666669 -0.026112765
0.0030633167 -0.00127 -0.026112765
-0.0038802011 0 -0.015491488
-0.0079646232 -0.00084666669 -0.0024191488
-0.027978292 0.00042333335 -0.026112765
0.016541909 0 -0.031423401
-0.02920362 0 -0.017125532
-0.024710754 0.00127 -0.0016021274
-0.034513369 0.00042333335 -0.00037659559
-0.0046970854 0.00127 -0.0011936169
0.011640604 -0.00042333335 -0.027746808
0.0038802011 0 -0.018759573
-0.026752966 0 0.00084893627
-0.034104925 0.00127 -0.0016021274
-0.0087815076 0 -0.0073212762
0.014091257 0 -0.015082978
-0.034104925 0 -0.01671702
-0.016950352 -0.00042333335 -0.026112765
-0.00183799 -0.00127 -0.00037659559
-0.039414674 -0.00127 -0.0020106381
-0.02920362 0.00042333335 -0.024478722
-0.017358795 0 -0.026112765
0.034513369 0 -0.010180851
0.038189348 -0.00127 -0.027746808
0.011640604 0 -0.0077297869
0.030837387 -0.00042333335 -0.0024191488
0.017767237 0.00042333335 -0.028155318
0.024302313 -0.00084666669 -0.0024191488
0.03492181 0 -0.0024191488
0.022260102 -0.00127 -0.026521275
-0.035330251 -0.00127 -0.0016021274
0.022260102 0.00042333335 -0.026929786
0.02389387 0 -0.033057444
0.022260102 -0.00127 -0.0020106381
-0.036555577 0.00127 -0.0020106381
0.012457488 0.00127 -0.0011936169
0.030837387 0.00042333335 -0.0024191488
0.0087815076 0 -0.0036446806
-0.021034775 0 -0.00037659559
-0.0051055276 -0.00127 -0.0020106381
-0.0038802011 0 -0.02938085
-0.016133469 0.00127 -0.027746808
-0.032879598 0.00127 -0.027338296
0.014908141 0 -0.00037659559
-0.034104925 0 -0.0056872335
-0.0026548745 -0.00127 -0.026112765
-0.021851659 0.00084666669 -0.027338296
0.036147136 -0.00042333335 -0.027338296
0.0022464322 0.00127 -0.0016021274
0.021851659 -0.00084666669 -0.027746808
0.016541909 -0.00042333335 -0.028972339
0.012457488 -0.00127 -0.0020106381
-0.014091257 0 -0.015899999
-0.023485428 0.00127 -0.0020106381
-0.014091257 -0.00127 -0.0024191488
0.032471158 -0.00127 -0.026929786
-0.0014295478 0.00042333335 -0.031423401
0.011232161 0.00127 -0.026929786
0.017767237 0.00127 -0.0011936169
0.021034775 0.00127 -0.0024191488
0.032062713 0 -0.033874467
-0.016541909 -0.00042333335 -0.033465955
0.027978292 -0.00127 -0.0024191488
0.0087815076 0 -0.019985106
0.0010211056 0 -0.024478722
0.035738695 -0.00084666669 -0.0024191488
-0.0067392965 0.00084666669 -0.0024191488
0.0067392965 0.00042333335 -0.028155318
-0.00183799 0.00127 -0.0016021274
0.018992564 0.00127 -0.00037659559
0.0014295478 0 -0.0052787228
-0.010006835 0 -0.028155318
-0.0087815076 0 -0.0040531913
0.030428946 -0.00084666669 -0.0024191488
-0.014091257 0.00042333335 -0.026112765
-0.021851659 0 -0.022027658
-0.016541909 0 -0.023661701
0.031654272 0 -0.02284468
0.016541909 0.00042333335 -0.027338296
0.025119197 -0.00042333335 -0.028155318
0.012457488 -0.00127 -0.0011936169
-0.018992564 0 -0.034282979
0.038597789 -0.00084666669 -0.00037659559
0.0014295478 0 -0.013857446
-0.02920362 -0.00084666669 -0.028155318
0.019809447 0 -0.0024191488
-0.021443216 0.00084666669 -0.00037659559
0.023076985 0.00127 -0.0024191488
-0.01286593 0.00042333335 -0.0020106381
0.038189348 -0.00084666669 -0.0020106381
0.017767237 0.00042333335 -0.026929786
-0.012457488 -0.00042333335 -0.0020106381
-0.012457488 -0.00127 -0.0024191488
0.014499699 -0.00127 -0.0020106381
0.0071477387 0.00127 -0.00078510621
-0.039414674 0 -0.0073212762
-0.02021789 -0.00127 -0.027338296
-0.030020503 -0.00127 -0.00078510621
-0.014091257 0 -0.019985106
-0.023485428 0.00042333335 -0.026929786
-0.0014295478 0 -0.013448936
0.034104925 -0.00127 -0.027338296
0.0014295478 0 -0.024478722
0.020626333 0.00042333335 -0.026929786
-0.0087815076 0 -0.018351063
-0.036555577 0.00042333335 -0.027746808
0.012457488 -0.00127 -0.026929786
0.011640604 0 0.0016659575
-0.036555577 0.00084666669 -0.00037659559
0.024302313 -0.00042333335 -0.026112765
-0.01286593 -0.00127 -0.027746808
0.0034717589 -0.00127 -0.0016021274
0.038189348 0 -0.028155318
-0.0022464322 -0.00127 -0.0011936169
-0.036555577 0 -0.025704253
0.030837387 0.00127 -0.027338296
-0.026752966 -0.00042333335 -0.026112765
0.0067392965 -0.00084666669 -0.0020106381
-0.0079646232 -0.00042333335 -0.026929786
-0.0010211056 0.00042333335 -0.026521275
-0.031654272 0 -0.0065042549
0.034104925 0 -0.018759573
-0.0051055276 0 -0.0024191488
0.039414674 -0.00127 -0.0020106381
0.032879598 -0.00127 -0.027338296
-0.014908141 -0.00127 -0.0020106381
0.034104925 0 -0.0032361699
-0.014091257 0 -0.010589361
-0.02920362 0 -0.028563829
-0.016950352 -0.00084666669 -0.0020106381
0.0034717589 -0.00127 -0.0011936169
0.016133469 0.00042333335 -0.026112765
0.0030633167 -0.00042333335 -0.026929786
0.021443216 0 -0.0040531913
-0.022260102 -0.00127 -0.00037659559
0.014091257 0 -0.004461702
0.011640604 0 -0.031014893
-0.015316583 0.00127 -0.0011936169
0.020626333 -0.00127 -0.0016021274
0.02389387 -0.00127 -0.00078510621
-0.021851659 0 -0.012631915
-0.0030633167 0 -0.026112765
-0.022260102 0.00084666669 -0.027338296
-0.0038802011 -0.00127 -0.00037659559
0.005922412 -0.00042333335 -0.027338296
-0.0046970854 -0.00127 -0.00078510621
0.025936082 0.00127 -0.027338296
0.025119197 0.00127 -0.0024191488
0.028795177 -0.00042333335 -0.026521275
0.031654272 0 -0.0036446806
-0.0038802011 0.00042333335 -0.026521275
-0.02920362 0.00042333335 -0.00037659559
0.0087815076 -0.00042333335 -0.02978936
0.024302313 0 -0.024070213
0.036964022 0.00042333335 -0.028972339
-0.039823115 -0.00127 -0.0011936169
0.030837387 -0.00127 -0.00078510621
0.0038802011 -0.00042333335 -0.027746808
0.012049045 -0.00042333335 -0.028155318
-0.0091899503 0.00127 -0.026929786
-0.018992564 0.00127 -0.0011936169
-0.038597789 0.00042333335 -0.028155318
0.0038802011 -0.00042333335 -0.031831913
-0.00020422111 -0.00042333335 -0.0024191488
-0.028386734 -0.00127 -0.028155318
-0.034104925 0.00042333335 -0.0024191488
-0.0038802011 0.00042333335 -0.02978936
-0.016541909 0 -0.024887232
0.00061266334 -0.00084666669 -0.00037659559
0.029612061 0.00127 -0.0016021274
-0.021443216 0 -0.0036446806
-0.033696484 0 -0.00037659559
-0.0087815076 0.00042333335 -0.031014893
-0.012457488 -0.00042333335 -0.026929786
-0.024302313 0 -0.023253191
-0.01286593 -0.00084666669 -0.0020106381
-0.011232161 -0.00042333335 -0.028155318
-0.011640604 0 -0.02978936
0.011232161 0.00042333335 -0.0024191488
0.014908141 0 -0.026112765
0.0010211056 0 -0.031014893
0.0022464322 0.00127 -0.028155318
0.018992564 0 -0.0069127656
0.023076985 0 -0.00037659559
0.010823719 -0.00042333335 -0.027746808
0.024710754 0.00127 -0.026521275
-0.0087815076 0 0.00044042565
-0.035330251 -0.00042333335 -0.028155318
0.0091899503 0.00127 -0.00037659559
-0.034104925 0 -0.030606382
0.018175678 0.00127 -0.00037659559
-0.017767237 0.00127 -0.026112765
-0.018992564 0 -0.0024191488
0.026752966 0 -0.024887232
-0.035330251 0.00042333335 -0.027338296
0.0014295478 0.00127 -0.026521275
0.032471158 0.00127 -0.0016021274
0.0063308543 -0.00042333335 -0.027338296
-0.034513369 0 -0.025704253
-0.038597789 0 -0.0020106381
0.014091257 0.00127 -0.00037659559
-0.039414674 0.00042333335 -0.026521275
-0.02920362 0 -0.022027658
-0.0063308543 -0.00042333335 -0.031423401
0.04064 0.00042333335 -0.00037659559
-0.0079646232 -0.00127 -0.027746808
0.038189348 -0.00084666669 -0.027746808
0.016541909 -0.00127 -0.026521275
0.018992564 0 -0.0073212762
-0.026752966 0 -0.0056872335
0.0030633167 -0.00127 -0.0024191488
0.0014295478 0 -0.013040425
0.012049045 -0.00127 -0.027746808
-0.036555577 -0.00127 -0.0020106381
0.031654272 0 -0.0028276592
-0.036964022 0 -0.010180851
0.024302313 0 -0.028563829
0.027978292 -0.00127 -0.026521275
0.0063308543 0 0.0012574469
0.016133469 -0.00084666669 -0.028155318
-0.030837387 -0.00042333335 -0.0024191488
0.034104925 0 -0.025295744
-0.011640604 -0.00127 -0.0024191488
-0.016950352 -0.00042333335 -0.026929786
-0.0026548745 -0.00127 -0.0011936169
0.011232161 0 0.0012574469
0.011232161 0.00042333335 -0.00037659559
-0.036964022 0 -0.032648936
-0.016950352 0.00127 -0.027338296
0.016950352 0.00127 -0.026521275
-0.018992564 0 -0.019168084
0.016133469 -0.00127 -0.0016021274
-0.0038802011 -0.00042333335 -0.02243617
-0.023485428 -0.00127 -0.026929786
-0.021443216 0.00127 -0.0020106381
-0.010415277 0.00127 -0.027746808
-0.0038802011 -0.00042333335 -0.02938085
-0.0091899503 0 -0.015491488
-0.018584121 0.00127 -0.00078510621
-0.032062713 0 0.0024829789
-0.02021789 -0.00127 -0.0016021274
-0.021443216 0 -0.023253191
-0.0014295478 -0.00127 -0.00037659559
0.015316583 -0.00084666669 -0.026521275
-0.013274373 -0.00127 -0.00037659559
-0.019401006 0.00127 -0.0016021274
-0.011640604 -0.00127 -0.028155318
-0.03124583 0.00127 -0.0020106381
0.0014295478 0.00042333335 -0.00037659559
0.00061266334 0.00127 -0.026929786
-0.024302313 -0.00042333335 -0.00037659559
-0.039823115 -0.00127 -0.0016021274
-0.024302313 0 -0.01671702
0.02920362 0 -0.019576594
0.032062713 0 -0.021619149
-0.02920362 0 0.0016659575
-0.012049045 0 -0.028155318
0.011640604 0.00042333335 -0.026112765
0.0038802011 0 -0.033465955
0.014908141 0 -0.0024191488
-0.024302313 0 -0.018759573
-0.025527639 0.00127 -0.00037659559
0.027978292 0.00042333335 -0.028155318
0.017358795 0.00127 -0.0011936169
0.032062713 0.00127 -0.0020106381
-0.012049045 -0.00127 -0.026929786
-0.032062713 -0.00127 -0.0020106381
0.0042886431 -0.00127 -0.027338296
-0.020626333 -0.00127 -0.026521275
0.021851659 0 -0.033465955
0.025119197 -0.00084666669 -0.00037659559
0.0063308543 0 -0.025295744
0.022260102 -0.00127 -0.026112765
0.017358795 -0.00127 -0.00078510621
-0.0063308543 0 0.00044042565
0.0010211056 0 -0.02978936
-0.038189348 -0.00127 -0.0020106381
-0.0091899503 0 -0.0093638292
-0.02021789 0.00127 -0.0011936169
0.0051055276 0 -0.00037659559
0.021851659 0 -0.019168084
0.011640604 0 -0.012631915
-0.0087815076 0 -0.0085468078
-0.021443216 -0.00127 -0.026929786
0.011640604 -0.00127 -0.026929786
0.0046970854 -0.00042333335 -0.027746808
-0.005922412 -0.00127 -0.026929786
-0.026752966 0 -0.031423401
0.035738695 0 -0.026112765
-0.015316583 0.00042333335 -0.026521275
0.024302313 0 0.00084893627
-0.03492181 0.00042333335 -0.0024191488
-0.0087815076 0.00042333335 -0.027338296
-0.036555577 -0.00127 -0.0011936169
0.010006835 0.00042333335 -0.0020106381
0.0014295478 -0.00127 -0.0024191488
0.011232161 0 -0.0077297869
-0.016541909 0.00042333335 -0.024887232
-0.036964022 0 -0.020802127
-0.022668544 0.00084666669 -0.0020106381
0.02920362 0.00127 -0.026929786
0.026344523 -0.00127 -0.026929786
0.018992564 0.00042333335 -0.026521275
-0.036147136 -0.00042333335 -0.027746808
-0.02389387 -0.00127 -0.027338296
-0.01286593 0.00084666669 -0.0020106381
-0.0067392965 0.00084666669 -0.00037659559
0.0095983921 0 -0.00037659559
0.035738695 0.00042333335 -0.00037659559
-0.027161408 0.00084666669 -0.028155318
-0.021851659 0 -0.0052787228
0.0063308543 -0.00042333335 -0.026929786
-0.020626333 0 -0.00037659559
-0.027978292 -0.00127 -0.00078510621
0.0063308543 0 -0.018759573
0.015725026 -0.00042333335 -0.027338296
0.0014295478 0.00127 -0.0024191488
-0.015725026 0.00127 -0.0011936169
-0.0022464322 -0.00042333335 -0.026521275
-0.032062713 0 -0.023253191
0.0042886431 -0.00127 -0.026521275
0.025119197 0.00127 -0.0016021274
0.0026548745 0 -0.028155318
0.030020503 0 -0.026112765
0.025936082 -0.00127 -0.027746808
-0.010415277 -0.00127 -0.026521275
-0.018992564 0 -0.0048702126
0.024302313 0 -0.0065042549
-0.0063308543 0 -0.031831913
-0.0091899503 -0.00042333335 -0.00037659559
0.028795177 0.00127 -0.027746808
0.034513369 0 -0.011814893
-0.033696484 -0.00084666669 -0.00037659559
-0.0063308543 0 -0.011814893
-0.0067392965 -0.00127 -0.0024191488
-0.032471158 0.00127 -0.028155318
0.016541909 0.00042333335 -0.031014893
-0.015316583 0 -0.0020106381
0.026752966 0.00084666669 -0.0024191488
-0.0079646232 0.00127 -0.027746808
0.0022464322 0.00042333335 -0.027338296
0.023485428 -0.00127 -0.026521275
0.0055139698 0.00042333335 -0.026521275
-0.039006233 -0.00127 -0.0020106381
-0.034513369 0 -0.015491488
0.0030633167 -0.00127 -0.026929786
-0.0046970854 0.00084666669 -0.026112765
0.026752966 0 -0.0052787228
-0.016541909 0 0.0028914893
-0.031654272 -0.00084666669 -0.026929786
-0.028386734 -0.00127 -0.00037659559
0.030428946 -0.00127 -0.0011936169
0.020626333 0.00127 -0.00037659559
-0.026752966 0 -0.019168084
0.0079646232 -0.00127 -0.0016021274
-0.0014295478 0 -0.0060957442
-0.031654272 -0.00127 -0.00037659559
0.00183799 0 -0.0024191488
-0.039414674 0 -0.017125532
-0.034513369 0 -0.0056872335
-0.02389387 0.00084666669 -0.027746808
-0.031654272 0 3.191502e-05
-0.020626333 0 -0.0020106381
0.032471158 0 -0.028155318
0.010006835 -0.00042333335 -0.026929786
0.014908141 0 -0.028155318
0.021851659 0.00127 -0.0011936169
-0.0087815076 0 -0.016308511
-0.026752966 0 -0.016308511
0.012049045 -0.00042333335 -0.026929786
0.018992564 0 -0.02284468
0.013274373 -0.00127 -0.027746808
0.038189348 0 -0.0020106381
0.0067392965 -0.00127 -0.0020106381
-0.02389387 -0.00042333335 -0.0024191488
0.0034717589 0 -0.01671702
-0.0087815076 0.00127 -0.027338296
0.02389387 0.00127 -0.027338296
-0.0010211056 0 -0.02978936
0.020626333 -0.00042333335 -0.026521275
0.024302313 0.00127 -0.0011936169
-0.024302313 0 -0.031423401
0.022260102 -0.00042333335 -0.026521275
0.0087815076 0 0.0016659575
-0.01286593 0.00042333335 -0.028155318
-0.0014295478 -0.00042333335 -0.027746808
0.025119197 0.00127 -0.00037659559
0.0063308543 -0.00127 -0.026929786
0.024710754 0.00127 -0.00037659559
-0.0014295478 0 -0.024887232
-0.0095983921 0.00127 -0.0011936169
-0.0051055276 0.00084666669 -0.026112765
-0.0042886431 -0.00127 -0.028155318
0.016541909 -0.00042333335 -0.026112765
-0.014091257 0.00127 -0.027746808
0.00061266334 -0.00127 -0.026521275
-0.031654272 0 -0.010180851
0.018175678 0.00127 -0.0024191488
-0.021851659 0 -0.0097723398
0.0038802011 0 -0.023661701
0.021851659 -0.00042333335 -0.026929786
-0.021034775 -0.00042333335 -0.00037659559
-0.014908141 -0.00042333335 -0.0020106381
0.03124583 0 -0.026112765
-0.0087815076 0.00042333335 -0.026929786
-0.039414674 0 0.0012574469
-0.0063308543 0.00042333335 -0.023661701
0.02920362 -0.00127 -0.0020106381
-0.021443216 0 -0.021210637
0.018992564 0.00127 -0.026112765
0.018992564 0 -0.015491488
-0.0087815076 -0.00042333335 -0.027338296
-0.0026548745 -0.00042333335 -0.00037659559
0.037780907 -0.00127 -0.026112765
-0.0079646232 0 -0.0020106381
-0.036964022 0 -0.022027658
-0.039414674 0.00084666669 -0.0020106381
-0.0071477387 -0.00042333335 -0.00037659559
-0.018992564 0.00042333335 -0.02938085
-0.024302313 0 -0.032240424
-0.0042886431 0.00127 -0.0011936169
0.020626333 0 -0.026112765
-0.026752966 0 -0.013040425
-0.023485428 -0.00042333335 -0.026521275
-0.037780907 0.00127 -0.0011936169
0.020626333 -0.00127 -0.00078510621
-0.034104925 -0.00127 -0.0016021274
0.016541909 -0.00042333335 -0.00037659559
0.032062713 0 -0.012631915
-0.034104925 0 -0.017942552
-0.0087815076 0.00042333335 -0.0024191488
0.00061266334 -0.00127 -0.028155318
-0.021034775 0.00042333335 -0.0020106381
0.016541909 -0.00127 -0.00078510621
0.030428946 -0.00127 -0.00037659559
-0.013682814 -0.00042333335 -0.027746808
0.032062713 0 -0.024887232
-0.0063308543 0 0.0028914893
0.034104925 0 -0.031423401
0.025527639 0.00084666669 -0.028155318
0.019401006 0.00084666669 -0.028155318
0.018584121 0.00127 -0.027746808
-0.036555577 0 -0.024887232
-0.030020503 0.00127 -0.028155318
-0.032879598 0.00042333335 -0.0020106381
0.00061266334 -0.00042333335 -0.027338296
0.014091257 0.00127 -0.0016021274
-0.02021789 0.00127 -0.026521275
0.034513369 0 -0.033057444
-0.0038802011 0 0.0016659575
-0.025119197 -0.00127 -0.0016021274
0.031654272 0 -0.018759573
0.021851659 0 -0.024070213
-0.021443216 -0.00127 -0.026112765
0.021443216 0 -0.0060957442
-0.035738695 0.00084666669 -0.026112765
-0.021851659 0 -0.023661701
0.032879598 0.00127 -0.0020106381
-0.0030633167 0.00127 -0.026929786
-0.028386734 -0.00042333335 -0.028155318
0.0034717589 0 -0.012631915
0.031654272 -0.00042333335 -0.0024191488
0.026752966 0 -0.024478722
0.023485428 0.00042333335 -0.028155318
-0.019809447 -0.00127 -0.028155318
-0.025527639 0.00127 -0.027746808
-0.021851659 0 -0.0024191488
0.022260102 -0.00042333335 -0.00037659559
-0.0075561809 0.00042333335 -0.027338296
0.0038802011 0 -0.021210637
-0.025119197 -0.00042333335 -0.0020106381
0.0034717589 0 -0.017942552
-0.02920362 0 0.0024829789
0.0014295478 0 -0.028563829
0.034104925 0.00127 -0.026929786
0.039414674 0 -0.020393616
0.0055139698 -0.00127 -0.0024191488
-0.0014295478 0 -0.0073212762
-0.030428946 0.00084666669 -0.026929786
-0.034104925 0 -0.023661701
0.0026548745 0.00127 -0.026521275
0.0087815076 -0.00127 -0.00037659559
-0.034104925 0.00127 -0.00037659559
0.021034775 0.00127 -0.027746808
0.025119197 -0.00042333335 -0.026112765
0.039414674 0.00042333335 -0.027746808
0.0095983921 0.00042333335 -0.026112765
0.031654272 0 -0.031423401
-0.025527639 0.00127 -0.0011936169
-0.02920362 0 -0.0097723398
0.016133469 -0.00042333335 -0.028155318
0.0063308543 0 -0.019985106
-0.03124583 -0.00084666669 -0.00037659559
0.011640604 0 -0.011814893
-0.016541909 0 -0.019985106
-0.031654272 0 -0.028563829
-0.010006835 0.00127 -0.0016021274
0.010006835 -0.00042333335 -0.026112765
-0.036555577 -0.00042333335 -0.026929786
0.0063308543 0 -0.024887232
0.022260102 -0.00042333335 -0.026112765
-0.032062713 0 -0.0060957442
-0.027161408 -0.00127 -0.026929786
-0.018992564 -0.00127 -0.028155318
0.026344523 -0.00127 -0.026521275
0.0038802011 0 -0.017534042
0.014091257 0 -0.0040531913
0.023485428 0 -0.0024191488
-0.036964022 -0.00042333335 -0.031014893
0.013682814 0 -0.0024191488
0.010823719 -0.00042333335 -0.028155318
-0.0091899503 0.00127 -0.00078510621
0.021851659 0.00042333335 -0.028155318
0.030020503 0 -0.0024191488
-0.036147136 -0.00127 -0.028155318
0.034104925 0 -0.020393616
-0.031654272 0.00084666669 -0.0024191488
-0.0030633167 0.00127 -0.028155318
0.034513369 0 -0.0085468078
0.014091257 0 -0.010589361
0.03492181 -0.00084666669 -0.0024191488
0.0046970854 0 -0.0020106381
-0.017767237 0.00127 -0.0011936169
0.0095983921 0.00127 -0.0024191488
0.026344523 0.00127 -0.027746808
-0.012457488 0.00127 -0.0011936169
0.036964022 0 -0.033465955
0.0091899503 0 -0.0024191488
-0.0026548745 0.00042333335 -0.0024191488
0.017358795 -0.00127 -0.00037659559
-0.018992564 0 -0.033465955
-0.013274373 -0.00042333335 -0.00037659559
-0.014499699 0.00042333335 -0.026929786
0.026752966 0 -0.033465955
0.0014295478 -0.00042333335 -0.025704253
-0.0083730659 0 -0.00037659559
-0.026752966 0 -0.018351063
-0.0079646232 0.00127 -0.027338296
0.024302313 0.00084666669 -0.027338296
0.0095983921 -0.00084666669 -0.026112765
0.0034717589 -0.00127 -0.027338296
-0.018992564 0 -0.024887232
-0.038597789 -0.00042333335 -0.026112765
0.0038802011 0 -0.021619149
-0.021851659 0 -0.011814893
-0.034104925 0 -0.025704253
-0.022668544 0.00127 -0.027338296
0.0038802011 -0.00042333335 -0.02978936
-0.018992564 0.00042333335 -0.0024191488
0.024302313 0 3.191502e-05
-0.0087815076 0.00042333335 -0.030197872
0.039414674 0 -0.010180851
0.027569851 0.00127 -0.0020106381
-0.011640604 0.00042333335 -0.026521275
0.024710754 0.00084666669 -0.028155318
0.010415277 -0.00042333335 -0.026929786
0.0087815076 0 -0.017534042
0.036147136 0.00084666669 -0.028155318
-0.0091899503 0 -0.02243617
-0.021443216 0 -0.030606382
0.034513369 0 -0.031423401
-0.016541909 -0.00042333335 -0.026112765
-0.039823115 0.00042333335 -0.0020106381
0.027978292 0.00084666669 -0.028155318
-0.023076985 0.00042333335 -0.026112765
0.0014295478 0 -0.023661701
0.014091257 -0.00042333335 -0.032240424
0.014499699 0.00084666669 -0.0024191488
-0.0010211056 -0.00084666669 -0.00037659559
-0.0075561809 -0.00127 -0.0020106381
0.016541909 0 -0.031831913
0.032471158 -0.00127 -0.00037659559
-0.016541909 -0.00084666669 -0.00037659559
-0.0067392965 -0.00127 -0.0020106381
0.039414674 0 -0.014265956
0.035330251 -0.00127 -0.0024191488
0.010823719 0.00042333335 -0.027746808
-0.031654272 -0.00127 -0.028155318
0.0055139698 -0.00042333335 -0.026929786
0.010006835 0.00042333335 -0.00037659559
0.02920362 0 -0.019168084
0.0055139698 -0.00084666669 -0.0024191488
-0.037780907 0.00127 -0.0020106381
-0.016541909 0 -0.0036446806
-0.0095983921 -0.00127 -0.0011936169
-0.037372462 0.00127 -0.0011936169
0.032471158 0.00042333335 -0.026112765
0.0063308543 0 -0.0028276592
0.021443216 0.00084666669 -0.00037659559
-0.032471158 0 -0.028155318
-0.0042886431 0.00042333335 -0.00037659559
0.016541909 -0.00042333335 -0.025295744
-0.018992564 -0.00042333335 -0.024478722
0.0038802011 0 -0.030606382
-0.0063308543 0 -0.012631915
-0.026752966 0 -0.02938085
-0.021034775 0.00127 -0.026929786
-0.032471158 0.00042333335 -0.027338296
-0.027161408 -0.00042333335 -0.028155318
0.0014295478 0.00127 -0.026112765
0.011232161 0 -0.0052787228
-0.0095983921 0.00127 -0.00037659559
-0.0063308543 0 -0.019985106
0.0038802011 -0.00042333335 -0.026929786
-0.012457488 -0.00127 -0.0016021274
-0.02389387 -0.00127 -0.0024191488
-0.029612061 0.00127 -0.0020106381
0.025119197 0.00127 -0.026112765
0.0071477387 0.00127 -0.027746808
0.02920362 0 -0.0065042549
0.010006835 -0.00127 -0.0016021274
0.030837387 -0.00127 -0.0011936169
0.010415277 -0.00127 -0.027746808
-0.011232161 -0.00042333335 -0.026929786
0.032062713 0 -0.011406383
-0.029612061 0.00042333335 -0.028155318
-0.0042886431 0.00127 -0.00078510621
-0.011640604 0 -0.021619149
-0.00020422111 -0.00042333335 -0.027338296
-0.032062713 0 -0.024070213
0.023076985 -0.00127 -0.0024191488
0.0042886431 0.00042333335 -0.026521275
0.030020503 -0.00127 -0.0024191488
0.034104925 0 -0.033465955
0.021443216 -0.00127 -0.026929786
-0.033696484 0.00042333335 -0.028155318
0.033288039 0 -0.0020106381
0.012457488 0.00042333335 -0.028155318
-0.014091257 0 -0.02243617
0.036964022 0.00042333335 -0.025295744
-0.021851659 0 -0.025295744
0.01286593 -0.00042333335 -0.026929786
-0.018992564 0 -0.025295744
0.026344523 -0.00127 -0.0024191488
0.020626333 0.00127 -0.027338296
-0.0055139698 -0.00042333335 -0.027746808
0.017767237 -0.00042333335 -0.0024191488
0.032879598 0.00084666669 -0.028155318
0.0010211056 0 -0.024070213
-0.038597789 -0.00084666669 -0.026112765
0.012457488 0.00127 -0.0016021274
0.024302313 0 -0.0097723398
0.037780907 -0.00127 -0.0016021274
-0.018175678 -0.00084666669 -0.028155318
0.011232161 0 -0.032240424
0.026752966 0.00127 -0.028155318
-0.017767237 -0.00042333335 -0.028155318
0.017767237 0.00042333335 -0.00037659559
0.034104925 0.00127 -0.0011936169
0.034513369 0.00127 -0.027746808
0.0087815076 -0.00042333335 -0.022027658
-0.02920362 0 -0.0032361699
-0.030837387 -0.00084666669 -0.026521275
-0.030020503 -0.00127 -0.0011936169
0.0087815076 -0.00127 -0.026112765
0.0034717589 0.00127 -0.0016021274
-0.00061266334 0.00084666669 -0.0024191488
0.0014295478 0 -0.019985106
0.028386734 -0.00084666669 -0.026929786
0.017358795 -0.00042333335 -0.026521275
-0.011640604 0 -0.0024191488
0.032062713 -0.00127 -0.00037659559
-0.036964022 0.00127 -0.0016021274
0.0042886431 -0.00042333335 -0.027338296
-0.021851659 0.00127 -0.027338296
0.0063308543 0 -0.024478722
-0.027978292 -0.00042333335 -0.028155318
0.0034717589 0 -0.011406383
-0.02389387 -0.00127 -0.0020106381
-0.0038802011 -0.00042333335 -0.025704253
0.021443216 -0.00127 -0.0020106381
0.0079646232 -0.00042333335 -0.027338296
0.0038802011 -0.00127 -0.00037659559
0.011232161 0 -0.031831913
0.033696484 -0.00042333335 -0.0024191488
0.036555577 0 -0.028972339
0.036964022 0 -0.025704253
0.014499699 0.00127 -0.0011936169
-0.024302313 -0.00042333335 -0.025704253
-0.0063308543 0.00127 -0.027746808
0.021443216 0.00127 -0.026112765
0.010823719 0.00127 -0.0016021274
0.0087815076 -0.00127 -0.0024191488
0.023076985 -0.00042333335 -0.0024191488
-0.036147136 0.00084666669 -0.026521275
-0.015316583 0 -0.028155318
0.013274373 0.00127 -0.027338296
0.013274373 -0.00127 -0.00078510621
0.032062713 0.00084666669 -0.00037659559
-0.018992564 -0.00084666669 -0.028155318
0.035330251 0.00042333335 -0.026112765
-0.039823115 0.00127 -0.0011936169
-0.02389387 0.00042333335 -0.025704253
-0.03492181 0.00127 -0.027746808
0.0042886431 -0.00127 -0.00037659559
-0.018992564 0.00127 -0.026521275
-0.0083730659 -0.00127 -0.027746808
0.016133469 -0.00084666669 -0.0024191488
-0.0063308543 0 0.0024829789
-0.011640604 0 -0.020802127
0.035738695 0.00042333335 -0.028155318
0.02920362 -0.00042333335 -0.020802127
0.015316583 0.00042333335 -0.0024191488
-0.014091257 0 -0.023661701
0.0034717589 0 0.0020744682
-0.038189348 0.00042333335 -0.027338296
-0.018175678 0.00084666669 -0.027746808
0.0083730659 0.00042333335 -0.026929786
0.013274373 -0.00127 -0.0020106381
0.0014295478 0 0.0012574469
-0.037372462 -0.00127 -0.00037659559
0.032879598 -0.00084666669 -0.0024191488
0.017767237 -0.00127 -0.00037659559
-0.035330251 0 -0.028155318
-0.0063308543 -0.00042333335 -0.02243617
0.011640604 0 -0.0048702126
-0.018584121 0.00042333335 -0.00037659559
0.0087815076 0 -0.031423401
0.021443216 0.00042333335 -0.00037659559
-0.0022464322 0.00084666669 -0.0024191488
-0.0042886431 0 -0.025704253
-0.021851659 0 -0.030197872
0.039414674 0 -0.02284468
-0.040231559 -0.00084666669 -0.026112765
-0.011232161 0 -0.0073212762
0.0087815076 0.00042333335 -0.00037659559
0.018992564 0 -0.023661701
-0.034513369 0 -0.013857446
-0.00061266334 0.00127 -0.00037659559
-0.016541909 0.00042333335 -0.027338296
0.0083730659 0 -0.028155318
-0.017767237 -0.00127 -0.026112765
-0.0038802011 -0.00127 -0.0020106381
-0.033288039 0.00084666669 -0.028155318
-0.018992564 0 -0.017125532
0.0063308543 0 -0.032648936
0.0087815076 0 -0.019576594
0.031654272 -0.00084666669 -0.0020106381
-0.039823115 0 -0.00037659559
0.0051055276 -0.00042333335 -0.00037659559
-0.01286593 0.00127 -0.0020106381
-0.034513369 0 -0.012631915
-0.032879598 -0.00084666669 -0.026521275
-0.0038802011 0.00042333335 -0.00037659559
0.035738695 -0.00042333335 -0.027338296
-0.036964022 0 -0.0089553185
-0.013682814 -0.00127 -0.0024191488
0.039414674 0 -0.0032361699
-0.039414674 -0.00084666669 -0.00037659559
0.014908141 0.00084666669 -0.00037659559
0.018992564 0 -0.0097723398
0.02920362 -0.00127 -0.026112765
0.0067392965 0 -0.00037659559
-0.019809447 0.00127 -0.027338296
-0.0038802011 0 0.00044042565
0.018175678 0.00042333335 -0.0024191488
0.02389387 0.00127 -0.028155318
0.018992564 0 -0.0052787228
-0.03124583 0.00127 -0.027746808
-0.012457488 -0.00042333335 -0.027338296
-0.016541909 0.00042333335 -0.030197872
0.010823719 0.00084666669 -0.00037659559
0.039414674 0 0.0012574469
0.029612061 0.00127 -0.00078510621
-0.026344523 -0.00127 -0.027746808
0.016133469 0.00042333335 -0.027746808
-0.0038802011 -0.00042333335 -0.030197872
0.021443216 -0.00084666669 -0.00037659559
0.011640604 0 0.0020744682
-0.0038802011 -0.00127 -0.028155318
0.030020503 -0.00127 -0.00078510621
0.013682814 0 -0.028563829
0.02920362 0 -0.030197872
-0.031654272 -0.00042333335 -0.0024191488
-0.010006835 0 -0.00037659559
0.017358795 0.00127 -0.00078510621
-0.014091257 0 -0.019168084
-0.034104925 0 -0.0065042549
-0.025119197 0.00127 -0.027746808
0.024710754 -0.00127 -0.0016021274
-0.015316583 -0.00084666669 -0.00037659559
-0.030428946 0.00127 -0.00037659559
-0.014908141 0.00127 -0.0020106381
0.024302313 0.00084666669 -0.028155318
0.018584121 0.00127 -0.00037659559
-0.032062713 0 0.00044042565
-0.0014295478 0.00042333335 -0.024887232
0.0042886431 0 -0.0024191488
-0.0083730659 -0.00042333335 -0.00037659559
-0.018992564 -0.00042333335 -0.031014893
0.026752966 0 -0.010997872
-0.01286593 -0.00042333335 -0.026112765
0.022668544 -0.00084666669 -0.026112765
-0.0079646232 0.00127 -0.026521275
0.021851659 0 -0.02243617
-0.030020503 -0.00127 -0.028155318
-0.011232161 -0.00042333335 -0.0024191488
-0.032879598 -0.00127 -0.0016021274
-0.010006835 0.00042333335 -0.027746808
-0.022668544 -0.00127 -0.027746808
-0.0063308543 0.00042333335 -0.023253191
0.00183799 -0.00127 -0.026112765
-0.0087815076 0 -0.01671702
-0.0055139698 0.00127 -0.0011936169
-0.011232161 0 -0.015491488
-0.0075561809 0.00127 -0.0011936169
0.0014295478 0 -0.0077297869
-0.036147136 0.00127 -0.027746808
0.037372462 -0.00042333335 -0.00037659559
-0.011640604 0 -0.0085468078
0.018175678 0.00042333335 -0.00037659559
0.02920362 0 -0.013857446
-0.018992564 -0.00042333335 -0.023253191
-0.015316583 -0.00127 -0.0011936169
-0.024302313 -0.00042333335 -0.028155318
-0.0046970854 -0.00042333335 -0.00037659559
0.033696484 -0.00042333335 -0.028155318
-0.035738695 0 -0.0020106381
-0.0014295478 0 -0.031014893
-0.025936082 0 -0.00037659559
0.0034717589 0 -0.0081382971
-0.021851659 -0.00084666669 -0.0024191488
0.019809447 0.00127 -0.0020106381
-0.025119197 0 -0.0020106381
0.00183799 -0.00127 -0.0020106381
0.030020503 -0.00127 -0.026929786
0.016541909 0 -0.0052787228
0.014499699 0.00127 -0.028155318
-0.0014295478 0 -0.032648936
0.035330251 0 -0.00037659559
0.016541909 0 -0.015491488
-0.030837387 0.00127 -0.00078510621
-0.022260102 0.00042333335 -0.0020106381
-0.015316583 -0.00042333335 -0.028155318
0.036964022 0 -0.0056872335
0.005922412 -0.00127 -0.0011936169
-0.023485428 0.00084666669 -0.028155318
0.029612061 -0.00084666669 -0.026521275
0.016541909 0 -0.011814893
-0.011640604 0 -0.015491488
-0.016950352 0.00127 -0.027746808
-0.00061266334 0.00042333335 -0.027746808
-0.034513369 0.00127 -0.0020106381
-0.014091257 0 -0.020802127
-0.0063308543 0 -0.0040531913
-0.010006835 0.00042333335 -0.026112765
-0.0087815076 0.00042333335 -0.024070213
0.0038802011 -0.00127 -0.028155318
-0.026752966 0 -0.024887232
0.026344523 -0.00127 -0.027338296
0.0071477387 -0.00127 -0.027338296
0.028386734 0.00127 -0.026521275
-0.0026548745 0.00042333335 -0.028155318
0.039414674 0 -0.031423401
0.02920362 0 -0.023253191
-0.038189348 0 -0.028155318
-0.018992564 0 -0.012223404
0.017767237 0.00127 -0.027746808
-0.029612061 0.00042333335 -0.026112765
-0.010823719 -0.00127 -0.0011936169
-0.0010211056 0 -0.033057444
-0.012457488 0.00127 -0.0020106381
-0.036555577 -0.00127 -0.027746808
-0.018992564 0.00042333335 -0.00037659559
-0.032062713 -0.00042333335 -0.0024191488
-0.033288039 -0.00127 -0.028155318
0.0083730659 0.00127 -0.027338296
0.0010211056 -0.00127 -0.0016021274
-0.021851659 -0.00084666669 -0.028155318
-0.0038802011 0 -0.019168084
-0.0026548745 0.00084666669 -0.0024191488
0.032062713 0 -0.0032361699
0.031654272 0 -0.02938085
-0.030837387 -0.00127 -0.027338296
0.027978292 0.00127 -0.00037659559
0.026752966 -0.00042333335 -0.0024191488
0.018175678 0 -0.00037659559
0.0026548745 -0.00127 -0.026929786
0.014499699 -0.00127 -0.028155318
0.027569851 -0.00084666669 -0.026521275
-0.037372462 -0.00084666669 -0.028155318
0.034104925 0.00042333335 -0.025704253
0.014091257 0.00042333335 -0.025704253
0.030428946 -0.00084666669 -0.027746808
0.018992564 0.00084666669 -0.0024191488
0.026752966 0 -0.020393616
0.00183799 -0.00042333335 -0.027338296
0.035738695 -0.00127 -0.0011936169
-0.0071477387 0.00042333335 -0.0024191488
0.035738695 0.00084666669 -0.0024191488
0.0087815076 0.00127 -0.027338296
0.025527639 -0.00127 -0.027338296
-0.018175678 0.00084666669 -0.0020106381
-0.0010211056 0 -0.021210637
-0.026344523 -0.00084666669 -0.028155318
-0.0034717589 0 -0.0028276592
-0.0030633167 -0.00127 -0.027746808
-0.0095983921 -0.00042333335 -0.027746808
-0.0063308543 0.00084666669 -0.0024191488
0.018992564 0 -0.020802127
-0.023485428 -0.00084666669 -0.0020106381
-0.028386734 -0.00127 -0.0016021274
0.0071477387 -0.00127 -0.00078510621
-0.018175678 0.00042333335 -0.026112765
0.037780907 -0.00042333335 -0.028155318
-0.030020503 0.00042333335 -0.00037659559
-0.011640604 -0.00042333335 -0.027338296
-0.025119197 -0.00127 -0.0020106381
-0.031654272 0 -0.015899999
0.035738695 0.00127 -0.0020106381
-0.036964022 0 -0.0069127656
0.018992564 0 -0.032648936
0.024710754 -0.00127 -0.0020106381
-0.014091257 0 -0.021619149
0.033696484 -0.00127 -0.026929786
-0.015316583 0.00127 -0.026929786
-0.016541909 0.00042333335 -0.031014893
-0.018992564 0 -0.033057444
0.021851659 -0.00042333335 -0.0024191488
0.032471158 -0.00084666669 -0.028155318
0.026752966 0 -0.0085468078
0.016541909 0.00042333335 -0.025295744
0.013682814 -0.00084666669 -0.0024191488
-0.034104925 0 -0.010997872
-0.0010211056 0.00084666669 -0.00037659559
-0.0087815076 0 -0.021619149
-0.034104925 0 -0.0069127656
-0.018992564 -0.00042333335 -0.026112765
0.018992564 -0.00084666669 -0.028155318
0.0063308543 -0.00042333335 -0.024070213
0.031654272 0 -0.032648936
-0.016541909 0 -0.011406383
0.0038802011 0.00042333335 -0.024887232
0.026344523 0.00084666669 -0.0024191488
-0.0014295478 -0.00084666669 -0.00037659559
-0.030428946 0.00127 -0.0024191488
0.03124583 -0.00127 -0.026929786
0.0063308543 -0.00042333335 -0.031423401
-0.03124583 -0.00084666669 -0.0024191488
0.0026548745 -0.00042333335 -0.026929786
0.040231559 0.00084666669 -0.026521275
0.039006233 -0.00127 -0.027338296
0.032062713 0 -0.0048702126
0.027978292 0.00042333335 -0.026112765
0.028795177 0.00127 -0.00078510621
0.028795177 -0.00127 -0.027338296
-0.00061266334 0.00127 -0.028155318
0.0087815076 0.00084666669 -0.00037659559
0.034104925 0 -0.013040425
0.0075561809 0.00127 -0.0020106381
0.0010211056 0 -0.01671702
-0.011640604 0 -0.031423401
-0.011640604 -0.00127 -0.027746808
0.015725026 0 -0.028155318
-0.024710754 0.00127 -0.026112765
0.036964022 0 -0.02938085
0.017767237 -0.00084666669 -0.00037659559
-0.039823115 -0.00042333335 -0.0024191488
-0.0087815076 -0.00042333335 -0.02978936
0.035738695 -0.00042333335 -0.026112765
-0.038597789 -0.00127 -0.00078510621
-0.024302313 0 -0.0081382971
-0.010415277 0.00127 -0.0016021274
-0.021034775 0.00127 -0.00078510621
0.010006835 0.00084666669 -0.0024191488
0.0087815076 0.00127 -0.00037659559
-0.038597789 -0.00084666669 -0.00037659559
-0.027569851 0 -0.0024191488
0.026344523 0 -0.025704253
-0.011232161 0 -0.024478722
0.023076985 0.00127 -0.0011936169
0.021443216 0 -0.02978936
-0.0038802011 0 -0.0085468078
-0.0091899503 -0.00042333335 -0.025704253
0.011640604 0 -0.0089553185
-0.019809447 0.00127 -0.028155318
0.035330251 0.00042333335 -0.028155318
0.014499699 0.00042333335 -0.00037659559
-0.02021789 -0.00084666669 -0.027746808
0.015725026 0.00127 -0.026521275
0.014091257 -0.00127 -0.0011936169
0.036964022 -0.00127 -0.027746808
0.011640604 -0.00042333335 -0.0024191488
0.00020422111 -0.00127 -0.028155318
-0.034513369 0 -0.032648936
-0.0010211056 0 -0.012631915
-0.033288039 -0.00084666669 -0.0024191488
0.030428946 0 -0.028155318
0.0075561809 0.00042333335 -0.028155318
0.011232161 0 -0.0089553185
-0.031654272 0 -0.032648936
0.021443216 0 -0.019168084
-0.032062713 0 -0.023661701
-0.026752966 -0.00127 -0.026521275
-0.024302313 0 0.0012574469
0.04064 0 -0.026521275
-0.019401006 -0.00127 -0.0016021274
0.018992564 0.00042333335 -0.031831913
-0.010823719 0.00127 -0.0011936169
-0.018992564 -0.00042333335 -0.033465955
-0.005922412 0 -0.00037659559
0.032471158 0 -0.026112765
0.014091257 -0.00042333335 -0.033057444
-0.016950352 0.00127 -0.00078510621
0.0087815076 -0.00042333335 -0.0024191488
-0.025527639 0.00042333335 -0.026521275
-0.030837387 0.00084666669 -0.00037659559
-0.0055139698 0.00042333335 -0.027338296
-0.0091899503 0.00127 -0.0011936169
-0.01286593 -0.00127 -0.0024191488
0.032062713 0.00042333335 -0.028155318
-0.005922412 0.00127 -0.028155318
0.034104925 0 -0.024478722
0.028386734 -0.00127 -0.0024191488
0.018992564 0 -0.0077297869
0.02021789 0 -0.026112765
0.033696484 -0.00042333335 -0.026112765
-0.0038802011 0 0.0012574469
-0.036964022 0 -0.010997872
0.0038802011 -0.00042333335 -0.00037659559
0.0055139698 0.00042333335 -0.027746808
0.016133469 0 -0.025704253
0.016950352 -0.00084666669 -0.00037659559
0.023485428 0.00127 -0.00037659559
-0.019401006 0.00042333335 -0.0024191488
-0.034104925 0.00042333335 -0.026112765
0.035738695 -0.00042333335 -0.00037659559
-0.036147136 0.00127 -0.027338296
-0.0034717589 0 0.0020744682
-0.027978292 -0.00042333335 -0.026521275
0.015316583 -0.00127 -0.0011936169
-0.0022464322 -0.00127 -0.0016021274
-0.011232161 0 -0.012223404
0.018992564 -0.00042333335 -0.024478722
0.0067392965 0.00127 -0.00078510621
0.033288039 0.00042333335 -0.028155318
-0.021443216 -0.00084666669 -0.0024191488
0.024302313 0 -0.0077297869
-0.014091257 0 -0.0081382971
-0.034104925 0 0.00044042565
-0.016541909 0 -0.0040531913
-0.019809447 0 -0.0020106381
0.0014295478 0 -0.032648936
0.021443216 -0.00084666669 -0.028155318
-0.032062713 0.00084666669 -0.026521275
0.010006835 0 -0.028155318
-0.036964022 -0.00042333335 -0.02243617
0.03124583 0.00127 -0.027338296
-0.033696484 -0.00084666669 -0.026929786
-0.0055139698 -0.00084666669 -0.0020106381
0.016541909 0 -0.025295744
0.0026548745 0.00127 -0.00037659559
-0.0014295478 0.00042333335 -0.024478722
0.023485428 0.00127 -0.0011936169
0.037372462 -0.00127 -0.027338296
-0.013682814 0.00042333335 -0.027746808
0.017358795 -0.00127 -0.0024191488
0.038189348 0.00042333335 -0.00037659559
-0.026752966 0 -0.013448936
0.021851659 0 -0.01671702
0.020626333 0.00084666669 -0.00037659559
0.019401006 -0.00127 -0.027746808
-0.0087815076 0 -0.023253191
0.0063308543 0 -0.013857446
0.027161408 -0.00127 -0.026112765
0.0042886431 -0.00042333335 -0.0020106381
0.021851659 0.00084666669 -0.028155318
0.021851659 0.00042333335 -0.026929786
-0.039414674 0 -0.010589361
-0.00183799 -0.00127 -0.027338296
0.02920362 0 -0.0056872335
-0.0014295478 0 -0.015082978
0.0010211056 0 -0.023661701
0.011640604 0 -0.013448936
0.0087815076 0 -0.025295744
-0.034104925 -0.00084666669 -0.026929786
0.010006835 -0.00084666669 -0.026112765
0.027161408 -0.00127 -0.026929786
0.0087815076 0.00042333335 -0.026929786
-0.035330251 -0.00042333335 -0.027746808
0.018992564 0 0.0024829789
-0.015316583 0 -0.026112765
0.034513369 0 -0.0077297869
0.025936082 0.00084666669 -0.00037659559
-0.010006835 0.00127 -0.0020106381
0.011640604 -0.00127 -0.0020106381
0.0067392965 0 -0.025704253
-0.0051055276 0.00127 -0.0011936169
0.028386734 -0.00127 -0.00037659559
-0.024302313 0 -0.02978936
-0.031654272 -0.00127 -0.0011936169
-0.011232161 0 -0.02938085
0.039414674 0 -0.030197872
0.011640604 0 -0.015082978
0.018584121 0.00042333335 -0.026521275
-0.035330251 -0.00084666669 -0.026521275
0.021851659 0 -0.023253191
0.027569851 -0.00127 -0.028155318
-0.039414674 0.00042333335 -0.025704253
0.03492181 -0.00042333335 -0.026112765
-0.00061266334 -0.00042333335 -0.027746808
0.012457488 0.00127 -0.027746808
-0.037780907 0.00042333335 -0.027338296
0.0095983921 0.00084666669 -0.0024191488
-0.0030633167 0.00042333335 -0.027746808
-0.038189348 0 -0.0020106381
0.039823115 0.00127 -0.027746808
0.031654272 0 0.00044042565
0.012049045 -0.00127 -0.00037659559
0.023076985 -0.00127 -0.00037659559
0.032471158 0.00127 -0.027338296
-0.010415277 -0.00042333335 -0.027338296
-0.005922412 0.00042333335 -0.028155318
0.013274373 0.00084666669 -0.0024191488
-0.0038802011 -0.00042333335 -0.026112765
-0.00061266334 0.00127 -0.026929786
0.021443216 0 -0.0081382971
-0.026344523 0.00127 -0.027746808
-0.018992564 0 0.00044042565
0.0071477387 -0.00042333335 -0.027338296
0.0010211056 0 -0.024887232
-0.0083730659 -0.00127 -0.0020106381
0.031654272 0 -0.0052787228
0.036964022 0 -0.030197872
-0.010415277 0.00042333335 -0.026521275
-0.029612061 0.00084666669 -0.0024191488
0.036555577 0.00042333335 -0.028155318
-0.0046970854 0.00042333335 -0.0020106381
-0.02389387 0.00127 -0.0024191488
-0.036964022 0 -0.034282979
-0.011640604 0 -0.031831913
0.0034717589 0 -0.02243617
0.013274373 0.00127 -0.0011936169
-0.036964022 -0.00042333335 -0.02978936
0.024302313 0.00127 -0.027338296
0.011232161 0 -0.012223404
0.027569851 -0.00127 -0.027338296
0.021034775 0.00084666669 -0.026112765
-0.030020503 0.00127 -0.0020106381
-0.025119197 0.00042333335 -0.026521275
-0.036147136 -0.00084666669 -0.0020106381
-0.038597789 0.00127 -0.0011936169
-0.0010211056 0 0.0012574469
0.018992564 0.00042333335 -0.028972339
0.0034717589 0 -0.020802127
-0.027569851 -0.00127 -0.0011936169
-0.0063308543 0 -0.0081382971
0.016133469 0.00042333335 -0.0024191488
-0.034513369 0 -0.019985106
-0.011232161 0 -0.013040425
-0.0042886431 0.00042333335 -0.027338296
0.040231559 -0.00042333335 -0.027746808
0.014908141 0.00084666669 -0.0024191488
0.017767237 0.00127 -0.026112765
0.022668544 -0.00127 -0.027746808
-0.036964022 -0.00084666669 -0.028155318
0.033288039 -0.00127 -0.00078510621
-0.02920362 -0.00127 -0.0016021274
0.0063308543 0.00042333335 -0.023253191
-0.0087815076 0 -0.031831913
-0.011640604 -0.00042333335 -0.028155318
0.036147136 -0.00042333335 -0.0024191488
0.039414674 0 3.191502e-05
0.016541909 0 -0.014265956
-0.014091257 0 -0.0097723398
-0.011640604 0.00127 -0.0011936169
-0.035738695 -0.00127 -0.00078510621
0.039414674 0 -0.021210637
-0.023485428 0.00042333335 -0.00037659559
-0.015725026 -0.00084666669 -0.00037659559
-0.0046970854 -0.00127 -0.027338296
0.034104925 0 0.0024829789
0.017358795 0 -0.0024191488
0.028795177 -0.00127 -0.027746808
-0.034513369 0 0.00084893627
-0.027161408 0.00127 -0.026112765
-0.013682814 0.00084666669 -0.0024191488
-0.0091899503 0.00127 -0.0016021274
-0.022668544 -0.00042333335 -0.026521275
0.026752966 0 -0.010180851
0.0087815076 0 -0.015082978
0.011640604 0 0.0012574469
-0.014091257 0 -0.013857446
0.020626333 0.00042333335 -0.0024191488
-0.013682814 -0.00084666669 -0.00037659559
0.016541909 0 -0.0085468078
-0.034104925 0 -0.015899999
-0.0063308543 0.00042333335 -0.031423401
0.032062713 0 -0.031831913
0.038597789 0.00084666669 -0.028155318
-0.035738695 -0.00127 -0.0024191488
0.018992564 0 -0.0085468078
-0.029612061 -0.00084666669 -0.028155318
0.0038802011 0 -0.017942552
0.010823719 0.00042333335 -0.0024191488
-0.0022464322 -0.00042333335 -0.00037659559
0.02920362 0 -0.016308511
0.0038802011 -0.00042333335 -0.023661701
0.0014295478 0 -0.016308511
0.022668544 -0.00084666669 -0.0024191488
-0.016133469 0.00042333335 -0.0024191488
-0.024302313 0 -0.016308511
-0.011232161 -0.00127 -0.0024191488
-0.026752966 0.00042333335 -0.02938085
-0.010006835 0.00084666669 -0.0024191488
0.016541909 -0.00042333335 -0.033057444
0.030837387 -0.00042333335 -0.028155318
-0.028386734 -0.00127 -0.0024191488
-0.027161408 0.00127 -0.0024191488
-0.034104925 -0.00127 -0.00037659559
-0.014091257 0 -0.017534042
-0.034513369 0 -0.020393616
-0.0071477387 -0.00084666669 -0.00037659559
-0.018584121 0 -0.026112765
0.021443216 0.00042333335 -0.027338296
0.039006233 0.00127 -0.0016021274
-0.024302313 -0.00127 -0.0011936169
-0.0038802011 0.00127 -0.0020106381
0.018175678 0.00127 -0.027746808
0.017358795 0.00127 -0.026929786
-0.02389387 -0.00042333335 -0.026929786
0.039414674 0 -0.0048702126
0.038189348 0.00042333335 -0.0020106381
-0.033696484 0 -0.026112765
-0.0046970854 0.00127 -0.0020106381
-0.039823115 0 -0.028155318
-0.021443216 -0.00042333335 -0.025704253
0.005922412 0.00127 -0.0020106381
-0.023485428 -0.00042333335 -0.0020106381
-0.017358795 -0.00042333335 -0.027746808
-0.0087815076 -0.00127 -0.0024191488
-0.0010211056 0 -0.024887232
-0.0034717589 0 -0.028155318
0.014091257 0 0.00084893627
0.030837387 -0.00042333335 -0.00037659559
-0.0091899503 -0.00127 -0.026929786
0.034513369 0 -0.024070213
-0.0014295478 0 -0.02938085
-0.038189348 0 -0.00037659559
-0.020626333 -0.00127 -0.027746808
-0.0022464322 0.00042333335 -0.026112765
0.02920362 0 -0.02243617
0.0042886431 -0.00042333335 -0.026112765
-0.018584121 -0.00127 -0.0011936169
-0.0055139698 0.00127 -0.027746808
0.02389387 0.00084666669 -0.027338296
-0.005922412 -0.00127 -0.00037659559
0.037780907 -0.00084666669 -0.026112765
-0.027161408 -0.00127 -0.00078510621
-0.024710754 -0.00127 -0.027338296
0.015316583 -0.00042333335 -0.027338296
0.018992564 0 -0.013040425
-0.039823115 0.00042333335 -0.027338296
0.037780907 -0.00127 -0.00037659559
0.034513369 0 -0.030606382
-0.034104925 0 -0.017534042
0.034513369 0 -0.019985106
-0.031654272 0 -0.012631915
0.031654272 0 -0.018351063
0.018584121 0.00042333335 -0.028155318
-0.036964022 0 -0.018759573
0.0063308543 0 -0.02938085
-0.018584121 0.00127 -0.00037659559
0.010415277 -0.00042333335 -0.027746808
-0.027161408 0.00042333335 -0.00037659559
0.03124583 0.00127 -0.026521275
-0.030428946 -0.00127 -0.00078510621
0.025119197 0.00042333335 -0.00037659559
0.031654272 0 -0.020393616
0.014091257 0 -0.031014893
0.031654272 0 0.0020744682
-0.021851659 0 -0.010589361
0.013682814 0.00042333335 -0.026929786
0.014908141 -0.00127 -0.0020106381
-0.019401006 0.00042333335 -0.028155318
0.0063308543 -0.00127 -0.00037659559
-0.032471158 -0.00084666669 -0.026929786
0.016541909 0.00042333335 -0.033874467
0.026752966 0 -0.019168084
0.031654272 0 -0.014265956
0.018992564 0 -0.032240424
0.0014295478 0 -0.018759573
-0.039414674 -0.00084666669 -0.026112765
0.01286593 0.00127 -0.0011936169
0.010415277 0.00127 -0.0011936169
-0.028386734 -0.00127 -0.026112765
-0.00183799 0.00127 -0.0024191488
-0.0014295478 0.00084666669 -0.026112765
-0.018992564 0 -0.02978936
-0.02920362 0 -0.0077297869
-0.034104925 -0.00127 -0.027746808
0.014091257 0 -0.033057444
-0.032062713 -0.00127 -0.0016021274
0.011640604 0 -0.0097723398
-0.010006835 0.00042333335 -0.028155318
0.025936082 0 -0.026112765
-0.011640604 0 -0.0073212762
0.034513369 0 -0.010997872
-0.023485428 -0.00084666669 -0.00037659559
0.011640604 0 -0.015899999
-0.011232161 0 -0.011406383
0.005922412 0 -0.0024191488
-0.034513369 0.00127 -0.0011936169
0.026752966 0 -0.01671702
0.0022464322 0.00127 -0.026521275
0.024302313 0 -0.02243617
0.032062713 0.00127 -0.00037659559
-0.02920362 0.00127 -0.0011936169
0.037372462 -0.00084666669 -0.027338296
0.014091257 -0.00084666669 -0.00037659559
-0.01286593 0 -0.028155318
0.026752966 0 -0.024070213
-0.034513369 0 -0.0077297869
-0.021034775 0.00084666669 -0.0020106381
-0.016541909 -0.00042333335 -0.026929786
0.0067392965 0 -0.028155318
0.00061266334 0.00127 -0.00037659559
0.039823115 -0.00042333335 -0.0020106381
-0.0034717589 0 -0.033465955
-0.030020503 -0.00042333335 -0.028155318
0.014908141 -0.00084666669 -0.00037659559
0.0010211056 0 -0.019576594
0.011640604 0.00042333335 -0.028155318
0.03124583 0.00127 -0.0016021274
-0.034513369 0 -0.02284468
