# .PCD v0.7 - Point Cloud Data file format
VERSION 0.7
FIELDS x y z
SIZE 4 4 4
TYPE F F F
COUNT 1 1 1
WIDTH 1249
HEIGHT 1
VIEWPOINT 0 0 0 1 0 0 0
POINTS 1249
DATA ascii
-0.00052294118 -0.00127 -0.021007692
-0.0080184313 -0.00036285713 -0.019097801
0.0022660785 0.00018142856 -0.022223076
-0.0022660785 0 -0.0067703295
-0.0050550983 -0.00018142856 -0.026390109
0.0073211766 0 -0.0039923075
0.0080184313 -0.0010885714 -0.02013956
0.0040092156 0.00090714288 -0.02152857
-0.0074954904 -0.00036285713 -0.00034615374
0.0048807845 -0.00018142856 0.00069560448
0.0074954904 0.00018142856 -0.014583516
0.0026147058 0.00018142856 -0.0038186812
0.0080184313 -0.00127 -0.0012142856
0.0010458824 0.00054428569 -0.019097801
-0.0024403923 -0.00127 -0.00017252739
-0.0052294116 0.00018142856 -0.025174724
-0.0022660785 -0.00072571426 -0.0024296702
-0.00017431373 -0.00018142856 -0.011458241
-0.0074954904 0.00018142856 0.00034835172
0.0006972549 0.00054428569 -0.02152857
0.0074954904 -0.00018142856 -0.027258242
-0.0010458824 -0.00127 -0.020313187
-0.0050550983 -0.00018142856 -0.0088538462
0.0012201961 0.00127 -0.02066044
0.0073211766 0.00127 -0.00034615374
0.0083670588 0.0010885714 -0.0022560437
-0.00017431373 -0.00018142856 -0.017882418
0.0020917647 0.00127 -0.0006934065
-0.0061009806 0.00018142856 -0.00017252739
0.0076698042 0.00018142856 -0.012847252
-0.0026147058 -0.00054428569 -0.0024296702
0.0088900002 0.00036285713 -0.0022560437
0.0052294116 0 -0.0060758241
0.00034862745 -0.00018142856 -0.027258242
-0.0052294116 -0.00127 -0.019965934
-0.0034862745 -0.00127 -0.0022560437
-0.0034862745 -0.00054428569 -0.019271428
0.0076698042 -0.00018142856 -0.0027769229
0.0067982352 0.00127 -0.020486813
0.0024403923 -0.00127 -0.019792307
-0.0033119607 0 -0.019097801
0.0054037254 -0.00036285713 -0.02152857
-0.0078441175 -0.00018142856 0.0013901099
0.0088900002 0.00054428569 -0.001387912
0.00017431373 -0.00018142856 0.0026054946
0 -0.00127 -0.0019087911
-0.00017431373 0.00018142856 -0.010242857
0.00034862745 0 -0.023091208
-0.0048807845 -0.00072571426 -0.019271428
-0.008192745 0.00127 -0.020313187
-0.00017431373 -0.00018142856 0.0027791208
-0.0022660785 -0.00018142856 -0.0090274718
-0.0010458824 0.00054428569 -0.019097801
0.00052294118 -0.00018142856 -0.019097801
0.0043578432 -0.00018142856 -0.019097801
0.0066239215 0.0010885714 -0.019445054
-0.0083670588 -0.0010885714 -0.001387912
0.00017431373 0.00018142856 1.0989846e-06
-0.0050550983 0.00018142856 -0.027258242
-0.0013945098 0.0010885714 -0.019271428
-0.0076698042 -0.00018142856 0.0015637364
0.0076698042 0.00018142856 -0.025521977
0.0027890196 -0.00018142856 0.0012164835
0.005752353 0.00127 -0.0019087911
0.0026147058 0.00018142856 0.00034835172
0.0026147058 -0.00018142856 -0.0052076923
-0.00034862745 0 -0.0097219776
-0.0026147058 -0.00018142856 -0.0085065933
-0.0078441175 0.00018142856 0.0027791208
-0.0074954904 0.00127 -0.001387912
0.0048807845 -0.00018142856 -0.0038186812
0.0050550983 0.00127 -0.001387912
0.0034862745 -0.00018142856 -0.0022560437
0.0050550983 -0.0010885714 -0.00017252739
-0.0026147058 0.00127 -0.019445054
-0.008192745 -0.0010885714 -0.0006934065
-0.0033119607 -0.00127 -0.001387912
-0.004532157 -0.00054428569 -0.019097801
0.0033119607 -0.00036285713 -0.0022560437
0.0074954904 0.00018142856 -0.026737362
0.0050550983 -0.00018142856 -0.025174724
-0.0050550983 0.00018142856 -0.025521977
-0.0071468628 0.00127 -0.019792307
-0.0076698042 0.00018142856 -0.0027769229
0.0024403923 0 -0.013715385
0 -0.00090714288 -0.019445054
-0.0074954904 0 0.00052197807
0.0027890196 0.00036285713 -0.00034615374
0.0054037254 0.00127 -0.0019087911
0.0052294116 -0.00018142856 -0.013715385
0.001917451 -0.00127 -0.0015615383
-0.0020917647 0.00127 -0.021007692
-0.0040092156 0.0010885714 -0.021354944
0 0.00018142856 -0.0029505494
-0.0026147058 -0.00018142856 -0.012326373
0.00034862745 -0.00018142856 -0.015625274
0.0020917647 -0.00090714288 -0.00017252739
-0.0052294116 -0.00018142856 -0.023438461
0.0027890196 -0.00127 -0.00086703285
0.0074954904 0.00018142856 0.0024318681
0.0062752943 0.00072571426 -0.0024296702
0.0074954904 0.00018142856 -0.010069231
0.0026147058 -0.00127 -0.019965934
-0.0017431373 -0.00127 -0.02152857
-0.0026147058 -0.00127 -0.0015615383
0.0088900002 -0.00018142856 -0.021181319
0.0012201961 0.00127 -0.021007692
0.0048807845 0.00018142856 -0.0036450548
-0.0078441175 0.00018142856 -0.015278022
-0.00034862745 0 -0.018403295
-0.0012201961 0.00127 -0.021007692
0.0074954904 0 -0.026563736
0.0074954904 0.00018142856 -0.026563736
-0.0026147058 0.00018142856 0.00052197807
-0.0040092156 -0.0010885714 -0.02152857
0.0027890196 0.00018142856 0.0026054946
0.0015688236 -0.00127 -0.0006934065
-0.0073211766 0 -0.014930769
-0.0073211766 0 -0.010763736
0.0048807845 0.00018142856 -0.024827471
-0.00017431373 -0.00018142856 1.0989846e-06
0.0034862745 0.00127 -0.019965934
0.0047064708 -0.00127 -0.00034615374
-0.0020917647 0.00127 -0.0019087911
0.0055780392 0.00054428569 -0.02152857
-0.0052294116 -0.00018142856 -0.023959341
-0.0048807845 0 -0.022743955
0.0006972549 -0.00018142856 -0.00017252739
0.0052294116 0 -0.010416484
0.0073211766 0 -0.012673626
0.0062752943 -0.00127 -0.020313187
-0.004532157 -0.00018142856 -0.02152857
-0.008192745 0.00127 -0.021354944
-0.0078441175 0.00090714288 -0.019445054
-0.0015688236 0.00018142856 -0.0022560437
-0.0024403923 0.00018142856 -0.011979121
0.0073211766 0 0.00017472536
0.0047064708 -0.00127 -0.019792307
0.0027890196 0.00127 -0.00034615374
-0.00087156863 0.00127 -0.020486813
-0.0064496081 0.00127 -0.019965934
-0.0010458824 -0.00127 -0.00086703285
0.0048807845 -0.00018142856 -0.007117582
-0.0074954904 0.00018142856 -0.013715385
-0.0043578432 0.00127 -0.0006934065
0.0010458824 -0.00072571426 -0.02152857
0.0076698042 0 0.0029527473
0.00087156863 0.00072571426 -0.019445054
0.00017431373 -0.0010885714 -0.019271428
0.0050550983 -0.00018142856 -0.024306593
-0.0031376472 -0.00127 -0.021007692
0.0024403923 -0.00054428569 -0.02152857
-0.0026147058 0.00018142856 0.00034835172
-0.0074954904 0.00018142856 -0.012673626
-0.0024403923 0.00036285713 -0.018924175
-0.0074954904 -0.00018142856 -0.0095483512
-0.004532157 0.0010885714 -0.019445054
-0.0078441175 -0.00018142856 -0.0027769229
-0.0067982352 0.00090714288 -0.021354944
-0.0027890196 -0.00018142856 -0.007464835
-0.0052294116 0.00127 -0.021354944
0.0050550983 0.00018142856 -0.026216483
0.0027890196 -0.00018142856 -0.0157989
0.0062752943 -0.0010885714 -0.019271428
0.00087156863 -0.00090714288 -0.019618681
-0.0050550983 -0.00127 -0.02066044
0.0076698042 0.00127 -0.0010406593
0.00017431373 0.00018142856 -0.014757142
-0.0062752943 0.00054428569 -0.019271428
-0.0052294116 0.00018142856 -0.022570329
0.0083670588 0.00072571426 -0.021354944
-0.00034862745 0 -0.013889011
-0.0074954904 0.00018142856 -0.017014286
-0.0052294116 -0.00127 -0.0022560437
0.0036605883 -0.00036285713 -0.00034615374
0.0078441175 0.00018142856 -0.022570329
0.0073211766 0.00018142856 -0.0095483512
0.0026147058 0.00036285713 -0.021875823
0.0088900002 -0.00018142856 -0.0017351647
-0.0024403923 0.00018142856 -0.012152747
0.0041835294 0.00127 -0.019792307
-0.0052294116 0.00018142856 -0.0052076923
0.004532157 0.00127 -0.0019087911
0.0015688236 0.00127 -0.019445054
0.0048807845 -0.00036285713 -0.00034615374
0.008192745 -0.00018142856 -0.00017252739
0.0026147058 -0.00018142856 -0.017708791
-0.0059266668 0.00090714288 -0.0022560437
0.0073211766 0 -0.0031241756
-0.0074954904 -0.00127 -0.020313187
0.0064496081 -0.00127 -0.0019087911
-0.0027890196 0 -0.025695603
-0.0027890196 0 -0.014930769
0.0074954904 -0.00018142856 -0.017708791
-0.0050550983 0.00018142856 0.0020846154
-0.0027890196 0 0.00034835172
-0.0022660785 0 -0.0059021977
-0.0043578432 0.0010885714 -0.019271428
-0.0027890196 -0.00018142856 -0.011284615
-0.0043578432 0.00054428569 -0.021354944
-0.0010458824 0 -0.0022560437
0 -0.00018142856 -0.013541758
0.0038349021 0.00072571426 -0.00034615374
-0.006972549 0.00127 -0.0022560437
0.0055780392 0 -0.019097801
0 -0.00018142856 -0.011110988
-0.0080184313 0.00018142856 -0.02152857
-0.0024403923 -0.00036285713 -0.018750548
-0.0020917647 0.00090714288 -0.019271428
-0.0022660785 -0.00018142856 -0.027431868
-0.001917451 0.00072571426 -0.019271428
0.0026147058 0.00018142856 -0.0050340658
-0.00034862745 0 -0.016493406
0.0052294116 -0.00018142856 -0.0039923075
-0.0076698042 0.00018142856 -0.0039923075
-0.0036605883 0.00127 -0.02066044
-0.0026147058 0.00018142856 -0.007117582
0.0066239215 -0.00072571426 -0.021354944
0.0048807845 0.00018142856 -0.016146153
-0.0050550983 0.00018142856 -0.013020879
-0.0052294116 -0.00018142856 -0.0053813183
-0.0017431373 -0.00018142856 -0.0022560437
0.0012201961 -0.00090714288 -0.00017252739
-0.0022660785 -0.00018142856 -0.013889011
-0.0048807845 0.00018142856 -0.0041659339
-0.0080184313 -0.00072571426 -0.00017252739
-0.00017431373 -0.00018142856 -0.02586923
0 -0.00018142856 -0.022917582
0.0048807845 0.00018142856 -0.0062494501
0.0047064708 0 -0.018924175
-0.00017431373 0.00018142856 -0.013541758
-0.0062752943 -0.00127 -0.021354944
0.004532157 -0.00127 -0.021354944
-0.0027890196 0 -0.025174724
0.0050550983 -0.00018142856 -0.012499999
0.0041835294 -0.00127 -0.02066044
-0.0006972549 0.00072571426 -0.019271428
0.0078441175 0.00018142856 -0.013194505
-0.0076698042 0.00018142856 -0.010763736
-0.00017431373 0.00036285713 -0.018924175
-0.0055780392 0.0010885714 -0.019271428
0.0026147058 0.00018142856 -0.022223076
0.0010458824 0.00018142856 -0.00017252739
0.00017431373 0.00018142856 0.0017373627
0.0029633334 -0.00127 -0.02013956
-0.00034862745 0 0.0019109891
0.0050550983 0.00018142856 -0.023438461
-0.0029633334 -0.00072571426 -0.0022560437
-0.0048807845 0.00018142856 -0.011458241
0.0027890196 0.00018142856 -0.014236263
-0.0022660785 -0.00018142856 -0.023785714
-0.0087156864 0.00054428569 -0.021007692
-0.0034862745 0.0010885714 -0.00017252739
0.0073211766 0.0010885714 -0.021354944
-0.0026147058 -0.00127 -0.021354944
0.0038349021 0.00127 -0.0012142856
-0.00017431373 -0.00127 -0.02066044
0.0050550983 -0.00018142856 -0.017708791
-0.0041835294 -0.0010885714 -0.0024296702
-0.0013945098 0.00054428569 -0.0022560437
-0.0027890196 -0.00018142856 -0.02448022
0.0050550983 0.00018142856 -0.026910989
-0.0048807845 0 -0.0157989
0.005752353 -0.00127 -0.00034615374
0.0026147058 0.00036285713 -0.018924175
-0.0022660785 -0.00018142856 -0.014583516
-0.004532157 -0.00090714288 -0.00017252739
0.00017431373 -0.00018142856 -0.0072912085
0.0026147058 -0.00072571426 -0.0024296702
-0.0088900002 -0.00036285713 -0.0015615383
0 -0.00018142856 -0.017187912
0.0074954904 0.00036285713 -0.0024296702
-0.0026147058 -0.00018142856 0.0022582419
0.0048807845 0.00127 -0.02013956
-0.0062752943 0.00127 -0.021007692
0.0080184313 -0.0010885714 -0.020313187
-0.0038349021 0 -0.019097801
-0.0027890196 0 -0.011458241
-0.00087156863 -0.00127 -0.020313187
-0.0078441175 0.00018142856 0.0010428572
0.0048807845 -0.00072571426 -0.0022560437
-0.0052294116 -0.00127 -0.0012142856
-0.0027890196 0 -0.013889011
-0.0087156864 0.00090714288 -0.0017351647
0.0038349021 -0.00127 -0.00017252739
-0.0027890196 0.00127 -0.019792307
-0.0071468628 0.00127 -0.0022560437
0.0024403923 0.00018142856 -0.0053813183
0.0048807845 -0.00018142856 -0.010763736
0 -0.00018142856 0.0012164835
-0.0076698042 -0.00018142856 -0.022396702
0.0027890196 -0.00018142856 -0.0079857139
0.00052294118 0.0010885714 -0.00017252739
0.0062752943 0.00072571426 -0.021354944
-0.0073211766 -0.00018142856 -0.026910989
-0.00017431373 -0.00018142856 -0.0157989
0.0017431373 0.0010885714 -0.00017252739
-0.0048807845 -0.00018142856 -0.018403295
0.0013945098 0.00127 -0.00034615374
0.0010458824 -0.00127 -0.00034615374
0.0024403923 -0.00018142856 -0.016840659
0.0048807845 0.00018142856 -0.023091208
0.0050550983 -0.00018142856 -0.024827471
-0.0062752943 0.00054428569 -0.0022560437
0.0015688236 -0.00127 -0.00017252739
-0.00034862745 0 -0.026910989
-0.00034862745 0.00018142856 -0.018056042
0.001917451 0.00127 -0.0012142856
0.001917451 -0.00018142856 -0.02152857
-0.0074954904 -0.00018142856 -0.017882418
0.0066239215 -0.00072571426 -0.0022560437
-0.0076698042 0.0010885714 -0.0022560437
0.0073211766 0 -0.0093747247
0.0029633334 -0.00127 -0.02066044
-0.0052294116 0.00018142856 -0.0036450548
-0.0022660785 -0.00018142856 -0.0050340658
0.0052294116 -0.00018142856 -0.0069439556
-0.0048807845 -0.00018142856 -0.0088538462
0.0024403923 0.00127 -0.0015615383
0.001917451 0.0010885714 -0.00017252739
-0.0050550983 0.00127 -0.020834066
-0.0027890196 0 -0.010416484
-0.0061009806 0.00127 -0.001387912
0.0017431373 0 -0.00017252739
-0.0024403923 0.00018142856 -0.0029505494
0 0.00018142856 -0.016840659
0.0038349021 0.00072571426 -0.0022560437
0.0074954904 -0.00018142856 -0.010069231
-0.0027890196 -0.00018142856 -0.014409889
-0.0052294116 0.00018142856 -0.0032978021
-0.00017431373 0.00018142856 -0.011284615
-0.0036605883 -0.00127 -0.0010406593
-0.0033119607 -0.00127 -0.00017252739
-0.0027890196 0.00018142856 -0.007464835
0.0029633334 -0.00127 -0.00051978015
-0.0022660785 -0.00018142856 0.0026054946
-0.0048807845 0 -0.017708791
-0.0013945098 -0.00127 -0.0015615383
-0.0087156864 0.00036285713 -0.021181319
-0.0054037254 -0.00090714288 -0.019271428
-0.00052294118 0.00127 -0.019965934
0.0047064708 -0.00072571426 -0.0022560437
-0.0036605883 -0.00036285713 -0.02152857
0.0087156864 -0.00054428569 -0.0020824175
0.00017431373 -0.00018142856 -0.0039923075
0.0076698042 -0.00018142856 -0.0029505494
0.0061009806 0.00072571426 -0.0024296702
0.0015688236 -0.00127 -0.0017351647
-0.0073211766 -0.00018142856 -0.0062494501
0.0026147058 0.00018142856 -0.0086802198
-0.0078441175 -0.00018142856 -0.012847252
-0.0047064708 0.00036285713 -0.02152857
0.00017431373 0.00054428569 -0.00034615374
-0.0048807845 0.00127 -0.00051978015
-0.0048807845 0 -0.018750548
0.006972549 0.00127 -0.020834066
-0.0067982352 0.00127 -0.0012142856
-0.0022660785 -0.00018142856 -0.012326373
0.0076698042 -0.00018142856 -0.02586923
0.0040092156 0.00127 -0.020834066
0.0047064708 0.00018142856 -0.018924175
0.0085413726 0.0010885714 -0.021354944
-0.0061009806 0.0010885714 -0.021354944
0.0033119607 0.00054428569 -0.019097801
-0.0026147058 0.00072571426 -0.021354944
0.0027890196 0.00018142856 -0.026390109
-0.005752353 0 -0.0022560437
-0.00017431373 0.00018142856 -0.023438461
-0.0088900002 -0.00018142856 -0.021007692
-0.0013945098 0.00127 -0.001387912
-0.0052294116 0.00018142856 0.00052197807
0.0073211766 0 -0.017361538
-0.00034862745 0 -0.022917582
-0.0031376472 -0.00127 -0.02013956
-0.006972549 -0.00127 -0.02066044
-0.0073211766 0 -0.018576922
0.0071468628 0.00090714288 -0.0024296702
0.0038349021 -0.00127 -0.0010406593
0.00034862745 -0.00018142856 -0.011979121
-0.00087156863 0.00127 -0.001387912
-0.0048807845 -0.00018142856 -0.012847252
0.0083670588 0.00036285713 -0.00034615374
-0.0078441175 -0.00018142856 0.0027791208
-0.0027890196 0.00018142856 0.0019109891
-0.00034862745 0.00018142856 -0.02448022
-0.0087156864 0.00054428569 -0.019445054
-0.008192745 0.0010885714 -0.019618681
0.0024403923 -0.00018142856 -0.0036450548
0.0024403923 0.00018142856 -0.0083329668
0.0073211766 0.00018142856 -0.013715385
0.0027890196 0.00018142856 -0.018750548
0.0050550983 0.00018142856 -0.011805494
0.0074954904 0.00018142856 -0.0027769229
0.0048807845 0 -0.017535165
0.0088900002 0.00036285713 -0.0010406593
0.0048807845 0 -0.0050340658
-0.0055780392 0.00127 -0.0015615383
0.0017431373 0.00072571426 -0.0024296702
-0.0015688236 0.00127 -0.021181319
0.0022660785 0.00018142856 -0.017187912
-0.0041835294 0.00127 -0.00051978015
-0.0052294116 0.00127 -0.02066044
-0.0022660785 0 -0.022223076
-0.0027890196 0.00127 -0.02013956
0.0027890196 0 -0.010416484
-0.0048807845 -0.00018142856 -0.011458241
-0.0050550983 -0.00018142856 0.0022582419
-0.0048807845 0.00018142856 -0.0038186812
0.0052294116 -0.00018142856 -0.023091208
0.0026147058 0.00018142856 0.0010428572
0.0013945098 0.00018142856 -0.019097801
0.0010458824 0.00127 -0.0017351647
-0.0006972549 -0.00054428569 -0.02152857
-0.0027890196 0 0.0026054946
0.0048807845 0 0.0015637364
0.0024403923 -0.00036285713 -0.019097801
-0.0052294116 -0.00018142856 -0.01059011
0.0026147058 -0.00018142856 -0.016667033
-0.006972549 0.00127 -0.021354944
0 -0.00018142856 -0.0088538462
-0.00034862745 0 -0.017187912
0.0074954904 -0.0010885714 -0.021181319
0.0043578432 -0.00072571426 -0.0024296702
-0.0074954904 -0.00018142856 -0.0055549447
0.0067982352 0.00127 -0.0022560437
-0.005752353 -0.00072571426 -0.019271428
-0.00034862745 0 -0.017535165
-0.0078441175 -0.00054428569 -0.019097801
-0.0059266668 -0.00127 -0.02066044
-0.0026147058 0.0010885714 -0.00017252739
-0.0059266668 -0.00072571426 -0.02152857
0.0052294116 -0.00018142856 -0.00017252739
-0.0087156864 0.00072571426 -0.00086703285
-0.0076698042 0.00018142856 0.0022582419
-0.0015688236 -0.00127 -0.0024296702
-0.0020917647 -0.00090714288 -0.0024296702
-0.0074954904 0.00018142856 -0.0064230766
0.0012201961 0.00072571426 -0.00034615374
-0.0017431373 -0.00127 -0.00086703285
-0.0026147058 -0.00018142856 -0.022396702
0.0022660785 0.00018142856 -0.0055549447
0.0085413726 0.0010885714 -0.020834066
0.0027890196 -0.00018142856 -0.0029505494
0.0052294116 -0.00090714288 -0.0022560437
0.0006972549 -0.00127 -0.020486813
0.0066239215 -0.00072571426 -0.019271428
0.0048807845 0 -0.0079857139
0.00034862745 0 -0.010242857
0.0087156864 0.00054428569 -0.021354944
0.0050550983 -0.00018142856 -0.016840659
-0.0022660785 0.0010885714 -0.00017252739
0.0040092156 -0.00036285713 -0.00034615374
-0.0048807845 -0.00127 -0.021181319
0.0078441175 -0.0010885714 -0.02013956
0.00087156863 -0.00127 -0.020834066
-0.00017431373 0.00018142856 0.00017472536
0.0078441175 0.00018142856 -0.011284615
-0.0024403923 0.00127 -0.00017252739
0.0052294116 0.00018142856 -0.0048604393
0.0026147058 -0.00018142856 -0.0092010982
-0.0050550983 -0.00018142856 -0.0048604393
-0.0026147058 0.00018142856 -0.017014286
0.0052294116 0 -0.014757142
-0.0033119607 0.00127 -0.0017351647
-0.0050550983 -0.00072571426 -0.019097801
-0.0074954904 0.00018142856 -0.01059011
0.0066239215 0.00018142856 -0.0024296702
-0.00034862745 0 -0.015625274
-0.0034862745 0.00018142856 -0.019097801
-0.0033119607 -0.00072571426 -0.00017252739
0.0076698042 -0.00018142856 -0.023959341
0.0043578432 -0.00036285713 -0.0024296702
-0.0073211766 0.00127 -0.0015615383
0.001917451 0 -0.019097801
0.0024403923 0.00127 -0.019618681
-0.0026147058 -0.00018142856 -0.023959341
0.0067982352 -0.00127 -0.020313187
0.0073211766 0 -0.014236263
-0.0036605883 -0.0010885714 -0.02152857
0.0027890196 0.00090714288 -0.00017252739
-0.0015688236 0.00036285713 -0.021354944
-0.00017431373 0.00018142856 -0.0097219776
0.0006972549 -0.00127 -0.02066044
0.00017431373 -0.00054428569 -0.00034615374
-0.0027890196 0 -0.018403295
-0.0022660785 0 -0.024827471
0.0010458824 -0.00018142856 -0.02152857
0.0052294116 0 -0.0097219776
0.0061009806 0.00127 -0.019965934
-0.0052294116 -0.0010885714 -0.02152857
0.0017431373 0.00127 -0.00034615374
0.0006972549 0.00127 -0.00017252739
0.0027890196 0.00127 -0.0006934065
0.0027890196 -0.00018142856 -0.0086802198
-0.0050550983 -0.00127 -0.00051978015
-0.0052294116 -0.00018142856 -0.017882418
0.0036605883 0.00054428569 -0.019097801
0.00052294118 0.00127 -0.02013956
-0.0029633334 0.0010885714 -0.0024296702
0.0073211766 0 -0.018750548
0.0067982352 -0.00090714288 -0.0022560437
-0.0062752943 -0.00018142856 -0.0022560437
-0.0076698042 0.00018142856 -0.0064230766
0.00017431373 0.00018142856 -0.026737362
0.0048807845 -0.00018142856 -0.01631978
-0.0047064708 0.00127 -0.0015615383
0.0040092156 0.00127 -0.021007692
-0.0010458824 0.00072571426 -0.0022560437
-0.0006972549 -0.00127 -0.0010406593
-0.0024403923 0.00018142856 -0.010416484
-0.0078441175 0 -0.025001097
0.00017431373 -0.00018142856 -0.018403295
-0.0029633334 0.00127 -0.0015615383
0.0027890196 0.00018142856 -0.0097219776
0.0061009806 0.00054428569 -0.00034615374
0.0073211766 0.00018142856 -0.010763736
0.0022660785 -0.00054428569 -0.019271428
-0.0027890196 0 -0.013541758
-0.0073211766 0.00127 -0.020486813
-0.0078441175 0.00018142856 -0.023091208
0.0022660785 0.00018142856 -0.016493406
0.0048807845 0 -0.011458241
0.0024403923 0.00127 -0.020486813
0.0015688236 0.00054428569 -0.019097801
-0.0024403923 -0.00018142856 -0.0064230766
0.0041835294 -0.0010885714 -0.00017252739
-0.0059266668 -0.00127 -0.0006934065
-0.0050550983 0.00018142856 -0.011631868
-0.0006972549 -0.00127 -0.019445054
0.0013945098 0.00127 -0.0012142856
-0.0052294116 -0.00018142856 -0.0072912085
0.0074954904 -0.0010885714 -0.02013956
-0.0085413726 0.0010885714 -0.020313187
-0.0048807845 -0.00018142856 -0.0092010982
0.0076698042 0.0010885714 -0.019271428
0 -0.00127 -0.0010406593
-0.00087156863 -0.00054428569 -0.00034615374
-0.0027890196 0.00018142856 -0.0046868129
0.0024403923 0.00018142856 0.0027791208
0.0087156864 0 -0.00017252739
0.004532157 -0.0010885714 -0.019618681
-0.0027890196 -0.00018142856 -0.017014286
-0.00017431373 0.00018142856 -0.026910989
0.0078441175 0 -0.01631978
0.0083670588 0.00054428569 -0.00034615374
-0.0050550983 0.00018142856 -0.014757142
-0.00052294118 0.00054428569 -0.019097801
0.0052294116 0.00127 -0.00017252739
-0.008192745 0.00072571426 -0.00034615374
0.00087156863 -0.0010885714 -0.0024296702
-0.0048807845 0 -0.012673626
0.0078441175 0.00018142856 -0.015451648
0.0050550983 -0.00127 -0.0012142856
0.0052294116 0 -0.0026032967
-0.0010458824 -0.00090714288 -0.00017252739
0.0074954904 0.00036285713 -0.02152857
-0.0080184313 0.00127 -0.00086703285
0.00017431373 0.00018142856 -0.0085065933
0.0012201961 -0.00127 -0.020486813
0.00052294118 0.00127 -0.02066044
-0.0031376472 0.00036285713 -0.0022560437
-0.0076698042 0.00018142856 -0.0092010982
-0.0073211766 -0.00018142856 -0.0024296702
-0.0073211766 -0.00018142856 -0.013194505
0.0012201961 0.00127 -0.0012142856
0.0052294116 0.00018142856 -0.017708791
-0.0074954904 -0.00018142856 -0.013715385
-0.0034862745 -0.00127 -0.020313187
-0.0034862745 0.00127 -0.021007692
-0.0066239215 0.00036285713 -0.021354944
0.00087156863 0.00127 -0.00034615374
-0.0015688236 0.00036285713 -0.00034615374
0.0043578432 -0.00018142856 -0.02152857
-0.0083670588 -0.0010885714 -0.00017252739
-0.0061009806 0 -0.0022560437
-0.0024403923 -0.00127 -0.020834066
-0.0048807845 0.00018142856 -0.0057285712
0.00034862745 -0.00018142856 -0.0050340658
-0.0055780392 0.00018142856 -0.019097801
0 0.00018142856 0.00052197807
0 -0.00018142856 -0.0050340658
0.0027890196 0.00018142856 -0.013194505
0.0087156864 0.00090714288 -0.0012142856
0.0010458824 0.00127 -0.0010406593
-0.0027890196 -0.00018142856 -0.018056042
-0.0024403923 0.00018142856 -0.012847252
-0.0024403923 -0.00018142856 -0.0034714283
-0.0052294116 0.00018142856 -0.025695603
0.004532157 -0.00054428569 -0.021354944
0.00034862745 0 0.0010428572
-0.0083670588 -0.00018142856 -0.019097801
0.0050550983 -0.00127 -0.0010406593
0.0024403923 -0.00018142856 -0.024653845
0.0027890196 0 -0.018229669
0.0052294116 0 -0.026390109
0.0048807845 0.00018142856 -0.013715385
-0.0076698042 0.00018142856 -0.0093747247
-0.006972549 -0.00127 -0.0022560437
-0.0027890196 0 -0.014062637
0.0024403923 0.00018142856 -0.0034714283
0.0071468628 0.00127 -0.021007692
0.0031376472 0.00036285713 -0.019097801
0.0015688236 0.00127 -0.00017252739
-0.0027890196 -0.0010885714 -0.00017252739
-0.0043578432 0 -0.019097801
-0.0034862745 0.00127 -0.019618681
-0.0048807845 -0.00018142856 -0.0057285712
-0.0022660785 -0.00018142856 -0.02586923
-0.0043578432 0.00054428569 -0.0022560437
0.004532157 -0.00127 -0.020313187
0.00034862745 -0.00018142856 -0.022743955
-0.0006972549 -0.00072571426 -0.0022560437
-0.0062752943 0.00127 -0.021354944
0.0066239215 0.00018142856 -0.00017252739
-0.0076698042 0.00018142856 -0.011458241
-0.0050550983 -0.00018142856 -0.0092010982
-0.0047064708 -0.00072571426 -0.02152857
0.0031376472 0.00090714288 -0.0022560437
-0.0020917647 -0.00090714288 -0.02152857
-0.0022660785 -0.00018142856 -0.024132967
-0.00017431373 -0.00018142856 -0.024132967
-0.0064496081 0.00054428569 -0.0022560437
0.0074954904 -0.00018142856 -0.0083329668
-0.0026147058 -0.00018142856 -0.010416484
-0.0050550983 0.00018142856 -0.0055549447
0.0052294116 -0.00018142856 -0.0088538462
-0.0052294116 0 -0.0057285712
0.0048807845 0 -0.026737362
0.0078441175 0 -0.010763736
-0.0066239215 0.00054428569 -0.021354944
0.0017431373 0.00127 -0.019965934
-0.0041835294 0.00127 -0.0019087911
0.00034862745 -0.00018142856 0.0015637364
-0.0055780392 -0.00127 -0.001387912
-0.0078441175 0 0.00069560448
0.0050550983 -0.00018142856 -0.0050340658
0 0.00127 -0.0019087911
0.0027890196 0.00018142856 -0.017535165
0.004532157 0.00127 -0.0017351647
-0.0052294116 0.00018142856 -0.017014286
0.0038349021 -0.00127 -0.00034615374
-0.0078441175 0.00018142856 -0.0052076923
-0.00034862745 0.0010885714 -0.02152857
0.0024403923 0 -0.012499999
0.0064496081 -0.00127 -0.021007692
0.0076698042 0.00018142856 -0.010763736
0.0024403923 0.00127 -0.02013956
0.0027890196 0 0.0026054946
0.00052294118 0.00018142856 -0.019097801
-0.0010458824 0.00036285713 -0.00034615374
-0.0026147058 -0.00018142856 -0.0043395604
-0.0085413726 0.0010885714 -0.0015615383
0.004532157 -0.00054428569 -0.0024296702
0.0047064708 -0.00090714288 -0.00017252739
-0.0027890196 0.00018142856 -0.023091208
-0.0073211766 0 -0.015104395
-0.0074954904 -0.00018142856 0.0012164835
-0.0048807845 0 0.00086923083
0 0.00018142856 -0.018403295
0.0074954904 0.00018142856 -0.023959341
-0.00087156863 -0.0010885714 -0.00017252739
-0.0052294116 -0.00018142856 -0.010763736
-0.0027890196 0.00018142856 -0.0029505494
0.0074954904 0 0.0024318681
0 0.00018142856 -0.0065967031
0.0040092156 0.00127 -0.0020824175
-0.0040092156 0.00090714288 -0.0022560437
0.0055780392 -0.00018142856 -0.021354944
-0.0073211766 -0.00018142856 -0.012673626
-0.0066239215 0.00072571426 -0.019271428
0.0034862745 -0.00127 -0.021354944
-0.0059266668 0.00127 -0.021007692
0.00034862745 -0.00018142856 -0.017535165
0.0062752943 0.00036285713 -0.0024296702
-0.0027890196 -0.00018142856 -0.014236263
-0.0087156864 -0.00090714288 -0.0017351647
0.0074954904 0.00018142856 -0.027084615
-0.001917451 0.00127 -0.02066044
0.0048807845 0 -0.027258242
-0.0024403923 -0.00090714288 -0.02152857
-0.00034862745 0.00018142856 -0.013020879
-0.0061009806 0.00127 -0.019965934
-0.00034862745 0 -0.013715385
0.0052294116 -0.00018142856 -0.017535165
-0.0033119607 -0.00127 -0.020313187
-0.0050550983 0.00018142856 -0.0038186812
0.006972549 0.00090714288 -0.00017252739
-0.0048807845 0.00072571426 -0.0024296702
0.0027890196 -0.00127 -0.021354944
-0.0029633334 -0.00127 -0.019271428
-0.0015688236 0.00127 -0.019792307
0.0024403923 0.00018142856 -0.012152747
-0.0027890196 -0.00018142856 -0.016840659
0.0078441175 0.00018142856 0.0022582419
-0.0064496081 0.00127 -0.02013956
0.008192745 0.0010885714 -0.019965934
0.0024403923 0 0.0029527473
0.0073211766 0.00018142856 -0.014583516
-0.0012201961 0.0010885714 -0.021354944
-0.0033119607 0.00127 -0.0006934065
0.0048807845 0 -0.015278022
-0.0024403923 -0.00018142856 -0.023264835
0.0038349021 -0.00127 -0.020313187
-0.0052294116 -0.00090714288 -0.00017252739
-0.0024403923 -0.00054428569 -0.019097801
-0.0055780392 -0.00036285713 -0.019097801
-0.0052294116 0 -0.014236263
0.00034862745 -0.00054428569 -0.0024296702
0.0040092156 0.00127 -0.019271428
0.0071468628 -0.00127 -0.00034615374
-0.0027890196 0.00018142856 -0.026563736
0.0062752943 -0.00127 -0.00086703285
-0.0048807845 0.00018142856 -0.014583516
-0.0087156864 0.00090714288 -0.00086703285
-0.0064496081 0.00127 -0.0017351647
0.0020917647 0.00072571426 -0.0024296702
0.00087156863 -0.00127 -0.0019087911
-0.0080184313 -0.0010885714 -0.020834066
0.0022660785 -0.00127 -0.0006934065
0.0024403923 -0.00018142856 -0.010416484
-0.00034862745 0.00018142856 0.00017472536
-0.008192745 -0.00090714288 -0.0022560437
0.0087156864 -0.00018142856 -0.0022560437
0.0048807845 0 0.00034835172
0.00034862745 0 -0.018750548
-0.0026147058 -0.00018142856 -0.0065967031
0.0073211766 0 -0.024306593
0.006972549 0.00127 -0.021007692
-0.0033119607 -0.00054428569 -0.02152857
-0.0050550983 -0.00018142856 -0.022917582
0.00017431373 -0.00127 -0.0020824175
-0.0012201961 0.00090714288 -0.021354944
0.00017431373 0.00018142856 -0.017014286
-0.0024403923 0.00018142856 0.0019109891
0.0043578432 0.00127 -0.0012142856
0.0078441175 0.00018142856 -0.010069231
0.0026147058 0.00018142856 0.0015637364
-0.0073211766 0.00054428569 -0.00034615374
-0.0052294116 0.00127 -0.00034615374
0.005752353 -0.00018142856 -0.021354944
-0.0088900002 -0.00036285713 -0.021007692
-0.0024403923 -0.00018142856 -0.015625274
0.0073211766 0.00018142856 -0.0093747247
-0.00017431373 -0.00036285713 -0.018924175
0.0031376472 -0.00127 -0.00086703285
-0.0074954904 0 0.00086923083
-0.0055780392 -0.0010885714 -0.019271428
0.0074954904 -0.00018142856 -0.0065967031
-0.0024403923 0.00072571426 -0.019271428
-0.0029633334 -0.00036285713 -0.02152857
-0.0047064708 -0.00054428569 -0.019097801
-0.00017431373 -0.00018142856 0.0024318681
-0.0062752943 0.0010885714 -0.021354944
-0.0054037254 0.0010885714 -0.019271428
0.0022660785 0 0.0022582419
0.0080184313 -0.00072571426 -0.00017252739
-0.00017431373 0.00018142856 -0.024827471
-0.0012201961 -0.00054428569 -0.019271428
0.0041835294 0.00127 -0.021007692
-0.0026147058 0.00018142856 0.0024318681
0.0040092156 0.00054428569 -0.019271428
0.0022660785 -0.00127 -0.020834066
-0.0061009806 -0.00127 -0.0006934065
0.0017431373 0.00036285713 -0.019097801
-0.0024403923 -0.00018142856 -0.0038186812
0.0052294116 0 -0.026737362
-0.0067982352 0.00054428569 -0.00034615374
-0.0052294116 0.00127 -0.020313187
0.0010458824 0.00127 -0.019618681
-0.0078441175 -0.00018142856 -0.010069231
-0.0029633334 -0.00127 -0.02066044
-0.0020917647 0.00127 -0.021181319
0.0076698042 0.00018142856 0.0027791208
0.0041835294 0.00127 -0.0022560437
-0.0067982352 -0.00036285713 -0.00034615374
0.0010458824 0.00127 -0.02066044
-0.0015688236 0.00127 -0.0022560437
-0.0052294116 0.00018142856 -0.013020879
-0.0074954904 -0.00018142856 -0.023091208
0.0050550983 0.00018142856 -0.017708791
0.0036605883 0 -0.00017252739
-0.0078441175 0 -0.0034714283
-0.0033119607 -0.00127 -0.019271428
-0.0074954904 0.00018142856 -0.016493406
0.0076698042 0.00018142856 -0.017535165
0.0033119607 0.00090714288 -0.019445054
0.0027890196 0 -0.025001097
-0.0067982352 -0.00127 -0.0012142856
-0.0024403923 -0.00018142856 -0.018229669
0.0040092156 -0.00054428569 -0.021354944
-0.0054037254 -0.00127 -0.021007692
0.0015688236 0.00072571426 -0.019445054
0.0026147058 0.00018142856 -0.023264835
0.0074954904 0.00036285713 -0.022223076
0.0050550983 -0.00018142856 -0.0038186812
-0.004532157 -0.00018142856 -0.0024296702
0.0029633334 0.00127 -0.0006934065
-0.0027890196 0 -0.011631868
-0.0078441175 0 -0.0029505494
0.0076698042 -0.00018142856 0.0022582419
-0.0066239215 -0.00127 -0.0006934065
-0.0031376472 0.00072571426 -0.019271428
-0.0031376472 0.0010885714 -0.019271428
-0.0024403923 0.00018142856 -0.0072912085
-0.0054037254 0.00127 -0.0010406593
-0.0067982352 0.0010885714 -0.021354944
0.0076698042 -0.00018142856 -0.0081593404
0.0080184313 0.00036285713 -0.00034615374
-0.0024403923 0.00018142856 -0.017708791
-0.0027890196 -0.00127 -0.020486813
-0.0048807845 -0.00018142856 -0.0090274718
-0.0047064708 -0.00090714288 -0.019271428
-0.0013945098 0.00127 -0.0010406593
-0.0074954904 0.00018142856 -0.0078120874
0.0022660785 0.00018142856 0.00069560448
-0.0078441175 0.00018142856 0.00017472536
-0.0026147058 0.00018142856 -0.024653845
0.00017431373 0.00018142856 -0.0029505494
-0.0024403923 0.00018142856 -0.0069439556
0.0078441175 0.00127 -0.021007692
-0.0024403923 -0.00127 -0.0012142856
0.0067982352 -0.00127 -0.0006934065
0.0047064708 -0.00127 -0.00051978015
-0.0078441175 0.00018142856 0.0019109891
-0.008192745 -0.0010885714 -0.020486813
-0.0036605883 -0.00127 -0.020834066
-0.0055780392 -0.00054428569 -0.00034615374
0.0040092156 -0.0010885714 -0.021354944
-0.0059266668 -0.00090714288 -0.02152857
-0.0088900002 -0.00018142856 -0.0019087911
0.0027890196 0.00127 -0.021181319
0.0015688236 -0.00127 -0.020486813
0.0080184313 -0.00036285713 -0.00034615374
0.0013945098 0.00127 -0.0020824175
-0.00017431373 -0.00018142856 -0.013541758
-0.0026147058 0.00018142856 -0.0067703295
-0.0048807845 0 -0.0045131864
0.006972549 -0.00036285713 -0.019097801
0.0073211766 -0.0010885714 -0.0017351647
0.0087156864 -0.00090714288 -0.0020824175
-0.0050550983 -0.00018142856 -0.0064230766
-0.0024403923 0.00018142856 -0.015625274
0.001917451 0.00018142856 -0.0024296702
0.0024403923 -0.00018142856 -0.0085065933
0.0076698042 0.00018142856 -0.014583516
0.0085413726 0.00018142856 -0.019271428
-0.0052294116 -0.00018142856 0.00017472536
0.0015688236 -0.00127 -0.0019087911
-0.001917451 0.00127 -0.0020824175
0.00034862745 0.00072571426 -0.02152857
-0.0024403923 -0.00018142856 -0.0076384614
0.0043578432 0.00127 -0.021007692
-0.00034862745 0.00127 -0.0015615383
0.0013945098 0.00127 -0.020834066
0.0054037254 -0.00127 -0.02013956
-0.0071468628 -0.0010885714 -0.019271428
-0.0026147058 0.00018142856 -0.010937362
-0.006972549 0.0010885714 -0.00017252739
-0.0050550983 -0.0010885714 -0.019445054
-0.0078441175 0.0010885714 -0.021354944
0.0073211766 0.00127 -0.0012142856
0.0027890196 0.00018142856 0.0027791208
-0.005752353 -0.00127 -0.0010406593
0.0029633334 0.00090714288 -0.0022560437
0.0052294116 0 -0.0088538462
-0.006972549 -0.00090714288 -0.019271428
-0.0076698042 -0.00018142856 -0.02448022
0.001917451 0.00127 -0.020834066
0.0087156864 0.00090714288 -0.0015615383
0.0022660785 0.00018142856 -0.015278022
-0.0074954904 -0.00018142856 -0.026216483
0.0031376472 -0.00127 -0.001387912
-0.004532157 0.00090714288 -0.0022560437
0.0033119607 -0.00127 -0.020834066
0.0027890196 -0.00127 -0.0019087911
0 -0.00018142856 -0.010069231
0.0061009806 0.00036285713 -0.0024296702
-0.0088900002 0.00036285713 -0.019792307
-0.0080184313 0.0010885714 -0.019792307
-0.0048807845 -0.00018142856 -0.014757142
-0.0052294116 0.00018142856 -0.022049449
-0.0027890196 -0.00018142856 0.00034835172
0.0022660785 0.00018142856 -0.017535165
0.0036605883 0.00072571426 -0.00034615374
0.0043578432 -0.00127 -0.019618681
-0.0048807845 0 -0.013368132
0 0.00018142856 -0.018229669
0 0.00018142856 0.0010428572
0.0026147058 0.00018142856 -0.023612088
-0.0022660785 0.00018142856 -0.018924175
-0.00034862745 0.00018142856 -0.011110988
0.0027890196 -0.00018142856 0.0010428572
0.0087156864 -0.00054428569 -0.021007692
0.0027890196 0.00127 -0.020834066
0.0024403923 -0.00018142856 0.00086923083
0.0034862745 0.00072571426 -0.02152857
-0.0038349021 0.00018142856 -0.00017252739
0.0071468628 -0.00127 -0.020834066
0.0027890196 -0.00127 -0.00017252739
0.0067982352 0.0010885714 -0.019271428
0.00017431373 0.00018142856 -0.026390109
0.00087156863 -0.00127 -0.001387912
0.0043578432 -0.00127 -0.00051978015
-0.0027890196 -0.00018142856 -0.015625274
-0.0052294116 0 0.0020846154
-0.00017431373 -0.00018142856 -0.0081593404
-0.008192745 -0.00054428569 -0.0024296702
-0.0067982352 0.00127 -0.020313187
0.00017431373 -0.00072571426 -0.02152857
0.00034862745 -0.00018142856 -0.0031241756
-0.00017431373 -0.00018142856 -0.0079857139
0.0078441175 0.00072571426 -0.021354944
0.0024403923 0 -0.018229669
0.0038349021 -0.00090714288 -0.00017252739
0.0050550983 0.00018142856 -0.0045131864
0.0052294116 0 -0.0053813183
0.0024403923 0.00018142856 -0.011458241
0.00017431373 0.00036285713 -0.018576922
0.0027890196 0 -0.010937362
-0.0078441175 0.00018142856 -0.0065967031
-0.00017431373 -0.00018142856 -0.02534835
-0.0024403923 0.00018142856 -0.0060758241
0.0073211766 -0.0010885714 -0.021354944
0.0050550983 0.00018142856 -0.0095483512
0.0050550983 -0.00018142856 -0.0060758241
-0.0073211766 -0.00018142856 -0.015972527
0.0085413726 -0.0010885714 -0.020834066
0.0017431373 -0.00127 -0.0006934065
0.0073211766 0 -0.011110988
-0.0027890196 0.00127 -0.00086703285
0.0048807845 -0.00018142856 -0.011979121
-0.006972549 0.0010885714 -0.019271428
0.0064496081 -0.00018142856 -0.019097801
0.001917451 0.00127 -0.0006934065
0.0073211766 0.00018142856 -0.010069231
0.0050550983 -0.00018142856 -0.016146153
0.0050550983 -0.00018142856 -0.026910989
0.00017431373 -0.00018142856 -0.013194505
0.0048807845 0 -0.017882418
-0.0074954904 -0.00018142856 -0.017708791
0.0027890196 -0.00018142856 -0.016667033
0.00034862745 -0.00018142856 0.00034835172
0.0055780392 -0.00127 -0.0010406593
0.004532157 0.00054428569 -0.021354944
0.00052294118 0.0010885714 -0.019271428
-0.0031376472 -0.0010885714 -0.00017252739
0 -0.00018142856 -0.0032978021
0.00017431373 0.00018142856 -0.011805494
-0.0034862745 0 -0.019097801
0.008192745 0.00090714288 -0.021354944
0.004532157 0.00127 -0.0012142856
-0.0012201961 -0.00127 -0.0015615383
0.008192745 0.0010885714 -0.02066044
0.0064496081 0.00054428569 -0.0024296702
0.0033119607 0.00072571426 -0.02152857
0.0076698042 -0.00018142856 -0.018229669
-0.00052294118 -0.00072571426 -0.00017252739
0.0074954904 0.00018142856 1.0989846e-06
0.00034862745 0.00127 -0.02066044
0 0.00127 -0.00051978015
0.0036605883 -0.0010885714 -0.021354944
0 -0.00018142856 -0.0090274718
0.001917451 -0.00018142856 -0.00017252739
0.0064496081 -0.00127 -0.02013956
-0.0024403923 0.00127 -0.019618681
-0.0074954904 0.00018142856 -0.0038186812
0.0073211766 0.00018142856 -0.011110988
0.0087156864 -0.00072571426 -0.0020824175
0.0024403923 -0.00018142856 -0.0048604393
0.0022660785 -0.00090714288 -0.021354944
-0.0088900002 -0.00018142856 -0.00051978015
-0.0010458824 0.00127 -0.00086703285
-0.0080184313 -0.00036285713 -0.00034615374
-0.0074954904 0.00054428569 -0.0024296702
-0.0078441175 0.00018142856 0.0022582419
0.004532157 0.00127 -0.020834066
-0.0033119607 -0.00072571426 -0.02152857
-0.0048807845 0.00018142856 -0.027258242
0.0078441175 0.00018142856 -0.0086802198
-0.0076698042 0.00090714288 -0.021354944
-0.0074954904 -0.00036285713 -0.019097801
-0.0050550983 0.00018142856 0.0012164835
0.0012201961 0.0010885714 -0.019271428
-0.0067982352 -0.00127 -0.0019087911
-0.0062752943 0.0010885714 -0.0022560437
0.0076698042 0.00018142856 -0.027258242
-0.0040092156 0.00127 -0.00051978015
-0.0048807845 0.00018142856 0.0017373627
-0.008192745 -0.0010885714 -0.001387912
-0.0048807845 0.00018142856 0.0013901099
-0.001917451 -0.00127 -0.020486813
0.0048807845 0 -0.011979121
0 -0.00018142856 -0.0064230766
-0.00034862745 0.00018142856 -0.0078120874
-0.0052294116 0 0.0024318681
-0.0087156864 0.00054428569 -0.02066044
0.0027890196 -0.00018142856 -0.014757142
-0.0043578432 -0.00127 -0.0020824175
0.0024403923 -0.00018142856 -0.014757142
0.0052294116 0.00127 -0.021007692
-0.0071468628 0.00127 -0.021181319
0.0027890196 -0.00018142856 -0.017187912
0.0061009806 0.00072571426 -0.019271428
0 -0.00036285713 -0.018924175
-0.0012201961 -0.00127 -0.0022560437
0.0052294116 0.00018142856 -0.011979121
0.0048807845 0.00127 -0.00034615374
0.0012201961 0.00018142856 -0.0022560437
0.0078441175 0.00018142856 -0.026042856
-0.0048807845 0 -0.011979121
-0.0078441175 -0.00018142856 -0.013194505
0.0073211766 0 -0.014409889
-0.0012201961 -0.00036285713 -0.0022560437
-0.004532157 -0.00127 -0.019965934
0.0013945098 0.00072571426 -0.02152857
-0.00034862745 0.00018142856 -0.016146153
0 -0.00127 -0.02152857
0.00087156863 -0.00054428569 -0.02152857
-0.0048807845 0.00018142856 -0.016493406
0.0080184313 -0.00018142856 -0.019097801
0.0048807845 -0.00018142856 -0.0081593404
-0.0031376472 -0.00036285713 -0.00034615374
-0.0076698042 -0.00018142856 -0.0081593404
0.0085413726 -0.0010885714 -0.021007692
-0.0026147058 0.00018142856 -0.023264835
0.0052294116 0 -0.013020879
0.0029633334 0 -0.00017252739
0.0034862745 -0.00018142856 -0.021354944
-0.0064496081 -0.00127 -0.00086703285
0.0052294116 0 -0.0067703295
0.0034862745 0 -0.0024296702
0.0034862745 0.00072571426 -0.00034615374
-0.0052294116 0.00018142856 -0.017535165
-0.0076698042 0.00018142856 -0.027084615
0.0054037254 0.00127 -0.020313187
-0.0078441175 -0.00018142856 -0.016493406
-0.001917451 -0.00036285713 -0.00034615374
0 -0.00018142856 -0.0043395604
0.0048807845 0.00018142856 -0.013020879
-0.0040092156 0.00018142856 -0.0022560437
-0.00034862745 -0.00036285713 -0.00034615374
-0.0020917647 -0.00072571426 -0.00017252739
0.0074954904 -0.00018142856 -0.022743955
0.0064496081 -0.00018142856 -0.0024296702
0.0034862745 -0.00127 -0.019445054
-0.0010458824 0.00018142856 -0.02152857
0.0050550983 0.00127 -0.00034615374
0.0024403923 -0.00018142856 -0.0045131864
0.0050550983 -0.00018142856 -0.010763736
0.0076698042 -0.00018142856 -0.0036450548
0.0040092156 0.00127 -0.02013956
0.001917451 0.00127 -0.019618681
0.0078441175 0.00018142856 -0.014062637
0.00017431373 0.00018142856 -0.026563736
0.0038349021 -0.00127 -0.019965934
-0.0052294116 -0.00018142856 0.00086923083
0.0040092156 0.00072571426 -0.00034615374
-0.0034862745 0.00072571426 -0.0022560437
-0.0059266668 0.00018142856 -0.021354944
0.0048807845 0 -0.0062494501
-0.0078441175 0 -0.013715385
-0.0088900002 -0.00036285713 -0.0020824175
0.0024403923 -0.00018142856 -0.0031241756
0.0015688236 0.00127 -0.019618681
0.0055780392 0.0010885714 -0.019618681
0.0078441175 -0.00090714288 -0.00017252739
-0.0047064708 0.00090714288 -0.0022560437
0.0015688236 0.00127 -0.021181319
0.0026147058 0.00018142856 -0.0076384614
-0.0087156864 0 -0.0017351647
0.0047064708 0.00127 -0.020486813
0.008192745 -0.0010885714 -0.021354944
-0.0036605883 0.00127 -0.02013956
0.0074954904 -0.00018142856 -0.024306593
0.0078441175 0.0010885714 -0.021354944
-0.00034862745 -0.00036285713 -0.02152857
0.00017431373 0.00054428569 -0.02152857
-0.0050550983 -0.00018142856 -0.0032978021
0.0073211766 0 -0.011284615
0.00017431373 -0.00018142856 -0.013368132
0.001917451 -0.00127 -0.0012142856
-0.0061009806 -0.00054428569 -0.02152857
0.006972549 -0.00072571426 -0.021354944
0.0026147058 -0.00018142856 -0.026390109
0.0012201961 -0.0010885714 -0.021354944
-0.0052294116 -0.00018142856 -0.023091208
-0.0050550983 0.00018142856 -0.0059021977
0.0022660785 0.00054428569 -0.019271428
-0.001917451 0.00072571426 -0.021354944
0.0015688236 0.00018142856 -0.019097801
0.0050550983 0.00018142856 -0.013715385
-0.0050550983 -0.00018142856 -0.014930769
-0.0052294116 0.00018142856 -0.021702196
-0.0073211766 -0.0010885714 -0.0022560437
0.0022660785 -0.00072571426 -0.00017252739
-0.0052294116 0.00018142856 -0.0059021977
0.0027890196 -0.00018142856 0.0026054946
0.0027890196 0 -0.01631978
0.0012201961 -0.00054428569 -0.019271428
0.0036605883 -0.00054428569 -0.00034615374
-0.0076698042 0.00018142856 -0.017187912
-0.0073211766 -0.00090714288 -0.019271428
-0.0048807845 0 0.00052197807
0.0024403923 -0.00018142856 -0.013715385
-0.0080184313 -0.0010885714 -0.0017351647
0 0.00127 -0.021007692
-0.0076698042 -0.00036285713 -0.021702196
0.0076698042 0.00127 -0.02013956
0.00034862745 0 -0.023438461
-0.0087156864 -0.00090714288 -0.019445054
0.00017431373 -0.00018142856 0.0015637364
-0.0074954904 -0.00018142856 -0.016493406
0.0052294116 0 0.0027791208
-0.0087156864 0.00072571426 -0.0017351647
0.0087156864 0.00018142856 -0.021354944
-0.0022660785 -0.00018142856 -0.0072912085
0.0052294116 0.00127 -0.02066044
0.0024403923 -0.00018142856 -0.0053813183
0.0017431373 0.00127 -0.020313187
0.0050550983 -0.00018142856 -0.01631978
0.0052294116 0 -0.022396702
0.0059266668 -0.00127 -0.00086703285
-0.0088900002 -0.00036285713 -0.021181319
0.0022660785 0.00018142856 -0.024827471
-0.0036605883 0.00127 -0.0010406593
0.0040092156 -0.00090714288 -0.021354944
0.0078441175 0 -0.014062637
0.0052294116 -0.00018142856 0.00086923083
-0.0040092156 0.00018142856 -0.019097801
0 0.00018142856 -0.022743955
0.0074954904 0.00127 -0.019965934
-0.0083670588 -0.00072571426 -0.00017252739
-0.0022660785 -0.00127 -0.019965934
0.0050550983 0.00018142856 -0.017361538
-0.0074954904 0 -0.0098956041
-0.0038349021 0.00054428569 -0.019271428
0.0073211766 0 -0.010937362
0.0006972549 -0.00018142856 -0.0022560437
-0.0074954904 -0.0010885714 -0.019618681
-0.0026147058 0.00090714288 -0.00017252739
-0.0052294116 0 -0.026042856
0.0074954904 0 -0.027258242
0.0052294116 0 -0.0085065933
0.0010458824 -0.00054428569 -0.0024296702
0.0074954904 -0.00018142856 -0.014757142
0.001917451 -0.0010885714 -0.019271428
0.0024403923 0.00072571426 -0.00034615374
-0.0024403923 -0.00018142856 -0.017535165
-0.0078441175 0 -0.015451648
-0.0050550983 -0.00018142856 -0.011284615
-0.006972549 -0.00127 -0.00051978015
0.0067982352 -0.00090714288 -0.019271428
0.0059266668 0.0010885714 -0.0022560437
-0.0041835294 -0.00127 -0.00051978015
0.0050550983 -0.00127 -0.020486813
0.001917451 -0.00054428569 -0.0024296702
-0.0027890196 0.00018142856 0.00086923083
0.0026147058 -0.00018142856 -0.026910989
-0.00034862745 0 -0.0032978021
-0.00034862745 0.00018142856 -0.013368132
-0.0061009806 -0.00127 -0.0020824175
0.0036605883 -0.00127 -0.020486813
0.00017431373 0.00018142856 -0.022743955
-0.00034862745 0 -0.014583516
-0.0033119607 -0.0010885714 -0.02152857
-0.0052294116 0.00018142856 -0.0093747247
0.0048807845 -0.00018142856 -0.0065967031
-0.00052294118 -0.00054428569 -0.02152857
0.0048807845 0 -0.022049449
0.0024403923 0.00018142856 0.0026054946
0.0052294116 -0.00018142856 -0.015278022
-0.0036605883 -0.00127 -0.00017252739
-0.0054037254 -0.00127 -0.0015615383
0.0026147058 -0.00018142856 -0.013889011
-0.0087156864 -0.00018142856 -0.019271428
0.0026147058 -0.00018142856 -0.017882418
0.0048807845 0.00018142856 -0.017187912
0.0048807845 0 -0.027431868
-0.0038349021 0.00054428569 -0.021354944
-0.0022660785 0.00127 -0.0010406593
0.0066239215 -0.0010885714 -0.019271428
-0.0047064708 0.00036285713 -0.019097801
0.0062752943 0.00090714288 -0.019271428
0.0012201961 -0.00127 -0.0012142856
-0.00017431373 -0.00018142856 -0.007117582
0.0061009806 0.00127 -0.02066044
-0.0022660785 0.00072571426 -0.0022560437
0.00017431373 0.00018142856 -0.017882418
0.0022660785 -0.00127 -0.0020824175
-0.0026147058 0.00018142856 -0.010416484
-0.0073211766 0.0010885714 -0.019792307
0.0048807845 -0.00127 -0.001387912
0.008192745 0.00054428569 -0.019271428
0.0024403923 -0.00018142856 0.0027791208
0.0078441175 0 0.00052197807
-0.006972549 0.00127 -0.020313187
0.0027890196 0 -0.027084615
-0.0073211766 -0.00018142856 -0.017187912
-0.0050550983 -0.00018142856 0.0029527473
-0.0033119607 -0.00018142856 -0.0022560437
-0.0026147058 0.00018142856 -0.022570329
0.0022660785 -0.00127 -0.0019087911
-0.0059266668 -0.00054428569 -0.019097801
-0.00017431373 0.00018142856 0.0022582419
-0.0048807845 0 -0.016840659
0.00017431373 -0.00018142856 0.0012164835
-0.0076698042 -0.00018142856 -0.0046868129
0.0026147058 -0.00036285713 -0.02152857
0.008192745 0.0010885714 -0.019792307
-0.0061009806 -0.0010885714 -0.019445054
-0.0006972549 -0.00127 -0.0017351647
0.0022660785 -0.00127 -0.019965934
0.0078441175 0.00018142856 -0.017535165
0.006972549 -0.0010885714 -0.019445054
0.005752353 0.00127 -0.02066044
0.00017431373 -0.00018142856 -0.023264835
-0.008192745 0.00090714288 -0.00017252739
0.00017431373 -0.00018142856 -0.0032978021
0.0074954904 -0.00072571426 -0.00017252739
-0.0033119607 0.00127 -0.019271428
0.005752353 0.0010885714 -0.019792307
0.0027890196 -0.00018142856 0.0019109891
0.0088900002 -0.00036285713 -0.0015615383
-0.0047064708 -0.0010885714 -0.019445054
0.0036605883 0.00127 -0.001387912
0.0033119607 -0.0010885714 -0.0022560437
-0.0061009806 0.00127 -0.020834066
0.001917451 0.00054428569 -0.019097801
0.0034862745 0.00036285713 -0.019097801
0.0027890196 0 1.0989846e-06
-0.001917451 0.00127 -0.0010406593
-0.0074954904 0 -0.0034714283
0.0050550983 -0.00018142856 -0.011631868
-0.0022660785 -0.00018142856 -0.012673626
-0.0038349021 -0.00054428569 -0.019097801
-0.0076698042 -0.0010885714 -0.021354944
0 -0.00018142856 -0.0086802198
-0.0074954904 0.00018142856 0.0010428572
-0.0048807845 -0.00018142856 -0.02534835
-0.0024403923 0.00018142856 -0.0043395604
0.00017431373 -0.0010885714 -0.02152857
-0.0022660785 -0.00054428569 -0.019097801
0.0080184313 -0.00036285713 -0.021181319
-0.00034862745 0 -0.0059021977
0.0076698042 -0.00018142856 -0.022049449
-0.0076698042 -0.00072571426 -0.00017252739
-0.0088900002 0 -0.020834066
-0.0050550983 -0.00018142856 -0.011805494
0.0066239215 -0.00127 -0.02013956
