# .PCD v0.7 - Point Cloud Data file format
VERSION 0.7
FIELDS x y z
SIZE 4 4 4
TYPE F F F
COUNT 1 1 1
WIDTH 1209
HEIGHT 1
VIEWPOINT 0 0 0 1 0 0 0
POINTS 1209
DATA ascii
-0.026448855 -0.00018142856 -0.013917778
0.025134625 -0.00054428569 -0.0019977777
-0.028420197 0.00054428569 -0.00067333336
0.026120298 0.00127 -1.1111111e-05
0.024477512 -0.00054428569 -0.0019977777
-0.017906368 0.00018142856 -0.00034222222
0.014949352 -0.00018142856 -0.018884445
0.024148954 -0.00018142856 -0.0033222223
-0.028748754 -0.00127 -0.0016666667
-0.02119194 0.00127 -1.1111111e-05
0.021520497 -0.00127 -0.018553333
-0.030720098 0.00018142856 -0.0013355556
0.016263582 0.00018142856 -0.0063022221
0.013963681 0.00018142856 -0.019215556
-0.0090353228 -0.00018142856 -0.025506666
0.023820397 0.00054428569 -0.017891111
-0.026777411 0.00018142856 0.0019755557
0.025463182 -0.00018142856 -0.018884445
0.018892039 0.00127 -0.018884445
-0.013963681 -0.00018142856 -0.009282222
-0.011006666 0.00018142856 -0.00067333336
0.016920695 0.00127 -0.019215556
-0.00049283577 0.00018142856 -0.00034222222
-0.0027927363 -0.00090714288 -0.0016666667
-0.011663781 -0.00018142856 -1.1111111e-05
0.0057497509 -0.00018142856 -0.0019977777
0.028420197 -0.00018142856 -0.019215556
0.019220596 -0.00018142856 -0.0053088889
0.026777411 -0.00018142856 -0.021864444
0.026777411 0.00054428569 -0.018553333
0.027105968 -0.00090714288 -0.0010044444
0.00082139298 -0.00090714288 -0.00034222222
-0.004435522 -0.00054428569 -0.0016666667
0.023163283 0.00090714288 -0.00067333336
0.022834726 0.00090714288 -0.0013355556
0.004435522 -0.00054428569 -0.00067333336
-0.025463182 -0.00018142856 -0.018884445
-0.030720098 -0.00090714288 -0.017891111
-0.011992338 -0.00127 -0.017891111
0.022506168 -0.00090714288 -0.018553333
0.018892039 -0.00054428569 -0.019546667
-0.022506168 0.00127 -0.00034222222
0.016592139 -0.00127 -0.019215556
0.015606467 0.00054428569 -0.0010044444
-0.028420197 -0.00090714288 -0.0016666667
0.020863382 0.00090714288 -0.018222222
-0.022177611 0.00018142856 -0.00067333336
-0.014620795 -0.00090714288 -0.019215556
-0.02579174 -0.00054428569 -0.0013355556
-0.018892039 0.00054428569 -0.0013355556
-0.01757781 0.00018142856 -0.0019977777
-0.01527791 0.00127 -0.002328889
-0.031705771 -0.00018142856 -0.0039844443
-0.023820397 -0.00090714288 -0.0019977777
-0.0021356218 -0.00054428569 -0.00034222222
0.016592139 0.00018142856 -0.002991111
0.032034326 -0.00018142856 0.0023066667
0.03039154 0.00054428569 -0.01756
0.024477512 -0.00054428569 -0.018553333
-0.014620795 0.00018142856 -0.017891111
-0.02940587 0.00018142856 -0.018553333
0.0090353228 -0.00018142856 -0.0063022221
0.029734427 0.00054428569 -0.018222222
-0.015606467 0.00090714288 -0.0019977777
0.026120298 0.00090714288 -0.019215556
0.012320895 -0.00090714288 -0.00034222222
0.02940587 0.00018142856 -0.0053088889
0.023163283 -0.00054428569 -0.019215556
-0.0077210939 -0.00018142856 -0.0019977777
-0.008049651 0.00018142856 -0.002328889
0.026448855 0.00018142856 -0.025506666
-0.027434526 0.00054428569 -0.018884445
0.006078308 -0.00018142856 -0.021533333
-0.0050926367 -0.00054428569 -0.0010044444
0.031048656 0.00127 -0.0013355556
0.030720098 -0.00018142856 -0.002328889
-0.024477512 -0.00090714288 -0.0010044444
0.0011499502 0.00018142856 -0.017228888
0.029077312 -0.00018142856 -0.02352
-0.0064068655 0.00127 -0.00067333336
-0.0087067662 0.00018142856 -0.018222222
0.02119194 0.00018142856 -0.0019977777
-0.023163283 -0.00018142856 -0.01756
0.031705771 0.00018142856 -0.022195555
-0.013963681 -0.00018142856 -0.023188889
0.0064068655 -0.00018142856 -0.010606667
0.016592139 -0.00018142856 -0.017228888
0.013635124 -0.00054428569 -0.019546667
0.024148954 0.00018142856 -0.021202222
-0.028091641 0.00018142856 -0.002328889
-0.0057497509 0.00018142856 -0.002328889
0.015606467 -0.00127 -0.00067333336
0.0024641789 -0.00018142856 -0.018222222
-0.009692437 -0.00127 -0.019546667
0.030062983 0.00054428569 -0.018553333
-0.020863382 0.00090714288 -0.018884445
-0.0027927363 0.00018142856 -0.0013355556
0.021849053 0.00054428569 -0.0010044444
-0.008049651 0.00127 -0.018884445
-0.028748754 -0.00127 -0.018884445
-0.0037784078 0.00018142856 -0.02020889
0.0031212934 0.00054428569 -0.019546667
-0.012649452 -0.00090714288 -0.018884445
0.011335223 -0.00090714288 -1.1111111e-05
-0.025134625 0.00054428569 -0.00067333336
-0.019220596 -0.00018142856 -0.023851112
0.013306567 0.00054428569 -0.00034222222
-0.02119194 0.00090714288 -0.018884445
-0.024806069 -0.00054428569 -0.00067333336
0.0011499502 0.00018142856 -0.01756
-0.004435522 0.00127 -0.0013355556
-0.0037784078 -0.00018142856 -0.0043155556
0.013963681 -0.00018142856 -0.01756
-0.0047640796 -0.00054428569 -0.0016666667
-0.0087067662 0.00018142856 -0.00067333336
-0.008049651 -0.00054428569 -0.01756
-0.019220596 -0.00127 -0.018222222
0.006078308 -0.00090714288 -0.0016666667
-0.012978009 -0.00127 -0.0016666667
-0.010678109 0.00018142856 -0.01756
-0.024806069 0.00018142856 -0.00067333336
-0.021520497 -0.00018142856 -0.0016666667
0.013635124 -0.00127 -0.00034222222
-0.027763084 0.00127 -0.0016666667
0.031705771 -0.00018142856 -0.022526667
0.01757781 0.00018142856 -0.0013355556
0.010678109 0.00018142856 -0.00034222222
-0.008049651 -0.00018142856 -0.0013355556
-0.015606467 -0.00127 -0.002328889
-0.024148954 0.00127 -0.018553333
-0.0090353228 0.00018142856 0.0013133333
0.013306567 -0.00090714288 -0.00034222222
0.028091641 -0.00127 -0.019546667
0.015935024 -0.00090714288 -0.00034222222
-0.012978009 0.00018142856 -0.018884445
0.020863382 -0.00054428569 -0.0016666667
0.027434526 -0.00054428569 -0.00034222222
-0.025134625 -0.00127 -0.00067333336
0.020863382 -0.00090714288 -0.00067333336
0.014620795 -0.00018142856 -0.018222222
0.004435522 0.00054428569 -0.019546667
-0.012978009 -0.00127 -1.1111111e-05
0.011006666 0.00127 -0.00034222222
0.021849053 0.00127 -0.018553333
-0.012649452 0.00090714288 -0.00034222222
0.015935024 -0.00090714288 -0.0010044444
-0.027105968 0.00018142856 -0.0019977777
0.0021356218 -0.00054428569 -0.017891111
-0.0034498505 -0.00127 -1.1111111e-05
0.012649452 -0.00090714288 -0.0010044444
0.013963681 -0.00018142856 -0.0053088889
-0.011663781 -0.00018142856 -0.013917778
0.03039154 -0.00127 -0.0013355556
-0.014292238 -0.00018142856 -0.016566666
-0.004435522 -0.00127 -0.019546667
-0.0014785074 0.00090714288 -0.019215556
-0.031705771 -0.00018142856 -0.0096133333
0.0047640796 0.00018142856 -0.002328889
0.021849053 -0.00018142856 -0.00034222222
-0.011992338 0.00018142856 -0.01756
-0.0034498505 -0.00090714288 -0.0016666667
-0.020206267 0.00127 -0.00034222222
-0.0018070646 0.00127 -1.1111111e-05
-0.012320895 -0.00127 -0.0019977777
0.0024641789 0.00054428569 -0.002328889
-0.025463182 0.00018142856 -0.019215556
0.03039154 -0.00054428569 -0.01756
0.021520497 -0.00018142856 -0.0069644446
0.0087067662 -0.00018142856 -0.024844445
-0.021849053 0.00018142856 -0.018553333
-0.011663781 0.00054428569 -0.018222222
0.0037784078 -0.00018142856 -0.023188889
0.0090353228 -0.00127 -0.017891111
0.021849053 -0.00090714288 -0.00067333336
0.0090353228 0.00018142856 -0.016897777
-0.0041069649 0.00018142856 -0.019546667
-0.023820397 -0.00127 -0.0016666667
-0.014292238 -0.00127 -0.019215556
-0.01757781 0.00090714288 -0.0019977777
-0.0083782086 -0.00127 -0.0016666667
0.0083782086 -0.00090714288 -0.0016666667
-0.03039154 0.00054428569 -0.019546667
-0.030062983 -0.00090714288 -0.0016666667
-0.024477512 -0.00018142856 -0.00067333336
-0.0087067662 -0.00018142856 -0.0069644446
-0.021520497 0.00018142856 -0.021202222
-0.0054211938 -0.00127 -0.0013355556
0.004435522 0.00054428569 -0.0019977777
-0.016592139 -0.00127 -0.018222222
-0.023491839 -0.00090714288 -0.018884445
0.026448855 -0.00127 -0.018222222
-0.004435522 -0.00090714288 -0.00034222222
0.0070639797 0.00127 -0.0019977777
-0.015606467 -0.00054428569 -0.019546667
-0.016920695 0.00127 -0.0013355556
0.02579174 0.00127 -0.017891111
0.004435522 -0.00054428569 -0.017891111
0.032691441 -0.00018142856 -0.018553333
0.013306567 0.00054428569 -0.018553333
-0.021520497 0.00018142856 0.00065111113
-0.00049283577 -0.00018142856 -0.018222222
0.006078308 0.00090714288 -0.019546667
0.018892039 -0.00090714288 -0.019215556
0.030062983 -0.00127 -0.0010044444
-0.0090353228 -0.00018142856 -0.014911111
0.027434526 0.00018142856 -0.018884445
-0.02940587 -0.00018142856 -0.023851112
0.02119194 0.00127 -0.018222222
-0.015935024 0.00127 -0.018222222
-0.019220596 0.00018142856 -0.025175555
-0.0034498505 -0.00018142856 -0.019546667
-0.0090353228 -0.00018142856 -0.022526667
0.0034498505 0.00127 -0.002328889
-0.0090353228 -0.00127 -0.00034222222
-0.015935024 0.00090714288 -0.00067333336
0.0077210939 -0.00127 -0.002328889
0.0083782086 0.00127 -0.00034222222
0.006078308 -0.00018142856 -0.00067333336
-0.009692437 -0.00127 -0.00034222222
-0.010678109 -0.00054428569 -0.002328889
-0.018892039 -0.00018142856 -0.020540001
-0.0027927363 0.00127 -0.0013355556
0.032691441 0.00090714288 -0.01756
0.015935024 -0.00090714288 -0.019215556
0.027105968 0.00054428569 -0.01756
0.024148954 0.00018142856 -0.0096133333
0.014292238 -0.00127 -0.019215556
0.016263582 0.00018142856 -0.015904445
-0.016920695 -0.00054428569 -0.019215556
-0.022506168 -0.00018142856 -0.002328889
0.030062983 0.00018142856 -0.019546667
-0.025463182 -0.00090714288 -0.018222222
-0.00082139298 -0.00018142856 -0.017228888
-0.0014785074 0.00090714288 -0.00034222222
-0.008049651 -0.00127 -1.1111111e-05
-0.0041069649 -0.00054428569 -0.0010044444
-0.018892039 -0.00127 -1.1111111e-05
-0.032362882 -0.00018142856 -0.018884445
-0.022834726 0.00090714288 -0.0010044444
0.017906368 -0.00090714288 -0.018553333
-0.0073925368 -0.00054428569 -0.0013355556
0.025134625 -0.00090714288 -0.00067333336
-0.0031212934 0.00018142856 -0.00067333336
-0.019877711 -0.00018142856 -0.002328889
0.029734427 -0.00127 -0.0010044444
0.011335223 -0.00090714288 -0.00034222222
0.024806069 -0.00054428569 -0.002328889
-0.00016427859 0.00127 -0.017891111
0.018892039 0.00090714288 -0.002328889
0.029077312 0.00090714288 -0.017891111
0.016263582 0.00018142856 -0.016566666
0.032034326 0.00018142856 -0.010937777
0.027763084 -0.00018142856 -0.0010044444
0.032362882 0.00054428569 -0.0013355556
-0.02940587 -0.00018142856 -0.0039844443
-0.032034326 -0.00018142856 -0.021533333
-0.032691441 0.00090714288 -0.01756
0.0041069649 -0.00018142856 -0.016566666
0.0024641789 -0.00054428569 -0.00067333336
-0.026777411 -0.00090714288 -0.019215556
0.0093638804 0.00054428569 -0.0013355556
-0.011992338 -0.00127 -1.1111111e-05
0.02940587 -0.00018142856 0.0013133333
0.025463182 0.00090714288 -0.00067333336
0.01527791 -0.00018142856 -0.019546667
-0.026777411 0.00018142856 -0.025837777
0.011663781 -0.00018142856 0.0013133333
0.01527791 0.00090714288 -0.018884445
-0.010678109 -0.00127 -0.0016666667
0.0014785074 0.00018142856 -0.018553333
0.02940587 0.00090714288 -0.0010044444
0.014949352 -0.00090714288 -0.002328889
0.020863382 -0.00090714288 -0.002328889
0.0087067662 0.00018142856 -0.0019977777
-0.013963681 0.00018142856 -0.019877778
0.013963681 0.00018142856 -0.021864444
0.011006666 0.00090714288 -0.019215556
-0.02940587 -0.00018142856 -0.019877778
0.009692437 0.00054428569 -0.018222222
-0.020534825 -0.00127 -0.0019977777
-0.026777411 0.00018142856 -0.0086200004
-0.025134625 0.00054428569 -0.0019977777
-0.0064068655 -0.00018142856 0.0013133333
0.027763084 -0.00018142856 -0.0013355556
-0.015606467 0.00127 -0.00034222222
-0.013963681 -0.00018142856 -0.025506666
0.0077210939 0.00054428569 -0.00067333336
-0.006078308 0.00018142856 -0.021864444
0.023163283 -0.00018142856 -0.017891111
-0.0064068655 0.00018142856 -0.012924445
0.006078308 -0.00018142856 -0.024513334
0.009692437 -0.00090714288 -0.0013355556
-0.029734427 0.00018142856 -0.018553333
-0.03039154 0.00018142856 -0.019215556
0.029077312 0.00090714288 -0.018884445
-0.0021356218 0.00127 -0.00034222222
0.030062983 0.00127 -0.00067333336
-0.0090353228 -0.00018142856 -0.019546667
0.020206267 0.00054428569 -0.00034222222
0.0014785074 -0.00054428569 -0.018553333
0.00016427859 -0.00054428569 -0.00034222222
-0.0087067662 0.00090714288 -0.00034222222
0.011006666 -0.00127 -0.018222222
0.0024641789 -0.00054428569 -0.0013355556
0.023491839 -0.00054428569 -0.00067333336
0.0087067662 -0.00018142856 -0.0086200004
-0.018563481 -0.00054428569 -0.019215556
0.026120298 -0.00090714288 -0.002328889
0.013963681 0.00018142856 -0.013586666
0.016263582 -0.00018142856 -0.018222222
0.015935024 -0.00127 -0.019546667
0.011335223 0.00018142856 -0.021202222
-0.021520497 -0.00018142856 0.0016444444
0.021849053 -0.00018142856 -0.023851112
0.013963681 -0.00018142856 -0.015904445
-0.0027927363 -0.00054428569 -0.0010044444
-0.0037784078 -0.00018142856 -0.0063022221
-0.0093638804 0.00127 -0.0010044444
-0.023820397 0.00054428569 -0.0013355556
-0.018892039 -0.00054428569 -0.018553333
-0.0037784078 -0.00090714288 -1.1111111e-05
-0.016592139 -0.00018142856 -0.00034222222
-0.0073925368 0.00054428569 -0.00067333336
-0.011335223 0.00090714288 -0.018884445
0.0047640796 -0.00090714288 -0.00034222222
0.022834726 0.00018142856 -0.002328889
-0.027105968 -0.00018142856 -0.0013355556
-0.0014785074 0.00018142856 -0.025506666
0.020206267 -0.00127 -0.0013355556
-0.027434526 -0.00127 -0.0010044444
0.0064068655 0.00127 -0.019215556
-0.02579174 0.00054428569 -0.00034222222
0.020863382 -0.00018142856 -0.018222222
-0.026448855 -0.00018142856 -0.020540001
0.027763084 -0.00054428569 -0.019215556
0.022177611 -0.00090714288 -0.017891111
-0.019877711 -0.00127 -0.00067333336
-0.0014785074 -0.00127 -0.01756
0.022177611 -0.00127 -0.019215556
0.0034498505 0.00090714288 -0.019546667
0.010678109 0.00090714288 -1.1111111e-05
0.016920695 -0.00018142856 -0.002328889
-0.0054211938 0.00018142856 -0.018222222
-0.032691441 -0.00018142856 -0.018884445
0.0067354226 0.00090714288 -0.00067333336
0.00016427859 -0.00127 -0.002328889
0.025134625 0.00018142856 -0.0016666667
-0.011663781 -0.00018142856 -0.0086200004
-0.016920695 -0.00054428569 -0.018884445
0.013635124 0.00054428569 -0.0013355556
0.0014785074 -0.00127 -0.00034222222
-0.0050926367 0.00018142856 -0.018553333
-0.019220596 -0.00127 -0.018884445
0.025134625 -0.00054428569 -0.0016666667
-0.029077312 0.00018142856 0.0019755557
-0.029077312 -0.00018142856 -0.013586666
-0.00082139298 0.00127 -0.019215556
0.018892039 0.00018142856 -0.015242222
0.016592139 -0.00018142856 -0.022857778
0.0077210939 0.00018142856 -0.0013355556
0.011992338 -0.00054428569 -0.0019977777
-0.0087067662 -0.00018142856 -0.018222222
0.0054211938 -0.00018142856 -0.0019977777
-0.011992338 -0.00054428569 -0.019546667
-0.0047640796 -0.00018142856 -0.002328889
-0.030720098 -0.00018142856 -0.019215556
0.03039154 -0.00127 -0.0010044444
0.021849053 -0.00090714288 -0.0010044444
-0.021520497 0.00018142856 -0.014911111
-0.021520497 -0.00018142856 -0.0056400001
0.024148954 -0.00018142856 -0.0016666667
0.025134625 -0.00127 -0.018884445
0.016263582 0.00018142856 -0.0033222223
0.00049283577 -0.00054428569 -0.002328889
0.02119194 0.00054428569 -0.0010044444
0.031377211 0.00127 -0.018884445
0.027434526 0.00090714288 -1.1111111e-05
-0.029077312 0.00018142856 -0.02352
-0.016592139 0.00018142856 -0.0043155556
0.00082139298 -0.00090714288 -0.0019977777
0.0011499502 -0.00018142856 -0.024513334
0.0073925368 -0.00018142856 -0.0010044444
0.0014785074 -0.00090714288 -1.1111111e-05
-0.025463182 0.00018142856 -0.019546667
-0.010020995 0.00018142856 -0.0019977777
-0.026120298 -0.00054428569 -0.0010044444
-0.01757781 -0.00127 -0.002328889
-0.0021356218 0.00018142856 -0.019215556
-0.029077312 -0.00127 -1.1111111e-05
-0.017906368 -0.00090714288 -0.0019977777
0.016263582 0.00127 -0.0016666667
-0.030062983 0.00054428569 -0.019215556
0.024806069 0.00054428569 -0.00067333336
0.0090353228 -0.00018142856 -0.0019977777
0.032034326 -0.00018142856 -0.0013355556
0.03039154 -0.00090714288 -0.018884445
-0.018234925 0.00054428569 -0.0019977777
0.016592139 0.00018142856 0.00098222226
0.024806069 -0.00127 -0.0019977777
0.016592139 0.00018142856 -0.018222222
-0.023820397 -0.00054428569 -0.002328889
-0.0090353228 0.00018142856 -0.0056400001
-0.0011499502 0.00018142856 -0.0076266667
0.011992338 0.00054428569 -0.019215556
0.027763084 0.00018142856 -0.019215556
0.0034498505 -0.00054428569 -0.00067333336
0.0087067662 -0.00018142856 -0.010606667
0.026777411 -0.00018142856 -0.0086200004
-0.030062983 -0.00127 -0.00034222222
0.010349552 -0.00018142856 -0.00034222222
0.025134625 -0.00054428569 -0.0013355556
-0.028091641 -0.00090714288 -0.0019977777
-0.030062983 0.00018142856 -0.017891111
-0.01527791 0.00054428569 -0.018553333
-0.028091641 0.00054428569 -0.00067333336
-0.020863382 0.00018142856 -0.00034222222
-0.0054211938 -0.00054428569 -0.0016666667
0.0037784078 0.00090714288 -0.002328889
-0.032691441 -0.00018142856 -0.018222222
0.0064068655 -0.00018142856 -0.0096133333
-0.010678109 0.00054428569 -0.0010044444
-0.030062983 0.00018142856 -0.00067333336
-0.01757781 0.00127 -0.018222222
0.025134625 0.00090714288 -0.018553333
0.032362882 0.00054428569 -0.019215556
0.011006666 -0.00090714288 -0.019546667
0.013963681 0.00018142856 -0.016235556
0.02940587 -0.00127 -0.0016666667
-0.0087067662 -0.00018142856 -0.013255555
0.0011499502 0.00018142856 -0.0043155556
-0.010020995 -0.00018142856 -0.0013355556
0.027763084 0.00018142856 -0.018553333
0.021520497 0.00018142856 -0.0043155556
0.0077210939 0.00054428569 -0.018222222
-0.00049283577 -0.00090714288 -0.00034222222
0.012649452 0.00090714288 -0.018884445
-0.015606467 0.00054428569 -0.00067333336
-0.025463182 -0.00054428569 -0.0010044444
-0.0031212934 -0.00127 -0.002328889
0.013963681 0.00018142856 -0.023188889
-0.0090353228 0.00054428569 -0.017891111
-0.019549154 0.00090714288 -0.0013355556
0.019549154 -0.00090714288 -0.0019977777
0.010020995 -0.00018142856 -0.018884445
-0.006078308 0.00018142856 -0.010937777
0.0037784078 0.00018142856 -0.002328889
0.0014785074 0.00018142856 -0.0036533333
-0.010678109 0.00127 -0.002328889
0.0037784078 -0.00127 -0.01756
0.031048656 -0.00090714288 -0.0019977777
-0.0011499502 0.00018142856 -0.0043155556
0.027105968 0.00054428569 -0.002328889
0.019220596 -0.00018142856 0.00031999999
-0.011335223 0.00127 -0.00067333336
0.008049651 0.00018142856 -0.002328889
0.030062983 0.00018142856 -0.018222222
-0.009692437 0.00090714288 -0.002328889
-0.02119194 0.00090714288 -0.0010044444
0.013306567 -0.00127 -0.00034222222
0.022834726 -0.00054428569 -0.00034222222
-0.019877711 0.00127 -0.019215556
-0.00082139298 -0.00018142856 -0.018553333
0.0087067662 -0.00127 -1.1111111e-05
0.028748754 0.00090714288 -0.019215556
0.011663781 0.00018142856 -0.0063022221
0.017249253 0.00018142856 -0.019546667
0.027763084 -0.00018142856 -0.019546667
-0.013963681 0.00090714288 -1.1111111e-05
0.02579174 -0.00127 -0.018553333
0.028091641 -0.00090714288 -0.019215556
-0.0070639797 -0.00090714288 -0.0013355556
0.012978009 -0.00090714288 -0.019215556
-0.022834726 0.00018142856 -0.002328889
-0.0011499502 -0.00018142856 -0.010937777
0.021520497 -0.00018142856 -0.015904445
0.031705771 -0.00018142856 -0.014248889
0.006078308 0.00018142856 -0.023851112
-0.018892039 0.00127 -0.0013355556
-0.0064068655 -0.00018142856 -0.022857778
-0.013635124 0.00018142856 -0.017891111
-0.00016427859 -0.00054428569 -0.018553333
0.0027927363 -0.00018142856 -0.0016666667
0.02940587 -0.00127 -0.017891111
0.0073925368 0.00054428569 -0.017891111
0.0011499502 -0.00018142856 -0.009282222
0.024477512 0.00127 -0.018222222
0.019220596 0.00018142856 -0.0059711109
-0.02940587 -0.00018142856 -0.024844445
0.01527791 -0.00127 -0.00034222222
0.032034326 0.00018142856 -0.010275556
-0.009692437 -0.00018142856 -0.018884445
0.0050926367 -0.00054428569 -0.019546667
-0.0077210939 -0.00090714288 -1.1111111e-05
-0.024148954 -0.00018142856 -1.1111111e-05
0.0011499502 0.00018142856 0.00065111113
-0.022506168 0.00018142856 -0.0016666667
-0.031048656 -0.00090714288 -0.019215556
-0.022834726 -0.00127 -0.018553333
0.021520497 0.00018142856 -0.0082888892
-0.020863382 0.00090714288 -1.1111111e-05
0.014292238 -0.00054428569 -0.0010044444
-0.0011499502 0.00054428569 -0.002328889
-0.030720098 0.00018142856 -0.0016666667
-0.028091641 -0.00090714288 -0.019546667
0.0087067662 -0.00018142856 -0.01756
0.006078308 -0.00018142856 -0.0096133333
0.032034326 0.00018142856 -0.018553333
0.011992338 -0.00054428569 -0.017891111
-0.028748754 0.00018142856 -0.017891111
-0.025463182 0.00127 -0.0016666667
0.016592139 0.00018142856 -0.0096133333
0.02119194 0.00090714288 -0.00034222222
-0.033019997 -0.00018142856 -0.002328889
-0.021520497 -0.00090714288 -0.0010044444
0.022834726 -0.00018142856 -0.019215556
0.03039154 -0.00090714288 -0.019546667
0.027105968 -0.00018142856 -0.018553333
0.019220596 0.00018142856 -0.015242222
0.031048656 -0.00054428569 -0.0016666667
0.013306567 0.00054428569 -0.0019977777
-0.020534825 0.00018142856 -0.018222222
-0.02940587 0.00018142856 -0.018222222
0.030720098 -0.00090714288 -0.00034222222
-0.01527791 -0.00090714288 -0.019215556
0.0041069649 -0.00018142856 -0.019215556
-0.021849053 -0.00127 -0.019546667
0.03039154 -0.00090714288 -0.00034222222
0.02579174 0.00054428569 -0.0019977777
-0.0054211938 -0.00090714288 -0.0013355556
-0.00049283577 -0.00127 -0.01756
-0.0041069649 -0.00127 -0.0019977777
-0.010349552 -0.00054428569 -0.019546667
0.008049651 0.00090714288 -0.0019977777
0.032034326 -0.00090714288 -0.002328889
0.019220596 0.00090714288 -0.018884445
0.016920695 0.00090714288 -0.018222222
0.031705771 -0.00018142856 -0.018884445
-0.024806069 -0.00054428569 -0.0016666667
0.016263582 -0.00054428569 -0.0016666667
0.028748754 -0.00018142856 -0.0013355556
-0.030720098 0.00127 -0.00067333336
0.013635124 0.00090714288 -0.00034222222
-0.024477512 0.00090714288 -0.018553333
-0.023491839 0.00054428569 -0.019215556
-0.021849053 -0.00018142856 -0.0013355556
0.0034498505 -0.00018142856 -0.0016666667
0.029077312 0.00054428569 -0.0010044444
-0.020534825 -0.00054428569 -0.00067333336
0.018892039 0.00018142856 -0.019877778
-0.021520497 0.00090714288 -0.018553333
-0.024148954 -0.00127 -0.0010044444
0.021849053 0.00018142856 -0.00266
0.02940587 0.00018142856 -0.02352
-0.0090353228 0.00090714288 -0.00067333336
-0.016920695 0.00054428569 -0.0010044444
0.023491839 -0.00018142856 -0.019215556
-0.020206267 -0.00018142856 -0.002328889
-0.004435522 -0.00018142856 -0.0016666667
0.011006666 -0.00018142856 -1.1111111e-05
0.027763084 -0.00090714288 -0.0019977777
0.011663781 0.00018142856 -0.015242222
0.015606467 -0.00127 -1.1111111e-05
-0.008049651 -0.00018142856 -0.017891111
0.024477512 0.00054428569 -0.01756
0.0077210939 0.00018142856 -0.019215556
0.0031212934 0.00127 -1.1111111e-05
0.0037784078 0.00127 -0.0016666667
0.016920695 0.00018142856 -0.019215556
-0.032034326 -0.00018142856 -0.019877778
0.019549154 -0.00054428569 -0.018884445
-0.018563481 0.00090714288 -0.00067333336
0.010349552 -0.00090714288 -0.0013355556
0.0034498505 -0.00018142856 -0.019546667
0.011663781 -0.00018142856 -0.0079577779
-0.019549154 -0.00018142856 -0.002328889
-0.011992338 -0.00090714288 -0.018884445
0.011006666 0.00018142856 -0.0019977777
-0.0014785074 0.00018142856 -0.024513334
0.026120298 -0.00018142856 -0.019215556
0.017906368 -0.00127 -0.0010044444
0.012649452 0.00018142856 -0.0016666667
0.021849053 0.00054428569 -0.018222222
-0.00016427859 0.00018142856 -0.0019977777
-0.0047640796 0.00090714288 -0.0010044444
0.006078308 0.00018142856 -0.021864444
0.02119194 0.00018142856 -1.1111111e-05
-0.0057497509 -0.00018142856 -0.017891111
0.017249253 0.00018142856 -1.1111111e-05
0.016920695 -0.00127 -0.018553333
-0.0014785074 -0.00018142856 -0.018553333
-0.026448855 -0.00054428569 -0.0010044444
0.017249253 0.00018142856 -0.002328889
0.02579174 0.00018142856 -0.0016666667
0.0037784078 -0.00018142856 -0.0069644446
0.0027927363 -0.00090714288 -0.002328889
-0.026777411 -0.00018142856 -0.002991111
0.026777411 0.00018142856 -0.013255555
-0.013963681 0.00018142856 -0.0013355556
-0.0014785074 -0.00018142856 -0.012924445
0.020863382 -0.00018142856 -0.0013355556
-0.011663781 -0.00018142856 -0.010275556
0.020206267 -0.00054428569 -0.002328889
0.019877711 -0.00054428569 -0.018884445
-0.0027927363 0.00127 -0.0019977777
-0.018892039 -0.00018142856 -0.0089511108
0.0067354226 0.00127 -0.0010044444
0.011992338 0.00127 -0.019546667
0.0024641789 0.00018142856 -0.018553333
-0.0021356218 -0.00018142856 -0.018222222
0.011663781 0.00127 -0.0013355556
-0.021520497 -0.00018142856 -0.0116
-0.016592139 -0.00018142856 0.0023066667
-0.008049651 0.00127 -0.019215556
0.017249253 0.00090714288 -0.0016666667
-0.029734427 0.00127 -0.00034222222
0.032034326 -0.00018142856 -0.019546667
0.02940587 0.00018142856 -0.0099444445
-0.016263582 -0.00127 -0.018553333
-0.024806069 -0.00127 -0.002328889
-0.011663781 -0.00018142856 -0.0046466668
-0.024148954 0.00018142856 -0.0043155556
0.0014785074 -0.00018142856 -0.019215556
-0.030720098 0.00054428569 -0.0019977777
-0.02940587 0.00054428569 -0.018884445
0.012320895 0.00090714288 -0.00034222222
0.017906368 -0.00018142856 -0.01756
-0.026120298 0.00018142856 -0.019215556
-0.0041069649 -0.00018142856 -0.018884445
0.030062983 -0.00054428569 -0.018222222
-0.026777411 0.00018142856 -0.0076266667
-0.0083782086 0.00054428569 -0.00067333336
0.021849053 0.00018142856 -0.0016666667
0.013635124 0.00054428569 -0.0010044444
-0.031048656 -0.00090714288 -0.00034222222
0.0083782086 -0.00054428569 -0.00067333336
0.014949352 0.00018142856 -0.0019977777
-0.031377211 0.00090714288 -1.1111111e-05
0.0031212934 -0.00054428569 -0.00034222222
-0.014620795 -0.00127 -0.018553333
0.023491839 -0.00127 -0.0013355556
-0.014292238 0.00090714288 -0.00034222222
-0.029077312 -0.00054428569 -0.0010044444
0.0057497509 -0.00018142856 -0.002328889
-0.006078308 -0.00018142856 0.0026377777
0.006078308 0.00018142856 -0.024513334
0.028420197 -0.00127 -0.018884445
-0.0047640796 0.00054428569 -0.019546667
-0.020206267 -0.00090714288 -0.019546667
0.031705771 -0.00018142856 -0.0076266667
0.0024641789 -0.00054428569 -0.0019977777
-0.018892039 -0.00090714288 -0.019546667
-0.018563481 -0.00054428569 -0.018884445
-0.011663781 -0.00054428569 -0.019546667
0.006078308 -0.00090714288 -0.019215556
-0.01527791 0.00127 -0.018884445
-0.0064068655 0.00018142856 0.0013133333
0.025134625 -0.00090714288 -0.0016666667
0.026120298 0.00090714288 -1.1111111e-05
0.011992338 -0.00127 -0.002328889
0.0027927363 0.00018142856 -0.0019977777
-0.00049283577 0.00090714288 -0.019546667
0.014620795 -0.00054428569 -0.01756
0.026120298 -0.00127 -0.00067333336
0.031705771 -0.00054428569 -0.0016666667
0.0093638804 -0.00018142856 -0.01756
-0.031377211 -0.00054428569 -0.018884445
-0.0011499502 0.00018142856 -0.013917778
0.03039154 0.00018142856 -0.0013355556
-0.028091641 -0.00054428569 -0.002328889
-0.0024641789 -0.00127 -0.019546667
0.011006666 0.00018142856 -0.0016666667
0.032034326 0.00018142856 -0.0053088889
0.014620795 0.00127 -0.002328889
0.025463182 0.00090714288 -1.1111111e-05
0.011335223 0.00018142856 -0.02020889
0.014949352 0.00018142856 -1.1111111e-05
0.030720098 0.00090714288 -0.017891111
-0.00016427859 0.00054428569 -0.017891111
0.011663781 -0.00127 -0.00034222222
0.024148954 -0.00018142856 -0.024513334
0.026777411 -0.00018142856 -0.0082888892
0.011663781 0.00018142856 -0.022857778
-0.012649452 0.00054428569 -0.0013355556
-0.0087067662 -0.00018142856 -0.023851112
0.024806069 0.00018142856 -0.0013355556
0.018892039 -0.00018142856 -0.0043155556
-0.014292238 -0.00018142856 -0.017891111
-0.019220596 -0.00090714288 -0.019546667
0.019220596 -0.00018142856 -0.013917778
0.027434526 0.00018142856 -0.0013355556
-0.014620795 0.00054428569 -0.018884445
0.030062983 0.00090714288 -0.0013355556
0.015606467 0.00054428569 -0.019215556
-0.020534825 0.00054428569 -0.00034222222
0.023491839 -0.00127 -1.1111111e-05
0.018234925 0.00054428569 -0.019215556
0.009692437 -0.00090714288 -0.019215556
-0.010349552 -0.00090714288 -0.0010044444
-0.0011499502 0.00090714288 -0.002328889
-0.0054211938 -0.00018142856 -0.0013355556
-0.024148954 0.00018142856 -0.018222222
-0.02940587 0.00018142856 -0.0010044444
-0.02940587 0.00018142856 -0.016566666
-0.031377211 0.00054428569 -0.017891111
0.022834726 -0.00054428569 -0.018222222
0.018234925 0.00127 -0.018553333
-0.026448855 0.00018142856 -0.023851112
0.021520497 -0.00127 -0.018222222
0.009692437 0.00127 -1.1111111e-05
-0.018892039 -0.00127 -0.00067333336
-0.0090353228 -0.00018142856 -0.0049777776
0.029077312 0.00054428569 -0.00067333336
0.024477512 -0.00018142856 -0.002328889
0.0014785074 -0.00054428569 -0.017891111
-0.031377211 -0.00054428569 -0.018222222
-0.019549154 0.00018142856 -0.017891111
0.016263582 -0.00018142856 -0.015242222
0.021520497 0.00018142856 -0.0016666667
0.028420197 0.00090714288 -0.01756
-0.028748754 -0.00054428569 -0.0010044444
-0.014620795 0.00018142856 -0.0013355556
-0.012320895 0.00127 -0.019546667
-0.026777411 -0.00018142856 -0.02020889
0.02940587 0.00090714288 -0.018222222
-0.0090353228 -0.00090714288 -0.0019977777
-0.0087067662 -0.00018142856 -0.017891111
0.014620795 -0.00054428569 -0.018884445
-0.018892039 -0.00090714288 -0.018884445
0.029077312 -0.00018142856 -0.010275556
0.006078308 0.00018142856 -0.016566666
-0.0064068655 0.00018142856 -0.0072955554
-0.023163283 -0.00054428569 -0.0016666667
0.0054211938 -0.00127 -0.01756
-0.024148954 0.00090714288 -0.018222222
-0.0034498505 0.00018142856 -0.0013355556
0.028748754 -0.00090714288 -0.0010044444
-0.017906368 0.00018142856 -0.0019977777
0.031377211 0.00127 -0.0010044444
-0.020534825 -0.00018142856 -0.019215556
0.02940587 0.00018142856 -0.0039844443
0.030062983 0.00090714288 -0.019215556
-0.006078308 -0.00054428569 -0.0019977777
-0.024148954 -0.00127 -0.019546667
-0.013963681 0.00090714288 -0.0016666667
-0.012320895 0.00090714288 -0.018553333
0.0047640796 -0.00054428569 -0.0010044444
-0.014620795 0.00018142856 -0.0016666667
0.032362882 -0.00054428569 -0.0010044444
0.029077312 -0.00018142856 -0.02020889
-0.0024641789 -0.00054428569 -0.0016666667
-0.026120298 0.00054428569 -0.00034222222
0.01757781 -0.00127 -0.018222222
0.019220596 0.00090714288 -0.018222222
-0.0018070646 0.00018142856 -0.002328889
0.025463182 -0.00054428569 -0.018553333
0.029734427 -0.00054428569 -0.01756
-0.028420197 0.00018142856 -0.01756
-0.0050926367 -0.00018142856 -1.1111111e-05
-0.009692437 -0.00127 -0.0016666667
0.019877711 -0.00127 -0.00034222222
-0.015935024 0.00018142856 -0.0016666667
0.0024641789 0.00018142856 -1.1111111e-05
-0.018892039 0.00018142856 -0.00266
0.031048656 -0.00018142856 -0.002328889
-0.016263582 0.00018142856 -0.0019977777
-0.026448855 -0.00127 -0.019215556
-0.016592139 -0.00018142856 -0.024844445
-0.012978009 -0.00018142856 -0.018222222
-0.032362882 0.00090714288 -0.0019977777
-0.026448855 -0.00018142856 -0.025506666
-0.020534825 -0.00054428569 -0.018553333
-0.02940587 -0.00018142856 -0.0016666667
0.015935024 -0.00054428569 -0.019215556
-0.019877711 -0.00018142856 -0.019215556
-0.023491839 0.00127 -0.0010044444
-0.0034498505 -0.00018142856 -0.018553333
-0.0083782086 -0.00054428569 -0.019215556
-0.030720098 -0.00018142856 -0.00034222222
0.015606467 -0.00018142856 -0.018222222
-0.0064068655 -0.00018142856 -0.016897777
0.028091641 -0.00090714288 -0.018884445
0.01757781 -0.00018142856 -0.018222222
0.0087067662 0.00018142856 -0.0099444445
-0.013963681 0.00090714288 -0.0019977777
-0.030720098 -0.00018142856 -1.1111111e-05
-0.0087067662 -0.00018142856 -0.009282222
-0.0027927363 -0.00090714288 -0.00067333336
0.013306567 -0.00054428569 -0.017891111
0.028091641 0.00054428569 -0.018553333
-0.024148954 0.00090714288 -0.002328889
-0.013963681 0.00018142856 0.0013133333
0.0064068655 0.00018142856 0.00031999999
0.021849053 -0.00127 -0.0010044444
-0.006078308 0.00018142856 -0.0076266667
-0.011663781 -0.00018142856 0.00098222226
-0.028091641 0.00090714288 -0.0019977777
-0.029077312 -0.00018142856 -0.016566666
-0.0057497509 -0.00127 -0.019546667
0.011663781 -0.00018142856 -0.024182223
0.020206267 0.00018142856 -0.019215556
0.028091641 0.00054428569 -0.00067333336
-0.021520497 0.00127 -0.019546667
-0.014949352 -0.00054428569 -0.0010044444
-0.013963681 -0.00018142856 0.002968889
-0.026448855 0.00018142856 -0.013255555
-0.010349552 -0.00018142856 -0.00067333336
0.0014785074 0.00127 -0.0013355556
-0.024148954 -0.00018142856 -0.015242222
0.0090353228 0.00090714288 -0.0010044444
0.019877711 0.00054428569 -0.018884445
0.0057497509 0.00018142856 -0.018222222
-0.024806069 0.00054428569 -0.00034222222
-0.0024641789 0.00090714288 -0.002328889
-0.0064068655 0.00018142856 -0.018553333
0.024148954 0.00090714288 -1.1111111e-05
0.026120298 0.00054428569 -0.00034222222
-0.026120298 0.00054428569 -0.00067333336
0.032691441 -0.00018142856 -0.018884445
-0.026777411 -0.00054428569 -0.018884445
-0.014620795 0.00054428569 -0.002328889
0.008049651 0.00054428569 -0.002328889
-0.025134625 0.00054428569 -0.002328889
0.031377211 0.00054428569 -0.017891111
-0.022177611 -0.00018142856 -0.00034222222
0.024806069 0.00054428569 -0.0010044444
-0.03039154 -0.00127 -0.0010044444
-0.0034498505 -0.00127 -0.0013355556
0.027105968 -0.00018142856 -0.002328889
0.023163283 -0.00090714288 -0.0016666667
-0.032034326 -0.00018142856 -0.013917778
-0.016592139 0.00018142856 -0.0096133333
0.025134625 0.00127 -0.017891111
-0.01757781 0.00054428569 -0.0019977777
0.008049651 0.00018142856 -0.018222222
-0.0050926367 -0.00090714288 -0.019215556
0.03039154 0.00054428569 -0.0016666667
-0.026777411 -0.00054428569 -0.0016666667
-0.019549154 -0.00127 -0.0016666667
-0.0027927363 -0.00018142856 -0.019215556
0.028748754 0.00127 -0.0016666667
-0.021520497 -0.00018142856 -0.0019977777
0.016592139 -0.00018142856 0.00098222226
0.028420197 -0.00018142856 -0.002328889
0.028091641 -0.00127 -0.018884445
0.0024641789 -0.00090714288 -0.019546667
0.012320895 -0.00090714288 -1.1111111e-05
0.016263582 0.00127 -0.00034222222
0.019220596 -0.00018142856 -0.018222222
0.012320895 -0.00090714288 -0.002328889
0.021849053 0.00090714288 -1.1111111e-05
0.010020995 0.00127 -0.018553333
-0.0024641789 -0.00127 -0.019215556
0.0037784078 0.00054428569 -0.0013355556
0.019549154 -0.00090714288 -0.018553333
0.02579174 -0.00090714288 -0.0010044444
0.019549154 -0.00127 -0.00034222222
0.01527791 -0.00127 -1.1111111e-05
0.006078308 -0.00054428569 -0.018553333
-0.028748754 0.00090714288 -1.1111111e-05
-0.024477512 -0.00090714288 -0.018553333
-0.0014785074 0.00018142856 -0.020540001
0.0041069649 -0.00018142856 -0.022526667
-0.00049283577 -0.00018142856 -0.019215556
0.023491839 0.00018142856 -0.002328889
-0.00016427859 -0.00054428569 -0.00034222222
0.021849053 -0.00018142856 -0.019215556
-0.020206267 0.00018142856 -0.01756
-0.022506168 -0.00090714288 -0.0010044444
-0.03039154 -0.00090714288 -0.002328889
-0.011663781 0.00018142856 -0.024182223
-0.021520497 -0.00054428569 -0.017891111
0.024148954 0.00127 -0.0013355556
-0.016592139 -0.00018142856 -0.0096133333
-0.0018070646 0.00090714288 -0.002328889
0.014949352 -0.00090714288 -0.0019977777
0.020206267 -0.00090714288 -0.0013355556
-0.0090353228 0.00018142856 -0.010937777
0.00016427859 0.00127 -0.017891111
0.019220596 -0.00054428569 -0.0016666667
0.020534825 0.00127 -1.1111111e-05
0.02940587 -0.00018142856 -0.012593334
-0.0064068655 0.00018142856 -0.015573333
0.020534825 0.00018142856 -0.018222222
-0.0031212934 -0.00127 -0.0013355556
0.023820397 -0.00018142856 -0.002328889
-0.031705771 0.00018142856 -0.0039844443
0.021849053 0.00090714288 -0.0019977777
0.0083782086 -0.00018142856 -0.01756
-0.016592139 0.00018142856 -0.0059711109
0.0087067662 -0.00018142856 -0.015242222
0.027105968 -0.00018142856 -0.018222222
0.013963681 0.00090714288 -0.002328889
0.011006666 -0.00054428569 -0.018553333
0.0011499502 -0.00018142856 0.0013133333
0.0021356218 0.00090714288 -0.0010044444
0.027434526 0.00054428569 -0.018553333
-0.011663781 -0.00018142856 -0.014911111
0.030720098 0.00018142856 -1.1111111e-05
-0.00016427859 -0.00018142856 -0.002328889
0.025463182 -0.00127 -0.017891111
-0.021520497 0.00018142856 -0.017891111
0.0011499502 -0.00018142856 -0.0099444445
0.0093638804 -0.00127 -0.019215556
-0.022834726 0.00090714288 -0.00034222222
0.02119194 -0.00054428569 -0.019215556
0.023163283 0.00054428569 -0.00034222222
-0.026120298 -0.00127 -0.01756
-0.0011499502 -0.00018142856 -0.010275556
0.010020995 0.00018142856 -1.1111111e-05
0.013963681 -0.00018142856 -0.017228888
-0.014949352 0.00054428569 -0.018222222
0.022506168 0.00054428569 -0.018553333
-0.019220596 0.00018142856 -0.0063022221
0.01527791 0.00018142856 -0.018553333
-0.01757781 0.00090714288 -0.002328889
-0.010020995 -0.00054428569 -0.018222222
0.0041069649 0.00018142856 -0.0019977777
0.023820397 0.00018142856 -1.1111111e-05
-0.0024641789 -0.00054428569 -0.0013355556
-0.0047640796 -0.00054428569 -0.00034222222
-0.019877711 0.00090714288 -0.0019977777
-0.016592139 -0.00018142856 -0.01756
0.006078308 0.00018142856 -0.022857778
0.02940587 -0.00018142856 -0.0099444445
0.01527791 -0.00090714288 -0.00067333336
-0.027434526 -0.00090714288 -0.0013355556
-0.017906368 -0.00018142856 -0.019215556
-0.025463182 0.00127 -0.019546667
-0.016592139 0.00018142856 -0.0069644446
0.026777411 -0.00018142856 -0.013917778
0.0054211938 -0.00018142856 -0.002328889
0.02119194 0.00054428569 -0.018222222
0.0034498505 0.00018142856 -0.01756
0.0083782086 -0.00127 -0.00067333336
0.01757781 -0.00090714288 -0.00067333336
-0.011335223 0.00018142856 -0.002991111
0.0037784078 -0.00054428569 -0.019546667
-0.021849053 0.00127 -1.1111111e-05
0.019877711 0.00054428569 -0.017891111
0.01757781 0.00090714288 -0.018553333
0.0050926367 0.00018142856 -0.018884445
0.0067354226 -0.00018142856 -0.0010044444
-0.026777411 -0.00018142856 -0.0079577779
-0.011663781 -0.00018142856 -0.023851112
-0.020206267 0.00018142856 -0.019546667
-0.024148954 -0.00018142856 -0.0036533333
0.016592139 -0.00018142856 -0.0082888892
-0.0041069649 -0.00018142856 -0.00067333336
-0.0027927363 0.00090714288 -0.019215556
-0.032034326 -0.00054428569 -0.01756
-0.0037784078 0.00127 -0.019546667
0.018892039 -0.00018142856 -0.012924445
0.016592139 0.00127 -0.019546667
-0.01527791 0.00018142856 -0.017891111
0.027434526 -0.00090714288 -0.018553333
0.0050926367 -0.00018142856 -0.0019977777
0.026448855 0.00018142856 0.0013133333
-0.0090353228 0.00018142856 -0.024513334
0.022506168 0.00127 -0.0010044444
0.020534825 0.00054428569 -0.0010044444
-0.029077312 -0.00054428569 -0.017891111
0.022177611 0.00090714288 -0.0016666667
-0.018892039 0.00018142856 0.0026377777
-0.024477512 -0.00054428569 -0.018553333
-0.012649452 0.00018142856 -0.01756
0.008049651 0.00054428569 -0.0016666667
-0.014292238 0.00018142856 -0.019215556
-0.017249253 0.00018142856 -0.017891111
0.016263582 -0.00018142856 -0.0086200004
0.018563481 0.00054428569 -0.0010044444
-0.031705771 0.00018142856 -0.024513334
0.0027927363 -0.00018142856 -1.1111111e-05
0.0050926367 0.00018142856 -0.0013355556
0.024148954 -0.00018142856 0.0023066667
0.0087067662 -0.00018142856 -0.022857778
-0.0054211938 -0.00090714288 -0.00034222222
0.011663781 -0.00018142856 -0.02020889
0.0034498505 0.00127 -1.1111111e-05
0.0034498505 0.00127 -0.0016666667
0.013963681 -0.00127 -0.0016666667
-0.013963681 -0.00090714288 -0.019546667
-0.0014785074 0.00018142856 -0.011931111
-0.021520497 0.00018142856 -0.016897777
-0.018234925 -0.00018142856 -0.01756
-0.0077210939 -0.00127 -0.0010044444
-0.0018070646 0.00018142856 -0.0010044444
-0.010020995 0.00127 -0.0019977777
0.0011499502 0.00090714288 -0.0016666667
-0.032034326 -0.00018142856 -0.011268889
0.006078308 -0.00090714288 -1.1111111e-05
-0.019877711 0.00090714288 -0.00034222222
-0.025463182 0.00090714288 -0.0016666667
-0.0050926367 -0.00054428569 -0.017891111
-0.011335223 0.00090714288 -0.018553333
-0.011335223 -0.00127 -0.0010044444
-0.024806069 0.00090714288 -1.1111111e-05
-0.0011499502 -0.00090714288 -0.0019977777
0.013635124 0.00018142856 -0.019215556
0.00049283577 0.00054428569 -0.002328889
0.026448855 0.00018142856 -0.0043155556
0.029077312 -0.00018142856 -0.0010044444
0.010678109 -0.00018142856 -0.002328889
0.011006666 0.00054428569 -0.018553333
-0.0087067662 -0.00018142856 -0.0082888892
-0.020534825 -0.00127 -0.0010044444
0.0041069649 -0.00127 -1.1111111e-05
-0.016592139 -0.00018142856 -0.0013355556
0.0014785074 0.00090714288 -0.0019977777
0.018563481 0.00054428569 -0.019546667
-0.02119194 0.00018142856 -0.0019977777
-0.023491839 0.00018142856 -0.00034222222
0.0057497509 0.00054428569 -0.002328889
0.0070639797 -0.00090714288 -0.0013355556
-0.0077210939 0.00127 -0.00034222222
-0.011992338 0.00127 -0.00034222222
-0.016592139 -0.00018142856 -1.1111111e-05
-0.017906368 0.00054428569 -0.01756
0.012978009 0.00127 -0.0019977777
-0.010020995 0.00127 -0.0016666667
-0.018563481 0.00127 -0.018884445
-0.011335223 -0.00018142856 -0.0016666667
-0.011663781 0.00018142856 -0.018553333
-0.024148954 0.00054428569 -0.019215556
-0.02579174 -0.00127 -0.01756
0.011992338 0.00018142856 -0.019215556
-0.018892039 -0.00018142856 -0.002991111
-0.0077210939 0.00018142856 -1.1111111e-05
0.016920695 0.00090714288 -0.00034222222
0.025134625 -0.00090714288 -0.00034222222
-0.013306567 -0.00054428569 -0.002328889
-0.026777411 0.00018142856 -0.0116
-0.014292238 0.00127 -0.018553333
0.0087067662 -0.00018142856 -0.009282222
-0.020206267 -0.00127 -0.0016666667
0.024477512 0.00090714288 -0.00067333336
0.015606467 0.00054428569 -0.018884445
-0.0077210939 -0.00127 -0.01756
-0.011006666 0.00090714288 -0.0013355556
-0.019220596 -0.00127 -0.0013355556
0.028748754 -0.00127 -0.0010044444
0.018234925 -0.00054428569 -0.018884445
0.0077210939 -0.00127 -0.0019977777
0.031377211 0.00054428569 -0.019215556
-0.02940587 -0.00018142856 -0.002328889
-0.008049651 -0.00090714288 -0.0013355556
0.0067354226 0.00054428569 -0.00034222222
0.0070639797 0.00054428569 -0.002328889
0.029734427 0.00018142856 -0.01756
0.032691441 -0.00054428569 -0.002328889
0.02579174 -0.00018142856 -0.018884445
0.014620795 -0.00127 -0.00034222222
0.0047640796 -0.00127 -0.0013355556
0.014620795 -0.00090714288 -0.0010044444
0.031705771 0.00054428569 -0.002328889
-0.02579174 0.00018142856 -0.019546667
-0.0050926367 0.00018142856 -0.019215556
0.0073925368 0.00127 -1.1111111e-05
0.023491839 0.00090714288 -0.019215556
0.026120298 -0.00054428569 -0.0016666667
0.021849053 -0.00054428569 -0.00034222222
0.027763084 -0.00127 -0.0013355556
0.027105968 -0.00090714288 -0.018553333
-0.010020995 0.00090714288 -0.002328889
-0.0073925368 -0.00018142856 -0.002328889
-0.011663781 -0.00018142856 -0.025175555
0.016920695 0.00054428569 -0.0016666667
0.006078308 -0.00018142856 -0.021864444
-0.0014785074 -0.00018142856 -0.0072955554
0.013963681 -0.00018142856 -0.0063022221
0.0041069649 0.00090714288 -0.0019977777
-0.024477512 0.00090714288 -0.0013355556
-0.0083782086 -0.00090714288 -0.0016666667
0.022506168 0.00127 -0.018553333
0.01757781 -0.00054428569 -0.018222222
-0.004435522 -0.00090714288 -0.00067333336
-0.014949352 -0.00054428569 -0.00034222222
-0.0041069649 -0.00127 -0.0013355556
0.0093638804 -0.00018142856 -0.017891111
-0.011335223 0.00018142856 -0.0089511108
-0.011006666 0.00054428569 -0.002328889
0.024148954 0.00018142856 -0.010275556
0.019220596 -0.00018142856 -0.016897777
0.028420197 0.00127 -1.1111111e-05
0.020206267 -0.00090714288 -0.019215556
-0.02940587 -0.00018142856 -0.0033222223
0.00049283577 -0.00018142856 -0.0016666667
-0.0011499502 0.00018142856 -0.016897777
-0.02579174 0.00127 -0.0010044444
-0.026777411 0.00018142856 -0.016566666
0.026777411 0.00127 -0.0010044444
-0.016920695 0.00127 -1.1111111e-05
-0.026120298 0.00090714288 -0.019546667
0.021849053 0.00018142856 -0.019546667
-0.0090353228 -0.00127 -0.018884445
0.0037784078 -0.00018142856 -0.022526667
-0.018892039 -0.00018142856 -0.0046466668
-0.0057497509 0.00090714288 -0.0016666667
0.024148954 0.00018142856 -0.00067333336
0.016920695 -0.00018142856 -1.1111111e-05
0.024148954 -0.00018142856 0.0016444444
0.024148954 0.00018142856 -0.0019977777
0.030062983 -0.00018142856 -0.0019977777
0.021520497 -0.00018142856 -0.025506666
0.0037784078 -0.00054428569 -0.019215556
-0.011335223 0.00018142856 -0.0079577779
0.021849053 0.00054428569 -0.018884445
-0.022506168 -0.00018142856 -0.0019977777
-0.0034498505 0.00090714288 -0.019215556
-0.021520497 0.00018142856 -0.018553333
-0.020206267 0.00127 -0.018222222
-0.025463182 0.00054428569 -0.0010044444
0.018563481 0.00018142856 -0.018884445
-0.028091641 -0.00054428569 -0.018553333
-0.023491839 0.00090714288 -0.002328889
-0.018563481 -0.00018142856 -0.019546667
-0.011663781 -0.00018142856 -0.02020889
-0.019220596 0.00018142856 -0.019546667
-0.012320895 -0.00018142856 -0.0010044444
0.032034326 0.00018142856 -0.0039844443
0.0057497509 0.00054428569 -0.018222222
0.0077210939 -0.00018142856 -0.0019977777
-0.0090353228 -0.00018142856 -0.00266
-0.012978009 0.00127 -0.00034222222
-0.022834726 0.00018142856 -0.0010044444
0.0041069649 -0.00127 -0.017891111
-0.004435522 -0.00054428569 -0.018222222
0.014949352 -0.00054428569 -0.019215556
-0.006078308 0.00018142856 -0.018884445
0.0087067662 0.00018142856 -0.023188889
0.012649452 0.00090714288 -1.1111111e-05
-0.0083782086 0.00127 -0.019546667
-0.013963681 0.00018142856 -0.015904445
-0.027763084 -0.00054428569 -0.018222222
0.011335223 0.00018142856 -0.016235556
0.021849053 -0.00054428569 -0.0019977777
-0.031705771 -0.00018142856 -0.019877778
0.024148954 0.00054428569 -0.002328889
0.0037784078 -0.00018142856 -0.0086200004
-0.013963681 0.00018142856 -0.020540001
0.01757781 -0.00090714288 -0.0010044444
-0.015935024 -0.00054428569 -0.0019977777
-0.015606467 -0.00018142856 -0.019215556
0.028420197 0.00018142856 -0.0019977777
0.027763084 -0.00054428569 -0.00034222222
-0.027105968 -0.00127 -0.019546667
0.020863382 -0.00127 -0.018884445
0.021520497 0.00127 -1.1111111e-05
-0.026120298 -0.00090714288 -0.017891111
-0.011335223 0.00054428569 -0.00034222222
-0.0041069649 0.00127 -0.002328889
-0.022506168 0.00054428569 -0.018884445
0.011663781 -0.00018142856 -0.017228888
0.013306567 -0.00127 -0.018884445
-0.01757781 0.00054428569 -0.00034222222
-0.02579174 -0.00127 -0.002328889
-0.011335223 -0.00018142856 0.0023066667
0.0090353228 -0.00054428569 -0.00034222222
0.02119194 0.00018142856 -0.0016666667
0.012320895 0.00127 -0.0019977777
0.021849053 -0.00018142856 -0.025175555
-0.0087067662 0.00018142856 -0.0053088889
0.032034326 0.00018142856 -0.0036533333
0.018892039 0.00054428569 -0.0016666667
-0.031705771 0.00054428569 -0.01756
-0.0064068655 0.00054428569 -0.002328889
0.0067354226 -0.00018142856 -0.019215556
0.02940587 -0.00018142856 -0.002328889
0.032362882 0.00018142856 -0.0010044444
0.020534825 -0.00090714288 -0.002328889
0.012320895 -0.00018142856 -0.018222222
0.0067354226 -0.00127 -0.019215556
-0.024477512 -0.00018142856 -0.0019977777
-0.0031212934 0.00127 -0.0019977777
0.013963681 -0.00054428569 -0.017891111
0.032362882 0.00054428569 -0.00067333336
-0.022506168 -0.00054428569 -0.00067333336
0.02940587 -0.00018142856 -0.016566666
0.0011499502 0.00018142856 -0.010606667
0.009692437 0.00054428569 -0.018553333
-0.028420197 -0.00054428569 -0.018884445
-0.027105968 -0.00054428569 -0.017891111
-0.013963681 0.00018142856 -0.002328889
0.0064068655 -0.00018142856 -0.018553333
-0.013963681 -0.00018142856 -0.010275556
-0.026777411 -0.00054428569 -0.0010044444
-0.031377211 0.00127 -0.0013355556
0.008049651 -0.00018142856 -0.01756
-0.029077312 -0.00090714288 -0.0019977777
0.0014785074 0.00054428569 -0.01756
0.026448855 0.00054428569 -0.0013355556
0.031048656 0.00018142856 -0.019546667
0.010349552 -0.00127 -0.019215556
0.032034326 0.00018142856 -0.009282222
0.0037784078 -0.00018142856 -0.024182223
-0.0021356218 -0.00090714288 -0.00067333336
0.027105968 0.00018142856 -0.01756
-0.0047640796 -0.00018142856 -0.018884445
-0.031705771 -0.00018142856 0.0026377777
0.016592139 0.00018142856 -0.0059711109
-0.0037784078 0.00018142856 -0.002328889
0.015606467 -0.00127 -0.002328889
0.027763084 0.00090714288 -0.018884445
0.026448855 -0.00018142856 0.0019755557
-0.012649452 0.00127 -0.018884445
-0.013963681 -0.00018142856 -0.0096133333
0.023491839 -0.00018142856 -0.019546667
0.016592139 0.00127 -0.002328889
0.006078308 0.00090714288 -0.0016666667
0.012649452 -0.00127 -0.0013355556
