# .PCD v0.7 - Point Cloud Data file format
VERSION 0.7
FIELDS x y z
SIZE 4 4 4
TYPE F F F
COUNT 1 1 1
WIDTH 1216
HEIGHT 1
VIEWPOINT 0 0 0 1 0 0 0
POINTS 1216
DATA ascii
-0.00022225 -0.00034636364 -0.025955768
-0.0024447499 0.00011545455 -0.02750721
-0.00022225 0.00034636364 -0.023074519
0.0026670001 0.00011545455 -0.039918751
-0.0026670001 0.00011545455 -0.038145673
-0.0051117502 0.00034636364 -0.037037499
0.0048894999 -0.00011545455 -0.021523077
0.0048894999 0.00011545455 -0.0082249995
-0.0044450001 -0.00034636364 -0.0022408653
0.0051117502 -0.00034636364 -0.0046788459
-0.00733425 -0.00011545455 -0.020414904
-0.0060007502 -0.00034636364 -0.03570769
0 0.00034636364 -0.037259135
-0.0024447499 0.00011545455 0.0024134615
0 0.00034636364 -0.025290865
0.0035560001 0.00127 -0.0020192307
-0.00022225 0.00034636364 -0.039918751
0.0031115001 -0.00127 -0.0011326922
0.0057784999 0.00127 -0.03459952
0.0071120001 -0.00127 -0.034821153
-0.0082232505 -0.00057727273 -0.0002461538
0.0026670001 0.00034636364 -0.017312018
-0.00022225 0.00034636364 -0.024182692
0.0053340001 -0.00011545455 -0.0049004806
-0.0084455004 0.0010390909 -0.03570769
-0.0060007502 0.00127 -0.034821153
0 -0.00034636364 -0.0082249995
0.0026670001 -0.00127 -0.0002461538
-0.00466725 0.0010390909 -0.033712979
0.0026670001 0.00034636364 -0.011992788
-0.0024447499 0.00127 -0.0022408653
-0.0026670001 0.00080818182 -0.033491347
-0.00022225 0.00034636364 0.0015269232
-0.00022225 0.00011545455 -0.020858172
0.0075564999 -0.00011545455 -0.018198557
0.0022225 0.00011545455 -0.011549519
-0.001778 0.00011545455 -0.033491347
0.00022225 -0.00011545455 -0.0255125
0.0080009997 0.0010390909 -0.033491347
-0.0053340001 -0.00011545455 -0.028393749
0.00733425 0.00011545455 -0.041691825
0.00022225 -0.00034636364 -0.0046788459
0.0066674999 -0.00127 -0.0015759615
-0.0071120001 -0.00034636364 -2.4519173e-05
-0.0026670001 0.00034636364 -0.0024625
-0.0077787503 -0.00011545455 -0.032826442
-0.0026670001 0.00034636364 -0.0046788459
0 0.00034636364 -0.01686875
-0.0057784999 0.0010390909 -0.033712979
0.0053340001 0.00127 -0.034156248
0.0048894999 0.00011545455 -0.0044572116
-0.00555625 0.00011545455 -2.4519173e-05
0.0026670001 0.00011545455 -0.040583652
-0.00377825 -0.00127 -0.034377884
0.0077787503 -0.00011545455 -0.018641826
0.0022225 0.00011545455 -0.017755289
-0.0024447499 0.0010390909 -0.03570769
-0.00044450001 0.00034636364 -0.0022408653
-0.0024447499 0.00011545455 -0.041026924
-0.0053340001 -0.00011545455 -0.020858172
0.00066675001 0.00057727273 -0.0024625
-0.0075564999 -0.00127 -0.0011326922
-0.00022225 -0.00034636364 -0.0044572116
-0.0048894999 0.00011545455 -0.018420191
0.0062230001 -0.00127 -0.0002461538
-0.00111125 0.00127 -0.0015759615
-0.0044450001 0.00057727273 -0.03570769
0.0053340001 0.00011545455 -0.038367309
0.0053340001 0.00080818182 -0.0022408653
-0.00733425 -0.00011545455 -0.026399039
0.00155575 -0.00127 -0.0004677884
-0.001778 -0.00127 -0.035486057
-0.00555625 0.00127 -0.034156248
0.0026670001 -0.00034636364 -0.016647115
-0.0024447499 0.00011545455 -0.028393749
0.0080009997 0.00080818182 -0.0002461538
0.0051117502 -0.00034636364 -0.039475478
-0.0075564999 0.00011545455 -0.032604806
-0.00022225 0.00034636364 -0.014430769
-0.00022225 -0.00034636364 -0.020636538
-0.0024447499 -0.00011545455 -0.027063942
-0.00733425 -0.00011545455 -0.028172115
-0.0048894999 -0.00034636364 -0.026620673
0.0053340001 -0.00011545455 -0.029945191
0.0053340001 0.00011545455 -0.021744711
0.0077787503 -0.00127 -0.00091105764
0.0071120001 0.00127 -0.0020192307
0.00022225 0.00011545455 -0.023961058
0.0048894999 0.0010390909 -0.033491347
0.0024447499 0.00011545455 -0.032161538
0.0026670001 -0.00011545455 -0.025955768
-0.0026670001 0.00034636364 -0.025734134
0.0026670001 0.00011545455 -0.041470192
-0.0048894999 -0.00011545455 0.0021918269
-0.0053340001 0.00011545455 -0.021301443
0.0075564999 0.00034636364 0.0015269232
-0.0077787503 0.00011545455 -0.027063942
-0.0040004998 0.00057727273 -0.03570769
0.0024447499 0.0010390909 -0.03570769
0.0048894999 -0.00011545455 -0.01066298
-0.00022225 0.00034636364 0.00019711544
-0.0057784999 0.0010390909 -0.0002461538
-0.0053340001 0.00011545455 -0.018863462
-0.00022225 0.00034636364 -0.021301443
-0.0013335 0.00011545455 -0.0022408653
-0.0035560001 0.00127 -0.033712979
-0.00733425 -0.00011545455 -0.030166827
-0.00022225 -0.00011545455 0.0017485577
0.0066674999 -0.00057727273 -0.03570769
-0.00022225 0.00011545455 -0.030610096
-0.0075564999 -0.00034636364 -0.010884616
0.00022225 -0.00080818182 -0.033491347
0.0077787503 -0.00080818182 -0.0002461538
0.00555625 -0.00011545455 -0.035929326
0.0082232505 0.0010390909 -0.033934616
-0.0026670001 -0.00034636364 -0.03903221
-0.0053340001 0.00011545455 -0.017533654
-0.00022225 -0.00034636364 -0.026620673
0.00555625 0.00127 -0.0017975961
0.0077787503 -0.00011545455 -0.019528365
0.0024447499 -0.00011545455 -0.022852885
0.0022225 0.00011545455 -0.021523077
0.0022225 -0.00127 -0.0015759615
0.0053340001 0.00011545455 -0.013322596
-0.00022225 0.0010390909 -0.033491347
0.0075564999 0.00034636364 -0.032383174
-0.0024447499 -0.00034636364 -0.0053437497
-0.0053340001 -0.00011545455 -0.01066298
-0.00111125 0.00034636364 -2.4519173e-05
-0.0048894999 0.00011545455 -0.030166827
0.00377825 -0.00127 -0.0013543268
0.00022225 0.00011545455 -0.0060086539
0.00044450001 -0.00127 -0.0004677884
-0.0031115001 -0.00127 -0.000689423
-0.0026670001 -0.00034636364 -0.022852885
-0.0075564999 0.00011545455 -0.026842307
-0.0048894999 0.00011545455 -0.03083173
0.00733425 0.00011545455 -0.032826442
-0.0026670001 0.00034636364 -0.0035706731
-0.00111125 0.0010390909 -2.4519173e-05
-0.00155575 0.0010390909 -2.4519173e-05
-0.00044450001 -0.00127 -0.034821153
-0.0026670001 0.00034636364 -0.041026924
0.00022225 -0.00034636364 0.00041875005
0.0086677503 -0.00057727273 -0.0011326922
0.0026670001 -0.00011545455 -0.026842307
-0.00022225 -0.00034636364 -0.039697114
0.0086677503 -0.00034636364 -0.00091105764
-0.0075564999 -0.00034636364 -0.010219711
0.00022225 -0.00034636364 0.0019701924
-0.0060007502 0.00127 -0.0020192307
0.0026670001 0.00034636364 -0.018198557
0.0020002499 0.00080818182 -0.0002461538
0.0040004998 0.00080818182 -0.033491347
0.0075564999 -0.00011545455 -0.015317308
-0.0053340001 0.00011545455 -0.024182692
-0.0077787503 0.00011545455 -0.014430769
0.0057784999 0.00127 -0.0013543268
0.0066674999 0.00127 -0.0022408653
0.0082232505 0.00011545455 -0.0022408653
-0.0051117502 -0.00034636364 -0.028615383
0.00022225 -0.00011545455 -0.015760576
0.00022225 -0.00011545455 -0.03903221
0.0033337499 -0.00127 -0.0020192307
0.0026670001 0.00011545455 -0.0037923076
-0.0057784999 0.00127 -0.0015759615
-0.00377825 -0.00080818182 -0.0002461538
0.0051117502 0.00011545455 -0.020193269
-0.0026670001 -0.00011545455 -0.037480768
0.00066675001 -0.00127 -0.0013543268
-0.00022225 -0.00011545455 -0.023517787
-0.0024447499 0.00011545455 -0.01930673
0.0051117502 -0.00034636364 -0.016425481
0.0020002499 -0.00057727273 -0.0002461538
0.0048894999 -0.00011545455 -0.037924036
0.00044450001 -0.00011545455 -0.033269711
0.0028892499 -0.00127 -0.00091105764
-0.0026670001 -0.00034636364 -0.0255125
-0.0035560001 -0.00080818182 -0.0022408653
-0.0026670001 -0.00011545455 -0.018420191
0.0077787503 0.00011545455 -0.0091115385
0.00022225 0.00011545455 -0.014209135
0.0026670001 -0.00057727273 -0.0024625
0.0075564999 0.00034636364 -0.010441346
-0.0077787503 0.00011545455 -0.013987499
0.00022225 0.00127 -0.0015759615
0.0048894999 0.00080818182 -0.033491347
-0.0086677503 -0.00034636364 -0.0022408653
0.0040004998 0.00011545455 -0.033491347
-0.0082232505 -0.00057727273 -0.035486057
0.00555625 0.00127 -0.035042789
-0.0020002499 0.0010390909 -0.0022408653
-0.0060007502 0.00127 -0.035486057
-0.0077787503 0.00011545455 -0.018420191
0.00022225 -0.00034636364 0.0015269232
0.00733425 0.00011545455 -0.016647115
0.001778 -0.00127 -0.0020192307
0.00733425 0.00011545455 -0.024182692
-0.0051117502 0.00011545455 -0.0064519229
-0.00022225 -0.00011545455 -0.0055653844
0.0026670001 0.00034636364 -0.011327884
-0.0013335 -0.00127 -0.0017975961
0.0053340001 -0.00011545455 -0.041691825
0.0020002499 0.00127 -0.0011326922
-0.0086677503 0.0010390909 -0.034377884
0.0026670001 0.00034636364 -0.012436057
-0.00111125 -0.00127 -0.0013543268
-0.0026670001 -0.00011545455 -0.0035706731
0.0075564999 -0.00127 -0.0013543268
-0.0053340001 -0.00011545455 -0.041248556
0.0024447499 -0.00011545455 -0.029280288
0.0048894999 -0.00080818182 -0.0002461538
0.0048894999 0.00011545455 -0.040140383
0 0.00127 -0.0013543268
0.0024447499 -0.00057727273 -0.03570769
0.0080009997 0.0010390909 -0.0022408653
0.0088900002 0.00011545455 -0.000689423
0.0075564999 0.00034636364 -0.028172115
0.0057784999 0.00080818182 -0.033491347
-0.0026670001 0.00034636364 -0.036372595
0.0057784999 0.00057727273 -0.035929326
-0.0071120001 -0.00127 -0.034821153
0.0075564999 0.00034636364 -0.012879327
0.0048894999 -0.00011545455 -0.0255125
0.0077787503 -0.00127 -0.0020192307
0.0077787503 0.00011545455 -0.025069231
0.0075564999 0.00034636364 -0.0099980766
0.0026670001 0.00011545455 -0.032826442
-0.0075564999 0.00011545455 -0.037259135
0.0026670001 0.00011545455 -0.0026841345
0 -0.00034636364 0.0017485577
-0.0051117502 0.00034636364 -0.030610096
0.00066675001 0.00127 -0.0004677884
-0.00022225 -0.00011545455 0.0021918269
-0.0026670001 0.00034636364 -0.015538942
-0.0075564999 -0.00034636364 -0.032604806
0.00022225 0.00011545455 -0.010884616
-0.0022225 -0.00011545455 0.00041875005
-0.00066675001 0.00011545455 -2.4519173e-05
-0.0051117502 0.00011545455 -0.012879327
-0.0075564999 -0.00034636364 0.0013052885
0.0048894999 0.00034636364 -0.032826442
-0.0028892499 -0.00127 -0.0004677884
-0.0051117502 -0.00034636364 -0.036594231
-0.0086677503 0.00057727273 -0.034156248
-0.0051117502 -0.00034636364 -0.006895192
0.00555625 0.00011545455 -2.4519173e-05
0.0051117502 0.00034636364 0.00086201925
0.00022225 -0.00011545455 -0.02263125
-0.0075564999 0.00011545455 -0.017090384
0.00733425 0.00011545455 -0.0044572116
-0.0051117502 -0.00127 -0.033712979
-0.0077787503 0.00011545455 -0.017976923
0.0077787503 0.00011545455 -0.023961058
-0.0048894999 0.00011545455 0.00041875005
-0.0026670001 0.00011545455 -0.014652403
-0.0077787503 0.00011545455 -0.032161538
-0.00088900002 -0.00127 -0.03459952
0.0051117502 -0.00034636364 -0.037259135
0.00733425 0.00127 -0.03459952
-0.00022225 0.00011545455 -0.030166827
-0.0053340001 0.00127 -0.0002461538
-0.0053340001 -0.00011545455 -0.017312018
-0.0082232505 -0.0010390909 -0.0022408653
0.0075564999 0.00127 -0.00091105764
0.0024447499 -0.00011545455 -0.038810577
-0.00466725 0.00127 -0.0020192307
-0.0084455004 0.0010390909 -0.0011326922
-0.0040004998 0.00127 -0.0004677884
0.0026670001 0.00011545455 -0.0099980766
0.00466725 -0.00080818182 -2.4519173e-05
0.0022225 0.00011545455 -0.021966346
0.0077787503 -0.00011545455 -0.028393749
-0.0068897502 0.00034636364 -0.0002461538
0.00022225 0.00034636364 -0.032383174
-0.00377825 0.00080818182 -0.0022408653
-0.0040004998 0.0010390909 -0.0022408653
0.00022225 -0.00034636364 -0.029058654
0.0024447499 0.00034636364 -2.4519173e-05
0.0024447499 0.00034636364 0.00019711544
0.0022225 -0.0010390909 -0.0022408653
0.00644525 0.00034636364 -0.0022408653
0.0026670001 -0.00011545455 -0.030610096
-0.00066675001 0.00057727273 -0.0022408653
-0.0053340001 0.00011545455 -0.031053364
-0.0024447499 0.00011545455 -0.035929326
-0.0053340001 -0.00011545455 -0.040805288
-0.0024447499 0.00011545455 -0.022852885
0.0044450001 0.00127 -0.0004677884
0.00022225 -0.00034636364 -0.0049004806
-0.0077787503 0.00011545455 -0.02750721
-0.00733425 -0.00011545455 0.0021918269
0.00022225 0.00034636364 -0.038145673
0.00022225 0.00034636364 0.0017485577
0.0035560001 -0.00127 -0.035042789
-0.0077787503 -0.00011545455 -0.036594231
0.0044450001 -0.00011545455 -0.033491347
0.00022225 0.00034636364 -0.013544231
0.0028892499 0.00127 -2.4519173e-05
0.0057784999 0.00057727273 -0.0002461538
0.0035560001 -0.00011545455 -0.0022408653
-0.0051117502 0.00127 -0.035264421
-0.0033337499 -0.00011545455 -2.4519173e-05
0.0024447499 -0.00057727273 -0.0022408653
0.0022225 0.00011545455 -0.01110625
0.0053340001 -0.00011545455 -0.017312018
0.0026670001 0.00011545455 -0.029280288
0.0044450001 0.0010390909 -0.03570769
-0.0048894999 0.00011545455 -0.032604806
-0.0026670001 -0.00011545455 -0.0046788459
0.00022225 0.00011545455 -0.037480768
-0.0020002499 0.00127 -0.035486057
-0.001778 -0.00127 -0.00091105764
-0.0088900002 -0.00011545455 -0.034821153
-0.0048894999 0.00011545455 -0.032826442
-0.0053340001 0.00057727273 -0.033491347
0.00022225 0.00034636364 -0.014430769
-0.00022225 -0.00011545455 -0.022409614
0.0024447499 -0.00011545455 -0.024625961
-0.0051117502 -0.00034636364 -0.0075600957
-0.0024447499 -0.00034636364 -0.016647115
0.00733425 0.00011545455 -0.041470192
-0.0020002499 -0.00011545455 -2.4519173e-05
0.0048894999 0.00034636364 -0.035929326
0.00733425 0.00011545455 -0.0060086539
0.0075564999 0.00034636364 -0.015095673
0.0020002499 -0.0010390909 -0.0024625
-0.0082232505 0.0010390909 -0.03570769
-0.0080009997 0.00011545455 -0.0022408653
-0.0082232505 0.00034636364 -0.033712979
-0.0075564999 0.00011545455 -0.033048075
-0.0031115001 0.00011545455 -0.033491347
-0.0048894999 -0.00011545455 -0.0037923076
-0.00111125 0.00127 -0.035042789
-0.0026670001 0.00034636364 -0.027728846
-0.0060007502 -0.00127 -0.034156248
-0.0028892499 -0.00127 -0.033491347
0.0024447499 0.00034636364 -0.014209135
-0.0075564999 -0.00011545455 -0.030388461
-0.00644525 -0.00034636364 -0.033491347
-0.0075564999 -0.00057727273 -0.033269711
0.0077787503 0.00057727273 -0.033491347
0.0051117502 0.00011545455 -0.018641826
-0.00733425 -0.00080818182 -0.0024625
0.0026670001 0.00034636364 -0.036372595
0.00733425 0.00011545455 -0.019749999
0.00733425 0.00011545455 -0.024625961
0.0071120001 0.00057727273 -0.0022408653
-0.0024447499 0.00011545455 -0.0040139421
0.0075564999 -0.00011545455 -0.006895192
0.00644525 0.00127 -0.035486057
0.0053340001 0.00011545455 -0.010884616
-0.0026670001 0.00011545455 -0.024182692
-0.0077787503 -0.00011545455 -0.019749999
0.0051117502 0.00011545455 -0.0066735577
-0.0053340001 -0.00011545455 -0.0095548071
-0.0024447499 -0.00011545455 -0.031939901
-0.00022225 -0.00011545455 -0.038588941
0.0048894999 0.00011545455 -0.0071168267
0.0077787503 0.00011545455 0.0021918269
-0.0026670001 0.00034636364 -0.037480768
-0.0024447499 0.00011545455 -0.016425481
-0.0042227502 0.00057727273 -0.0022408653
-0.0053340001 0.00011545455 -0.011771154
-0.00088900002 0.00011545455 -0.03570769
0.00466725 0.00127 -0.035486057
-0.0026670001 -0.00011545455 -0.031496633
-0.00022225 0.00011545455 -0.025290865
-0.0075564999 0.00057727273 -0.0002461538
-0.0051117502 -0.00011545455 -0.026177403
-0.0077787503 -0.00011545455 -0.026842307
0.0024447499 -0.00011545455 -0.011327884
-0.0075564999 0.00011545455 -0.024182692
0.00044450001 -0.00034636364 -0.035929326
0.0031115001 0.00011545455 -0.0022408653
-0.0051117502 0.00034636364 -0.033048075
-0.00022225 0.00034636364 -0.0066735577
-0.0075564999 0.00011545455 -0.0057870192
0.001778 -0.00057727273 -0.0022408653
-0.0028892499 -0.0010390909 -2.4519173e-05
0.0024447499 0.00057727273 -0.033269711
-0.00066675001 0.0010390909 -2.4519173e-05
-0.0077787503 0.00011545455 -0.029280288
-0.00022225 0.00034636364 0.0017485577
-0.00022225 -0.00034636364 -0.0095548071
-0.00022225 -0.00034636364 -0.0255125
0.0031115001 0.0010390909 -0.0022408653
-0.00644525 -0.00127 -0.00091105764
0.0048894999 0.00011545455 -0.0095548071
-0.0026670001 -0.00034636364 -0.0093331728
0.0062230001 0.00127 -0.000689423
0.0048894999 0.00011545455 -0.012657692
0.00066675001 -0.00057727273 -0.033491347
0.0057784999 0.00127 -0.035264421
0.0077787503 -0.00127 -0.03570769
-0.0048894999 -0.00011545455 -0.011771154
0.0024447499 -0.00011545455 0.0021918269
-0.0044450001 -0.00080818182 -0.0022408653
-0.0022225 0.00127 -0.035264421
-0.00733425 -0.00011545455 -0.006895192
0.0026670001 -0.00057727273 -0.0002461538
0.0024447499 -0.00011545455 -0.016425481
0.0051117502 -0.00034636364 -0.030388461
0.0051117502 -0.00034636364 -0.021301443
0.00022225 0.00011545455 -0.012879327
-0.0071120001 0.00011545455 -0.03570769
0.0048894999 0.00011545455 -0.006895192
-0.0040004998 0.00127 -0.035486057
-0.0026670001 0.00034636364 -0.038588941
-0.00733425 -0.00011545455 -0.019749999
0.0075564999 -0.00011545455 -0.011327884
0.0022225 -0.0010390909 -2.4519173e-05
-0.00022225 -0.00011545455 -0.021744711
0.00066675001 0.00127 -0.000689423
0.0022225 0.00011545455 -0.019749999
0.00022225 0.00034636364 -0.025734134
-0.0075564999 0.00127 -0.0011326922
-0.0035560001 0.00080818182 -0.0002461538
0.0053340001 -0.00011545455 -0.010219711
-0.0024447499 0.00011545455 -0.017090384
0.0060007502 -0.00127 -0.034821153
-0.0024447499 -0.00011545455 -0.029501922
-0.00155575 -0.00127 -0.0011326922
-0.0075564999 0.00011545455 -0.01066298
0.0077787503 -0.00011545455 0.0021918269
0.0024447499 -0.00127 -0.033712979
-0.0068897502 -0.00057727273 -0.033491347
0.0068897502 0.00127 -0.03459952
0.0028892499 0.00034636364 -0.0024625
0.00111125 0.00127 -0.033934616
-0.0075564999 0.00011545455 -0.002905769
-0.0026670001 -0.00011545455 -0.029501922
0.0057784999 -0.00034636364 -0.0022408653
-0.0048894999 0.0010390909 -0.033712979
0 -0.00034636364 -0.0035706731
0.0024447499 0.00034636364 -0.025955768
0.0044450001 -0.0010390909 -0.03570769
0.0022225 0.00011545455 0.0010836539
0.0042227502 -0.00034636364 -2.4519173e-05
-0.0086677503 0.00080818182 -0.0004677884
-0.0053340001 -0.00011545455 -0.0031274038
0.0026670001 0.00011545455 -0.0073384615
0.0048894999 0.00127 -0.0015759615
-0.00022225 0.00034636364 -0.019749999
-0.0051117502 0.0010390909 -0.03570769
-0.00066675001 -0.00127 -0.03570769
0 -0.00034636364 -0.011771154
-0.0033337499 -0.00127 -2.4519173e-05
-0.00044450001 -0.00011545455 -0.0024625
0.0026670001 -0.00034636364 -0.03903221
-0.0028892499 0.00127 -0.033934616
-0.00022225 -0.00011545455 -0.027950481
0.00022225 0.00011545455 -0.040362019
-0.0028892499 -0.00127 -0.0015759615
-0.0028892499 -0.00034636364 -0.033269711
-0.0026670001 0.00011545455 -0.0082249995
-0.0022225 0.00127 -0.03570769
-0.0024447499 0.00011545455 -0.029501922
-0.0048894999 -0.00034636364 -0.040805288
0.0026670001 -0.00011545455 -0.024847595
0.0060007502 -0.00011545455 -0.0022408653
0.0026670001 0.00011545455 -0.0097764423
0.0048894999 -0.00011545455 -0.011549519
0.00733425 0.00011545455 -0.039918751
0.0024447499 -0.00011545455 -0.012879327
-0.0048894999 0.00011545455 -0.024404326
0.0048894999 -0.00011545455 -0.016203845
-0.0051117502 -0.00034636364 -0.033048075
-0.0075564999 -0.0010390909 -0.033712979
-0.0026670001 -0.00011545455 -0.0097764423
0.0053340001 0.00011545455 0.0021918269
-0.0086677503 0.00034636364 -0.033712979
0.00022225 -0.00034636364 -0.017755289
-0.0051117502 0.00011545455 -0.015538942
-0.0086677503 0.00057727273 -0.0002461538
-0.0051117502 0.00011545455 -0.010884616
0.0026670001 0.00034636364 0.0015269232
-0.00466725 0.00127 -0.035264421
0.0051117502 0.00011545455 -0.017090384
0.00022225 0.0010390909 -0.0022408653
0.0077787503 -0.00011545455 -0.0037923076
-0.0068897502 -0.00127 -0.035486057
-0.00733425 0.00034636364 -0.033491347
-0.00733425 -0.0010390909 -0.03570769
0.0024447499 -0.00011545455 -0.027950481
0.0048894999 0.00011545455 -0.025290865
0.0033337499 -0.00127 -0.00091105764
-0.00644525 0.00127 -0.035264421
0.0084455004 -0.00057727273 -0.0002461538
0.0024447499 -0.00011545455 -0.020193269
-0.00466725 0.00127 -0.033934616
0.0057784999 -0.00127 -0.03459952
-0.0013335 -0.00057727273 -0.033491347
0.0051117502 0.00011545455 -0.027728846
-0.0071120001 0.0010390909 -0.033712979
-0.0020002499 -0.00034636364 -0.0022408653
-0.0048894999 -0.00034636364 -0.018641826
0.0044450001 0.00057727273 -0.03570769
0.0077787503 0.00011545455 -0.012657692
-0.0077787503 -0.00011545455 -0.03083173
-0.0048894999 0.00127 -0.033934616
-0.00377825 -0.0010390909 -0.03570769
-0.0053340001 -0.00011545455 -0.0033490383
0.0075564999 -0.00127 -0.0002461538
-0.0035560001 0.00034636364 -2.4519173e-05
0.0077787503 -0.00011545455 -0.039918751
0.0033337499 0.00127 -0.034156248
-0.0051117502 -0.00011545455 -0.031275
0 -0.00127 -0.034377884
0.0051117502 -0.00034636364 -0.025955768
0.0026670001 -0.00011545455 0.0028567307
0 0.00034636364 -0.026399039
0.0060007502 -0.0010390909 -0.0022408653
-0.0022225 -0.0010390909 -0.0022408653
0.0084455004 0.0010390909 -0.0011326922
-0.0026670001 0.00011545455 -0.041026924
-0.0048894999 -0.00011545455 -0.039253846
0.0077787503 -0.00011545455 -0.022409614
-0.0024447499 0.00011545455 -0.037924036
0.0075564999 -0.0010390909 -0.0002461538
-0.0051117502 -0.00011545455 -0.015095673
0.00733425 0.00011545455 -0.02750721
-0.00022225 -0.00034636364 -0.039253846
0.0075564999 0.00034636364 -0.0046788459
-0.0026670001 0.00011545455 -0.002905769
-0.0026670001 -0.00011545455 -0.0095548071
0.0048894999 0.00011545455 -0.0035706731
-0.0077787503 -0.00011545455 -0.037702404
-0.0033337499 -0.00080818182 -0.0024625
-0.0077787503 -0.00011545455 -0.028615383
-0.0026670001 0.00034636364 -0.018420191
0.0042227502 -0.00127 -0.0015759615
-0.00022225 -0.00011545455 -0.023296153
0.0026670001 -0.0010390909 -0.03570769
-0.0051117502 -0.00034636364 -0.0082249995
-0.0084455004 -0.00080818182 -0.0022408653
-0.00022225 0.00127 -0.0022408653
0.0044450001 0.00011545455 -0.033491347
-0.0060007502 0.00127 -0.033934616
-0.00044450001 0.00127 -0.034821153
-0.0026670001 -0.00034636364 -0.036150962
0.00044450001 0.00127 -0.0002461538
0.0060007502 0.00034636364 -0.03570769
-0.00022225 -0.00034636364 -0.006895192
0.00022225 -0.00011545455 -0.0053437497
-0.00022225 0.00034636364 -0.032383174
-0.0024447499 0.00011545455 -0.031718269
-0.0024447499 -0.00034636364 -0.038367309
-0.00022225 -0.00034636364 -0.020193269
0.0075564999 0.00127 -0.034377884
0.00044450001 0.00057727273 -0.033491347
-0.0080009997 -0.0010390909 -0.03459952
0.0051117502 -0.00034636364 -0.019085096
-0.0088900002 0.00011545455 -0.00091105764
0.0048894999 -0.00011545455 0.0017485577
-0.0026670001 -0.00127 -0.033491347
0.00733425 0.00127 -0.034821153
0 0.00034636364 -0.018863462
0.0024447499 -0.00127 -0.0004677884
-0.0048894999 -0.00011545455 -0.038145673
0.0051117502 -0.00127 -0.0002461538
-0.0071120001 -0.00080818182 -0.033491347
0.0068897502 0.00127 -0.03570769
-0.0077787503 -0.00011545455 -0.0042355768
-0.00022225 0.00034636364 -0.013100961
0.0024447499 0.00034636364 -0.040583652
0.0048894999 0.00011545455 0.0026350962
0.0026670001 -0.00011545455 -0.0040139421
0.0026670001 -0.00011545455 -0.02883702
-0.00377825 -0.0010390909 -0.0022408653
0 0.00034636364 -0.006895192
-0.0026670001 -0.00011545455 -0.019528365
0.0075564999 0.00034636364 -0.0053437497
0.0053340001 0.00080818182 -0.035929326
-0.0060007502 -0.00127 -2.4519173e-05
0 -0.00127 -0.0020192307
0.0042227502 0.00127 -0.035264421
0.0077787503 0.00011545455 -0.0077817305
-0.00044450001 0.00127 -0.035264421
0.00022225 -0.00011545455 -0.041470192
-0.0051117502 -0.00034636364 -0.019749999
-0.00022225 -0.00034636364 -0.032604806
0.0053340001 -0.00011545455 -0.039918751
0.0048894999 -0.00011545455 0.00041875005
-0.00022225 0.00011545455 -0.03083173
0.0048894999 0.00011545455 -0.033048075
-0.0024447499 0.00011545455 -0.027285576
0.0051117502 0.00011545455 -0.02883702
0.0077787503 0.00011545455 -0.0099980766
-0.0026670001 -0.00011545455 -0.0073384615
0.00377825 0.00127 -0.033934616
0.00377825 0.00034636364 -2.4519173e-05
0.0066674999 -0.00057727273 -0.033491347
0.0057784999 0.0010390909 -0.03570769
0.0075564999 0.00034636364 -0.028615383
0.0051117502 0.00034636364 0.0021918269
0.0051117502 0.00011545455 -0.0255125
-0.0013335 0.00080818182 -0.0022408653
0.0044450001 -0.00057727273 -0.0002461538
-0.00066675001 0.0010390909 -0.033491347
0.00022225 -0.00011545455 -0.041026924
-0.00022225 -0.00011545455 -0.0095548071
0.00022225 0.00034636364 -0.023074519
0.00022225 0.00011545455 -0.031496633
0.0024447499 0.00034636364 -0.0042355768
0.0088900002 0.00011545455 -0.034156248
0.0075564999 -0.00011545455 -0.0073384615
0.0024447499 -0.00011545455 -0.0055653844
-0.0077787503 -0.00011545455 -0.013100961
-0.0033337499 -0.00034636364 -0.035929326
0.00022225 0.00011545455 -0.01110625
0.0086677503 0.00011545455 -2.4519173e-05
-0.0040004998 -0.00127 -0.0020192307
0.0022225 -0.00034636364 -0.033491347
-0.00022225 0.00011545455 -0.024847595
0.0075564999 0.00011545455 -0.041913461
-0.0077787503 -0.00011545455 -0.024847595
0.00022225 -0.00011545455 -0.026842307
0.0075564999 -0.00011545455 -0.026177403
-0.0053340001 0.0010390909 -0.03570769
0.0082232505 -0.00080818182 -0.033491347
0.0051117502 -0.00034636364 -0.020414904
0.0051117502 0.0010390909 -0.033712979
0.0026670001 0.00034636364 -0.040140383
-0.0051117502 -0.00080818182 -2.4519173e-05
-0.0053340001 0.00011545455 -0.0049004806
0.0022225 0.00011545455 -0.017533654
-0.0051117502 0.00011545455 -0.020414904
0.0051117502 -0.00034636364 -0.031939901
-0.0053340001 -0.00011545455 -0.0077817305
0.0033337499 0.00057727273 -0.0024625
-0.00111125 0.00057727273 -0.0002461538
-0.0051117502 0.00127 -0.034156248
0.0051117502 -0.00034636364 -0.028615383
0.0077787503 0.00011545455 -0.036150962
0.0077787503 -0.00011545455 -0.029945191
0.0066674999 0.0010390909 -0.03570769
0.00022225 -0.00011545455 0.0010836539
-0.00111125 0.00127 -0.03459952
-0.0053340001 -0.00011545455 -0.026620673
-0.0026670001 0.00034636364 -0.037037499
-0.0033337499 -0.00127 -0.034156248
0.0022225 0.00011545455 -0.041470192
0.0048894999 -0.00057727273 -0.0002461538
0.0044450001 0.00127 -0.000689423
-0.0026670001 0.00011545455 -0.017090384
-0.0026670001 0.00011545455 -0.013765865
-0.0077787503 0.00011545455 -0.031053364
0.0051117502 -0.00034636364 -0.030166827
-0.0048894999 -0.00011545455 -0.0057870192
-0.0026670001 -0.00127 -0.034821153
0.0035560001 -0.00034636364 -2.4519173e-05
0.0028892499 0.00127 -0.035264421
-0.0051117502 -0.00011545455 -0.019971633
-0.00066675001 0.00127 -0.033712979
0.0075564999 -0.00127 -0.0004677884
-0.0024447499 -0.00011545455 -0.031275
-0.0077787503 -0.00011545455 -0.029945191
-0.0026670001 -0.00034636364 -0.01110625
0.0068897502 -0.00127 -0.033712979
-0.0024447499 0.00011545455 -0.014209135
-0.0024447499 -0.00011545455 -0.026620673
0 0.00034636364 -0.014652403
0.0053340001 0.00011545455 -0.037037499
-0.00733425 -0.00011545455 -0.030610096
0.0028892499 -0.00080818182 -0.03570769
0.0026670001 0.00034636364 -0.037259135
0.00733425 0.00011545455 0.0021918269
0.0062230001 -0.00127 -0.0013543268
0.00022225 0.00034636364 -0.021966346
-0.0066674999 -0.00127 -0.0004677884
0.0024447499 -0.00011545455 -0.015538942
-0.0026670001 0.00011545455 0.00064038468
-0.0042227502 0.00127 -0.034377884
0.00022225 0.00011545455 -0.024625961
-0.0053340001 0.00127 -0.034821153
-0.0024447499 0.00011545455 -0.0093331728
0.0075564999 0.00034636364 -0.015982211
-0.00044450001 0.00127 -0.035486057
0 0.00034636364 -0.019528365
0.0068897502 0.00011545455 -0.0022408653
-0.0026670001 0.00011545455 -0.013100961
-0.0053340001 -0.00011545455 -0.012436057
0.0024447499 -0.00011545455 -0.017976923
0.00066675001 -0.00127 -0.034377884
0.0026670001 -0.00127 -0.0004677884
-0.0048894999 -0.00034636364 -0.012436057
0.0077787503 -0.00057727273 -0.033491347
-0.0077787503 -0.00011545455 -0.014209135
-0.0086677503 0.00034636364 -0.0022408653
0.00022225 0.00034636364 -0.0042355768
0.0075564999 0.00127 -0.0020192307
-0.0057784999 0.00011545455 -2.4519173e-05
0.0026670001 -0.00011545455 -0.015095673
-0.0026670001 0.00011545455 -0.021079807
0.0024447499 0.00034636364 -0.0064519229
0.0075564999 0.00034636364 -0.027063942
-0.00111125 0.00011545455 -0.03570769
0.00022225 0.00011545455 -0.022852885
-0.00022225 0.00034636364 -0.037259135
0.0048894999 -0.00011545455 -0.0049004806
0.00733425 0.00011545455 -0.014430769
0.00022225 -0.00011545455 -0.021966346
0.0075564999 0.00034636364 -0.0055653844
0.00155575 0.00011545455 -0.033491347
-0.0075564999 -0.00034636364 -0.006895192
0.0053340001 -0.00011545455 -0.0040139421
-0.00644525 0.00127 -0.0015759615
0.0077787503 -0.0010390909 -0.034156248
0.0048894999 -0.00127 -0.034821153
0.0026670001 0.00034636364 -0.021744711
0.0024447499 -0.00011545455 -0.015982211
0.0026670001 0.00011545455 -0.01686875
-0.0077787503 -0.00011545455 -0.029723557
-0.00022225 -0.00011545455 -0.0062302882
0.0051117502 -0.00034636364 0.0013052885
0 0.00127 -0.0020192307
0.0022225 0.00011545455 -0.02750721
-0.00022225 0.00034636364 -0.031053364
-0.0024447499 -0.00011545455 -0.02218798
-0.0053340001 -0.00127 -0.034377884
0.0068897502 -0.00127 -0.0017975961
-0.0053340001 0.00011545455 -0.041026924
0.00022225 -0.00011545455 -0.038367309
-0.0053340001 -0.00011545455 -0.038367309
0.0062230001 0.00057727273 -0.03570769
-0.0022225 -0.00011545455 0.0010836539
-0.0051117502 0.00011545455 -0.014430769
-0.0051117502 0.00057727273 -0.033269711
-0.00022225 -0.00034636364 0.00064038468
-0.0077787503 0.00011545455 -0.039697114
0.0026670001 0.00011545455 -0.015982211
0.0051117502 -0.00011545455 -0.041691825
-0.0060007502 0.00080818182 -0.0002461538
-0.00377825 0.0010390909 -0.03570769
0.0026670001 0.00034636364 -0.023739422
-0.0024447499 0.00011545455 -0.0051221154
0.0084455004 0.0010390909 -0.034821153
-0.0060007502 0.00034636364 -0.03570769
-0.0040004998 -0.00034636364 -0.033491347
-0.00377825 0.0010390909 -0.0002461538
-0.00022225 0.00034636364 -0.014874038
0.00155575 0.00127 -0.0015759615
-0.0051117502 0.00034636364 -0.032383174
-0.0075564999 0.00011545455 -0.018198557
-0.0024447499 -0.00011545455 -0.039475478
-0.0024447499 -0.00011545455 -0.039253846
0.00111125 -0.00011545455 -0.033491347
0.0026670001 -0.00034636364 0.0015269232
0.00111125 -0.00011545455 -0.03570769
0.0051117502 0.00011545455 -0.0082249995
0.0075564999 -0.00011545455 -0.011549519
0.0051117502 0.00011545455 -0.030610096
0.00066675001 0.00127 -0.0013543268
0.00022225 0.00034636364 -0.0073384615
-0.0022225 0.0010390909 -0.0022408653
-0.0060007502 -0.00127 -0.00091105764
-0.0013335 0.00080818182 -0.0002461538
0.0068897502 0.0010390909 -0.033491347
0.0053340001 0.00011545455 -0.018198557
-0.0035560001 -0.00034636364 -0.03570769
0.0077787503 -0.00011545455 -0.027063942
-0.0026670001 -0.00080818182 -0.03570769
-0.0068897502 -0.00127 -0.0024625
-0.0048894999 -0.00011545455 -0.021079807
0.0048894999 0.00034636364 -0.032383174
-0.0048894999 0.00127 -0.0017975961
-0.0024447499 -0.00034636364 -0.016203845
-0.00022225 0.00034636364 -0.025734134
-0.00022225 -0.00034636364 -0.021301443
-0.00111125 0.00011545455 -0.0022408653
-0.00111125 0.00080818182 -0.033491347
-0.0026670001 0.00034636364 -0.041470192
0.0026670001 -0.00127 -0.034156248
0.00733425 0.00011545455 -0.01930673
-0.0048894999 -0.00011545455 -0.0093331728
0.0033337499 0.00011545455 -2.4519173e-05
0.0024447499 -0.00011545455 -0.01110625
-0.00044450001 -0.00127 -0.0004677884
0.00555625 0.00127 -0.03459952
0.0075564999 0.00034636364 0.0013052885
-0.0024447499 0.00011545455 -0.036150962
-0.0088900002 -0.00011545455 -0.03459952
0.0053340001 0.00011545455 -0.002905769
0.00022225 0.00011545455 -0.017976923
0.0031115001 -0.00127 -0.034377884
0.0075564999 -0.00011545455 -0.002905769
-0.0053340001 -0.00011545455 -0.02218798
0.0077787503 0.00127 -0.0004677884
0.0077787503 0.00057727273 -0.0024625
0.0060007502 -0.00127 -0.0017975961
0.00022225 0.00034636364 -0.041248556
-0.00088900002 -0.00127 -0.0013543268
0.0028892499 -0.00011545455 -2.4519173e-05
-0.00022225 0.00127 -0.033712979
0.0075564999 0.00034636364 -0.032161538
-0.0048894999 0.00011545455 -0.0071168267
-0.0057784999 0.00127 -0.033712979
0.00022225 -0.00057727273 -0.0002461538
-0.0035560001 0.00127 -0.033934616
-0.0075564999 0.00011545455 -0.038367309
-0.0051117502 0.00011545455 -0.0099980766
0.00022225 0.00011545455 -0.012214423
0.0053340001 -0.00011545455 -0.0082249995
0.0051117502 0.00011545455 -0.039697114
0 0.00034636364 -0.038145673
0.0022225 0.00011545455 -0.0066735577
0.00022225 0.00011545455 -0.011549519
-0.0042227502 0.00127 -0.0013543268
0.0075564999 -0.00011545455 -0.040140383
0.0024447499 -0.00011545455 -0.027063942
0.00022225 0.00011545455 -0.014652403
-0.00466725 -0.00034636364 -0.033269711
0.0026670001 0.00057727273 -0.033269711
0.00022225 0.00011545455 -0.0093331728
0.00022225 0.00011545455 -0.019528365
0.0022225 0.00011545455 0.0019701924
-0.0048894999 -0.00034636364 -0.031718269
-0.0053340001 -0.00011545455 -0.0091115385
-0.00022225 0.00011545455 -0.019749999
-0.00022225 -0.00034636364 -0.041248556
0.001778 -0.00080818182 -0.0024625
-0.00044450001 -0.00057727273 -0.0002461538
-0.0051117502 0.00034636364 -0.039918751
0.0057784999 -0.00127 -0.035486057
0.00022225 0.00034636364 0.00019711544
-0.0086677503 0.00057727273 -0.035264421
0.0077787503 -0.00011545455 -0.018863462
0.0077787503 0.00080818182 -0.0022408653
-0.00377825 -0.00127 -0.033491347
0.0077787503 -0.00011545455 -0.0042355768
0.0077787503 -0.00011545455 -0.030166827
-0.0051117502 0.00034636364 -0.029058654
-0.0082232505 -0.0010390909 -0.0011326922
0.0024447499 -0.00011545455 -0.0044572116
0.0051117502 0.00011545455 -0.012214423
-0.0086677503 0.00080818182 -0.033934616
0.00022225 -0.00034636364 -0.0077817305
-0.00088900002 0.00127 -0.0015759615
0.0026670001 -0.00011545455 -0.032826442
0.0077787503 -0.00011545455 -0.006895192
0.00022225 0.00034636364 -0.019528365
-0.00377825 -0.00127 -0.0002461538
0.0022225 -0.00127 -0.0020192307
-0.00733425 -0.00127 -0.000689423
-0.0024447499 0.00011545455 -0.032826442
-0.0024447499 -0.00034636364 -0.011992788
0.00155575 -0.00034636364 -2.4519173e-05
0.0048894999 0.00011545455 -0.020636538
0.0035560001 0.00127 -0.0017975961
0 -0.00034636364 0.0010836539
-0.00111125 -0.00127 -0.035042789
0.0048894999 0.00011545455 0.00019711544
0.00555625 -0.00127 -0.0002461538
0.0053340001 -0.00011545455 -0.031053364
-0.0026670001 0.00011545455 -0.0097764423
-0.0068897502 0.00127 -0.033712979
0.0057784999 0.00080818182 -2.4519173e-05
0.0048894999 0.00011545455 -0.0099980766
0.0026670001 -0.00011545455 -0.013987499
0.0040004998 -0.00057727273 -0.03570769
-0.0086677503 -0.0010390909 -0.0013543268
0.0013335 -0.00057727273 -0.033491347
-0.0031115001 -0.00080818182 -0.0022408653
-0.0053340001 0.00127 -0.035264421
-0.0062230001 -0.00127 -0.000689423
-0.0088900002 0.00034636364 -0.034821153
-0.0077787503 0.00011545455 0.00019711544
-0.00044450001 -0.0010390909 -0.03570769
-0.0026670001 0.00011545455 -0.010884616
-0.0048894999 -0.00011545455 -0.020858172
0.00022225 0.00011545455 -0.01066298
-0.0053340001 0.00011545455 -0.020193269
0.0057784999 -0.00127 -0.0013543268
-0.0048894999 0.00011545455 -0.029280288
-0.0026670001 -0.00034636364 -0.037259135
-0.0028892499 0.00127 -0.0017975961
0.0020002499 -0.00034636364 -0.0022408653
0.0044450001 -0.00080818182 -0.033491347
0.00088900002 0.00127 -0.033712979
-0.00111125 0.00127 -0.034377884
0.0042227502 0.00011545455 -2.4519173e-05
-0.0071120001 -0.0010390909 -0.033491347
0.0031115001 -0.0010390909 -0.03570769
0.0077787503 0.00011545455 -0.017976923
0.0042227502 0.00127 -0.03570769
0.0084455004 -0.0010390909 -0.035486057
0.0068897502 0.00080818182 -0.03570769
0.0022225 0.00011545455 -0.014652403
0.0026670001 -0.00011545455 -0.028393749
-0.00022225 -0.00011545455 -0.031718269
-0.0024447499 -0.00034636364 -0.014652403
-0.0068897502 -0.00057727273 -0.0002461538
0.00733425 -0.00127 -0.034377884
-0.00022225 0.00034636364 -0.025290865
0.00022225 0.00011545455 -0.0075600957
-0.0035560001 -0.00127 -0.035486057
0 0.00034636364 -0.023074519
0.00088900002 0.00127 -0.033934616
-0.0040004998 -0.0010390909 -0.03570769
-0.0075564999 -0.00034636364 -0.027063942
-0.0066674999 -0.00011545455 -0.0022408653
-0.0022225 -0.0010390909 -2.4519173e-05
-0.0044450001 0.0010390909 -0.033712979
-0.00733425 -0.00011545455 -0.039918751
0.0066674999 -0.00034636364 -0.033491347
-0.001778 0.00127 -0.033712979
-0.00066675001 -0.00011545455 -0.0022408653
-0.0051117502 0.00011545455 -0.0026841345
0.00088900002 -0.00127 -0.0022408653
0.0051117502 -0.00034636364 -0.018198557
0.0053340001 -0.00011545455 -0.022852885
-0.0053340001 -0.00011545455 -0.026177403
0.0071120001 -0.00011545455 -0.0024625
0.0024447499 -0.00011545455 -0.025069231
-0.0022225 0.00127 -0.0011326922
0.0068897502 -0.00127 -0.034821153
0.0051117502 0.00011545455 -0.016203845
-0.0062230001 -0.00057727273 -0.033491347
0.0026670001 -0.00011545455 -0.025069231
0.0075564999 0.00034636364 0.00064038468
-0.00022225 0.00011545455 -0.03903221
-0.00022225 0.00034636364 -0.0044572116
-0.0033337499 0.00127 -0.0017975961
-0.0077787503 0.00011545455 -0.027950481
0.0022225 0.00011545455 -0.0044572116
0.0075564999 -0.00080818182 -0.033712979
0.0048894999 -0.00011545455 -0.0053437497
-0.0044450001 -0.00080818182 -2.4519173e-05
-0.0053340001 -0.00011545455 -0.030610096
0.00466725 0.0010390909 -0.033712979
0.0075564999 -0.00011545455 -0.029501922
0.0077787503 -0.00127 -0.035264421
-0.0024447499 -0.00034636364 -0.006895192
0 0.00034636364 -0.0097764423
-0.0031115001 -0.00127 -0.034156248
0.00022225 -0.00034636364 -0.039253846
-0.00733425 -0.00011545455 -0.040140383
0.0088900002 -0.00034636364 -0.0011326922
0.0075564999 -0.00011545455 0.0010836539
0.0035560001 -0.00080818182 -0.0022408653
0.0040004998 0.00034636364 -0.033491347
0.00644525 -0.0010390909 -0.034156248
0.00111125 -0.00011545455 -2.4519173e-05
0.0077787503 0.00011545455 -0.039697114
-0.00377825 -0.00127 -0.0017975961
0.0013335 0.00034636364 -0.0022408653
-0.00022225 -0.00034636364 -0.040583652
0.0075564999 -0.00011545455 -0.0042355768
-0.00044450001 -0.0010390909 -0.0022408653
0.0026670001 0.00034636364 -0.025290865
-0.0026670001 0.00011545455 -0.01110625
0.0080009997 0.00011545455 -0.033491347
-0.0026670001 0.00011545455 -0.02218798
-0.00733425 -0.00011545455 -0.0035706731
-0.0075564999 -0.00034636364 -0.035929326
0.0084455004 -0.0010390909 -0.034821153
-0.00022225 -0.00011545455 -0.015095673
0.0077787503 0.00011545455 -0.026177403
0 -0.00034636364 -0.010441346
0.0053340001 0.00127 -0.03570769
-0.00733425 -0.00011545455 -0.01110625
-0.00022225 -0.00034636364 -0.0057870192
0.0044450001 0.00011545455 -0.0022408653
-0.0053340001 0.00011545455 0.0024134615
0.00733425 0.00011545455 -0.014652403
0.0026670001 0.00034636364 -0.0037923076
-0.0044450001 0.00034636364 -0.0022408653
0.0028892499 0.00127 -0.033712979
0.0051117502 -0.00034636364 0.0017485577
0.0024447499 -0.00011545455 -0.023739422
-0.0075564999 -0.00034636364 -0.0057870192
-0.0080009997 -0.0010390909 -0.0022408653
-0.00022225 0.00011545455 -0.015095673
0.0051117502 0.00011545455 -0.040583652
-0.00022225 0.00034636364 -0.037480768
0 0.00034636364 -0.011992788
-0.0053340001 0.00011545455 -0.015317308
-0.0062230001 0.00080818182 -0.0022408653
0.0048894999 0.00011545455 -0.030388461
0.0024447499 -0.00127 -0.03459952
-0.00022225 -0.00011545455 -0.02263125
0.0042227502 -0.00127 -0.03570769
0.0020002499 0.00127 -0.033712979
-0.0062230001 0.00080818182 -0.0002461538
0 -0.00034636364 -0.017976923
-0.0048894999 -0.00034636364 -0.021301443
0.0048894999 -0.00011545455 -0.039253846
-0.0053340001 -0.00011545455 -0.010441346
0.0026670001 -0.00011545455 -0.029945191
-0.0075564999 -0.00080818182 -0.033491347
0.0026670001 -0.0010390909 -0.0022408653
0.0026670001 0.00034636364 -0.0057870192
-0.00733425 -0.00011545455 -0.024182692
0.0077787503 0.00011545455 -0.039918751
-0.0026670001 0.00034636364 -0.028393749
0.0026670001 0.00011545455 -0.013987499
-0.0057784999 0.00080818182 -0.033712979
-0.00466725 -0.00127 -0.0017975961
0.0022225 0.00127 -0.035486057
-0.00022225 -0.00011545455 -0.0082249995
0.0077787503 -0.00011545455 -0.038810577
-0.0024447499 -0.00034636364 -0.0040139421
0.0031115001 0.00127 -0.035264421
-0.0066674999 0.00080818182 -0.0002461538
-0.00022225 -0.00011545455 -0.017976923
-0.0026670001 0.00011545455 -0.037037499
0.0026670001 0.00011545455 -0.024625961
-0.0028892499 0.00127 -0.034377884
0.0071120001 0.0010390909 -0.033934616
-0.0053340001 -0.00011545455 -0.019749999
-0.0071120001 0.00080818182 -0.0002461538
0.0086677503 -0.00011545455 -0.035486057
-0.0048894999 -0.00011545455 -0.023961058
0.00733425 -0.00127 -0.035042789
0.0022225 0.00011545455 -0.023517787
0.0048894999 -0.0010390909 -0.033934616
-0.0048894999 -0.00011545455 -0.01930673
-0.0060007502 0.00011545455 -2.4519173e-05
-0.0026670001 -0.00034636364 -0.028615383
0.00022225 -0.00011545455 -0.013100961
-0.0024447499 0.00057727273 -0.0024625
-0.0026670001 0.00034636364 -0.021079807
-0.00155575 -0.00127 -0.034821153
-0.0075564999 0.00011545455 -0.0066735577
0.0060007502 -0.00127 -0.0002461538
-0.00733425 -0.00011545455 -0.011771154
-0.0026670001 0.00034636364 -0.038367309
0.00022225 -0.00127 -0.0004677884
0 -0.00127 -0.0017975961
0.0044450001 -0.00057727273 -0.0022408653
-0.0048894999 -0.00011545455 -0.013987499
0.0044450001 -0.00127 -0.035042789
-0.00022225 0.00011545455 -0.006895192
0.00733425 0.00011545455 -0.01686875
0.0033337499 -0.00080818182 -0.033491347
0.0077787503 0.00011545455 -0.041248556
0.0077787503 -0.00011545455 -0.033269711
-0.00733425 -0.00127 -0.0004677884
0.0077787503 -0.00011545455 -0.0062302882
0.0024447499 0.00011545455 -0.040583652
0.0048894999 -0.00011545455 -0.014209135
0.0028892499 0.00057727273 -0.035929326
0.0048894999 -0.00011545455 -0.025290865
0.00022225 0.00034636364 -0.019085096
0.0080009997 0.0010390909 -0.035042789
0.0020002499 0.00034636364 -0.035929326
-0.0077787503 -0.00011545455 -0.015095673
0.0026670001 -0.00011545455 0.00019711544
0.0051117502 0.00034636364 -0.036815863
-0.0026670001 0.00034636364 -0.040362019
0.0077787503 0.00011545455 -0.010441346
0.00022225 0.00034636364 -0.026399039
-0.0075564999 0.00011545455 -0.031939901
-0.00111125 0.00127 -0.033491347
-0.0077787503 0.00011545455 -0.018641826
0.0035560001 -0.00127 -0.035486057
-0.0053340001 0.00011545455 -0.019528365
-0.0075564999 -0.00034636364 -0.0060086539
-0.00022225 -0.00011545455 -0.031053364
0.0024447499 0.00034636364 -0.013100961
0.00022225 -0.00034636364 -0.013987499
-0.0066674999 0.00127 -0.00091105764
0.00022225 0.00011545455 -0.037259135
0.0077787503 0.00011545455 -0.0026841345
-0.0060007502 -0.00127 -0.0002461538
0.00022225 0.00011545455 -0.029723557
0.00022225 -0.00011545455 -0.024625961
0.00733425 0.00011545455 -0.011549519
0.0053340001 -0.00011545455 -0.018420191
0.0068897502 -0.00011545455 -0.033491347
0.0026670001 0.00011545455 -0.040805288
0.0020002499 -0.00057727273 -0.0022408653
-0.00088900002 0.00034636364 -0.0022408653
0.0026670001 -0.00011545455 -0.038588941
-0.0051117502 0.00011545455 -0.015095673
-0.0062230001 -0.00080818182 -2.4519173e-05
-0.0024447499 -0.00011545455 -0.0091115385
0.0044450001 0.00011545455 -0.03570769
0.0026670001 -0.00034636364 -0.037259135
-0.0033337499 -0.00127 -0.033712979
-0.00111125 0.00011545455 -0.033491347
0.00066675001 -0.00057727273 -0.03570769
-0.0068897502 -0.00080818182 -0.03570769
-0.00644525 0.00057727273 -0.03570769
0.00066675001 -0.00057727273 -0.0002461538
-0.00022225 -0.00011545455 -0.0035706731
0 -0.00034636364 -0.0093331728
-0.0035560001 0.00127 -0.00091105764
-0.0026670001 -0.00034636364 -0.020414904
0.00733425 0.00011545455 -0.027950481
0 -0.00127 -0.00091105764
0.0028892499 -0.00034636364 -2.4519173e-05
-0.0088900002 0.00034636364 -0.000689423
-0.0026670001 -0.00034636364 -0.0026841345
0.0051117502 -0.00127 -0.0020192307
-0.0053340001 0.00011545455 0.00064038468
0.0026670001 0.00127 -0.03570769
0.0044450001 0.00127 -0.034377884
0.00555625 0.00057727273 -0.033491347
0.0024447499 0.00034636364 0.00041875005
0.00644525 -0.00011545455 -0.0022408653
0.00044450001 0.00080818182 -0.03570769
-0.0048894999 -0.00011545455 -0.013765865
-0.0048894999 -0.00127 -0.033934616
0.0042227502 0.00057727273 -0.035929326
0.0086677503 -0.00080818182 -0.00091105764
0.0020002499 0.00034636364 -0.0022408653
-0.0048894999 -0.00034636364 -0.032826442
-0.0077787503 -0.00011545455 -0.0051221154
0.0053340001 0.00011545455 -0.0057870192
-0.0042227502 -0.00127 -0.0011326922
-0.0075564999 0.00011545455 -0.027285576
0.0022225 0.00011545455 -0.027950481
0.00733425 -0.00057727273 -0.03570769
-0.0075564999 0.00011545455 -0.01110625
0.0024447499 -0.00011545455 -0.040362019
-0.0024447499 -0.00011545455 -0.041691825
0.0075564999 -0.00011545455 -0.038367309
0.0040004998 -0.00080818182 -0.0002461538
0.0048894999 0.00011545455 -0.016647115
0.0026670001 0.00011545455 -0.032161538
0.0026670001 -0.00011545455 0.00041875005
0.00644525 -0.00127 -0.034821153
-0.0051117502 -0.00034636364 -0.0093331728
0.0075564999 -0.00011545455 -0.0082249995
0.0044450001 0.00034636364 -0.0022408653
0.0062230001 -0.00057727273 -0.0004677884
-0.0026670001 0.00034636364 0.0021918269
-0.0024447499 -0.00034636364 -0.021301443
0.0086677503 -0.00080818182 -0.034377884
-0.0082232505 -0.00034636364 -2.4519173e-05
-0.0053340001 0.00127 -0.0004677884
0.00022225 0.00034636364 -0.013987499
-0.0040004998 -0.00034636364 -0.03570769
0.0077787503 0.0010390909 -0.034156248
0 -0.00057727273 -0.0024625
0.00733425 -0.00034636364 -0.0022408653
0.00022225 0.00011545455 -0.010219711
-0.0077787503 -0.00011545455 -0.023074519
-0.0035560001 0.00080818182 -0.0022408653
-0.0026670001 -0.00011545455 -0.014209135
0.0075564999 0.00034636364 -0.019085096
-0.0051117502 0.00011545455 0.00064038468
-0.0026670001 0.00034636364 -0.0055653844
-0.0024447499 -0.0010390909 -0.033491347
0.0053340001 -0.00011545455 0.0019701924
0.0022225 -0.00127 -0.0022408653
0.0048894999 0.00011545455 -0.020414904
0.0033337499 -0.00080818182 -0.0002461538
0.0051117502 -0.00034636364 -0.02218798
0.0060007502 0.00127 -0.0002461538
0.00733425 0.00011545455 -0.015760576
0.00022225 -0.00011545455 -0.02883702
-0.0077787503 0.00011545455 -0.013100961
-0.0080009997 -0.00080818182 -0.033491347
-0.0068897502 0.00057727273 -0.033491347
-0.0053340001 -0.00011545455 -0.038145673
-0.0026670001 0.00011545455 -0.038810577
0.0051117502 0.00011545455 -0.011771154
0.0088900002 -0.00034636364 -0.000689423
-0.001778 0.00127 -0.0002461538
0.0033337499 -0.00011545455 -0.0022408653
0.0077787503 0.00034636364 -0.03570769
0.0048894999 -0.00011545455 -0.0088899033
-0.0024447499 -0.00034636364 0.0019701924
0.0053340001 0.00011545455 -0.030610096
-0.0077787503 -0.00011545455 -0.036815863
-0.00155575 -0.00127 -0.0015759615
0.0026670001 0.00034636364 -0.0053437497
-0.00733425 -0.00011545455 -0.016203845
0.0080009997 -0.0010390909 -0.034821153
-0.00088900002 0.00127 -0.0011326922
-0.0026670001 0.00011545455 -0.020636538
-0.00022225 -0.00034636364 -0.0088899033
0.0024447499 0.00034636364 -0.031939901
-0.0051117502 -0.00011545455 -0.025955768
0.0051117502 0.00034636364 0.00064038468
-0.0051117502 0.00011545455 -0.01930673
-0.00022225 0.00011545455 -0.037259135
0.00733425 -0.00034636364 -0.033491347
-0.0026670001 -0.00034636364 -0.0095548071
0.0077787503 0.00011545455 -0.0093331728
-0.0053340001 -0.00011545455 0.0015269232
-0.0024447499 0.00057727273 -0.033491347
0.0075564999 -0.00011545455 -0.033269711
-0.0051117502 0.00034636364 -0.041248556
0.0051117502 0.00011545455 -0.0060086539
-0.0084455004 0.0010390909 -0.0013543268
0.001778 0.00127 -0.03459952
-0.0026670001 -0.00034636364 -0.018198557
0.00155575 0.00057727273 -0.0022408653
-0.0048894999 -0.00011545455 -0.032826442
0.0051117502 -0.00127 -0.034377884
0.0053340001 0.00127 -0.0022408653
0.0026670001 0.00034636364 -0.013765865
0.0084455004 0.0010390909 -2.4519173e-05
0.0022225 0.00011545455 -0.013322596
0.0024447499 0.00080818182 -0.03570769
-0.0051117502 -0.00127 -0.034156248
-0.0024447499 0.00057727273 -0.03570769
-0.0068897502 0.00057727273 -0.0002461538
-0.0048894999 -0.00127 -0.000689423
0.0028892499 0.00080818182 -0.0022408653
-0.0053340001 -0.00011545455 -0.0046788459
-0.0026670001 -0.00080818182 -0.0002461538
0.00044450001 -0.00034636364 -2.4519173e-05
0.0033337499 -0.00127 -0.03459952
0.0077787503 0.00011545455 -0.0075600957
0.0075564999 -0.00034636364 -0.03570769
0.00022225 0.00011545455 -0.031939901
0.0053340001 -0.00011545455 -0.013765865
-0.0077787503 0.00011545455 -0.0053437497
-0.0048894999 -0.00127 -0.034156248
-0.0026670001 -0.00011545455 -0.036372595
0.0051117502 0.00011545455 -0.020414904
