# .PCD v0.7 - Point Cloud Data file format
VERSION 0.7
FIELDS x y z
SIZE 4 4 4
TYPE F F F
COUNT 1 1 1
WIDTH 1284
HEIGHT 1
VIEWPOINT 0 0 0 1 0 0 0
POINTS 1284
DATA ascii
-0.0023213243 -0.000635 -0.017325001
-0.0077713905 0.000635 -0.0023617649
0.0011101987 -0.00021166667 -0.023188971
0.0013120529 -0.00021166667 -0.0076191179
0.0015139072 0 -0.0037772062
0.0051472848 0.00127 -0.01590956
0.0023213243 0.0010583333 -0.017325001
0.015038145 0.000635 -0.0019573532
-0.011202914 0.00021166667 -0.011258824
-0.0015139072 -0.00127 -0.015302942
-0.013423311 0.0010583333 -0.017325001
0.00010092715 -0.00127 -0.00074411777
-0.0095880795 -0.0010583333 -0.017325001
0.0013120529 0.00021166667 0.0024911764
-0.0055509931 -0.0010583333 -0.0023617649
0.012212185 -0.00127 -0.0019573532
0.008780662 0.00127 -0.016111765
0.0061565563 0 0.0012779412
0.0089825159 -0.00021166667 -0.0033727943
-0.0029268872 0 -0.015100736
0.013019602 -0.000635 -0.015100736
0.0029268872 0.00084666669 -0.015505147
0.014028873 0 -0.0053948532
-0.012817748 -0.00127 -0.016718382
-0.008780662 -0.00021166667 -0.017931618
-0.0011101987 0.00021166667 -0.014089706
0.012817748 -0.00127 -0.0013507354
-0.0035324502 0 -0.013483088
-0.012212185 -0.000635 -0.00033970599
0.0053491388 0.0010583333 -0.017325001
0.0037343046 0.00127 -0.0017551472
-0.008578808 0 -0.018740442
0.011001059 -0.00127 -0.015707353
-0.013827019 0 -0.0047882358
0.0057528475 -0.000635 -0.017325001
0.0037343046 -0.00021166667 -0.0094389711
-0.0031287416 0.00127 -0.016718382
0.0065602646 -0.00127 -0.0023617649
0.0077713905 0.00021166667 -0.0023617649
0.013423311 0.00127 -0.0021595589
0.0061565563 0.00021166667 -0.021369118
-0.011606622 0 0.00026691167
-0.014230728 -0.00021166667 -0.0080235293
0.00070649007 -0.00042333335 -0.017325001
-0.00070649007 0 -0.0001375001
0.003936159 0.00021166667 -0.021369118
-0.0025231787 0.00021166667 -0.015100736
-0.014836291 -0.0010583333 -0.0021595589
0.0071658278 0.00127 -0.016516177
0.010597351 0.00127 -0.017325001
-0.011606622 0.00021166667 -0.014494118
-0.0015139072 -0.00021166667 -0.0047882358
-0.00050463574 -0.00042333335 -0.0023617649
0.0065602646 0.00021166667 -0.010652206
0.008578808 0 -0.0138875
-0.0045417217 -0.00127 -0.016718382
0.0091843707 0.0010583333 -0.017325001
0.010193642 -0.00127 -0.00054191187
-0.0011101987 0 -0.018133825
0.012414039 0.000635 -0.015100736
0.008780662 0.00042333335 -0.014494118
0.0051472848 0.00127 -0.0017551472
0.003936159 0.00021166667 -0.019751471
0.011202914 0 0.0020867647
0.0065602646 0.00042333335 -0.017729413
0.013423311 0.00021166667 -0.015100736
0.010193642 0.00021166667 -0.015100736
0.011202914 0.000635 -0.017527206
0.0053491388 0.00042333335 -0.017325001
-0.0035324502 -0.000635 -0.0023617649
0.0037343046 0.00127 -0.00074411777
0.00050463574 -0.00127 -0.0015529413
0.015038145 -0.00084666669 -0.015302942
-0.011808476 -0.00127 -0.017325001
-0.008780662 -0.00127 -0.0015529413
-0.014836291 0.0010583333 -0.017325001
0.0035324502 0 -0.022986766
-0.00070649007 0.00127 -0.00074411777
-0.011404768 0.00021166667 -0.013078677
0.0013120529 0.000635 -0.015707353
0.0073676817 -0.000635 -0.017325001
-0.0035324502 -0.00021166667 -0.011258824
0.0059547019 0.00084666669 -0.0001375001
0.00050463574 0.00127 -0.017325001
-0.0013120529 0 0.003097794
-0.0063584102 0.00021166667 -0.011056618
-0.0029268872 -0.00127 -0.00033970599
0.011404768 0.00021166667 -0.0092367651
0.0017157615 0.00042333335 -0.0023617649
-0.0021194702 0.00127 -0.01590956
-0.0043398673 -0.00127 -0.0019573532
0.0077713905 -0.00127 -0.016111765
0.0063584102 -0.0010583333 -0.015100736
0.0089825159 -0.00021166667 -0.022784559
-0.0049454304 0.0010583333 -0.0001375001
-0.0061565563 0.00021166667 -0.011056618
-0.004743576 -0.00042333335 -0.015100736
0.0077713905 -0.000635 -0.00033970599
-0.0095880795 0.00127 -0.0021595589
0.0011101987 0 -0.0051926472
-0.0061565563 0 -0.021369118
0.00070649007 0.00084666669 -0.015707353
-0.00070649007 -0.00127 -0.0013507354
0.00010092715 -0.00127 -0.00094632368
-0.012817748 0.00127 -0.0001375001
-0.010395496 0.00084666669 -0.0001375001
0.0069639734 -0.00127 -0.0015529413
-0.00070649007 -0.00127 -0.015505147
-0.0029268872 -0.00127 -0.017325001
0.0061565563 -0.00021166667 -0.0035750002
-0.0063584102 -0.00127 -0.01590956
0.008780662 0.00021166667 0.0028955883
0.0063584102 0.0010583333 -0.015302942
0.0061565563 0.00021166667 -0.014494118
0.0099917874 -0.00127 -0.016516177
-0.0083769532 0.000635 -0.015100736
0.0061565563 -0.00021166667 -0.010854412
0.00010092715 -0.00127 -0.017122794
0.0095880795 -0.00084666669 -0.0001375001
-0.0031287416 -0.00127 -0.016516177
0.011606622 0 -0.011258824
-0.0037343046 0.00021166667 0.00046911757
0.010799205 -0.00127 -0.00074411777
0.013221457 -0.00042333335 -0.017325001
-0.008780662 -0.00021166667 -0.021369118
-0.011202914 0 -0.0076191179
-0.0025231787 -0.00021166667 -0.0023617649
0.0065602646 0.00021166667 0.0022889706
-0.0015139072 0.00021166667 -0.0072147064
-0.013827019 0.00021166667 -0.014696324
-0.0029268872 -0.00127 -0.0013507354
0.0049454304 0.00084666669 -0.0001375001
-0.0015139072 -0.00021166667 -0.0062036766
0.013221457 0.00127 -0.0011485296
-0.0093862247 -0.00127 -0.0021595589
0.0023213243 -0.000635 -0.017325001
0.014028873 -0.00021166667 -0.017729413
0.0037343046 0.00042333335 -0.00033970599
0.0025231787 -0.00021166667 -0.015100736
-0.0061565563 0.00021166667 -0.017931618
0.011202914 -0.00127 -0.015302942
-0.0073676817 0.00084666669 -0.0023617649
0.014432582 -0.00084666669 -0.0001375001
0.0059547019 0.00127 -0.0019573532
0.011404768 -0.00042333335 -0.015100736
-0.013221457 -0.00127 -0.00074411777
0.008780662 0.00127 -0.017122794
0.014230728 0.00021166667 0.0010757352
0.010395496 0.00127 -0.0017551472
0.0055509931 0.00084666669 -0.0001375001
-0.0031287416 0.00127 -0.0013507354
-0.0089825159 -0.00021166667 0.001480147
0.0095880795 0.000635 -0.0023617649
-0.0015139072 0.00084666669 -0.017325001
-0.013827019 0.00084666669 -0.00033970599
-0.0035324502 -0.00042333335 -0.0023617649
0.011808476 -0.00127 -0.00094632368
0.0073676817 0.00084666669 -0.017325001
-0.0031287416 -0.00127 -0.0023617649
0.0081750993 -0.00127 -0.017325001
0.0031287416 0.00042333335 -0.015100736
-0.0035324502 -0.00127 -0.0017551472
0.0057528475 0.00127 -0.016111765
-0.014028873 -0.00021166667 0.0028955883
0.015038145 0.00021166667 -0.015505147
0.0021194702 0.00127 -0.0023617649
0.014634437 0.00127 -0.016111765
0.0017157615 -0.00127 -0.015707353
0.0091843707 -0.00042333335 -0.015100736
0.011404768 -0.00021166667 -0.021369118
-0.0065602646 0 -0.0027661766
-0.0011101987 0.00084666669 -0.015505147
-0.0065602646 0.00021166667 0.00046911757
-0.0037343046 0.00021166667 -0.0053948532
-0.0011101987 0 -0.023188971
-0.008780662 -0.00021166667 -0.0088323532
0.011202914 0 -0.021166913
0.003936159 -0.00021166667 6.470579e-05
0.0015139072 -0.00021166667 -0.022582354
0.0011101987 0.00021166667 -0.011663236
0.00050463574 -0.00042333335 -0.00033970599
-0.0037343046 0.00021166667 -0.020560294
0.014028873 0.00021166667 -0.01833603
-0.0021194702 0.00127 -0.00033970599
0.0035324502 -0.00021166667 0.001480147
0.0013120529 -0.00021166667 -0.0084279412
-0.008578808 0.00021166667 -0.0001375001
0.011606622 0 -0.01146103
-0.0063584102 -0.00042333335 -0.014696324
-0.0023213243 0.000635 -0.015505147
0.0077713905 0.00127 -0.017325001
0.0037343046 -0.00021166667 -0.020964706
-0.0013120529 -0.00021166667 -0.020964706
0.015038145 -0.00021166667 -0.0017551472
0.0053491388 -0.00127 -0.0015529413
-0.0061565563 0 -0.012067648
-0.013625165 -0.00127 -0.017122794
-0.008578808 0.00127 -0.0001375001
-0.008780662 0.00127 -0.016718382
-0.0017157615 0.00127 -0.0011485296
0.0063584102 0.00021166667 -0.021369118
0.011404768 -0.00021166667 -0.011056618
0.011001059 -0.00084666669 -0.0001375001
0.0071658278 -0.00042333335 -0.0023617649
0.0075695361 -0.00084666669 -0.015302942
-0.0013120529 -0.00042333335 -0.00033970599
-0.008780662 0.00021166667 0.0018845588
0.008578808 0 -0.0074169119
0.0011101987 0.00127 -0.0019573532
-0.0091843707 -0.00127 -0.0011485296
0.015038145 -0.000635 -0.00094632368
0.0083769532 0.00127 -0.0021595589
0.0061565563 -0.00021166667 -0.018538237
-0.0061565563 0.00021166667 -0.0047882358
-0.0031287416 -0.00084666669 -0.0023617649
0.0021194702 0.00021166667 -0.0023617649
-0.0079732444 0 -0.015100736
-0.010193642 -0.00127 -0.01590956
-0.00050463574 0.00127 -0.01590956
-0.0065602646 -0.00127 -0.016111765
0.0065602646 0 -0.018942649
0.0037343046 -0.00021166667 -0.018740442
0.0015139072 -0.00042333335 -0.0023617649
-0.0097899335 -0.00084666669 -0.017325001
0.0065602646 -0.00021166667 -0.0031705885
0.014028873 -0.00021166667 -0.0064058825
0.0011101987 -0.00127 -0.00033970599
-0.0079732444 -0.00127 -0.0011485296
-0.0049454304 0.00127 -0.016111765
-0.0061565563 0 -0.023188971
-0.0073676817 -0.00127 -0.015302942
0.003936159 -0.00021166667 -0.0068102945
0.003936159 -0.00127 -0.017122794
-0.0011101987 0.0010583333 -0.017325001
0.003330596 -0.00127 -0.0015529413
0.0045417217 -0.00127 -0.017122794
-0.0089825159 0 -0.0070125004
-0.0015139072 0 0.0024911764
0.012414039 0.00084666669 -0.0023617649
0.0029268872 0.00042333335 -0.015100736
-0.0043398673 0.00127 -0.0011485296
0.012615894 0.00127 -0.00033970599
0.0013120529 0.00021166667 -0.018740442
-0.008780662 0.00127 -0.0017551472
-0.014028873 -0.00021166667 -0.0055970591
-0.0055509931 -0.0010583333 -0.015505147
0.0065602646 0 -0.022380147
-0.0061565563 0 -0.01045
0.00010092715 0.00021166667 -0.0001375001
-0.0013120529 0.00021166667 -0.012876472
0.0029268872 0.00021166667 -0.0001375001
0.014230728 0.00084666669 -0.015302942
-0.014432582 -0.00127 -0.016718382
-0.0089825159 0 0.0022889706
0.0089825159 0 -0.012269854
-0.012615894 0.00127 -0.017122794
0.0065602646 0 -0.019347059
0.0075695361 0.00127 -0.016313972
0.00090834434 -0.00127 -0.00074411777
0.013827019 0.00021166667 -0.0078213243
0.011404768 0.00021166667 0.0020867647
0.0065602646 0.00021166667 -0.014089706
-0.0025231787 0.00127 -0.0013507354
-0.013827019 0 -0.0070125004
-0.008780662 0 -0.023593383
0.012212185 0.00021166667 -0.015100736
0.0029268872 0.00042333335 -0.00033970599
0.0043398673 0 -0.0023617649
-0.0011101987 -0.00021166667 -0.019751471
0.0031287416 0.00042333335 -0.015302942
-0.0065602646 -0.00021166667 -0.009843383
-0.008780662 -0.000635 -0.00033970599
0.0065602646 0.00021166667 0.0018845588
-0.0041380129 0.00127 -0.017122794
-0.011202914 0 -0.0090345591
0.004743576 -0.00127 -0.017325001
-0.010395496 0.00127 -0.016920589
0.01201033 0.00127 -0.0001375001
-0.0073676817 0.00127 -0.0023617649
-0.0089825159 0.00021166667 0.0024911764
0.00030278144 0.00042333335 -0.017527206
0.010799205 -0.0010583333 -0.017325001
-0.010597351 0.0010583333 -0.0023617649
0.013827019 0.00021166667 -0.019751471
-0.0071658278 -0.00042333335 -0.0023617649
-0.0059547019 0.00127 -0.00074411777
0.003936159 -0.00021166667 -0.01045
-0.0015139072 0.00021166667 -0.0066080885
-0.014028873 0.00021166667 -0.0092367651
-0.0059547019 -0.00127 -0.016920589
-0.0015139072 0 -0.017729413
0.011202914 0.00042333335 -0.00033970599
0.0075695361 -0.0010583333 -0.0023617649
0.0065602646 0.00021166667 0.0020867647
0.0015139072 0 -0.0084279412
-0.0029268872 0.00127 -0.00054191187
0.0089825159 0 -0.022582354
-0.011404768 0.00127 -0.00094632368
-0.011606622 0.00021166667 -0.011865442
-0.014634437 -0.00127 -0.0001375001
-0.0023213243 0.00127 -0.017122794
-0.013827019 -0.00021166667 -0.0094389711
0.00090834434 -0.00127 -0.016111765
0.0061565563 -0.00021166667 0.00087352935
0.0011101987 0 -0.0025639709
-0.014230728 0 -0.013280883
-0.008780662 0.000635 -0.0023617649
-0.008780662 -0.0010583333 -0.0001375001
0.0063584102 -0.00021166667 -0.0053948532
0.0089825159 -0.00021166667 -0.01247206
0.013625165 -0.00021166667 -0.015100736
0.00090834434 -0.00127 -0.016920589
-0.0095880795 -0.0010583333 -0.015302942
0.011202914 0 -0.018133825
-0.0041380129 0 -0.021166913
0.0091843707 -0.00127 -0.017122794
0.003330596 0.00127 -0.00033970599
-0.0015139072 -0.00021166667 -0.021166913
0.008578808 0 -0.0043838238
0.0061565563 0 -0.0064058825
0.0097899335 -0.00021166667 -0.015100736
0.011404768 -0.00021166667 -0.0033727943
-0.013221457 -0.00127 -0.01590956
0.0037343046 -0.00127 -0.016111765
0.0061565563 -0.00021166667 -0.0064058825
0.004743576 0.00084666669 -0.017325001
-0.015038145 0.00021166667 -0.00074411777
0.014230728 0.00021166667 -0.022380147
-0.0081750993 -0.00127 -0.0013507354
0.0041380129 0.0010583333 -0.015302942
-0.00030278144 0.000635 -0.0023617649
-0.014028873 -0.00021166667 -0.013280883
-0.0091843707 0.00127 -0.0015529413
0.0013120529 -0.00021166667 0.0022889706
-0.0023213243 -0.0010583333 -0.015505147
0.014836291 0.0010583333 -0.0015529413
0.0045417217 0 -0.0023617649
-0.00070649007 -0.000635 -0.017325001
0.0051472848 0.00084666669 -0.015505147
0.011606622 0.00021166667 -0.019347059
0.0015139072 0.00021166667 -0.0066080885
0.008780662 0.00021166667 -0.0060014711
0.014230728 -0.00127 -0.0013507354
-0.0049454304 -0.000635 -0.00033970599
0.015038145 -0.00084666669 -0.016920589
0.0013120529 -0.00127 -0.015505147
0.003330596 -0.00127 -0.016516177
0.0013120529 0.00127 -0.016718382
0.011202914 0 -0.022582354
-0.008780662 0.00021166667 -0.022582354
0.0071658278 -0.000635 -0.00033970599
-0.0021194702 0.00127 -0.0013507354
0.014634437 0.00127 -0.00033970599
-0.013827019 0 -0.018538237
-0.0015139072 0 -0.020560294
0.010193642 -0.00127 -0.00074411777
0.0031287416 0.00021166667 -0.017325001
0.0089825159 -0.000635 -0.0023617649
0.011001059 0.00127 -0.0017551472
0.0017157615 -0.0010583333 -0.015505147
-0.0065602646 -0.00084666669 -0.0001375001
-0.00010092715 0.00021166667 -0.017527206
-0.014432582 0.0010583333 -0.015505147
0.0013120529 -0.00021166667 0.0026933823
0.013827019 -0.00021166667 -0.017931618
0.013221457 -0.000635 -0.0023617649
-0.0063584102 -0.00021166667 -0.0029683826
-0.0023213243 0.00127 -0.00033970599
0.011606622 -0.00021166667 -0.0057992651
-0.011001059 0.00084666669 -0.015100736
0.014432582 0.00042333335 -0.017325001
-0.0019176159 0.00084666669 -0.0023617649
-0.0073676817 -0.00127 -0.00054191187
0.014028873 -0.00021166667 0.00087352935
0.004743576 0.000635 -0.00033970599
0.0029268872 -0.00127 -0.0021595589
0.011202914 0 -0.0064058825
-0.008578808 -0.000635 -0.0023617649
0.0037343046 -0.00042333335 -0.017527206
-0.0045417217 -0.00042333335 -0.015100736
-0.014028873 -0.00021166667 -0.021571325
-0.014028873 -0.00021166667 -0.020964706
0.008780662 0.00021166667 -0.02177353
-0.0015139072 0 -0.0062036766
0.011404768 0.00021166667 -0.0080235293
0.0015139072 0 0.00067132345
-0.0093862247 0 -0.0023617649
-0.010193642 -0.00127 -0.016718382
-0.014836291 -0.0010583333 -0.0001375001
0.0073676817 0.00127 -0.015707353
-0.0015139072 0.00021166667 -0.0070125004
0.0025231787 -0.00084666669 -0.017325001
-0.014230728 0 -0.022784559
0.003936159 0.00021166667 -0.019347059
0.0011101987 -0.00021166667 -0.0088323532
-0.008578808 0.00127 -0.016718382
0.008578808 0 -0.014696324
0.0037343046 -0.00021166667 -0.012067648
-0.0013120529 -0.00021166667 -0.018538237
0.0015139072 0.00127 -0.00094632368
0.0089825159 -0.00021166667 -0.0072147064
-0.010597351 0.000635 -0.015100736
-0.011404768 -0.00021166667 -0.019144854
0.008780662 -0.00021166667 0.0020867647
0.0015139072 -0.00021166667 -0.011258824
-0.0035324502 0.00021166667 -0.013078677
-0.0077713905 0.00127 -0.0001375001
0.003936159 -0.00021166667 -0.013078677
-0.011606622 0.00021166667 0.0022889706
0.012414039 0.00127 -0.00094632368
-0.0077713905 0.00042333335 -0.017325001
0.0045417217 -0.000635 -0.015302942
0.01201033 0.00127 -0.01590956
-0.0065602646 -0.00021166667 -0.011865442
0.0049454304 0 -0.017325001
-0.008578808 0 -0.014494118
-0.012212185 -0.0010583333 -0.017325001
0.0063584102 -0.00021166667 -0.022986766
-0.0015139072 0.00127 -0.0013507354
-0.0049454304 0 -0.017325001
-0.011001059 -0.000635 -0.015100736
0.0057528475 -0.00021166667 -0.0023617649
-0.0089825159 0.00021166667 -0.0092367651
-0.0061565563 -0.00021166667 -0.0053948532
0.013827019 0.00021166667 -0.019347059
0.011808476 -0.000635 -0.017325001
-0.0051472848 -0.000635 -0.0023617649
-0.013827019 -0.00021166667 -0.014696324
0.0061565563 0.00021166667 -0.017527206
-0.013625165 0.00021166667 -0.015100736
0.011404768 0.00021166667 0.00067132345
-0.011606622 0 -0.012269854
-0.0015139072 -0.00021166667 -0.014696324
0.0061565563 0 -0.010045589
-0.014836291 -0.00042333335 -0.0023617649
-0.014432582 -0.00127 -0.0011485296
0.0065602646 0 -0.0039794119
0.0089825159 0 0.00067132345
0.0097899335 0.000635 -0.00033970599
0.012414039 -0.00127 -0.016718382
0.011202914 0 -0.020762501
-0.0029268872 0.00127 -0.015100736
0.013827019 -0.00021166667 -0.013685294
-0.0089825159 -0.00127 -0.0017551472
-0.0011101987 -0.00127 -0.0017551472
0.013625165 -0.00127 -0.016920589
-0.0091843707 0 -0.022177942
0.0089825159 0 -0.010247795
0.0015139072 0 -0.01045
0.0023213243 -0.0010583333 -0.015302942
0.0011101987 -0.0010583333 -0.0023617649
0.0053491388 0.00084666669 -0.015505147
-0.010597351 0.00127 -0.01590956
-0.012212185 0.00127 -0.016920589
-0.0079732444 0.000635 -0.015100736
0.00030278144 -0.00021166667 -0.015100736
0.0065602646 -0.00021166667 -0.0068102945
0.0037343046 -0.00127 -0.0011485296
0.0063584102 -0.0010583333 -0.015302942
-0.011202914 0 -0.014494118
0.014230728 -0.00021166667 -0.0025639709
-0.014432582 -0.0010583333 -0.017325001
0.014432582 0 -0.0001375001
0.0089825159 -0.00127 -0.016920589
0.014028873 0.00021166667 -0.0055970591
-0.010395496 0.00127 -0.0011485296
-0.0035324502 0.00127 -0.017122794
0.0013120529 0.00042333335 -0.01833603
-0.014028873 0.00021166667 -0.018538237
0.0097899335 0.00127 -0.0015529413
-0.008578808 0 -0.0080235293
0.0063584102 0.00127 -0.017122794
-0.0053491388 -0.00021166667 -0.0023617649
-0.014028873 -0.00021166667 -0.013078677
0.003936159 -0.00084666669 -0.017325001
0.014432582 0 -0.0023617649
-0.0065602646 0.00021166667 -0.010652206
0.0037343046 -0.00021166667 0.0028955883
0.0023213243 -0.00021166667 -0.017325001
0.0069639734 0.00127 -0.017325001
0.0089825159 0 -0.0078213243
0.008780662 0.00021166667 -0.019549266
-0.014230728 -0.00021166667 -0.020560294
-0.008578808 0 -0.0025639709
0.0035324502 0.00021166667 -0.0092367651
0.011404768 -0.00021166667 -0.0066080885
0.00090834434 0.00127 -0.0017551472
-0.006762119 -0.00042333335 -0.015100736
-0.0037343046 -0.00021166667 -0.0055970591
-0.011808476 -0.0010583333 -0.015302942
0.004743576 0.00127 -0.0001375001
0.011606622 0 0.0010757352
0.00050463574 -0.00127 -0.015100736
0.013625165 -0.00021166667 -0.017325001
-0.0025231787 0.0010583333 -0.017325001
0.008780662 -0.00021166667 -0.0039794119
-0.0061565563 -0.00021166667 -0.0080235293
0.003936159 -0.00127 -0.016718382
0.0019176159 -0.00127 -0.00054191187
0.010193642 0.00127 -0.016313972
0.010395496 -0.00042333335 -0.0023617649
0.008780662 0.00127 -0.0021595589
-0.003936159 0 -0.023593383
0.0077713905 0 -0.0023617649
-0.0079732444 0.00084666669 -0.017325001
0.0035324502 0.00021166667 0.0026933823
-0.010193642 0.00042333335 -0.00033970599
0.013827019 0 0.0026933823
0.0065602646 0.0010583333 -0.015100736
-0.0073676817 0.00127 -0.017325001
-0.014028873 -0.000635 -0.0023617649
-0.0061565563 0.00021166667 -0.014089706
-0.0015139072 0.00021166667 0.00026691167
0.011606622 -0.00021166667 -0.0070125004
-0.0027250331 0.00127 -0.017122794
-0.008780662 0.00042333335 -0.01489853
-0.012414039 -0.00042333335 -0.017325001
0.0049454304 -0.00021166667 -0.0023617649
0.00030278144 -0.00084666669 -0.0023617649
0.008578808 0.00127 -0.0015529413
0.003936159 0.00042333335 -0.017931618
-0.0071658278 0.00127 -0.015302942
-0.011606622 0.00021166667 -0.017931618
0.0015139072 0.00021166667 -0.02177353
0.008780662 -0.00127 -0.0021595589
0.013423311 0.00127 -0.00033970599
0.0035324502 -0.00021166667 -0.012269854
-0.008780662 -0.00021166667 6.470579e-05
0.00010092715 -0.00021166667 -0.0023617649
-0.00050463574 -0.00021166667 -0.0023617649
0.013625165 -0.00127 -0.0013507354
-0.008578808 0 -0.011663236
0.0063584102 -0.00021166667 -0.012067648
-0.008780662 0.00021166667 0.0022889706
-0.004743576 0.0010583333 -0.0001375001
0.0021194702 0.00127 -0.017325001
0.0011101987 0.00021166667 0.0012779412
0.011202914 0 0.00046911757
0.0017157615 0.00127 -0.0019573532
-0.0079732444 -0.00021166667 -0.0023617649
-0.011606622 0 -0.013483088
0.011606622 -0.00021166667 -0.011258824
-0.0031287416 -0.00042333335 -0.015302942
-0.011202914 0.00127 -0.016920589
0.0021194702 0.00127 -0.016718382
-0.0061565563 0 0.0018845588
-0.00010092715 0.00127 -0.0017551472
-0.006762119 -0.00084666669 -0.0001375001
-0.0023213243 0.00127 -0.015505147
0.014028873 0.0010583333 -0.017325001
0.011202914 0 -0.0092367651
0.0015139072 -0.00021166667 -0.010854412
-0.0019176159 -0.00084666669 -0.0001375001
0.014230728 0.00021166667 0.0020867647
0.0075695361 0.00127 -0.016111765
-0.010395496 -0.00127 -0.016313972
0.0021194702 -0.00127 -0.00094632368
0.0057528475 -0.00127 -0.015707353
0.011404768 0.00021166667 -0.0072147064
-0.013019602 -0.00127 -0.0001375001
0.0035324502 0 0.0010757352
0.0073676817 -0.00127 -0.0013507354
0.011606622 -0.00021166667 -0.022380147
-0.006762119 0.00021166667 -0.015100736
-0.0093862247 0.00127 -0.00033970599
-0.00030278144 0.00127 -0.0019573532
0.0037343046 0.00021166667 -0.0080235293
-0.0071658278 0.00127 -0.0011485296
0.008780662 0.00042333335 -0.014696324
0.0037343046 0.00021166667 -0.019144854
-0.00030278144 -0.00042333335 -0.0023617649
-0.010193642 0.00021166667 -0.017325001
-0.0089825159 0 -0.01247206
0.008578808 -0.00127 -0.00074411777
0.0089825159 0 -0.0060014711
-0.003330596 0.000635 -0.017325001
0.0019176159 -0.0010583333 -0.0001375001
0.0013120529 -0.00021166667 -0.012269854
-0.0027250331 0 -0.015100736
-0.0019176159 0.00127 -0.0001375001
0.0053491388 -0.000635 -0.015100736
0.00090834434 -0.000635 -0.0023617649
-0.0065602646 0.00021166667 -0.0070125004
0.006762119 -0.0010583333 -0.017325001
0.0065602646 0.00021166667 -0.0082257353
-0.0021194702 0.00042333335 -0.017325001
0.015038145 0 -0.0001375001
0.014028873 0.000635 -0.015302942
-0.00030278144 -0.00042333335 -0.015100736
0.010799205 0.00127 -0.016516177
0.013827019 0.00021166667 -0.02177353
-0.0069639734 0 -0.015100736
-0.0029268872 0.0010583333 -0.0001375001
0.0089825159 0.0010583333 -0.015302942
-0.006762119 0.00042333335 -0.015100736
-0.0045417217 -0.00127 -0.015302942
0.003936159 0.00021166667 -0.0066080885
-0.0089825159 -0.00021166667 -0.012674266
-0.0015139072 0 -0.012674266
-0.0065602646 -0.00021166667 -0.021369118
0.013827019 0.00021166667 -0.020358089
-0.014230728 -0.00021166667 -0.0078213243
0.011202914 -0.00021166667 -0.0138875
0.0041380129 0.0010583333 -0.015100736
0.0055509931 -0.00042333335 -0.0023617649
0.0011101987 0.00127 -0.015100736
-0.014028873 0.00021166667 -0.0001375001
0.0081750993 0.00127 -0.016718382
-0.0013120529 -0.00021166667 -0.010045589
-0.0065602646 0.00021166667 -0.01833603
-0.008578808 -0.00127 -0.0011485296
0.013827019 0.00021166667 -0.018942649
0.015038145 -0.000635 -0.015707353
0.0015139072 0.00021166667 0.0020867647
-0.011606622 0.00021166667 -0.020964706
-0.0023213243 -0.00127 -0.016111765
-0.0081750993 -0.00084666669 -0.017325001
-0.0035324502 0 0.0026933823
-0.0089825159 0.00021166667 -0.0068102945
-0.010395496 0.00127 -0.016313972
0.0035324502 0 -0.013483088
0.014028873 0.00021166667 -0.018133825
-0.0017157615 -0.000635 -0.00033970599
-0.011202914 -0.000635 -0.017325001
-0.0011101987 -0.00042333335 -0.018133825
-0.00070649007 0.00127 -0.015100736
0.011606622 0.00021166667 -0.0051926472
0.0065602646 0 0.0020867647
-0.0027250331 0.000635 -0.017325001
-0.013827019 -0.00021166667 -0.023188971
-0.0065602646 -0.00021166667 0.0016823529
0.011202914 0 0.0016823529
0.0015139072 -0.00021166667 -0.013483088
0.008780662 -0.00021166667 -0.0053948532
-0.0091843707 -0.00127 -0.0021595589
0.012615894 0.00127 -0.0015529413
-0.0051472848 -0.00127 -0.016313972
-0.008780662 0.00021166667 -0.021975735
0.012615894 0.00127 -0.016920589
-0.008780662 -0.00042333335 -0.018133825
0.008780662 0.00021166667 -0.020964706
0.0075695361 -0.00127 -0.01590956
-0.011606622 -0.00021166667 -0.0041816179
-0.011202914 -0.00021166667 -0.01833603
0.0017157615 0.00127 -0.0015529413
-0.0015139072 0 -0.019144854
0.0081750993 -0.0010583333 -0.0001375001
0.0075695361 -0.00084666669 -0.0023617649
0.015038145 0.00084666669 -0.016516177
-0.011404768 -0.00021166667 -0.01045
0.011202914 -0.00021166667 -0.019347059
-0.014634437 0.00021166667 -0.015302942
-0.0051472848 0.00127 -0.0011485296
0.0063584102 -0.00084666669 -0.015302942
-0.014230728 0 -0.0033727943
0.014028873 0.00021166667 -0.0072147064
0.0025231787 0.00127 -0.015707353
-0.003330596 -0.0010583333 -0.0001375001
-0.008578808 0 -0.0035750002
0.0069639734 0.00127 -0.016111765
-0.012212185 -0.000635 -0.0023617649
-0.011202914 -0.00127 -0.016516177
-0.0015139072 0.00021166667 -0.022177942
0.0011101987 0 -0.0045860298
-0.015038145 -0.000635 -0.016516177
-0.0063584102 0.00042333335 -0.00033970599
-0.0083769532 -0.00127 -0.017122794
0.00070649007 0.00042333335 -0.015100736
0.010395496 -0.00127 -0.016718382
-0.0091843707 0.00127 -0.0011485296
-0.014230728 0 -0.0037772062
-0.0043398673 0.00127 -0.015505147
-0.0079732444 0.00127 -0.0017551472
0.003330596 -0.00127 -0.00094632368
-0.014230728 -0.00021166667 -0.019144854
0.011606622 0.00021166667 0.001480147
0.0011101987 0.00021166667 -0.0033727943
-0.0065602646 0 -0.021571325
0.011606622 0 -0.0066080885
0.0011101987 0.00021166667 -0.0074169119
-0.011606622 0.00021166667 -0.021166913
0.0015139072 -0.00127 -0.00094632368
-0.0065602646 0 -0.022986766
-0.0065602646 -0.00021166667 -0.020964706
-0.0011101987 0 -0.0031705885
-0.0035324502 0 -0.010045589
0.014230728 0 -0.022582354
-0.0061565563 -0.00127 -0.0021595589
-0.0035324502 -0.00021166667 -0.009843383
0.0011101987 0.00021166667 0.0026933823
-0.0025231787 0.00127 -0.015100736
0.004743576 0 -0.015100736
-0.011202914 -0.00021166667 -0.0094389711
0.013019602 -0.000635 -0.00033970599
0.014230728 0 -0.017527206
-0.00010092715 0.00127 -0.015100736
0.0013120529 -0.00127 -0.016718382
0.0051472848 0.0010583333 -0.015302942
-0.014028873 0.00021166667 -0.01489853
-0.011202914 -0.00127 -0.0019573532
0.0015139072 0 -0.019751471
0.011404768 -0.00021166667 -0.0076191179
-0.0011101987 0 0.00046911757
-0.003330596 0.00127 -0.0019573532
0.014432582 0.00127 -0.0019573532
0.0037343046 -0.00021166667 -0.01045
0.0011101987 0 -0.020964706
0.0075695361 0.00127 -0.016516177
-0.0045417217 0.00042333335 -0.017325001
0.011404768 0.00021166667 -0.0088323532
0.015038145 -0.00084666669 -0.017122794
0.013827019 0 -0.014696324
-0.013625165 0.00021166667 -0.017325001
0.0081750993 -0.00127 -0.0013507354
-0.014028873 -0.0010583333 -0.0001375001
-0.014432582 0.00127 -0.00094632368
-0.0089825159 0.00021166667 -0.021166913
-0.008780662 0.00021166667 -0.0078213243
0.0065602646 0.00127 -0.00033970599
0.008578808 -0.00021166667 -0.015100736
-0.0061565563 -0.00127 -0.0011485296
0.00090834434 -0.00127 -0.015100736
-0.011001059 -0.00127 -0.0019573532
-0.011202914 0.00021166667 -0.023188971
-0.00090834434 -0.000635 -0.00033970599
-0.012212185 0.00042333335 -0.0023617649
0.0029268872 0.00127 -0.017325001
0.0061565563 -0.0010583333 -0.015302942
0.0063584102 -0.00021166667 0.00067132345
0.0065602646 0.00021166667 -0.022784559
0.0063584102 -0.00127 -0.00094632368
-0.0061565563 -0.00021166667 0.0020867647
0.0065602646 -0.00021166667 -0.014696324
-0.0049454304 0 -0.0023617649
0.014230728 0 -0.022177942
-0.0035324502 0 0.0018845588
0.0083769532 -0.00127 -0.0015529413
-0.0015139072 0 -0.0084279412
0.008780662 0.000635 -0.017325001
0.004743576 -0.00127 -0.0011485296
0.0081750993 -0.00021166667 -0.0001375001
0.0053491388 0.00084666669 -0.0001375001
-0.00010092715 -0.0010583333 -0.0001375001
-0.0019176159 0.00127 -0.015707353
-0.0065602646 0.00127 -0.016516177
-0.014836291 0.00042333335 -0.015302942
-0.014028873 -0.00021166667 -0.010854412
0.00090834434 -0.00127 -0.00033970599
-0.008780662 -0.00021166667 -0.011865442
0.0083769532 -0.0010583333 -0.017325001
0.0013120529 0.00021166667 -0.0043838238
0.011404768 -0.00042333335 -0.0025639709
-0.0013120529 -0.00042333335 -0.014291912
0.0015139072 0 -0.020762501
0.0015139072 -0.00021166667 -0.0072147064
0.0013120529 0.00042333335 -0.01489853
0.0089825159 -0.00127 -0.00094632368
0.010597351 -0.00127 -0.0019573532
0.0037343046 -0.000635 -0.015100736
-0.0063584102 0.00127 -0.0019573532
-0.0013120529 0.00021166667 -0.020358089
0.015038145 0.00021166667 -0.016920589
-0.011202914 0.00021166667 -0.018133825
0.011202914 -0.00021166667 -0.010247795
-0.0041380129 0 -0.0076191179
0.013827019 0.00021166667 0.0024911764
0.0089825159 0.00021166667 -0.018133825
0.013423311 0.00042333335 -0.00033970599
-0.0089825159 0 -0.0051926472
0.014634437 0.00084666669 -0.0001375001
0.0089825159 -0.00021166667 -0.018740442
-0.0011101987 0 -0.019549266
0.0031287416 0.00042333335 -0.00033970599
-0.0051472848 0.00127 -0.016516177
0.0035324502 0.00021166667 -0.021571325
-0.010193642 0.00127 -0.015707353
0.0075695361 0.00127 -0.016718382
-0.0091843707 0.00127 -0.016718382
0.008578808 0 -0.01833603
-0.0013120529 -0.00021166667 -0.020560294
-0.011606622 -0.00021166667 -0.010247795
-0.0027250331 -0.00127 -0.00054191187
0.00030278144 -0.00127 -0.017122794
-0.0011101987 -0.00021166667 -0.0094389711
0.011404768 -0.00042333335 -0.018740442
0.0011101987 0 -0.009843383
0.0037343046 -0.00021166667 -0.0060014711
0.0043398673 -0.0010583333 -0.015302942
-0.011808476 0.00127 -0.0013507354
-0.014028873 -0.00021166667 -0.011865442
0.0035324502 0.00021166667 -0.009843383
-0.012615894 0.00127 -0.0013507354
-0.003936159 0.00021166667 -0.0047882358
0.014028873 0.00021166667 -0.0049904413
-0.014432582 0.00127 -0.0019573532
-0.008780662 -0.00021166667 -0.02177353
-0.00030278144 -0.00127 -0.00074411777
0.0091843707 0.00084666669 -0.017325001
-0.011606622 -0.00021166667 -0.0025639709
0.0035324502 -0.00127 -0.017325001
-0.0037343046 0 -0.023593383
0.0079732444 -0.00042333335 -0.017325001
0.0081750993 -0.00127 -0.017122794
0.0015139072 0.00021166667 -0.01489853
-0.0027250331 -0.00127 -0.016920589
-0.0051472848 -0.00084666669 -0.015505147
-0.00090834434 -0.00042333335 -0.0023617649
0.015038145 -0.00021166667 -0.0015529413
0.0013120529 0.00021166667 0.003097794
0.0035324502 0.00127 -0.0015529413
-0.008780662 0.00021166667 -0.0025639709
0.0061565563 0 -0.019751471
0.0061565563 0.00021166667 -0.01489853
-0.0013120529 0.00127 -0.0017551472
0.0091843707 -0.000635 -0.00033970599
-0.003936159 -0.00021166667 -0.0029683826
0.010193642 0.00084666669 -0.0001375001
0.0081750993 -0.00127 -0.01590956
-0.011202914 -0.00021166667 -0.0029683826
0.014230728 0 -0.0043838238
-0.014634437 0.00084666669 -0.0023617649
-0.0065602646 0.00021166667 -0.0080235293
-0.013221457 0 -0.0023617649
0.013827019 0.00021166667 -0.020762501
-0.011202914 0.00021166667 -0.013280883
-0.011202914 0.00021166667 -0.0078213243
-0.010193642 -0.00042333335 -0.015100736
0.011202914 0.00127 -0.016920589
0.0089825159 0 -0.0084279412
-0.013423311 0.00042333335 -0.0023617649
0.011404768 0.00021166667 -0.022380147
-0.011404768 -0.00127 -0.016920589
0.0015139072 0 -0.0057992651
-0.010597351 -0.00042333335 -0.017325001
-0.0015139072 0.00127 -0.0023617649
0.013625165 0.00127 -0.0013507354
-0.00030278144 -0.000635 -0.017527206
0.011606622 -0.00042333335 -0.00033970599
-0.014028873 0.00021166667 -0.017527206
-0.0029268872 -0.00127 -0.016920589
-0.0013120529 0.00021166667 -0.0082257353
0.0071658278 0.00042333335 -0.015100736
-0.00070649007 -0.00084666669 -0.017325001
-0.011202914 0.00042333335 -0.015100736
0.010193642 -0.00042333335 -0.00033970599
-0.0013120529 0.00021166667 -0.021369118
-0.014432582 0.0010583333 -0.00033970599
-0.0065602646 0 6.470579e-05
-0.013423311 0.00127 -0.015707353
-0.0081750993 -0.00127 -0.017122794
0.0037343046 -0.00127 -0.00054191187
0.0065602646 0.00021166667 -0.01489853
-0.0091843707 -0.00084666669 -0.015707353
-0.0065602646 0 -0.0074169119
-0.0013120529 -0.00021166667 -0.0070125004
0.0065602646 0 -0.0037772062
0.0029268872 -0.0010583333 -0.0001375001
0.011202914 -0.00127 -0.017325001
0.0041380129 0.00127 -0.016111765
0.0083769532 0.00127 -0.00074411777
-0.011202914 0.000635 -0.017325001
0.0031287416 0.00127 -0.00074411777
0.0089825159 -0.00021166667 -0.01146103
0.00090834434 0 -0.0023617649
-0.0037343046 0.00021166667 -0.013078677
0.0015139072 -0.00127 -0.00074411777
0.003936159 0 -0.010652206
-0.0065602646 0.00021166667 -0.020155882
-0.0063584102 0.00021166667 -0.0072147064
-0.014028873 0.00021166667 -0.0084279412
-0.008780662 0.00021166667 0.0026933823
0.0093862247 0.00021166667 -0.015100736
-0.0061565563 0.00127 -0.016718382
0.011606622 -0.00021166667 -0.01247206
0.01524 0.00042333335 -0.0019573532
0.008578808 0.00127 -0.00094632368
-0.0057528475 -0.00021166667 -0.0023617649
-0.014028873 -0.00021166667 -0.0033727943
0.0065602646 -0.00127 -0.015707353
0.0055509931 -0.00127 -0.01590956
-0.014230728 -0.00021166667 -0.012067648
0.0089825159 0 -0.019751471
0.0063584102 -0.00084666669 -0.017325001
-0.013827019 -0.00021166667 0.00046911757
0.0013120529 0.00021166667 -0.023391178
0.012817748 0.0010583333 -0.015100736
-0.0015139072 -0.00021166667 -0.022177942
-0.011606622 0.00021166667 -0.018740442
-0.004743576 -0.00127 -0.015505147
-0.0013120529 -0.00021166667 -0.0049904413
-0.011606622 -0.00021166667 -0.021975735
0.012212185 0 -0.0001375001
0.0035324502 -0.00127 -0.0023617649
0.0063584102 0.00127 -0.0017551472
-0.0037343046 0.00021166667 -0.018133825
-0.0011101987 0.00021166667 -0.0051926472
-0.0057528475 -0.0010583333 -0.0001375001
-0.0013120529 0.00021166667 -0.013280883
-0.0013120529 0.00127 -0.00094632368
-0.0035324502 0 -0.010854412
-0.0043398673 -0.00127 -0.015707353
0.00010092715 -0.00127 -0.01590956
-0.008578808 -0.0010583333 -0.015302942
-0.0023213243 0.00127 -0.017325001
0.0065602646 0 -0.0090345591
-0.0011101987 0.00021166667 -0.013685294
0.0029268872 -0.00127 -0.00074411777
0.0013120529 -0.00021166667 -0.0064058825
-0.011404768 -0.00021166667 -0.0051926472
0.013423311 -0.00127 -0.015505147
-0.013423311 0.00127 -0.017325001
0.0011101987 -0.0010583333 -0.0001375001
-0.011202914 0.00021166667 -0.020964706
0.008780662 0.00021166667 -0.0031705885
-0.0011101987 0.00021166667 -0.023391178
-0.0011101987 0 0.0022889706
-0.015038145 -0.0010583333 -0.016718382
0.011606622 0 -0.0025639709
-0.0065602646 -0.00021166667 -0.018942649
-0.0089825159 0 -0.009641177
0.0081750993 0.00127 -0.017325001
0.0027250331 -0.00084666669 -0.0023617649
-0.0051472848 0.00127 -0.017325001
0.0023213243 0 -0.017325001
0.0079732444 0.00042333335 -0.015302942
0.011606622 -0.00021166667 0.00087352935
-0.0021194702 0.0010583333 -0.0001375001
-0.011202914 -0.00021166667 -0.022177942
0.0077713905 0.0010583333 -0.0023617649
-0.008780662 0.00021166667 -0.0035750002
0.0063584102 -0.00021166667 -0.0045860298
0.0065602646 -0.00021166667 0.0018845588
-0.0015139072 -0.00021166667 -0.0033727943
0.0019176159 -0.00127 -0.015302942
-0.011404768 -0.00021166667 -0.011056618
-0.0063584102 -0.00021166667 0.00067132345
-0.0091843707 0 -0.022986766
0.0035324502 -0.00021166667 -0.013280883
0.0081750993 0.000635 -0.00033970599
-0.0019176159 0.00127 -0.015302942
-0.008578808 0.00127 -0.017122794
0.003936159 -0.00021166667 -0.012269854
0.011606622 0.00021166667 0.0026933823
0.008780662 -0.00021166667 -0.011258824
-0.013625165 0.00084666669 -0.017325001
0.0055509931 -0.00042333335 -0.015100736
0.003330596 0.00127 -0.017325001
0.012615894 -0.0010583333 -0.0023617649
0.0025231787 0.00127 -0.016718382
-0.01524 -0.00042333335 -0.0011485296
0.003936159 0 -0.010854412
-0.0035324502 -0.00021166667 -0.0027661766
-0.0011101987 -0.00021166667 -0.0064058825
0.0059547019 -0.00127 -0.0021595589
0.0091843707 -0.0010583333 -0.0023617649
0.015038145 0.00021166667 -0.016111765
0.003936159 0.00021166667 6.470579e-05
-0.0015139072 0 -0.011663236
0.0011101987 0 -0.014291912
0.008578808 0.00042333335 -0.015100736
-0.0089825159 0.00021166667 -0.0138875
-0.0055509931 -0.00127 -0.016920589
0.0051472848 0.00127 -0.016313972
0.0017157615 0.00127 -0.0017551472
0.0027250331 -0.00127 -0.017122794
-0.006762119 0.000635 -0.00033970599
0.0069639734 0.00042333335 -0.015302942
-0.0061565563 0 -0.022784559
0.013827019 -0.00127 -0.0019573532
0.012414039 -0.00084666669 -0.0001375001
-0.011001059 -0.000635 -0.00033970599
0.011404768 -0.00021166667 0.0022889706
-0.0045417217 0.00042333335 -0.00033970599
0.013827019 0.00021166667 -0.023391178
0.0011101987 -0.00021166667 0.00046911757
-0.008780662 -0.00127 -0.0013507354
0.0089825159 -0.00127 -0.0011485296
-0.0073676817 -0.00127 -0.0011485296
-0.0015139072 -0.00021166667 -0.0031705885
0.0043398673 0.00127 -0.0021595589
-0.0011101987 0 -0.01146103
-0.008780662 -0.00021166667 -0.018942649
-0.011606622 0 0.0026933823
0.0063584102 0.00084666669 -0.0023617649
0.00030278144 0.00127 -0.015302942
0.0011101987 -0.00021166667 0.001480147
-0.004743576 0.00127 -0.015707353
-0.014432582 -0.00084666669 -0.0001375001
0.011606622 0.00021166667 -0.010854412
-0.0091843707 0.00127 -0.0013507354
0.014028873 -0.00021166667 -0.0074169119
0.0027250331 0.00127 -0.0015529413
-0.0015139072 0.00021166667 -0.022380147
0.0081750993 -0.00127 -0.00054191187
-0.010395496 0.00127 -0.0021595589
-0.0091843707 -0.000635 -0.015100736
0.015038145 -0.00042333335 -0.017122794
-0.011606622 -0.00127 -0.0019573532
-0.011606622 -0.00021166667 -0.01247206
0.0021194702 -0.00127 -0.0019573532
0.011404768 -0.00042333335 -0.017729413
-0.014432582 -0.00042333335 -0.00033970599
-0.0031287416 -0.000635 -0.0023617649
-0.008578808 -0.0010583333 -0.0023617649
-0.0077713905 -0.00127 -0.0011485296
-0.003936159 0.00021166667 -0.020964706
-0.0097899335 -0.0010583333 -0.015100736
0.0079732444 -0.000635 -0.0023617649
0.014230728 0.00127 -0.016516177
0.006762119 -0.000635 -0.00033970599
0.0011101987 0.00021166667 -0.022177942
0.003936159 0 -0.020762501
0.014634437 0.00127 -0.00054191187
-0.011202914 -0.00021166667 -0.020560294
-0.011202914 -0.00021166667 -0.0043838238
0.012817748 -0.00084666669 -0.0001375001
-0.0063584102 0.00127 -0.00094632368
0.0015139072 0.00021166667 -0.014089706
0.0071658278 0.00042333335 -0.00033970599
-0.0041380129 0.000635 -0.0023617649
0.015038145 0.00042333335 -0.015100736
0.0093862247 -0.000635 -0.017325001
-0.0057528475 -0.00127 -0.00094632368
-0.0015139072 0.00127 -0.015707353
0.0097899335 0.00127 -0.00054191187
-0.0077713905 -0.00127 -0.00033970599
-0.0075695361 0.0010583333 -0.017325001
-0.0037343046 -0.00021166667 -0.0062036766
0.010597351 0.00127 -0.015707353
0.0089825159 0 -0.014089706
0.006762119 0.00042333335 -0.015302942
-0.00090834434 -0.00127 -0.016111765
-0.0013120529 -0.00042333335 -0.015302942
0.0015139072 -0.0010583333 -0.015505147
-0.011606622 0 -0.018133825
0.011404768 0.00021166667 0.0022889706
-0.0095880795 0.0010583333 -0.017325001
-0.0071658278 0 -0.015100736
-0.0011101987 0.000635 -0.00033970599
0.014432582 -0.000635 -0.0021595589
-0.008780662 0.00021166667 -0.0086301472
-0.008780662 0.00021166667 -0.02177353
0.0011101987 0.00021166667 -0.023391178
0.00010092715 -0.0010583333 -0.015505147
-0.0077713905 -0.00042333335 -0.015100736
0.0015139072 -0.00021166667 0.00067132345
-0.0035324502 0.00021166667 -0.02177353
-0.0065602646 -0.00021166667 -0.022986766
-0.0035324502 -0.00021166667 0.00067132345
0.011202914 -0.00021166667 -0.0062036766
0.014028873 0.00021166667 -0.0086301472
0.00030278144 0.00127 -0.00054191187
-0.0015139072 -0.00021166667 -0.010247795
-0.0041380129 0.00127 -0.016516177
-0.0065602646 0.00021166667 -0.018133825
0.0089825159 0 -0.021369118
-0.003936159 0.000635 -0.017325001
-0.010395496 -0.000635 -0.017325001
-0.0077713905 0.00127 -0.0019573532
0.004743576 -0.00084666669 -0.0023617649
-0.0063584102 0.0010583333 -0.015302942
0.014432582 0.000635 -0.00033970599
-0.0079732444 -0.00127 -0.0023617649
-0.0089825159 0.00021166667 -0.021369118
0.008780662 -0.00127 -0.015707353
-0.0061565563 0 -0.014696324
0.0091843707 -0.00127 -0.016516177
-0.0061565563 -0.00021166667 0.0012779412
-0.0015139072 -0.00021166667 0.00026691167
0.008578808 0 -0.0090345591
-0.014230728 -0.00021166667 -0.017729413
0.012817748 0.00021166667 -0.017325001
0.008780662 -0.00021166667 0.0028955883
0.0061565563 -0.00021166667 -0.020762501
-0.011202914 0.00021166667 -0.012876472
0.0011101987 0 -0.017931618
0.003936159 -0.00021166667 -0.0070125004
-0.0023213243 -0.000635 -0.015505147
-0.006762119 0.00127 -0.015707353
-0.0055509931 -0.000635 -0.00033970599
0.0035324502 0 -0.0055970591
-0.0077713905 -0.0010583333 -0.0001375001
0.0081750993 0.000635 -0.017325001
-0.0041380129 0.0010583333 -0.015302942
0.0045417217 -0.00084666669 -0.015505147
0.0063584102 -0.00127 -0.00074411777
-0.0011101987 0.00021166667 0.00067132345
-0.0089825159 0 -0.019549266
0.0019176159 0.0010583333 -0.017325001
-0.010597351 -0.00127 -0.015505147
-0.013827019 0.00127 -0.016920589
0.0049454304 0.00127 -0.016718382
0.0037343046 0.00021166667 -0.0043838238
-0.011808476 0.00127 -0.016111765
0.0013120529 0.00021166667 0.0022889706
0.014836291 0.0010583333 -0.016516177
-0.015038145 -0.00021166667 -0.0013507354
0.011606622 -0.00021166667 -0.0066080885
0.0011101987 0.00021166667 -0.0138875
0.013625165 0.00084666669 -0.015100736
-0.011808476 0.00021166667 -0.0023617649
-0.006762119 0.00127 -0.017122794
0.0065602646 0.00021166667 -0.018538237
0.011202914 0 -0.013280883
-0.014230728 0 -0.018740442
-0.012817748 -0.00127 -0.016313972
0.013221457 -0.00127 -0.016111765
-0.0065602646 0.00021166667 -0.023391178
0.0089825159 0 -0.0074169119
0.004743576 -0.00127 -0.00094632368
0.011404768 -0.00127 -0.00033970599
0.0089825159 -0.00021166667 -0.0082257353
-0.013827019 -0.00021166667 -0.0001375001
-0.011808476 0.0010583333 -0.017325001
-0.0075695361 -0.00021166667 -0.0001375001
-0.0077713905 0.00127 -0.0017551472
-0.00030278144 -0.00042333335 -0.017527206
-0.0065602646 0 -0.017729413
-0.0089825159 0 -0.0092367651
-0.00010092715 -0.000635 -0.017527206
0.010597351 -0.00127 -0.017325001
0.0095880795 -0.0010583333 -0.0001375001
-0.011606622 0.00021166667 -0.010045589
-0.008578808 0 -0.0068102945
0.0073676817 -0.0010583333 -0.015302942
-0.0061565563 0 -0.011258824
-0.011202914 0.00021166667 -0.0029683826
-0.0065602646 0 -0.011258824
0.008780662 -0.00021166667 -0.009843383
-0.014634437 -0.00127 -0.00054191187
0.0077713905 -0.0010583333 -0.015100736
0.0061565563 -0.00021166667 -0.017729413
-0.0089825159 -0.0010583333 -0.0023617649
0.013827019 0 0.00046911757
0.010597351 -0.00127 -0.016920589
0.011404768 -0.0010583333 -0.015100736
-0.0069639734 0.00127 -0.017122794
-0.0089825159 0.00021166667 -0.020560294
-0.0031287416 0.00127 -0.0019573532
-0.0075695361 -0.00127 -0.016111765
0.014028873 0.00021166667 -0.01146103
0.013221457 0.00084666669 -0.0023617649
-0.0013120529 0.00021166667 0.0010757352
0.014230728 0.00127 -0.0019573532
0.01201033 0.000635 -0.00033970599
0.0063584102 -0.00021166667 -0.0001375001
-0.003936159 -0.00042333335 -0.017729413
0.0089825159 0 -0.0062036766
0.0013120529 -0.00021166667 -0.0035750002
-0.011606622 -0.00021166667 -0.0045860298
0.008780662 0.000635 -0.00033970599
-0.0015139072 0.00021166667 -0.011258824
0.00050463574 -0.00084666669 -0.0001375001
0.00050463574 0.00021166667 -0.017527206
0.003330596 0.00042333335 -0.017527206
0.0027250331 0.00042333335 -0.015505147
-0.011606622 0.00021166667 6.470579e-05
0.0035324502 -0.00021166667 -0.017931618
0.00050463574 0.00127 -0.0021595589
0.0041380129 -0.000635 -0.015505147
0.0091843707 0.00042333335 -0.00033970599
0.003936159 0 -0.0076191179
0.0037343046 -0.00021166667 -0.022582354
0.003330596 -0.000635 -0.015100736
-0.003936159 -0.0010583333 -0.017325001
0.0011101987 0 -0.012674266
0.00010092715 0.00127 -0.0011485296
-0.015038145 0.000635 -0.00054191187
0.012615894 0.00127 -0.00094632368
0.0061565563 0 -0.01146103
-0.0065602646 -0.000635 -0.017325001
0.013221457 0.0010583333 -0.017325001
-0.011606622 -0.00127 -0.016313972
-0.003936159 0.00021166667 -0.022380147
0.0015139072 0.00021166667 0.0018845588
0.003936159 0 -0.0043838238
-0.013221457 0 -0.015100736
-0.0011101987 0 -0.018942649
0.008780662 0.00021166667 -0.014089706
-0.0097899335 0.00127 -0.0015529413
0.0061565563 0.00021166667 -0.0076191179
-0.0061565563 0.00021166667 0.0016823529
-0.008780662 -0.00127 -0.016718382
0.013827019 -0.00021166667 0.00046911757
0.0023213243 -0.000635 -0.0023617649
0.008780662 0.00021166667 -0.0064058825
-0.0077713905 -0.00127 -0.017325001
0.0065602646 0.00042333335 -0.0023617649
0.0023213243 0.00127 -0.00074411777
0.0019176159 0.00127 -0.015302942
-0.0011101987 0.00021166667 -0.013280883
0.0013120529 -0.00021166667 -0.020155882
-0.011606622 0 0.00067132345
0.0011101987 0 -0.0064058825
0.01201033 0 -0.0001375001
0.014028873 -0.00021166667 -0.019953677
0.013221457 0.00084666669 -0.0001375001
-0.00050463574 -0.00084666669 -0.017325001
-0.014028873 0.00021166667 -0.021571325
0.0041380129 0.00127 -0.0015529413
-0.0019176159 0.00021166667 -0.017325001
0.0057528475 0.00127 -0.0023617649
-0.012615894 0.000635 -0.017325001
-0.0061565563 -0.00021166667 -0.023391178
-0.014432582 -0.00021166667 -0.015100736
-0.0083769532 -0.00021166667 -0.015100736
-0.008780662 -0.00021166667 -0.020762501
0.011606622 -0.00021166667 -0.009641177
-0.0015139072 -0.00021166667 0.00046911757
0.013827019 -0.00021166667 -0.01833603
0.0093862247 0.00127 -0.00054191187
-0.0041380129 0.00127 -0.01590956
-0.0089825159 0 0.00087352935
0.014230728 0 -0.01045
-0.0089825159 0.00084666669 -0.0023617649
-0.0059547019 -0.00127 -0.0017551472
-0.0065602646 -0.00021166667 -0.014494118
-0.0081750993 0.00127 -0.016920589
-0.0015139072 0.00021166667 -0.0057992651
0.008578808 0 0.00067132345
0.008780662 0.00021166667 -0.012067648
-0.0089825159 -0.00021166667 -0.01045
-0.0057528475 -0.000635 -0.015302942
0.0015139072 0.00021166667 -0.0029683826
0.0045417217 -0.00127 -0.016516177
0.0015139072 0 -0.0060014711
0.013019602 0 -0.0023617649
0.011606622 -0.00021166667 -0.017527206
-0.013423311 -0.0010583333 -0.015302942
0.014230728 0.00127 -0.016718382
0.00050463574 -0.00127 -0.016313972
-0.0015139072 0.00021166667 -0.0082257353
-0.0021194702 -0.00127 -0.00074411777
0.0063584102 0.00021166667 -0.0094389711
0.013423311 -0.00084666669 -0.0001375001
-0.014230728 -0.00042333335 -0.00033970599
0.013221457 -0.00021166667 -0.017325001
-0.0083769532 0.00042333335 -0.0023617649
0.00090834434 -0.00042333335 -0.00033970599
0.011606622 0.00021166667 0.0024911764
-0.010799205 0.00127 -0.015302942
0.0013120529 0.00021166667 -0.019144854
0.0097899335 -0.00084666669 -0.015100736
0.0025231787 -0.00127 -0.015302942
0.008780662 0.00042333335 -0.014291912
-0.00090834434 -0.00042333335 -0.015100736
-0.006762119 -0.00084666669 -0.015505147
-0.00050463574 0.00127 -0.0021595589
0.0021194702 -0.00127 -0.016313972
0.0071658278 0.00127 -0.015707353
0.0089825159 0.00021166667 -0.01833603
-0.011202914 0 -0.013685294
-0.0011101987 0 0.0028955883
0.0027250331 -0.00127 -0.00094632368
0.011808476 0.00127 -0.015707353
0.0041380129 -0.00127 -0.015707353
-0.014432582 -0.00042333335 -0.0023617649
0.0089825159 -0.00127 -0.017325001
-0.003936159 -0.00127 -0.016516177
0.0017157615 -0.00127 -0.00054191187
-0.0027250331 -0.00127 -0.0015529413
-0.0075695361 -0.00042333335 -0.015100736
0.003936159 0.00021166667 -0.018538237
0.0093862247 -0.00127 -0.00054191187
0.0089825159 0.00021166667 -0.023391178
0.013221457 0.00084666669 -0.015100736
0.0073676817 0.00127 -0.01590956
-0.0021194702 -0.00127 -0.015302942
-0.00010092715 0 -0.015100736
0.0035324502 -0.00021166667 -0.020762501
0.0023213243 -0.00021166667 -0.0001375001
-0.0055509931 0.0010583333 -0.017325001
-0.0063584102 -0.00021166667 -0.013483088
-0.011606622 0 -0.0045860298
0.011404768 -0.00021166667 -0.02177353
-0.0013120529 -0.00021166667 -0.0092367651
-0.0055509931 -0.00084666669 -0.015505147
0.00070649007 -0.00021166667 -0.0001375001
0.0071658278 0.0010583333 -0.015100736
-0.0065602646 0.00021166667 -0.0138875
-0.008780662 -0.00021166667 -0.0051926472
-0.00010092715 0.00042333335 -0.015302942
0.0089825159 0.00021166667 -0.0045860298
0.0015139072 -0.00021166667 -0.021369118
