# .PCD v0.7 - Point Cloud Data file format
VERSION 0.7
FIELDS x y z
SIZE 4 4 4
TYPE F F F
COUNT 1 1 1
WIDTH 1381
HEIGHT 1
VIEWPOINT 0 0 0 1 0 0 0
POINTS 1381
DATA ascii
-0.020182114 0.00042333335 -0.037677776
-0.0048985714 0 -0.021129059
0.011168743 0.00127 -0.03570769
0.027627941 -0.00127 -0.03452564
-0.020574 -0.00042333335 -0.033343591
-0.019398343 0.00042333335 -0.0022162392
0.012736285 0 -0.03728376
-0.032722455 0 -0.0085205128
0.015479486 0 -0.01561282
0.024884742 0 -0.0022162392
-0.0048985714 -0.00042333335 -0.039647862
0.028019827 0 -0.017976923
-0.030371143 0 -0.03610171
-0.016655141 0.00042333335 -0.03570769
-0.025276627 0 -0.027433332
0.0017634856 0.00127 -0.001034188
0.02684417 0.00127 -0.034919657
-0.032722455 -0.00084666669 -0.03570769
-0.02684417 0.00042333335 -0.0002461538
0.030371143 -0.00127 -0.033737607
0.00019594285 0 -0.041617949
0.033898111 0 -0.0018222221
-0.033898111 0.00084666669 -0.03570769
-0.012736285 0 -0.018764958
-0.020965885 -0.00127 -0.0022162392
-0.010384971 0 -0.031767521
-0.033506226 -0.00127 -0.03452564
-0.029195484 0.00127 -0.034131624
0.0076417713 -0.00042333335 -0.041223932
0.00058782857 0.00084666669 -0.034919657
0.0150876 -0.00084666669 -0.0002461538
0.010776857 -0.00042333335 -0.033737607
0.011952514 0.00127 -0.001034188
-0.0178308 -0.00084666669 -0.0002461538
-0.025276627 0 -0.012460683
0.0178308 0 -0.019947007
-0.00019594285 0 -0.036495727
-0.016263256 0.00127 -0.034919657
-0.016655141 0.00127 -0.0018222221
-0.019398343 0.00084666669 -0.0002461538
-0.0092093144 0.00042333335 -0.03570769
0.0178308 0 -0.021917094
0.010776857 -0.00042333335 -0.0002461538
0.0084255422 -0.00042333335 -0.034131624
0.012736285 0.00042333335 -0.018764958
0.031938683 -0.00127 -0.0018222221
-0.012736285 -0.00042333335 -0.025463248
0.0076417713 -0.00042333335 -0.021129059
-0.016655141 0.00127 -0.03570769
-0.017438913 -0.00127 -0.0014282051
-0.0150876 0 -0.012854701
-0.0150876 -0.00042333335 -0.029403418
-0.012736285 0.00042333335 -0.029403418
-0.028019827 0 -0.01167265
0.025276627 -0.00127 -0.0018222221
0.028019827 0.00127 -0.03452564
-0.02684417 -0.00084666669 -0.0022162392
0.031154914 0.00127 -0.034131624
0.026452284 -0.00127 -0.035313673
-0.0092093144 0.00042333335 -0.03452564
-0.020182114 0.00042333335 -0.033737607
0.0084255422 -0.00127 -0.0014282051
-0.0025472571 0 -0.013248717
-0.029979257 0.00127 -0.035313673
0.018614572 0.00127 -0.0014282051
0.010776857 -0.00084666669 -0.0002461538
0.0048985714 0 -0.025069231
-0.0076417713 -0.00042333335 -0.017582906
-0.0099930856 0 -0.021917094
-0.028019827 0.00042333335 -0.0002461538
0.0178308 -0.00042333335 -0.032949571
-0.0178308 0 -0.010096581
-0.012736285 0.00042333335 -0.0053683762
0.031938683 -0.00127 -0.0022162392
-0.012736285 0.00042333335 -0.0093085468
-0.0178308 0 -0.0026102562
-0.031938683 -0.00127 -0.033737607
-0.028803598 -0.00042333335 -0.03570769
0.0048985714 0 -0.010884616
0.022925314 0 -0.010884616
0.028019827 0 -0.029797435
-0.00019594285 -0.00042333335 -0.034131624
0.0088174287 0.00127 -0.0018222221
-0.0084255422 0.00042333335 -0.034919657
0.0041147997 0.00042333335 -0.033737607
0.029587371 -0.00042333335 -0.033737607
-0.0099930856 0 -0.018370939
0.033506226 0 -0.03570769
-0.0048985714 -0.00042333335 0.00014786331
-0.029195484 -0.00084666669 -0.0022162392
-0.0076417713 -0.00042333335 0.00014786331
-0.013520056 -0.00042333335 -0.03570769
-0.0099930856 0.00127 -0.0014282051
-0.02410097 -0.00127 -0.0014282051
0.0017634856 0.00084666669 -0.0002461538
0.011952514 0.00127 -0.0002461538
0.0029391428 0.00127 -0.001034188
-0.00019594285 0.00127 -0.034919657
0.0025472571 0 -0.0037923076
0.0178308 -0.00042333335 -0.03452564
-0.0033310284 -0.00042333335 -0.035313673
0.0178308 0 0.00093589746
0.015479486 -0.00042333335 -0.03452564
-0.012736285 0 -0.030191453
0.031546798 -0.00127 -0.001034188
0.021749657 0.00127 -0.0014282051
0.0048985714 0 -0.022705128
-0.027627941 0.00084666669 -0.0002461538
0.015479486 -0.00042333335 -0.034131624
0.0048985714 -0.00042333335 -0.034131624
-0.022925314 0.00042333335 -0.033737607
-0.0076417713 0 -0.036495727
0.028411712 -0.00042333335 -0.033737607
-0.020574 0 -0.03610171
-0.0029391428 0.00127 -0.0014282051
0.022141542 0.00042333335 -0.03570769
-0.030371143 0 -0.017976923
-0.005290457 0 -0.0026102562
-0.0076417713 -0.00042333335 -0.020341026
-0.020182114 0 -0.025857264
-0.029979257 0.00084666669 -0.0002461538
-0.0056823427 0 -0.033343591
-0.00019594285 -0.00042333335 -0.01561282
0.029587371 0.00042333335 -0.03570769
0.029587371 -0.00127 -0.001034188
0.012344399 -0.00127 -0.03570769
-0.028019827 0 -0.02388718
0.010384971 0 -0.0045803417
0.030371143 0 -0.024675213
-0.0060742283 -0.00127 -0.001034188
-0.0013716 0.00084666669 -0.033737607
-0.010384971 0 0.00093589746
0.0099930856 0 0.00014786331
-0.0017634856 0 -0.0022162392
-0.021357771 0 -0.0002461538
-0.032722455 0 -0.039647862
-0.029587371 -0.00127 -0.03570769
-0.0025472571 0 -0.0061564101
-0.025276627 0 -0.029403418
-0.011952514 0.00084666669 -0.0022162392
0.02684417 -0.00084666669 -0.033737607
0.028019827 0 -0.040041879
-0.0076417713 -0.00042333335 -0.034919657
0.012344399 0.00127 -0.0014282051
-0.032722455 0 -0.014036752
0.022533428 -0.00127 -0.00064017088
0.00019594285 0.00042333335 -0.024675213
0.020574 -0.00127 -0.0002461538
-0.0048985714 0 -0.023099145
0.0025472571 0.00042333335 -0.0085205128
-0.032722455 0.00084666669 -0.0002461538
0.017047027 -0.00042333335 -0.0002461538
0.025276627 0.00042333335 -0.021917094
-0.022925314 0 -0.024281196
-0.017047027 0.00042333335 -0.03570769
0.00097971421 -0.00127 -0.034131624
0.020182114 0 -0.017976923
0.00019594285 -0.00042333335 -0.021523077
-0.03311434 0 -0.0053683762
-0.011168743 -0.00127 -0.033737607
0.0025472571 0 -0.017188888
0.0076417713 -0.00084666669 -0.0022162392
0.028019827 0 -0.023099145
0.030763028 0 -0.040435895
-0.022925314 0 -0.0093085468
0.025668513 -0.00042333335 -0.0022162392
-0.0076417713 0.00042333335 0.0025119658
0.0017634856 -0.00042333335 -0.034919657
-0.017438913 -0.00042333335 -0.034131624
-0.0076417713 0 -0.038465813
-0.018222686 -0.00042333335 -0.03570769
0.028019827 0.00127 -0.0002461538
0.030371143 0 -0.02388718
0.0072498852 -0.00042333335 -0.035313673
-0.0033310284 -0.00127 -0.033737607
-0.025276627 0 -0.0049743587
0.00097971421 -0.00127 -0.033737607
-0.020574 0 -0.031373505
-0.0048985714 -0.00127 -0.034919657
0.0048985714 0 -0.0097025642
-0.018614572 -0.00084666669 -0.035313673
0.016263256 -0.00127 -0.00064017088
0.0076417713 -0.00042333335 -0.027433332
0.0099930856 0.00084666669 -0.03452564
0.025276627 0 -0.029009402
-0.027236056 0.00127 -0.00064017088
0.025276627 0.00127 -0.03570769
0.029587371 0.00127 -0.0002461538
0.00019594285 0 -0.026251281
0.03311434 0 -0.025857264
0.005290457 0 -0.0073384615
-0.022141542 0.00084666669 -0.0002461538
0.026060399 -0.00127 -0.034131624
-0.020574 -0.00042333335 -0.03452564
0.0021553712 -0.00127 -0.0018222221
0.010776857 0 -0.033343591
0.0099930856 0.00042333335 -0.0081264954
0.0076417713 0.00042333335 -0.0026102562
0.023709085 -0.00042333335 -0.033737607
0.028019827 0.00042333335 -0.013642735
0.0060742283 0.00127 -0.00064017088
-0.010776857 -0.00042333335 -0.03452564
-0.013520056 0.00084666669 -0.0002461538
0.019006457 0.00127 -0.0002461538
-0.016263256 -0.00084666669 -0.0002461538
-0.00019594285 -0.00042333335 -0.021129059
0.029979257 -0.00042333335 -0.0002461538
-0.011168743 -0.00127 -0.00064017088
0.033506226 0 -0.0002461538
-0.0025472571 0 -0.0065504271
-0.00019594285 0.00042333335 -0.0057623931
0.0084255422 -0.00084666669 -0.0022162392
0.0096012 -0.00127 -0.001034188
0.020182114 0 -0.0085205128
0.03311434 0 -0.021129059
0.03311434 0 -0.042011965
-0.0029391428 -0.00042333335 -0.034131624
0.0029391428 0.00042333335 -0.0002461538
0.00019594285 -0.00042333335 -0.013642735
0.03311434 0 -0.030191453
-0.006466114 -0.00127 -0.034131624
-0.0021553712 -0.00084666669 -0.0002461538
-0.0178308 -0.00042333335 -0.03452564
-0.025668513 0 0.00093589746
0.0150876 0 -0.010490598
-0.0025472571 -0.00042333335 0.00014786331
-0.0080336565 -0.00127 -0.03452564
0.0150876 0 -0.0033982904
-0.028803598 -0.00127 -0.001034188
-0.024492856 0.00042333335 -0.0022162392
-0.0021553712 0.00127 -0.0022162392
-0.018222686 0 -0.033737607
-0.020965885 0.00127 -0.0022162392
0.0068579996 -0.00127 -0.0002461538
0.0076417713 -0.00042333335 -0.010490598
-0.015479486 0 -0.027433332
-0.00019594285 -0.00042333335 -0.03570769
-0.0068579996 0.00042333335 -0.03570769
-0.0178308 0 -0.032555554
0.0060742283 -0.00042333335 -0.0002461538
-0.015479486 0 -0.017976923
0.03311434 0 -0.0065504271
-0.015479486 -0.00042333335 -0.035313673
-0.0076417713 0 -0.025857264
0.0025472571 0.00042333335 -0.020735042
0.025276627 0.00042333335 -0.014430769
0.032330569 -0.00127 -0.0014282051
-0.0025472571 -0.00042333335 -0.012066666
-0.020182114 0 -0.029009402
0.014695714 -0.00127 -0.00064017088
0.0017634856 0.00127 -0.00064017088
0.029195484 0 -0.0022162392
0.028411712 -0.00127 -0.03570769
-0.025668513 -0.00127 -0.0014282051
0.0076417713 -0.00042333335 0.00093589746
-0.0056823427 0.00127 -0.0002461538
-0.0178308 0 -0.015218803
-0.020182114 0.00042333335 -0.036889743
-0.0025472571 0 -0.0041863248
-0.0041147997 0.00127 -0.035313673
-0.024492856 0 -0.033737607
0.012344399 0.00084666669 -0.03452564
0.0048985714 0 -0.015218803
0.0037229143 0 -0.0022162392
-0.0045066858 -0.00084666669 -0.0002461538
0.0048985714 0 -0.027039316
0.031938683 -0.00127 -0.0014282051
-0.012736285 0.00042333335 -0.012066666
-0.014695714 0.00042333335 -0.03570769
0.015479486 0 -0.024675213
-0.0150876 -0.00127 -0.0022162392
-0.0048985714 0 -0.011278632
-0.028019827 0 -0.03058547
0.0150876 0.00042333335 -0.028221367
-0.020182114 0 -0.041617949
-0.030763028 0 -0.026645299
-0.0178308 0.00042333335 -0.0073384615
0.0056823427 -0.00127 -0.0002461538
-0.010776857 0.00042333335 -0.034131624
0.014303828 -0.00127 -0.00064017088
-0.013911942 0 -0.0022162392
-0.010776857 -0.00127 -0.035313673
-0.020574 0 -0.016006837
0.033506226 -0.00084666669 -0.03570769
-0.032722455 0.00127 -0.00064017088
-0.015479486 -0.00042333335 -0.03610171
0.02410097 0.00127 -0.03570769
0.022925314 0.00042333335 -0.019158974
0.022533428 -0.00127 -0.0014282051
-0.0045066858 0.00127 -0.034131624
-0.012736285 0.00084666669 -0.03452564
-0.0092093144 0.00042333335 -0.035313673
-0.0048985714 -0.00084666669 -0.03452564
-0.00019594285 -0.00042333335 -0.017188888
0.0099930856 0.00042333335 -0.024675213
0.03311434 0 -0.019947007
-0.012344399 -0.00127 -0.0022162392
-0.013911942 -0.00042333335 -0.034919657
-0.029195484 -0.00127 -0.0014282051
0.0084255422 0.00042333335 -0.0022162392
-0.0048985714 0 -0.01167265
0.032330569 0.00127 -0.0018222221
-0.018614572 -0.00127 -0.0018222221
-0.0178308 0.00042333335 -0.010490598
-0.0025472571 0 -0.0033982904
0.00019594285 0.00042333335 -0.0097025642
0.027627941 -0.00127 -0.034131624
-0.0076417713 0 -0.029009402
0.012736285 -0.00042333335 -0.029797435
0.033898111 -0.00084666669 -0.001034188
-0.020182114 0 -0.012460683
-0.021749657 0.00084666669 -0.03570769
0.0076417713 -0.00042333335 -0.033343591
-0.01587137 -0.00127 -0.00064017088
-0.0033310284 0.00127 -0.0018222221
0.029979257 0 -0.033343591
0.020574 0 -0.025463248
-0.033898111 -0.00084666669 -0.033737607
-0.0092093144 0.00127 -0.0018222221
0.025668513 0.00127 -0.03570769
0.028019827 0 -0.041223932
0.0076417713 0.00042333335 -0.036889743
0.023709085 0.00127 -0.03570769
0.012736285 0.00042333335 -0.029403418
-0.028019827 0 -0.020341026
-0.020965885 0.00127 -0.0002461538
-0.0178308 0 -0.02782735
0.0048985714 0 -0.029797435
0.005290457 0 -0.019947007
-0.025276627 0 -0.0073384615
-0.011168743 0.00127 -0.033737607
-0.0037229143 -0.00127 -0.034919657
0.020574 0.00042333335 -0.0022162392
-0.012736285 0.00042333335 -0.018764958
-0.020574 0 -0.025857264
0.012736285 0 -0.028615383
0.0048985714 0.00042333335 -0.038071793
-0.0048985714 0.00127 -0.00064017088
0.010776857 -0.00042333335 -0.03452564
0.00019594285 0 -0.013642735
0.030763028 0 -0.026645299
0.0072498852 0.00127 -0.0002461538
0.015479486 0 -0.040829916
-0.012736285 -0.00042333335 -0.033343591
0.005290457 0 -0.032949571
0.0025472571 0 -0.020341026
0.006466114 -0.00042333335 -0.034131624
-0.0076417713 -0.00042333335 -0.025463248
0.0017634856 -0.00127 -0.0022162392
-0.013128171 0.00127 -0.034919657
-0.028803598 0.00042333335 -0.033737607
0.027627941 0 -0.030979486
0.005290457 -0.00084666669 -0.033737607
0.0041147997 0.00127 -0.0018222221
0.025276627 -0.00042333335 -0.036495727
0.0076417713 0.00042333335 -0.036495727
0.025276627 0 -0.024281196
-0.026452284 0.00127 -0.0022162392
-0.00019594285 -0.00084666669 -0.0022162392
0.024492856 0.00127 -0.035313673
0.00019594285 0 -0.012066666
-0.026060399 0.00127 -0.034919657
0.014695714 0.00084666669 -0.03452564
0.00019594285 0.00042333335 -0.041223932
0.020574 0 0.0013299146
0.018222686 -0.00084666669 -0.03570769
-0.0021553712 0.00084666669 -0.034919657
-0.0076417713 0 -0.016400855
-0.020182114 0 -0.010884616
0.03311434 0 -0.021523077
-0.021357771 0.00127 -0.0022162392
0.005290457 0 -0.0057623931
-0.0092093144 0.00127 -0.001034188
0.03311434 0 -0.0093085468
0.0150876 -0.00042333335 -0.0002461538
-0.0099930856 0.00127 -0.0002461538
-0.028411712 -0.00084666669 -0.0022162392
0.022925314 0 -0.027039316
-0.0025472571 -0.00042333335 -0.013248717
0.021357771 -0.00127 -0.03452564
0.03311434 0.00084666669 -0.0002461538
-0.019006457 0.00042333335 -0.0002461538
0.0099930856 0 -0.032949571
0.026452284 0 -0.0022162392
0.012736285 0.00042333335 -0.038859829
0.012736285 0 -0.031373505
0.030371143 0 0.00014786331
-0.020182114 0.00042333335 -0.034131624
-0.019398343 0.00127 -0.00064017088
0.017438913 -0.00127 -0.0002461538
-0.028411712 -0.00127 -0.035313673
0.020182114 0 -0.02388718
-0.021357771 0.00042333335 -0.034131624
-0.012736285 -0.00042333335 -0.014824786
0.016263256 0.00042333335 -0.03570769
0.013520056 0.00084666669 -0.03570769
-0.0025472571 0 -0.0085205128
0.0048985714 0 -0.018370939
0.0013716 -0.00042333335 -0.034919657
0.03311434 0 -0.037677776
-0.022925314 0 -0.017188888
-0.0076417713 0.00042333335 -0.02231111
0.029979257 -0.00127 -0.035313673
-0.010776857 0.00042333335 -0.0002461538
-0.032330569 0.00042333335 -0.035313673
-0.0041147997 0.00127 -0.034131624
-0.032722455 0 -0.0041863248
-0.0072498852 -0.00084666669 -0.033737607
0.022141542 0.00084666669 -0.03570769
-0.0099930856 0 -0.031373505
0.015479486 0 -0.0037923076
0.030371143 -0.00084666669 -0.0022162392
0.020182114 0.00127 -0.0018222221
-0.0021553712 -0.00127 -0.001034188
-0.033898111 0.00084666669 -0.0014282051
0.011952514 -0.00042333335 -0.0002461538
0.0068579996 -0.00042333335 -0.03570769
-0.028019827 0 -0.041617949
0.0068579996 0.00127 -0.0022162392
0.016263256 0.00042333335 -0.0002461538
-0.026060399 0.00084666669 -0.0002461538
0.019006457 0.00042333335 -0.0002461538
-0.020182114 0 -0.013642735
-0.010384971 0 -0.010884616
0.020182114 0 -0.0033982904
-0.030763028 0.00084666669 -0.0002461538
-0.020965885 0 -0.033737607
-0.026452284 -0.00042333335 -0.03570769
0.00019594285 0.00042333335 -0.014036752
0.0150876 0.00042333335 -0.024675213
0.00019594285 -0.00042333335 -0.023099145
0.0013716 -0.00084666669 -0.0022162392
-0.00019594285 0.00042333335 -0.014036752
-0.030371143 0 -0.019158974
0.00019594285 -0.00042333335 -0.030979486
0.0178308 0.00127 -0.035313673
0.031938683 -0.00127 -0.035313673
-0.0060742283 0.00127 -0.03570769
-0.0025472571 -0.00042333335 -0.029797435
-0.028411712 -0.00127 -0.034919657
-0.0076417713 -0.00042333335 -0.0097025642
0.005290457 0 0.00014786331
0.014695714 -0.00084666669 -0.035313673
-0.017047027 -0.00127 -0.0022162392
-0.005290457 0 -0.016794872
0.005290457 0 -0.0097025642
-0.0178308 -0.00042333335 -0.034919657
-0.022533428 0 -0.0002461538
-0.0017634856 -0.00042333335 -0.0022162392
0.017438913 -0.00042333335 -0.0022162392
0.011952514 0.00127 -0.0014282051
0.0076417713 0.00042333335 -0.041223932
-0.030371143 0 0.0013299146
0.018222686 -0.00127 -0.035313673
0.020574 0.00084666669 -0.0022162392
-0.0045066858 -0.00127 -0.001034188
-0.015479486 0 -0.030979486
0.00019594285 -0.00042333335 -0.028615383
0.0099930856 0.00042333335 -0.0022162392
0.0099930856 0 -0.028615383
-0.022533428 0 -0.033343591
-0.00019594285 -0.00127 -0.03452564
0.017438913 0.00127 -0.0022162392
0.0025472571 0 -0.0065504271
-0.031938683 -0.00084666669 -0.0022162392
0.016263256 0 -0.0022162392
0.0178308 0 -0.014430769
-0.012736285 0.00042333335 -0.038465813
0.0099930856 0 -0.039647862
0.0099930856 0.00042333335 -0.020341026
0.01587137 -0.00084666669 -0.035313673
-0.00019594285 0.00042333335 -0.010490598
0.00019594285 0.00127 -0.0022162392
-0.0017634856 -0.00127 -0.0018222221
0.0025472571 -0.00127 -0.0014282051
0.030763028 -0.00127 -0.033737607
0.0178308 0 -0.0057623931
-0.0033310284 0.00127 -0.035313673
0.00019594285 -0.00042333335 -0.03728376
-0.022925314 0 -0.017976923
-0.00019594285 0 -0.012460683
0.0076417713 0 -0.038071793
-0.022925314 0 -0.030979486
0.012736285 0.00042333335 -0.040041879
0.0178308 -0.00127 -0.0018222221
-0.03311434 0 -0.037677776
-0.0037229143 0.00084666669 -0.03452564
0.031546798 0.00127 -0.035313673
0.0099930856 0 -0.025463248
0.010384971 -0.00084666669 -0.0002461538
-0.00019594285 0.00042333335 -0.012854701
-0.03311434 0 -0.038071793
-0.018614572 -0.00084666669 -0.03570769
-0.025668513 0.00127 -0.034131624
-0.0076417713 0 -0.02388718
0.014303828 -0.00042333335 -0.034919657
-0.0048985714 0 -0.017188888
0.0048985714 0.00042333335 -0.024281196
0.0099930856 -0.00042333335 -0.035313673
0.025276627 0 -0.041223932
0.03311434 0 -0.020341026
-0.011560628 0.00084666669 -0.033737607
-0.028019827 0 -0.040829916
0.033506226 0.00042333335 -0.033343591
-0.028019827 0 -0.0033982904
-0.025276627 -0.00042333335 -0.033737607
-0.0056823427 -0.00084666669 -0.033737607
0.032722455 0.00084666669 -0.033737607
-0.025276627 -0.00042333335 -0.029009402
0.011560628 0 -0.0002461538
-0.033506226 0.00042333335 -0.035313673
-0.03311434 0 -0.0061564101
-0.025276627 0 -0.0089145293
0.0025472571 0.00042333335 -0.038071793
0.0076417713 -0.00042333335 -0.036495727
0.033898111 0.00127 -0.0022162392
0.018222686 -0.00042333335 -0.0022162392
0.03311434 -0.00084666669 -0.033737607
-0.027236056 0.00127 -0.03452564
-0.0056823427 -0.00042333335 -0.033737607
0.0099930856 0 -0.013248717
-0.0029391428 -0.00042333335 -0.033737607
0.020182114 -0.00042333335 -0.0002461538
0.0033310284 0 -0.03570769
-0.005290457 0 -0.041223932
0.0033310284 0.00127 -0.00064017088
-0.022533428 0.00084666669 -0.03452564
-0.0048985714 -0.00042333335 -0.029797435
-0.031546798 -0.00127 -0.035313673
-0.023317199 0.00042333335 -0.034131624
0.0076417713 0.00042333335 -0.014824786
-0.024884742 0.00042333335 -0.03570769
-0.013520056 0.00084666669 -0.0022162392
0.0080336565 0.00042333335 -0.033343591
-0.0045066858 0.00042333335 -0.033737607
-0.030763028 0.00084666669 -0.035313673
0.020182114 0 -0.026251281
-0.00019594285 0.00042333335 -0.0069444445
-0.012736285 -0.00042333335 -0.013642735
0.03311434 0 -0.0037923076
-0.0178308 0 -0.0077324784
-0.022925314 0 -0.03610171
0.0080336565 -0.00042333335 -0.034919657
0.011952514 0.00127 -0.00064017088
-0.0150876 -0.00042333335 -0.030191453
-0.015479486 0 -0.015218803
0.024884742 -0.00042333335 -0.033737607
-0.00019594285 0 -0.02782735
-0.0178308 0 0.00054188038
-0.0013716 0.00127 -0.034919657
0.0096012 0 -0.0022162392
0.03311434 0 -0.03570769
0.030371143 -0.00127 -0.0022162392
0.027627941 0 -0.03610171
-0.027627941 -0.00084666669 -0.034131624
-0.033898111 -0.00084666669 -0.0002461538
0.012736285 -0.00042333335 -0.029009402
0.0076417713 -0.00042333335 -0.0077324784
0.00019594285 0 -0.039253846
-0.0056823427 0.00127 -0.0018222221
0.0178308 0 -0.032161538
0.028411712 0 -0.0002461538
0.030763028 -0.00042333335 -0.0002461538
-0.028019827 0 -0.019158974
0.025668513 0 0.00093589746
0.0178308 0 -0.039253846
-0.017438913 -0.00127 -0.001034188
0.025276627 0.00042333335 -0.01167265
0.0076417713 -0.00042333335 -0.0065504271
0.0076417713 0.00127 -0.00064017088
0.021357771 0.00127 -0.001034188
0.0048985714 -0.00127 -0.00064017088
-0.011168743 0.00127 -0.00064017088
0.0029391428 0 -0.0002461538
0.019398343 -0.00084666669 -0.033737607
0.019006457 -0.00042333335 -0.03570769
-0.028019827 -0.00127 -0.0022162392
0.013520056 -0.00127 -0.0014282051
-0.0048985714 0 -0.024281196
-0.0178308 0.00127 -0.00064017088
-0.0048985714 0 -0.024675213
0.00019594285 -0.00042333335 -0.032555554
-0.020182114 0 -0.038465813
0.022925314 0 -0.014036752
-0.022925314 0 -0.037677776
-0.0041147997 0.00127 -0.0014282051
-0.0025472571 -0.00042333335 -0.026645299
0.0096012 -0.00042333335 -0.0022162392
-0.024492856 0 -0.0002461538
0.0096012 0 -0.0002461538
0.01587137 -0.00042333335 -0.0002461538
0.01587137 0.00127 -0.0022162392
-0.030763028 0.00042333335 -0.0022162392
-0.024884742 0 -0.0022162392
0.0072498852 0.00084666669 -0.0002461538
0.031546798 -0.00127 -0.0022162392
-0.0017634856 -0.00127 -0.033737607
0.030371143 0.00127 -0.033737607
-0.0041147997 -0.00084666669 -0.034919657
0.0076417713 0 -0.02231111
-0.016263256 0.00042333335 -0.0022162392
-0.027236056 -0.00127 -0.0022162392
-0.012736285 0 0.00093589746
-0.0076417713 0 -0.027039316
-0.010384971 0 -0.013642735
-0.019790228 0.00127 -0.034919657
-0.023709085 0.00084666669 -0.03570769
-0.0076417713 0 0.0021179488
0.00019594285 -0.00042333335 -0.014430769
0.0076417713 0.00042333335 -0.012854701
0.032330569 0.00127 -0.035313673
-0.013128171 -0.00127 -0.00064017088
0.019398343 0.00084666669 -0.03570769
0.0045066858 0.00127 -0.00064017088
0.0096012 -0.00127 -0.0002461538
0.030371143 0 -0.0061564101
0.012736285 -0.00127 -0.035313673
-0.010384971 0 -0.0030042734
-0.033898111 0.00084666669 -0.035313673
0.032330569 -0.00084666669 -0.0022162392
0.00019594285 0 -0.020341026
-0.025276627 0 -0.032555554
0.0076417713 0.00042333335 -0.010096581
-0.0072498852 -0.00042333335 -0.0002461538
-0.0099930856 0.00042333335 -0.038071793
0.010776857 -0.00042333335 -0.0022162392
-0.018222686 -0.00127 -0.0018222221
0.020182114 0 0.0013299146
-0.0178308 0 -0.030979486
0.021749657 -0.00084666669 -0.033737607
-0.00019594285 -0.00042333335 -0.041223932
-0.006466114 -0.00084666669 -0.0002461538
0.024492856 -0.00127 -0.0002461538
-0.03311434 0 -0.041617949
-0.031154914 -0.00127 -0.035313673
-0.0045066858 -0.00042333335 -0.034131624
0.022925314 0 -0.0057623931
-0.03311434 0 -0.016794872
0.012736285 0 -0.0041863248
0.010384971 0 -0.0030042734
0.030763028 -0.00127 -0.03570769
0.0025472571 0.00042333335 -0.014824786
-0.0025472571 0 -0.010490598
-0.0150876 0 -0.0037923076
-0.0080336565 -0.00127 -0.0022162392
-0.01587137 0.00127 -0.00064017088
-0.028019827 0.00127 -0.03452564
0.0025472571 0 -0.02782735
-0.013520056 0.00042333335 -0.0002461538
0.02684417 0.00084666669 -0.03570769
0.018614572 0.00084666669 -0.0022162392
-0.020182114 -0.00042333335 -0.032949571
-0.022141542 0.00084666669 -0.0022162392
0.0076417713 -0.00042333335 -0.011278632
-0.018222686 -0.00127 -0.035313673
-0.019006457 -0.00042333335 -0.034919657
0.022925314 -0.00127 -0.0014282051
0.0048985714 0.00127 -0.035313673
0.0076417713 -0.00042333335 -0.040829916
-0.019398343 -0.00127 -0.03570769
-0.0072498852 0.00127 -0.0022162392
0.025668513 -0.00127 -0.0002461538
0.020182114 0 -0.016400855
0.0025472571 0 -0.021523077
0.013911942 0.00127 -0.03570769
0.0025472571 0.00042333335 -0.024675213
-0.00019594285 0 -0.01561282
-0.0021553712 -0.00127 -0.0014282051
-0.031154914 0 -0.0022162392
0.0048985714 0.00127 -0.00064017088
-0.0099930856 -0.00042333335 -0.036495727
-0.0048985714 0 -0.016794872
0.0099930856 0 -0.0057623931
0.027627941 0 -0.038465813
-0.0076417713 0 -0.01167265
0.006466114 0 -0.033737607
-0.0092093144 0.00127 -0.03452564
0.020574 0 0.00054188038
-0.032722455 0 -0.0049743587
0.0099930856 0.00042333335 -0.010096581
-0.030763028 -0.00127 -0.0022162392
-0.031154914 -0.00084666669 -0.03570769
0.031938683 -0.00127 -0.03452564
0.015479486 0 -0.010884616
0.023317199 -0.00042333335 -0.0002461538
0.0025472571 -0.00127 -0.035313673
0.018222686 0.00084666669 -0.033737607
0.0041147997 -0.00042333335 -0.03452564
-0.0178308 0 -0.017976923
0.022925314 0 -0.02388718
0.022533428 -0.00042333335 -0.0002461538
-0.032722455 0 -0.0045803417
0.024884742 0.00127 -0.001034188
0.012736285 0.00042333335 -0.0097025642
0.030763028 0 -0.0002461538
-0.0084255422 0 -0.033737607
-0.0099930856 0 -0.01167265
0.022925314 0 -0.024281196
-0.0048985714 -0.00042333335 -0.035313673
-0.026452284 0 -0.033737607
0.023709085 0.00084666669 -0.033737607
0.00058782857 -0.00042333335 -0.034131624
0.015479486 0 -0.018764958
0.014303828 0 -0.03570769
-0.02410097 0.00127 -0.0002461538
-0.022925314 0 -0.0033982904
0.00019594285 -0.00127 -0.00064017088
-0.0178308 0.00042333335 -0.033343591
0.029587371 -0.00127 -0.03570769
-0.011168743 -0.00127 -0.03452564
0.016263256 0.00127 -0.0002461538
-0.027627941 0.00084666669 -0.0022162392
0.015479486 0 -0.0077324784
-0.019398343 0 -0.0022162392
0.00019594285 -0.00042333335 -0.01167265
-0.029195484 -0.00042333335 -0.0022162392
0.028019827 0 -0.0057623931
0.01587137 0 -0.0022162392
0.027627941 0.00084666669 -0.03570769
0.005290457 0 -0.041617949
0.0033310284 0.00127 -0.033737607
0.028019827 0 -0.012854701
0.00097971421 0 -0.0022162392
-0.024492856 -0.00042333335 -0.03570769
0.0048985714 0 -0.0089145293
-0.011952514 0.00084666669 -0.03570769
0.020182114 -0.00042333335 -0.032949571
0.012736285 0.00042333335 0.00014786331
-0.0041147997 0.00127 -0.00064017088
-0.020574 0.00084666669 -0.0002461538
0.025276627 0 -0.038071793
0.0099930856 0 -0.036889743
0.00019594285 -0.00042333335 -0.012854701
0.005290457 0 -0.018764958
-0.0178308 0.00127 -0.0022162392
0.0017634856 -0.00127 -0.034919657
0.022925314 0.00042333335 -0.0022162392
-0.024884742 0.00127 -0.035313673
-0.020574 0 -0.0077324784
-0.032722455 0 -0.019158974
0.012736285 0 -0.0061564101
-0.012736285 0 -0.02782735
-0.0076417713 0 -0.036889743
0.025276627 0.00042333335 -0.0049743587
0.0041147997 0.00127 -0.03452564
-0.012736285 -0.00042333335 -0.02388718
-0.032722455 0 -0.040435895
0.0150876 0 -0.0081264954
-0.019790228 -0.00042333335 -0.03570769
-0.013128171 -0.00127 -0.035313673
-0.026060399 -0.00084666669 -0.03452564
-0.005290457 0 -0.022705128
0.0041147997 -0.00127 -0.035313673
0.03311434 0 -0.013248717
-0.030371143 0 -0.022705128
0.023317199 0.00127 -0.035313673
-0.030763028 0 0.0017239316
-0.011560628 0.00127 -0.03570769
0.0021553712 -0.00127 -0.00064017088
-0.020182114 0.00042333335 0.0017239316
0.0099930856 0 -0.016400855
-0.0178308 0.00042333335 -0.02388718
0.032722455 0.00127 -0.033737607
-0.0076417713 0.00127 -0.033737607
0.0068579996 -0.00127 -0.034919657
0.013520056 -0.00042333335 -0.0002461538
0.029195484 0.00084666669 -0.03570769
-0.025668513 0 -0.028221367
0.0076417713 0 -0.017582906
-0.0025472571 -0.00127 -0.001034188
0.019790228 -0.00127 -0.0002461538
0.030371143 0 -0.0069444445
-0.03311434 0 -0.012460683
-0.011168743 -0.00084666669 -0.033737607
-0.016263256 -0.00042333335 -0.0002461538
0.022925314 0.00127 -0.0002461538
0.013128171 0.00042333335 -0.0002461538
-0.025276627 0 -0.018764958
-0.0048985714 0 -0.026251281
0.020182114 0 0.00093589746
-0.026452284 0.00127 -0.034919657
0.015479486 0.00084666669 -0.0022162392
0.0178308 0.00127 -0.034131624
0.028019827 0.00042333335 -0.014430769
0.028803598 -0.00127 -0.0018222221
-0.0076417713 0 -0.0057623931
0.012736285 0 0.002905983
0.028411712 -0.00127 -0.0014282051
-0.024884742 0.00127 -0.03452564
0.00019594285 -0.00127 -0.0022162392
0.0178308 0.00042333335 -0.0097025642
-0.023317199 0.00042333335 -0.03570769
0.034289997 0 -0.034919657
-0.0017634856 0.00127 -0.035313673
-0.012736285 -0.00042333335 -0.03570769
-0.011168743 0.00084666669 -0.0002461538
0.020182114 0 -0.027039316
-0.019398343 -0.00042333335 -0.0002461538
-0.0088174287 -0.00042333335 -0.0022162392
-0.0096012 0.00127 -0.0018222221
-0.019790228 0.00084666669 -0.03570769
-0.022533428 -0.00084666669 -0.03570769
0.033506226 -0.00084666669 -0.03452564
-0.00019594285 -0.00042333335 -0.0061564101
-0.0025472571 -0.00042333335 -0.0073384615
0.022141542 -0.00042333335 -0.03570769
-0.010384971 0 -0.01561282
-0.0045066858 -0.00127 -0.0014282051
0.024492856 -0.00127 -0.00064017088
0.0021553712 0.00127 -0.0002461538
-0.023709085 0.00084666669 -0.03452564
0.012736285 0.00127 -0.00064017088
0.028019827 0 -0.023493161
0.033898111 0.00084666669 -0.035313673
-0.031938683 0.00042333335 -0.0002461538
0.022141542 -0.00042333335 -0.0022162392
0.0025472571 0.00127 -0.03570769
0.0048985714 0.00042333335 -0.031767521
0.0076417713 0 -0.041223932
-0.005290457 0.00084666669 -0.0002461538
0.021357771 0.00042333335 -0.033737607
0.0099930856 0 -0.0081264954
0.0150876 0.00127 -0.03570769
-0.0048985714 -0.00042333335 -0.037677776
0.0056823427 0.00127 -0.0018222221
-0.021749657 -0.00042333335 -0.03570769
-0.012736285 0.00042333335 -0.012460683
-0.010384971 0 -0.0085205128
0.012736285 0.00042333335 -0.037677776
0.005290457 0 -0.02388718
-0.0076417713 0.00127 -0.0018222221
-0.018614572 -0.00042333335 -0.03452564
-0.034289997 0.00042333335 -0.034131624
0.017438913 -0.00084666669 -0.03570769
0.025276627 0 -0.024675213
0.010776857 0.00042333335 -0.0002461538
-0.0025472571 0 -0.039253846
0.030763028 0 -0.031767521
0.0025472571 0 -0.037677776
-0.0021553712 -0.00127 -0.0002461538
0.025276627 0 -0.026645299
0.0056823427 0.00042333335 -0.033737607
-0.005290457 -0.00042333335 -0.03570769
-0.0099930856 -0.00127 -0.03570769
0.0076417713 0 0.0021179488
-0.033898111 -0.00042333335 -0.033737607
0.025276627 0 -0.032555554
-0.0037229143 0 -0.0022162392
-0.013520056 -0.00127 -0.035313673
-0.0041147997 -0.00127 -0.00064017088
-0.020182114 0 -0.0085205128
-0.025276627 0 -0.0061564101
-0.010776857 -0.00127 -0.03452564
0.014303828 0.00127 -0.00064017088
0.0048985714 0.00042333335 -0.021523077
0.020574 0.00084666669 -0.033737607
-0.00019594285 -0.00042333335 -0.02782735
0.012736285 0 -0.014430769
-0.02410097 0.00084666669 -0.0022162392
-0.017047027 -0.00127 -0.00064017088
-0.0068579996 -0.00127 -0.034919657
-0.012736285 0.00042333335 -0.0057623931
0.030371143 0 -0.019947007
-0.00058782857 -0.00127 -0.0018222221
-0.010384971 0 -0.013248717
0.00019594285 0.00127 -0.001034188
-0.019006457 -0.00042333335 -0.03570769
-0.0099930856 0 -0.010490598
0.0021553712 -0.00127 -0.034919657
-0.0025472571 -0.00042333335 0.0013299146
0.0037229143 0.00127 -0.034131624
-0.016263256 0.00042333335 -0.034131624
-0.005290457 0.00042333335 -0.035313673
0.006466114 0.00084666669 -0.0002461538
0.0076417713 0 -0.023493161
0.024492856 -0.00127 -0.035313673
0.016263256 0.00127 -0.001034188
0.0025472571 0 -0.01167265
-0.005290457 0 -0.040041879
-0.025276627 0 -0.01561282
0.029979257 -0.00127 -0.001034188
-0.0048985714 0 -0.0073384615
-0.020574 0 -0.040829916
-0.026060399 0.00127 -0.0002461538
-0.03311434 0 0.00093589746
-0.022141542 -0.00042333335 -0.034131624
0.020182114 0 -0.023493161
-0.017047027 -0.00042333335 -0.033343591
0.032722455 0 -0.0022162392
0.00019594285 0.00042333335 -0.0085205128
-0.012736285 -0.00042333335 0.00093589746
-0.00019594285 0.00042333335 -0.018764958
0.0025472571 0 -0.023493161
0.024884742 0.00084666669 -0.0002461538
-0.011168743 0.00042333335 -0.03570769
-0.028019827 0 0.0025119658
-0.010776857 -0.00042333335 -0.035313673
0.0048985714 0.00042333335 0.0025119658
-0.013911942 0.00127 -0.00064017088
-0.00019594285 -0.00042333335 -0.014824786
0.005290457 0 -0.025857264
-0.0021553712 -0.00127 -0.0022162392
-0.030371143 0 -0.016400855
-0.032722455 0 -0.0065504271
0.028019827 -0.00127 -0.0014282051
-0.0068579996 -0.00084666669 -0.0022162392
0.030371143 0 -0.0041863248
-0.00019594285 0.00042333335 -0.019947007
0.0099930856 0.00127 -0.00064017088
0.0021553712 -0.00042333335 -0.033343591
-0.0025472571 -0.00042333335 -0.032161538
0.0072498852 -0.00127 -0.0022162392
0.014303828 0.00042333335 -0.033737607
0.022925314 0 0.00093589746
-0.027627941 -0.00127 -0.0018222221
-0.0076417713 0 -0.012066666
-0.014303828 0.00042333335 -0.0002461538
-0.011560628 0 -0.0002461538
0.023709085 0 -0.03570769
-0.024884742 -0.00127 -0.03570769
-0.00097971421 -0.00042333335 -0.03570769
-0.030371143 0 -0.017188888
0.024884742 0.00127 -0.0002461538
0.022533428 0.00127 -0.001034188
-0.031546798 -0.00127 -0.034131624
0.0041147997 0.00127 -0.001034188
-0.027627941 0.00127 -0.0002461538
-0.0096012 0.00127 -0.0014282051
-0.0041147997 -0.00042333335 -0.033343591
-0.01587137 -0.00042333335 -0.033737607
-0.0076417713 -0.00042333335 -0.025069231
-0.0099930856 0 -0.0093085468
-0.029195484 0.00084666669 -0.03452564
-0.022925314 0 -0.018370939
0.0013716 0.00042333335 -0.03452564
-0.018614572 0.00127 -0.00064017088
0.00019594285 0.00042333335 -0.0026102562
-0.025668513 0 -0.037677776
0.019790228 -0.00084666669 -0.0002461538
0.00058782857 0 -0.0022162392
-0.0178308 -0.00127 -0.035313673
-0.026452284 -0.00084666669 -0.0022162392
0.011560628 0.00127 -0.001034188
-0.01587137 0.00127 -0.034131624
-0.0048985714 -0.00042333335 -0.036889743
0.00019594285 0.00042333335 -0.031373505
-0.030763028 0 -0.01167265
0.0048985714 -0.00042333335 -0.035313673
-0.017047027 0.00127 -0.00064017088
0.025276627 0.00042333335 -0.0037923076
0.0025472571 0.00084666669 -0.035313673
0.020574 0 -0.022705128
-0.012736285 0 -0.028615383
0.033506226 0.00127 -0.0014282051
0.0076417713 0.00042333335 -0.021129059
0.030371143 0.00127 -0.00064017088
-0.011560628 -0.00042333335 -0.03452564
-0.0025472571 -0.00042333335 -0.017582906
-0.0025472571 -0.00042333335 -0.024281196
0.022925314 0 -0.01561282
-0.00019594285 -0.00042333335 -0.019947007
-0.0033310284 -0.00042333335 -0.033737607
0.0092093144 -0.00042333335 -0.0002461538
-0.033506226 0 -0.03570769
-0.032330569 -0.00084666669 -0.0022162392
-0.0076417713 0 -0.03728376
0.010384971 0 -0.016794872
0.029587371 0.00127 -0.034131624
0.029587371 0 -0.03570769
0.010776857 0.00084666669 -0.0002461538
0.02410097 -0.00127 -0.0014282051
-0.022141542 -0.00127 -0.034919657
-0.013911942 0.00042333335 -0.033737607
0.0041147997 -0.00127 -0.0002461538
0.025276627 0.00042333335 -0.025463248
-0.034289997 -0.00042333335 -0.034131624
-0.025276627 0 -0.0069444445
0.0178308 0.00042333335 0.00014786331
-0.0025472571 0 -0.011278632
0.0048985714 0.00042333335 -0.039253846
-0.0025472571 0 -0.022705128
0.0072498852 0.00127 -0.0018222221
0.0076417713 0.00042333335 -0.023493161
-0.0178308 0 -0.0089145293
0.00019594285 0 -0.0085205128
0.012736285 0.00042333335 -0.0026102562
0.028411712 -0.00127 -0.0018222221
0.0076417713 0.00042333335 -0.016794872
-0.022925314 0.00127 -0.0022162392
0.030371143 -0.00042333335 -0.0022162392
0.030763028 0.00084666669 -0.0002461538
0.014303828 0.00084666669 -0.033737607
0.0084255422 0 -0.0022162392
0.028019827 0.00042333335 -0.0022162392
-0.011168743 -0.00127 -0.03570769
0.0076417713 0.00042333335 -0.014430769
0.020182114 0 -0.023099145
0.015479486 0 -0.03610171
0.0013716 0.00127 -0.035313673
-0.033506226 0.00084666669 -0.03452564
-0.00097971421 -0.00084666669 -0.0022162392
0.00019594285 0.00042333335 0.0021179488
0.012344399 -0.00127 -0.034919657
-0.0178308 0 -0.021523077
-0.025276627 0 -0.032161538
0.011560628 0.00127 -0.0002461538
-0.0048985714 0.00127 -0.035313673
-0.020182114 0 -0.041223932
-0.013520056 0.00127 -0.03452564
0.025276627 0 0.002905983
-0.026452284 0.00127 -0.03452564
0.0029391428 -0.00084666669 -0.0022162392
0.026452284 0.00084666669 -0.033737607
-0.0150876 0 -0.023493161
0.0013716 0.00042333335 -0.033343591
-0.023709085 -0.00127 -0.00064017088
-0.0076417713 -0.00042333335 -0.018370939
0.028019827 0 -0.032949571
0.011168743 -0.00127 -0.035313673
-0.028019827 0 -0.013642735
0.03311434 -0.00084666669 -0.03570769
-0.027236056 0.00127 -0.0018222221
-0.00019594285 0.00042333335 -0.033343591
0.028019827 0 -0.013642735
0.0080336565 0.00127 -0.0002461538
-0.024492856 0.00042333335 -0.0002461538
-0.022925314 0.00127 -0.035313673
0.00019594285 -0.00042333335 -0.0057623931
0.005290457 0.00084666669 -0.034131624
0.00097971421 0.00127 -0.034919657
0.00019594285 -0.00042333335 -0.039647862
-0.012736285 -0.00042333335 -0.0097025642
0.020182114 -0.00127 -0.0014282051
0.03311434 0 -0.014430769
0.031154914 -0.00084666669 -0.0002461538
-0.0150876 0 -0.020341026
0.03311434 0 -0.02388718
-0.0076417713 -0.00042333335 -0.022705128
-0.0076417713 0.00042333335 -0.02388718
0.0076417713 0 -0.03728376
0.0076417713 0.00042333335 -0.01561282
0.02684417 0.00042333335 -0.033737607
0.006466114 0.00127 -0.0014282051
-0.0041147997 -0.00127 -0.034919657
-0.016263256 -0.00042333335 -0.035313673
-0.0150876 0.00127 -0.034919657
-0.005290457 0 -0.013248717
0.020182114 0 -0.021129059
-0.020574 0 -0.0085205128
0.019006457 -0.00084666669 -0.034919657
-0.016655141 -0.00042333335 -0.033737607
0.030763028 0 -0.032949571
-0.019006457 -0.00042333335 -0.034131624
0.025668513 0.00127 -0.0018222221
0.03311434 0 -0.027039316
-0.022925314 0 -0.012460683
0.028803598 0.00127 -0.00064017088
0.0072498852 0.00084666669 -0.034919657
0.0045066858 0.00084666669 -0.03452564
-0.005290457 0 -0.023493161
0.012736285 0.00042333335 -0.013248717
0.030371143 0 -0.027039316
0.0037229143 0.00127 -0.00064017088
0.0041147997 0.00127 -0.00064017088
-0.019006457 -0.00042333335 -0.0022162392
-0.022925314 0 -0.0053683762
-0.013911942 0 -0.03570769
-0.025276627 0.00127 -0.0014282051
0.031154914 -0.00127 -0.0022162392
0.01587137 0.00042333335 -0.03570769
0.012736285 -0.00042333335 -0.038071793
-0.0178308 0 -0.028221367
-0.020965885 0.00127 -0.001034188
0.012736285 0.00042333335 -0.03610171
0.031154914 -0.00127 -0.03570769
0.022925314 -0.00127 -0.0018222221
-0.010384971 0 -0.037677776
-0.024492856 0.00127 -0.0002461538
-0.0056823427 0.00084666669 -0.033737607
-0.020182114 -0.00042333335 -0.033737607
0.018222686 0.00042333335 -0.03570769
0.0076417713 0.00042333335 -0.02782735
0.018614572 -0.00084666669 -0.03570769
0.0076417713 0 -0.0037923076
0.025276627 0 -0.0069444445
-0.00097971421 0.00127 -0.035313673
0.028803598 -0.00084666669 -0.0022162392
-0.0088174287 -0.00042333335 -0.033737607
0.020574 0 -0.017582906
0.025276627 0.00042333335 -0.039647862
0.00019594285 -0.00042333335 -0.029009402
0.028019827 0 0.00014786331
-0.022533428 0.00127 -0.0018222221
0.018222686 -0.00084666669 -0.033737607
0.020965885 -0.00127 -0.035313673
-0.0150876 0.00042333335 -0.03452564
-0.0048985714 -0.00042333335 -0.038071793
-0.0025472571 -0.00042333335 -0.038071793
0.012736285 0.00042333335 -0.010096581
-0.012736285 -0.00042333335 -0.0053683762
0.006466114 -0.00042333335 -0.0022162392
0.025276627 0.00042333335 -0.03728376
0.03311434 0 -0.026645299
0.0099930856 0 -0.02231111
-0.005290457 0 0.0017239316
0.032722455 0.00127 -0.034919657
0.020182114 0 -0.019947007
-0.032722455 0 -0.041223932
0.011560628 0 -0.033737607
-0.0041147997 -0.00084666669 -0.0022162392
-0.0076417713 -0.00042333335 -0.0085205128
0.0025472571 0.00042333335 0.0025119658
0.013128171 0 -0.0022162392
0.020574 0 -0.010884616
-0.0099930856 0 -0.014036752
0.021749657 -0.00127 -0.0002461538
-0.0150876 -0.00042333335 -0.032949571
0.012736285 0 -0.0073384615
0.0076417713 0 -0.02782735
-0.0025472571 0 -0.029797435
-0.0025472571 0 -0.0045803417
0.0076417713 0 -0.021523077
0.005290457 0 0.00054188038
-0.020182114 0 -0.025069231
-0.0099930856 0.00127 -0.0022162392
-0.00019594285 -0.00042333335 -0.022705128
0.025276627 0.00042333335 -0.01561282
0.01587137 0.00127 -0.035313673
0.0076417713 0 -0.027039316
0.028019827 0.00127 -0.00064017088
-0.0017634856 0.00042333335 -0.03570769
0.0048985714 -0.00127 -0.0002461538
0.012736285 0.00127 -0.035313673
0.00019594285 0 0.002905983
-0.0037229143 -0.00127 -0.0002461538
-0.024492856 0.00127 -0.00064017088
0.0037229143 0.00042333335 -0.034919657
-0.020574 0 -0.028221367
0.02684417 -0.00084666669 -0.0002461538
0.0080336565 0.00084666669 -0.0022162392
-0.0068579996 -0.00127 -0.001034188
0.0068579996 -0.00127 -0.0018222221
0.00019594285 0 -0.0033982904
-0.019006457 -0.00127 -0.0002461538
-0.0150876 0 -0.0033982904
-0.0080336565 0 -0.033343591
-0.012736285 -0.00042333335 -0.019947007
-0.0150876 0.00084666669 -0.0022162392
0.012736285 0.00127 -0.001034188
0.0076417713 -0.00042333335 -0.025069231
0.00019594285 0 -0.0041863248
0.023317199 -0.00127 -0.0018222221
-0.015479486 0 -0.029009402
0.00019594285 0 -0.038071793
0.0178308 0 0.00014786331
-0.0021553712 -0.00127 -0.00064017088
0.020182114 0 -0.01561282
0.011952514 -0.00127 -0.0022162392
-0.006466114 0.00042333335 -0.034919657
0.019006457 0.00084666669 -0.034131624
0.012736285 0.00042333335 -0.0057623931
-0.017438913 0.00042333335 -0.034131624
-0.020182114 0 -0.0053683762
-0.016655141 0 -0.0002461538
-0.010384971 -0.00127 -0.03570769
0.025276627 0 0.00014786331
0.0056823427 -0.00042333335 -0.03570769
-0.032330569 -0.00127 -0.03452564
0.020574 0 -0.033343591
0.031938683 0 -0.03570769
0.012736285 0.00042333335 -0.0065504271
-0.0048985714 -0.00042333335 -0.0065504271
-0.011560628 0 -0.0022162392
-0.030371143 0 -0.037677776
0.0076417713 0.00127 -0.03570769
0.00019594285 -0.00042333335 -0.023493161
-0.0076417713 -0.00042333335 -0.0057623931
-0.012736285 0 -0.032949571
0.031938683 0.00127 -0.035313673
-0.030763028 0 -0.024281196
0.027627941 0 -0.031373505
0.015479486 0 -0.0045803417
-0.022533428 0.00084666669 -0.0002461538
-0.011952514 0.00127 -0.033737607
0.019006457 -0.00084666669 -0.0002461538
-0.00019594285 0.00084666669 -0.033737607
0.020182114 0 -0.0053683762
-0.005290457 0 -0.0089145293
-0.0099930856 -0.00042333335 -0.03058547
-0.0025472571 -0.00042333335 -0.0081264954
-0.0076417713 0.00042333335 -0.024281196
-0.0099930856 0 -0.02388718
-0.031938683 -0.00042333335 -0.03570769
0.0072498852 0 -0.033343591
-0.023317199 -0.00042333335 -0.03570769
-0.0150876 0 -0.038859829
-0.027236056 -0.00127 -0.035313673
-0.020574 0.00042333335 -0.0002461538
0.024884742 0.00084666669 -0.033737607
-0.012736285 0 -0.013642735
-0.0013716 0.00127 -0.0014282051
0.02684417 0.00127 -0.03570769
0.0060742283 -0.00084666669 -0.0002461538
0.020574 0 -0.039253846
0.005290457 0.00042333335 -0.033343591
-0.0178308 0.00042333335 -0.029009402
0.028411712 -0.00127 -0.0022162392
0.0025472571 0.00042333335 -0.023493161
-0.018222686 0.00127 -0.00064017088
-0.0178308 0 0.00093589746
-0.034289997 -0.00042333335 -0.00064017088
0.028803598 0 -0.0022162392
-0.0025472571 0.00042333335 -0.034131624
0.005290457 0 -0.02782735
-0.0150876 0 -0.017188888
0.022533428 0.00127 -0.03452564
0.0037229143 -0.00042333335 -0.035313673
-0.00019594285 0.00042333335 -0.017188888
-0.0048985714 -0.00042333335 -0.038465813
-0.03311434 -0.00042333335 -0.03570769
0.0178308 0.00127 -0.034919657
0.0150876 0.00042333335 -0.040435895
-0.025276627 -0.00127 -0.03452564
-0.025276627 0 -0.029009402
0.015479486 0 -0.040041879
-0.012736285 0 -0.01561282
-0.029979257 -0.00042333335 -0.03570769
0.0178308 0.00042333335 -0.021917094
0.005290457 0 -0.021523077
-0.013520056 -0.00042333335 -0.034919657
-0.0099930856 -0.00127 -0.001034188
0.03311434 0 -0.03728376
0.028019827 0.00127 -0.001034188
-0.0150876 0 0.0021179488
-0.0150876 -0.00042333335 -0.032555554
-0.033898111 0.00084666669 -0.03452564
-0.00019594285 0.00042333335 -0.021523077
0.025276627 0 -0.021129059
-0.03311434 0 -0.017188888
0.0076417713 -0.00042333335 -0.012066666
0.0048985714 -0.00042333335 -0.034919657
-0.030371143 -0.00084666669 -0.0002461538
-0.03311434 0 -0.014824786
-0.012736285 0.00127 -0.035313673
-0.029195484 -0.00084666669 -0.034131624
0.022141542 0.00127 -0.03570769
0.028411712 -0.00084666669 -0.0022162392
-0.013911942 -0.00042333335 -0.0022162392
-0.028019827 0.00127 -0.0022162392
0.026452284 0.00042333335 -0.03570769
0.010384971 -0.00042333335 -0.0022162392
-0.020965885 -0.00042333335 -0.0002461538
-0.0076417713 -0.00042333335 -0.019947007
0.0150876 -0.00127 -0.0002461538
0.017047027 0.00127 -0.03452564
0.022925314 0 0.002905983
0.0084255422 -0.00042333335 -0.0022162392
-0.0178308 0.00084666669 -0.0002461538
0.023709085 0.00127 -0.034131624
0.0048985714 0.00042333335 -0.026645299
0.00019594285 0.00042333335 0.00054188038
-0.0037229143 0.00127 -0.0018222221
-0.03311434 0.00084666669 -0.0022162392
0.029195484 -0.00127 -0.001034188
0.02410097 0.00042333335 -0.0022162392
0.0076417713 -0.00042333335 -0.02388718
-0.015479486 0 -0.012460683
-0.0017634856 -0.00127 -0.03570769
-0.0045066858 0 -0.03570769
0.010384971 0.00084666669 -0.033737607
-0.025276627 0 -0.020341026
0.017438913 0.00127 -0.034919657
-0.020182114 0 -0.011278632
0.012736285 -0.00042333335 -0.028221367
-0.0076417713 0.00042333335 -0.027433332
0.0076417713 0 -0.0049743587
0.0025472571 0.00084666669 -0.0022162392
0.031938683 0 -0.0002461538
-0.020574 -0.00084666669 -0.0002461538
0.013911942 -0.00042333335 -0.03570769
0.0178308 0 -0.0097025642
-0.0150876 0 -0.0073384615
0.03311434 0 -0.0097025642
0.024884742 0.00127 -0.03570769
-0.019398343 0.00127 -0.001034188
0.0099930856 0 -0.011278632
0.01587137 -0.00127 -0.001034188
-0.010384971 0.00127 -0.0002461538
-0.010384971 0 -0.03728376
0.029195484 0.00127 -0.001034188
0.0048985714 0 0.00014786331
0.010384971 0 -0.012066666
0.024884742 0.00127 -0.0022162392
-0.025276627 0 -0.038859829
-0.028019827 0 -0.012460683
-0.0076417713 0.00042333335 -0.0033982904
-0.0025472571 0 -0.027433332
0.0048985714 0 -0.039647862
0.019790228 -0.00127 -0.0014282051
0.012736285 -0.00042333335 -0.022705128
0.0025472571 0 -0.027039316
0.028019827 0 -0.038071793
0.0150876 0 -0.0026102562
0.030763028 0.00084666669 -0.033737607
0.0092093144 0.00042333335 -0.0022162392
-0.014695714 0.00127 -0.03570769
-0.00019594285 -0.00042333335 -0.013642735
0.019398343 0.00127 -0.0002461538
-0.0076417713 0 -0.0097025642
-0.0084255422 -0.00127 -0.0014282051
-0.025668513 0.00042333335 -0.0002461538
0.0037229143 0.00127 -0.03570769
0.0048985714 0.00042333335 -0.0077324784
-0.0025472571 0 -0.027039316
0.020574 0 -0.03728376
-0.0150876 0 -0.017582906
-0.02410097 0.00127 -0.034131624
-0.0025472571 0.00127 -0.033737607
0.030371143 -0.00084666669 -0.03570769
0.0092093144 -0.00042333335 -0.035313673
0.00019594285 -0.00042333335 -0.015218803
0.010384971 0 -0.027433332
0.026452284 0.00084666669 -0.0002461538
0.012736285 0.00042333335 0.0013299146
-0.033506226 -0.00127 -0.00064017088
-0.03311434 0 -0.02231111
-0.0025472571 -0.00042333335 -0.010096581
-0.0013716 -0.00042333335 -0.0002461538
-0.00058782857 0.00042333335 -0.0022162392
0.024884742 0 -0.033343591
-0.011560628 0.00127 -0.033737607
0.033506226 0.00042333335 -0.035313673
0.028019827 -0.00127 -0.0018222221
-0.0178308 0 -0.038071793
0.0033310284 -0.00042333335 -0.034131624
0.012736285 -0.00042333335 -0.026251281
0.019398343 0 -0.0022162392
-0.026060399 -0.00084666669 -0.0002461538
0.022925314 0.00042333335 -0.020341026
0.012736285 0 -0.014824786
0.0072498852 0.00042333335 -0.03570769
-0.0025472571 -0.00042333335 -0.025857264
0.026452284 0.00127 -0.0014282051
0.023709085 -0.00084666669 -0.0002461538
-0.0076417713 0 -0.038071793
0.025668513 -0.00084666669 -0.0002461538
0.022533428 0.00127 -0.035313673
-0.020574 -0.00084666669 -0.034919657
0.010384971 0 -0.024675213
0.012736285 0 0.0021179488
-0.0025472571 -0.00042333335 -0.0097025642
-0.028803598 0.00084666669 -0.0022162392
0.00019594285 0 -0.01167265
-0.016263256 0 -0.0002461538
0.018614572 -0.00127 -0.0022162392
-0.011168743 0.00127 -0.034919657
0.0025472571 0.00042333335 -0.0037923076
-0.016263256 -0.00127 -0.03452564
0.0025472571 0.00042333335 -0.0045803417
-0.033898111 0.00042333335 -0.0018222221
0.027627941 -0.00042333335 -0.0002461538
0.014303828 0.00084666669 -0.03570769
0.028019827 -0.00084666669 -0.033737607
0.00019594285 0.00042333335 -0.019947007
-0.0017634856 0 -0.0002461538
0.012736285 -0.00042333335 -0.012460683
0.024884742 -0.00084666669 -0.0022162392
-0.013128171 -0.00127 -0.001034188
-0.014695714 0.00127 -0.0018222221
-0.012736285 0.00042333335 -0.027433332
0.010384971 -0.00084666669 -0.03570769
0.0048985714 0 -0.038071793
0.0096012 -0.00042333335 -0.035313673
-0.020574 0.00127 -0.03452564
0.0072498852 -0.00042333335 -0.034131624
0.0017634856 0 -0.0002461538
0.031546798 0.00042333335 -0.033737607
0.033506226 0.00084666669 -0.0022162392
0.013520056 0.00042333335 -0.0022162392
-0.021357771 0.00127 -0.0018222221
0.031154914 -0.00127 -0.001034188
