# .PCD v0.7 - Point Cloud Data file format
VERSION 0.7
FIELDS x y z
SIZE 4 4 4
TYPE F F F
COUNT 1 1 1
WIDTH 1225
HEIGHT 1
VIEWPOINT 0 0 0 1 0 0 0
POINTS 1225
DATA ascii
-0.0034289998 0.001143 -0.01591233
-0.000635 -0.00050800003 -0.017419178
0.00025399998 -0.00025400001 -0.0098849321
-0.0026669998 -0.00127 -0.0020995436
0.002413 0.00025400001 -0.013777626
0.00076199998 -0.00127 -0.015786758
0.00088899996 0.00025400001 -9.0411057e-05
-0.002413 -0.00025400001 -0.012647489
-0.0022859999 -0.00012700001 -0.0081269406
-0.0020319999 -0.00127 -0.016791325
0.00050799997 -0.00076199998 -0.017419178
0.00025399998 -0.00127 -0.00046712341
-0.0027939999 0.00012700001 -0.022944294
-0.0026669998 -0.0010160001 -0.017419178
-0.00025399998 -0.00025400001 0.0016675799
-0.00012699999 -0.00025400001 -0.010261645
0.0038099999 -0.00012700001 -0.0160379
-0.00254 0.00127 -0.0020995436
0.00012699999 -0.00025400001 -0.011391781
-0.001651 0.00127 -0.0014716897
0.00025399998 -2.1684043e-19 -0.018423745
-0.0022859999 -0.00025400001 -0.020558449
0.00127 -0.0010160001 -9.0411057e-05
-0.00254 0.00025400001 -0.013526484
-0.000635 -0.00127 -0.016540183
0.00012699999 -0.00025400001 0.0015420091
-0.00025399998 -0.00012700001 -0.0078757992
-0.00088899996 -0.00025400001 -0.017419178
-0.00050799997 -0.00127 -0.0013461189
-0.0035559998 0.0010160001 -0.0020995436
0.0026669998 0.00025400001 -0.023195434
-0.001651 -0.00127 -0.0023506852
0.001651 0.00127 -0.016791325
-0.0026669998 0.00012700001 -0.010763927
0.0036829999 0.0010160001 -0.0160379
-0.0027939999 0.00012700001 0.0012908676
-0.0026669998 -0.00025400001 -0.018298173
-0.0010159999 -0.0010160001 -0.015158905
-0.0027939999 -2.1684043e-19 -0.0071223746
-0.0020319999 0.00088900002 -0.0023506852
-0.00025399998 -2.1684043e-19 -0.013149772
0.00254 0.00127 -0.00059269415
0.0030479999 -0.00076199998 -0.017293608
0.001524 -0.00127 -0.01616347
-0.00025399998 0.00012700001 -0.012647489
0.002413 0.00025400001 -0.010763927
0.0026669998 0.00025400001 -0.020684019
-0.0022859999 -0.00012700001 -0.023069864
-0.0027939999 -0.00012700001 -0.0093826484
-0.00076199998 0.00076199998 -0.0023506852
-0.00025399998 0.00025400001 -0.01126621
0.0013969999 0.00127 -0.00034155263
-0.0022859999 0.00127 -0.017293608
0.0029209999 -0.001143 -0.016414613
-4.3368087e-19 0.00025400001 -0.0086292243
0.0017779999 0.00127 -0.0013461189
0.002413 -0.00012700001 -0.010010502
-0.0027939999 0.00012700001 -0.020307306
0.00012699999 0.00127 -0.016916895
-0.0022859999 -2.1684043e-19 -0.01767032
-0.00025399998 -0.00025400001 -0.0048621008
0.00025399998 0.00025400001 -0.020181736
-0.003175 -0.00127 -0.0019739727
-0.0022859999 -0.00025400001 -0.013652056
-0.0022859999 -0.00076199998 -0.00034155263
0.0026669998 0.000635 -0.0023506852
0.00088899996 0.00127 -0.00071826496
-4.3368087e-19 -0.00025400001 -0.0088803656
-0.0026669998 -0.00025400001 -0.011015069
0.00254 -0.00025400001 -0.022065297
0.00254 0.00025400001 0.0021698631
-0.001905 0.00012700001 -9.0411057e-05
-0.0038099999 0.00025400001 -0.0017228312
-0.0010159999 0.00127 -0.0012205481
0.0027939999 0.00012700001 -0.0080013704
-0.00012699999 0.00127 -0.016791325
-0.002413 0.00025400001 -0.018047033
-0.0030479999 -0.00127 -0.0020995436
0.0013969999 -2.1684043e-19 -0.015033334
0.00088899996 -0.00127 -0.0012205481
-0.00254 0.00025400001 -0.011768494
0.0035559998 -0.00025400001 -0.017293608
-0.00012699999 -0.00127 -0.00084383576
-0.0026669998 0.00012700001 -0.0081269406
-4.3368087e-19 0.00025400001 -0.011768494
0.000635 0.00127 -0.0015972605
0.00025399998 -0.00025400001 -0.021186301
0.0022859999 0.00012700001 -0.018674886
-0.0027939999 -2.1684043e-19 -0.022442009
-0.0010159999 -0.00127 -0.015786758
0.00025399998 -2.1684043e-19 -0.010261645
-0.0029209999 -0.00127 -0.016540183
0.0022859999 0.00012700001 -0.003606393
0.00025399998 -0.00012700001 -0.005364384
0.002413 -0.00012700001 -0.01767032
0.0029209999 0.00127 -0.00084383576
-0.00038099999 -0.00127 -0.016665755
-0.003302 0.001143 -0.017168038
0.00012699999 -0.00025400001 -0.012647489
-0.001651 0.0010160001 -0.0023506852
-0.002413 -0.00088900002 -0.015033334
-0.0026669998 -0.00025400001 -0.0047365301
0.0017779999 0.00127 -0.016289042
0.00025399998 -2.1684043e-19 -0.0077502285
0.0022859999 0.00012700001 -0.0062433793
-0.0022859999 0.00050800003 -0.0024762559
-0.0029209999 0.001143 -0.017168038
0.00025399998 0.00012700001 0.0001607305
-0.0026669998 -0.00025400001 -0.0064945207
0.00025399998 -0.000635 -0.015158905
-0.00025399998 0.00025400001 -0.020307306
0.0030479999 -0.001143 -0.00059269415
-0.00088899996 -0.00127 -0.016540183
-0.001524 0.00012700001 -0.017419178
-0.0017779999 -0.00127 -0.0017228312
0.00025399998 -2.1684043e-19 -0.019930594
0.00012699999 -0.00025400001 -0.019679453
0.00025399998 -0.00038099999 -0.00034155263
0.00038099999 0.00076199998 -0.015158905
0.0026669998 -0.00012700001 -0.0056155254
0.001524 0.00127 -0.016791325
-0.00254 0.00025400001 -0.0083780829
0.0020319999 0.00127 -0.0022251143
-4.3368087e-19 -0.00025400001 -0.0064945207
-0.0022859999 -0.00012700001 -0.0073735164
-0.0022859999 0.00012700001 -0.0024762559
0.0038099999 -0.00025400001 -0.00071826496
-0.0027939999 -2.1684043e-19 -0.0051132422
0.001905 -0.00127 -0.017168038
-0.0036829999 0.00088900002 -0.016916895
0.00088899996 -0.00025400001 -0.017419178
0.00025399998 0.00012700001 -0.019679453
-0.00012699999 -0.00025400001 -0.012396348
-0.0027939999 0.00012700001 -0.020935161
-0.0022859999 -2.1684043e-19 -0.0039831051
0.0029209999 0.0010160001 -0.0023506852
-4.3368087e-19 -0.00025400001 -0.00021598184
0.0034289998 0.001143 -0.00034155263
-0.0038099999 0.00025400001 -0.00084383576
0.00038099999 0.00127 -0.0023506852
-0.00127 0.00127 -0.0010949773
-0.00025399998 -0.00012700001 -0.0032296805
0.00254 -0.00127 -0.00096940651
-0.00012699999 -0.00025400001 -0.0031041098
0.0022859999 -2.1684043e-19 -0.0057410961
0.00025399998 -0.00012700001 -0.010261645
-0.0022859999 -0.00012700001 0.0016675799
0.00012699999 0.00127 -0.015661187
0.00012699999 -0.00025400001 -0.0077502285
0.0034289998 -0.0010160001 -0.0160379
0.0027939999 -0.00127 -0.00046712341
0.001905 -0.00012700001 -0.015033334
-0.0022859999 -2.1684043e-19 -0.020809589
-0.0036829999 0.00076199998 -0.015535617
0.00025399998 0.00127 -0.017042466
0.002413 -0.00025400001 -0.013400914
0.0038099999 -0.00050800003 -0.016791325
-4.3368087e-19 0.00025400001 -0.0049876715
-0.0027939999 -0.00012700001 -0.00636895
0.00050799997 -0.00127 -0.017293608
0.0038099999 0.00050800003 -0.016791325
-0.0029209999 0.001143 -0.00034155263
-0.00025399998 0.00025400001 -0.022693152
-0.0022859999 -0.00025400001 -0.017921463
-0.00025399998 -0.00012700001 0.0012908676
0.00076199998 0.00127 -0.00096940651
0.0030479999 -0.001143 -0.0160379
-0.003302 0.001143 -0.015410046
0.00025399998 0.00038099999 -9.0411057e-05
0.0021589999 -0.00127 -0.016540183
-0.0027939999 0.001143 -0.015284476
0.0022859999 0.00012700001 -0.01767032
-4.3368087e-19 0.00025400001 -0.0083780829
0.001524 -0.00127 -0.017293608
-0.00025399998 -2.1684043e-19 -0.019930594
0.00025399998 -0.00025400001 -0.01917717
-0.00025399998 -0.00127 -0.0014716897
0.0022859999 0.00012700001 -0.018298173
-0.0027939999 -0.00127 -0.0017228312
-0.002413 -0.00025400001 -9.0411057e-05
-0.0038099999 -0.00050800003 -0.0019739727
-0.001905 0.001143 -0.015284476
0.0010159999 -0.00050800003 -0.0023506852
-0.00025399998 0.00025400001 -0.0037319637
-0.002413 0.00025400001 -0.0076246578
0.0035559998 0.00050800003 -0.0023506852
-0.0029209999 0.00076199998 -0.015284476
0.00025399998 0.00038099999 -0.015033334
-4.3368087e-19 -0.00025400001 -0.011391781
0.0038099999 0.00050800003 -0.0013461189
0.0022859999 -2.1684043e-19 -0.018423745
0.0022859999 -2.1684043e-19 -0.013526484
-0.00254 0.00025400001 -0.0033552514
-0.00025399998 -0.0010160001 -0.017419178
0.00025399998 0.00025400001 -0.021311874
-0.00127 0.00127 -0.016791325
0.00012699999 -0.00025400001 -0.011642923
0.0022859999 -2.1684043e-19 -0.011642923
0.0030479999 -0.001143 -0.016540183
0.002413 0.00127 -0.00071826496
-0.0026669998 0.001143 -0.00021598184
-0.001651 0.00076199998 -0.00034155263
-0.00025399998 0.00012700001 0.00028630128
0.0022859999 0.00012700001 -0.0087547945
-0.002413 -0.00025400001 -0.0097593609
-0.0034289998 0.001143 -0.00046712341
-0.0036829999 0.00076199998 -0.015410046
0.00254 0.00025400001 -0.0058666668
0.0029209999 -0.00076199998 -0.017419178
-0.0027939999 0.00088900002 -0.00021598184
-0.001143 0.00038099999 -0.00034155263
-0.0022859999 -0.00012700001 -0.019428311
-0.00025399998 0.00012700001 -0.01767032
0.0021589999 0.00127 -0.017419178
-0.00012699999 -0.00025400001 -0.020558449
-4.3368087e-19 0.00025400001 -0.0058666668
0.001651 0.00038099999 -0.017419178
0.00254 0.00025400001 -0.013652056
0.001651 0.001143 -0.015284476
-4.3368087e-19 -0.00025400001 -0.018674886
0.00254 0.00127 -0.017293608
-0.0022859999 -2.1684043e-19 -0.0034808221
-0.00012699999 0.00025400001 -0.018423745
-0.0027939999 -0.00025400001 0.00053744286
-4.3368087e-19 -0.00025400001 -0.009131507
0.00012699999 0.00025400001 -0.010261645
-0.0038099999 -0.00025400001 -0.017293608
-0.001524 0.00127 -0.00059269415
0.00025399998 -0.00025400001 -0.0096337907
-0.0022859999 -2.1684043e-19 -0.0095082195
-0.0022859999 -2.1684043e-19 -0.018549316
0.0017779999 0.0010160001 -0.0023506852
-0.00012699999 0.00025400001 -0.011517352
0.00025399998 -0.00076199998 -0.017419178
-0.002413 0.00127 -0.0014716897
0.00038099999 -2.1684043e-19 -0.0024762559
0.003302 0.00127 -0.0023506852
-4.3368087e-19 0.00025400001 -0.012270777
0.002413 -0.00127 -0.017168038
-0.00012699999 0.00025400001 -0.021939727
-0.0026669998 -0.00127 -0.017293608
-0.001143 0.00025400001 -0.0023506852
-0.0029209999 -0.00025400001 -0.014907763
-0.002413 0.00127 -0.00034155263
0.00025399998 0.00025400001 -0.022818722
-0.001651 0.001143 -0.00021598184
-0.002413 0.00012700001 0.0025465754
-0.00076199998 -0.00025400001 -0.0023506852
0.0022859999 -2.1684043e-19 -0.014154338
-4.3368087e-19 0.00127 -0.016414613
-0.001651 0.00127 -0.017168038
-0.0038099999 -0.000635 -0.0023506852
-0.001143 -0.0010160001 -0.00021598184
0.001143 -0.00127 -0.015535617
-0.00076199998 -0.00127 -9.0411057e-05
-0.003175 0.001143 -0.0160379
-0.001651 0.00038099999 -0.015033334
-0.001524 -0.00127 -0.00059269415
-0.0036829999 -0.000635 -0.015284476
0.00050799997 -0.00127 -0.00034155263
-0.00050799997 0.00127 -0.016540183
0.0034289998 0.00038099999 -0.00034155263
0.001524 -0.0010160001 -0.017419178
-0.0026669998 -0.00025400001 0.001039726
0.0036829999 0.000635 -0.0023506852
-0.0029209999 -0.00127 -0.016289042
-0.0027939999 0.00012700001 -0.0083780829
-0.0026669998 -0.00025400001 -0.017795891
-0.0027939999 -0.00127 -0.0010949773
0.0034289998 0.001143 -0.015158905
-0.00076199998 -0.00127 -0.00059269415
0.0027939999 0.00012700001 -0.0073735164
-0.00038099999 0.001143 -0.0023506852
0.0038099999 0.00038099999 -0.00096940651
-0.0026669998 0.00012700001 -0.011642923
-0.001651 -0.00088900002 -0.0023506852
-0.0027939999 -0.00025400001 -0.00636895
0.0022859999 0.00127 -0.001848402
-0.00025399998 -0.00025400001 -0.014531051
0.00127 -0.00127 -0.00034155263
-0.00012699999 0.00025400001 -0.0042342469
0.00025399998 -2.1684043e-19 -0.0082525117
0.0013969999 0.00088900002 -0.015158905
-0.00050799997 -0.00127 -0.01616347
-0.00254 0.00025400001 -0.023069864
-0.00038099999 -0.00127 -0.016289042
-0.002413 -0.00025400001 -0.013652056
0.0022859999 -2.1684043e-19 -0.011768494
-0.0027939999 0.00012700001 -0.004610959
-0.00025399998 -0.00025400001 -0.018172603
-0.00025399998 -0.00025400001 -0.018800458
0.00012699999 -0.00127 -0.0020995436
-0.00025399998 0.000635 -0.00046712341
-0.001905 0.00050800003 -0.00034155263
0.00012699999 0.00025400001 -0.0095082195
-0.0017779999 0.00127 -0.001848402
0.001143 0.00076199998 -0.015158905
0.0030479999 -0.001143 -0.00096940651
-0.00025399998 0.00012700001 -0.0081269406
-0.0026669998 -0.00025400001 -0.022190869
0.0010159999 -0.00127 -0.016414613
-0.00076199998 -0.001143 -0.015158905
-0.002413 0.00127 -0.015284476
-0.0026669998 0.00012700001 -0.0073735164
-0.0029209999 -0.00127 -0.016791325
0.0022859999 0.00025400001 0.0006630136
0.0026669998 0.00025400001 0.00091415516
-0.0022859999 0.00127 -0.0012205481
0.00012699999 -0.00127 -0.00021598184
-0.0027939999 -0.00025400001 -0.0043598176
0.0027939999 0.00012700001 -0.01114064
0.00012699999 0.00025400001 -0.011894064
0.0017779999 -0.00127 -0.015786758
0.0026669998 -0.00012700001 -0.018298173
0.00025399998 0.00012700001 -0.0051132422
0.00127 0.00088900002 -0.017419178
-0.00254 -0.00025400001 -0.0027273975
-0.0022859999 -0.00025400001 -0.0041086762
0.00025399998 -0.00025400001 -0.014656622
-4.3368087e-19 0.000635 -0.017419178
-0.00025399998 0.00012700001 -0.0031041098
0.00127 0.00127 -0.0013461189
0.002413 0.00025400001 0.0024210045
-0.00254 -0.00088900002 -9.0411057e-05
-0.0027939999 -2.1684043e-19 -0.012396348
-0.0036829999 -0.00076199998 -0.017168038
-0.0036829999 -2.1684043e-19 -0.0023506852
0.0027939999 -0.00012700001 -0.012647489
-0.0027939999 -0.00012700001 -0.0098849321
0.0036829999 0.0010160001 -0.016665755
-0.0027939999 0.00127 -0.015661187
-0.0038099999 -0.000635 -0.0019739727
0.00254 -0.00025400001 -0.018926028
-0.0027939999 0.00127 -0.0013461189
-0.0026669998 -0.00025400001 -0.0095082195
-0.0020319999 0.00038099999 -0.017419178
0.003175 -0.000635 -0.017293608
0.0027939999 -2.1684043e-19 -0.013652056
0.00025399998 0.00025400001 0.0021698631
-0.002413 0.00025400001 0.0006630136
0.00025399998 -0.00012700001 0.0012908676
-0.0022859999 -0.00025400001 -0.0085036531
0.003302 0.00076199998 -0.017293608
-0.000635 -0.00050800003 -0.0024762559
-0.001143 0.00127 -0.016791325
0.0030479999 -0.001143 -0.016916895
0.002413 0.00025400001 -0.017795891
0.00012699999 0.00025400001 -0.01289863
0.0021589999 -0.00076199998 -0.0023506852
0.0013969999 0.00127 -0.017042466
0.00025399998 -0.00012700001 0.00091415516
-0.0022859999 -2.1684043e-19 -0.011391781
-0.001143 0.00127 -0.0019739727
0.00038099999 -0.00127 -0.0019739727
0.002413 -0.00025400001 -0.0077502285
-0.00254 0.00025400001 -0.0082525117
0.00025399998 -0.00012700001 -0.0071223746
-0.0026669998 -0.00012700001 0.002797717
-0.0038099999 -0.000635 -0.0160379
-0.0026669998 -0.00025400001 -0.0031041098
0.0027939999 -0.00012700001 -0.018298173
0.00038099999 -0.00088900002 -9.0411057e-05
-0.0038099999 -0.00025400001 -0.0023506852
-0.0036829999 -0.00088900002 -0.017042466
-0.0035559998 -0.001143 -0.00046712341
0.0026669998 0.00025400001 -0.017795891
0.002413 0.00025400001 -0.013275343
-0.0027939999 0.00012700001 -0.014782192
0.002413 -0.00025400001 -0.022316439
0.002413 -2.1684043e-19 0.002797717
-0.002413 -0.00025400001 -0.023321005
0.00038099999 -0.000635 -0.015158905
0.00025399998 -0.00012700001 -0.013024202
0.0020319999 -2.1684043e-19 -0.0023506852
0.00012699999 0.00050800003 -0.01754475
-0.0030479999 0.00025400001 -0.017419178
-0.0017779999 -0.00025400001 -0.00021598184
-0.003302 0.001143 -0.00021598184
0.0021589999 0.00127 -0.016916895
0.00025399998 -0.00012700001 -0.022190869
0.0017779999 -0.00038099999 -0.0024762559
0.0020319999 -0.00076199998 -0.00034155263
0.002413 0.00025400001 -0.0048621008
0.00254 0.00127 -0.016665755
0.002413 -0.00127 -0.001848402
0.00025399998 -0.00012700001 -0.020307306
-0.00127 -0.00025400001 -9.0411057e-05
0.00088899996 -0.00050800003 -0.015033334
-0.0038099999 -0.00012700001 -0.00084383576
-0.0017779999 -0.00127 -0.017293608
-0.0013969999 0.00127 -0.0013461189
-0.00038099999 -0.00076199998 -0.017419178
0.0029209999 0.00025400001 -0.00021598184
-0.0036829999 0.00088900002 -0.016540183
-0.0013969999 -0.00076199998 -0.0023506852
0.0017779999 0.00127 -0.016414613
-0.00025399998 0.00127 -0.0014716897
-0.001524 -0.00127 -0.017168038
-0.0026669998 0.00012700001 0.00091415516
-0.0027939999 0.00012700001 -0.0038575344
-0.00076199998 0.001143 -9.0411057e-05
-0.00254 -0.00025400001 -0.01917717
-0.0026669998 -0.00025400001 -0.011642923
0.0036829999 0.00076199998 -0.0012205481
0.001651 -0.00127 -0.017168038
-0.0029209999 -0.00050800003 -0.0024762559
-0.0022859999 0.0010160001 -0.015158905
-0.00025399998 0.00025400001 -0.014531051
-0.00254 0.00127 -0.016540183
0.00025399998 0.00025400001 -0.011642923
-0.003302 0.00050800003 -0.00034155263
-0.00025399998 0.00127 -0.017168038
-0.00025399998 0.00025400001 -0.020558449
-0.0013969999 0.001143 -0.00021598184
-0.00025399998 -2.1684043e-19 -0.01126621
0.0038099999 0.00050800003 -0.0019739727
-0.001651 -0.00025400001 -0.00021598184
0.0026669998 -0.00025400001 -0.01754475
-0.00025399998 -0.00012700001 -0.0098849321
-0.001905 -0.00127 -0.017293608
-0.001143 -0.0010160001 -0.017419178
0.00254 0.00025400001 -0.0092570782
-0.0036829999 0.00038099999 -0.0023506852
-0.0010159999 0.000635 -0.015158905
0.0038099999 0.00025400001 -0.0017228312
0.0034289998 0.00038099999 -0.0023506852
0.0021589999 0.001143 -0.015158905
-4.3368087e-19 -0.00127 -0.01591233
0.0021589999 0.00127 -0.00034155263
-4.3368087e-19 -0.00025400001 0.0016675799
-0.0021589999 -0.00127 -0.0013461189
0.000635 -0.0010160001 -9.0411057e-05
0.0036829999 -0.00025400001 -0.0023506852
-0.0038099999 0.00050800003 -0.015786758
0.0022859999 -2.1684043e-19 -0.023321005
-0.001143 -0.00012700001 -0.017419178
0.00025399998 0.00025400001 -0.0076246578
-0.0010159999 -0.0010160001 -0.00021598184
0.00254 -0.00076199998 -0.00034155263
0.0027939999 0.00012700001 -0.011768494
-0.00025399998 0.00025400001 -0.0066200914
-0.00025399998 -0.0010160001 -9.0411057e-05
0.0027939999 -0.00012700001 0.0006630136
-0.0038099999 0.00050800003 -0.001848402
-0.0036829999 -0.0010160001 -0.015410046
0.00012699999 0.00127 -0.016791325
-0.002413 0.00012700001 0.0022954338
0.001651 0.00127 -0.00071826496
-4.3368087e-19 -0.00025400001 -0.0085036531
0.00025399998 -0.00025400001 -0.020307306
0.002413 -0.00127 -0.01616347
0.0027939999 -0.00038099999 -0.017419178
-0.002413 0.00012700001 -0.020181736
-0.0038099999 0.00012700001 -0.0010949773
-0.00254 0.00025400001 -0.009131507
0.0027939999 0.00025400001 -0.0049876715
-0.00012699999 0.00025400001 -0.0078757992
0.00050799997 -0.0010160001 -0.0023506852
0.001143 0.000635 -0.0023506852
0.0038099999 -2.1684043e-19 -0.0019739727
0.002413 -0.00012700001 -0.0048621008
-0.0022859999 -0.00012700001 -0.020935161
0.0038099999 0.00012700001 -0.0017228312
-0.002413 0.00012700001 -0.018047033
0.0010159999 0.00127 -0.015158905
0.002413 0.00025400001 -0.013149772
0.001905 0.00127 -0.00046712341
0.0017779999 -0.001143 -0.015284476
-0.00025399998 -0.00025400001 -0.012019635
-0.001524 0.00127 -0.0017228312
0.00012699999 0.00025400001 0.0020442922
0.00038099999 0.00038099999 -0.015033334
-0.0027939999 0.00012700001 -0.010136073
-0.0027939999 -0.00012700001 -0.012019635
0.00088899996 0.00050800003 -0.017293608
-0.0026669998 -0.00076199998 -0.0023506852
0.001905 0.0010160001 -0.0023506852
-0.0038099999 -0.00038099999 -0.017168038
-0.00127 0.00127 -0.015535617
0.002413 0.00025400001 -0.023195434
0.0035559998 0.001143 -0.015661187
-0.002413 -0.00038099999 -0.014907763
0.00025399998 0.00025400001 -0.00636895
-0.0038099999 -0.00025400001 -0.00046712341
-0.00254 -0.00025400001 0.00041187205
-0.00254 0.00025400001 -0.013400914
-0.0038099999 -2.1684043e-19 -0.0012205481
0.0022859999 -2.1684043e-19 -0.022944294
-0.0035559998 0.0010160001 -0.00046712341
0.00025399998 -2.1684043e-19 -0.009131507
0.00025399998 -0.00025400001 -0.013652056
0.0035559998 -0.00088900002 -0.015284476
0.0026669998 0.00025400001 -0.0071223746
-0.0017779999 0.00025400001 -0.00021598184
0.003302 0.001143 -9.0411057e-05
0.00025399998 -0.00025400001 -0.011517352
-0.0027939999 -0.00012700001 -0.014656622
0.00012699999 -0.00025400001 -0.0034808221
0.0026669998 0.00050800003 -0.017419178
-0.0036829999 -0.00088900002 -0.01591233
0.0038099999 0.000635 -0.0023506852
0.001651 -0.0010160001 -9.0411057e-05
0.00025399998 -0.0010160001 -0.0023506852
0.00025399998 -0.00012700001 -0.010889499
0.001143 0.00038099999 -0.015033334
-0.00012699999 0.00025400001 0.001039726
0.001905 -0.00127 -0.016916895
-0.0022859999 -0.00012700001 0.0015420091
-0.00254 -0.00127 -0.015410046
-0.0035559998 0.00012700001 -0.017293608
-0.0026669998 0.00012700001 -0.0076246578
-0.001651 -0.00076199998 -0.015033334
-0.00088899996 0.00127 -0.00034155263
-0.0036829999 0.00076199998 -0.00034155263
0.00025399998 0.00012700001 0.0014164383
-0.00025399998 -0.00025400001 -0.010638356
0.00025399998 -0.00012700001 -0.01917717
-0.0020319999 -0.00088900002 -9.0411057e-05
0.0013969999 -0.00127 -0.0017228312
0.0027939999 -0.00012700001 -0.020056166
-0.00254 -0.001143 -0.015158905
0.0022859999 -2.1684043e-19 -0.0080013704
0.00025399998 -0.00025400001 -0.0078757992
-0.00254 0.00025400001 -0.022818722
-0.0027939999 0.00127 -0.0017228312
-0.00025399998 0.00127 -0.017419178
0.00025399998 -0.00025400001 -0.0044853883
-0.0021589999 -0.00076199998 -0.015033334
0.0034289998 -0.000635 -0.0023506852
-4.3368087e-19 -0.00025400001 -0.0062433793
-0.00076199998 -0.00127 -0.016791325
0.0027939999 0.00127 -0.0013461189
-0.00088899996 0.00127 -0.015284476
-0.0026669998 0.00012700001 -0.020558449
0.00127 0.00025400001 -0.0023506852
-0.00088899996 0.00127 -0.017293608
-0.00076199998 0.00127 -0.0017228312
-0.002413 -0.00025400001 -0.0029785391
-0.002413 0.00025400001 0.0016675799
-0.0010159999 0.00012700001 -0.0023506852
0.0027939999 0.00012700001 -0.018926028
0.0022859999 0.00012700001 -0.010136073
0.0027939999 0.00012700001 -0.0098849321
-0.0038099999 -0.00038099999 -0.00059269415
0.002413 0.00025400001 -0.020809589
0.002413 -0.00025400001 -0.017419178
-0.0026669998 -0.00127 -0.015535617
0.00254 0.00088900002 -0.015033334
0.0030479999 -0.001143 -0.0022251143
-0.001651 0.0010160001 -0.015158905
-0.00050799997 0.00127 -0.017042466
-0.003302 -0.000635 -0.015158905
0.0026669998 0.00025400001 0.0016675799
-0.0038099999 -0.000635 -0.0020995436
0.00254 0.00025400001 -0.014028768
0.00025399998 -2.1684043e-19 -0.012647489
0.0027939999 -0.00012700001 -0.022944294
-0.00012699999 -0.00025400001 -0.0038575344
-0.00025399998 -0.00025400001 -0.0069968039
0.0021589999 0.00127 -0.0014716897
0.00050799997 0.00127 -0.017042466
-0.0026669998 -0.00025400001 -0.012019635
0.003175 -0.0010160001 -0.017293608
-0.001651 0.00127 -0.0022251143
-0.002413 0.00025400001 -0.01767032
-0.00025399998 0.00025400001 -0.021814156
-0.002413 0.00012700001 0.0016675799
-0.00038099999 -0.00127 -0.00021598184
-0.00127 -0.00127 -0.017419178
-0.0027939999 -0.00025400001 -0.0054899547
-0.0038099999 0.00038099999 -0.015535617
-0.0036829999 -0.00012700001 -9.0411057e-05
0.000635 0.00127 -0.0013461189
0.001143 -0.00127 -0.0014716897
-0.00012699999 0.00127 -0.0015972605
0.0029209999 -0.0010160001 -0.017293608
0.001651 -0.00127 -0.016916895
-0.0036829999 -0.00076199998 -0.015284476
0.003175 -0.001143 -0.00096940651
0.0020319999 -0.001143 -0.00021598184
-0.00050799997 0.00012700001 -0.01754475
-0.002413 0.00025400001 -0.018549316
0.00025399998 -0.00025400001 -0.017921463
-0.00025399998 0.00127 -0.01616347
0.00012699999 0.00127 -0.017293608
-0.00025399998 -2.1684043e-19 -0.022065297
-0.0027939999 -2.1684043e-19 -0.022693152
-0.001524 -0.00127 -0.0160379
-0.0027939999 -2.1684043e-19 0.0015420091
0.00025399998 -0.00012700001 -0.013903197
-0.0021589999 -0.00127 -0.017042466
-0.0035559998 0.0010160001 -0.016791325
0.00012699999 0.00025400001 -0.018800458
-0.00025399998 0.00076199998 -0.00034155263
-0.00025399998 0.00012700001 0.0015420091
0.00012699999 -0.00088900002 -9.0411057e-05
-0.001143 -0.00127 -0.016540183
-0.00254 0.00025400001 -0.021939727
0.00025399998 0.00127 -0.00059269415
0.00076199998 -0.00038099999 -0.015033334
-0.00254 0.00127 -0.01616347
0.00025399998 -0.00012700001 -0.014782192
-0.0035559998 -0.0010160001 -9.0411057e-05
-0.002413 -0.00025400001 -0.0068712332
-0.001143 -0.00127 -0.017419178
-0.001905 -0.00127 -0.0012205481
-0.00025399998 0.00088900002 -0.017419178
-0.0022859999 -0.00012700001 -0.0068712332
-0.002413 -0.00025400001 -0.0074990871
-0.0030479999 -0.00038099999 -0.0024762559
-0.00254 0.00076199998 -0.0023506852
0.0013969999 0.00127 -0.017419178
-0.0022859999 -0.00012700001 -0.011642923
0.00076199998 -0.00127 -0.015661187
-0.00025399998 -0.00025400001 -0.0041086762
0.00088899996 0.00127 -0.016289042
0.002413 -0.00025400001 -0.014154338
0.001905 0.00088900002 -0.015158905
0.00012699999 -0.0010160001 -0.017419178
0.0022859999 0.00012700001 -0.022567581
-0.0026669998 -0.00025400001 -0.023195434
-0.002413 0.00127 -0.016540183
0.0030479999 0.000635 -0.017293608
-0.0030479999 -0.001143 -0.0023506852
-0.00088899996 0.0010160001 -0.0023506852
0.00127 0.00127 -0.016665755
-0.0021589999 0.00127 -0.00046712341
0.00012699999 -0.000635 -0.0023506852
-0.002413 0.000635 -0.0023506852
-0.002413 0.00088900002 -0.015284476
-0.00088899996 0.001143 -0.0023506852
0.0017779999 0.00127 -0.01591233
-0.0017779999 -0.00025400001 -9.0411057e-05
0.00012699999 0.00025400001 -0.011015069
0.0027939999 -2.1684043e-19 -0.012019635
0.00254 -0.00025400001 -0.012019635
0.0036829999 -0.00076199998 -0.015786758
-0.00025399998 -0.00012700001 -0.0059922379
-0.0026669998 -0.0010160001 -9.0411057e-05
-0.00025399998 -0.00025400001 -0.012521918
-0.0026669998 -0.00025400001 -0.01440548
-0.00012699999 0.00025400001 0.00053744286
0.0038099999 -0.00038099999 -0.017168038
-0.0017779999 0.00025400001 -0.017419178
-0.0017779999 0.00127 -0.0022251143
0.0010159999 -0.00127 -0.00059269415
-0.0027939999 0.00012700001 -0.014656622
-0.002413 0.00012700001 -0.014028768
-0.00254 0.00025400001 -0.012019635
-0.0029209999 -0.00088900002 -0.017419178
-0.00025399998 -2.1684043e-19 -0.01767032
-0.00025399998 -0.00012700001 -0.022065297
-0.001651 0.000635 -0.017293608
-0.0030479999 -0.00127 -0.01616347
-0.0036829999 -0.00088900002 -0.0010949773
-0.00254 0.00025400001 -0.0028529682
0.00012699999 -0.00025400001 -0.014154338
0.0013969999 0.00076199998 -0.015158905
-0.00088899996 0.00012700001 -0.0023506852
-0.001143 0.00012700001 -9.0411057e-05
-0.0026669998 0.00012700001 -0.0086292243
0.00127 0.00127 -0.00096940651
-0.0027939999 -2.1684043e-19 -0.009131507
0.002413 -0.00012700001 -0.019805023
0.0026669998 -0.00012700001 -0.019051598
-0.001143 -0.00127 -0.001848402
-0.00012699999 0.00025400001 -0.0054899547
-0.0022859999 -2.1684043e-19 -0.013526484
-0.001524 0.00038099999 -0.00034155263
-0.001905 -0.00127 -0.00021598184
-0.0027939999 -0.00025400001 -0.0087547945
0.0034289998 -2.1684043e-19 -0.017293608
0.003302 0.001143 -0.016540183
-0.0026669998 0.00012700001 -0.004610959
0.00254 0.00088900002 -0.0023506852
0.00254 -0.00025400001 -0.021563014
-0.0022859999 -2.1684043e-19 -0.01917717
-0.0034289998 0.001143 -0.01616347
-0.00025399998 -0.00025400001 0.0006630136
0.00012699999 0.00025400001 -0.004610959
-0.001905 -0.00127 -0.015786758
0.0034289998 -0.0010160001 -0.016289042
-0.002413 0.00025400001 -0.012396348
0.0038099999 -2.1684043e-19 -0.015284476
0.00012699999 0.00025400001 -0.0062433793
-0.0030479999 0.00038099999 -9.0411057e-05
-0.0027939999 -0.00012700001 -0.022693152
0.0038099999 -0.00025400001 -9.0411057e-05
-4.3368087e-19 0.00025400001 -0.020558449
-0.001524 0.00127 -0.017042466
-0.0030479999 -0.001143 -0.017419178
0.00254 -0.00127 -0.01591233
-0.0022859999 -0.00025400001 -0.019679453
-0.002413 -0.00025400001 -0.014154338
-0.00088899996 -0.00127 -0.017042466
-0.00025399998 -0.00025400001 -0.013903197
-0.0022859999 -0.00025400001 -0.021563014
-0.00127 -0.000635 -0.017293608
-0.0027939999 -0.00012700001 -0.013777626
0.002413 -0.00012700001 0.0012908676
-0.00012699999 0.00025400001 -0.021437444
0.00038099999 -0.00127 -0.015661187
-0.00012699999 -0.00025400001 -0.0054899547
-0.0021589999 0.00127 -0.017042466
0.003175 0.001143 -0.0023506852
-0.00025399998 -0.00012700001 -0.021939727
-0.0027939999 -0.00076199998 -0.015158905
0.00025399998 -2.1684043e-19 -0.012145206
-0.0013969999 0.00127 -0.016540183
-0.0027939999 0.00012700001 0.0022954338
0.00012699999 -0.00025400001 -0.012396348
-0.0038099999 0.00038099999 -0.0020995436
0.0034289998 0.001143 -0.017042466
0.0036829999 0.00025400001 -9.0411057e-05
-0.0029209999 0.001143 -0.0017228312
-0.00025399998 -0.00025400001 -0.014279909
0.0035559998 -0.0010160001 -0.016289042
0.00025399998 -0.00012700001 -0.022065297
-0.00254 0.00025400001 -0.00636895
-4.3368087e-19 0.001143 -0.0023506852
-0.0027939999 -2.1684043e-19 -0.0074990871
-0.0026669998 -0.00025400001 0.002797717
-0.00012699999 -0.00025400001 0.002797717
-0.0013969999 -0.00127 -0.00084383576
0.0030479999 0.00038099999 -9.0411057e-05
0.0010159999 0.00127 -0.0010949773
-0.0027939999 -0.00012700001 -0.009131507
0.0022859999 -2.1684043e-19 -0.014531051
0.0035559998 -0.0010160001 -0.0014716897
-0.00076199998 0.00076199998 -0.015158905
-0.002413 -0.00025400001 -0.0081269406
0.0029209999 0.00038099999 -0.00034155263
0.0026669998 0.00025400001 -0.0068712332
-0.0038099999 0.00012700001 -0.017168038
-0.00254 -0.00127 -0.0017228312
0.001905 -0.00012700001 -0.0023506852
-0.00025399998 0.00127 -0.016665755
-0.00025399998 -0.00012700001 -0.018926028
0.0026669998 0.00025400001 -0.0062433793
0.0017779999 -0.00025400001 -0.00021598184
0.003302 0.001143 -0.00059269415
0.0021589999 0.00025400001 -0.015033334
-4.3368087e-19 0.00025400001 -0.022693152
0.0020319999 -0.00127 -0.00059269415
0.0020319999 0.00038099999 -0.015033334
0.00127 0.00025400001 -0.017419178
0.00025399998 -0.00012700001 -0.013777626
-0.003175 -0.00012700001 -0.0023506852
0.00012699999 0.00025400001 -0.022818722
-0.00025399998 -0.00025400001 -0.012145206
-0.0022859999 -0.00025400001 -0.0049876715
-0.0026669998 -0.00127 -0.00071826496
0.00012699999 -0.00025400001 -0.022567581
-0.0034289998 0.00012700001 -0.017293608
-0.00254 -0.00127 -0.016665755
-0.00254 -0.00025400001 -0.0076246578
-0.00025399998 -0.00025400001 -0.0029785391
-0.003175 -0.00127 -0.00096940651
-0.002413 0.00012700001 0.0017931507
0.001524 0.00088900002 -0.015158905
0.0026669998 0.00025400001 -0.004610959
-0.00025399998 -0.00025400001 -0.0056155254
0.00254 0.00025400001 -0.0026018266
-0.00025399998 0.00025400001 -0.019679453
0.00012699999 0.00025400001 -0.020935161
-0.000635 0.00025400001 -0.015033334
-0.00025399998 0.00012700001 0.0001607305
-0.0027939999 -0.00025400001 0.0021698631
0.001905 0.00088900002 -9.0411057e-05
0.002413 -0.00025400001 -0.0090059368
-0.002413 0.00025400001 -0.022818722
0.0010159999 0.00127 -0.00071826496
0.003302 -0.00050800003 -0.0023506852
-0.002413 0.00127 -0.0010949773
0.0027939999 0.00012700001 0.0016675799
-0.00038099999 -0.00038099999 -0.0023506852
-0.00012699999 0.00038099999 -0.01754475
-0.00012699999 0.00025400001 -0.023069864
0.00038099999 0.00050800003 -0.00034155263
-0.0027939999 -2.1684043e-19 -0.0069968039
0.0027939999 0.00088900002 -0.017419178
0.0022859999 0.00088900002 -0.0023506852
-0.002413 0.00025400001 -0.01917717
-0.002413 0.00012700001 -0.0061178086
-0.0034289998 -0.00012700001 -9.0411057e-05
-0.0034289998 -2.1684043e-19 -0.0023506852
-0.00050799997 -0.000635 -0.015033334
0.00025399998 -0.00025400001 -0.0031041098
0.001524 0.00088900002 -9.0411057e-05
-0.0026669998 0.00127 -0.00034155263
-0.00025399998 -0.00025400001 -0.018047033
0.0027939999 -2.1684043e-19 -0.014279909
-0.002413 0.00012700001 0.0006630136
-0.00050799997 -0.001143 -0.017419178
-0.00025399998 0.00012700001 -0.018172603
-0.0034289998 -0.001143 -9.0411057e-05
0.0022859999 0.00012700001 -0.010010502
0.0026669998 0.00012700001 -0.023446577
-0.00088899996 -0.00127 -0.0160379
-0.0026669998 0.00127 -0.016289042
0.00050799997 0.00127 -0.001848402
0.0029209999 0.00127 -0.015661187
0.0035559998 -2.1684043e-19 -0.017293608
0.0038099999 0.00025400001 -0.0010949773
-0.003302 -0.0010160001 -0.0023506852
0.001651 0.00127 -0.0023506852
0.00038099999 -0.00127 -0.00071826496
-0.0027939999 0.00012700001 -0.021437444
-0.000635 -0.00088900002 -0.017419178
-0.00025399998 -0.00025400001 -0.019679453
0.001905 -0.00025400001 -9.0411057e-05
-0.00025399998 -2.1684043e-19 -0.014656622
-0.0010159999 0.00038099999 -0.00034155263
0.0022859999 0.00012700001 0.0001607305
-0.0026669998 0.00012700001 -0.00021598184
0.0027939999 -0.00012700001 -0.0077502285
-0.00012699999 -0.00127 -0.00071826496
0.0038099999 0.00038099999 -0.015786758
-0.00025399998 0.00127 -0.016289042
0.0026669998 -0.00127 -0.016791325
-0.002413 -0.00025400001 3.5159723e-05
0.00050799997 0.00127 -0.0010949773
0.0021589999 0.00012700001 -0.01754475
-0.0026669998 -0.00025400001 -0.019051598
0.000635 -0.00050800003 -0.017419178
0.002413 0.00025400001 -0.011768494
0.00025399998 -0.00088900002 -0.015158905
0.00254 -0.00127 -0.016414613
0.0038099999 0.000635 -0.016414613
0.0038099999 0.00025400001 -0.017168038
-0.0026669998 0.00038099999 -0.00034155263
0.0020319999 -0.00127 -0.016665755
-0.003302 -0.00050800003 -0.0023506852
-0.0036829999 -0.00076199998 -0.0015972605
0.0022859999 0.00012700001 -0.013149772
-0.00025399998 0.00012700001 -0.0056155254
0.0038099999 0.000635 -0.00084383576
0.0022859999 0.00012700001 0.0012908676
0.00050799997 -0.00127 -0.017168038
0.0027939999 0.00025400001 -0.019428311
-0.0022859999 0.00127 -0.016289042
-0.0026669998 0.00012700001 -0.0033552514
-0.00025399998 0.00025400001 -0.021563014
0.0022859999 0.00012700001 -0.0032296805
-0.0022859999 -0.00127 -0.0019739727
-0.003302 -0.001143 -0.015158905
0.0026669998 0.00127 -0.0012205481
-0.0038099999 -2.1684043e-19 -0.00021598184
-0.001651 -0.00127 -9.0411057e-05
0.0038099999 -0.00025400001 -0.00096940651
0.001905 -0.00127 -0.00059269415
-0.003175 0.001143 -0.01591233
0.0022859999 -0.00076199998 -0.015158905
-0.0029209999 -0.00038099999 -0.00034155263
-0.00025399998 0.00025400001 -0.022818722
-0.00254 -0.00025400001 -0.019679453
-0.00012699999 -0.00025400001 -0.018298173
-0.00025399998 -2.1684043e-19 -0.0031041098
0.00025399998 0.00025400001 -0.014028768
-0.00127 -0.00127 -0.00071826496
0.0034289998 0.00127 -0.0023506852
0.0035559998 -0.0010160001 -0.0022251143
0.0022859999 -2.1684043e-19 -0.0042342469
0.002413 0.00038099999 -0.01767032
-0.00254 0.00025400001 -0.017795891
0.0027939999 -0.00012700001 -0.0086292243
0.0027939999 -2.1684043e-19 -0.0090059368
-0.0027939999 0.00012700001 -0.0041086762
0.00254 -0.00025400001 0.0014164383
0.0027939999 -0.001143 -0.0022251143
0.0038099999 -0.00025400001 -0.001848402
0.001143 0.00127 -0.015284476
0.0027939999 0.00012700001 -0.005364384
-0.00025399998 0.00025400001 -0.0090059368
0.002413 -0.00012700001 -0.010638356
-0.00254 -0.00025400001 0.0014164383
-0.0036829999 0.00050800003 -0.017293608
0.00012699999 -0.00025400001 -0.0057410961
0.00050799997 -0.00127 -0.015661187
-0.0034289998 -0.001143 -0.0023506852
0.0013969999 -0.000635 -0.015158905
0.0027939999 0.00025400001 0.0014164383
0.002413 -0.00012700001 -0.0062433793
0.001524 -0.00127 -0.0014716897
-0.0027939999 -0.00025400001 -0.0029785391
0.00038099999 -0.00012700001 -0.015033334
-0.001143 -0.00038099999 -0.0023506852
-0.0027939999 -0.00012700001 -0.0090059368
-0.002413 -0.00025400001 0.0019187215
-0.001651 0.00038099999 -0.00034155263
0.002413 -0.00012700001 -0.021939727
0.000635 -0.00127 -0.017168038
0.00025399998 -0.001143 -0.017419178
0.00038099999 0.00025400001 -0.015033334
0.0029209999 0.0010160001 -9.0411057e-05
-0.0017779999 -0.00050800003 -0.00034155263
-0.0027939999 -0.00012700001 -0.023195434
-0.002413 0.00012700001 -0.0056155254
-0.001143 -0.00127 -0.016791325
0.00088899996 0.00127 -0.0012205481
0.0027939999 0.00012700001 -0.0067456625
-0.001524 -2.1684043e-19 -0.017419178
0.0021589999 -0.00127 -0.00071826496
-4.3368087e-19 0.00025400001 -0.013777626
0.002413 0.00025400001 -0.013400914
0.0022859999 0.00012700001 -0.0092570782
0.0035559998 -0.00076199998 -0.017168038
0.0022859999 0.00012700001 -0.0037319637
-0.00012699999 -0.00025400001 -0.020684019
-0.0027939999 -0.00025400001 -0.021437444
0.0027939999 -2.1684043e-19 -0.0032296805
0.0029209999 0.00076199998 -0.0023506852
0.00025399998 -2.1684043e-19 -0.012019635
0.00012699999 -0.00025400001 -0.020181736
0.00254 0.00038099999 -0.014782192
-0.0026669998 0.00012700001 0.0022954338
0.001905 0.00127 -0.016289042
-0.00254 0.00025400001 -0.011517352
0.0013969999 -0.0010160001 -9.0411057e-05
0.0030479999 0.00127 -0.017293608
0.0038099999 -2.1684043e-19 -0.00071826496
-4.3368087e-19 0.00025400001 -0.0052388129
-0.00050799997 0.001143 -0.0023506852
0.002413 0.00127 -0.0010949773
0.0027939999 0.00012700001 -0.0071223746
-0.0026669998 -0.00025400001 -0.020935161
-0.00012699999 -0.00025400001 -0.017921463
-0.002413 0.00012700001 -0.0027273975
-0.00025399998 -2.1684043e-19 0.0026721461
-0.002413 -0.00025400001 -0.0086292243
0.0038099999 -0.00038099999 -0.01616347
0.0027939999 -0.00012700001 -0.014907763
0.002413 -0.00025400001 -0.0098849321
0.0029209999 -0.001143 -0.00084383576
-0.00254 -0.00025400001 -0.021437444
0.0036829999 0.00088900002 -0.015284476
-0.00012699999 -0.00025400001 0.0019187215
-0.0013969999 -0.00025400001 -9.0411057e-05
0.003175 -0.001143 -0.016791325
0.0021589999 0.00088900002 -0.017419178
-0.000635 0.00127 -0.001848402
0.0027939999 -2.1684043e-19 -0.0088803656
0.0027939999 0.00025400001 0.0020442922
0.00025399998 -0.00012700001 -0.013275343
0.0013969999 0.001143 -0.015284476
-0.00254 0.00025400001 -0.0073735164
0.0022859999 0.00012700001 -0.0064945207
-0.0027939999 -0.00127 -0.017293608
-0.0022859999 -0.00025400001 -0.014782192
-0.0038099999 -0.00050800003 -0.00096940651
-0.00025399998 0.00025400001 -0.013024202
-0.0027939999 -0.00012700001 0.00091415516
-4.3368087e-19 -0.00076199998 -0.017419178
0.0029209999 -0.001143 -0.00021598184
0.0017779999 -0.00127 -0.016414613
0.0026669998 -0.00012700001 0.00053744286
-0.00025399998 0.00012700001 -0.0095082195
-0.002413 0.00012700001 -0.013526484
0.0026669998 -0.00012700001 0.0014164383
-0.00025399998 0.00012700001 -0.014907763
-0.002413 -0.001143 -0.00021598184
-0.001651 -0.000635 -0.015033334
0.00038099999 -0.000635 -0.0023506852
0.001524 0.000635 -0.00046712341
-0.00038099999 0.00127 -0.016540183
0.00012699999 -0.00025400001 -0.0074990871
-0.003175 -2.1684043e-19 -0.017419178
0.00025399998 -0.00025400001 -0.014531051
0.003175 -0.001143 -0.0012205481
0.0020319999 -0.00025400001 -9.0411057e-05
0.000635 0.00127 -0.0010949773
0.00025399998 -2.1684043e-19 0.00053744286
0.0035559998 0.000635 -0.0023506852
-0.00025399998 -0.00012700001 -0.005364384
0.00254 0.00025400001 -0.014154338
0.0021589999 -0.00127 -0.01591233
-0.0030479999 -0.00088900002 -0.015158905
-0.002413 0.00025400001 -0.021311874
-0.0022859999 -0.00025400001 -0.022316439
0.00025399998 0.00025400001 -0.021688586
-0.0022859999 -0.00088900002 -0.015033334
-0.0038099999 0.00038099999 -0.00034155263
0.00025399998 0.00025400001 -0.003606393
-0.002413 0.00012700001 -0.003606393
0.0022859999 0.00012700001 -0.020307306
0.002413 -0.00025400001 -0.020558449
0.0029209999 -0.001143 -0.0017228312
0.0022859999 0.00012700001 -0.0056155254
-4.3368087e-19 0.00025400001 -0.014154338
-0.00076199998 -0.00050800003 -0.015033334
-0.002413 -0.00025400001 -0.019805023
-0.00038099999 0.00038099999 -0.00034155263
0.00025399998 -0.00127 -0.015410046
-0.0029209999 0.001143 -0.015535617
-0.003302 0.00012700001 -9.0411057e-05
-0.0010159999 -0.00127 -0.0019739727
0.00038099999 0.00038099999 -0.01754475
-0.00012699999 0.00025400001 -0.010387215
-0.0038099999 -0.00050800003 -0.015284476
-0.002413 -0.00025400001 -0.011517352
0.001143 0.0010160001 -0.017419178
-0.00025399998 0.00025400001 -0.00636895
0.00012699999 -2.1684043e-19 0.002797717
-0.0027939999 -0.00025400001 -0.010136073
0.0026669998 -0.00012700001 -0.012145206
0.0013969999 -0.00076199998 -0.017419178
0.001651 0.00012700001 -0.015033334
0.0026669998 -0.00012700001 -0.0041086762
-0.0017779999 0.000635 -0.0024762559
-0.00038099999 0.0010160001 -0.015033334
0.0036829999 0.00076199998 -0.0014716897
-0.00254 -0.00025400001 0.00091415516
0.00012699999 -0.00025400001 -0.0069968039
-4.3368087e-19 -0.00025400001 0.00078858441
-0.00012699999 -0.00025400001 -0.011894064
-0.00088899996 0.001143 -0.015158905
0.00076199998 -0.00088900002 -9.0411057e-05
0.0026669998 0.00025400001 -0.014531051
-0.0029209999 0.001143 -0.00059269415
-0.0029209999 0.001143 -0.001848402
0.0029209999 -0.000635 -0.0023506852
0.0022859999 0.00012700001 -0.0071223746
0.0027939999 0.00025400001 -0.020056166
0.00012699999 0.00025400001 0.001039726
0.00254 0.00025400001 -0.022065297
0.0027939999 -0.00050800003 -0.015158905
-0.0027939999 0.00012700001 0.00041187205
-4.3368087e-19 0.00127 -0.016665755
-0.0027939999 -0.00025400001 -0.021060731
0.0038099999 -0.00038099999 -0.00046712341
-4.3368087e-19 -0.00025400001 -0.010889499
-0.00076199998 -0.00127 -0.0013461189
-0.00012699999 -0.00025400001 -0.0067456625
-0.0013969999 -0.001143 -0.017419178
-0.0027939999 0.00127 -0.00046712341
-0.00025399998 -2.1684043e-19 -0.0067456625
0.00050799997 -0.00127 -0.017042466
-0.00254 0.00025400001 -0.013024202
-0.00076199998 0.00050800003 -0.00034155263
0.0034289998 0.00050800003 -0.017293608
0.0026669998 0.00025400001 -0.014279909
-0.0022859999 -0.00012700001 -0.018674886
-0.0027939999 -0.00012700001 -0.012521918
0.001905 0.00127 -0.0015972605
0.00012699999 0.00025400001 -0.0067456625
-0.0038099999 0.00012700001 -0.01591233
-0.00025399998 -0.00076199998 -0.015158905
-0.0022859999 -0.00012700001 -0.01917717
-0.00050799997 0.001143 -9.0411057e-05
-0.0030479999 -0.00038099999 -0.017293608
0.00025399998 -2.1684043e-19 0.0014164383
0.00254 -0.00025400001 -0.0092570782
-0.0026669998 -0.0010160001 -0.0023506852
-0.0035559998 -0.00038099999 -0.015033334
-0.0022859999 -0.00025400001 -0.018926028
0.00012699999 0.00050800003 -0.00034155263
0.00012699999 -0.00025400001 -0.022190869
-0.0022859999 -2.1684043e-19 0.0025465754
0.0034289998 0.001143 -0.0019739727
0.0021589999 0.00088900002 -0.00021598184
0.0030479999 -2.1684043e-19 -9.0411057e-05
0.00025399998 0.00012700001 -0.0064945207
0.0022859999 0.00012700001 -0.0090059368
0.0034289998 0.00076199998 -0.0023506852
-0.00025399998 -0.001143 -0.015158905
0.0017779999 -0.00127 -0.00096940651
0.00076199998 0.00127 -0.0013461189
0.0034289998 0.000635 -0.017293608
-0.0026669998 0.00012700001 -0.019805023
-0.0027939999 0.0010160001 -0.0022251143
-0.002413 -0.00127 -0.016414613
0.00025399998 -0.00012700001 -0.023321005
0.0013969999 -0.00127 -0.015158905
0.000635 0.00038099999 -0.00034155263
0.0036829999 0.00076199998 -0.015410046
0.002413 -0.00127 -0.0013461189
0.00025399998 0.00012700001 -0.019051598
0.00025399998 -0.00127 -0.00034155263
-0.00012699999 -0.00025400001 -0.0027273975
0.0027939999 0.00025400001 -0.0087547945
-0.001524 -0.00127 -0.017419178
-0.0027939999 -0.00012700001 0.0024210045
-0.0027939999 0.00127 -0.01591233
-0.001524 -0.001143 -0.015158905
0.000635 0.00127 -0.017293608
-0.0013969999 0.00025400001 -0.0023506852
-0.00025399998 0.00012700001 -0.003606393
-0.00012699999 -0.00025400001 -0.01917717
0.00038099999 0.00012700001 -0.01754475
0.00254 0.00025400001 -0.0059922379
-0.003175 -0.001143 -0.015158905
0.0026669998 0.00025400001 -0.022944294
0.0038099999 0.000635 -0.0013461189
0.0026669998 -0.00012700001 -0.022693152
-0.0021589999 -0.00025400001 -0.01754475
0.001651 -0.00127 -0.017042466
0.00012699999 -0.00025400001 -0.021186301
-0.00012699999 -0.00012700001 -0.023446577
-0.00254 -0.00025400001 -0.012145206
0.0026669998 0.00025400001 -0.010387215
0.0010159999 0.0010160001 -0.0023506852
0.00012699999 0.00025400001 -0.0056155254
-0.00012699999 0.00025400001 3.5159723e-05
0.00012699999 0.00025400001 -0.023069864
-0.003175 -0.001143 -9.0411057e-05
0.0030479999 0.00127 -0.016414613
-0.002413 -0.00025400001 0.0024210045
0.0026669998 0.00025400001 -0.022442009
0.000635 0.00127 -0.0019739727
0.001905 0.00127 -0.015284476
-0.000635 0.00025400001 -9.0411057e-05
0.002413 -0.00025400001 -0.019805023
0.0026669998 -0.00012700001 -0.010010502
0.0010159999 -0.000635 -0.00034155263
0.0027939999 -2.1684043e-19 0.00091415516
0.0038099999 -0.00012700001 -0.00021598184
-0.00254 -0.00025400001 -0.020432878
-0.0026669998 0.00012700001 -0.0085036531
0.001524 0.00127 -0.015661187
0.00012699999 0.00025400001 -0.0058666668
0.002413 0.00038099999 -0.014782192
-0.0035559998 -0.001143 -0.0012205481
-0.0034289998 -2.1684043e-19 -0.015033334
-0.00076199998 0.00012700001 -0.0023506852
-0.0027939999 -2.1684043e-19 -0.014028768
-0.00012699999 0.00025400001 0.00078858441
0.0034289998 0.000635 -0.00046712341
0.0038099999 -0.00050800003 -0.0023506852
0.00050799997 -0.00127 -0.0010949773
-0.0029209999 0.00088900002 -0.015284476
0.001905 0.00127 -0.00071826496
0.0010159999 -0.00025400001 -9.0411057e-05
0.003302 0.001143 -0.015158905
0.00050799997 0.00076199998 -0.00034155263
0.00012699999 0.00025400001 -0.011517352
-0.0022859999 -0.00025400001 -0.004610959
-0.00254 -0.00025400001 -0.022693152
0.00012699999 -0.00025400001 0.00091415516
-4.3368087e-19 0.00025400001 -0.0043598176
0.0026669998 -0.00012700001 -0.014656622
0.00025399998 0.00025400001 -0.019428311
0.0036829999 0.00076199998 -0.00046712341
-0.002413 -0.00025400001 -0.0085036531
0.0026669998 0.000635 -0.015033334
0.001143 -0.001143 -0.015284476
-0.000635 0.00127 -0.0017228312
0.001905 -0.00127 -0.00034155263
-0.00025399998 0.0010160001 -0.0023506852
0.000635 -0.00050800003 -0.015033334
0.001905 -0.000635 -0.00034155263
-4.3368087e-19 -0.00127 -0.0013461189
-0.0022859999 -2.1684043e-19 -0.022818722
-0.00025399998 -2.1684043e-19 -0.0043598176
-0.0030479999 -0.00088900002 -0.0023506852
-0.001524 -0.00050800003 -0.015033334
0.0026669998 -0.00012700001 -0.0026018266
0.0021589999 0.00025400001 -0.00021598184
0.000635 0.00012700001 -0.015033334
-0.001143 -0.00127 -0.015284476
0.003175 -0.001143 -0.0010949773
-0.00254 -2.1684043e-19 -0.023446577
-0.0030479999 -0.0010160001 -0.017419178
0.00038099999 -0.00127 -0.015410046
0.0036829999 0.0010160001 -0.0023506852
0.0027939999 -2.1684043e-19 -0.020056166
-0.00025399998 0.00012700001 -0.0082525117
0.00025399998 0.00025400001 -0.01440548
0.002413 0.00025400001 -0.0039831051
-0.0030479999 -0.000635 -0.015158905
0.00012699999 -0.00127 -0.0015972605
-0.002413 -0.00025400001 -0.01114064
-4.3368087e-19 0.00025400001 -0.0095082195
0.002413 0.00025400001 0.0015420091
-0.0027939999 0.00012700001 -0.010387215
-0.002413 -0.00012700001 0.0029232877
-0.0027939999 -2.1684043e-19 -0.020056166
0.002413 -0.00025400001 -0.010512786
0.00025399998 -0.00012700001 -0.011517352
-4.3368087e-19 -0.00088900002 -0.015158905
0.00254 0.00127 -0.00021598184
-0.0026669998 -0.00127 -0.01591233
-0.0027939999 -0.00127 -0.00059269415
-4.3368087e-19 0.00050800003 -0.01754475
0.00254 -0.0010160001 -0.015158905
0.0013969999 -0.00127 -0.00071826496
0.0035559998 -0.0010160001 -0.0020995436
-0.0034289998 0.00025400001 -9.0411057e-05
-0.00050799997 -0.00127 -0.0160379
-4.3368087e-19 -0.00025400001 -0.021060731
-4.3368087e-19 -0.00025400001 -0.0052388129
-0.0017779999 -0.00127 -0.017419178
0.00025399998 -0.00025400001 -0.019679453
0.00025399998 0.00012700001 -0.0041086762
0.0022859999 0.00012700001 -0.021563014
-0.0038099999 -0.00025400001 -0.016916895
0.0013969999 -0.00127 -0.0020995436
-0.0022859999 -0.00127 -9.0411057e-05
-0.0034289998 0.001143 -0.015786758
-0.0027939999 0.00012700001 0.0024210045
0.00025399998 -0.000635 -0.00034155263
-0.002413 0.00025400001 -0.0034808221
-4.3368087e-19 0.00050800003 -0.0024762559
-0.00025399998 -2.1684043e-19 -0.009131507
0.0027939999 0.00012700001 0.0020442922
-0.0026669998 0.00127 -0.017168038
-0.0038099999 0.00025400001 -0.015661187
0.001143 0.0010160001 -0.0023506852
-0.00254 -0.00025400001 -0.0068712332
-4.3368087e-19 0.00025400001 -0.0031041098
-0.00025399998 -0.00012700001 -0.020684019
-0.0013969999 0.00127 -0.0014716897
0.0022859999 -0.00012700001 -0.013275343
-0.001143 0.00127 -0.0022251143
0.002413 -0.00012700001 -0.020432878
0.0022859999 -2.1684043e-19 -0.0058666668
-0.0036829999 0.00076199998 -0.016791325
-0.00012699999 0.00025400001 -0.021311874
0.0034289998 0.00088900002 -0.0023506852
-0.00088899996 -0.00127 -0.00071826496
-0.0026669998 0.0010160001 -0.00021598184
-0.0022859999 0.00127 -0.0017228312
-0.002413 -0.00025400001 -0.012396348
-0.0029209999 -0.00076199998 -0.017419178
-0.00012699999 -0.00025400001 -0.01277306
-0.0017779999 -0.001143 -0.015158905
