# .PCD v0.7 - Point Cloud Data file format
VERSION 0.7
FIELDS x y z
SIZE 4 4 4
TYPE F F F
COUNT 1 1 1
WIDTH 1225
HEIGHT 1
VIEWPOINT 0 0 0 1 0 0 0
POINTS 1225
DATA ascii
0.035964604 -0.00054428569 -0.0021461537
-0.0025175221 -0.00127 -0.011586153
0.0226577 0.00054428569 -0.011223077
-0.014745487 -0.00127 -0.0010569229
0.028771682 -0.00054428569 -0.011586153
-0.01078938 0.00090714288 -0.00033076911
0.0071929204 0.00090714288 -0.011223077
-0.032008495 0.00018142856 -0.014490768
0.024096284 -0.00018142856 -0.014853845
-0.013666549 0.00054428569 -0.012312307
-0.0010789381 0.00018142856 -0.017395385
-0.0226577 0.00127 -0.011586153
-0.012947257 0.00127 -0.0021461537
0.025534868 0.00127 -0.00033076911
-0.0057543362 -0.00090714288 -0.0021461537
0.007912213 -0.00127 -0.0017830768
0.021219116 0.00127 -0.012675384
-0.01726301 0.00127 -0.012312307
0.025534868 -0.00127 -0.013038461
-0.040280353 0.00054428569 -0.0021461537
-0.026613805 -0.00018142856 3.2307802e-05
-0.014385841 0.00018142856 -0.011586153
-0.010070088 0.00090714288 -0.012675384
-0.039561063 -0.00018142856 0.0007584616
-0.0014385841 -0.00018142856 -0.0057769227
0.0039561065 -0.00018142856 0.0011215386
-0.0064736283 0.00018142856 -0.0090446146
-0.026613805 0.00127 -0.00033076911
-0.024096284 0.00018142856 -0.018121537
0.029131329 0.00018142856 -0.0050507691
-0.019420886 -0.00127 -0.00069384603
0.03992071 0.00127 -0.011586153
-0.010429734 -0.00054428569 -0.013401538
0.014026195 0.00018142856 -0.0028723076
0.029131329 -0.00018142856 -0.017032307
0.0089911511 0.00127 -0.0017830768
0.023017345 0.00090714288 -0.013401538
0.033447079 0.00127 -0.013401538
0.037043542 -0.00018142856 -0.004687692
-0.014026195 0.00018142856 0.0011215386
-0.038841773 -0.00127 -0.012312307
0.039201416 -0.00018142856 -0.0097707687
-0.025894513 -0.00127 -0.011223077
0.026613805 -0.00127 -0.0010569229
-0.027692745 -0.00090714288 -0.0021461537
0.0061139823 0.00018142856 0.0011215386
0.017622655 0.00127 -0.012675384
-0.022298053 0.00127 -0.00033076911
-0.011508672 -0.00018142856 0.0014846155
0.036683895 0.00054428569 -0.013401538
0.015824426 0.00127 -0.0010569229
-0.0093507972 -0.00018142856 -0.013401538
0.0043157525 0.00018142856 -0.013401538
0.023376992 0.00054428569 -0.013401538
-0.019420886 -0.00018142856 -0.00033076911
0.0097104432 0.00127 -0.012675384
-0.037043542 0.00018142856 3.2307802e-05
-0.018701594 -0.00054428569 -0.0021461537
0.015464779 -0.00090714288 -0.011586153
0.007912213 0.00054428569 -0.012312307
0.014745487 0.00090714288 -0.011586153
0.013306903 -0.00090714288 -0.00033076911
0.01726301 0.00054428569 -0.00033076911
0.033806726 -0.00127 -0.013401538
-0.018701594 -0.00127 -0.0021461537
-0.0035964602 0.00018142856 -0.017395385
-0.039561063 0.00018142856 -0.0075923074
-0.032008495 0.00018142856 -0.0035984614
0.019780532 -0.00054428569 -0.011223077
-0.0071929204 0.00054428569 -0.0021461537
-0.02625416 -0.00018142856 -0.0021461537
0.0050350442 0.00127 -0.011223077
-0.0028771681 -0.00090714288 -0.00033076911
0.014026195 0.00018142856 -0.014490768
-0.024096284 -0.00018142856 -0.018847691
-0.030569913 -0.00018142856 -0.00033076911
-0.0089911511 0.00018142856 -0.018484615
-0.016543718 -0.00054428569 -0.011223077
0.0057543362 0.00127 -0.0017830768
0.0043157525 0.00018142856 -0.01194923
0.0035964602 -0.00127 -0.0014199999
-0.0035964602 0.00018142856 -0.004324615
-0.024096284 0.00018142856 -0.010496923
-0.021578761 0.00018142856 -0.0061399997
0.019780532 0.00018142856 -0.00033076911
0.007912213 0.00054428569 -0.011586153
0.0035964602 -0.00018142856 -0.017758461
-0.011149026 0.00018142856 0.0014846155
-0.0089911511 0.00054428569 -0.01194923
-0.017622655 -0.00054428569 -0.0021461537
0.036683895 -0.00018142856 -0.01086
-0.03452602 -0.00018142856 -0.0061399997
-0.037043542 -0.00018142856 -0.015943076
0.0068332744 -0.00090714288 -0.00033076911
0.011149026 -0.00018142856 0.0011215386
-0.0035964602 0.00127 -0.0014199999
0.034166373 -0.00018142856 -0.018121537
0.023376992 0.00090714288 -0.011586153
-0.030210266 -0.00054428569 -0.013401538
0.013666549 0.00018142856 -0.013401538
-0.032727789 0.00054428569 -0.013401538
-0.0025175221 0.00127 -0.012675384
0.014385841 -0.00127 -0.0017830768
-0.034885664 -0.00127 -0.00069384603
0.020499824 0.00054428569 -0.0021461537
-0.016903363 0.00127 -0.0010569229
0.00035964602 0.00054428569 -0.00033076911
-0.0068332744 -0.00127 -0.00033076911
0.026613805 -0.00127 -0.0014199999
0.015105133 0.00090714288 -0.011586153
-0.031648852 -0.00018142856 0.0003953847
-0.01078938 0.00018142856 -0.0021461537
-0.015464779 -0.00127 -0.013401538
-0.0061139823 0.00018142856 -0.018847691
-0.020859469 0.00018142856 -0.013401538
0.0089911511 -0.00018142856 -0.018484615
0.023376992 -0.00090714288 -0.011586153
-0.024096284 0.00018142856 -0.014490768
0.03452602 0.00018142856 -0.016669231
-0.034166373 -0.00018142856 -0.019573845
-0.016184071 0.00054428569 -0.00033076911
0.012947257 -0.00127 -0.01194923
0.038841773 0.00127 -0.0017830768
-0.032008495 -0.00018142856 -0.0068661533
0.016543718 0.00018142856 0.0007584616
0.0021578763 0.00018142856 -0.00033076911
0.03452602 -0.00018142856 -0.0083184615
0.0043157525 0.00090714288 -0.011223077
-0.026973452 -0.00127 -0.00033076911
0.039201416 -0.00090714288 -0.0021461537
0.039561063 0.00090714288 -0.0021461537
-0.023017345 -0.00054428569 -0.00033076911
0.021578761 0.00018142856 -0.0086815385
0.020499824 -0.00127 -0.0017830768
-0.011508672 -0.00127 -0.0014199999
0.037043542 -0.00018142856 -0.0028723076
0.019780532 0.00127 -0.01194923
-0.0050350442 0.00090714288 -0.013401538
0.016543718 0.00127 -0.0014199999
0.013306903 0.00090714288 -0.013401538
0.0089911511 0.00018142856 -0.017032307
0.021219116 0.00127 -0.011586153
-0.016543718 0.00090714288 -0.00033076911
-0.030210266 -0.00090714288 -0.0021461537
0.030929558 -0.00127 -0.0017830768
0.015464779 -0.00127 -0.012675384
-0.0061139823 0.00018142856 -0.0090446146
0.039561063 -0.00018142856 -0.015216922
0.032008495 -0.00018142856 -0.0086815385
-0.039201416 -0.00054428569 -0.012675384
0.012227965 -0.00127 -0.00069384603
0.0025175221 -0.00127 -0.00069384603
0.0039561065 0.00018142856 -0.0057769227
-0.035964604 0.00127 -0.0010569229
-0.0064736283 -0.00127 -0.0017830768
-0.019420886 -0.00018142856 -0.011223077
0.034166373 0.00018142856 -0.0025092305
0.0064736283 -0.00090714288 -0.011223077
0.017622655 -0.00127 -0.0010569229
0.0057543362 -0.00090714288 -0.0021461537
0.037043542 0.00127 -0.013401538
-0.03452602 -0.00018142856 -0.015579999
-0.024096284 -0.00018142856 -0.018121537
-0.035245311 0.00127 -0.0014199999
-0.0057543362 0.00054428569 -0.00033076911
-0.032368142 -0.00090714288 -0.012312307
0.018341947 0.00054428569 -0.011223077
-0.0039561065 0.00018142856 -0.0054138456
-0.011868319 0.00018142856 -0.00033076911
-0.0046753986 0.00090714288 -0.0021461537
0.0043157525 -0.00127 -0.01194923
-0.0039561065 0.00090714288 -0.013401538
0.027333098 0.00127 -0.00069384603
0.013666549 -0.00054428569 -0.011223077
0.0010789381 -0.00018142856 3.2307802e-05
0.029131329 0.00018142856 -0.0032353844
-0.030929558 0.00127 -0.00069384603
0.011868319 0.00090714288 -0.00033076911
-0.0089911511 -0.00018142856 -0.0028723076
-0.020499824 -0.00018142856 -0.00033076911
0.035964604 -0.00127 -0.00033076911
0.020499824 -0.00018142856 -0.00033076911
-0.0046753986 -0.00018142856 -0.011223077
0.039561063 -0.00018142856 -0.0039615384
0.036683895 0.00127 -0.012312307
-0.0035964602 -0.00018142856 -0.013764615
-0.035964604 -0.00127 -0.00033076911
-0.012227965 -0.00090714288 -0.012312307
-0.0025175221 -0.00054428569 -0.011223077
0.037762832 -0.00090714288 -0.0021461537
-0.016543718 -0.00054428569 -0.01194923
-0.032008495 -0.00018142856 -0.0094076917
0.021938408 -0.00090714288 -0.0021461537
-0.037762832 -0.00018142856 -0.00033076911
0.0028771681 0.00127 -0.0010569229
-0.032368142 -0.00090714288 -0.013038461
0.014026195 -0.00054428569 -0.00033076911
0.038482126 -0.00127 -0.011586153
0.012227965 -0.00127 -0.013401538
0.03452602 0.00018142856 -0.0068661533
0.024455929 0.00018142856 -0.0025092305
0.036683895 -0.00018142856 -0.0028723076
0.0064736283 0.00018142856 -0.014490768
0.035964604 -0.00090714288 -0.00033076911
0.036683895 -0.00018142856 -0.0057769227
0.028412037 -0.00127 -0.0014199999
-0.0046753986 0.00127 -0.012675384
0.008271859 0.00018142856 -0.011223077
-0.016543718 -0.00018142856 -0.013764615
0.030929558 -0.00127 -0.0021461537
0.026973452 -0.00127 -0.0017830768
0.013306903 0.00127 -0.0017830768
-0.036683895 -0.00018142856 -0.0083184615
0.0053946902 -0.00054428569 -0.013401538
0.016543718 0.00127 -0.0010569229
0.020859469 -0.00127 -0.013401538
0.038122479 -0.00127 -0.0021461537
0.030210266 -0.00018142856 -0.013401538
-0.0046753986 0.00018142856 -0.013401538
0.0064736283 0.00127 -0.0014199999
0.012587611 -0.00090714288 -0.011586153
0.0046753986 -0.00090714288 -0.013401538
0.0039561065 -0.00018142856 -0.0028723076
-0.032008495 -0.00018142856 0.0018476923
-0.013666549 -0.00127 -0.013038461
-0.0010789381 0.00090714288 -0.0021461537
-0.0039561065 -0.00090714288 -0.0021461537
0.032727789 -0.00090714288 -0.013038461
-0.01726301 -0.00127 -0.00069384603
-0.031648852 0.00018142856 -0.0035984614
0.020140177 -0.00018142856 -0.011586153
0.016184071 0.00127 -0.013038461
-0.024096284 -0.00090714288 -0.00033076911
0.014026195 -0.00018142856 -0.014853845
0.0089911511 -0.00018142856 3.2307802e-05
0.011149026 -0.00127 -0.011586153
-0.031289205 -0.00018142856 -0.011223077
-0.0057543362 0.00127 -0.013038461
0.032008495 -0.00018142856 -0.0090446146
0.037043542 -0.00018142856 -0.01086
-0.026973452 0.00054428569 -0.011586153
0.039201416 0.00018142856 -0.019573845
-0.018341947 -0.00127 -0.0014199999
0.02805239 -0.00127 -0.013038461
-0.0089911511 -0.00127 -0.013401538
0.027333098 0.00018142856 -0.011223077
0.026973452 0.00018142856 -0.0025092305
-0.028771682 -0.00054428569 -0.013401538
0.0226577 0.00054428569 -0.00033076911
-0.038122479 -0.00054428569 -0.00033076911
-0.012587611 -0.00127 -0.012675384
-0.029850621 0.00127 -0.0021461537
-0.028412037 0.00018142856 -0.013401538
0.0061139823 -0.00018142856 -0.0068661533
-0.0068332744 0.00127 -0.013038461
-0.033806726 -0.00054428569 -0.0021461537
-0.0086315051 0.00018142856 0.0011215386
0.031289205 0.00018142856 -0.0021461537
0.0010789381 0.00054428569 -0.00033076911
-0.0035964602 -0.00018142856 -0.016306153
-0.0046753986 -0.00127 -0.011586153
-0.037403189 0.00090714288 -0.0021461537
-0.0035964602 -0.00018142856 -0.0075923074
-0.024096284 0.00018142856 -0.017395385
-0.036683895 -0.00127 -0.0021461537
-0.022298053 -0.00090714288 -0.013401538
0.038122479 0.00054428569 -0.011223077
0.034166373 0.00018142856 3.2307802e-05
-0.037043542 -0.00018142856 -0.016669231
0.025175221 0.00127 -0.01194923
-0.011149026 0.00018142856 0.0003953847
0.017622655 0.00090714288 -0.0021461537
-0.029131329 -0.00018142856 -0.010133846
0.024096284 -0.00090714288 -0.013401538
-0.0010789381 -0.00018142856 0.0018476923
0.018701594 -0.00054428569 -0.013401538
-0.010429734 -0.00127 -0.013038461
-0.019061239 0.00018142856 -0.01086
-0.017622655 0.00127 -0.00069384603
-0.015105133 -0.00127 -0.0017830768
0.0089911511 0.00018142856 -0.016306153
0.0071929204 -0.00127 -0.0025092305
-0.033087436 -0.00127 -0.0010569229
0.0061139823 0.00127 -0.0021461537
-0.011868319 0.00127 -0.013401538
0.011868319 -0.00054428569 -0.013401538
0.0071929204 0.00127 -0.012675384
0.024096284 0.00127 -0.0010569229
-0.038482126 -0.00054428569 -0.011586153
-0.010070088 -0.00127 -0.00033076911
0.031648852 -0.00018142856 -0.016306153
-0.019780532 -0.00090714288 -0.0021461537
-0.0086315051 -0.00018142856 -0.016669231
-0.013666549 -0.00018142856 -0.019210769
0.015824426 0.00090714288 -0.013401538
-0.0039561065 0.00018142856 -0.014127691
-0.024815576 -0.00127 -0.011586153
-0.0061139823 0.00018142856 -0.0032353844
0.029490974 -0.00090714288 -0.0021461537
0.0057543362 0.00018142856 -0.00033076911
0.026973452 -0.00127 -0.0021461537
0.0086315051 0.00018142856 -0.018847691
-0.0061139823 0.00018142856 -0.0054138456
-0.011508672 -0.00090714288 -0.0021461537
0.023736637 0.00127 -0.01194923
-0.016184071 0.00090714288 -0.012312307
0.010429734 -0.00127 -0.0021461537
0.011508672 -0.00018142856 -0.014490768
0.037762832 0.00127 -0.0021461537
0.033087436 -0.00054428569 -0.00033076911
0.035964604 -0.00090714288 -0.013401538
0.029850621 -0.00127 -0.013401538
0.016903363 0.00127 -0.0017830768
-0.014385841 -0.00127 -0.00033076911
-0.025894513 -0.00127 -0.011586153
0.0035964602 -0.00054428569 -0.0021461537
-0.011508672 -0.00018142856 0.0022107693
-0.0064736283 0.00018142856 -0.019210769
0.023376992 -0.00127 -0.012675384
-0.0089911511 -0.00127 -0.00069384603
-0.0053946902 -0.00127 -0.00069384603
-0.021578761 0.00018142856 -0.015216922
-0.016543718 -0.00018142856 -0.004687692
-0.0014385841 -0.00127 -0.011223077
-0.021578761 -0.00127 -0.0014199999
0.039561063 -0.00018142856 0.0014846155
-0.037403189 0.00127 -0.0017830768
-0.027692745 0.00054428569 -0.011586153
0.036324248 -0.00127 -0.0010569229
0.039201416 -0.00127 -0.00033076911
-0.016903363 0.00127 -0.0014199999
-0.026613805 0.00127 -0.00069384603
-0.016543718 0.00127 -0.00033076911
0.020859469 0.00127 -0.013038461
0.036683895 0.00018142856 -0.004687692
-0.024815576 -0.00018142856 -0.011223077
-0.0025175221 0.00054428569 -0.012675384
-0.036324248 -0.00127 -0.0017830768
-0.02805239 -0.00127 -0.00033076911
-0.0089911511 0.00018142856 -0.016306153
-0.019420886 0.00018142856 -0.011223077
-0.03992071 0.00090714288 -0.0014199999
0.03452602 0.00018142856 -0.0025092305
0.011149026 -0.00127 -0.0021461537
0.0017982301 0.00127 -0.0010569229
-0.012227965 0.00127 -0.0021461537
-0.023736637 0.00127 -0.00069384603
-0.036683895 -0.00054428569 -0.00033076911
-0.0046753986 -0.00127 -0.0010569229
0.011508672 0.00018142856 -0.0086815385
0.01726301 0.00090714288 -0.013401538
-0.022298053 -0.00127 -0.0017830768
-0.016184071 -0.00054428569 -0.01194923
0.0061139823 -0.00018142856 -0.01086
-0.029850621 0.00090714288 -0.00033076911
0.034885664 0.00127 -0.0014199999
-0.036324248 0.00054428569 -0.013038461
-0.020859469 -0.00127 -0.01194923
0.026613805 0.00127 -0.012312307
0.0061139823 -0.00018142856 -0.016669231
0.032008495 0.00018142856 -0.0079553844
0.017622655 0.00127 -0.0010569229
0.0017982301 -0.00054428569 -0.00033076911
0.032008495 -0.00018142856 -0.0097707687
-0.034166373 -0.00018142856 -0.014490768
-0.020859469 0.00018142856 -0.00033076911
-0.039201416 -0.00054428569 -0.013401538
-0.011508672 -0.00018142856 -0.015216922
0.0043157525 -0.00090714288 -0.00033076911
0.0086315051 0.00054428569 -0.012312307
0.030569913 -0.00018142856 -0.011223077
-0.0017982301 -0.00127 -0.013401538
0.015824426 -0.00127 -0.00033076911
-0.015105133 -0.00018142856 -0.00033076911
0.0014385841 -0.00054428569 -0.012312307
-0.030210266 0.00018142856 -0.00033076911
0.0014385841 -0.00127 -0.011586153
-0.018701594 0.00018142856 -0.013401538
-0.032008495 0.00018142856 -0.0075923074
0.015105133 -0.00054428569 -0.013401538
-0.011149026 0.00018142856 -0.0072292304
0.023017345 0.00018142856 -0.013401538
0.019780532 0.00090714288 -0.011586153
0.017622655 -0.00127 -0.00069384603
0.021219116 -0.00127 -0.012675384
0.039561063 -0.00018142856 -0.0057769227
0.0075525665 0.00018142856 -0.00033076911
0.039561063 -0.00090714288 -0.0021461537
-0.023017345 0.00018142856 -0.0021461537
-0.010429734 0.00054428569 -0.013401538
-0.016184071 -0.00127 -0.0014199999
-0.031648852 -0.00018142856 -0.004687692
0.025534868 0.00127 -0.0021461537
-0.012947257 -0.00054428569 -0.0021461537
0.034166373 0.00018142856 -0.0050507691
0.0086315051 0.00018142856 -0.014853845
0.0050350442 0.00018142856 -0.01194923
-0.026613805 -0.00018142856 -0.0086815385
0.036683895 0.00018142856 -0.0068661533
-0.014026195 0.00018142856 -0.017758461
0.031648852 -0.00018142856 -0.0065030768
0.017622655 -0.00018142856 -0.013401538
0.020140177 0.00127 -0.00033076911
0.037043542 -0.00018142856 0.0018476923
-0.032008495 0.00018142856 -0.0094076917
-0.029850621 -0.00018142856 -0.013401538
0.012947257 0.00127 -0.0010569229
0.011508672 -0.00127 -0.0017830768
0.033447079 -0.00018142856 -0.00033076911
0.029131329 -0.00018142856 0.0018476923
-0.037043542 0.00018142856 -0.0068661533
-0.0061139823 -0.00054428569 -0.011223077
-0.026613805 -0.00018142856 -0.010133846
-0.0032368142 -0.00127 -0.00069384603
-0.0089911511 -0.00127 -0.011586153
0.021219116 0.00018142856 -0.011223077
0.031648852 -0.00018142856 -0.014490768
-0.029490974 -0.00054428569 -0.0021461537
0.011508672 -0.00018142856 0.0029369232
0.0093507972 0.00018142856 -0.011223077
0.020140177 -0.00127 -0.012675384
0.031648852 -0.00018142856 -0.0090446146
-0.024096284 -0.00018142856 -0.0050507691
0.019061239 -0.00018142856 -0.004687692
-0.0061139823 -0.00018142856 -0.0075923074
-0.011149026 0.00018142856 0.0022107693
0.0075525665 0.00054428569 -0.011223077
0.0039561065 -0.00127 -0.012675384
0.037762832 -0.00090714288 -0.00033076911
0.020499824 0.00127 -0.0014199999
0.0035964602 0.00018142856 -0.0072292304
0.0039561065 0.00127 -0.0021461537
0.024815576 -0.00127 -0.0017830768
0.029131329 -0.00018142856 -0.016306153
0.03992071 0.00127 -0.00033076911
-0.038122479 -0.00054428569 -0.013401538
0.029490974 -0.00090714288 -0.00033076911
0.032008495 0.00018142856 -0.0072292304
-0.019061239 -0.00018142856 -0.0050507691
-0.0032368142 0.00090714288 -0.00033076911
0.0021578763 0.00127 -0.013038461
-0.0039561065 -0.00018142856 -0.0090446146
0.019061239 -0.00127 -0.012312307
-0.037403189 -0.00054428569 -0.011586153
0.034166373 0.00018142856 -0.0090446146
-0.014385841 -0.00127 -0.00069384603
0.0086315051 -0.00018142856 -0.015579999
-0.031648852 -0.00018142856 0.0011215386
-0.019061239 0.00018142856 -0.004687692
0.010429734 -0.00090714288 -0.0021461537
0.0028771681 0.00054428569 -0.00033076911
-0.0075525665 0.00090714288 -0.0021461537
-0.007912213 -0.00127 -0.00033076911
-0.019061239 0.00018142856 -0.0061399997
0.019780532 0.00054428569 -0.011223077
-0.031648852 0.00018142856 -0.0057769227
0.008271859 0.00054428569 -0.01194923
0.0057543362 0.00054428569 -0.00033076911
-0.0043157525 0.00127 -0.013038461
0.035604957 -0.00054428569 -0.013401538
-0.017982302 0.00127 -0.0021461537
0.036683895 -0.00018142856 -0.015579999
0.015824426 0.00090714288 -0.00033076911
-0.0089911511 -0.00018142856 0.0029369232
-0.013666549 0.00127 -0.0010569229
-0.02625416 -0.00054428569 -0.013401538
0.026973452 0.00090714288 -0.0021461537
-0.023376992 -0.00127 -0.00033076911
-0.022298053 0.00054428569 -0.0021461537
0.021219116 -0.00018142856 -0.00033076911
-0.011868319 -0.00054428569 -0.011223077
-0.031648852 -0.00018142856 -0.0061399997
-0.015824426 -0.00127 -0.0021461537
0.03992071 -0.00090714288 -0.01194923
0.039201416 -0.00018142856 -0.013764615
0.0089911511 -0.00018142856 -0.014853845
0.03452602 0.00127 -0.011586153
0.011508672 -0.00127 -0.013038461
0.014745487 -0.00090714288 -0.0021461537
-0.023736637 0.00018142856 -0.011223077
0.019061239 0.00127 -0.01194923
0.0093507972 0.00090714288 -0.013401538
0.011149026 0.00018142856 -0.013764615
-0.031648852 -0.00018142856 -0.014853845
0.027333098 0.00127 -0.0021461537
0.0064736283 0.00018142856 -0.014853845
0.021578761 -0.00054428569 -0.0021461537
-0.027692745 -0.00054428569 -0.00033076911
0.0226577 -0.00054428569 -0.013401538
0.00035964602 -0.00127 -0.013401538
0.032008495 0.00018142856 -0.017395385
0.029131329 0.00018142856 -0.014490768
-0.03452602 0.00018142856 -0.018847691
0.00035964602 0.00090714288 -0.013038461
0.015105133 -0.00054428569 -0.01194923
-0.0014385841 0.00018142856 -0.0097707687
-0.0046753986 -0.00127 -0.012312307
0.026613805 0.00018142856 -0.015579999
0.0089911511 0.00090714288 -0.012675384
-0.028771682 0.00127 -0.011586153
-0.007912213 -0.00090714288 -0.00033076911
0.0086315051 0.00018142856 -0.0035984614
0.023376992 0.00018142856 -0.011223077
0.026973452 -0.00090714288 -0.011586153
-0.0061139823 0.00018142856 0.0018476923
-0.0035964602 0.00018142856 -0.017758461
-0.024096284 -0.00018142856 0.0003953847
0.021578761 0.00018142856 -0.0032353844
0.02625416 -0.00018142856 -0.0021461537
-0.00035964602 0.00054428569 -0.0021461537
-0.0035964602 0.00054428569 -0.013401538
-0.024096284 -0.00127 -0.013401538
0.03452602 -0.00054428569 -0.011586153
0.00035964602 0.00127 -0.013401538
0.0035964602 0.00018142856 -0.0068661533
-0.033447079 0.00090714288 -0.0010569229
-0.03452602 -0.00018142856 -0.0065030768
-0.0089911511 0.00018142856 -0.018121537
-0.00035964602 0.00090714288 -0.00033076911
-0.02625416 0.00018142856 -0.011586153
-0.0010789381 0.00018142856 -0.01086
-0.018341947 -0.00018142856 -0.0021461537
-0.007912213 0.00018142856 -0.013401538
0.029131329 0.00018142856 -0.018484615
-0.016184071 0.00018142856 -0.011586153
0.03452602 -0.00127 -0.00033076911
0.0053946902 0.00127 -0.00033076911
0.0086315051 0.00127 -0.0017830768
0.032008495 0.00090714288 -0.0021461537
-0.03452602 -0.00018142856 -0.0086815385
-0.011508672 0.00018142856 -0.011586153
-0.019061239 0.00054428569 -0.01194923
0.0064736283 0.00054428569 -0.012312307
0.0046753986 0.00090714288 -0.0021461537
0.0097104432 -0.00127 -0.00033076911
0.0089911511 0.00018142856 0.0022107693
-0.019420886 -0.00018142856 -0.0021461537
-0.016543718 0.00018142856 -0.0079553844
-0.01726301 0.00054428569 -0.00033076911
-0.016543718 -0.00018142856 -0.0083184615
0.029131329 0.00018142856 -0.0028723076
0.020140177 -0.00127 -0.012312307
-0.034885664 0.00090714288 -0.0021461537
0.029850621 -0.00127 -0.012312307
-0.021578761 0.00018142856 0.0011215386
-0.014026195 -0.00127 -0.0014199999
-0.0093507972 -0.00127 -0.0010569229
-0.012587611 -0.00090714288 -0.012312307
0.020859469 0.00127 -0.00069384603
-0.035245311 -0.00127 -0.011586153
-0.039561063 0.00018142856 -0.014490768
-0.013306903 0.00127 -0.0021461537
0.025175221 -0.00127 -0.0017830768
-0.026973452 0.00127 -0.00069384603
0.0043157525 -0.00090714288 -0.0021461537
0.0025175221 0.00127 -0.0021461537
0.037403189 -0.00090714288 -0.011586153
-0.014026195 0.00127 -0.00069384603
-0.011868319 -0.00127 -0.0021461537
-0.020859469 0.00090714288 -0.00033076911
-0.0035964602 -0.00018142856 -0.0068661533
0.032008495 -0.00127 -0.0010569229
-0.0086315051 -0.00018142856 -0.0035984614
-0.0086315051 -0.00018142856 -0.0032353844
-0.026613805 0.00018142856 -0.0072292304
0.023376992 -0.00127 -0.0010569229
-0.0071929204 -0.00127 -0.013401538
0.035964604 0.00090714288 -0.0021461537
-0.0032368142 -0.00054428569 -0.012312307
0.019780532 -0.00018142856 -0.011223077
-0.014385841 0.00127 -0.012312307
-0.037403189 -0.00054428569 -0.0021461537
0.014026195 -0.00018142856 -0.015943076
-0.0064736283 -0.00054428569 -0.012312307
0.013666549 -0.00090714288 -0.0021461537
-0.021578761 -0.00054428569 -0.011223077
-0.0064736283 0.00090714288 -0.012675384
-0.015824426 -0.00054428569 -0.01194923
0.019780532 0.00090714288 -0.012312307
0.036683895 0.00018142856 -0.016306153
0.033447079 -0.00018142856 -0.013401538
0.0089911511 -0.00018142856 -0.0057769227
0.022298053 0.00127 -0.00069384603
0.0035964602 -0.00127 -0.0021461537
-0.012227965 0.00018142856 -0.01194923
-0.031648852 -0.00018142856 -0.015216922
0.0032368142 0.00090714288 -0.00033076911
-0.038482126 -0.00090714288 -0.013401538
0.011149026 0.00090714288 -0.013401538
0.020140177 0.00054428569 -0.011223077
-0.0089911511 0.00018142856 -0.0032353844
0.0089911511 0.00054428569 -0.00033076911
0.011508672 -0.00018142856 -0.015216922
0.012227965 0.00127 -0.013401538
-0.014745487 0.00127 -0.0021461537
-0.03452602 0.00018142856 -0.017395385
-0.020140177 -0.00127 -0.0014199999
-0.036683895 -0.00018142856 3.2307802e-05
-0.0071929204 -0.00127 -0.013038461
-0.013666549 0.00127 -0.00033076911
0.039561063 0.00018142856 -0.0083184615
0.016903363 0.00018142856 -0.011223077
-0.011149026 0.00018142856 -0.0035984614
0.016543718 -0.00018142856 -0.0079553844
-0.014026195 0.00018142856 -0.017395385
-0.0061139823 0.00018142856 -0.004324615
0.012587611 0.00127 -0.011223077
-0.011868319 -0.00127 -0.011223077
-0.025175221 -0.00090714288 -0.0021461537
0.016543718 0.00054428569 -0.013401538
0.0061139823 -0.00127 -0.012675384
0.026613805 0.00054428569 -0.00033076911
0.0032368142 0.00127 -0.013038461
-0.0089911511 0.00018142856 -0.014127691
0.030929558 0.00054428569 -0.011586153
0.037043542 0.00127 -0.0014199999
0.010070088 0.00054428569 -0.011586153
-0.036683895 0.00018142856 -0.0061399997
0.037043542 -0.00018142856 -0.0061399997
0.019420886 0.00054428569 -0.011223077
-0.0010789381 -0.00018142856 -0.004324615
-0.011508672 0.00018142856 -0.01194923
0.014385841 0.00127 -0.012675384
0.0017982301 0.00054428569 -0.012675384
-0.008271859 0.00090714288 -0.00033076911
-0.0089911511 -0.00090714288 -0.0021461537
0.01078938 -0.00018142856 -0.0021461537
-0.0025175221 -0.00127 -0.0025092305
-0.024815576 -0.00127 -0.00033076911
0.035604957 -0.00127 -0.0021461537
-0.0057543362 -0.00018142856 -0.011223077
0.0061139823 0.00018142856 -0.01194923
-0.015824426 0.00018142856 -0.011223077
0.033806726 -0.00090714288 -0.013038461
-0.040280353 0.00018142856 -0.00069384603
-0.039201416 -0.00054428569 -0.0021461537
-0.0025175221 -0.00127 -0.0017830768
0.0050350442 -0.00127 -0.0025092305
-0.023736637 0.00090714288 -0.01194923
-0.032008495 0.00018142856 -0.0061399997
0.021938408 -0.00054428569 -0.00033076911
0.034885664 0.00127 -0.011586153
-0.015824426 0.00127 -0.013038461
0.011149026 0.00018142856 0.0025738461
0.038482126 0.00127 -0.0014199999
-0.033447079 0.00054428569 -0.0021461537
-0.0068332744 -0.00127 -0.00069384603
-0.034166373 0.00054428569 -0.0021461537
-0.007912213 -0.00018142856 -0.0021461537
0.026973452 0.00127 -0.01194923
-0.013306903 0.00127 -0.013038461
-0.031648852 -0.00018142856 0.0022107693
-0.015105133 -0.00090714288 -0.011586153
0.037043542 -0.00018142856 -0.018484615
0.01078938 0.00054428569 -0.0021461537
0.033447079 0.00018142856 -0.011586153
-0.0035964602 -0.00018142856 -0.0032353844
-0.0050350442 0.00018142856 -0.011586153
-0.0071929204 -0.00127 -0.012312307
-0.017982302 0.00127 -0.0017830768
0.012227965 -0.00054428569 -0.011223077
0.021219116 0.00090714288 -0.013401538
0.021938408 0.00127 -0.00069384603
-0.033447079 0.00090714288 -0.0021461537
-0.0043157525 -0.00054428569 -0.00033076911
-0.039561063 -0.00018142856 -0.015943076
0.0028771681 -0.00127 -0.012312307
0.027692745 -0.00018142856 -0.00033076911
-0.007912213 -0.00127 -0.0014199999
-0.023017345 0.00127 -0.0017830768
0.011508672 -0.00018142856 -0.014853845
-0.0014385841 0.00018142856 -0.018484615
0.0057543362 0.00018142856 -0.013401538
0.024815576 0.00054428569 -0.0021461537
-0.017982302 0.00018142856 -0.011223077
0.027333098 -0.00127 -0.0021461537
0.024815576 -0.00127 -0.00069384603
-0.034885664 -0.00090714288 -0.013401538
0.039561063 0.00127 -0.0010569229
-0.023017345 -0.00018142856 -0.00033076911
0.013666549 -0.00054428569 -0.00033076911
0.016543718 -0.00090714288 -0.011586153
0.012947257 0.00054428569 -0.00033076911
-0.021578761 0.00127 -0.01194923
-0.0064736283 0.00018142856 -0.016669231
0.038122479 -0.00090714288 -0.012312307
0.038122479 -0.00090714288 -0.013401538
0.020859469 0.00054428569 -0.013401538
-0.037043542 -0.00018142856 -0.0032353844
-0.033806726 0.00018142856 -0.013038461
0.0089911511 0.00054428569 -0.01194923
0.034166373 0.00018142856 -0.0083184615
-0.025175221 -0.00018142856 -0.00033076911
-0.034166373 -0.00018142856 0.0011215386
-0.037403189 0.00018142856 -0.012312307
-0.026613805 -0.00054428569 -0.00033076911
0.013666549 -0.00018142856 -0.00033076911
0.0053946902 -0.00054428569 -0.011223077
0.030210266 -0.00127 -0.0017830768
0.025175221 0.00054428569 -0.00033076911
0.036683895 -0.00127 -0.01194923
0.020859469 -0.00090714288 -0.013401538
0.01726301 0.00127 -0.00069384603
-0.019061239 0.00054428569 -0.013401538
0.035964604 0.00127 -0.0021461537
0.013306903 0.00127 -0.011586153
-0.039561063 0.00018142856 -0.0079553844
-0.0093507972 0.00054428569 -0.0021461537
0.0061139823 0.00018142856 0.0007584616
0.0089911511 -0.00018142856 0.0029369232
-0.016184071 -0.00090714288 -0.013401538
-0.0043157525 -0.00127 -0.012675384
-0.019780532 -0.00127 -0.0010569229
0.015824426 -0.00127 -0.012312307
-0.039201416 0.00090714288 -0.0017830768
-0.0025175221 -0.00090714288 -0.013401538
0.025175221 0.00127 -0.012312307
0.039201416 0.00127 -0.0014199999
-0.034166373 0.00018142856 -0.0094076917
0.0021578763 -0.00127 -0.0017830768
0.03452602 0.00054428569 -0.0021461537
-0.011508672 0.00018142856 -0.016669231
0.016543718 0.00018142856 -0.0054138456
0.039561063 0.00018142856 -0.018121537
-0.01726301 -0.00090714288 -0.00033076911
0.0010789381 0.00018142856 -0.013764615
-0.019780532 -0.00054428569 -0.011223077
0.037043542 0.00018142856 -0.015943076
0.013306903 0.00127 -0.0010569229
0.024096284 -0.00018142856 -0.018847691
0.0086315051 0.00018142856 3.2307802e-05
0.0053946902 -0.00054428569 -0.012312307
0.018701594 -0.00018142856 -0.0025092305
0.016184071 0.00127 -0.0021461537
-0.026613805 0.00054428569 -0.00033076911
-0.0035964602 0.00127 -0.0017830768
-0.011149026 0.00018142856 -0.014853845
0.030569913 0.00054428569 -0.011223077
-0.022298053 0.00090714288 -0.01194923
-0.0075525665 0.00127 -0.0025092305
-0.017622655 -0.00018142856 -0.00033076911
-0.021578761 0.00018142856 0.0003953847
0.015105133 0.00090714288 -0.012312307
0.0071929204 -0.00054428569 -0.012312307
0.028771682 -0.00127 -0.00069384603
0.032727789 -0.00090714288 -0.00033076911
0.0097104432 -0.00054428569 -0.011223077
0.010429734 0.00090714288 -0.011223077
-0.019420886 -0.00090714288 -0.0021461537
0.0061139823 -0.00127 -0.00033076911
-0.026613805 -0.00127 -0.012312307
-0.011149026 0.00090714288 -0.012675384
0.0039561065 -0.00018142856 -0.010133846
-0.017622655 0.00054428569 -0.0021461537
-0.019061239 -0.00054428569 -0.013764615
-0.035604957 -0.00127 -0.012312307
-0.0061139823 0.00127 -0.012675384
0.0017982301 -0.00054428569 -0.013401538
0.020499824 -0.00127 -0.0010569229
-0.035604957 0.00127 -0.0021461537
-0.0039561065 -0.00018142856 -0.019210769
0.040280353 -0.00090714288 -0.0014199999
-0.0086315051 -0.00018142856 -0.010133846
-0.016543718 0.00127 -0.0017830768
0.030210266 0.00127 -0.0014199999
0.015464779 -0.00127 -0.00069384603
0.039561063 0.00018142856 -0.0086815385
0.0064736283 0.00018142856 -0.0097707687
-0.014026195 -0.00018142856 -0.0079553844
-0.0010789381 0.00018142856 -0.0094076917
0.030569913 0.00127 -0.0017830768
-0.036683895 0.00018142856 -0.0086815385
-0.02805239 -0.00018142856 -0.013401538
-0.037403189 -0.00127 -0.012675384
0.029131329 -0.00127 -0.00069384603
-0.040280353 0.00054428569 -0.00069384603
-0.016903363 0.00018142856 -0.0021461537
0.00071929203 -0.00090714288 -0.011223077
-0.0039561065 0.00018142856 0.0011215386
0.03992071 -0.00054428569 -0.012675384
-0.036683895 -0.00018142856 -0.0068661533
0.021938408 0.00090714288 -0.013401538
0.021219116 -0.00090714288 -0.011586153
0.0046753986 -0.00090714288 -0.0025092305
-0.0226577 -0.00018142856 -0.00033076911
0.0014385841 0.00018142856 -0.016306153
0.016184071 0.00054428569 -0.00033076911
-0.0035964602 -0.00054428569 -0.0025092305
0.028412037 -0.00127 -0.0021461537
-0.02805239 -0.00054428569 -0.011586153
-0.0068332744 0.00127 -0.01194923
-0.021578761 -0.00018142856 0.0003953847
0.025175221 0.00127 -0.0021461537
0.024455929 -0.00018142856 -0.011223077
-0.039561063 -0.00018142856 3.2307802e-05
-0.013306903 -0.00127 -0.01194923
-0.01726301 0.00090714288 -0.00033076911
0.014745487 -0.00127 -0.0010569229
0.0014385841 0.00018142856 -0.0075923074
-0.015824426 0.00127 -0.01194923
-0.033806726 0.00090714288 -0.0014199999
-0.01078938 -0.00127 -0.012312307
-0.024096284 0.00018142856 -0.018847691
0.0032368142 -0.00127 -0.012675384
0.02625416 0.00090714288 -0.00033076911
-0.0043157525 0.00127 -0.013401538
-0.019780532 -0.00018142856 -0.0021461537
0.035245311 -0.00127 -0.013038461
0.016543718 -0.00127 -0.01194923
-0.014745487 0.00127 -0.00069384603
0.013666549 0.00054428569 -0.011223077
0.014385841 0.00018142856 -0.0021461537
0.027333098 -0.00054428569 -0.0021461537
-0.037043542 0.00090714288 -0.0021461537
0.014026195 -0.00018142856 -0.0075923074
-0.0039561065 0.00018142856 -0.0032353844
0.0039561065 -0.00018142856 -0.016306153
-0.034166373 -0.00090714288 -0.00033076911
-0.010429734 -0.00090714288 -0.0021461537
-0.0089911511 0.00018142856 -0.0079553844
-0.022298053 0.00054428569 -0.00033076911
0.007912213 -0.00127 -0.01194923
0.037043542 -0.00090714288 -0.011586153
0.014745487 0.00127 -0.0017830768
0.011149026 0.00018142856 -0.0028723076
0.0064736283 -0.00018142856 -0.0028723076
0.01078938 0.00090714288 -0.00033076911
-0.013306903 -0.00127 -0.0021461537
0.016184071 -0.00127 -0.013038461
0.0057543362 -0.00127 -0.00033076911
0.021578761 -0.00018142856 -0.014853845
-0.00035964602 0.00127 -0.0014199999
-0.0097104432 0.00127 -0.0010569229
0.011508672 0.00127 -0.011223077
0.035245311 0.00127 -0.0014199999
-0.0093507972 -0.00054428569 -0.01194923
-0.0064736283 -0.00018142856 -0.0072292304
0.022298053 -0.00127 -0.012675384
0.017622655 0.00127 -0.0021461537
-0.032727789 -0.00054428569 -0.013401538
-0.015105133 -0.00054428569 -0.013401538
-0.029850621 -0.00127 -0.0010569229
0.025534868 -0.00090714288 -0.0021461537
-0.04064 0.00018142856 -0.011586153
0.037043542 -0.00018142856 -0.0050507691
0.0021578763 -0.00090714288 -0.011223077
-0.0053946902 -0.00127 -0.0017830768
0.015824426 0.00018142856 -0.00033076911
-0.014026195 0.00018142856 -0.011223077
-0.0071929204 0.00018142856 -0.011586153
0.0039561065 -0.00018142856 -0.0090446146
0.029131329 -0.00018142856 -0.010496923
-0.034166373 0.00018142856 -0.0035984614
-0.0035964602 -0.00127 -0.013401538
-0.0046753986 -0.00054428569 -0.01194923
-0.0039561065 -0.00018142856 -0.004687692
-0.0061139823 0.00090714288 -0.0021461537
-0.03992071 0.00090714288 -0.011586153
-0.015824426 -0.00127 -0.00033076911
-0.039561063 -0.00018142856 0.0025738461
0.012947257 -0.00127 -0.013401538
0.018341947 -0.00127 -0.0017830768
0.018341947 0.00018142856 -0.011223077
0.0010789381 -0.00090714288 -0.013038461
0.018701594 -0.00090714288 -0.0021461537
-0.023376992 0.00018142856 -0.00033076911
-0.029131329 0.00018142856 -0.014490768
-0.0032368142 -0.00090714288 -0.012675384
-0.024455929 -0.00127 -0.0017830768
0.039561063 0.00018142856 -0.004687692
-0.0089911511 -0.00127 -0.0010569229
0.033447079 -0.00090714288 -0.0021461537
0.030569913 -0.00127 -0.0017830768
-0.0046753986 -0.00018142856 -0.013401538
0.036683895 -0.00018142856 -0.0050507691
0.037043542 -0.00018142856 0.0007584616
0.012587611 0.00090714288 -0.013401538
-0.027692745 -0.00018142856 -0.00033076911
0.015464779 0.00090714288 -0.00033076911
-0.03452602 0.00018142856 -0.0050507691
-0.03452602 -0.00018142856 -0.014853845
-0.017982302 0.00090714288 -0.0021461537
0.025894513 -0.00127 -0.00069384603
0.0017982301 0.00054428569 -0.011586153
0.02805239 -0.00127 -0.00033076911
-0.017982302 -0.00090714288 -0.00033076911
-0.0064736283 0.00127 -0.00033076911
0.012227965 -0.00018142856 -0.013401538
0.018341947 -0.00018142856 -0.013401538
-0.0021578763 0.00090714288 -0.012675384
0.027333098 -0.00054428569 -0.013401538
-0.013306903 0.00127 -0.0010569229
-0.0061139823 0.00018142856 0.0003953847
0.0057543362 0.00090714288 -0.013401538
0.04064 0.00054428569 -0.00069384603
-0.026613805 -0.00018142856 -0.0032353844
-0.0089911511 -0.00018142856 -0.0094076917
0.032727789 0.00054428569 -0.0021461537
0.013306903 -0.00090714288 -0.011586153
-0.030929558 0.00127 -0.0010569229
-0.031289205 -0.00127 -0.00033076911
0.00071929203 -0.00090714288 -0.013401538
0.0010789381 0.00018142856 -0.018847691
0.030210266 -0.00018142856 -0.0021461537
0.008271859 0.00054428569 -0.00033076911
0.00035964602 0.00054428569 -0.011586153
-0.016543718 -0.00018142856 -0.015943076
0.0061139823 0.00018142856 0.0003953847
0.025894513 0.00127 -0.011223077
0.012227965 0.00018142856 -0.013401538
0.020859469 0.00090714288 -0.0021461537
-0.039201416 0.00018142856 -0.0068661533
-0.0035964602 -0.00018142856 -0.0079553844
0.030210266 -0.00054428569 -0.00033076911
-0.0035964602 0.00018142856 -0.0054138456
0.019061239 -0.00018142856 -0.013764615
0.017622655 -0.00018142856 -0.00033076911
-0.03452602 -0.00127 -0.012675384
-0.013306903 -0.00127 -0.013401538
0.0061139823 0.00018142856 -0.013764615
-0.030569913 0.00090714288 -0.00033076911
0.023017345 0.00127 -0.00069384603
-0.019061239 -0.00018142856 0.0025738461
0.0010789381 0.00127 -0.0014199999
0.011149026 0.00090714288 -0.011223077
0.017982302 -0.00018142856 -0.011586153
0.0010789381 -0.00127 -0.013038461
0.038841773 0.00127 -0.0021461537
0.0017982301 0.00090714288 -0.00033076911
-0.012947257 0.00090714288 -0.00033076911
0.0089911511 -0.00018142856 -0.017395385
0.011149026 -0.00018142856 -0.017032307
-0.015824426 -0.00127 -0.012312307
0.018701594 -0.00054428569 -0.011586153
0.012587611 0.00054428569 -0.011223077
-0.022298053 -0.00127 -0.0014199999
0.019780532 -0.00127 -0.012675384
0.012587611 -0.00127 -0.00033076911
-0.0064736283 0.00018142856 -0.013764615
0.0021578763 0.00018142856 -0.012312307
0.036683895 -0.00018142856 -0.0039615384
0.020499824 0.00054428569 -0.00033076911
-0.03452602 -0.00018142856 0.0014846155
0.0035964602 -0.00018142856 -0.018121537
0.038122479 -0.00090714288 -0.013038461
-0.019420886 0.00090714288 -0.012312307
0.012947257 -0.00054428569 -0.011586153
-0.026973452 0.00054428569 -0.00033076911
0.0089911511 0.00018142856 -0.0075923074
0.019061239 0.00127 -0.00069384603
-0.011868319 0.00127 -0.0017830768
0 0.00090714288 -0.013038461
0.03452602 0.00018142856 0.0003953847
0.0028771681 -0.00054428569 -0.012675384
-0.034166373 0.00018142856 -0.0083184615
0.029490974 0.00018142856 -0.01086
0.038482126 -0.00127 -0.0010569229
0.014026195 -0.00018142856 -0.019210769
0.034166373 0.00018142856 -0.0065030768
0.036324248 0.00127 -0.01194923
-0.029131329 -0.00018142856 -0.018847691
-0.034885664 0.00018142856 -0.00033076911
0.036683895 0.00127 -0.01194923
-0.0061139823 0.00018142856 -0.0083184615
-0.0086315051 -0.00018142856 -0.0054138456
0.0089911511 -0.00018142856 -0.0097707687
-0.0014385841 0.00018142856 0.0025738461
0.017982302 -0.00127 -0.00069384603
0.0039561065 -0.00090714288 -0.00033076911
-0.0097104432 -0.00127 -0.0017830768
-0.014745487 -0.00018142856 -0.00033076911
-0.026613805 -0.00054428569 -0.0025092305
0.029490974 0.00090714288 -0.00033076911
0.025894513 -0.00018142856 -0.0021461537
0.023376992 -0.00127 -0.0021461537
-0.0086315051 0.00054428569 -0.0021461537
0 -0.00127 -0.011586153
-0.013306903 0.00018142856 -0.0021461537
-0.029131329 -0.00018142856 -0.0025092305
-0.017622655 -0.00127 -0.013038461
0.031648852 -0.00018142856 -0.0032353844
-0.036683895 -0.00018142856 0.0007584616
0.034166373 -0.00018142856 -0.0075923074
0.011868319 -0.00090714288 -0.011586153
0.014026195 0.00018142856 -0.016306153
-0.0071929204 -0.00054428569 -0.00033076911
0.0032368142 0.00018142856 -0.011223077
-0.0028771681 0.00127 -0.0021461537
-0.0068332744 -0.00054428569 -0.01194923
0.037403189 0.00054428569 -0.0021461537
-0.012587611 -0.00127 -0.013038461
-0.0010789381 -0.00018142856 -0.019210769
-0.022298053 0.00054428569 -0.013401538
0.013666549 -0.00054428569 -0.013401538
0.0061139823 -0.00018142856 -0.018847691
-0.026613805 -0.00018142856 -0.015216922
-0.030569913 0.00127 -0.0021461537
-0.026613805 -0.00018142856 0.0014846155
-0.026973452 -0.00090714288 -0.013401538
0.0017982301 -0.00127 -0.00069384603
0.032727789 0.00018142856 -0.0021461537
-0.040280353 0.00018142856 -0.013038461
-0.030569913 -0.00127 -0.0014199999
0.0086315051 0.00018142856 -0.0090446146
-0.038482126 0.00018142856 -0.0021461537
-0.026973452 0.00090714288 -0.00033076911
0.0064736283 0.00018142856 0.0007584616
0.031648852 -0.00018142856 -0.0097707687
0.013306903 -0.00127 -0.0014199999
0.038122479 -0.00127 -0.01194923
-0.040280353 -0.00018142856 -0.013038461
-0.013306903 -0.00054428569 -0.013401538
0.016543718 -0.00054428569 -0.00033076911
-0.037403189 -0.00127 -0.00033076911
0.0050350442 0.00054428569 -0.011586153
0.030569913 0.00127 -0.00069384603
0.031648852 -0.00018142856 -0.004324615
0.0057543362 -0.00127 -0.013038461
0.030210266 0.00018142856 -0.011223077
-0.011149026 0.00018142856 -0.0061399997
-0.014026195 0.00018142856 -0.013764615
0.0039561065 -0.00018142856 -0.004324615
-0.031648852 0.00018142856 -0.017758461
-0.019420886 0.00054428569 -0.00033076911
0.0014385841 -0.00054428569 -0.011223077
0.037403189 0.00018142856 -0.013401538
-0.010070088 -0.00127 -0.0014199999
-0.0021578763 -0.00090714288 -0.013401538
-0.037043542 -0.00018142856 -0.019210769
-0.019420886 0.00127 -0.00069384603
0.011868319 0.00127 -0.00069384603
0.022298053 0.00018142856 -0.013401538
0.023376992 -0.00054428569 -0.00033076911
-0.011508672 0.00018142856 -0.0057769227
-0.03452602 0.00018142856 -0.004687692
-0.020499824 -0.00127 -0.013038461
0.024096284 0.00018142856 0.0011215386
-0.030569913 0.00090714288 -0.013401538
0.026613805 -0.00018142856 -0.017395385
0.029131329 -0.00018142856 0.0003953847
-0.029131329 -0.00018142856 -0.004687692
-0.0035964602 -0.00054428569 -0.011586153
-0.02805239 -0.00127 -0.0021461537
0.020859469 -0.00054428569 -0.00033076911
-0.02625416 -0.00127 -0.00033076911
0.011508672 -0.00018142856 -0.0083184615
-0.0039561065 -0.00018142856 0.0018476923
0.022298053 0.00054428569 -0.00033076911
-0.03452602 0.00090714288 -0.013401538
-0.0035964602 -0.00018142856 -0.0035984614
-0.0089911511 -0.00018142856 -0.014853845
0.039201416 -0.00018142856 0.0007584616
-0.013666549 -0.00018142856 -0.0025092305
0.0021578763 -0.00127 -0.01194923
-0.0064736283 0.00018142856 0.0003953847
-0.016903363 0.00127 -0.0017830768
-0.034166373 -0.00018142856 -0.0035984614
-0.00035964602 0.00127 -0.00033076911
0.029131329 0.00090714288 -0.013401538
0.01726301 -0.00090714288 -0.0021461537
0.032008495 -0.00018142856 -0.010496923
-0.027692745 -0.00018142856 -0.011223077
-0.0086315051 -0.00018142856 -0.0094076917
0.037762832 0.00127 -0.0010569229
0.014026195 -0.00018142856 -0.019573845
-0.0010789381 0.00018142856 -0.0083184615
-0.03452602 -0.00018142856 -0.015943076
0.0064736283 0.00018142856 -0.0025092305
0.034166373 -0.00018142856 0.0025738461
-0.038482126 0.00018142856 -0.00033076911
-0.0014385841 0.00018142856 -0.0028723076
0.029490974 -0.00127 -0.013401538
0.033806726 -0.00127 -0.012312307
-0.017622655 -0.00127 -0.012675384
-0.019061239 0.00127 -0.00033076911
0.010070088 -0.00090714288 -0.0021461537
0.017982302 -0.00054428569 -0.0021461537
-0.011868319 0.00127 -0.00033076911
-0.019061239 0.00018142856 -0.0079553844
-0.039561063 0.00018142856 -0.013038461
0.040280353 0.00090714288 -0.012312307
-0.0097104432 -0.00127 -0.012675384
-0.014026195 -0.00018142856 -0.014853845
-0.0010789381 -0.00018142856 0.0014846155
0.012947257 0.00054428569 -0.0021461537
0.0057543362 -0.00018142856 -0.013401538
0.020859469 0.00018142856 -0.0021461537
-0.039561063 -0.00018142856 -0.0079553844
-0.039561063 0.00018142856 0.0018476923
-0.021578761 -0.00018142856 -0.0094076917
-0.037762832 0.00018142856 -0.00033076911
0.0089911511 0.00018142856 -0.017758461
-0.0032368142 -0.00127 -0.0021461537
-0.012587611 0.00054428569 -0.013401538
0.039561063 0.00018142856 -0.004324615
0.039201416 0.00018142856 -0.0057769227
0.01078938 0.00018142856 -0.011223077
0.0025175221 0.00018142856 -0.013401538
-0.0097104432 0.00090714288 -0.012675384
0.021938408 -0.00018142856 -0.00033076911
-0.014385841 0.00054428569 -0.013401538
-0.033447079 -0.00054428569 -0.00033076911
0.029131329 0.00018142856 -0.0072292304
-0.0014385841 0.00090714288 -0.013401538
-0.030569913 -0.00054428569 -0.0021461537
-0.012227965 0.00018142856 -0.013401538
0.0075525665 -0.00054428569 -0.013401538
0.026613805 -0.00018142856 0.0003953847
-0.03452602 -0.00054428569 -0.013401538
0.025894513 -0.00127 -0.012312307
-0.0061139823 0.00018142856 -0.011586153
0.0035964602 -0.00054428569 -0.01194923
0.036683895 0.00018142856 -0.018847691
-0.029850621 0.00127 -0.011586153
0.008271859 0.00127 -0.0021461537
-0.028412037 0.00054428569 -0.011586153
-0.0043157525 -0.00127 -0.0014199999
0.0032368142 -0.00054428569 -0.0021461537
0.029131329 0.00018142856 -0.0065030768
-0.011508672 0.00018142856 0.0007584616
-0.0014385841 -0.00018142856 -0.004324615
-0.026973452 -0.00127 -0.0010569229
-0.019061239 -0.00018142856 -0.0028723076
-0.031289205 -0.00054428569 -0.013401538
0.023736637 0.00127 -0.012675384
-0.0014385841 -0.00090714288 -0.012675384
-0.021578761 0.00018142856 0.0029369232
-0.031289205 0.00090714288 -0.011586153
-0.030210266 -0.00018142856 -0.013401538
-0.0061139823 -0.00018142856 -0.018847691
0.038482126 -0.00018142856 -0.00033076911
0.03452602 0.00127 -0.013401538
-0.0089911511 -0.00018142856 -0.0068661533
0.014026195 -0.00090714288 -0.011586153
0.0061139823 0.00018142856 -0.0054138456
0.011149026 0.00018142856 -0.0050507691
-0.0039561065 -0.00018142856 -0.016306153
0.0061139823 -0.00018142856 -0.0094076917
0.02625416 -0.00127 -0.012312307
-0.03452602 0.00018142856 -0.0072292304
0.021578761 0.00018142856 -0.0075923074
-0.024096284 0.00018142856 -0.0086815385
0.04064 -0.00018142856 -0.00033076911
-0.007912213 -0.00054428569 -0.0021461537
0.0064736283 0.00018142856 -0.0079553844
-0.0075525665 -0.00018142856 -0.011223077
-0.024455929 -0.00054428569 -0.00033076911
0.019420886 -0.00054428569 -0.011223077
0.027333098 0.00090714288 -0.00033076911
-0.029131329 0.00018142856 -0.004324615
0.0086315051 -0.00018142856 -0.0090446146
-0.010429734 0.00018142856 -0.00033076911
0.010429734 -0.00127 -0.00033076911
-0.020859469 0.00054428569 -0.0021461537
0.018701594 0.00127 -0.00033076911
0.019780532 -0.00127 -0.00033076911
0.035604957 -0.00090714288 -0.013038461
-0.01078938 0.00018142856 -0.00033076911
0.037403189 0.00090714288 -0.011586153
-0.037043542 0.00018142856 -0.0090446146
0.015824426 0.00127 -0.0017830768
0.026613805 0.00018142856 -0.016306153
-0.0014385841 0.00054428569 -0.00033076911
-0.038482126 -0.00127 -0.00033076911
0.018701594 0.00018142856 -0.00033076911
-0.035604957 0.00054428569 -0.0021461537
0.0064736283 0.00018142856 0.0018476923
0.010070088 0.00054428569 -0.013401538
0.023736637 -0.00127 -0.0014199999
-0.019061239 0.00090714288 -0.012312307
-0.0043157525 -0.00127 -0.0017830768
0.010070088 -0.00127 -0.01194923
0.0061139823 -0.00018142856 -0.017395385
0.026973452 -0.00018142856 -0.010133846
0.011508672 0.00127 -0.013038461
-0.0097104432 0.00127 -0.0014199999
0.04064 0.00018142856 -0.012312307
0.016903363 0.00090714288 -0.013401538
-0.012227965 0.00054428569 -0.00033076911
-0.037043542 -0.00018142856 -0.0083184615
-0.019061239 -0.00018142856 -0.013764615
-0.018341947 -0.00090714288 -0.011223077
-0.029850621 -0.00054428569 -0.011586153
0.023736637 0.00090714288 -0.00033076911
0.038482126 -0.00054428569 -0.0021461537
-0.02625416 -0.00018142856 -0.00033076911
-0.039561063 0.00018142856 -0.0097707687
0.0046753986 -0.00054428569 -0.011586153
-0.021219116 -0.00127 -0.0014199999
-0.023736637 -0.00018142856 3.2307802e-05
-0.028412037 -0.00054428569 -0.00033076911
-0.030210266 -0.00090714288 -0.00033076911
0.014026195 -0.00127 -0.0017830768
-0.021578761 0.00018142856 -0.0079553844
0.013666549 -0.00127 -0.00069384603
0.0086315051 0.00090714288 -0.011223077
0.0050350442 0.00127 -0.013038461
0.032008495 -0.00090714288 -0.0021461537
-0.011149026 -0.00018142856 -0.018847691
-0.025534868 -0.00127 -0.011586153
-0.039561063 0.00018142856 -0.012312307
0.030929558 -0.00054428569 -0.011586153
-0.036683895 0.00018142856 -0.0097707687
-0.018341947 0.00127 -0.00069384603
0.019061239 -0.00018142856 0.0014846155
0.011149026 -0.00018142856 -0.0097707687
0.011508672 -0.00018142856 -0.0032353844
0.029131329 0.00018142856 -0.017032307
0.012587611 0.00054428569 -0.01194923
-0.0057543362 -0.00090714288 -0.013401538
-0.02805239 0.00054428569 -0.0021461537
0.0089911511 -0.00018142856 -0.0025092305
0.02805239 -0.00127 -0.012675384
0.021578761 -0.00018142856 -0.0065030768
0.012587611 0.00127 -0.012675384
-0.0226577 0.00090714288 -0.0021461537
-0.027333098 0.00090714288 -0.00033076911
-0.034166373 -0.00127 -0.0021461537
-0.0050350442 0.00090714288 -0.012675384
0.010429734 0.00090714288 -0.00033076911
-0.011508672 0.00018142856 -0.018847691
0.0061139823 0.00018142856 -0.0061399997
-0.024455929 -0.00054428569 -0.013401538
0.015824426 0.00127 -0.011586153
0.011868319 -0.00054428569 -0.0021461537
