# .PCD v0.7 - Point Cloud Data file format
VERSION 0.7
FIELDS x y z
SIZE 4 4 4
TYPE F F F
COUNT 1 1 1
WIDTH 1370
HEIGHT 1
VIEWPOINT 0 0 0 1 0 0 0
POINTS 1370
DATA ascii
-0.0014976416 -0.00127 -0.00033076911
0.0017971698 -0.00127 -0.013038461
0.016174529 0.00127 -0.00033076911
0.0002995283 0 0.00027435907
-0.012580189 -0.0003175 -0.002751282
-0.0053915093 -0.000635 -0.0024487178
-0.026358491 0.0003175 -0.011223077
-0.02815566 0 -0.0069871792
-0.031450473 0.0003175 -0.00063333323
-0.022165094 -0.00127 -2.8205015e-05
-0.015275943 -0.00127 -0.00063333323
-0.010183962 -0.0003175 -0.016366666
0.0074882074 -0.0003175 -0.016971795
-0.0005990566 0.0003175 -0.0021461537
0.017971698 -0.0003175 -0.0072897431
-0.02276415 0.0003175 -0.0072897431
-0.0092853773 -0.00095249998 -0.012130769
-0.0056910375 -0.000635 -0.0021461537
0.005091981 -0.0003175 -0.011828205
0.026058963 -0.000635 -0.00033076911
0.0026957546 -0.0003175 -0.009710256
-0.025459906 -0.0003175 -0.017576922
0.0029952831 -0.00127 -2.8205015e-05
0.0041933963 0.00127 -0.012130769
-0.025459906 0.0003175 -0.019392308
0.0062900945 -0.00127 -0.012130769
-0.01767217 -0.0003175 -0.016064102
0.023063678 0 -0.00335641
-0.030551886 0 -0.0039615384
-0.030551886 -0.0003175 -0.017879486
0 0.0003175 0.0026948717
-0.016773585 -0.00127 -0.013643589
-0.0017971698 0 -0.011223077
0.0095849056 -0.00127 -0.0018435896
-0.011981132 -0.00127 -0.00063333323
0 0.00127 -0.0012384614
-0.025160378 -0.00127 -0.013341025
0.01767217 0.00095249998 -0.011828205
0.010183962 0.0003175 -0.016064102
0.0002995283 0.00127 -0.012433332
0.025160378 0.00127 -0.011828205
0.026358491 -0.0003175 -0.00033076911
0.0014976416 -0.00127 -0.00033076911
0.030551886 0 -0.016366666
0.020966981 -0.00127 -0.011828205
-0.012580189 0 -0.018484615
0.0074882074 0.0003175 -0.0069871792
0.0077877357 -0.00095249998 -2.8205015e-05
0.02815566 -0.00127 -0.013038461
-0.01407783 -0.00127 -0.0018435896
-0.0020966982 0.000635 -0.013341025
-0.012580189 -0.0003175 -0.015458974
0.020068396 -0.000635 -0.011828205
-0.030851414 -0.000635 -0.0024487178
0.0080872644 -0.0003175 -0.01152564
0.0077877357 0 -0.01001282
-0.013179245 -0.00127 -0.013341025
-0.015275943 -0.0003175 -0.01001282
-0.017073113 -0.0003175 -0.0021461537
-0.0089858491 0.00127 -0.0015410255
0.031450473 -0.00095249998 -0.0021461537
0.0089858491 0.000635 -0.00033076911
0.025459906 0 -0.0039615384
-0.0008985849 0.000635 -0.013341025
-0.013478774 0.00127 -0.0012384614
0.025160378 0 0.00087948726
-0.0011981132 0.0003175 -0.013341025
-0.022165094 0.00127 -0.012433332
0.0053915093 -0.0003175 -2.8205015e-05
0.0023962264 0.0003175 -0.0024487178
-0.0023962264 0 -0.006079487
0.020367924 0 0.0029974359
0.0011981132 -0.0003175 -0.011223077
0.02276415 -0.00095249998 -0.013341025
-0.01407783 0.00127 -0.0012384614
-0.017971698 0 -0.01001282
-0.01767217 0 0.00057692319
-0.019768868 -0.00127 -0.00093589729
0.0026957546 -0.00127 -0.0018435896
-0.020367924 -0.00127 -0.00093589729
0.0023962264 0.0003175 -0.013946153
0.0074882074 -0.0003175 -0.0039615384
0.012879717 0 -0.016064102
0.0035943396 -0.00095249998 -0.013341025
-0.015275943 -0.0003175 -0.016669231
-0.015275943 0.0003175 -0.014853845
-0.020667452 0.00127 -0.00033076911
-0.010183962 0.0003175 -0.01001282
0.0026957546 0 -0.019089743
0.0047924528 0 -0.010920512
-0.0026957546 -0.000635 -0.013643589
-0.021865565 0.00127 -0.0018435896
-0.02276415 0.00127 -0.012130769
-0.0005990566 -0.0003175 -0.0021461537
0.0074882074 0.00095249998 -0.0021461537
-0.030551886 0 -0.01515641
0.026058963 -0.00127 -2.8205015e-05
0.0002995283 -0.0003175 -0.014248718
-0.031450473 0.00095249998 -0.0015410255
0.020068396 -0.0003175 -2.8205015e-05
-0.005091981 0.0003175 -0.013643589
0.030551886 0.00127 -0.0015410255
-0.0017971698 0.00127 -0.00093589729
0.031750001 0.0003175 -0.00033076911
0.01048349 0.000635 -0.0024487178
0.005091981 0.00127 -0.00063333323
-0.021566037 0.000635 -0.01152564
0.005091981 0.0003175 0.00087948726
-0.0047924528 0 0.00057692319
0.026957547 0.000635 -0.00033076911
0.01048349 0 -0.0024487178
0.0002995283 -0.0003175 -0.0063820509
0.011681603 0.0003175 -0.011223077
-0.005091981 0.0003175 -0.012130769
0.0047924528 -0.000635 -0.013341025
-0.015575471 0.00127 -0.00093589729
-0.0020966982 -0.000635 -0.013643589
0.014676887 0.00127 -0.0015410255
0.017372642 0.00127 -0.013038461
0.010783019 -0.00127 -0.0018435896
0.028754717 0 -0.00033076911
-0.025160378 0 -0.0075923074
-0.026058963 -0.00095249998 -0.0021461537
-0.031750001 0 -0.0018435896
0.0092853773 -0.000635 -0.011828205
0.005091981 0.00127 -2.8205015e-05
0.0074882074 -0.00095249998 -0.012130769
0.017971698 0 -0.013643589
0.0044929245 0.00127 -0.0021461537
-0.020966981 -0.00127 -0.013341025
-0.031450473 0.000635 -0.0012384614
0.0047924528 0 0.00057692319
-0.0083867926 -0.000635 -0.0021461537
0.020367924 -0.0003175 0.0026948717
0.027856132 -0.0003175 -0.0063820509
-0.014976415 0 -0.0091051282
-0.015575471 0.00095249998 -0.011828205
-0.0068891509 -0.00127 -0.013038461
-0.012280661 0.0003175 -0.01152564
-0.0074882074 -0.0003175 -0.016366666
-0.023662735 0.00127 -0.013341025
-0.01048349 0.00095249998 -0.012130769
-0.015275943 0.0003175 -0.0039615384
0.0074882074 0.0003175 -0.010617948
-0.02995283 0.0003175 -0.012433332
0.029353773 0.00095249998 -0.011828205
0.017372642 -0.00095249998 -2.8205015e-05
-0.027856132 0.0003175 0.00057692319
-0.025459906 -0.00127 -0.0015410255
-0.0068891509 0.00127 -0.012735897
-0.0002995283 0.00127 -0.0018435896
0.01767217 0.0003175 -0.0072897431
-0.015275943 -0.0003175 -0.014853845
0.005091981 0 -0.015761537
-0.020966981 -0.00095249998 -0.01152564
-0.030252358 -0.000635 -0.01152564
-0.029353773 0.0003175 -0.011223077
0.019768868 0.00127 -0.00033076911
-0.018570755 0.00095249998 -0.0021461537
-0.005091981 0 -0.002751282
0.0053915093 0.00127 -0.00093589729
0.01048349 -0.00127 -0.012433332
-0.024261793 0.0003175 -0.011223077
-0.020966981 -0.00127 -0.00063333323
0.018271226 0.00127 -2.8205015e-05
-0.016474057 -0.00127 -0.0012384614
-0.02276415 -0.0003175 -0.018787179
0.0068891509 0.00127 -0.012433332
-0.015875001 0.0003175 -0.01152564
0.019169811 0.00127 -0.0015410255
-0.028455188 0.00095249998 -0.0021461537
0.014377358 -0.00127 -0.012433332
0.017372642 0.0003175 -0.0024487178
0.029653301 0.00127 -0.012433332
0.027856132 0.0003175 -0.014551281
0.027856132 0.0003175 0.0017871795
0.0029952831 0.00127 -0.013038461
-0.0029952831 -0.00127 -0.0021461537
0.026658019 0.00127 -0.0015410255
0.021266509 -0.00127 -0.012433332
0.0056910375 -0.00127 -0.012433332
0.022464622 -0.00127 -0.01152564
0.030252358 0.00127 -0.0012384614
0.0080872644 0.0003175 -0.0021461537
-0.025759434 0 -0.014853845
-0.025759434 0 0.0023923076
-0.012580189 -0.000635 -0.013643589
-0.014976415 0 0.00057692319
-0.012580189 0 -0.014248718
0.0038938678 -0.0003175 -0.011223077
0.0062900945 0 -0.0021461537
-0.011082547 0.0003175 -0.011828205
-0.0077877357 -0.000635 -0.00033076911
-0.0074882074 -0.0003175 -0.015761537
-0.016474057 -0.00095249998 -0.011828205
0.017971698 -0.0003175 -0.016971795
-0.021266509 0.00095249998 -0.0021461537
-0.021566037 -0.00127 -0.0021461537
-0.020667452 0.000635 -0.013341025
-0.030551886 0.00127 -0.0012384614
0.0026957546 -0.0003175 -0.0030538458
0.016773585 -0.00127 -0.013341025
0.0002995283 0 -0.0088025639
-0.020068396 0.00127 -0.00063333323
0.013179245 -0.000635 -0.00033076911
-0.01767217 -0.00127 -0.0018435896
-0.01767217 -0.0003175 -0.0084999995
-0.028754717 0.00095249998 -0.01152564
-0.0086863209 0.00127 -2.8205015e-05
0.0038938678 -0.000635 -0.01152564
0.010183962 0.0003175 -0.016971795
0.010183962 -0.0003175 -0.0045666662
-0.012879717 -0.0003175 -0.015458974
0.0038938678 -0.00127 -0.012433332
-0.023662735 -0.00127 -0.0021461537
-0.020068396 -0.00127 -0.0018435896
-0.02276415 -0.000635 -0.0024487178
-0.012879717 -0.00095249998 -2.8205015e-05
0.020966981 0.000635 -0.01152564
0.0002995283 -0.0003175 -0.0072897431
-0.0092853773 0.00127 -0.01152564
-0.0077877357 -0.0003175 -2.8205015e-05
-0.024561321 -0.00127 -0.0021461537
-0.025759434 0.00095249998 -0.0021461537
0.025759434 0.00127 -0.0015410255
-0.028754717 0.00127 -0.0012384614
-0.012879717 -0.0003175 -0.009710256
-0.019469339 0.00127 -0.012735897
0.011681603 0.000635 -0.00033076911
0.027856132 -0.0003175 -0.016064102
0.0023962264 0.0003175 -0.017879486
-0.031750001 0 -0.0012384614
0.027257076 0.00095249998 -0.013341025
0.027856132 0.000635 -0.01152564
-0.025759434 -0.00127 -0.012735897
-0.030252358 -0.0003175 -0.013643589
-0.025459906 -0.0003175 -0.010920512
-0.0074882074 -0.000635 -0.0024487178
0.016773585 0.0003175 -0.01152564
-0.0077877357 0 -0.0091051282
0.020966981 0.00127 -0.0018435896
0.016773585 -0.00127 -0.012735897
-0.015275943 -0.0003175 -0.018787179
-0.016174529 -0.00127 -0.0018435896
0.010783019 -0.000635 -0.00033076911
-0.0077877357 -0.0003175 -0.0057769227
-0.020068396 0 -0.014551281
-0.023363207 0.00095249998 -0.0021461537
-0.01767217 -0.0003175 -0.01818205
-0.014976415 0 -0.016669231
-0.016474057 0.0003175 -0.011223077
-0.027856132 -0.000635 -0.00033076911
-0.017971698 -0.000635 -0.013643589
-0.0023962264 -0.00127 -2.8205015e-05
0.0023962264 0 -0.0081974352
0.027856132 -0.00127 -0.012735897
-0.011681603 0.00095249998 -0.0021461537
0.014976415 0 -0.0030538458
0.015275943 -0.0003175 -0.0091051282
-0.010183962 -0.0003175 -0.01818205
0.027257076 -0.00127 -0.013038461
-0.0071886792 0.000635 -0.0024487178
-0.0047924528 -0.0003175 -0.01152564
-0.020068396 0 -0.017576922
0.014976415 -0.00095249998 -2.8205015e-05
-0.030851414 -0.000635 -0.013341025
-0.020367924 0.0003175 -0.0045666662
0.02815566 0.00127 -0.013038461
-0.023063678 0.00127 -0.00063333323
-0.026358491 0.00095249998 -0.01152564
0.027856132 0 -0.01969487
-0.017372642 0.0003175 -0.01152564
0.025160378 0 -0.019089743
0.019169811 -0.00127 -0.012130769
0.0020966982 0.00127 -0.00063333323
-0.02276415 -0.0003175 0.0014846155
0.0068891509 0.00127 -2.8205015e-05
0.0029952831 -0.00095249998 -0.013341025
-0.0077877357 0.00095249998 -0.013341025
0.017971698 0.0003175 -0.010617948
-0.022464622 -0.00127 -0.00033076911
-0.020367924 -0.00127 -2.8205015e-05
0.0026957546 0 -0.018484615
0.030551886 0.0003175 -0.0088025639
-0.018870283 0.0003175 -2.8205015e-05
0.0020966982 -0.00127 -0.00063333323
-0.005091981 -0.0003175 -0.010617948
0.005091981 0 -0.017274357
-0.027556604 0.00127 -0.012433332
0.012580189 0.00127 -0.013038461
0.0062900945 -0.00095249998 -0.013341025
0.018271226 -0.000635 -0.013341025
-0.0074882074 0.0003175 -0.017274357
-0.027556604 0.000635 -0.0024487178
0.0047924528 0 -0.015761537
-0.015275943 0.0003175 -0.0084999995
-0.0026957546 -0.0003175 0.0023923076
0.0074882074 0 -0.01969487
-0.0026957546 0 -0.013643589
0.025160378 0.00127 -0.01152564
0 0.0003175 -0.0094076917
-0.025459906 0.00127 -0.0018435896
-0.0017971698 -0.00127 -0.013341025
0.0029952831 0.0003175 -0.013643589
-0.027856132 0.0003175 0.00087948726
0.020068396 -0.000635 -0.0021461537
-0.005091981 0 -0.0072897431
-0.0026957546 0 -0.0036589741
-0.0023962264 -0.00127 -0.0021461537
0.022165094 0.00127 -0.012130769
0.024561321 0.00127 -0.0024487178
-0.020966981 0.0003175 -0.011223077
0.020367924 0.0003175 -0.01818205
-0.0056910375 -0.0003175 -0.013341025
-0.017971698 -0.0003175 0.00087948726
-0.0077877357 0 -0.018484615
0.0077877357 0 -0.0045666662
0.017971698 -0.0003175 -0.0048692306
0.0074882074 -0.0003175 0.0011820514
-0.02276415 -0.00127 -0.0015410255
-0.0017971698 -0.000635 -0.012433332
0.018271226 0.000635 -0.0021461537
0.030851414 0 -0.013341025
-0.01407783 0.000635 -0.00033076911
0.023662735 -0.00127 -0.012130769
0.021865565 0 -0.01152564
0.011382075 0.0003175 -2.8205015e-05
0.005091981 0.00095249998 -0.013643589
-0.016174529 -0.00095249998 -0.0021461537
-0.017971698 0.0003175 -0.017576922
-0.026957547 0.00127 -0.00093589729
-0.018570755 0.0003175 -0.0021461537
0.0041933963 -0.00127 -0.00093589729
0.0023962264 -0.000635 -0.01152564
-0.0077877357 -0.0003175 -0.016971795
-0.0077877357 -0.0003175 0.0017871795
0.0080872644 -0.00127 -0.0012384614
-0.021865565 -0.00127 -0.01152564
-0.0044929245 0.00127 -0.012735897
-0.014976415 0.00127 -0.012735897
-0.013179245 0.00127 -0.0018435896
-0.011082547 -0.00127 -0.0018435896
-0.012879717 -0.0003175 -0.013946153
-0.026358491 0.00127 -0.012735897
0.020966981 -0.000635 -0.013341025
-0.02815566 0.00127 -0.0018435896
0.030252358 0 -0.0054743588
0.0002995283 0 -0.0051717944
0.020966981 0.00127 -0.01152564
0.025759434 -0.00127 -0.011828205
0.026658019 0.00127 -0.00063333323
-0.0053915093 -0.00095249998 -0.012130769
-0.016474057 -0.00127 -0.00033076911
-0.030252358 0 -0.010617948
-0.030551886 -0.0003175 -0.0072897431
0.0020966982 0.0003175 -0.011223077
0.0026957546 0.00127 -0.00033076911
-0.011382075 0.0003175 -0.01152564
-0.01767217 0 -0.0078948718
-0.017971698 0.00127 -0.0015410255
-0.014676887 -0.00127 -0.0021461537
-0.030551886 0 -0.002751282
0.011681603 -0.00127 -0.0018435896
-0.023063678 0 -0.013643589
-0.030252358 0.00127 -0.01152564
-0.0026957546 0.000635 -0.013341025
0.020367924 0 -0.0084999995
0.026358491 0.00127 -0.0015410255
-0.020367924 -0.0003175 -0.0030538458
-0.0005990566 -0.00127 -0.0015410255
-0.029653301 -0.000635 -0.0021461537
0.0041933963 0.00095249998 -0.012130769
-0.011082547 0.00127 -0.012735897
0.01048349 0.00127 -0.00063333323
0.018870283 0.00127 -0.011828205
-0.02815566 0 -0.0088025639
0.026957547 0.0003175 -0.01152564
-0.02815566 -0.0003175 -0.013946153
0.0074882074 0.000635 -0.012130769
-0.0092853773 -0.00127 -0.012735897
0.025160378 -0.00127 -2.8205015e-05
0.0056910375 0.0003175 -0.0021461537
0.020367924 0.00095249998 -0.01152564
0.015275943 0.0003175 0.0020897437
-0.012580189 0.00127 -0.013341025
0.0062900945 -0.00127 -2.8205015e-05
-0.0008985849 -0.00127 -0.00093589729
-0.0068891509 -0.00127 -0.0021461537
-0.025160378 0 0.0014846155
0.030851414 0.0003175 -2.8205015e-05
-0.018870283 0.00095249998 -0.011828205
-0.016474057 0.000635 -0.00033076911
-0.0011981132 0.0003175 -0.012130769
0.015275943 -0.00127 -0.012130769
0.023363207 0.00127 -0.00093589729
-0.025759434 -0.00127 -0.013341025
-0.019768868 0.00127 -0.00033076911
0.014377358 0.00095249998 -2.8205015e-05
0.005091981 0.0003175 0.0023923076
-0.012879717 0.00095249998 -2.8205015e-05
-0.0080872644 0.00127 -0.0021461537
-0.0029952831 -0.00095249998 -2.8205015e-05
0.0047924528 0 -0.0063820509
0.0017971698 -0.00127 -0.0015410255
0.025160378 0.0003175 -0.011223077
0.012580189 0.0003175 -0.0030538458
-0.0017971698 0.00127 -0.0015410255
-0.010183962 -0.0003175 -0.010920512
0.025160378 -0.000635 -0.00033076911
-0.014976415 -0.0003175 -0.0030538458
-0.026058963 -0.0003175 -0.013341025
-0.005091981 -0.0003175 -0.013946153
-0.0089858491 0.00095249998 -0.0021461537
0.0074882074 0.0003175 -0.009710256
-0.0005990566 0.00127 -0.00093589729
-0.014976415 -0.0003175 0.0014846155
-0.020367924 0.0003175 0.0014846155
-0.0038938678 -0.0003175 -0.013341025
0.01048349 0.00127 -0.0018435896
-0.019169811 0.00095249998 -2.8205015e-05
0.0086863209 -0.00095249998 -0.012130769
0.010183962 0 -0.0030538458
-0.017971698 0.0003175 -0.018484615
-0.0089858491 -0.000635 -0.00033076911
0.012580189 -0.0003175 -0.0072897431
0.026058963 0.00127 -0.00093589729
-0.029054245 0.0003175 -0.013341025
0.020068396 0 -0.0081974352
-0.022165094 0.000635 -0.013341025
0.023363207 0.00095249998 -0.01152564
0.015275943 0 -0.0030538458
0.030252358 0.00095249998 -0.012130769
0.005091981 0 0.0023923076
-0.02276415 0.0003175 -0.0036589741
-0.027556604 -0.00127 -0.013038461
-0.0026957546 -0.00095249998 -0.012433332
0 -0.0003175 -0.0069871792
-0.0002995283 0 -0.0088025639
0.0044929245 -0.00095249998 -0.013341025
0.0011981132 -0.00095249998 -0.011223077
-0.0026957546 0 -0.010617948
-0.0077877357 0 -0.017879486
0.0074882074 0.0003175 -0.0072897431
0.02995283 -0.00095249998 -0.0021461537
-0.030252358 -0.0003175 -0.0024487178
-0.020367924 0.0003175 0.0023923076
-0.030252358 0 0.00087948726
0.027856132 0 -0.0091051282
0.017971698 -0.0003175 -0.014853845
-0.013478774 -0.00127 -0.011828205
-0.025459906 0.0003175 -0.016669231
-0.02995283 0.0003175 -0.012130769
-0.016773585 0.00095249998 -0.0021461537
-0.025160378 -0.00095249998 -0.013341025
-0.005091981 0 0.0026948717
0.012580189 0.0003175 -0.0045666662
0.023063678 -0.00127 -0.0012384614
0.0005990566 0.0003175 -0.011223077
-0.021865565 0 -0.011223077
0.031750001 0 -0.0021461537
0.012580189 0.0003175 -0.011828205
-0.0083867926 0.00127 -0.012735897
0.0047924528 0 -0.0091051282
-0.0014976416 -0.00095249998 -0.011223077
0.016174529 0.00127 -0.0015410255
0.0077877357 -0.0003175 -0.0091051282
0.017971698 0 0.0017871795
-0.01767217 0.0003175 -0.0036589741
0.005091981 0.000635 -0.0024487178
-0.005091981 0.0003175 -0.016669231
0.020966981 0.00127 -0.011828205
-0.012580189 -0.0003175 -0.016669231
0.016174529 -0.000635 -0.013341025
0.027257076 -0.0003175 -2.8205015e-05
0.025759434 -0.000635 -0.0021461537
0.0020966982 -0.0003175 -0.012130769
0.026658019 -0.00127 -0.012735897
0.023662735 0 -2.8205015e-05
0.0020966982 0.00127 -0.0021461537
-0.0026957546 0.0003175 0.0020897437
-0.013478774 0.00127 -0.00063333323
0.0086863209 0.00127 -0.00063333323
0.010183962 -0.00095249998 -0.012130769
-0.013179245 0.00127 -0.013038461
0.021865565 0.00127 -0.0015410255
0.014377358 0.00127 -0.013341025
0.005091981 0.00127 -0.013038461
0.020367924 -0.0003175 -0.01152564
0.0026957546 0 -0.0030538458
0.026658019 0.000635 -0.0021461537
0.02995283 -0.00127 -0.0015410255
-0.027556604 -0.00095249998 -0.0021461537
0.012879717 0.0003175 -0.0030538458
-0.027856132 0 -0.018787179
0.012580189 0.0003175 -0.0051717944
-0.0002995283 0 -0.015761537
-0.011981132 -0.0003175 -0.0021461537
0.0023962264 0.0003175 -0.0091051282
-0.010183962 0 -0.014248718
-0.010783019 0.00127 -0.00063333323
0.012580189 0.00127 -0.011828205
0.011681603 -0.00127 -0.013341025
0.020667452 0.00127 -0.0024487178
0.0077877357 0.0003175 -0.0081974352
-0.0011981132 -0.000635 -0.012433332
-0.015275943 0.0003175 -0.00335641
-0.011981132 -0.00127 -2.8205015e-05
-0.027257076 -0.00127 -0.00093589729
0.0083867926 0.00127 -0.013341025
0 0.0003175 -0.014853845
-0.021566037 -0.00127 -0.00063333323
-0.010783019 -0.00095249998 -0.011828205
-0.022464622 -0.0003175 -0.0021461537
0.02815566 0.00095249998 -2.8205015e-05
-0.005091981 -0.00095249998 -0.013643589
-0.0077877357 0.0003175 0.00057692319
0.01767217 -0.0003175 -0.019089743
-0.021865565 0.000635 -0.01152564
-0.020367924 -0.0003175 -0.0042641023
-0.026957547 0.00127 -0.00033076911
-0.0002995283 0.00127 -0.00033076911
-0.015875001 -0.0003175 -0.013341025
-0.0059905662 -0.000635 -0.00033076911
0.02815566 -0.0003175 -0.0021461537
0.018570755 0.00095249998 -2.8205015e-05
0.012280661 -0.00095249998 -0.013341025
-0.030252358 0 -0.016064102
-0.0077877357 0.000635 -0.012130769
-0.011382075 0.00127 -0.0021461537
0.010183962 0.0003175 -0.0084999995
0.01767217 0.00127 -0.013341025
0.01767217 0 -0.0045666662
0.02486085 0.00127 -0.012130769
-0.030252358 0 -0.017879486
0.018870283 0.000635 -0.0024487178
-0.010183962 -0.0003175 0.0011820514
0.030851414 -0.00095249998 -0.00063333323
0.012580189 0.00127 -0.012130769
0.027556604 0.00127 -0.0021461537
0.02276415 0 -0.01818205
0.01048349 -0.00127 -0.013038461
0.0089858491 0.00127 -0.012735897
-0.0074882074 -0.00095249998 -0.012130769
-0.02276415 -0.00127 -0.012735897
-0.025160378 0 -0.010920512
0.020966981 0.00095249998 -0.0024487178
0.0047924528 0.00127 -0.0015410255
-0.015275943 -0.0003175 0.00087948726
0.0095849056 -0.00127 -0.0024487178
-0.02815566 -0.0003175 -0.01515641
0.0047924528 0.000635 -0.013643589
-0.02486085 -0.000635 -0.0021461537
-0.0026957546 0 -0.017576922
-0.023962265 0.00127 -0.012130769
-0.012580189 0.00095249998 -0.013341025
-0.02815566 -0.0003175 -0.011223077
-0.01407783 -0.00127 -0.00033076911
-0.026358491 0.000635 -0.01152564
0.013179245 0.0003175 -0.013341025
0.020966981 0 -2.8205015e-05
0 -0.0003175 -0.018484615
0.012280661 0.000635 -0.00033076911
0 -0.0003175 -0.0057769227
0.023063678 -0.0003175 -0.0066846153
-0.017073113 -0.00127 -0.013038461
0.0026957546 0.0003175 0.00057692319
0.02276415 0.0003175 -0.009710256
0.012580189 0.00127 -0.0021461537
0.023662735 -0.000635 -0.00033076911
-0.018570755 -0.00127 -0.013341025
0.0029952831 0.00127 -0.00063333323
0.0023962264 0 -0.01818205
0.012280661 0.00095249998 -0.013341025
0.025160378 0 -0.017274357
0.017971698 0 -0.010617948
0.011681603 0.00127 -0.00093589729
0.0041933963 -0.0003175 -2.8205015e-05
-0.0098844338 0.00095249998 -0.013341025
-0.0098844338 -0.000635 -0.012130769
-0.0017971698 -0.0003175 -0.01152564
-0.015875001 -0.00095249998 -0.0021461537
-0.012580189 -0.000635 -0.0024487178
0.019469339 0.00095249998 -0.0024487178
-0.0038938678 -0.00127 -0.013341025
-0.027856132 0.0003175 -0.0088025639
-0.010183962 -0.0003175 -0.011223077
-0.021266509 -0.00127 -0.012735897
-0.0053915093 0.00095249998 -0.012433332
-0.025759434 0 0.0014846155
0.02276415 0 0.0017871795
0.024561321 -0.0003175 -0.013341025
-0.017971698 0.0003175 -0.016669231
-0.0023962264 -0.000635 -0.013643589
0.020367924 -0.0003175 -0.006079487
0.013478774 0.000635 -0.00033076911
-0.031150943 0 -0.013341025
0.019768868 0.000635 -0.0024487178
-0.0035943396 0.000635 -0.013341025
0.0086863209 -0.000635 -0.013341025
0.028754717 0 -0.013341025
0.025160378 -0.000635 -0.013643589
0.023363207 -0.00127 -0.013038461
0.023063678 -0.0003175 -0.0088025639
-0.020367924 -0.0003175 -0.0088025639
0.0047924528 0 -0.0094076917
0.025160378 0 -0.010617948
0.028754717 0.00127 -0.0018435896
0.010183962 -0.00095249998 -2.8205015e-05
0.012280661 0.00127 -2.8205015e-05
-0.0098844338 0.00127 -0.012735897
-0.018870283 -0.0003175 -0.013643589
-0.0068891509 -0.00127 -0.00093589729
-0.0077877357 -0.0003175 -0.01818205
-0.02815566 0.00095249998 -0.01152564
0.010183962 0.0003175 -0.010315384
-0.012879717 0 -0.0051717944
0.027556604 -0.000635 -0.01152564
-0.005091981 -0.00127 -0.013038461
-0.027856132 -0.0003175 -0.0057769227
0.026358491 -0.00127 -0.00033076911
-0.027856132 0.00127 -0.0015410255
-0.0074882074 0.00127 -0.0012384614
0.011382075 0.0003175 -0.013341025
-0.015275943 0.0003175 0.0020897437
0.0098844338 -0.00127 -0.0018435896
-0.028754717 0.0003175 -0.01152564
-0.014676887 0.00127 -0.0012384614
0.014976415 0.00127 -0.012433332
0.024561321 -0.00095249998 -0.013341025
-0.013478774 -0.00127 -0.012130769
-0.0011981132 0.00127 -0.0015410255
-0.02995283 0.00127 -0.0021461537
-0.021566037 -0.00095249998 -0.013341025
-0.0053915093 -0.0003175 -0.011223077
0.012879717 -0.0003175 -0.016669231
0.020068396 0.00127 -0.013341025
-0.01048349 -0.00095249998 -0.013643589
0.0047924528 0 -0.0054743588
0.020667452 -0.000635 -0.01152564
-0.011382075 -0.00127 -0.013341025
0.018870283 -0.000635 -0.013341025
-0.021566037 0.00127 -0.0015410255
0.0014976416 -0.000635 -0.00033076911
0.017971698 -0.0003175 -0.01152564
-0.025759434 0.00127 -0.012433332
0.0074882074 -0.0003175 -0.010315384
-0.02995283 0 -0.011223077
0.018271226 -0.0003175 -0.01152564
0.014676887 -0.0003175 -2.8205015e-05
0.010183962 0.00095249998 -0.012130769
0.02276415 0.0003175 -0.01001282
0.013478774 0.00095249998 -0.0024487178
-0.023363207 -0.000635 -0.013341025
-0.029054245 0.00127 -0.0021461537
0.028455188 0 -0.0021461537
0.015875001 0.00095249998 -0.011828205
0.01407783 0.000635 -0.00033076911
-0.020667452 -0.00127 -0.0021461537
0.015575471 0.00127 -0.013341025
0 -0.00095249998 -0.013341025
-0.0077877357 -0.0003175 -0.009710256
-0.017971698 0.00127 -0.011828205
-0.025459906 -0.00127 -2.8205015e-05
-0.01767217 0.0003175 -0.014551281
-0.0074882074 0.0003175 -0.014248718
0.0077877357 0 0.0026948717
-0.0047924528 0 -0.0051717944
0.015275943 -0.0003175 -0.0072897431
0.0086863209 -0.0003175 -0.011223077
-0.010183962 -0.0003175 0.0020897437
0.012879717 0 -0.015458974
-0.020068396 0 -0.017879486
0.010183962 0.00095249998 -2.8205015e-05
0.011382075 -0.000635 -0.0021461537
0.01407783 0 -2.8205015e-05
0.0026957546 0 -0.01969487
-0.023363207 -0.00127 -0.00063333323
-0.019169811 0.000635 -0.013341025
-0.0083867926 0 -0.013341025
-0.005091981 0.00127 -0.013341025
-0.025459906 -0.0003175 -0.017274357
0.0023962264 0 -0.0078948718
0.020068396 0 -0.015761537
-0.027556604 0.0003175 -2.8205015e-05
0.015575471 0 -0.011223077
-0.022165094 0.00127 -0.012735897
-0.021266509 -0.00127 -0.00033076911
0.012580189 0 0.0020897437
-0.026058963 0.0003175 -0.013341025
-0.0047924528 0.00127 -0.0018435896
-0.0062900945 0.00127 -0.011828205
0.01767217 -0.0003175 -0.015761537
0.02276415 -0.0003175 -0.015458974
0.020966981 0.0003175 -0.013341025
-0.0029952831 0.0003175 -0.013341025
0.0008985849 -0.0003175 -0.013341025
-0.015575471 0.00127 -0.0018435896
-0.005091981 0 -0.0048692306
0.021865565 -0.0003175 -2.8205015e-05
-0.026658019 -0.00127 -0.0012384614
-0.025160378 0 -0.01818205
-0.027856132 0 -0.006079487
0.026358491 -0.00127 -0.012130769
0.020966981 -0.00127 -0.0024487178
-0.030252358 0 -0.0072897431
0.0038938678 -0.0003175 -0.012130769
-0.012879717 -0.0003175 0.0017871795
-0.02815566 0 -0.016064102
0.017372642 -0.00127 -0.012130769
-0.011382075 0.000635 -0.012130769
0.013478774 -0.0003175 -0.011223077
-0.0062900945 0.00127 -0.00093589729
0.020667452 -0.000635 -0.0024487178
0.0071886792 -0.000635 -0.00033076911
0.005091981 -0.0003175 -0.014551281
0.030851414 0.00095249998 -0.00093589729
-0.0002995283 0.00095249998 -0.013341025
0.023063678 0 0.00057692319
0.0068891509 0.00127 -0.012130769
0.022464622 0.0003175 -2.8205015e-05
-0.012580189 -0.0003175 -0.0094076917
-0.013478774 -0.00127 -2.8205015e-05
-0.030551886 0 0.0014846155
0.0077877357 0 -0.0072897431
-0.0002995283 0 -0.0066846153
-0.020367924 0.00127 -0.0015410255
-0.0011981132 -0.00095249998 -0.012433332
0.030551886 0.0003175 -0.010920512
-0.026358491 0.00127 -0.0015410255
-0.0056910375 0.0003175 -2.8205015e-05
-0.013179245 0 -0.0021461537
0.014377358 0.00127 -0.0015410255
-0.023063678 -0.00127 -0.00093589729
0.01407783 0.000635 -0.0021461537
-0.01407783 -0.0003175 -0.0021461537
0.0047924528 0 -0.016971795
-0.013478774 0 -0.011223077
0.0026957546 0 -0.017576922
-0.005091981 -0.00095249998 -2.8205015e-05
0.0008985849 0.00127 -2.8205015e-05
0.01767217 -0.0003175 -0.002751282
0.0059905662 0.000635 -0.00033076911
-0.02276415 -0.0003175 -0.017274357
-0.0005990566 0.00127 -0.012433332
-0.012580189 -0.0003175 0.0023923076
0.0026957546 -0.0003175 -2.8205015e-05
0.031450473 -0.0003175 -0.00033076911
-0.01767217 -0.0003175 -0.01001282
-0.017073113 0.00127 -2.8205015e-05
-0.0077877357 -0.0003175 -0.016064102
0.020667452 -0.0003175 -2.8205015e-05
0.0065896227 0.00095249998 -2.8205015e-05
-0.017971698 0.0003175 -0.00335641
-0.02276415 0 -0.0081974352
-0.0026957546 -0.000635 -0.012433332
-0.023063678 0 -0.014853845
0.025160378 0.00127 -0.00093589729
-0.023063678 0 -0.017576922
-0.020667452 0 -0.010920512
-0.0071886792 -0.0003175 -2.8205015e-05
0.0092853773 0.0003175 -0.011223077
-0.015875001 -0.00127 -0.0018435896
-0.0074882074 -0.0003175 0.0023923076
0.0095849056 0 -0.011223077
0.028455188 -0.000635 -0.01152564
0.012879717 -0.00127 -0.00033076911
0.012879717 0 -0.016971795
0.014976415 0 -0.0057769227
-0.031150943 0.0003175 -0.013038461
0.031450473 0.00095249998 -0.0015410255
-0.028754717 0.00127 -0.0021461537
-0.0089858491 0.00127 -0.0012384614
-0.0002995283 0 -0.016366666
0.017971698 0 -0.0091051282
0.0074882074 -0.0003175 -0.0091051282
-0.014976415 0 -0.010617948
-0.0068891509 -0.00127 -2.8205015e-05
-0.023063678 0.00127 -0.0018435896
-0.0020966982 -0.0003175 -0.011223077
0.012280661 -0.00127 -0.00093589729
-0.019768868 -0.00127 -0.013341025
0.025459906 0 -0.0072897431
-0.0065896227 0.00127 -0.00093589729
-0.015275943 -0.00127 -0.012130769
0.01407783 0.00127 -0.00063333323
0.013478774 0.0003175 -0.01152564
-0.0062900945 0.00127 -2.8205015e-05
-0.027257076 0.0003175 -0.0021461537
0.0095849056 -0.0003175 -0.01152564
-0.0008985849 0.000635 -0.0021461537
-0.016474057 -0.00127 -0.012433332
-0.010183962 -0.0003175 -0.0030538458
-0.014676887 -0.00127 -0.011828205
-0.026058963 -0.00095249998 -2.8205015e-05
-0.01767217 -0.0003175 -0.002751282
-0.031150943 -0.00127 -0.0018435896
0.0047924528 0.00095249998 -0.011223077
-0.030252358 0.0003175 -0.012433332
0.01407783 -0.00127 -0.00033076911
0.026658019 0.00127 -0.013341025
-0.021566037 0.00127 -0.00033076911
0.01767217 0.000635 -0.0024487178
0.010183962 0.0003175 -0.017274357
-0.030851414 -0.000635 -2.8205015e-05
0.010183962 -0.00127 -0.013341025
-0.023962265 -0.00127 -2.8205015e-05
-0.031150943 -0.00127 -0.0012384614
0.0035943396 0.00127 -0.0021461537
-0.0011981132 0.000635 -0.013341025
-0.0008985849 0.00095249998 -0.013341025
0.014976415 -0.00095249998 -0.013341025
-0.019469339 -0.00127 -2.8205015e-05
0.027257076 0.00127 -0.0012384614
0.015275943 0 -0.006079487
-0.012879717 0 -0.017576922
-0.0029952831 0.00127 -0.013038461
-0.019169811 -0.00127 -0.00033076911
0.0041933963 0.00127 -0.0021461537
0.025459906 -0.0003175 -0.01818205
-0.018870283 -0.00095249998 -0.0021461537
0.0089858491 0 -2.8205015e-05
0.024261793 -0.00127 -0.013341025
0.031150943 -0.00095249998 -0.013341025
0.005091981 -0.0003175 -0.0039615384
0.0011981132 -0.00095249998 -0.013341025
0.012879717 0.0003175 -0.01001282
0.024561321 -0.00127 -0.011828205
-0.020068396 0 -0.0045666662
0.027856132 -0.0003175 0.00087948726
0.02276415 0 -0.009710256
-0.029054245 0 -0.01152564
0.0068891509 -0.0003175 -0.01152564
-0.0089858491 0.00127 -0.00033076911
0.0074882074 0.0003175 -0.014853845
0.016474057 0.00127 -0.0015410255
0.030551886 -0.00095249998 -0.01152564
0.020068396 0 -0.014551281
-0.0017971698 0.00127 -2.8205015e-05
0.0002995283 -0.00127 -0.0015410255
-0.021566037 0.00127 -0.0012384614
0.0044929245 0.00127 -2.8205015e-05
-0.0095849056 -0.00127 -0.00063333323
0.0083867926 0.00095249998 -0.0021461537
-0.020068396 -0.0003175 -0.011223077
0.0086863209 -0.000635 -0.011828205
0.0074882074 -0.0003175 -0.01515641
0.0044929245 -0.00095249998 -0.012433332
0.0002995283 -0.00127 -0.0012384614
-0.030851414 0.0003175 -0.011828205
0.0005990566 -0.00127 -0.00093589729
0.0071886792 -0.00127 -0.0024487178
0.023962265 0.0003175 -0.0021461537
-0.022165094 0.00127 -0.011828205
-0.0080872644 -0.00127 -0.0012384614
0.0059905662 -0.000635 -0.0021461537
0.011382075 0 -2.8205015e-05
0.016773585 0 -2.8205015e-05
0.013179245 -0.0003175 -0.011223077
0.023363207 0.00127 -0.0015410255
-0.015275943 0.0003175 -0.0066846153
0.0032948114 0.00127 -2.8205015e-05
0.031150943 -0.000635 -0.0021461537
-0.0041933963 0 -2.8205015e-05
0.0020966982 0.00127 -0.013643589
-0.0074882074 0.0003175 -0.019392308
0.020367924 0.0003175 0.0026948717
-0.0029952831 0.00127 -0.011223077
0.0023962264 0 -0.016669231
0.02815566 0.00127 -0.012130769
-0.0077877357 0 -0.0036589741
0.010183962 0.00127 -0.00063333323
0.031750001 0 -0.012735897
0.020367924 0.0003175 -0.00335641
-0.014976415 0 -0.0039615384
-0.021865565 -0.00127 -0.00033076911
-0.021266509 0.00127 -0.012433332
0.020367924 -0.0003175 -0.009710256
0.005091981 0.0003175 -0.019089743
0.0026957546 0.0003175 -0.01818205
0.025459906 0.0003175 -0.014853845
0.01048349 0.00127 -0.00033076911
-0.005091981 0.0003175 -0.0084999995
0.0002995283 0.00127 -0.0015410255
0.0080872644 -0.00127 -0.00063333323
-0.015875001 0.000635 -0.00033076911
-0.02276415 0 -0.01818205
-0.01767217 0.00127 -0.0021461537
0.013179245 0.00127 -0.0015410255
-0.0068891509 0.00127 -0.011828205
-0.0080872644 0.00127 -0.00033076911
0.0074882074 0.00127 -0.0012384614
0.0005990566 0.00095249998 -0.012433332
-0.02815566 0 -0.0057769227
-0.0011981132 0 -0.013341025
-0.027856132 0 -0.019392308
0.029653301 0.00127 -0.0018435896
-0.0053915093 0.00095249998 -2.8205015e-05
0.015275943 -0.0003175 -0.013946153
0.029353773 -0.00127 -0.0021461537
-0.005091981 0.00095249998 -0.013341025
0.021865565 0.00127 -2.8205015e-05
0.0095849056 -0.0003175 -0.011223077
-0.030252358 -0.00127 -0.0012384614
0.025459906 0 -0.014248718
-0.023962265 0.00127 -0.00063333323
0 -0.0003175 0.0014846155
0.02276415 -0.0003175 -0.0054743588
-0.020367924 -0.0003175 -0.0091051282
-0.014976415 0.00127 -0.00033076911
0 0.0003175 -0.014551281
-0.015275943 0 -0.00335641
-0.0026957546 0 -0.010315384
0.0023962264 0.0003175 -0.0054743588
0.031750001 0.0003175 -0.012735897
0.0047924528 -0.00127 -0.0012384614
-0.026058963 0.00095249998 -0.0021461537
0.012580189 0.0003175 -0.01152564
0.027856132 -0.0003175 -0.0045666662
-0.005091981 0 -0.014551281
0.010783019 0.0003175 -0.01152564
0.005091981 0 -0.0054743588
-0.0023962264 -0.0003175 -0.011828205
-0.020367924 -0.0003175 0.00057692319
0.015275943 0 -0.0081974352
-0.01767217 0 -0.010920512
-0.012580189 -0.00127 -0.00063333323
0.0002995283 -0.0003175 0.00087948726
0.0059905662 -0.00127 -0.013341025
0.0065896227 -0.000635 -0.0021461537
-0.020367924 -0.00127 -0.0021461537
-0.0026957546 -0.0003175 -0.0024487178
-0.020966981 0.00127 -0.0012384614
-0.0044929245 0.00127 -0.012433332
-0.02276415 0.00127 -0.012433332
-0.020667452 0.00127 -0.00093589729
-0.0041933963 -0.0003175 -0.011828205
0.0083867926 -0.0003175 -0.01152564
-0.0083867926 0.00095249998 -0.012130769
0.016174529 -0.0003175 -0.011223077
0.023662735 0.00127 -0.00093589729
0.023962265 0.00127 -0.00033076911
-0.012580189 0.0003175 -0.0075923074
0.020667452 0.0003175 -2.8205015e-05
-0.0014976416 -0.000635 -0.012433332
0.0089858491 -0.0003175 -0.013341025
0.023363207 -0.0003175 -0.011223077
0 -0.0003175 -0.01001282
0.016174529 0 -2.8205015e-05
-0.026058963 0.00127 -0.00093589729
0.020367924 0.0003175 -0.019392308
-0.0023962264 0 -0.0084999995
0.005091981 -0.0003175 -0.013946153
-0.023363207 -0.0003175 -0.013341025
0.0074882074 0.0003175 0.0011820514
0.0002995283 -0.000635 -0.0021461537
0.019169811 -0.0003175 -2.8205015e-05
-0.017372642 0.00127 -0.0012384614
0.014676887 0.00127 -0.00093589729
-0.030551886 -0.0003175 -0.019089743
-0.0023962264 0 -0.0051717944
0.012580189 0 0.00057692319
0.030551886 0 0.0023923076
-0.011082547 -0.00127 -0.0015410255
0.014976415 -0.0003175 -0.01152564
-0.027856132 0.0003175 -0.0091051282
-0.0074882074 0.00127 -0.012433332
-0.025459906 -0.0003175 -0.0081974352
-0.026658019 0.000635 -0.00033076911
0.030551886 -0.0003175 -0.00033076911
0.0029952831 -0.00095249998 -0.0021461537
-0.017073113 -0.00095249998 -0.0021461537
0.012280661 0.00127 -0.011223077
0.020667452 0.00095249998 -2.8205015e-05
0.020367924 -0.00127 -0.0015410255
0.023962265 -0.00127 -0.00093589729
0.0062900945 0.000635 -0.013341025
0.021266509 0.000635 -0.013643589
0.0053915093 0.0003175 -0.011828205
-0.0074882074 0.0003175 -0.014853845
0.0011981132 -0.0003175 -0.011828205
0.027856132 -0.0003175 -0.010920512
0.0077877357 0.00095249998 -0.012130769
0.0077877357 -0.0003175 -0.016366666
0.017971698 0 -0.0094076917
-0.026957547 0.0003175 -0.01152564
0.015875001 -0.0003175 -0.01152564
-0.021266509 0.00127 -0.013341025
-0.02995283 -0.00127 -0.0018435896
-0.020367924 -0.0003175 -0.017274357
-0.028754717 0 -0.011223077
0.0035943396 0.000635 -0.013643589
0.010183962 0.0003175 -0.014248718
0.026658019 0.00127 -0.0024487178
-0.010183962 -0.0003175 -0.009710256
-0.011082547 -0.00095249998 -0.0021461537
-0.020367924 0.0003175 -0.0039615384
-0.017372642 -0.00095249998 -0.0021461537
-0.0002995283 0.00127 -0.013038461
-0.0095849056 -0.0003175 -0.011828205
-0.0047924528 0 -0.0075923074
0.02815566 0.00127 -2.8205015e-05
-0.012580189 -0.0003175 -0.017879486
-0.013778302 0 -0.011223077
0.030551886 0.0003175 -2.8205015e-05
-0.031750001 -0.000635 -0.0015410255
0.031450473 -0.000635 -0.012433332
0.011082547 0.0003175 -0.0021461537
-0.025160378 -0.00127 -0.01152564
-0.011681603 -0.00127 -0.012130769
0.0053915093 0.00127 -0.013341025
-0.026058963 0 -2.8205015e-05
-0.029054245 -0.00127 -0.012433332
0.01767217 0.0003175 -0.0069871792
0.0002995283 -0.0003175 -0.0054743588
-0.0074882074 0.00127 -0.01152564
-0.028754717 -0.00127 -0.00093589729
0.010183962 0.0003175 -0.0042641023
0.0026957546 -0.0003175 -0.0075923074
0.013478774 -0.00095249998 -0.0021461537
0.021566037 0.00127 -0.013341025
0.0020966982 -0.000635 -0.00033076911
0.0044929245 0 -0.011223077
0.026658019 0.00127 -0.0012384614
0.015275943 0.00127 -0.00033076911
-0.0032948114 0.00127 -0.0018435896
0.019469339 -0.00127 -0.013341025
-0.016174529 -0.00127 -0.012130769
0.023662735 0.000635 -0.0021461537
0.025459906 0 -0.0063820509
0.0098844338 0.0003175 -0.011828205
0.020966981 0.00127 -0.013341025
0.017971698 0 -0.0054743588
-0.01767217 -0.0003175 -0.010920512
0.0071886792 -0.00127 -0.0021461537
-0.015275943 0.0003175 -0.0075923074
-0.027856132 0 -0.0091051282
-0.011981132 -0.00127 -0.0018435896
-0.0035943396 0.00127 -0.00093589729
-0.020966981 0.00127 -0.012735897
-0.030851414 0.000635 -0.0021461537
-0.0056910375 -0.0003175 -0.0021461537
0.015275943 0 -0.0078948718
-0.023363207 -0.00127 -0.0015410255
-0.01767217 -0.0003175 -0.009710256
0.026358491 -0.0003175 -0.0021461537
-0.010183962 0 -0.0063820509
-0.0020966982 0.00127 -0.00033076911
-0.017971698 0.0003175 0.0026948717
0.030551886 0.0003175 0.00057692319
0.011382075 0.0003175 -0.01152564
0.020367924 -0.0003175 -0.0042641023
-0.025160378 -0.00127 -0.00093589729
-0.0074882074 -0.0003175 -0.0094076917
-0.0002995283 0 -0.00335641
0.0002995283 0 -0.0057769227
0.014976415 0 -0.01515641
-0.0077877357 0 -0.016366666
0.026658019 -0.0003175 -0.0021461537
-0.0041933963 -0.00127 -0.0021461537
0.030551886 0 0.00057692319
0.0059905662 0.00127 -0.013038461
-0.030252358 0 -0.014853845
0.0014976416 0.00095249998 -0.011223077
-0.0002995283 -0.0003175 -0.0024487178
-0.016474057 0.00127 -0.00033076911
-0.0011981132 0.00127 -0.012735897
0.0026957546 -0.00127 -0.0015410255
0.0095849056 0.00127 -0.00093589729
0.025160378 0.00095249998 -2.8205015e-05
-0.0023962264 0 -0.0081974352
-0.011382075 -0.0003175 -2.8205015e-05
-0.030551886 0 -0.01818205
0.020367924 -0.0003175 -0.016669231
0.016174529 -0.00127 -0.0021461537
0.012580189 0.0003175 -0.0072897431
0.026658019 0.00127 -0.00033076911
0.011681603 0.0003175 -0.01152564
0.0020966982 -0.000635 -0.01152564
-0.0074882074 -0.0003175 -0.00335641
0.023363207 -0.00127 -2.8205015e-05
-0.018870283 -0.0003175 -2.8205015e-05
0.0068891509 0.00127 -0.00093589729
-0.021266509 0.00127 -0.012735897
0.02486085 0.00127 -0.0021461537
0.0026957546 0.000635 -0.0024487178
-0.016773585 -0.000635 -0.011828205
-0.0089858491 -0.00095249998 -0.013341025
0.027257076 -0.00127 -0.012130769
-0.020367924 -0.00095249998 -0.01152564
-0.031150943 0.0003175 -0.00033076911
0.023063678 0.00127 -0.0018435896
0.026957547 -0.000635 -0.0021461537
-0.016773585 0.00095249998 -0.011828205
-0.0029952831 -0.00127 -0.01152564
0.025459906 -0.0003175 0.00087948726
-0.013778302 0.0003175 -0.0021461537
0.025759434 0 -0.011223077
0.0002995283 0 -0.0081974352
0.025459906 0.0003175 -0.011223077
-0.027856132 0.000635 -0.012433332
-0.01048349 0.00095249998 -0.013341025
0.020367924 -0.00095249998 -0.0024487178
-0.0068891509 -0.00127 -0.012433332
0.02276415 0.00127 -0.012130769
-0.0026957546 0.0003175 -0.00335641
0.018271226 -0.00095249998 -0.0021461537
0.029054245 -0.00095249998 -0.013038461
0.0065896227 0.0003175 -2.8205015e-05
0.027856132 -0.0003175 -0.0072897431
-0.0035943396 0.00127 -0.013038461
-0.025160378 0 -0.0069871792
0.015275943 -0.0003175 -0.010617948
0.023662735 0.00127 -0.013341025
0.02815566 0 -0.0051717944
0.014676887 0 -0.011223077
0.0092853773 0.00127 -0.012433332
-0.005091981 0 -0.017274357
0.0014976416 0 -0.0021461537
-0.021865565 -0.000635 -0.0021461537
-0.02276415 0.00127 -0.00093589729
0.010183962 0 -0.0036589741
-0.025459906 -0.0003175 -0.0075923074
-0.019169811 -0.00127 -0.0021461537
0.02486085 0.00095249998 -0.01152564
-0.011082547 0.0003175 -0.011223077
0.0074882074 0.00127 -0.00093589729
0.020367924 0 0.0020897437
0.023662735 0 -0.011223077
0.0086863209 0.0003175 -0.01152564
-0.0077877357 -0.0003175 -0.014853845
0.023662735 0.0003175 -0.013341025
0.005091981 0 -0.019089743
-0.027856132 0.000635 -0.0021461537
0.0020966982 0.000635 -0.012433332
-0.012580189 0.00127 -0.0015410255
0.0008985849 0.00095249998 -0.011223077
0.0023962264 0.00127 -0.0012384614
0.021566037 0.00095249998 -0.013643589
0.020667452 -0.00095249998 -2.8205015e-05
0.028754717 -0.00127 -0.0021461537
-0.02276415 0 0.00087948726
0.011981132 -0.000635 -0.011828205
0.010783019 0.00127 -0.013038461
0.029353773 0.000635 -0.011223077
0.0056910375 0.000635 -0.0021461537
-0.012879717 0.0003175 -0.010920512
-0.0095849056 0.00127 -0.011828205
0.02276415 -0.00127 -0.0012384614
-0.025459906 0.0003175 -0.0091051282
-0.02276415 -0.00127 -0.00093589729
0.020068396 0.0003175 -2.8205015e-05
0.023063678 -0.0003175 -0.016366666
-0.0008985849 -0.00127 -0.01152564
0.0053915093 -0.000635 -0.012433332
0.005091981 0 -0.0078948718
0.018570755 0.00095249998 -0.013643589
0.013478774 -0.00127 -0.012433332
-0.011382075 0.00127 -0.01152564
-0.030851414 -0.00127 -0.0018435896
0.022464622 0.00127 -0.012735897
-0.0032948114 0.00127 -0.00063333323
-0.0047924528 0 0.00027435907
-0.023063678 0 -0.0094076917
-0.0095849056 0 -0.011223077
-0.0017971698 0.000635 -0.013341025
0.011382075 -0.00127 -0.011828205
-0.0041933963 0.0003175 -0.013341025
-0.0026957546 -0.00095249998 -2.8205015e-05
0.0053915093 0.00127 -0.012130769
-0.0041933963 -0.000635 -0.00033076911
-0.015275943 0.00095249998 -0.0021461537
-0.014976415 0 0.0014846155
-0.020367924 0.000635 -0.011828205
-0.020367924 0.0003175 0.0017871795
0.030551886 0.0003175 -0.01515641
-0.010183962 -0.00095249998 -2.8205015e-05
0 -0.0003175 -0.0066846153
-0.005091981 -0.0003175 0.0011820514
0 0.0003175 -0.015458974
0.0020966982 -0.0003175 -0.0021461537
-0.015275943 0.0003175 0.0011820514
-0.016474057 0.00127 -0.0018435896
0.005091981 0 -0.0030538458
0.025459906 0 -0.017879486
-0.024561321 0.00127 -0.0012384614
0.0077877357 0.00127 -0.00093589729
0.02995283 0.00095249998 -0.013341025
-0.0026957546 -0.0003175 0.0014846155
0.023063678 0 -0.017274357
0.0074882074 -0.0003175 -0.0042641023
0.014676887 0.00127 -0.012735897
0.016474057 -0.00127 -0.011828205
-0.005091981 0.00095249998 -0.012433332
0.026358491 -0.000635 -0.013341025
-0.010783019 -0.0003175 -0.0021461537
0.013478774 -0.00127 -0.00033076911
0.0053915093 0.0003175 -2.8205015e-05
-0.027856132 0.0003175 -0.0045666662
-0.026957547 0.00127 -0.0018435896
0.0038938678 0.0003175 -2.8205015e-05
-0.020667452 0.000635 -0.01152564
-0.0017971698 -0.00095249998 -0.011223077
-0.0086863209 -0.00127 -0.012735897
0.020367924 -0.0003175 0.0014846155
0.025759434 0.00095249998 -0.0021461537
-0.014676887 -0.00095249998 -0.011828205
0.0062900945 -0.0003175 -0.0021461537
-0.025759434 0 -0.018484615
0.0011981132 0.00095249998 -0.011223077
-0.01767217 0.000635 -0.0024487178
0.005091981 0.00095249998 -0.012130769
0.014676887 0.00095249998 -0.011828205
-0.0038938678 -0.00095249998 -0.011223077
0.0026957546 -0.0003175 -0.011223077
-0.020966981 -0.000635 -0.013341025
-0.0026957546 -0.0003175 -0.014248718
-0.020966981 0.000635 -0.01152564
-0.030551886 0 -0.018787179
0.014976415 0 -0.016064102
0.011981132 0.00127 -0.011828205
0.023063678 -0.00095249998 -2.8205015e-05
-0.011981132 -0.0003175 -0.013341025
-0.012580189 0.0003175 -0.0057769227
0.011681603 0.00095249998 -0.011828205
0.02486085 0 -0.013643589
0.0074882074 0 -0.018787179
0.024561321 0.00095249998 -0.0024487178
-0.0077877357 -0.00127 -0.0024487178
0.0014976416 0.00127 -0.0015410255
-0.023063678 0.000635 -0.0021461537
0.030551886 0.0003175 0.0017871795
0.025459906 -0.0003175 -0.0051717944
0.011981132 0.0003175 -0.011223077
0.023063678 0 -0.015458974
-0.024561321 0.00127 -0.012130769
0.0032948114 0.00095249998 -0.0024487178
-0.0044929245 0.00127 -0.013038461
0.014377358 0.00127 -0.0021461537
-0.01767217 0 -0.006079487
-0.0002995283 0 0.0011820514
0.020367924 -0.00127 -0.012130769
0.023662735 0.00127 -0.011828205
-0.0041933963 0.000635 -0.00033076911
0.011382075 -0.00127 -0.0012384614
0.01767217 -0.0003175 -0.016669231
0.030851414 0 -0.0024487178
-0.005091981 0 -0.0081974352
-0.023962265 -0.00095249998 -2.8205015e-05
0.019768868 -0.000635 -0.013341025
0.0041933963 -0.00127 -0.00063333323
-0.012580189 0 -0.0051717944
-0.025459906 0 -0.0036589741
0.017971698 -0.0003175 -0.019392308
0.0071886792 -0.00127 -0.0015410255
0.0026957546 -0.0003175 -0.015458974
-0.0053915093 0.00095249998 -0.011223077
-0.01767217 -0.00127 -0.011828205
-0.0047924528 0.00095249998 -0.01152564
-0.020367924 -0.0003175 0.0023923076
0.0056910375 -0.000635 -0.012433332
-0.014377358 0.00127 -0.0015410255
0.030252358 0.00127 -0.0018435896
0.015275943 0 -0.0048692306
-0.031750001 0 -0.00033076911
0.0098844338 -0.00095249998 -0.013341025
0.030851414 -0.00095249998 -0.012735897
0.027856132 0.00127 -0.012735897
0.022165094 0 -0.0024487178
0.0002995283 0 -0.014551281
-0.0047924528 0.0003175 -0.012130769
0.0098844338 -0.00127 -0.00093589729
-0.0014976416 -0.00127 -0.0021461537
0.0074882074 0.0003175 -0.014248718
0.01048349 0.00127 -0.012433332
0.0044929245 -0.00127 -0.00063333323
0.017971698 -0.0003175 -0.0081974352
0.0023962264 0.0003175 -0.009710256
0.015275943 0 0.00027435907
-0.0071886792 -0.00127 -0.013341025
-0.012280661 -0.00127 -2.8205015e-05
0.005091981 0 -0.0084999995
0.018570755 0.00127 -0.01152564
0.0047924528 -0.0003175 -0.011223077
0.012280661 0.00127 -0.013038461
0.0035943396 -0.00127 -0.0021461537
0.011382075 0.00127 -0.012433332
0.014676887 0 -0.013341025
0.0026957546 0 -0.0036589741
0.005091981 0.0003175 -0.017879486
0.0005990566 0.00095249998 -2.8205015e-05
0.025759434 -0.00127 -0.012130769
-0.018570755 0.00127 -0.012130769
-0.014676887 -0.00095249998 -0.013341025
0.010783019 -0.00127 -0.012433332
0.018271226 -0.0003175 -2.8205015e-05
-0.011382075 0.00127 -0.0012384614
-0.0074882074 -0.0003175 -0.0039615384
0.031450473 -0.00095249998 -0.0018435896
-0.015575471 0 -2.8205015e-05
0.0077877357 -0.0003175 0.0014846155
-0.027856132 -0.0003175 -0.014853845
0.021865565 -0.00127 -0.00033076911
0.010783019 0.00127 -0.00033076911
-0.0065896227 0 -0.013341025
0.015275943 0.00127 -0.012130769
-0.014377358 0.00127 -0.0021461537
-0.0098844338 0.00127 -0.0018435896
-0.012580189 0.0003175 -0.0045666662
0.02276415 0.00127 -0.01152564
-0.026957547 -0.00095249998 -0.013341025
0.015575471 -0.00127 -0.012735897
-0.0023962264 -0.0003175 0.0026948717
-0.031450473 0.000635 -0.00063333323
0.0008985849 -0.000635 -0.013341025
-0.025459906 -0.0003175 0.00057692319
-0.0077877357 -0.0003175 -0.006079487
-0.030252358 0 -0.01515641
0.0089858491 0.00127 -0.00093589729
0.0002995283 -0.000635 -0.01152564
-0.021566037 -0.0003175 -0.0021461537
-0.026358491 0.000635 -0.013341025
-0.012280661 0 -0.0024487178
0.0020966982 0.00127 -0.012735897
-0.0083867926 0.00127 -0.012130769
-0.022165094 0.0003175 -2.8205015e-05
-0.0026957546 0 0.00057692319
-0.012879717 -0.0003175 -0.0045666662
0.0047924528 0.0003175 -0.01152564
-0.024561321 0 -0.011223077
-0.013778302 -0.00127 -0.013038461
-0.0002995283 -0.0003175 -0.013643589
0.0053915093 0.00127 -0.0015410255
-0.0056910375 -0.0003175 -2.8205015e-05
-0.010183962 0.0003175 0.0011820514
0.0017971698 0.0003175 -0.013341025
0.0029952831 0.000635 -0.013643589
0.005091981 0.0003175 -0.0048692306
-0.0083867926 -0.00127 -0.0015410255
0.020068396 0.00127 -2.8205015e-05
0.027856132 0 -0.0051717944
0.013778302 -0.00127 -0.013038461
0.012879717 0.0003175 0.0011820514
0.031450473 0 -0.00033076911
-0.012879717 0.0003175 0.0026948717
0.016474057 -0.0003175 -0.011223077
-0.0095849056 0.000635 -0.0021461537
-0.031750001 -0.0003175 -0.00093589729
0.026058963 -0.0003175 -0.013341025
-0.023363207 -0.00127 -0.012130769
-0.0026957546 -0.0003175 -0.0084999995
0.0020966982 0.00127 -2.8205015e-05
-0.0029952831 -0.00127 -0.00063333323
-0.0026957546 0 -0.013946153
-0.012580189 0 -0.014853845
0.014976415 0.0003175 -0.0048692306
-0.031450473 -0.00095249998 -0.0012384614
0.031750001 0 -0.00093589729
0.0053915093 -0.00127 -0.01152564
-0.02486085 0.00095249998 -0.00033076911
0.0002995283 0 -0.0024487178
0.029653301 0.000635 -0.00033076911
-0.023363207 -0.0003175 -0.0021461537
-0.014377358 -0.00127 -0.012433332
0.030252358 0 -0.019392308
0.025459906 -0.0003175 0.0023923076
-0.029353773 0.00127 -0.0018435896
-0.0095849056 0.0003175 -0.011223077
0.023063678 0.000635 -0.0024487178
0.012879717 0.0003175 -0.010920512
-0.010183962 0 -0.0088025639
