# .PCD v0.7 - Point Cloud Data file format
VERSION 0.7
FIELDS x y z
SIZE 4 4 4
TYPE F F F
COUNT 1 1 1
WIDTH 1171
HEIGHT 1
VIEWPOINT 0 0 0 1 0 0 0
POINTS 1171
DATA ascii
0.0014527568 -0.0019348824 -0.0093103452
-0.0017755916 -0.0016930221 -0.00745977
-0.00088779582 -0.0022573627 -0.0028735632
-0.0020984265 0.0012093014 -0.0076206895
0.0021791353 -0.0011286814 -0.002954023
-0.0016141742 0.0018542622 -0.002954023
0.0023405526 0.00072558085 -0.0060114944
0.0023405526 0.00072558085 -0.0061724139
0.0024212613 0.0002418603 -0.0076206895
0.001694883 -0.0017736421 -0.00745977
0.0023405526 0.00056434068 -0.0060114944
-0.00096850458 0.0022573627 -0.010034483
-0.0023405526 0.00048372059 -0.00086206896
0.0021791353 0.0011286814 -0.0033563219
-0.0016141742 0.0015317819 -0.00029885059
0.000564961 -0.0023379829 -0.0041609197
0.0020177178 0.0013705416 -0.0028735632
-0.0016141742 0.0018542622 -0.0085862065
0.0020177178 0.0012899216 -0.010114943
0 -0.0018542622 -0.01083908
-0.0020177178 -0.0012899216 -0.0058505749
0.002259844 -0.00096744118 -0.0054482757
0.002259844 0.00080620096 -0.0089885062
-0.00096850458 0.0015317819 -0.010758621
-0.00096850458 0.0022573627 -0.0068965517
-0.0021791353 -0.0011286814 -0.0025517242
0.0012106306 0.0020155024 -0.00078160921
-0.00096850458 -0.0022573627 -0.002632184
-0.00072637841 -0.0023379829 -0.0085057467
-0.0015334656 -0.0018542622 -0.0039195404
-0.0023405526 -0.00064496079 -0.0033563219
-0.00072637841 0.00040310048 -0.01091954
0.00088779582 -0.0021767425 -0.00045977012
-0.0012106306 0.0020961226 -0.0083448272
-0.00080708711 0 -0.01091954
0.0017755916 0.0016930221 -0.0024712645
8.0708713e-05 0.0024186028 -0.0027931035
-0.0018563004 -0.0015317819 -0.0031954022
0.0023405526 0.00064496079 -0.0014252873
0.0020177178 -0.0013705416 -0.0011034483
0.002259844 -0.00088682107 -0.0040804599
0.00072637841 -0.0023379829 -0.0028735632
0.00072637841 -0.0023379829 -0.0045632184
-0.0013720482 0.0012899216 -0.01083908
0.00096850458 -0.0022573627 -0.0065747127
-0.00072637841 -0.0023379829 -0.008425287
-0.00040354356 -0.0016124019 -0.00013793104
-0.0023405526 0.00048372059 -0.010356322
0.0015334656 0.0017736421 -0.0005402299
0.0012106306 -0.0020961226 -0.0078620687
-0.00088779582 0.00088682107 -5.7471265e-05
-0.0006456697 -0.0023379829 -0.0052873562
0.00048425229 0.0023379829 -0.010034483
-0.0006456697 -0.0022573627 -0.0005402299
-0.0024212613 -0.00040310048 -0.010678161
0.0021791353 0.0010480613 -0.003678161
0.00040354356 0.0002418603 -0.01091954
-0.0018563004 -0.0015317819 -0.0077816094
-0.00040354356 0.00096744118 -0.01091954
-0.00072637841 0.0023379829 -0.0035172415
-0.0016141742 0.0018542622 -0.0041609197
0.0020984265 -0.0012093014 -0.0012643678
0.00024212615 0.0024186028 -0.0048045977
0.000564961 0.0023379829 -0.002229885
-0.0013720482 -0.0020155024 -0.002954023
-0.0018563004 -0.0015317819 -0.0095517244
-0.000564961 0.0023379829 -0.0017471265
0.0023405526 -0.00032248039 -0.00045977012
0.00096850458 -0.0022573627 -0.0086666662
-0.0021791353 0.0010480613 -0.0056091952
0.001694883 0.0017736421 -0.0049655172
0.0020177178 -0.0013705416 -0.0094712647
-0.0018563004 0.0015317819 -0.0010229885
-0.0023405526 0.00072558085 -0.0099540232
-0.0023405526 -0.00048372059 -0.0075402297
0.0023405526 -0.00072558085 -0.0094712647
0.0018563004 0.0015317819 -0.0023103447
0.0023405526 0.00056434068 -0.0057701147
0.0020984265 -0.0012093014 -0.010114943
0.002259844 0.00080620096 -0.010517241
-0.0018563004 -0.0016124019 -0.0095517244
0.0020984265 -0.0012093014 -0.010758621
-0.0012106306 0.0020961226 -0.010597701
0.0023405526 -0.00072558085 -0.0097126439
-0.00096850458 8.0620099e-05 0.0021954023
-0.00032283485 0.0024186028 -0.0015057471
-0.00088779582 -0.00072558085 -5.7471265e-05
0.0023405526 -0.00048372059 -0.0057701147
-0.0023405526 -0.00064496079 -0.0040804599
-0.0019370092 -0.0014511617 -0.0096321842
0 -0.0024186028 -0.010678161
0.002259844 0.00088682107 -0.0099540232
0.0020984265 0.0012093014 -0.0082643675
0.0024212613 -0.0001612402 -0.0035977012
-0.0013720482 0.0020155024 -0.010034483
0.00032283485 0.0024186028 -0.0069770114
0.0014527568 -0.0016930221 -0.010758621
-0.0015334656 0.0018542622 -0.0091494257
-0.001694883 0.0017736421 -0.010275862
-0.0012913394 0.0020155024 -0.0065747127
-0.0010492132 -0.0021767425 -0.0097931037
8.0708713e-05 0.00064496079 -5.7471265e-05
-0.0023405526 0.00048372059 -0.010034483
-0.001694883 0.00088682107 -0.00029885059
-0.00072637841 0.0023379829 -0.0081839077
-0.000564961 0.00048372059 -0.01091954
0.00080708711 -0.0022573627 -0.0069770114
-0.0015334656 0.00072558085 -0.00013793104
0.0024212613 8.0620099e-05 -0.001908046
0.002259844 0.00080620096 -0.0014252873
-0.001129922 0.0021767425 -0.0089080464
-0.000564961 0.0013705416 -5.7471265e-05
0.0012913394 -8.0620099e-05 -0.01083908
0.0020177178 -0.0012899216 -0.010517241
0.0023405526 -0.00056434068 -0.0035977012
-0.0010492132 -0.0001612402 0.0013908047
-0.000564961 0.0023379829 -0.010114943
-0.00040354356 0.0024186028 -0.0045632184
-0.0020177178 -0.0012899216 -0.0070574712
-0.0020177178 0.0012899216 -0.0027931035
-8.0708713e-05 0.0024186028 -0.0059310347
-0.000564961 0.0023379829 -0.0081839077
0.00024212615 0.0024186028 -0.0052068965
-0.0020177178 0.0013705416 -0.0097126439
0.0023405526 0 -0.00029885059
0.002259844 0.00096744118 -0.005689655
-0.00088779582 8.0620099e-05 0.0025172413
-0.001694883 0.0010480613 -0.00029885059
-0.00096850458 -0.00056434068 -0.00013793104
0.0017755916 0.0016930221 -0.0095517244
-0.0024212613 -0.00032248039 -0.0042413794
-0.0020984265 -0.0011286814 -0.00086206896
-0.0024212613 -0.00032248039 -0.0039195404
0.0012913394 -0.0020155024 -0.0077011492
-0.0012913394 -0.00048372059 -5.7471265e-05
0.0023405526 0.00064496079 -0.0072988505
0.0024212613 0.00032248039 -0.0063333334
-0.001129922 -0.0021767425 -0.0095517244
0.0024212613 -0.00032248039 -0.0081839077
-0.0020177178 -0.0012899216 -0.0016666667
8.0708713e-05 -0.00096744118 -5.7471265e-05
0.0024212613 -0.0002418603 -0.0024712645
-0.0012913394 0.00080620096 -0.01083908
0.0020177178 0.0012899216 -0.0031954022
0.00088779582 0 0.00042528735
0.0014527568 0.00032248039 -5.7471265e-05
0.0020177178 -0.0012899216 -0.0076206895
0.0012913394 -0.00080620096 -5.7471265e-05
0.0016141742 -0.0018542622 -0.0020689655
-0.0020984265 -0.0012093014 -0.002954023
0.0021791353 0.0010480613 -0.0013448276
8.0708713e-05 -0.0024186028 -0.0042413794
-0.0020984265 -0.0012093014 -0.0049655172
0 -0.0024186028 -0.002954023
0.0024212613 0.00032248039 -0.0048045977
-0.0012913394 -0.0014511617 -0.01083908
-0.001694883 0.0017736421 -0.0072183907
0 0.0024186028 -0.0038390805
-0.0016141742 0.0017736421 -0.00045977012
-0.0017755916 0.0016930221 -0.0094712647
-0.0020984265 0.0012093014 -0.0030344827
-0.0023405526 0.00064496079 -0.010436782
0.0019370092 -0.00080620096 -0.010758621
0.0014527568 -0.0018542622 -0.00078160921
0.0021791353 -8.0620099e-05 -0.00029885059
0.0024212613 -0.00040310048 -0.0010229885
-0.0021791353 -0.0011286814 -0.003275862
0.00048425229 -0.0014511617 -0.010758621
0.00048425229 -0.0023379829 -0.0081839077
-0.0024212613 0.00032248039 -0.003678161
8.0708713e-05 -0.0020155024 -0.010758621
-0.0015334656 -0.0018542622 -0.004724138
0.00024212615 0.0024186028 -0.010034483
-0.000564961 0.0016124019 -0.00013793104
-0.0018563004 -0.0016124019 -0.0055287355
0.0018563004 0.0015317819 -0.0063333334
-0.0018563004 0.00048372059 -0.00029885059
-0.0010492132 0.00048372059 -5.7471265e-05
0.00048425229 0.00080620096 -0.01091954
-0.0023405526 0.00048372059 -0.0055287355
0.0014527568 -0.00088682107 -0.01083908
0.0015334656 -0.0018542622 -0.002632184
0.0012106306 -0.0020961226 -0.0097126439
-0.0014527568 0.00080620096 -0.00013793104
0.00040354356 -0.0015317819 -0.010758621
0.0015334656 0.0018542622 -0.005689655
-0.0018563004 0.0016124019 -0.0072183907
-0.0012913394 0.00032248039 -0.01083908
0.0023405526 -0.00064496079 -0.0052873562
0.00040354356 -0.0024186028 -0.0072183907
-0.0023405526 0.00048372059 -0.010517241
-0.0010492132 -0.0021767425 -0.0043218392
-0.0016141742 -0.0018542622 -0.002954023
-0.0014527568 0.0019348824 -0.0016666667
8.0708713e-05 0.0024186028 -0.0013448276
-0.0023405526 0.00064496079 -0.0030344827
0.000564961 0.0023379829 -0.0037586207
-0.00040354356 -0.0023379829 -0.0007011494
-0.0016141742 0.0018542622 -0.0093103452
0.0012913394 -0.00056434068 -5.7471265e-05
-0.001129922 0.0016930221 -0.010758621
0.0018563004 -0.0015317819 -0.0025517242
-0.00048425229 -0.0023379829 -0.0072988505
-0.0020177178 -0.00032248039 -0.00029885059
0.00080708711 -0.0022573627 -0.0015862068
0.00088779582 -0.0022573627 -0.0063333334
-0.0020177178 -0.0012899216 -0.0042413794
-0.0016141742 0.0018542622 -0.010114943
-0.000564961 -0.0012899216 -5.7471265e-05
0.0012913394 0.0020155024 -0.0035977012
0.0015334656 0.0018542622 -0.0060114944
0.0020984265 -0.00080620096 -0.010758621
-0.0021791353 0.0011286814 -0.0038390805
-0.0024212613 0.00032248039 -0.0093103452
-0.0024212613 8.0620099e-05 -0.003678161
0.00088779582 -0.0022573627 -0.0062528737
-0.0016141742 0.0018542622 -0.0070574712
-0.0023405526 -0.00056434068 -0.0051264367
-0.0014527568 0.0019348824 -0.0010229885
-0.0017755916 -0.0016930221 -0.0017471265
0.0014527568 -0.0001612402 -0.01083908
-0.0006456697 -0.0023379829 -0.010758621
-0.00048425229 0.0023379829 -0.0058505749
-0.001129922 0.0021767425 -0.0055287355
0.0023405526 -0.00056434068 -0.0081839077
-0.0021791353 -0.0011286814 -0.0037586207
0.0019370092 -0.0014511617 -0.0030344827
-0.0012106306 0.0012899216 -0.010758621
0.0024212613 0 -0.0067356322
0.000564961 -0.0023379829 -0.0091494257
0.0024212613 0.00040310048 -0.0052873562
0.0018563004 0.0016124019 -0.0073793102
0.0021791353 0.0010480613 -0.008103448
-0.0024212613 0.0002418603 -0.0054482757
0.00088779582 -0.0011286814 -0.01083908
-0.0021791353 -0.0010480613 -0.0088275867
0.0018563004 0.0015317819 -0.0076206895
-0.0024212613 -0.0002418603 -0.0025517242
0.00016141743 -0.0023379829 -0.0005402299
0.00096850458 0.0010480613 -5.7471265e-05
-0.0019370092 -0.0014511617 -0.001908046
0.001129922 -0.0021767425 -0.0044022989
0.0024212613 -0.0002418603 -0.00086206896
-0.00088779582 -0.00048372059 -0.01091954
0.001129922 0.00040310048 -5.7471265e-05
0.0023405526 -0.00056434068 -0.0011034483
0.0024212613 0.00032248039 -0.0097931037
0.0024212613 0 -0.0086666662
-0.0014527568 0.0019348824 -0.005045977
0.0017755916 -0.0015317819 -0.0005402299
-8.0708713e-05 0.0024186028 -0.0079425285
0.0013720482 -0.0020155024 -0.0069770114
0.00040354356 -0.00048372059 -0.01091954
-0.0006456697 -0.0020961226 -0.010758621
0.0023405526 0.0001612402 -0.0005402299
0.001129922 0.0021767425 -0.004724138
-0.00024212615 -0.0024186028 -0.010356322
-0.0024212613 0.00040310048 -0.0031954022
-0.0013720482 0.0020155024 -0.0016666667
0.001129922 -0.0021767425 -0.010758621
0.00088779582 0 0.0020344828
-0.00024212615 -0.00096744118 -5.7471265e-05
-0.0010492132 -0.0021767425 -0.0061724139
-0.0020177178 0.0013705416 -0.0099540232
0.00072637841 -0.0019348824 -0.00029885059
-0.0023405526 0.00040310048 -0.00045977012
0.0015334656 -0.0018542622 -0.0060114944
-0.00080708711 -0.0022573627 -0.0095517244
-0.0016141742 0.0018542622 -0.0063333334
-0.0020177178 -0.00040310048 -0.00029885059
0.00040354356 0.0013705416 -5.7471265e-05
0.0024212613 0.0002418603 -0.0080229882
0.00096850458 0.0019348824 -0.010758621
-0.0010492132 -0.0021767425 -0.0027931035
-0.00016141743 -0.0012899216 -0.01091954
-0.002259844 -0.00088682107 -0.0085057467
-0.0017755916 0.0016930221 -0.002229885
0.0016141742 0.00072558085 -0.010758621
0.0012913394 0.0020155024 -0.0097931037
0.0018563004 -0.0016124019 -0.008747126
0.0023405526 0.00048372059 -0.0030344827
-0.00088779582 0.0022573627 -0.0091494257
0.00032283485 0.0024186028 -0.0019885057
-0.0016141742 -0.0018542622 -0.0038390805
-0.0010492132 -0.0021767425 -0.0013448276
-0.0020177178 -0.0013705416 -0.0051264367
-0.0019370092 -0.0014511617 -0.0060919542
0.00088779582 -0.0022573627 -0.0076206895
0.0024212613 -0.0001612402 -0.010195402
-0.0024212613 -0.00032248039 -0.0072988505
-0.00040354356 0.0024186028 -0.002954023
0.0014527568 -0.0019348824 -0.0023908047
-0.00040354356 -0.00032248039 -5.7471265e-05
0.0019370092 0.00056434068 -0.00029885059
-0.00072637841 0.0023379829 -0.0054482757
0 0.0024186028 -0.0079425285
0.00072637841 0.0023379829 -0.0055287355
0.0019370092 0.00096744118 -0.00029885059
-0.0013720482 -0.0020155024 -0.0027931035
-0.002259844 -0.00080620096 -0.0033563219
-0.001694883 0.0015317819 -0.00029885059
-0.002259844 0.00096744118 -0.010678161
0.0013720482 0.0020155024 -0.0014252873
0.0014527568 -0.0017736421 -0.00029885059
0.00088779582 0.0022573627 -0.0067356322
-0.0018563004 0.0016124019 -0.00745977
0.0014527568 0.0019348824 -0.005367816
0.0021791353 0.0011286814 -0.0015862068
0.002259844 -0.00096744118 -0.0073793102
0.0015334656 0.0013705416 -0.00029885059
0.0021791353 0.0011286814 -0.010275862
-0.0015334656 -0.0018542622 -0.001908046
-0.00016141743 0.0024186028 -0.0095517244
-0.00016141743 0.0024186028 -0.0068160919
-0.00016141743 0.0024186028 -0.0077816094
0.0017755916 0.0010480613 -0.010758621
-0.0014527568 0.0010480613 -0.01083908
0 0.0020961226 -0.00029885059
-0.0012106306 0.0012899216 -0.00013793104
0.0010492132 -0.0021767425 -0.010758621
0.0018563004 0.0015317819 -0.0051264367
0.0012913394 -0.0020155024 -0.0042413794
-0.0021791353 -0.0011286814 -0.005689655
0.00080708711 0.0022573627 -0.00037931034
0.0006456697 -0.0002418603 -0.01091954
-0.0024212613 -0.0001612402 -0.0058505749
0.0010492132 0.0001612402 0.00026436782
-0.0024212613 8.0620099e-05 -0.0058505749
0.00072637841 -0.0023379829 -0.010758621
0.00048425229 0.0020961226 -0.00029885059
-0.0024212613 8.0620099e-05 -0.00094252871
-0.00024212615 0.00040310048 -0.01091954
0.001129922 0.0021767425 -0.0035172415
0.0006456697 0.0023379829 -0.0038390805
0.0016141742 -0.0013705416 -0.00029885059
-8.0708713e-05 0.0024186028 -0.010758621
0.00032283485 -0.0024186028 -0.0024712645
-0.0023405526 -0.00056434068 -0.0012643678
-0.0019370092 -0.0014511617 -0.0085057467
0.002259844 0.00080620096 -0.0021494252
-0.001694883 -0.0017736421 -0.0040000002
-0.00048425229 0.0023379829 -0.0099540232
8.0708713e-05 0.0024186028 -0.00029885059
0.0023405526 -0.00056434068 -0.0052873562
0.0024212613 0.0001612402 -0.0040804599
0.0010492132 0.0020961226 -0.010758621
0.00096850458 0.0022573627 -0.0025517242
-0.0024212613 0.0002418603 -0.0021494252
0.0016141742 -0.0018542622 -0.0054482757
0.0021791353 -0.0011286814 -0.0012643678
8.0708713e-05 0.0024186028 -0.0088275867
-0.0012106306 0.00056434068 -0.01083908
0.00096850458 0.0022573627 -0.0010229885
-0.0014527568 0.0013705416 -0.00029885059
0.0018563004 0.0015317819 -0.0077011492
0.002259844 -0.00088682107 -0.00086206896
0.00048425229 -0.0023379829 -0.0044022989
-0.00040354356 0.0024186028 -0.0056091952
0.0020177178 -0.0012899216 -0.0063333334
-0.00024212615 0.0024186028 -0.0076206895
-0.0021791353 0.0010480613 -0.0040000002
-0.00040354356 0.0023379829 -0.00029885059
-0.00088779582 0.00080620096 -0.01083908
-0.00040354356 0.0024186028 -0.0086666662
0.002259844 0.00088682107 -0.002954023
-0.00040354356 -0.00072558085 -0.01091954
-0.00040354356 -0.0024186028 -0.0048045977
0.0012913394 -0.00064496079 -5.7471265e-05
0.00040354356 -0.0024186028 -0.0017471265
-0.0024212613 0.00032248039 -0.00078160921
0.0016141742 -0.0018542622 -0.002954023
-0.002259844 0.00096744118 -0.0068160919
0.0016141742 -0.0018542622 -0.0063333334
-0.0016141742 0.0013705416 -0.00029885059
-0.0016141742 -0.0018542622 -0.0077816094
0.00088779582 0.0022573627 -0.0097126439
0 0.0024186028 -0.0045632184
-0.0020984265 -0.0012093014 -0.0056091952
0.001129922 0.0001612402 0.00058620691
-0.0017755916 -0.0016930221 -0.00094252871
-0.002259844 -0.00096744118 -0.0052068965
0.0014527568 -0.0018542622 -0.00045977012
-0.0017755916 0.0016930221 -0.0099540232
0.00096850458 0.0022573627 -0.010436782
-0.0015334656 -0.0018542622 -0.0048045977
0.0020177178 -0.00080620096 -0.010758621
0.002259844 -0.00080620096 -0.0093103452
-0.0020984265 0.0012093014 -0.003275862
0.0010492132 0.0021767425 -0.0098735634
0.0014527568 -0.0019348824 -0.0043218392
0.00096850458 0.0021767425 -0.00045977012
-0.0024212613 0.00032248039 -0.0041609197
-0.0015334656 0.0018542622 -0.0010229885
0.0019370092 -0.00040310048 -0.00029885059
-0.00032283485 0.0024186028 -0.00094252871
0.0019370092 -0.00072558085 -0.00029885059
-0.0023405526 -0.00056434068 -0.0066551724
0.0020984265 0.0012093014 -0.010436782
-0.0018563004 -0.0015317819 -0.0069770114
0.0012913394 -0.0020155024 -0.0073793102
0.0012106306 -0.0020961226 -0.0028735632
-0.0021791353 -0.0011286814 -0.0099540232
-0.002259844 0.00088682107 -0.0040804599
-0.0016141742 -0.0018542622 -0.010597701
0.0018563004 -0.0016124019 -0.0086666662
0.0014527568 -0.0017736421 -0.0005402299
-0.0023405526 0.00056434068 -0.0021494252
0.00024212615 0.0024186028 -0.0097931037
-0.00080708711 0.0022573627 -0.0060114944
0.00096850458 0.0017736421 -0.010758621
0.000564961 -0.00064496079 -0.01091954
-0.00048425229 -0.0010480613 -0.01091954
0.0006456697 0.0023379829 -0.0046436782
8.0708713e-05 -0.0024186028 -0.0024712645
-0.0024212613 0.00040310048 -0.0060919542
-8.0708713e-05 0.0012093014 -5.7471265e-05
-0.002259844 0.00096744118 -0.0094712647
-0.00072637841 0.0023379829 -0.0051264367
-0.00016141743 0.0024186028 -0.0070574712
-0.0012106306 -0.0020961226 -0.0078620687
0.0015334656 0.0018542622 -0.0081839077
0.001694883 -0.0017736421 -0.0011839081
-8.0708713e-05 0.0014511617 -0.01083908
-0.0023405526 0.00048372059 -0.0067356322
0.00032283485 -0.0024186028 -0.0044827587
-0.002259844 0.00080620096 -0.0089885062
0 0.0024186028 -0.0011034483
-0.0014527568 0.0019348824 -0.0061724139
-0.0021791353 -0.0010480613 -0.0049655172
0.0021791353 -0.0011286814 -0.0091494257
0.0024212613 -0.00040310048 -0.0092298854
-0.0014527568 -0.0019348824 -0.005045977
-0.00072637841 -8.0620099e-05 -5.7471265e-05
0.0010492132 0.0021767425 -0.0017471265
0.0024212613 -0.00040310048 -0.0011839081
-0.0010492132 0.00080620096 -5.7471265e-05
-0.0023405526 0.00056434068 -0.008103448
-0.001129922 0.00088682107 -0.01083908
8.0708713e-05 -0.0024186028 -0.0025517242
0.001694883 0.0017736421 -0.0017471265
-0.00088779582 0.0022573627 -0.0025517242
-0.0016141742 -0.0018542622 -0.0097931037
-0.00072637841 0.0023379829 -0.0025517242
0.00096850458 0.0022573627 -0.0014252873
0.0012106306 -0.0016124019 -0.010758621
0.0014527568 0.0019348824 -0.002632184
-0.0023405526 0.00048372059 -0.0095517244
0.000564961 0.00056434068 -5.7471265e-05
0.0023405526 0.00048372059 -0.0038390805
0.0018563004 0.0015317819 -0.0083448272
-0.0010492132 0.0021767425 -0.0044827587
0.00088779582 -8.0620099e-05 -0.01091954
-0.00040354356 -0.0024186028 -0.0058505749
0.00032283485 -0.0024186028 -0.0077816094
-0.00040354356 0.0024186028 -0.0052873562
-0.0021791353 0.0010480613 -0.0096321842
-0.002259844 -0.00080620096 -0.00029885059
-0.0016141742 -0.0015317819 -0.00029885059
0.00080708711 0.0022573627 -0.0030344827
8.0708713e-05 -0.0024186028 -0.0058505749
0.0006456697 0.0023379829 -0.00029885059
-0.0023405526 -0.00072558085 -0.0010229885
0.0024212613 -0.00032248039 -0.0013448276
-0.00048425229 0.0023379829 -0.0012643678
0.00032283485 0.0024186028 -0.010195402
-0.0020984265 0.0012093014 -0.0093103452
-8.0708713e-05 -0.0002418603 -0.01091954
0.0014527568 -0.0019348824 -0.0059310347
-8.0708713e-05 0.0023379829 -0.00029885059
0.0024212613 -0.0002418603 -0.0014252873
0.0020177178 0.0013705416 -0.0046436782
0.000564961 -0.0023379829 -0.0092298854
-0.00016141743 -0.0024186028 -0.0054482757
0.0019370092 0.00056434068 -0.010758621
-0.001129922 -0.0013705416 -0.01083908
-0.0013720482 -0.0020155024 -0.0028735632
-0.0021791353 -0.0010480613 -0.0014252873
-0.0013720482 0.00064496079 -5.7471265e-05
0.0012106306 -0.0012093014 -0.00021839081
-0.002259844 0.00088682107 -0.0078620687
-0.00016141743 -0.0024186028 -0.0055287355
0.001129922 0.0021767425 -0.0023908047
-0.00016141743 -0.0024186028 -0.003275862
0.00096850458 -0.00096744118 -0.01083908
0.0021791353 -0.0010480613 -0.0013448276
0.00080708711 -0.0022573627 -0.002229885
0.0023405526 0.00072558085 -0.0079425285
-0.00016141743 0.0023379829 -0.0007011494
0.00080708711 8.0620099e-05 0.0028390805
-0.0023405526 -0.00064496079 -0.0019885057
8.0708713e-05 -0.0024186028 -0.00745977
0.0018563004 -0.0016124019 -0.0066551724
0.00032283485 0 -0.01091954
-0.00072637841 0.0023379829 -0.0016666667
0.002259844 0.00096744118 -0.0049655172
-0.0023405526 -0.00072558085 -0.0065747127
0.00088779582 -0.0014511617 -0.00013793104
0.001694883 0.0017736421 -0.008425287
0.001129922 -0.0021767425 -0.0031149425
-0.0019370092 -0.0014511617 -0.00094252871
0.0024212613 0 -0.0030344827
-0.00072637841 0.0023379829 -0.0099540232
-0.0020177178 -0.0012899216 -0.0012643678
0.0010492132 0.0001612402 0.00082758622
0.002259844 -0.00088682107 -0.010597701
0.002259844 0.00088682107 -0.010356322
-0.001129922 -0.0021767425 -0.0097126439
-0.00016141743 -0.0018542622 -0.01083908
-0.0017755916 0.0016930221 -0.00094252871
0.0020177178 -0.00048372059 -0.010758621
-0.0014527568 0.0019348824 -0.007137931
0.0019370092 0.00072558085 -0.010758621
-0.00016141743 0.0024186028 -0.0025517242
0.0023405526 0.00072558085 -0.0035172415
-8.0708713e-05 0.0023379829 -0.0005402299
-0.0020177178 -0.0013705416 -0.008747126
0.00016141743 0.0013705416 -5.7471265e-05
-0.0024212613 -0.0001612402 -0.0040000002
-0.0017755916 -0.0010480613 -0.00029885059
-0.00088779582 -0.00064496079 -5.7471265e-05
-0.0019370092 -0.0012093014 -0.00078160921
0.0023405526 0.00072558085 -0.0015057471
-0.0024212613 0.0002418603 -0.0060919542
0.0018563004 -0.00032248039 -0.01083908
-0.00048425229 -8.0620099e-05 -5.7471265e-05
0.0024212613 0 -0.0097126439
0.00088779582 -0.0018542622 -0.00029885059
0.00072637841 -0.0023379829 -0.0049655172
-0.0010492132 -0.0021767425 -0.010356322
-0.001129922 0.0021767425 -0.0011839081
0.001129922 0.0021767425 -0.0060114944
0.0021791353 0.00064496079 -0.00029885059
0.0021791353 -0.0011286814 -0.0092298854
0 0.0024186028 -0.007137931
-0.0015334656 -0.0018542622 -0.0076206895
-0.0023405526 0.00048372059 -0.002632184
8.0708713e-05 0.0024186028 -0.0015057471
0.00040354356 0.0024186028 -0.0098735634
-0.00032283485 -0.0024186028 -0.005689655
0.001694883 -0.0017736421 -0.0031954022
0.0020177178 0.0012899216 -0.0058505749
-0.002259844 -0.00096744118 -0.005045977
0.0013720482 -0.0020155024 -0.0082643675
0.0021791353 -0.0011286814 -0.0044827587
-0.00016141743 0.0010480613 -5.7471265e-05
0.0012913394 -0.0019348824 -0.0005402299
-0.0023405526 -0.00048372059 -0.0015057471
0.00032283485 -0.0024186028 -0.0082643675
-0.00096850458 -0.0022573627 -0.0024712645
-0.0020177178 -0.0013705416 -0.0017471265
0.0010492132 -0.00064496079 -0.01083908
0.00032283485 -0.0024186028 -0.0044022989
0.0023405526 -0.00048372059 -0.0014252873
-0.002259844 -0.00088682107 -0.0063333334
8.0708713e-05 0.0024186028 -0.0028735632
-0.00016141743 -0.0024186028 -0.0040000002
-0.0012106306 0.0017736421 -0.00029885059
0.0012106306 0.0020961226 -0.0079425285
0.0014527568 0.0019348824 -0.010436782
-0.0024212613 0 -0.0065747127
0.0024212613 -0.0001612402 -0.0085057467
-0.00096850458 -0.0022573627 -0.0055287355
-0.0012913394 -0.00096744118 -0.01083908
8.0708713e-05 0.0024186028 -0.010195402
-0.0017755916 0.0016124019 -0.010758621
0.001694883 -0.0017736421 -0.0064137932
0.0024212613 0.00032248039 -0.0015862068
-0.0018563004 -0.0013705416 -0.00062068965
0.0013720482 0.00056434068 -0.010758621
0.0018563004 0.0015317819 -0.0048045977
0.0018563004 0.0015317819 -0.0093908049
-0.0013720482 0.0020155024 -0.010195402
0.0016141742 -0.0018542622 -0.010034483
0.0019370092 -0.0014511617 -0.0033563219
-0.0012106306 0.0020961226 -0.003678161
-0.0017755916 0.0016930221 -0.0064942529
-0.0021791353 0.0010480613 -0.008425287
-0.0006456697 -0.0023379829 -0.010517241
-0.0024212613 0.00032248039 -0.0044022989
-0.001694883 8.0620099e-05 -0.00021839081
0.0012106306 -0.0020961226 -0.0091494257
-0.00016141743 -0.0014511617 -5.7471265e-05
-0.0015334656 0.00096744118 -0.00013793104
0.00088779582 0.0010480613 -5.7471265e-05
-0.0013720482 0.0020155024 -0.0089080464
-0.0024212613 0.00040310048 -0.00078160921
0.0020177178 0.0013705416 -0.0010229885
0 0.0001612402 -5.7471265e-05
-0.0020984265 0.0012093014 -0.0043218392
-0.0024212613 0.00040310048 -0.0024712645
-0.0024212613 8.0620099e-05 -0.0025517242
0.0019370092 -0.0014511617 -0.0097931037
-0.002259844 -0.00088682107 -0.0051264367
-0.00088779582 0.0021767425 -0.010758621
-0.0014527568 -0.0019348824 -0.010758621
-0.0024212613 0 -0.0088275867
-0.0020984265 -0.0012093014 -0.0027931035
-0.0021791353 -0.0010480613 -0.010436782
0.0021791353 -0.0011286814 -0.002632184
0.0024212613 0.0001612402 -0.0052873562
0.00032283485 -0.0014511617 -0.01083908
-0.0014527568 -0.0011286814 -0.00029885059
0.001129922 0.0021767425 -0.0039195404
0.0020177178 -0.0012899216 -0.0089080464
-0.0023405526 0.00072558085 -0.0031954022
-0.0024212613 -0.00032248039 -0.0019885057
-0.002259844 0.00096744118 -0.0012643678
0.0020984265 -0.0001612402 -0.010758621
-0.00080708711 -0.0011286814 -0.01091954
-0.000564961 -0.0023379829 -0.00086206896
0.00088779582 0.0015317819 -0.00013793104
-0.00080708711 0.0022573627 -0.0040000002
0.0018563004 -0.0014511617 -0.0007011494
-0.0021791353 -0.00048372059 -0.00029885059
-0.0024212613 -0.0002418603 -0.00029885059
-0.00040354356 -0.0024186028 -0.0038390805
0.0019370092 -0.0014511617 -0.0077816094
-0.0020984265 -0.0010480613 -0.0007011494
0 -0.00040310048 -0.01091954
0.00072637841 -0.0023379829 -0.0018275862
0.0024212613 -0.00032248039 -0.00078160921
-0.0021791353 0.0010480613 -0.0089885062
-0.00016141743 -0.0024186028 -0.0044827587
-0.0018563004 -0.0015317819 -0.0045632184
-8.0708713e-05 0.0002418603 -0.01091954
0.0018563004 -0.0016124019 -0.0067356322
-0.0020984265 0.0012093014 -0.0070574712
-0.0024212613 0.00040310048 -0.0055287355
-0.0018563004 -0.0015317819 -0.0068965517
0.0013720482 0.0020155024 -0.008747126
-0.0019370092 0.0014511617 -0.0062528737
0.0020177178 -0.0013705416 -0.0097931037
0.0015334656 0.0018542622 -0.002632184
-0.0010492132 -0.0021767425 -0.0063333334
0.00024212615 -0.0012093014 -5.7471265e-05
-0.0019370092 0.0014511617 -0.0089885062
-8.0708713e-05 -0.0024186028 -0.008103448
0.00048425229 -0.0023379829 -0.0085862065
0.00096850458 0.0001612402 0.0027586208
-0.00048425229 0.00088682107 -5.7471265e-05
-0.0023405526 -0.00048372059 -0.0044827587
0.00016141743 -0.0024186028 -0.010275862
-0.0024212613 0.00040310048 -0.008103448
0.0023405526 -0.00048372059 -0.0080229882
0.0012106306 0.00048372059 -0.01091954
0.00072637841 0.0023379829 -0.003678161
0.0013720482 0.0020155024 -0.00745977
-0.0020177178 0.0011286814 -0.00062068965
-0.0012106306 0.0020961226 -0.0027931035
-0.002259844 -0.00096744118 -0.0093103452
0.0010492132 -0.0021767425 -0.0038390805
0.0024212613 -0.0002418603 -0.0025517242
-0.0021791353 0.0011286814 -0.0044022989
-0.00096850458 0.0001612402 -0.01091954
-0.00032283485 0.0023379829 -0.00078160921
0.00016141743 0.0024186028 -0.00045977012
0.00024212615 -0.0024186028 -0.0043218392
0.002259844 0.0002418603 -0.010758621
-0.0024212613 -0.00032248039 -0.0055287355
0.0015334656 0 -5.7471265e-05
0.00016141743 0.0024186028 -0.0059310347
-0.0006456697 -0.0023379829 -0.0080229882
0.00096850458 0.0022573627 -0.0038390805
-0.00032283485 -8.0620099e-05 -5.7471265e-05
-0.0019370092 0.0010480613 -0.010758621
0.00048425229 0.0001612402 -0.01091954
0.0024212613 0 -0.002954023
0.0015334656 -0.0018542622 -0.0085057467
0.0010492132 -0.0021767425 -0.0049655172
0.0016141742 0.0018542622 -0.0069770114
-0.00080708711 -0.0022573627 -0.008747126
-0.0006456697 -0.0022573627 -0.00029885059
8.0708713e-05 -0.0024186028 -0.0023103447
-0.00016141743 0.0024186028 -0.0060114944
-0.0018563004 -0.0016124019 -0.004724138
-0.00048425229 -0.0016930221 -0.00013793104
-0.0006456697 -0.0023379829 -0.0034367817
-0.00016141743 -0.0023379829 -0.00062068965
0.002259844 0.00096744118 -0.0056091952
0.0018563004 -0.0016124019 -0.0034367817
-0.0024212613 -8.0620099e-05 -0.0027931035
0.00072637841 0.00072558085 -0.01091954
0.0020177178 -0.0013705416 -0.0060919542
-0.00024212615 -0.00072558085 -0.01091954
0.002259844 0.00056434068 -0.0005402299
-0.0021791353 0.0011286814 -0.0027126437
-0.00072637841 0.0023379829 -0.010678161
0.002259844 -0.00080620096 -0.0011839081
0.0024212613 -0.00040310048 -0.0093908049
8.0708713e-05 -0.0020961226 -0.010758621
0.001129922 -0.0012093014 -0.01083908
0.0013720482 -0.0011286814 -0.00021839081
0.000564961 -0.0023379829 -0.0013448276
0.0021791353 -0.0010480613 -0.0016666667
0.000564961 -0.0023379829 -0.0064137932
-0.0020984265 0.00096744118 -0.010758621
0.002259844 -0.00080620096 -0.0051264367
-0.00040354356 0.0024186028 -0.0048045977
0.00048425229 -0.00048372059 -0.01091954
0.0017755916 -0.0016930221 -0.0054482757
0.0018563004 -0.0015317819 -0.0065747127
-0.002259844 -0.00096744118 -0.0099540232
0.0024212613 0 -0.00029885059
-0.0020984265 0.0012093014 -0.00745977
-0.0012913394 0.0020155024 -0.010436782
0.002259844 -0.00080620096 -0.0094712647
0.0021791353 -0.0011286814 -0.0081839077
0.00072637841 0.0023379829 -0.0054482757
-0.0012913394 -0.0020155024 -0.005367816
0.0024212613 -0.0002418603 -0.0058505749
-0.0024212613 0.00040310048 -0.005045977
-8.0708713e-05 -0.0023379829 -0.0007011494
-0.0023405526 0.00072558085 -0.0042413794
0.0023405526 -0.00048372059 -0.0040000002
0.002259844 -0.00080620096 -0.010356322
-0.00080708711 -0.0022573627 -0.0094712647
-0.0006456697 -0.0023379829 -0.0042413794
-0.0006456697 0.00032248039 -0.00013793104
0.00040354356 0.0024186028 -0.010275862
0.00080708711 0.0022573627 -0.0012643678
-0.000564961 -0.0023379829 -0.0077816094
0.0012913394 0.0020155024 -0.0068160919
-0.001129922 -0.0021767425 -0.0078620687
0.0012913394 -0.0020155024 -0.0025517242
-0.00096850458 -0.0022573627 -0.0051264367
-0.00080708711 -0.0022573627 -0.0068160919
-0.0015334656 -0.0018542622 -0.0030344827
0.0014527568 -0.0019348824 -0.0015862068
-0.0020177178 -0.0013705416 -0.0070574712
0.0024212613 -0.00040310048 -0.0068160919
-0.0021791353 0.0010480613 -0.0042413794
-0.00024212615 -0.0002418603 -0.01091954
0.000564961 -0.0023379829 -0.010275862
-0.00072637841 0.00080620096 -5.7471265e-05
0.00016141743 -0.0024186028 -0.0046436782
0.0020177178 0.00080620096 -0.00029885059
-8.0708713e-05 0.0012899216 -5.7471265e-05
-0.00040354356 0.0017736421 -0.01083908
0.00024212615 -0.0012899216 -5.7471265e-05
-0.0006456697 0.0023379829 -0.0099540232
-0.0024212613 0.00040310048 -0.0054482757
0.001694883 -0.0002418603 -0.00021839081
-0.0012106306 -0.0020961226 -0.0065747127
0.001129922 -0.0012899216 -0.00013793104
0.001129922 0.0021767425 -0.0055287355
-0.0019370092 -0.0014511617 -0.0033563219
-0.00072637841 0.0023379829 -0.0095517244
-0.0020177178 0.0012899216 -0.0019885057
0.0024212613 0.0002418603 -0.0077011492
0.00072637841 0.0023379829 -0.010678161
0.00048425229 0.0023379829 -0.0018275862
-0.0021791353 -0.0010480613 -0.0027126437
-0.000564961 0.0023379829 -0.0024712645
0 0.0024186028 -0.0061724139
0.0010492132 0 0.0010689655
0.001694883 -0.0017736421 -0.0040000002
0.00072637841 0.0023379829 -0.0070574712
-0.00032283485 0.0024186028 -0.0017471265
-0.00072637841 0.0023379829 -0.0040804599
-0.0013720482 -0.00072558085 -0.01083908
0.00088779582 0.0021767425 -0.0007011494
-0.0006456697 0.0011286814 -0.01083908
0.0020177178 0.0013705416 -0.004724138
0.0020984265 0.0012093014 -0.0025517242
0.002259844 0.00088682107 -0.001908046
-0.0006456697 0.0023379829 -0.002229885
-0.00096850458 0.0013705416 -0.00013793104
0.0023405526 0.00056434068 -0.0073793102
-0.00032283485 -0.0024186028 -0.0023908047
-0.0010492132 0.0021767425 -0.0072183907
0.00040354356 8.0620099e-05 -5.7471265e-05
0.00032283485 -0.0024186028 -0.010114943
-0.0023405526 0.00056434068 -0.0058505749
0.0012106306 0.0020961226 -0.010678161
0.0014527568 -0.0019348824 -0.0014252873
-0.00016141743 0.0024186028 -0.0058505749
-0.0010492132 0.0021767425 -0.001908046
-0.0006456697 -0.0023379829 -0.0056091952
0 -8.0620099e-05 -5.7471265e-05
-0.000564961 0.0023379829 -0.0061724139
0.0019370092 -0.0010480613 -0.00029885059
-0.001694883 -0.00096744118 -0.00029885059
0.0023405526 0.00056434068 -0.00045977012
0.0024212613 -0.00032248039 -0.00086206896
-0.0023405526 -0.00064496079 -0.0031149425
0.0023405526 -0.00056434068 -0.00078160921
0.0020177178 -0.0013705416 -0.0054482757
-0.0018563004 0.00080620096 -0.010758621
0.0015334656 -0.0017736421 -0.00062068965
0.0013720482 0.0019348824 -0.010678161
-0.00048425229 0.0023379829 -0.008103448
-0.001694883 -0.0017736421 -0.0023103447
0.0010492132 -0.0020155024 -0.00029885059
-0.0023405526 0.00048372059 -0.0097931037
0.0006456697 -0.0023379829 -0.0072988505
-0.0016141742 -0.0018542622 -0.0085057467
-0.00040354356 0.0010480613 -5.7471265e-05
-0.00072637841 -0.0023379829 -0.0096321842
-0.00048425229 -0.0016124019 -0.01083908
-0.0023405526 0.00056434068 -0.0015057471
0.0023405526 0.00072558085 -0.0072183907
-0.0014527568 0.0019348824 -0.0085862065
0.00032283485 -0.0023379829 -0.00045977012
-0.0023405526 -0.00064496079 -0.010195402
0.0018563004 0.0016124019 -0.0024712645
0.0019370092 -0.0014511617 -0.0092298854
0.00048425229 -0.0023379829 -0.0093103452
-0.00088779582 0.0022573627 -0.0011839081
0.0024212613 0 -0.005367816
-0.0023405526 0.00048372059 -0.0038390805
-0.0015334656 0.0018542622 -0.0014252873
0.00080708711 0.00048372059 -5.7471265e-05
-0.00032283485 -0.0021767425 -0.00029885059
0.00096850458 -0.00096744118 -5.7471265e-05
-0.0023405526 -0.00072558085 -0.0082643675
0.0010492132 0 0.0024367815
0.00088779582 -0.0022573627 -0.0013448276
0.001694883 -0.0017736421 -0.0089080464
-0.0019370092 0.0014511617 -0.004724138
-0.002259844 -0.00080620096 -0.003275862
-0.001129922 -0.0014511617 -0.00013793104
0.00016141743 -0.0024186028 -0.0024712645
0.00088779582 -0.00032248039 -0.01091954
-0.0018563004 8.0620099e-05 -0.010758621
-0.00024212615 -0.0024186028 -0.0077816094
-0.00080708711 -0.00048372059 -0.01091954
-0.00024212615 -0.0024186028 -0.0083448272
0.0020177178 -0.0012899216 -0.0093908049
0.001129922 0.0001612402 0.00090804597
-0.0015334656 -0.0018542622 -0.0027126437
0.00040354356 0.0024186028 -0.0052068965
0.0015334656 0.0017736421 -0.010758621
0.0016141742 -0.0016930221 -0.00029885059
0.0020984265 0.00088682107 -0.010758621
-0.0017755916 -0.0016930221 -0.0020689655
0.001129922 0.00080620096 -0.01091954
-0.0021791353 -0.0010480613 -0.0077011492
-0.0023405526 -0.00072558085 -0.0012643678
-0.0020177178 -0.0013705416 -0.00029885059
0.0012106306 0.0020961226 -0.0035977012
0.0010492132 0.0015317819 -0.01083908
0.0023405526 0.00064496079 -0.0023103447
0 -0.0024186028 -0.0027126437
0.002259844 0.00088682107 -0.0054482757
0.0020177178 0.0012899216 -0.00029885059
-0.0024212613 -0.0002418603 -0.005689655
0.0012106306 0.0020961226 -0.010275862
-0.00016141743 -0.0024186028 -0.0052068965
0.00032283485 -0.00032248039 -0.00013793104
-0.0016141742 -0.0018542622 -0.0039195404
-8.0708713e-05 -0.0011286814 -0.01091954
-0.002259844 -0.00080620096 -0.0024712645
0.00040354356 0.0024186028 -0.00037931034
0.0017755916 -8.0620099e-05 -0.00021839081
-0.00040354356 0.0024186028 -0.0055287355
-0.0020177178 -0.0012899216 -0.0044022989
-0.0024212613 -0.0002418603 -0.0045632184
-0.0018563004 -0.0016124019 -0.0030344827
0.0020984265 0.0012093014 -0.010678161
-0.0021791353 -0.0011286814 -0.0040804599
-0.0018563004 0.0015317819 -0.0058505749
0.0024212613 0.00032248039 -0.0072988505
0.0024212613 -0.0001612402 -0.0015862068
0.00096850458 0.0022573627 -0.0020689655
0.00032283485 0.00088682107 -0.01091954
0.0012106306 -0.0020961226 -0.0018275862
0.0018563004 0.0015317819 -0.00745977
-0.0006456697 -0.0023379829 -0.0095517244
0.0024212613 0.0002418603 -0.007137931
-0.00088779582 8.0620099e-05 0.0013103448
0.0016141742 0.0014511617 -0.00029885059
0.0020984265 -0.0012093014 -0.0064942529
0.0006456697 0.0023379829 -0.0089885062
0.0023405526 0.00064496079 -0.004724138
-0.0017755916 -0.0016930221 -0.0027931035
-0.0013720482 0.0020155024 -0.0073793102
0.0012106306 -0.0020961226 -0.010356322
0.001129922 -0.0021767425 -0.0097931037
0.00096850458 0 2.2988506e-05
0.0012913394 0.0020155024 -0.010195402
8.0708713e-05 -0.0024186028 -0.0040000002
0.001129922 8.0620099e-05 0.0021149425
-0.002259844 0.00088682107 -0.0098735634
-0.00048425229 -0.0023379829 -0.0066551724
-0.00032283485 0.0024186028 -0.0097931037
0.00024212615 -0.0015317819 -0.01083908
0.0023405526 -0.00072558085 -0.0096321842
0.001694883 0.0017736421 -0.0027931035
0.0023405526 -0.00072558085 -0.0082643675
0.0012913394 0.0020155024 -0.0068965517
0.0020177178 -0.0012899216 -0.0034367817
-0.0023405526 -0.00072558085 -0.0024712645
-0.00080708711 -0.0022573627 -0.0011034483
0.002259844 -0.00080620096 -0.0025517242
-0.0010492132 -0.0021767425 -0.0082643675
-0.0006456697 0.0023379829 -0.0082643675
-0.0024212613 -0.00032248039 -0.010356322
0.00016141743 -0.0024186028 -0.00094252871
0.0006456697 -0.0023379829 -0.0017471265
-0.0014527568 -0.0019348824 -0.010517241
-0.00096850458 0.0022573627 -0.0016666667
0.00072637841 0.0023379829 -0.0052068965
-0.00024212615 0.0024186028 -0.010034483
0.0006456697 -0.0023379829 -0.0031149425
0.0020177178 0.0013705416 -0.0089885062
0.001129922 0 0.002678161
0.00032283485 0.0024186028 -0.0097931037
-0.00088779582 -0.0022573627 -0.0021494252
-8.0708713e-05 0.0024186028 -0.0080229882
-0.00096850458 0.0022573627 -0.005367816
-0.00080708711 -0.0012899216 -0.01091954
0.00032283485 -0.0024186028 -0.001908046
-0.00096850458 -0.0022573627 -0.0069770114
0.0018563004 0.0015317819 -0.0021494252
-0.0006456697 -0.0023379829 -0.001908046
-0.002259844 0.00088682107 -0.0043218392
0.000564961 0.0021767425 -0.010758621
0.0023405526 -0.00064496079 -0.0016666667
0.0017755916 -0.0016930221 -0.0066551724
-0.00096850458 -0.0022573627 -0.0061724139
0.0019370092 -0.0014511617 -0.0013448276
0.0010492132 0.0019348824 -0.00029885059
-0.001694883 0.0017736421 -0.0031954022
-0.0010492132 0.0021767425 -0.0069770114
-0.0024212613 -0.0001612402 -0.0052068965
0.00072637841 0.0014511617 -5.7471265e-05
-0.0023405526 -0.00056434068 -0.0015057471
0.0016141742 0.0018542622 -0.0031954022
0.001129922 0 0.0024367815
-0.0020984265 -0.0012093014 -0.0079425285
-0.0023405526 0.00048372059 -0.0049655172
-0.000564961 0.0023379829 -0.0096321842
-0.0023405526 0.00048372059 -0.0062528737
-0.001129922 0.0021767425 -0.0077011492
-0.0020984265 -0.00096744118 -0.010758621
-0.00032283485 0.0012093014 -5.7471265e-05
0.000564961 0.0023379829 -0.0052873562
-0.00080708711 -0.0022573627 -0.010195402
0.002259844 0.00080620096 -0.0072183907
0.00016141743 -0.0024186028 -0.0093103452
-0.001129922 0.0021767425 -0.010517241
-0.0020984265 0.00088682107 -0.00062068965
0.00080708711 0.0021767425 -0.0007011494
-0.00024212615 0.0024186028 -0.0039195404
0.0020177178 -0.0013705416 -0.0023908047
-0.00016141743 0.0024186028 -0.0018275862
-0.0014527568 -0.0019348824 -0.0089885062
-0.00080708711 -0.0022573627 -0.002954023
-0.0024212613 0 -0.0055287355
-0.0020177178 -0.0012899216 -0.0056091952
-8.0708713e-05 0.0024186028 -0.007137931
0.0024212613 -0.00040310048 -0.00745977
0.0019370092 -0.0014511617 -0.0080229882
-0.0024212613 -0.00032248039 -0.0016666667
-0.002259844 0.00096744118 -0.0061724139
0.0020984265 0.00096744118 -0.010758621
0.001129922 0.0021767425 -0.0095517244
0.0010492132 0.0021767425 -0.0088275867
-0.00024212615 -0.0024186028 -0.0020689655
-0.0020177178 -0.0012899216 -0.00045977012
-0.0020984265 0.0012093014 -0.004724138
0.00040354356 0.0022573627 -0.0005402299
-0.00080708711 -0.0002418603 -0.01091954
-0.0023405526 0.00064496079 -0.0021494252
0.0018563004 -0.0015317819 -0.0013448276
0.00048425229 -0.0023379829 -0.0056091952
0.00080708711 0.0022573627 -0.0049655172
-0.0019370092 0.0014511617 -0.010034483
-0.00016141743 0.0024186028 -0.0079425285
-0.0015334656 -0.0018542622 -0.0042413794
-0.00032283485 0.0024186028 -0.007137931
0.0015334656 0.0018542622 -0.0017471265
-0.0024212613 -8.0620099e-05 -0.0024712645
0.0020984265 -0.0012093014 -0.0073793102
0.0016141742 -0.00056434068 -0.01083908
-0.0023405526 0.00072558085 -0.0068160919
-0.0015334656 0.0018542622 -0.0035172415
-0.0019370092 -0.0014511617 -0.0069770114
-0.0016141742 -0.0018542622 -0.00037931034
0.0024212613 0.0002418603 -0.0042413794
-0.0020984265 -0.0012093014 -0.0097931037
0.002259844 -0.00080620096 -0.0082643675
-0.00032283485 -0.0012899216 -0.01091954
-0.0024212613 -0.00032248039 -0.0085057467
0.00032283485 0.0015317819 -5.7471265e-05
-0.0015334656 0.0018542622 -0.0056091952
-0.0006456697 0.0023379829 -0.0068965517
0.0012913394 0.0020155024 -0.005689655
0.0021791353 0.0011286814 -0.0041609197
-0.0015334656 -0.0018542622 -0.0021494252
0.000564961 0.0023379829 -0.0089885062
0.0014527568 0.0019348824 -0.010356322
-0.0014527568 -0.0002418603 -5.7471265e-05
0.0010492132 0.0021767425 -0.010356322
0.0024212613 -0.0001612402 -0.0067356322
0.0019370092 -0.0014511617 -0.008425287
-0.0021791353 0.0011286814 -0.0020689655
0.0023405526 -0.00072558085 -0.0042413794
0.0015334656 -0.0017736421 -0.00078160921
-0.0012913394 -0.0020155024 -0.0040804599
-0.00096850458 0.0022573627 -0.0063333334
0.0021791353 -0.00096744118 -0.010758621
-0.0012106306 0.0020961226 -0.010436782
-0.001694883 0.0017736421 -0.010597701
-0.00016141743 0.0024186028 -0.010195402
-0.0024212613 8.0620099e-05 -0.0097126439
-0.00080708711 -0.0022573627 -0.00078160921
0.00032283485 0.0024186028 -0.0072183907
-0.0020984265 0.0012093014 -0.0052068965
0.0023405526 -0.00048372059 -0.0044022989
-0.0018563004 0.0016124019 -0.0046436782
0.002259844 0.00088682107 -0.010034483
-0.0020984265 0.0012093014 -0.0097931037
-0.00016141743 -0.0024186028 -0.005045977
0.0024212613 -0.0002418603 -0.007137931
0.0012106306 0.0020961226 -0.0024712645
-0.00088779582 0.0022573627 -0.0099540232
-0.0023405526 -0.00056434068 -0.0089885062
0.0023405526 -0.00056434068 -0.0064137932
-0.001694883 0.0017736421 -0.0092298854
0.0020177178 0.0013705416 -0.0064942529
-0.002259844 -0.00096744118 -0.010114943
-0.0020177178 0.0012899216 -0.0015862068
-0.0013720482 0.0018542622 -0.0007011494
-0.00096850458 -0.0002418603 -5.7471265e-05
-0.00024212615 -0.0024186028 -0.001908046
-0.0024212613 -0.0002418603 -0.010758621
-0.00016141743 0.0024186028 -0.0031149425
0.00072637841 0.0023379829 -0.005689655
0.000564961 0.0023379829 -0.0072183907
-0.0006456697 0.0023379829 -0.0078620687
0.0014527568 0.0019348824 -0.0038390805
0.001694883 0.0017736421 -0.0013448276
0.00024212615 -0.00040310048 -0.01091954
-0.00072637841 -0.0023379829 -0.0060919542
-0.0023405526 0 -0.00062068965
-0.0021791353 0.0010480613 -0.0033563219
0.0012106306 -0.00088682107 -5.7471265e-05
-0.0021791353 8.0620099e-05 -0.00029885059
-0.0006456697 -0.0023379829 -0.008425287
-0.0006456697 -0.0023379829 -0.002229885
0.0010492132 0.0021767425 -0.0054482757
0.0024212613 -0.0001612402 -0.0023103447
0.0021791353 0.00080620096 -0.00062068965
-0.00016141743 0.0024186028 -0.0061724139
0.00024212615 -0.0024186028 -0.0092298854
0.0020984265 -0.0012093014 -0.0015862068
0.0012913394 -0.0020155024 -0.008425287
-0.001129922 0.0021767425 -0.0035172415
-0.00096850458 0.0022573627 -0.0081839077
-0.002259844 0.00080620096 -0.0095517244
-0.0020984265 -0.0012093014 -0.005045977
0.00088779582 0.0001612402 0.0015517242
-0.00080708711 -0.0022573627 -0.005367816
0.002259844 0.00080620096 -0.00029885059
-0.0017755916 -0.0016930221 -0.0040804599
-0.0023405526 -0.00048372059 -0.0060114944
-0.00096850458 0 0.002275862
-0.0024212613 0.0002418603 -0.0033563219
0.0024212613 0.00032248039 -0.0075402297
0.0014527568 0.0019348824 -0.0093908049
-0.00080708711 -0.00080620096 -5.7471265e-05
0 -0.0024186028 -0.0027931035
0.0020177178 0.0013705416 -0.0011034483
-0.0021791353 0.0010480613 -0.0098735634
-0.0020984265 0.0012093014 -0.0088275867
0.001694883 0.00080620096 -0.010758621
0.00088779582 0.0011286814 -0.01091954
0.0017755916 -0.0016930221 -0.001908046
-0.0016141742 0.0016124019 -0.010758621
-0.0024212613 0.0001612402 -0.0097931037
-0.0018563004 0.0015317819 -0.0040000002
-0.0016141742 0.00056434068 -0.01083908
0.0023405526 0.00056434068 -0.0031954022
-0.0010492132 0.00048372059 -0.01083908
-0.001129922 -0.00072558085 -0.01091954
0.0006456697 -0.00056434068 -0.01091954
-0.0006456697 -0.0023379829 -0.005045977
0.0023405526 -0.00072558085 -0.0090689659
-0.0006456697 -0.00080620096 -0.01091954
0.0017755916 0.0002418603 -0.01083908
8.0708713e-05 0.0024186028 -0.0042413794
0.00024212615 0.00056434068 -0.01091954
-0.00080708711 0.0022573627 -0.0019885057
-0.00072637841 0.0023379829 -0.010758621
0.0021791353 -0.0010480613 -0.0078620687
0.00016141743 -0.0024186028 -0.0098735634
-0.0023405526 0.00056434068 -0.002954023
-0.002259844 0.00088682107 -0.008425287
0.00016141743 0.0023379829 -0.00078160921
-0.002259844 0.00088682107 -0.0048850575
-0.0018563004 -0.0015317819 -0.0068160919
0.00096850458 -0.0022573627 -0.002954023
0.00080708711 -0.0016930221 -0.00013793104
0.0010492132 -0.0020961226 -0.0005402299
0.00088779582 0.0022573627 -0.010195402
0.0021791353 -0.0011286814 -0.008103448
0.0010492132 0.0021767425 -0.0093908049
-0.0012106306 -0.0020961226 -0.0011839081
0.0020177178 0.0013705416 -0.0059310347
-0.00024212615 -0.0024186028 -0.0031149425
-0.00096850458 0.0022573627 -0.0040804599
0.0023405526 0.0002418603 -0.00078160921
0.00040354356 -0.0012899216 -0.01083908
-0.00096850458 -0.0022573627 -0.0044827587
0.001129922 -0.0021767425 -0.010597701
-0.00096850458 -0.00040310048 -0.00013793104
-0.0015334656 0.0014511617 -0.00029885059
0.00096850458 -0.0022573627 -0.008747126
-0.0018563004 0.0015317819 -0.0044022989
-0.00032283485 -0.0022573627 -0.0005402299
0.0010492132 0.0021767425 -0.0057701147
-0.0013720482 0.0020155024 -0.0046436782
0.0024212613 0.0002418603 -0.010678161
0.0021791353 0.0010480613 -0.0040000002
-0.0014527568 0.0019348824 -0.010114943
0.002259844 0.00096744118 -0.0072183907
0.00024212615 -0.0024186028 -0.0070574712
-0.0015334656 -0.0017736421 -0.00029885059
-0.0010492132 0.0012093014 -5.7471265e-05
0.0024212613 -8.0620099e-05 -0.0063333334
-0.00072637841 -0.0023379829 -0.0089080464
-0.001129922 -0.0021767425 -0.0034367817
0.001129922 0 0.0010689655
0.0023405526 -0.00072558085 -0.0023103447
0.00016141743 0.0024186028 -0.0078620687
0.0010492132 -0.0021767425 -0.0085862065
0.0019370092 0.0014511617 -0.0091494257
0.0015334656 0.0018542622 -0.00745977
0.00096850458 0.0022573627 -0.0046436782
-0.00040354356 -0.0024186028 -0.0070574712
0.0023405526 -0.00048372059 -0.0081839077
-0.0024212613 -8.0620099e-05 -0.0064137932
-0.00032283485 -0.0024186028 -0.0089080464
-0.001129922 -0.0021767425 -0.0044827587
-0.0014527568 -0.0019348824 -0.0094712647
0.00048425229 -0.0023379829 -0.0082643675
0.0024212613 -0.00040310048 -0.010356322
0.0024212613 -0.00040310048 -0.0042413794
0 0.0024186028 -0.0044827587
-0.00096850458 0.0022573627 -0.00037931034
0.0020984265 -0.0012093014 -0.010678161
0.0017755916 -0.0012899216 -0.010758621
-0.00072637841 -0.0023379829 -0.0077011492
-0.0024212613 -0.00040310048 -0.0020689655
-0.0010492132 -0.0021767425 -0.0067356322
0.00072637841 0.0023379829 -0.0028735632
0.00088779582 -0.0022573627 -0.0058505749
-0.0020177178 -0.0012899216 -0.0035172415
0.000564961 -0.0023379829 -0.002229885
0.00032283485 0.0024186028 -0.008103448
0.0023405526 0.00048372059 -0.0039195404
-0.00088779582 0.0022573627 -0.0030344827
-8.0708713e-05 -0.0020961226 -0.00029885059
0.0020177178 0.0013705416 -0.0057701147
-0.0012106306 0.0020961226 -0.0046436782
0.0024212613 -8.0620099e-05 -0.0059310347
0.0023405526 -0.00056434068 -0.0054482757
0.00072637841 0.0023379829 -0.0093908049
-0.0023405526 0.00032248039 -0.0007011494
0.00080708711 -0.0017736421 -0.010758621
0.0015334656 -0.0001612402 -0.00013793104
-0.0024212613 0.00040310048 -0.0051264367
-0.00032283485 -0.0024186028 -0.0072988505
0.0023405526 0.00072558085 -0.005367816
0.00040354356 0.0024186028 -0.0068160919
-0.00032283485 -0.00032248039 -5.7471265e-05
0.0016141742 -0.00048372059 -0.00013793104
0.0019370092 -0.0014511617 -0.010597701
0 0.0024186028 -0.0052068965
-0.00024212615 -0.0024186028 -0.0064137932
