# .PCD v0.7 - Point Cloud Data file format
VERSION 0.7
FIELDS x y z
SIZE 4 4 4
TYPE F F F
COUNT 1 1 1
WIDTH 1195
HEIGHT 1
VIEWPOINT 0 0 0 1 0 0 0
POINTS 1195
DATA ascii
0.0087193269 0.0014058129 -0.022543859
0.0064691775 0.0059044142 -0.034333333
-0.0019688802 0.0084348777 -0.02731579
0.00028126859 0.0087160403 -0.038543861
0.0028126859 0.0050609265 -8.7719302e-05
0.0042190291 0.0075913901 -0.012438596
0.0064691775 0.0059044142 -0.007385965
-0.0084380582 -0.0028116258 -0.0051403507
-0.0056253718 0.0067479024 -0.032368422
0.0081567895 -0.0033739512 -0.030964913
0.007031715 0.0053420891 -0.015526316
-0.0087193269 0.0014058129 -0.032368422
0.0047815661 0.0030927884 -0.044719297
0.0067504463 -0.0056232517 -0.010754386
-0.0087193269 -0.00028116259 -0.032929823
-0.0087193269 0.0008434878 -0.042192981
-0.0042190291 0.0075913901 -0.025631579
0.0033752231 -0.0081537152 -0.031245613
0.0019688802 -0.0084348777 -0.019736841
-0.0084380582 -0.0028116258 -0.024508772
-0.0028126859 -0.0084348777 -0.042192981
0.0078755207 -0.0036551137 -0.00064912281
0.0061879093 -0.0061855768 -0.039666668
-0.0042190291 0.0075913901 -0.023385964
-0.0061879093 0.0061855768 -0.02759649
-0.0064691775 0.0059044142 -0.023385964
0.0042190291 0.0075913901 -0.036578946
0.001406343 -0.0087160403 -0.040228069
-0.0025314174 -0.0028116258 -0.045000002
-0.0056253718 0.0064667398 -0.044157896
0.0033752231 0.0081537152 -0.0042982455
-0.00028126859 0.0087160403 -0.029842105
-0.0087193269 0.00028116259 -0.028438596
-0.0087193269 0.00028116259 -0.018894738
-0.0087193269 0.00056232518 -0.010754386
-0.0047815661 0.0064667398 -0.00036842105
0.0022501487 0.0084348777 -0.037140351
-0.00028126859 0.0044986014 -0.045000002
-0.0087193269 -0.0011246504 -0.044157896
0.0050628348 0.0073102275 -0.039385963
0.0073129837 -0.0050609265 -0.02731579
0 0.0087160403 -0.0031754386
0.0019688802 0.0084348777 -0.02731579
-0.0064691775 -0.0059044142 -0.026754387
0.0081567895 -0.0008434878 -0.00036842105
-0.0056253718 -0.00028116259 -0.044719297
-0.0036564919 -0.0078725526 -0.010473684
0.00056253717 -0.0087160403 -0.038543861
0.0084380582 0.0025304633 -0.0099122804
0.00056253717 0.0087160403 -0.023385964
0.0081567895 -0.0030927884 -0.035175439
0.0064691775 0.0059044142 -0.034894738
0.0039377604 0.0078725526 -0.023666667
-0.0036564919 0.0078725526 -0.011596492
0.0045002974 0.0075913901 -0.039385963
-0.0087193269 0.0016869756 -0.013842105
0.00084380578 -0.0014058129 -8.7719302e-05
0.0019688802 0.0084348777 -0.028157895
-0.0011250743 -0.0087160403 -0.043315791
0.0050628348 -0.0044986014 -0.00036842105
-0.0036564919 0.0078725526 -0.027035087
0.0030939546 0.0081537152 -0.0099122804
-0.0087193269 0.00056232518 -0.020859649
-0.0056253718 0 -8.7719302e-05
0.007594252 0.0044986014 -0.035175439
0.0064691775 0.0059044142 -0.016649123
-0.0016876116 0.0008434878 -8.7719302e-05
-0.0084380582 -0.0022493007 -0.04191228
0.0078755207 -0.0039362763 -0.011877193
0.0059066406 0.0064667398 -0.036578946
-0.00056253717 -0.0087160403 -0.038263157
-0.0042190291 0.0075913901 -0.014964912
-0.0030939546 -0.0025304633 -0.045000002
-0.00084380578 0.0087160403 -0.0054210527
0.00028126859 -0.0011246504 -8.7719302e-05
0.0050628348 0.0073102275 -0.041070174
0.007594252 0.0044986014 -0.020298246
0.0064691775 0.0059044142 -0.043877192
-0.0053441036 -0.0056232517 -0.044438597
-0.0056253718 -0.0067479024 -0.00036842105
-0.0087193269 -0.0008434878 -0.041350879
-0.007594252 0.0042174389 -0.014403509
0.007031715 0.0053420891 -0.019456141
0.007594252 0.0042174389 -0.02114035
-0.0047815661 -0.0016869756 -8.7719302e-05
0.0050628348 -0.0022493007 -8.7719302e-05
0.0011250743 0.0087160403 -0.014122807
-0.0016876116 -0.0087160403 -0.013280702
-0.0059066406 -0.0064667398 -0.0051403507
0.0016876116 -0.0087160403 -0.019456141
0.0087193269 0.00028116259 -0.013842105
-0.007031715 -0.0011246504 -0.00036842105
0.0087193269 0 -0.013561403
0.0087193269 -0.00056232518 -0.025631579
-0.0028126859 -0.0084348777 -0.015245614
0.0059066406 -0.0064667398 -0.016649123
0.001406343 -0.0087160403 -0.011035088
-0.0030939546 -0.004779764 -8.7719302e-05
-0.0056253718 -0.0067479024 -0.0090701757
0.0084380582 0.0019681382 -0.022543859
0.0087193269 0.0016869756 -0.02422807
-0.0025314174 0.0084348777 -0.031807017
0.0011250743 0.0067479024 -0.044438597
-0.0067504463 -0.0025304633 -0.044438597
-0.001406343 -0.0087160403 -0.029561404
0.00084380578 -0.0087160403 -0.027877193
0.0028126859 0.0042174389 -0.044719297
-0.0061879093 0.0061855768 -0.010192983
0.00084380578 -0.0087160403 -0.011035088
0.0081567895 0.0030927884 -0.033771928
0.00084380578 -0.0044986014 -0.045000002
-0.0087193269 0.0008434878 -0.0079473685
0 0.0087160403 -0.017491229
-0.0078755207 0.0036551137 -0.039666668
-0.0087193269 0 -0.042473685
-0.0019688802 0.0084348777 -0.0023333333
-0.0016876116 -0.0087160403 -0.0082280701
0.00056253717 -0.0087160403 -0.021421053
-0.0087193269 -0.00028116259 -0.0082280701
0.00028126859 0.0042174389 -0.045000002
0.0019688802 0.0084348777 -0.032368422
0.0073129837 0.0016869756 -0.00036842105
-0.007594252 -0.0044986014 -0.019736841
-0.0064691775 0.0059044142 -0.023947369
-0.0059066406 -0.0064667398 -0.0028947368
-0.0022501487 -0.0084348777 -0.033210527
0.00028126859 0.0087160403 -0.032368422
0.007594252 0.0044986014 -0.03545614
-0.0033752231 0.0081537152 -0.044157896
-0.007594252 -0.0042174389 -0.01608772
0.0047815661 -0.0022493007 -8.7719302e-05
-0.0084380582 -0.0025304633 -0.042192981
0.0033752231 0.0067479024 -0.044438597
-0.0059066406 0.0064667398 -0.0085087717
0.007594252 -0.0042174389 -0.043877192
-0.0087193269 0.0011246504 -0.011035088
-0.0033752231 0.0081537152 -0.036578946
0.0016876116 0.0087160403 -0.013280702
-0.00028126859 -0.0087160403 -0.038263157
-0.0087193269 0 -0.007105263
-0.007594252 -0.0044986014 -0.002614035
0.00084380578 0.0030927884 -0.045000002
0.0025314174 0.0084348777 -0.039947368
0.0036564919 -0.0078725526 -0.00036842105
0.0056253718 -0.0067479024 -0.016368421
0.0011250743 0.0087160403 -0.036298245
-0.00056253717 -0.0075913901 -0.00036842105
0.0087193269 0.0014058129 -0.027035087
-0.0059066406 0.0064667398 -0.014122807
0.0064691775 0.0059044142 -0.010192983
-0.0047815661 0.0033739512 -0.044719297
0.0064691775 -0.0059044142 -0.011035088
0.001406343 0.0087160403 -0.043035086
-0.0047815661 -0.0073102275 -0.023947369
-0.0073129837 -0.0050609265 -0.002614035
-0.0036564919 -0.0078725526 -0.032368422
0.0047815661 0.00056232518 -0.044719297
-0.0030939546 0.0081537152 -0.022263158
-0.0084380582 -0.0025304633 -0.018614035
0.0025314174 0.0084348777 -0.034052633
-0.0084380582 0.0019681382 -0.02114035
-0.0084380582 -0.0025304633 -0.030403508
0.0087193269 0 -0.017491229
0.0025314174 -0.0050609265 -8.7719302e-05
0.0084380582 -0.0028116258 -0.027877193
0.0061879093 -0.0061855768 -0.041070174
-0.007594252 -0.0042174389 -0.020578947
-0.0087193269 0.0016869756 -0.01608772
-0.0081567895 -0.0033739512 -0.0042982455
0.0050628348 -0.0067479024 -0.0020526317
0.007031715 -0.004779764 -0.0017719298
-0.0045002974 -0.0075913901 -0.03685965
0.007594252 0.0044986014 -0.034894738
-0.0073129837 0.004779764 -0.002614035
-0.007594252 0.0044986014 -0.02114035
0 0.0087160403 -0.007385965
-0.0053441036 0.00056232518 -0.00036842105
-0.0022501487 -0.0084348777 -0.010192983
-0.0087193269 0.00056232518 -0.039666668
0.0084380582 -0.0028116258 -0.039666668
0.0084380582 0.0025304633 -0.014684211
0.0016876116 0.0087160403 -0.042192981
-0.0087193269 0.0011246504 -0.037140351
0.0087193269 -0.00056232518 -0.036298245
-0.0059066406 0.0064667398 -0.039947368
0.0084380582 -0.0022493007 -0.028719299
-0.0042190291 -0.0075913901 -0.0031754386
-0.0084380582 0.0022493007 -0.038824562
-0.0022501487 0.0008434878 -8.7719302e-05
-0.007031715 0.0053420891 -0.011596492
-0.0033752231 -0.0036551137 -0.044719297
0.0084380582 -0.0022493007 -0.0054210527
0.0084380582 -0.0025304633 -0.023947369
0.0067504463 -0.0056232517 -0.0034561404
-0.0084380582 0.0028116258 -0.03545614
0.0073129837 -0.0042174389 -0.00036842105
-0.0087193269 -0.00028116259 -0.019175438
0.00084380578 -0.0087160403 -0.0054210527
-0.0030939546 0.0081537152 -0.042754386
0.0056253718 0.0067479024 -0.030122807
-0.0087193269 -0.0008434878 -0.0045789476
-0.0084380582 0.0022493007 -0.039666668
-0.0019688802 -0.0084348777 -0.020298246
0.0033752231 0.0019681382 -8.7719302e-05
0.007594252 -0.0042174389 -0.038824562
0.0084380582 0.0019681382 -0.002614035
0.0087193269 -0.0008434878 -0.017210526
0.0033752231 -0.0081537152 -0.022543859
0.0084380582 -0.0025304633 -0.010192983
0.0081567895 0.0033739512 -0.024789473
-0.0033752231 0.0081537152 -0.0045789476
0.0022501487 -0.0084348777 -0.01608772
-0.0050628348 0.0070290649 -0.0090701757
-0.0033752231 0.0070290649 -0.00036842105
0.0078755207 -0.0039362763 -0.015245614
0.0084380582 -0.0028116258 -0.004017544
0.0087193269 0.0014058129 -0.0051403507
-0.0081567895 -0.0033739512 -0.0082280701
-0.0042190291 -0.0075913901 -0.029280702
0.0045002974 0.0050609265 -0.044438597
0.0087193269 -0.0011246504 -0.040228069
0.0030939546 0.0081537152 -0.028438596
-0.0025314174 -0.0084348777 -0.013
-0.0087193269 -0.0016869756 -0.038824562
0.0045002974 0.0075913901 -0.0057017542
0.0019688802 -0.0019681382 -0.045000002
-0.0081567895 -0.0030927884 -0.037982456
0.0036564919 -0.0078725526 -0.0028947368
-0.0036564919 0.0078725526 -0.013842105
0.0050628348 -0.0070290649 -0.0012105263
-0.0087193269 0.0016869756 -0.041631579
-0.0084380582 0.0022493007 -0.010473684
0.0045002974 0.0075913901 -0.018614035
-0.0025314174 0.0084348777 -0.025912281
-0.0084380582 -0.0019681382 -0.039947368
0.0081567895 -0.0030927884 -0.027035087
-0.0073129837 -0.004779764 -0.03545614
0.0087193269 0.0014058129 -0.043035086
0.0084380582 -0.0019681382 -0.041631579
0.0025314174 -0.0084348777 -0.02759649
0.0016876116 -0.0050609265 -0.044719297
-0.0084380582 -0.0025304633 -0.036298245
-0.001406343 0.0087160403 -0.025912281
0.0084380582 0.0025304633 -0.011877193
0.0078755207 0.0036551137 -0.007385965
0.0047815661 -0.0073102275 -0.01777193
0.0042190291 0.0075913901 -0.0028947368
0.0087193269 -0.0011246504 -0.007385965
-0.0067504463 0.0019681382 -0.00036842105
0.0067504463 -0.0036551137 -0.00036842105
0.0061879093 -0.0061855768 -0.033491228
0.0087193269 0.0011246504 -0.010754386
0.0078755207 -0.00028116259 -0.00036842105
0.0067504463 0.0056232517 -0.011315789
-0.0061879093 0.0061855768 -0.028719299
-0.00084380578 -0.0087160403 -0.0023333333
0.0087193269 0.0011246504 -0.014403509
0.0084380582 -0.0028116258 -0.024508772
0.007031715 0.0053420891 -0.041631579
0.0016876116 -0.0087160403 -0.013561403
-0.0011250743 -0.0084348777 -0.0012105263
0.0025314174 0.0014058129 -0.045000002
-0.0084380582 0.0022493007 -0.025912281
0.0078755207 -0.0036551137 -0.013842105
0.0067504463 0.0056232517 -0.028719299
-0.0019688802 0.0084348777 -0.035736844
0.0022501487 0.0084348777 -0.023947369
0.0050628348 -0.0008434878 -8.7719302e-05
-0.0028126859 -0.0084348777 -0.014964912
0.0050628348 -0.0073102275 -0.012719298
-0.0022501487 -0.0084348777 -0.032087721
-0.0025314174 0.0084348777 -0.023385964
0.007031715 0.0028116258 -0.00036842105
-0.0022501487 -0.0084348777 -0.021421053
-0.0030939546 0.0081537152 -0.022543859
-0.0081567895 -0.0033739512 -0.0059824563
0.0016876116 -0.0087160403 -0.023105264
0.0028126859 0.0084348777 -0.042754386
-0.0087193269 -0.0011246504 -0.0031754386
0.001406343 0.0087160403 -0.02759649
0.0047815661 0.0064667398 -0.00036842105
-0.0050628348 0.0073102275 -0.014964912
0.0067504463 0.0056232517 -0.004017544
0.007594252 0.0042174389 -0.033771928
0.0078755207 0.0036551137 -0.0062631578
-0.0084380582 0.0025304633 -0.0076666665
0.00084380578 0.0087160403 -0.039947368
0.0067504463 0.00028116259 -0.044438597
-0.0073129837 -0.0050609265 -0.039385963
0.007594252 0.0044986014 -0.010754386
0.0087193269 -0.0011246504 -0.039666668
-0.007031715 0.0053420891 -0.031526316
0.0087193269 0.0011246504 -0.00064912281
-0.0039377604 0.0056232517 -0.044438597
0.0059066406 0.0039362763 -0.00036842105
-0.0036564919 -0.0064667398 -0.044438597
0.0025314174 -0.0084348777 -0.02422807
-0.0067504463 0.0019681382 -0.044438597
0.0087193269 -0.0011246504 -0.013
0.0050628348 -0.0073102275 -0.02422807
0.0011250743 -0.0087160403 -0.00064912281
-0.0045002974 -0.0075913901 -0.018052632
0.0078755207 -0.0036551137 -0.029280702
0.0073129837 -0.004779764 -0.010754386
-0.0067504463 0.0056232517 -0.010754386
0.0087193269 -0.0008434878 -0.038543861
-0.00056253717 -0.0087160403 -0.034894738
-0.0087193269 0.0014058129 -0.030403508
-0.00056253717 -0.0061855768 -0.044719297
0.0087193269 0.00028116259 -0.023385964
0.0067504463 0.0056232517 -0.02731579
-0.0084380582 0.0025304633 -0.007385965
-0.0087193269 -0.00056232518 -0.012719298
-0.00056253717 -0.0087160403 -0.029561404
-0.001406343 0.0087160403 -0.034894738
0.0081567895 -0.0030927884 -0.002614035
-0.0078755207 0.0036551137 -0.02759649
0.0084380582 0.0025304633 -0.020017544
0.0028126859 -0.0084348777 -0.042754386
0.0087193269 0.0016869756 -0.020298246
-0.0067504463 -0.0056232517 -0.035175439
0.0016876116 0.0087160403 -0.022543859
-0.0087193269 -0.0014058129 -0.0065438598
0.0084380582 0.0025304633 -0.011596492
-0.0016876116 -0.0087160403 -0.034333333
-0.0025314174 0.0084348777 -0.0045789476
-0.0087193269 0.0008434878 -0.019456141
0.0059066406 0.0064667398 -0.0062631578
0 0.0087160403 -0.0051403507
-0.00028126859 0.0087160403 -0.036017545
0.0042190291 0.0075913901 -0.013280702
0.007031715 -0.0053420891 -0.0031754386
0.00028126859 -0.0087160403 -0.022263158
0.007031715 -0.0053420891 -0.02114035
-0.0019688802 -0.0084348777 -0.0085087717
0.0059066406 -0.0064667398 -0.032368422
-0.0011250743 -0.0087160403 -0.042754386
-0.0087193269 -0.0014058129 -0.029280702
0.0087193269 -0.0011246504 -0.016368421
-0.0059066406 0.0064667398 -0.027035087
-0.0047815661 -0.0073102275 -0.014964912
-0.001406343 0.0064667398 -0.00036842105
0.0045002974 0.0064667398 -0.00036842105
0.0030939546 -0.0081537152 -0.014684211
0.0047815661 -0.0073102275 -0.019456141
-0.0087193269 0.00056232518 -0.029842105
0.0022501487 -0.0084348777 -0.0028947368
0.0087193269 0.00028116259 -0.012157895
-0.0078755207 -0.0039362763 -0.039385963
-0.00028126859 0.0087160403 -0.013842105
-0.0084380582 -0.0022493007 -0.024508772
-0.0011250743 0.0087160403 -0.018614035
0.0022501487 -0.0044986014 -8.7719302e-05
-0.0011250743 -0.0087160403 -0.043035086
-0.0087193269 -0.0014058129 -0.036298245
0.00084380578 0.0087160403 -0.029280702
0.0033752231 -0.0081537152 -0.039947368
0.0019688802 0.0073102275 -0.044438597
-0.0061879093 -0.0061855768 -0.029561404
0.0016876116 -0.0087160403 -0.024508772
-0.0022501487 -0.0084348777 -0.035175439
-0.0053441036 -0.0028116258 -0.00036842105
-0.0067504463 -0.0056232517 -0.0068245614
0.0081567895 -0.0033739512 -0.015245614
-0.0073129837 -0.0050609265 -0.027035087
-0.0087193269 -0.0008434878 -0.034894738
0.0045002974 0.0075913901 -0.037140351
-0.0036564919 -0.0075913901 -0.0017719298
0.0087193269 -0.0014058129 -0.037982456
-0.0022501487 -0.0084348777 -0.034052633
-0.0033752231 -0.0044986014 -8.7719302e-05
0.001406343 -0.0028116258 -8.7719302e-05
-0.00056253717 -0.0087160403 -0.039947368
0.0025314174 -0.0084348777 -0.04191228
0.0016876116 0.0087160403 -0.0054210527
-0.0028126859 0.0022493007 -8.7719302e-05
0.0087193269 0.00056232518 -0.021701755
0.0042190291 -0.0053420891 -0.044438597
0.0011250743 -0.0028116258 -8.7719302e-05
-0.0084380582 0.0022493007 -0.002614035
0.0081567895 0.0030927884 -0.036017545
0.0019688802 0.0014058129 -8.7719302e-05
-0.0033752231 0.0064667398 -0.00036842105
-0.0084380582 -0.0019681382 -0.013842105
0.0087193269 -0.0016869756 -0.022263158
0.007594252 0.0044986014 -0.01777193
-0.0042190291 0.0075913901 -0.020017544
-0.0050628348 0 -0.044719297
-0.0067504463 -0.0056232517 -0.039385963
-0.0039377604 0.0078725526 -0.038543861
0.0028126859 0.0084348777 -0.0093508773
-0.00056253717 0.0087160403 -0.037421051
0.007594252 -0.0042174389 -0.027877193
0.0042190291 0.0075913901 -0.002614035
-0.0061879093 -0.0061855768 -0.03545614
-0.0056253718 -0.00056232518 -8.7719302e-05
-0.0084380582 -0.0019681382 -0.014684211
-0.00056253717 0.0087160403 -0.03685965
-0.0011250743 0.0087160403 -0.039385963
0.007031715 -0.0053420891 -0.016649123
-0.0087193269 0.0014058129 -0.040789474
0.0016876116 0.0087160403 -0.037982456
-0.0087193269 -0.0016869756 -0.0062631578
0.0078755207 0.0039362763 -0.015807018
0.0084380582 -0.0019681382 -0.041070174
0.0039377604 -0.0073102275 -0.00036842105
-0.0045002974 -0.0022493007 -0.044719297
-0.0033752231 0.0081537152 -0.040228069
-0.0073129837 -0.0050609265 -0.0068245614
-0.0084380582 -0.0019681382 -0.0087894741
0.0033752231 0.0081537152 -0.0079473685
-0.0059066406 0.0064667398 -0.019456141
-0.0019688802 -0.0084348777 -0.039105263
-0.0016876116 -0.0084348777 -0.0012105263
-0.007594252 -0.0044986014 -0.0087894741
0.0087193269 0.0014058129 -0.043315791
0.0061879093 0.0059044142 -0.0012105263
-0.0087193269 -0.00028116259 -0.0087894741
0.0045002974 -0.0075913901 -0.026192982
0.0047815661 0.0073102275 -0.016368421
-0.0011250743 -0.0087160403 -0.016929824
0.0050628348 -0.0059044142 -0.044438597
0.0084380582 0.0025304633 -0.014964912
0.0045002974 0.0075913901 -0.0087894741
-0.007594252 -0.0044986014 -0.01777193
0.007031715 0.0053420891 -0.0082280701
0.0022501487 -0.0081537152 -0.0020526317
-0.0033752231 0.0081537152 -0.0048596491
0.0016876116 0.0087160403 -0.012438596
0.0087193269 -0.00028116259 -0.0037368422
-0.0019688802 -0.0084348777 -0.034333333
-0.0025314174 0.0044986014 -0.044719297
-0.00084380578 -0.0087160403 -0.029280702
0.00028126859 -0.0078725526 -0.00036842105
0.0081567895 -0.0033739512 -0.040508773
-0.0087193269 0.00028116259 -0.0059824563
0.0064691775 0.0059044142 -0.025070176
-0.0019688802 -0.0067479024 -0.044438597
0.0061879093 0.0061855768 -0.025631579
-0.00028126859 0.0087160403 -0.019456141
-0.0059066406 0.0064667398 -0.0093508773
0.0087193269 -0.00056232518 -0.020859649
0.007594252 -0.0033739512 -0.044157896
-0.0067504463 0.0050609265 -0.0017719298
-0.0030939546 0.0081537152 -0.0096315788
0.0016876116 -0.0087160403 -0.018894738
-0.00084380578 -0.0087160403 -0.014684211
-0.007594252 -0.0044986014 -0.034052633
0.00028126859 0.0087160403 -0.039105263
-0.0019688802 0.0070290649 -0.044438597
0.0064691775 -0.0059044142 -0.035175439
0.007031715 -0.0053420891 -0.026754387
0.0016876116 -0.0087160403 -0.0048596491
-0.0081567895 -0.0033739512 -0.011315789
0.0045002974 0.0075913901 -0.032649122
0.0042190291 -0.0075913901 -0.010473684
0.0011250743 0.0011246504 -8.7719302e-05
-0.0081567895 -0.0033739512 -0.0057017542
-0.0036564919 -0.0078725526 -0.014403509
0.0064691775 0.0028116258 -0.044438597
0.0022501487 0.0084348777 -0.019736841
-0.0011250743 -0.0019681382 -0.045000002
-0.0042190291 0.0067479024 -0.044438597
0.0087193269 0 -0.03545614
-0.0030939546 0.0081537152 -0.014403509
-0.0047815661 -0.0073102275 -0.0057017542
-0.0059066406 0.0064667398 -0.038543861
0.0050628348 -0.00028116259 -8.7719302e-05
0.0022501487 -0.0011246504 -8.7719302e-05
0.0061879093 -0.0061855768 -0.037982456
-0.0036564919 -0.0036551137 -0.044719297
0.00084380578 -0.0087160403 -0.0076666665
-0.0084380582 -0.0019681382 -0.014964912
0.0042190291 0.00028116259 -0.045000002
-0.0019688802 0.0084348777 -0.036017545
-0.0011250743 -0.0087160403 -0.023947369
-0.0081567895 -0.0030927884 -0.037701756
-0.0025314174 0.0084348777 -0.029280702
-0.0087193269 -0.0014058129 -0.03068421
0.0073129837 0.004779764 -0.042192981
-0.0073129837 0.0050609265 -0.0042982455
-0.0045002974 -0.0075913901 -0.032087721
-0.0022501487 -0.0033739512 -0.045000002
0.0078755207 -0.0039362763 -0.021982456
-0.0042190291 -0.0075913901 -0.041631579
-0.0087193269 0.0011246504 -0.012719298
-0.0087193269 0.00028116259 -0.043877192
-0.0016876116 0.0084348777 -0.0020526317
0.0028126859 0.004779764 -0.044719297
0.0028126859 0.0070290649 -0.00036842105
0.0078755207 0.0036551137 -0.024508772
0.0087193269 0.0014058129 -0.0054210527
0.0025314174 0.0084348777 -0.0031754386
-0.0078755207 0.0039362763 -0.025631579
0.0056253718 -0.0067479024 -0.0051403507
-0.001406343 -0.0044986014 -0.044719297
-0.0011250743 -0.0087160403 -0.026473684
-0.0084380582 -0.0019681382 -0.013561403
-0.0087193269 -0.0014058129 -0.029561404
-0.0081567895 0.0030927884 -0.043315791
-0.0081567895 0.0030927884 -0.032087721
0.0073129837 0.0050609265 -0.026473684
-0.0045002974 -0.0075913901 -0.029280702
-0.0081567895 0.0030927884 -0.021421053
0.00028126859 -0.0087160403 -0.023666667
0.0030939546 -0.0081537152 -0.020578947
0.0061879093 0.0056232517 -0.044157896
0.0030939546 -0.0073102275 -0.00036842105
-0.0016876116 -0.0087160403 -0.022263158
-0.0084380582 0.0028116258 -0.043035086
-0.0036564919 -0.0078725526 -0.0093508773
0.0078755207 0.0036551137 -0.015807018
-0.0050628348 0.0073102275 -0.018614035
0.0078755207 -0.0036551137 -0.018052632
-0.0061879093 -0.0061855768 -0.00036842105
0.0045002974 -0.0022493007 -0.044719297
0.001406343 -0.0087160403 -0.036578946
-0.0078755207 0.0036551137 -0.032929823
-0.0084380582 -0.0022493007 -0.017491229
0.0081567895 -0.0033739512 -0.018052632
0.0030939546 -0.0044986014 -8.7719302e-05
-0.0073129837 -0.004779764 -0.029280702
-0.00028126859 0.0042174389 -8.7719302e-05
0.0022501487 -0.0025304633 -0.045000002
-0.00084380578 -0.0087160403 -0.024789473
0.0036564919 0.0078725526 -0.01608772
0.0030939546 0.0081537152 -0.020017544
0.0064691775 0.0016869756 -0.044438597
0.0011250743 0.0087160403 -0.043315791
0.0084380582 0.0019681382 -0.036298245
-0.0022501487 0.0084348777 -0.015526316
0.0081567895 -0.0030927884 -0.007105263
-0.0087193269 0.00028116259 -0.0093508773
0.0016876116 -0.0087160403 -0.019736841
-0.0056253718 -0.0067479024 -0.0048596491
-0.0047815661 0.0073102275 -0.0028947368
0.007594252 0.0044986014 -0.04191228
0.00084380578 -0.0008434878 -8.7719302e-05
0.0061879093 0.0061855768 -0.015807018
0.0087193269 -0.00056232518 -0.02114035
-0.0050628348 0.0070290649 -0.016649123
-0.0084380582 0.0028116258 -0.01777193
0.0036564919 0.0078725526 -0.034894738
-0.007594252 -0.0042174389 -0.0048596491
0.0078755207 0.0039362763 -0.044157896
-0.0028126859 0.0084348777 -0.0028947368
-0.0016876116 -0.0087160403 -0.033210527
0.0028126859 -0.0084348777 -0.011035088
0.0042190291 -0.0075913901 -0.018894738
0.0047815661 0.0073102275 -0.019456141
-0.0056253718 0.0067479024 -0.03068421
-0.0087193269 -0.00056232518 -0.030403508
-0.0030939546 0.0019681382 -0.045000002
-0.0028126859 -0.0084348777 -0.01777193
-0.0064691775 -0.0059044142 -0.023666667
-0.0073129837 -0.004779764 -0.032087721
0.0036564919 -0.0078725526 -0.02422807
0.0059066406 -0.0064667398 -0.019175438
0.0022501487 0.0011246504 -8.7719302e-05
0.007031715 -0.0053420891 -0.018333333
0.0028126859 -0.0084348777 -0.0087894741
0.0033752231 -0.0025304633 -0.045000002
0 -0.0081537152 -0.00036842105
0.0081567895 -0.0033739512 -0.037701756
-0.00056253717 -0.0087160403 -0.030122807
-0.0087193269 -0.00056232518 -0.029842105
-0.0061879093 0.0061855768 -0.029561404
0.0050628348 -0.0073102275 -0.016649123
-0.0081567895 -0.0033739512 -0.037140351
0.0059066406 0.0064667398 -0.032087721
0.0056253718 -0.0067479024 -0.041350879
-0.0087193269 0.0011246504 -0.0099122804
0.00056253717 -0.0087160403 -0.040789474
-0.001406343 0.0087160403 -0.029842105
-0.0025314174 -0.0084348777 -0.030122807
-0.0028126859 0.0084348777 -0.041350879
0.0039377604 0.0044986014 -0.00036842105
-0.0087193269 0.00028116259 -0.0037368422
-0.0028126859 -0.0064667398 -0.044438597
0.0084380582 -0.0022493007 -0.033210527
-0.0064691775 0.0059044142 -0.0062631578
0.007594252 0.0042174389 -0.029280702
0.0073129837 -0.0050609265 -0.010754386
-0.00028126859 0.0087160403 -0.011596492
-0.0022501487 -0.0036551137 -0.045000002
-0.0025314174 0.0030927884 -8.7719302e-05
-0.0064691775 0.0056232517 -0.044157896
0.00056253717 -0.0053420891 -8.7719302e-05
0.0039377604 0.0078725526 -0.012157895
-0.0084380582 0.0016869756 -0.00036842105
0.0064691775 0.0059044142 -0.011877193
-0.0033752231 -0.0081537152 -0.018333333
0.0073129837 -0.004779764 -0.024789473
-0.0028126859 -0.0078725526 -0.0017719298
0.00056253717 -0.0064667398 -0.00036842105
-0.001406343 0.0025304633 -8.7719302e-05
0.0042190291 -0.0014058129 -0.045000002
-0.00084380578 0.0044986014 -8.7719302e-05
-0.00056253717 0.0087160403 -0.016368421
-0.0087193269 0.0011246504 -0.032929823
0.0016876116 -0.00056232518 -0.045000002
-0.0039377604 0.0078725526 -0.0093508773
0.0016876116 0.0087160403 -0.016649123
-0.0087193269 -0.0008434878 -0.032087721
0.0064691775 0.0059044142 -0.010473684
0.0078755207 -0.0011246504 -0.044438597
0.0011250743 -0.0075913901 -0.044438597
0.0078755207 -0.0039362763 -0.041070174
-0.0025314174 -0.0084348777 -0.015245614
-0.007594252 0.0042174389 -0.02114035
-0.0087193269 -0.0014058129 -0.017491229
-0.0053441036 0.0070290649 -0.0057017542
0.0025314174 -0.0039362763 -8.7719302e-05
-0.001406343 0.0087160403 -0.0057017542
-0.0059066406 -0.0064667398 -0.018614035
0.0047815661 0.0073102275 -0.035736844
-0.0064691775 -0.0025304633 -0.00036842105
-0.0011250743 -0.0087160403 -0.03545614
0.0087193269 -0.0014058129 -0.019456141
0.0087193269 0.00028116259 -0.037421051
-0.0073129837 0.004779764 -0.029280702
0.0084380582 0.0025304633 -0.03685965
-0.0025314174 -0.0084348777 -0.03685965
-0.0087193269 0.0014058129 -0.042754386
-0.00084380578 -0.0087160403 -0.038263157
-0.001406343 0.0011246504 -8.7719302e-05
0.0016876116 0.0087160403 -0.021421053
0.0011250743 -0.0044986014 -0.044719297
0.0050628348 0.0073102275 -0.0093508773
0.0087193269 -0.0008434878 -0.013280702
-0.0059066406 0.0053420891 -0.00036842105
0.0081567895 0.0030927884 -0.026473684
0.0022501487 0.0033739512 -8.7719302e-05
0.0087193269 -0.0014058129 -0.014684211
-0.001406343 0.0087160403 -0.0065438598
0.0061879093 -0.0016869756 -0.044438597
-0.0059066406 0.0064667398 -0.030964913
0.0042190291 -0.0075913901 -0.007105263
-0.0078755207 0.0036551137 -0.010473684
0.0011250743 0.0087160403 -0.0076666665
-0.0078755207 0.0039362763 -0.030403508
0.0025314174 0.0084348777 -0.037421051
-0.001406343 -0.0087160403 -0.010754386
0.0056253718 -0.0067479024 -0.021421053
0 0.0087160403 -0.028438596
-0.007031715 -0.0044986014 -0.044157896
0.0053441036 0.0070290649 -0.014684211
0.0056253718 0.0067479024 -0.036578946
-0.007594252 0.00028116259 -0.044438597
-0.0036564919 -0.0078725526 -0.043315791
-0.0030939546 -0.0081537152 -0.025070176
0.0073129837 -0.0050609265 -0.024508772
-0.0087193269 0.0016869756 -0.0051403507
0.0022501487 -0.0084348777 -0.013
-0.0087193269 0.0011246504 -0.024789473
-0.0039377604 -0.0075913901 -0.0020526317
0.0067504463 0.0056232517 -0.04191228
-0.0078755207 -0.0039362763 -0.032087721
-0.0011250743 -0.0064667398 -0.00036842105
0.0022501487 -0.0084348777 -0.011596492
0.0011250743 -0.0087160403 -0.015526316
-0.001406343 0.0087160403 -0.027877193
-0.0078755207 0.0039362763 -0.038824562
0.0084380582 -0.0028116258 -0.0068245614
-0.001406343 -0.0087160403 -0.021701755
0.0087193269 -0.00028116259 -0.042754386
-0.0028126859 0.0084348777 -0.030403508
0.007594252 0.0042174389 -0.019175438
0 0.0087160403 -0.039105263
-0.0081567895 -0.0028116258 -0.0020526317
0.0011250743 0.0087160403 -0.036017545
-0.0047815661 -0.0073102275 -0.0062631578
-0.007031715 0.0053420891 -0.03068421
-0.0081567895 -0.0033739512 -0.00092982454
0.0064691775 0.0059044142 -0.026754387
-0.0087193269 0 -0.012719298
0.0011250743 0.0056232517 -0.044719297
-0.0078755207 -0.0036551137 -0.01777193
-0.001406343 -0.0087160403 -0.021982456
-0.0047815661 0.0073102275 -0.01777193
0.0087193269 0.00028116259 -0.0085087717
0.00056253717 0.0087160403 -0.039666668
-0.00028126859 -0.0087160403 -0.039666668
-0.0036564919 0.0022493007 -8.7719302e-05
0.0033752231 0.0081537152 -0.02422807
0.0042190291 0.004779764 -0.00036842105
0.0053441036 -0.0070290649 -0.039947368
-0.0011250743 -0.0016869756 -0.045000002
-0.0036564919 -0.0078725526 -0.039385963
-0.0011250743 -0.0087160403 -0.007105263
-0.0081567895 0.0030927884 -0.011877193
-0.0016876116 -0.0030927884 -8.7719302e-05
0.0059066406 0.0064667398 -0.0042982455
-0.00056253717 0.0087160403 -0.022543859
-0.001406343 -0.0087160403 -0.019456141
-0.00056253717 -0.0070290649 -0.044438597
-0.00056253717 0.0087160403 -0.021421053
0.0078755207 -0.0022493007 -0.00036842105
-0.0073129837 0.0050609265 -0.016649123
-0.0067504463 -0.0056232517 -0.015807018
-0.0030939546 0.0075913901 -0.044438597
0.0061879093 0.0061855768 -0.019175438
0.0028126859 -0.0081537152 -0.044157896
-0.0042190291 0.0070290649 -0.00036842105
0.0067504463 -0.0056232517 -0.030122807
0.0033752231 -0.0016869756 -0.045000002
-0.0030939546 -0.0081537152 -0.042473685
0.0087193269 -0.00028116259 -0.00064912281
-0.0045002974 0.0028116258 -8.7719302e-05
-0.0011250743 -0.0087160403 -0.034894738
0.0081567895 0.0033739512 -0.023385964
0.0073129837 0.004779764 -0.030964913
0.0056253718 0.0025304633 -0.044719297
0.0056253718 -0.0067479024 -0.010192983
-0.001406343 -0.0087160403 -0.007385965
0.0036564919 -0.0078725526 -0.0031754386
-0.001406343 0.0084348777 -0.0012105263
-0.0064691775 -0.0059044142 -0.02114035
-0.0084380582 0.0028116258 -0.037982456
-0.0042190291 -0.0075913901 -0.028999999
0.0064691775 0.0059044142 -0.040228069
-0.0081567895 -0.0033739512 -0.022263158
-0.0073129837 0.004779764 -0.034894738
0.001406343 0.0087160403 -0.007385965
-0.0073129837 -0.0050609265 -0.034614034
-0.0061879093 -0.0061855768 -0.0093508773
-0.0061879093 0.0061855768 -0.011596492
0.0061879093 0.0061855768 -0.016368421
0.0025314174 0.0084348777 -0.018333333
0.007594252 -0.0044986014 -0.0093508773
0.007594252 -0.0044986014 -0.015245614
-0.0047815661 -0.0073102275 -0.00092982454
0.0087193269 -0.0014058129 -0.025350878
-0.0073129837 -0.0050609265 -0.0045789476
0.0047815661 0.0073102275 -0.011315789
0.0084380582 0.0019681382 -0.018894738
0.0059066406 -0.0064667398 -0.028157895
-0.0056253718 -0.0067479024 -0.036017545
-0.0081567895 0.0030927884 -0.0042982455
-0.0042190291 -0.0075913901 -0.0048596491
0.0059066406 0.0064667398 -0.026473684
0.0081567895 -0.0033739512 -0.013842105
0.0067504463 0.0056232517 -0.025070176
0.001406343 -0.0044986014 -8.7719302e-05
-0.0084380582 -0.0022493007 -0.037982456
0.0028126859 -0.0014058129 -8.7719302e-05
-0.0087193269 0 -0.042192981
0.001406343 -0.0064667398 -0.044438597
0.0039377604 0.0028116258 -0.044719297
-0.0087193269 -0.0016869756 -0.032368422
0.0087193269 -0.0008434878 -0.007105263
0.0084380582 0.0022493007 -0.011315789
-0.0059066406 -0.0053420891 -0.044438597
-0.0025314174 0.0084348777 -0.022543859
0.0087193269 0.0014058129 -0.039105263
0.0081567895 0.0030927884 -0.016929824
-0.0022501487 0.0084348777 -0.0037368422
0.0047815661 -0.0073102275 -0.022824561
0.0047815661 0.0073102275 -0.004017544
-0.0011250743 -0.0056232517 -8.7719302e-05
0.0078755207 -0.0039362763 -0.0090701757
-0.00084380578 -0.0014058129 -8.7719302e-05
-0.0081567895 0.0030927884 -0.010754386
0.0084380582 -0.0028116258 -0.0076666665
0.0050628348 -0.0073102275 -0.023385964
0.0050628348 -0.0073102275 -0.039105263
0.0011250743 -0.0039362763 -0.045000002
-0.0047815661 0.0070290649 -0.00036842105
0.0064691775 -0.0059044142 -0.0048596491
-0.00056253717 -0.0087160403 -0.004017544
-0.0084380582 -0.0019681382 -0.0045789476
-0.0033752231 -0.0081537152 -0.014964912
-0.0061879093 0.0061855768 -0.036578946
0.0050628348 0.0036551137 -0.044438597
-0.00056253717 0.0087160403 -0.0090701757
-0.0042190291 0.0061855768 -0.044438597
-0.0028126859 0.0084348777 -0.03545614
0.0045002974 -0.0075913901 -0.0054210527
0.00084380578 -0.0030927884 -0.045000002
-0.0050628348 -0.0042174389 -0.00036842105
-0.001406343 -0.0087160403 -0.037701756
0.0067504463 -0.0056232517 -0.038824562
-0.0084380582 0.0022493007 -0.043315791
0.0081567895 -0.0033739512 -0.017210526
0.00028126859 0.0073102275 -0.00036842105
-0.0067504463 -0.0056232517 -0.0099122804
0.0087193269 -0.0016869756 -0.041631579
-0.0087193269 -0.0008434878 -0.020859649
-0.001406343 0.0078725526 -0.00036842105
-0.007031715 -0.0053420891 -0.0076666665
0.0081567895 0.0030927884 -0.014122807
-0.0028126859 0.0016869756 -0.045000002
0.007594252 0.0042174389 -0.0085087717
-0.0039377604 0.0078725526 -0.036017545
0.0033752231 0.0081537152 -0.0034561404
0.0042190291 0.0075913901 -0.018614035
-0.0073129837 0.0028116258 -0.00036842105
-0.0064691775 -0.0030927884 -0.00036842105
0.0084380582 0.0028116258 -0.004017544
0.0081567895 0.0030927884 -0.042192981
0.0061879093 0.0061855768 -0.036017545
0.00056253717 0.0067479024 -0.044438597
-0.0067504463 -0.0056232517 -0.011035088
-0.0087193269 -0.00056232518 -0.037140351
-0.0081567895 0.0033739512 -0.041070174
-0.0042190291 -0.0075913901 -0.017210526
-0.007594252 0.0042174389 -0.027877193
0.0073129837 0.004779764 -0.031245613
-0.0011250743 -0.0087160403 -0.0065438598
-0.0084380582 0.0019681382 -0.038543861
-0.0067504463 0.0053420891 -0.044157896
-0.0053441036 -0.0070290649 -0.031807017
0.0087193269 -0.0016869756 -0.042473685
-0.00084380578 0.0087160403 -0.036578946
-0.0084380582 0.0025304633 -0.020859649
0.0087193269 0.0014058129 -0.017210526
-0.0025314174 -0.0084348777 -0.021982456
0.0064691775 0.0039362763 -0.00036842105
0.0081567895 -0.0030927884 -0.014964912
-0.0050628348 0.0070290649 -0.031807017
0.0045002974 -0.0075913901 -0.02422807
-0.0033752231 0.0081537152 -0.020298246
0.0019688802 -0.0022493007 -8.7719302e-05
0.0033752231 0.0081537152 -0.029280702
-0.0081567895 -0.0030927884 -0.043877192
0.0081567895 -0.0030927884 -0.015807018
0.007031715 0.0042174389 -0.044157896
0.0084380582 -0.0025304633 -0.014964912
-0.0022501487 0.0036551137 -8.7719302e-05
-0.0025314174 0.0084348777 -0.014122807
-0.0039377604 -0.0078725526 -0.0079473685
-0.007594252 0.0042174389 -0.016929824
-0.0042190291 0.0075913901 -0.040228069
0.0087193269 -0.00056232518 -0.024789473
0.0030939546 -0.0081537152 -0.028157895
-0.0087193269 -0.0016869756 -0.0065438598
-0.0039377604 -0.0078725526 -0.021421053
0.0042190291 -0.0075913901 -0.007385965
0.0084380582 -0.0028116258 -0.037982456
0.0019688802 0.0084348777 -0.004017544
-0.0078755207 -0.0036551137 -0.032087721
-0.0016876116 0.0087160403 -0.002614035
-0.00084380578 0.0087160403 -0.020578947
-0.0084380582 0.0019681382 -0.0099122804
-0.0033752231 -0.0081537152 -0.031245613
-0.0033752231 0.0081537152 -0.013561403
0.0084380582 0.0019681382 -0.017210526
-0.0016876116 0.0087160403 -0.011877193
0.0078755207 0.0039362763 -0.027877193
0.0061879093 -0.0022493007 -0.00036842105
0.0056253718 0.0067479024 -0.028438596
-0.0050628348 0.0056232517 -0.00036842105
-0.0039377604 0.0078725526 -0.02759649
0.0019688802 0.0042174389 -8.7719302e-05
-0.0025314174 -0.0081537152 -0.044157896
0.0087193269 -0.00056232518 -0.015807018
-0.0064691775 -0.0059044142 -0.012438596
-0.0033752231 0.0081537152 -0.025070176
-0.001406343 0.0087160403 -0.02759649
0.0042190291 -0.0075913901 -0.033771928
-0.00028126859 0.0087160403 -0.032649122
-0.007594252 -0.0042174389 -0.0087894741
0.0067504463 0.0056232517 -0.039947368
-0.0087193269 -0.00056232518 -0.038824562
0.0087193269 0 -0.037982456
0.0081567895 -0.0033739512 -0.032087721
-0.0019688802 0.0084348777 -0.018333333
-0.0059066406 -0.0064667398 -0.00064912281
0.0042190291 -0.0016869756 -8.7719302e-05
0.007594252 0.0044986014 -0.022543859
-0.0061879093 0.0061855768 -0.002614035
-0.0064691775 0.0059044142 -0.014684211
0.0061879093 -0.0061855768 -0.01608772
-0.0087193269 0.00056232518 -0.018333333
-0.0078755207 0.0036551137 -0.044157896
-0.0019688802 0.0039362763 -8.7719302e-05
0.0084380582 0.0028116258 -0.00092982454
-0.0064691775 0.0059044142 -0.02731579
-0.0084380582 0.0028116258 -0.0082280701
-0.0056253718 0.0067479024 -0.0065438598
0.0039377604 -0.0078725526 -0.029561404
-0.001406343 -0.0081537152 -0.00036842105
-0.0061879093 -0.0019681382 -0.044438597
0.0087193269 -0.0011246504 -0.023105264
-0.0061879093 0.0061855768 -0.043315791
0.0039377604 -0.0078725526 -0.014403509
0.007594252 0.00028116259 -0.044438597
-0.0025314174 -0.0070290649 -0.00036842105
0.0053441036 0.0059044142 -0.044438597
0.0078755207 0.0039362763 -0.028157895
0.0081567895 -0.0030927884 -0.013842105
0.0056253718 0.0067479024 -0.016368421
0.0084380582 -0.0022493007 -0.037421051
0.0019688802 0.0084348777 -0.029561404
-0.0084380582 0.0025304633 -0.041350879
0.0033752231 0.0081537152 -0.0085087717
-0.007031715 0.0053420891 -0.043596491
0.0045002974 -0.0075913901 -0.020298246
0.0059066406 -0.0064667398 -0.0099122804
0.0050628348 -0.0061855768 -0.00036842105
0.0067504463 -0.0056232517 -0.0076666665
0.0033752231 0.0081537152 -0.035175439
-0.0087193269 0 -0.0034561404
0.0084380582 -0.0028116258 -0.034894738
-0.0061879093 -0.0061855768 -0.032649122
0.001406343 0.0087160403 -0.02731579
0.0016876116 0.0087160403 -0.010754386
0.0087193269 -0.0008434878 -0.016929824
0.0036564919 -0.0078725526 -0.041070174
0 -0.0087160403 -0.042754386
0.0011250743 0.0087160403 -0.0057017542
-0.0087193269 -0.0016869756 -0.037701756
0.0047815661 0.0073102275 -0.043315791
0.0050628348 0.0033739512 -0.00036842105
-0.0030939546 0.0053420891 -0.044719297
-0.007594252 -0.0044986014 -0.040789474
0.0061879093 0.0014058129 -0.00036842105
-0.0028126859 0.0044986014 -8.7719302e-05
-0.0056253718 0.00028116259 -0.044719297
0 -0.0087160403 -0.032368422
-0.0056253718 0.0067479024 -0.01777193
0.0028126859 -0.0084348777 -0.020859649
-0.0067504463 0.0033739512 -0.044438597
-0.007031715 0.00028116259 -0.00036842105
-0.0084380582 -0.0022493007 -0.014122807
-0.0087193269 0.0014058129 -0.016368421
0 -0.0087160403 -0.034052633
0.0087193269 -0.0014058129 -0.023105264
-0.0022501487 0.0084348777 -0.016649123
-0.0087193269 0.0016869756 -0.029842105
0.0011250743 -0.0087160403 -0.022824561
-0.00084380578 -0.0087160403 -0.010754386
-0.007594252 0.0042174389 -0.028157895
-0.0087193269 0.00028116259 -0.011877193
-0.0045002974 0.0053420891 -0.00036842105
0.0059066406 -0.0064667398 -0.012438596
-0.00056253717 -0.0087160403 -0.013561403
0.0073129837 -0.004779764 -0.024508772
-0.0028126859 -0.0084348777 -0.032368422
-0.0016876116 0.0087160403 -0.03685965
0.0019688802 -0.0064667398 -0.044438597
0.0084380582 -0.0019681382 -0.033771928
0.007594252 0.0044986014 -0.012438596
-0.0045002974 -0.0075913901 -0.02731579
0.0081567895 -0.0033739512 -0.023666667
0.0050628348 -0.0036551137 -0.00036842105
-0.0022501487 -0.0078725526 -0.044438597
-0.0087193269 -0.0016869756 -0.023947369
0.0084380582 0.0019681382 -0.0090701757
-0.0084380582 0.0025304633 -0.012719298
0.00084380578 0.0042174389 -0.045000002
0.007031715 -0.0053420891 -0.0042982455
-0.0047815661 -0.0073102275 -0.013280702
0.007594252 -0.0042174389 -0.036578946
-0.007594252 -0.0042174389 -0.0096315788
-0.0019688802 0.0084348777 -0.028157895
-0.0084380582 -0.0022493007 -0.014964912
0.0045002974 -0.0075913901 -0.034894738
-0.0061879093 0.0061855768 -0.041631579
0.0011250743 0.0087160403 -0.028157895
-0.0081567895 0.0030927884 -0.038263157
-0.0067504463 -0.0056232517 -0.026473684
0.0059066406 -0.0030927884 -0.044438597
0.001406343 -0.0087160403 -0.034894738
0.0061879093 0.0061855768 -0.013
-0.00056253717 -0.0087160403 -0.0059824563
0.0028126859 -0.004779764 -8.7719302e-05
0.0019688802 -0.0084348777 -0.014403509
0.007031715 0.0053420891 -0.023666667
-0.0053441036 0.0067479024 -0.0048596491
-0.001406343 0.0087160403 -0.02114035
0 -0.0025304633 -0.045000002
-0.0011250743 0.0042174389 -0.045000002
-0.007031715 -0.0053420891 -0.043315791
0.0078755207 0.0036551137 -0.034333333
-0.0025314174 0.0084348777 -0.017491229
0.0019688802 -0.0084348777 -0.025912281
-0.007594252 0.0042174389 -0.013561403
-0.0084380582 -0.0028116258 -0.0099122804
-0.0045002974 -0.0075913901 -0.018333333
-0.0078755207 0.0030927884 -0.0017719298
0.0036564919 -0.0078725526 -0.011877193
0.0078755207 -0.0016869756 -0.00036842105
-0.00028126859 0.0064667398 -0.00036842105
-0.0084380582 -0.0028116258 -0.028719299
0.0087193269 0.00056232518 -0.0096315788
-0.007594252 -0.0042174389 -0.01777193
0.0073129837 -0.004779764 -0.02759649
-0.0053441036 0.0011246504 -0.044719297
-0.0042190291 0.0075913901 -0.011315789
0.0078755207 -0.0036551137 -0.0076666665
0.007594252 -0.0044986014 -0.038543861
-0.0039377604 -0.0078725526 -0.023105264
-0.0059066406 -0.004779764 -0.044438597
0.0078755207 0.0019681382 -0.00036842105
-0.0064691775 -0.0059044142 -0.025350878
0.0078755207 0.0036551137 -0.032368422
0.0028126859 -0.0016869756 -0.045000002
0.0053441036 0.0042174389 -0.00036842105
0.0033752231 0.0081537152 -0.034333333
0.0087193269 -0.0011246504 -0.036578946
0.0019688802 0.0084348777 -0.031526316
-0.0011250743 -0.0087160403 -0.0059824563
0.007594252 -0.0042174389 -0.019736841
-0.007594252 0.0042174389 -0.030964913
-0.0087193269 0.0016869756 -0.028719299
0.00056253717 -0.0042174389 -8.7719302e-05
0.0078755207 0.0039362763 -0.040789474
-0.0030939546 -0.0081537152 -0.022263158
0.0064691775 0.0059044142 -0.028157895
0.0028126859 0.0084348777 -0.015245614
-0.0030939546 0.00056232518 -0.045000002
-0.007594252 -0.0044986014 -0.012438596
0.0078755207 -0.0036551137 -0.034894738
0.0087193269 -0.0011246504 -0.042754386
-0.0025314174 0.0084348777 -0.03545614
0.0011250743 -0.0087160403 -0.014964912
-0.0087193269 -0.0008434878 -0.042754386
0.00028126859 0.0028116258 -0.045000002
-0.0050628348 -0.0036551137 -0.00036842105
-0.0047815661 0.0073102275 -0.012157895
0.0016876116 0.0087160403 -0.037701756
-0.007594252 -0.0030927884 -0.044438597
0.0087193269 -0.00056232518 -0.0065438598
-0.0087193269 -0.0016869756 -0.0051403507
0.007031715 -0.0044986014 -0.0017719298
0.0064691775 0.0059044142 -0.002614035
0.0042190291 -0.0039362763 -8.7719302e-05
0.0081567895 0.0030927884 -0.037421051
-0.0047815661 0.0073102275 -0.033491228
-0.0011250743 -0.0087160403 -0.0048596491
0.0053441036 -0.0070290649 -0.010473684
0.0084380582 -0.0022493007 -0.014122807
0.0016876116 0.0087160403 -0.017491229
0.0039377604 -0.0078725526 -0.020859649
-0.0022501487 -0.0084348777 -0.025350878
-0.0025314174 -0.0084348777 -0.010192983
-0.00084380578 0.0030927884 -0.045000002
0.0028126859 0.0084348777 -0.026473684
0.0042190291 0.0070290649 -0.00036842105
-0.0019688802 0.0084348777 -0.016929824
-0.0030939546 0.0081537152 -0.018894738
-0.0016876116 -0.0087160403 -0.035175439
-0.0047815661 0.0073102275 -0.038263157
-0.007031715 0.0053420891 -0.0059824563
0.0064691775 0.0059044142 -0.023385964
-0.0030939546 0.0081537152 -0.025912281
0 0.0087160403 -0.020298246
0.0030939546 -0.0081537152 -0.011877193
-0.0078755207 -0.0039362763 -0.043596491
0.0084380582 0.0022493007 -0.024508772
0.0084380582 -0.0019681382 -0.031526316
-0.0042190291 0.0053420891 -0.00036842105
-0.0011250743 -0.0087160403 -0.028719299
-0.0025314174 -0.00028116259 -0.045000002
-0.0050628348 0.0070290649 -0.0023333333
0 0.0008434878 -8.7719302e-05
-0.0025314174 -0.0030927884 -0.045000002
-0.0022501487 -0.0053420891 -0.044719297
0.0042190291 0.0075913901 -0.007105263
-0.0045002974 0.0075913901 -0.023666667
-0.007594252 -0.0044986014 -0.035175439
0.0025314174 0.0084348777 -0.022543859
0.0030939546 0.0081537152 -0.0042982455
-0.001406343 -0.0087160403 -0.01608772
0.0087193269 -0.00056232518 -0.028719299
-0.0045002974 -0.0075913901 -0.031245613
0.0087193269 0 -0.02422807
-0.001406343 0.0087160403 -0.040508773
0.007594252 0.0042174389 -0.0079473685
-0.0042190291 0.0075913901 -0.033771928
0.0087193269 -0.00028116259 -0.019736841
-0.007031715 -0.0053420891 -0.030964913
-0.0087193269 -0.0011246504 -0.0045789476
-0.0030939546 0.0081537152 -0.011596492
0.0078755207 0.0036551137 -0.013
-0.00056253717 0.0087160403 -0.017491229
0.0084380582 0.0022493007 -0.025350878
-0.0061879093 0.0061855768 -0.0087894741
-0.0036564919 -0.0078725526 -0.0079473685
-0.0030939546 -0.0081537152 -0.041070174
0.001406343 -0.0087160403 -0.02422807
0.0011250743 -0.0087160403 -0.033491228
0.0084380582 0.0022493007 -0.0076666665
-0.0047815661 -0.0030927884 -8.7719302e-05
-0.0067504463 -0.0056232517 -0.036017545
-0.0078755207 0.0036551137 -0.018894738
-0.0053441036 -0.0070290649 -0.032649122
0.0025314174 0.0084348777 -0.030403508
0.0030939546 -0.0081537152 -0.010754386
-0.0087193269 0.0011246504 -0.030403508
-0.0030939546 0.0081537152 -0.037701756
-0.0067504463 -0.0056232517 -0.014684211
-0.007594252 0.0042174389 -0.017210526
0.00084380578 0.0087160403 -0.031807017
-0.00084380578 0.0087160403 -0.0031754386
-0.0087193269 -0.0011246504 -0.035736844
0.0084380582 0.0022493007 -0.040228069
-0.0022501487 -0.0078725526 -0.00036842105
0.0019688802 -0.0084348777 -0.035175439
-0.0078755207 -0.0039362763 -0.028999999
0.00028126859 0.0087160403 -0.029561404
0.0087193269 -0.00056232518 -0.039947368
-0.0050628348 0.0073102275 -0.007105263
0.0025314174 -0.0084348777 -0.040508773
0.0030939546 0.0081537152 -0.011596492
0.0087193269 -0.0008434878 -0.0042982455
-0.0087193269 0.0008434878 -0.0065438598
-0.0078755207 -0.0039362763 -0.029280702
-0.0050628348 -0.0073102275 -0.020578947
-0.0087193269 0.00056232518 -0.010192983
-0.007031715 0.0053420891 -0.024789473
0.00084380578 0.0087160403 -0.042754386
-0.0025314174 0.0084348777 -0.002614035
-0.0036564919 -0.0078725526 -0.025631579
-0.0016876116 -0.0087160403 -0.038824562
0.0067504463 -0.0056232517 -0.037140351
0.0016876116 -0.0087160403 -0.035736844
0.0087193269 0.0008434878 -0.029842105
0.0078755207 -0.0039362763 -0.02114035
0.00084380578 0.0087160403 -0.011877193
0.0078755207 -0.0039362763 -0.031245613
0.0050628348 0.0073102275 -0.032649122
-0.00028126859 -0.0084348777 -0.044157896
0.0084380582 -0.0011246504 -0.00036842105
-0.0067504463 0.0056232517 -0.0090701757
0.0081567895 0.0030927884 -0.028719299
-0.0084380582 -0.0025304633 -0.00064912281
-0.0067504463 0.0056232517 -0.022263158
0.0025314174 0.0084348777 -0.0028947368
-0.0050628348 -0.0073102275 -0.013
-0.007594252 -0.0044986014 -0.022543859
-0.0087193269 -0.0008434878 -0.038543861
0.0087193269 0.0008434878 -0.013
0.0042190291 -0.0070290649 -0.044157896
0.0081567895 0.0033739512 -0.012719298
0.001406343 -0.0087160403 -0.039947368
0.0059066406 0.0064667398 -0.00092982454
-0.0033752231 -0.0081537152 -0.04191228
0.0039377604 -0.0078725526 -0.028438596
0.0033752231 -0.0081537152 -0.017491229
0.00056253717 -0.0087160403 -0.039385963
-0.0053441036 0.0067479024 -0.043035086
-0.00028126859 0.0022493007 -8.7719302e-05
0.0087193269 0.0011246504 -0.027877193
0.0047815661 0.0073102275 -0.039105263
0.0084380582 -0.0028116258 -0.029561404
0.0030939546 -0.0081537152 -0.01777193
0.0011250743 -0.0087160403 -0.039666668
-0.0047815661 0.0073102275 -0.016649123
0.007594252 0.0039362763 -0.0020526317
0.0081567895 -0.0030927884 -0.032368422
-0.0087193269 -0.00028116259 -0.037140351
-0.0047815661 -0.0073102275 -0.013
0.0053441036 -0.0070290649 -0.020859649
-0.0039377604 -0.0078725526 -0.03545614
-0.007031715 0.0053420891 -0.0051403507
-0.0028126859 0.0084348777 -0.028157895
0.0045002974 0.0075913901 -0.0099122804
-0.0056253718 -0.0059044142 -0.044438597
0.0047815661 -0.0073102275 -0.034894738
0.0073129837 0.004779764 -0.036017545
-0.00028126859 0.0087160403 -0.021421053
0.0073129837 -0.0019681382 -0.00036842105
-0.0087193269 0.0016869756 -0.021982456
-0.0011250743 0.0087160403 -0.01777193
-0.0056253718 0.0011246504 -8.7719302e-05
0.0030939546 -0.0081537152 -0.033210527
-0.007594252 0.0042174389 -0.040789474
-0.0019688802 0.0084348777 -0.020859649
-0.00028126859 0.0087160403 -0.0099122804
0 -0.0011246504 -8.7719302e-05
-0.0087193269 0 -0.013
0.001406343 -0.0087160403 -0.019175438
0.00056253717 -0.0025304633 -8.7719302e-05
-0.0016876116 -0.0050609265 -0.044719297
-0.00056253717 -0.0087160403 -0.026192982
-0.0019688802 0.0084348777 -0.013561403
0.0059066406 -0.0064667398 -0.029280702
-0.001406343 -0.00028116259 -0.045000002
0.0084380582 -0.0025304633 -0.0062631578
0.0019688802 0.0084348777 -0.015526316
-0.0087193269 0.0008434878 -0.039947368
-0.0050628348 0.0070290649 -0.018894738
-0.00084380578 -0.0087160403 -0.0045789476
0.007031715 0.0053420891 -0.0068245614
0 -0.0030927884 -0.045000002
0.007594252 0.0044986014 -0.022824561
-0.0073129837 0.0050609265 -0.007385965
-0.0087193269 0.0008434878 -0.031807017
0.0064691775 -0.00056232518 -0.00036842105
0.0056253718 -0.0061855768 -0.0017719298
-0.0028126859 -0.0084348777 -0.028157895
-0.0073129837 0.004779764 -0.034333333
0.0050628348 -0.0073102275 -0.0042982455
