# .PCD v0.7 - Point Cloud Data file format
VERSION 0.7
FIELDS x y z
SIZE 4 4 4
TYPE F F F
COUNT 1 1 1
WIDTH 1197
HEIGHT 1
VIEWPOINT 0 0 0 1 0 0 0
POINTS 1197
DATA ascii
-0.0012333258 -0.0026885248 -0.024188405
0.002055543 -0.0021370326 -0.01526087
-0.0026036878 -0.0015855402 -0.0053864736
-0.0023296154 0.0018612863 -0.009714976
-0.0004111086 -0.002964271 -0.013908213
0.0010962896 0.0017234134 -0.00024637682
0.0009592534 0.0028263978 -0.016884059
0.0023296154 -0.0018612863 -0.006603865
-0.0015073982 -0.0025506518 -0.014990338
0.0005481448 -0.002964271 -0.0064685992
0.0021925792 -0.0019991596 -0.0032222222
0.002740724 0.001171921 -0.010256039
0.0017814706 -0.0024127786 -0.0014637681
-0.0009592534 0.0028263978 -0.018642511
0.0028777602 -0.00089617493 -0.019048309
0.0023296154 0.0018612863 -0.018777778
-0.0017814706 0.0025506518 -0.016342996
0.0008222172 0.0028263978 -0.016478261
0.002740724 -0.0013097941 -0.0044396133
-0.0012333258 0.0026885248 -0.014449275
0.002740724 0.0013097941 -0.023512077
-0.002740724 0.0013097941 -0.0030869565
-0.0002740724 -0.003102144 -0.020671498
-0.0028777602 0.00089617493 -0.0051159421
0.002055543 0.0021370326 -0.0047101448
-0.0005481448 0.002964271 -0.01999517
0.0028777602 -0.00062042882 -0.0080917878
0.0021925792 0.0019991596 -0.0099855075
0.0009592534 0.0028263978 -0.018913044
0.0009592534 0.00075830187 -0.024864735
0.0030147964 -0.00020680959 -0.017154589
-0.0015073982 0.0025506518 -0.0063333334
0.0021925792 0.0021370326 -0.015801933
-0.0030147964 0.00048255574 -0.012555555
-0.0008222172 0.002964271 -0.0034927537
0.0023296154 -0.0019991596 -0.0022753624
0.0002740724 -0.002964271 -0.021618357
-0.0005481448 -0.002964271 -0.021753624
0 0.0028263978 -0.00024637682
0.002055543 0.00020680959 -0.00024637682
0.001370362 -0.0026885248 -0.018507246
0.0004111086 0.002964271 -0.019318841
-0.0010962896 0.00048255574 -0.00011111111
-0.0030147964 0.00020680959 -0.0086328499
0.0009592534 0.0028263978 -0.0057922704
0.0016444344 -0.0025506518 -0.0072801933
0.0030147964 0.00020680959 -0.0202657
-0.0030147964 0.00062042882 -0.0015990338
0.0017814706 0.0025506518 -0.0083623184
0.0028777602 0.001034048 -0.011608696
-0.0028777602 0.001034048 -0.0024106281
0.002740724 -0.001171921 -0.0038985508
-0.0021925792 0.0021370326 -0.0036280192
0.001370362 0.0028263978 -0.013502415
-0.0009592534 0.0028263978 -0.0095797097
-0.0009592534 0.0028263978 -0.017695652
-0.0030147964 0.00075830187 -0.0064685992
-0.0010962896 -0.0028263978 -0.003357488
0.0016444344 0.0026885248 -0.018777778
-0.0008222172 0.0028263978 -0.0079565216
-0.0028777602 0.0013097941 -0.0015990338
0.0028777602 -0.00062042882 -0.0055217389
0.0015073982 -0.00062042882 -0.024729468
0.0026036878 0.0015855402 -0.01999517
0.002740724 -0.0013097941 -0.0064685992
-0.0019185068 0.0022749056 -0.022294685
-0.002740724 0.0013097941 -0.012555555
-0.0023296154 -0.0019991596 -0.0032222222
-0.0016444344 -0.0025506518 -0.0079565216
-0.0031518326 -0.00020680959 -0.012285024
-0.0008222172 -0.0028263978 -0.0078212563
-0.0017814706 -0.001171921 -0.024729468
-0.0023296154 -0.0018612863 -0.013908213
0.0016444344 -0.0025506518 -0.01147343
-0.0010962896 0.0028263978 -0.0093091791
0.0024666516 0.0015855402 -0.012149759
0.002740724 0.0013097941 -0.013096618
0.0030147964 -0.00020680959 -0.011743961
-0.0028777602 0.0013097941 -0.017695652
0.0002740724 -0.002964271 -0.013502415
-0.0021925792 -0.0019991596 -0.012690822
0.0005481448 -0.002964271 -0.013908213
0.0026036878 -0.0014476673 -0.010661836
-0.001370362 -0.0026885248 -0.003763285
0.000685181 -0.0025506518 -0.00024637682
0.002055543 -0.0022749056 -0.0013285024
0.0002740724 0.002964271 -0.014449275
-0.0009592534 0.002964271 -0.021077294
-0.0017814706 -0.0022749056 -0.024594203
0.0017814706 0.0025506518 -0.019724637
0.0017814706 -0.0024127786 -0.0030869565
-0.0010962896 0.0028263978 -0.017154589
-0.0017814706 -0.0024127786 -0.014178744
0.0023296154 -0.0019991596 -0.022294685
-0.0017814706 -0.0024127786 -0.019048309
-0.002740724 -0.0013097941 -0.0098502412
-0.0005481448 -0.0025506518 -0.00024637682
0.0023296154 0.0018612863 -0.020130435
-0.0023296154 0.0019991596 -0.0079565216
-0.0028777602 0.00075830187 -0.01620773
0.0030147964 0.00075830187 -0.0011932367
0 0.00034468266 -0.024864735
0.0026036878 0.0014476673 -0.011338164
0.0002740724 -0.0022749056 -0.024594203
0.0024666516 -0.0015855402 -0.0011932367
-0.0024666516 -0.0015855402 -0.001057971
-0.0005481448 0.002964271 -0.011067633
-0.0005481448 0.003102144 -0.020536233
-0.0002740724 -0.0013097941 -0.024729468
0.0002740724 0.002964271 -0.0067391302
-0.0028777602 0.0013097941 -0.0057922704
-0.002740724 -0.0014476673 -0.017830918
0.0001370362 -0.0015855402 -0.024729468
-0.0030147964 6.8936533e-05 -0.0082270531
0.002740724 -0.001034048 -0.020671498
0.002740724 -0.001171921 -0.018777778
-0.0023296154 0.0015855402 -0.024594203
0.0023296154 0.0018612863 -0.0057922704
0.0030147964 0.00062042882 -0.021753624
0.0028777602 -0.00075830187 -0.0095797097
-0.0021925792 0.0021370326 -0.016884059
-0.0004111086 -0.002964271 -0.0080917878
0.0008222172 -0.0028263978 -0.006874396
-0.0021925792 0.0021370326 -0.0020048309
0.0030147964 -6.8936533e-05 -0.01999517
-0.0028777602 0.00089617493 -0.013096618
-0.0012333258 0.0013097941 -0.00011111111
0.0001370362 -0.002964271 -0.016613526
-0.0023296154 0.0019991596 -0.010932367
0 -0.002964271 -0.0070096618
0.0024666516 0.0015855402 -0.0021400966
0.000685181 -0.002964271 -0.012961352
0.002055543 -0.0022749056 -0.013772947
0.0023296154 0.0018612863 -0.011879227
0.0004111086 0.002964271 -0.0072801933
0.0030147964 -0.00034468266 -0.013231884
-0.0016444344 0.0025506518 -0.023376811
-0.0030147964 0.00089617493 -0.0057922704
0.0028777602 -0.00062042882 -0.023782609
-0.0009592534 -0.0028263978 -0.023241546
-0.000685181 0.002964271 -0.0099855075
-0.0002740724 -0.0013097941 -0.00011111111
0.0030147964 0.00089617493 -0.013772947
-0.0008222172 -0.0028263978 -0.021618357
0.0030147964 -0.00034468266 -0.0098502412
0.0030147964 0.00020680959 -0.011608696
-0.0001370362 0.003102144 -0.01431401
0.0012333258 -0.0026885248 -0.01526087
-0.001370362 0.0026885248 -0.0053864736
-0.0030147964 0.00034468266 -0.023512077
-0.000685181 0.00034468266 -0.024864735
-0.0017814706 0.0024127786 -0.014178744
-0.0010962896 0.0028263978 -0.017289855
-0.0021925792 0.0021370326 -0.0095797097
-0.0030147964 0.00062042882 -0.024188405
0.0026036878 0.0014476673 -0.0020048309
-0.0030147964 0.00062042882 -0.014043478
-0.0030147964 -0.00075830187 -0.0061980677
0.0023296154 0.0018612863 -0.013772947
-0.0008222172 -0.0028263978 -0.00038164252
0.000685181 0.002964271 -0.022024155
-0.0015073982 0.0021370326 -0.00024637682
0.0008222172 -0.0028263978 -0.024323672
0.0008222172 -0.0028263978 -0.017289855
-0.0004111086 0.002964271 -0.018777778
-0.0005481448 0.002964271 -0.014043478
0.0016444344 0.0026885248 -0.023512077
-0.0030147964 0.00062042882 -0.0071449275
-0.0030147964 0.00075830187 -0.0059275362
-0.0021925792 -0.0019991596 -0.013096618
-0.002055543 0.00048255574 -0.00024637682
-0.0009592534 0.0028263978 -0.017154589
0.0024666516 0.0015855402 -0.0020048309
-0.0026036878 -0.0015855402 -0.019589372
-0.0030147964 -0.00048255574 -0.018777778
0.0030147964 -0.00034468266 -0.021212561
-0.0028777602 0.001171921 -0.0017342995
0.0002740724 -0.002964271 -0.015125603
0.001370362 -0.0026885248 -0.018236715
-0.0021925792 0.0019991596 -0.012149759
0.0031518326 -6.8936533e-05 -0.013096618
0.0021925792 -0.00089617493 -0.00024637682
0.0002740724 0.002964271 -0.013772947
-0.002740724 0.001171921 -0.014855073
-0.0001370362 -0.002964271 -0.019454107
0.001370362 0.0024127786 -0.00024637682
-0.0023296154 0.0013097941 -0.00024637682
-0.0028777602 0.001034048 -0.021483092
-0.0030147964 0.00062042882 -0.019048309
0.0001370362 -0.002964271 -0.0011932367
0.0002740724 0.0025506518 -0.00024637682
-0.002740724 -0.0013097941 -0.013231884
-0.0030147964 -6.8936533e-05 -0.022294685
0.0009592534 0.0028263978 -0.012690822
0.0026036878 0.0014476673 -0.00092270534
-0.0021925792 0.0021370326 -0.0022753624
-0.0028777602 -0.001171921 -0.0083623184
-0.0028777602 0.001034048 -0.003357488
-0.0005481448 0.002964271 -0.024594203
0.0024666516 -0.0017234134 -0.012690822
0.0030147964 -0.00020680959 -0.021347826
-0.0023296154 -0.0019991596 -0.024323672
-0.000685181 0.002964271 -0.014178744
-0.0016444344 6.8936533e-05 -0.00011111111
-0.0004111086 0.003102144 -0.0052512079
-0.0024666516 0.0017234134 -0.003357488
-0.000685181 -0.002964271 -0.0026811594
-0.0030147964 0.00062042882 -0.011608696
-0.0016444344 0.0026885248 -0.019724637
0.0012333258 -0.0026885248 -0.023241546
0.0002740724 -0.0015855402 -0.00011111111
0.0026036878 -0.0014476673 -0.01742512
-0.0005481448 0.002964271 -0.021753624
0.002055543 -0.0021370326 -0.017154589
0.0016444344 -0.0025506518 -0.01526087
-0.0030147964 6.8936533e-05 -0.01242029
0.0024666516 0.0017234134 -0.014178744
0.0008222172 0.0028263978 -0.0047101448
-0.0010962896 0.002964271 -0.023647344
-0.0026036878 0.0015855402 -0.022294685
0.0021925792 -0.0021370326 -0.016613526
0.0009592534 -0.0028263978 -0.014584541
-0.0023296154 0.0021370326 -0.0045748791
-0.0009592534 -0.0028263978 -0.016072463
-0.000685181 0.002964271 -0.010797101
-0.0019185068 0.0022749056 -0.0071449275
0.0005481448 0.002964271 -0.003357488
0.0005481448 0.002964271 -0.01526087
0.0021925792 -0.0019991596 -0.0083623184
0.0005481448 -0.002964271 -0.0063333334
-0.0015073982 -0.0026885248 -0.02405314
0.0019185068 0.0022749056 -0.022429952
0.0015073982 -0.0026885248 -0.001057971
0.0002740724 0.002964271 -0.0047101448
0.0004111086 0.002964271 -0.010256039
0.000685181 -0.002964271 -0.0040338165
0.0028777602 0.00089617493 -0.0024106281
0.001370362 0.00048255574 -0.024729468
-0.001370362 -0.00020680959 0.0019178744
-0.0030147964 -0.00034468266 -0.013637681
0.0028777602 -0.00089617493 -0.0015990338
-0.0019185068 -0.0022749056 -0.0057922704
0.0015073982 -0.0026885248 -0.0049806763
-0.0016444344 -0.00062042882 -0.024729468
-0.0015073982 0.0025506518 -0.014449275
-0.0010962896 -0.0028263978 -0.018777778
-0.002055543 -0.0021370326 -0.009714976
0.0005481448 0.003102144 -0.024188405
-0.002740724 0.001034048 -0.024594203
-0.0030147964 -0.00048255574 -0.021888889
-0.0026036878 -0.0015855402 -0.011608696
-0.001370362 0.0026885248 -0.018777778
-0.0028777602 0.00075830187 -0.014449275
-0.0028777602 0.00089617493 -0.00024637682
0.0002740724 -0.002964271 -0.02215942
0.0002740724 0.001034048 -0.024864735
0.002740724 0.001171921 -0.003763285
-0.0016444344 0.0025506518 -0.014719807
0.0030147964 0.00034468266 -0.021077294
0.0028777602 -0.00089617493 -0.018642511
0.0021925792 -0.0019991596 -0.012961352
0.0019185068 -0.0022749056 -0.01336715
-0.0001370362 -0.0028263978 -0.00024637682
0.0023296154 -0.0019991596 -0.0094444444
0.0030147964 -0.00048255574 -0.010256039
0.000685181 0.002964271 -0.0060628019
0.002740724 -0.001034048 -0.009714976
0.002055543 0.0022749056 -0.019318841
0.0001370362 0.002964271 -0.0075507248
-0.0010962896 -0.0028263978 -0.013637681
0.0030147964 0.00048255574 -0.0026811594
0.0030147964 0.00062042882 -0.022700483
-0.0005481448 0.0028263978 -0.00078743964
0.0030147964 -0.00034468266 -0.010797101
-0.0010962896 0.0024127786 -0.00024637682
0.0012333258 0.0028263978 -0.011338164
0.002055543 -0.0021370326 -0.0202657
-0.001370362 -0.0026885248 -0.017560387
-0.0023296154 0.0018612863 -0.0091739129
0.0024666516 0.0017234134 -0.012285024
0.002740724 -0.0013097941 -0.015125603
-0.0012333258 0.0026885248 -0.001057971
-0.0005481448 0.002964271 -0.0029516909
0.002055543 -0.0021370326 -0.013096618
-0.002740724 0.0014476673 -0.006874396
0.002740724 -0.0013097941 -0.01431401
-0.0030147964 6.8936533e-05 -0.0078212563
0.0017814706 -0.00089617493 -0.00011111111
0.0031518326 6.8936533e-05 -0.010120773
-0.0008222172 -0.002964271 -0.010797101
0.0002740724 0.002964271 -0.012014492
0.001370362 -0.0026885248 -0.018777778
-0.0004111086 0.002964271 -0.0025458937
0.0028777602 0.001034048 -0.020400966
-0.002055543 -0.0022749056 -0.010120773
-0.000685181 0.002964271 -0.0044396133
0.0024666516 -0.0015855402 -0.011608696
-0.0030147964 0.00020680959 -0.021753624
-0.0028777602 -0.001034048 -0.003357488
0 -0.002964271 -0.012555555
-0.0012333258 0.0026885248 -0.013096618
0.0002740724 -0.003102144 -0.014178744
-0.000685181 -0.002964271 -0.01620773
0.0028777602 0.001034048 -0.004304348
-0.002055543 -0.0022749056 -0.0047101448
0.002740724 0.0013097941 -0.024594203
-0.0030147964 -0.00075830187 -0.021077294
0.0024666516 -0.00062042882 -0.00024637682
0.0024666516 0.0017234134 -0.011338164
-0.0008222172 -0.001034048 -0.024729468
-0.002740724 0.0014476673 -0.019454107
-0.0001370362 -0.001171921 -0.024864735
-0.0010962896 -0.0018612863 -0.00024637682
0.0024666516 0.0017234134 -0.0098502412
0.0030147964 -0.00062042882 -0.006874396
-0.0026036878 0.0015855402 -0.018236715
0 0.002964271 -0.0029516909
0.0024666516 0.0017234134 -0.018913044
-0.0016444344 -0.0025506518 -0.0022753624
0.002055543 0.0021370326 -0.0048454106
-0.0030147964 6.8936533e-05 -0.021483092
-0.0021925792 0.0022749056 -0.013231884
0.0009592534 -0.0028263978 -0.0086328499
-0.0009592534 0.0014476673 -0.00011111111
-0.0012333258 -0.0026885248 -0.0082270531
-0.0030147964 -0.00075830187 -0.02405314
-0.002740724 -0.0013097941 -0.020400966
-0.0004111086 0.003102144 -0.022700483
0.0030147964 0.00034468266 -0.0091739129
0.0030147964 -0.00034468266 -0.021753624
0.0008222172 -0.0028263978 -0.022565218
-0.0030147964 0.00048255574 -0.0024106281
-0.0028777602 0.001171921 -0.0063333334
0.0010962896 -0.0028263978 -0.0089033814
-0.0008222172 -0.0028263978 -0.018642511
-0.0023296154 0.0019991596 -0.013637681
-0.0030147964 0.00075830187 -0.0044396133
0.0008222172 -0.0026885248 -0.00065217394
0.0009592534 -0.0028263978 -0.019859903
-0.0010962896 -0.0028263978 -0.018371981
0.0002740724 0.002964271 -0.0095797097
0.0031518326 0.00020680959 -0.017560387
-0.0010962896 0.0017234134 -0.00024637682
-0.0030147964 0.00075830187 -0.01526087
0.000685181 0.002964271 -0.016884059
-0.0023296154 -0.0019991596 -0.011067633
0.0024666516 -0.0017234134 -0.018913044
0.0024666516 -0.0015855402 -0.004304348
0 -0.002964271 -0.0032222222
-0.0005481448 -0.002964271 -0.0090386476
0.0019185068 -0.0022749056 -0.0025458937
0.0021925792 0.0019991596 -0.007415459
0.0010962896 -0.0028263978 -0.022835748
-0.0030147964 -0.00089617493 -0.0021400966
0.002055543 0.0022749056 -0.021212561
-0.0004111086 -0.003102144 -0.02215942
0.0012333258 0.0026885248 -0.0094444444
-0.001370362 -0.0026885248 -0.010661836
0.0008222172 0.0028263978 -0.00092270534
0.0026036878 0.0014476673 -0.0040338165
-0.0002740724 0.002964271 -0.0080917878
-0.002055543 -0.0022749056 -0.0040338165
-0.0030147964 0.00062042882 -0.0099855075
-0.000685181 -0.00075830187 -0.00011111111
-0.0021925792 -0.0019991596 -0.023241546
0.002740724 -0.001034048 -0.0202657
-0.001370362 -0.0025506518 -0.00024637682
-0.0028777602 0.00089617493 -0.010391304
-0.0017814706 -0.0024127786 -0.018236715
0.0023296154 -0.0019991596 -0.0064685992
0.002740724 -0.001171921 -0.0040338165
0.0008222172 -0.0028263978 -0.014990338
-0.002055543 0.0021370326 -0.012961352
-0.0030147964 -6.8936533e-05 -0.0022753624
0.001370362 0.0028263978 -0.024323672
-0.0015073982 0.0026885248 -0.020671498
-0.0017814706 -0.0024127786 -0.010391304
-0.0012333258 0.0026885248 -0.0013285024
-0.000685181 -0.002964271 -0.0075507248
-0.002740724 0.001171921 -0.018913044
-0.0017814706 0.0024127786 -0.001057971
0.0012333258 0.0028263978 -0.018507246
0.002055543 -0.0021370326 -0.0021400966
0.0009592534 -0.0028263978 -0.023782609
0.0026036878 -0.0015855402 -0.012826087
-0.0028777602 -0.001171921 -0.0057922704
0.0030147964 -0.00048255574 -0.0029516909
-0.0010962896 0.0028263978 -0.0072801933
0.0015073982 -0.0025506518 -0.022700483
0.002740724 -0.001034048 -0.0040338165
-0.0008222172 0.0028263978 -0.017830918
0.002740724 -0.0013097941 -0.0022753624
-0.0008222172 -0.0028263978 -0.0086328499
0.0012333258 -0.001034048 -0.024729468
0.000685181 -0.002964271 -0.0041690823
0.0005481448 0.002964271 -0.0055217389
-0.0030147964 0.00062042882 -0.0041690823
-0.0028777602 0.001034048 -0.01810145
0.0008222172 0.0028263978 -0.0045748791
0.002740724 0.0013097941 -0.013231884
-0.0015073982 0.00089617493 -0.024729468
-0.002740724 -0.0014476673 -0.023376811
0.0015073982 0.0026885248 -0.014178744
-0.0001370362 -0.003102144 -0.0053864736
0.0028777602 0.001034048 -0.007415459
0.0012333258 0.0028263978 -0.0075507248
0.002740724 0.0013097941 -0.022565218
-0.0024666516 -0.0017234134 -0.0078212563
-0.0030147964 -0.00048255574 -0.01147343
0.0010962896 -0.0028263978 -0.0070096618
-0.0030147964 -0.00062042882 -0.0030869565
-0.0030147964 -0.00034468266 -0.0047101448
-0.000685181 -0.002964271 -0.0098502412
0.0026036878 0.0014476673 -0.018642511
-0.0030147964 0.00089617493 -0.021212561
0.0010962896 -0.0028263978 -0.019589372
-0.0016444344 0.0025506518 -0.00038164252
0.002740724 -0.001171921 -0.014178744
0.0010962896 0.0028263978 -0.0098502412
-0.0030147964 0.00020680959 -0.016342996
-0.0024666516 -0.0018612863 -0.0018695652
-0.0028777602 -0.001171921 -0.023106281
0.0002740724 0.002964271 -0.015125603
-0.0028777602 0.0013097941 -0.015666667
0.000685181 0.0028263978 -0.024594203
0.0019185068 -0.0022749056 -0.013637681
0.0028777602 -0.00089617493 -0.01431401
0.0005481448 0.002964271 -0.0063333334
-0.000685181 0.002964271 -0.024594203
0.000685181 0.002964271 -0.0014637681
-0.0012333258 0.0026885248 -0.012690822
0.0028777602 -0.00048255574 -0.0038985508
0.0008222172 0.0028263978 -0.023376811
-0.001370362 -0.0026885248 -0.0056570047
-0.0010962896 -0.0028263978 -0.0067391302
-0.0008222172 -0.002964271 -0.019859903
-0.0001370362 -0.003102144 -0.016613526
-0.0004111086 0.002964271 -0.0053864736
-0.0028777602 0.001034048 -0.013637681
-0.0009592534 0.0028263978 -0.01431401
0 -0.002964271 -0.021077294
0.0023296154 0.0019991596 -0.020536233
-0.002740724 0.0013097941 -0.010932367
0.002740724 0.00020680959 -0.024594203
-0.0030147964 0.00020680959 -0.01620773
0.002740724 -0.001171921 -0.022971015
0.0030147964 0.00089617493 -0.013637681
0.002740724 -0.0013097941 -0.017695652
0.000685181 -0.0018612863 -0.024729468
0.002055543 0.0022749056 -0.0028164252
0.0001370362 -0.002964271 -0.019048309
-0.0001370362 -0.00034468266 -0.00011111111
-0.001370362 -6.8936533e-05 0.0009710145
-0.000685181 0.002964271 -0.0057922704
0.0010962896 0.0026885248 -0.00065217394
-0.0001370362 0.003102144 -0.0020048309
-0.0021925792 -0.0019991596 -0.0076859905
-0.0019185068 0.0024127786 -0.01810145
0.000685181 0.002964271 -0.015666667
-0.002055543 0.0014476673 -0.024594203
-0.002740724 0.0014476673 -0.0025458937
0.0023296154 -0.0018612863 -0.018371981
0.0030147964 0.00062042882 -0.0079565216
0.0028777602 6.8936533e-05 -0.00024637682
0.002055543 -0.0021370326 -0.017695652
-0.0030147964 -0.00034468266 -0.004304348
-0.002055543 -0.0017234134 -0.00024637682
-0.0030147964 0.00034468266 -0.013772947
0.0008222172 -0.0028263978 -0.006603865
0.001370362 0.0028263978 -0.017289855
-0.0023296154 0.0019991596 -0.0048454106
-0.001370362 -0.0026885248 -0.017830918
0.0017814706 0.0024127786 -0.014043478
0.0028777602 0.001034048 -0.020130435
0.0012333258 0.0028263978 -0.0030869565
-0.0030147964 -0.00034468266 -0.019454107
0.0010962896 0.0028263978 -0.0057922704
0.0002740724 -0.002964271 -0.019048309
0.0019185068 0.0024127786 -0.0071449275
-0.0010962896 0.0028263978 -0.020130435
0.0030147964 0.00075830187 -0.010120773
-0.0028777602 -0.001034048 -0.0015990338
0.0030147964 0.00034468266 -0.003763285
0.000685181 -0.002964271 -0.01620773
0.0005481448 0.0018612863 -0.024729468
0.0028777602 -0.00048255574 -0.00092270534
0.002740724 -0.0013097941 -0.0094444444
0.0005481448 0.0019991596 -0.00024637682
-0.0015073982 -0.0025506518 -0.0049806763
-0.0005481448 0.002964271 -0.0025458937
0.0030147964 0.00048255574 -0.021753624
-0.0009592534 0.0028263978 -0.011879227
-0.0026036878 0.0017234134 -0.0056570047
0.0004111086 0.002964271 -0.017560387
0.0012333258 -0.0026885248 -0.018236715
-0.0024666516 0.0018612863 -0.0040338165
-0.0010962896 -0.0028263978 -0.017019324
0.0028777602 -0.00089617493 -0.01810145
-0.0026036878 0.0015855402 -0.0022753624
0.0002740724 0.002964271 -0.016613526
0.0019185068 -0.0022749056 -0.020130435
0.0026036878 -0.0014476673 -0.019454107
0.0010962896 0.0028263978 -0.012014492
0.0028777602 -0.00048255574 -0.00065217394
0.0009592534 0.0028263978 -0.022835748
-0.0028777602 -0.00075830187 -0.013772947
-0.0028777602 -0.001034048 -0.0095797097
0.0031518326 0.00020680959 -0.014178744
-0.0001370362 0.003102144 -0.01147343
0.002740724 -0.001034048 -0.023376811
0.0005481448 0.0026885248 -0.00024637682
-0.0028777602 -0.00089617493 -0.0029516909
-0.0021925792 0.0021370326 -0.0030869565
0.0023296154 0.0018612863 -0.0020048309
0.0023296154 -0.0018612863 -0.0095797097
0.0010962896 0.0028263978 -0.0021400966
-0.0016444344 -0.0025506518 -0.013096618
0.0021925792 -0.0019991596 -0.0045748791
0.0026036878 0.0014476673 -0.011202899
-0.002055543 -0.0021370326 -0.0084975846
-0.0001370362 -0.0019991596 -0.00011111111
-0.002740724 -0.0013097941 -0.021753624
0.0023296154 -0.0018612863 -0.017289855
0.002740724 -0.001171921 -0.0022753624
0.002740724 -0.0013097941 -0.0015990338
-0.0021925792 -0.0019991596 -0.012826087
0.0010962896 -0.0028263978 -0.012149759
0.0023296154 0.0019991596 -0.014990338
0 -0.0017234134 -0.024729468
-0.0023296154 -0.0019991596 -0.006603865
-0.0015073982 -0.0025506518 -0.011879227
0.002740724 -0.001034048 -0.024188405
0.0015073982 -0.0025506518 -0.022835748
0.0017814706 0.0025506518 -0.019859903
-0.0023296154 -0.0019991596 -0.0038985508
-0.002055543 0.0022749056 -0.01620773
-0.0012333258 -0.0026885248 -0.023782609
-0.001370362 0.0021370326 -0.00024637682
-0.0028777602 0.00089617493 -0.00051690819
0.002055543 0.0021370326 -0.0060628019
-0.0028777602 -0.00089617493 -0.022971015
-0.0005481448 -0.002964271 -0.01999517
0.0012333258 0.0028263978 -0.015531401
-0.0030147964 0.00089617493 -0.0049806763
-0.0010962896 -0.0028263978 -0.014449275
-0.002055543 -0.0021370326 -0.0076859905
-0.0004111086 0.002964271 -0.0079565216
-0.0017814706 -0.0024127786 -0.0020048309
0.0026036878 0.0014476673 -0.017830918
0.0016444344 0.0026885248 -0.020806763
-0.0002740724 0.003102144 -0.0051159421
0.0012333258 0.0028263978 -0.021753624
-0.001370362 0.0026885248 -0.00024637682
-0.002740724 -0.0013097941 -0.00092270534
-0.0030147964 -0.00020680959 -0.0082270531
0.0028777602 0.00062042882 -0.024594203
0.0009592534 -0.0028263978 -0.01810145
-0.0008222172 -0.0028263978 -0.022700483
0.002740724 -0.0013097941 -0.0029516909
-0.0002740724 0.0017234134 -0.024729468
0.0030147964 -0.00048255574 -0.0072801933
-0.001370362 0.0026885248 -0.014855073
-0.0030147964 0.00062042882 -0.0022753624
-0.0021925792 0.0021370326 -0.011743961
0.0023296154 -0.0018612863 -0.020671498
-0.0017814706 -0.0024127786 -0.022700483
0.0005481448 -0.002964271 -0.017966183
0.0028777602 -0.00075830187 -0.010120773
0.0023296154 0.0018612863 -0.0036280192
-0.0030147964 -0.00020680959 -0.018507246
-0.0021925792 -6.8936533e-05 -0.024729468
0.0005481448 0.002964271 -0.011608696
-0.0015073982 0.0026885248 -0.016342996
0.0010962896 0.0028263978 -0.01810145
-0.0030147964 -6.8936533e-05 -0.014855073
-0.0028777602 -0.00089617493 -0.0025458937
-0.0015073982 0.0026885248 -0.0029516909
0.0023296154 -0.0018612863 -0.0072801933
0.0030147964 -6.8936533e-05 -0.011879227
-0.0030147964 0.00034468266 -0.0079565216
0.0002740724 0.002964271 -0.022294685
-0.0021925792 0.0021370326 -0.0032222222
-0.0030147964 -6.8936533e-05 -0.018507246
-0.0012333258 -0.0026885248 -0.0024106281
0.0001370362 0.002964271 -0.01999517
-0.000685181 -0.002964271 -0.0064685992
-0.0023296154 -0.0021370326 -0.0018695652
-0.0026036878 -0.0015855402 -0.0056570047
-0.000685181 -0.002964271 -0.0021400966
0.0028777602 0.001034048 -0.0055217389
-0.0021925792 -0.0019991596 -0.0028164252
-0.0030147964 -0.00020680959 -0.003357488
-0.0030147964 0.00034468266 -0.023917874
-0.0030147964 -6.8936533e-05 -0.0032222222
0.0008222172 0.0028263978 -0.023241546
-0.0008222172 0.0028263978 -0.016072463
-0.0008222172 -0.0021370326 -0.024594203
0.0010962896 0.0028263978 -0.018777778
0.002740724 0.001171921 -0.021618357
-0.0008222172 0.0021370326 -0.024594203
-0.0017814706 0.0024127786 -0.00092270534
-0.0019185068 -0.0021370326 -0.024594203
-0.0028777602 0.0013097941 -0.014990338
0.0009592534 -0.0028263978 -0.017560387
0.002740724 0.0013097941 -0.011067633
-0.0028777602 0.001171921 -0.012149759
-0.002740724 0.0014476673 -0.022700483
-0.0005481448 0.001034048 -0.024864735
0.0028777602 -0.00089617493 -0.010932367
0.0015073982 -0.0026885248 -0.017019324
-0.0030147964 0.00062042882 -0.003763285
-0.0002740724 -0.002964271 -0.024594203
0.002740724 0.0014476673 -0.013772947
0.0008222172 -0.0028263978 -0.011338164
0.0028777602 -0.00089617493 -0.018507246
-0.000685181 0.002964271 -0.011608696
-0.0009592534 -0.0028263978 -0.01242029
-0.0001370362 -0.002964271 -0.010661836
0.002055543 0.0021370326 -0.0063333334
-0.0019185068 0.0022749056 -0.017830918
0.0030147964 -6.8936533e-05 -0.0022753624
-0.0019185068 -0.001171921 -0.024594203
0.0012333258 0.0015855402 -0.024729468
-0.0028777602 -0.001171921 -0.01052657
-0.0030147964 -6.8936533e-05 -0.017560387
-0.0019185068 0.0024127786 -0.021212561
0.002740724 0.0013097941 -0.0052512079
-0.0023296154 -0.0019991596 -0.0045748791
0.0026036878 -0.0014476673 -0.018642511
-0.002055543 -0.0021370326 -0.00038164252
0.0001370362 -0.002964271 -0.020536233
-0.0005481448 -0.003102144 -0.0072801933
0.0016444344 -0.0025506518 -0.022971015
0.0009592534 -0.0022749056 -0.024594203
0.0009592534 -0.0028263978 -0.013772947
-0.0030147964 0.00089617493 -0.0063333334
0.0016444344 0.0026885248 -0.015531401
0.0024666516 -0.0017234134 -0.024188405
-0.0002740724 0.003102144 -0.0076859905
-0.0016444344 0.0025506518 -0.024323672
-0.0019185068 0.0022749056 -0.021618357
0.0008222172 -0.0028263978 -0.0025458937
-0.0031518326 6.8936533e-05 -0.0063333334
0.0030147964 0.00075830187 -0.013502415
0.002055543 0.0021370326 -0.0089033814
-0.0016444344 0.0025506518 -0.0094444444
-0.0030147964 -0.00048255574 -0.014584541
-0.0030147964 0.00034468266 -0.0030869565
-0.0026036878 -0.0015855402 -0.0048454106
-0.0028777602 -0.00062042882 -0.019724637
-0.0021925792 -0.0019991596 -0.022565218
-0.0009592534 0.002964271 -0.0047101448
-0.0010962896 -0.0028263978 -0.0080917878
-0.0021925792 -0.00089617493 -0.024594203
0.0015073982 0.0024127786 -0.00065217394
-0.0021925792 0.0021370326 -0.0076859905
-0.0030147964 0.00062042882 -0.017966183
0.0023296154 0.0018612863 -0.022565218
-0.0030147964 0.00034468266 -0.0036280192
0.0015073982 -0.0026885248 -0.0070096618
-0.0008222172 0.002964271 -0.0040338165
-0.0012333258 -0.0026885248 -0.021753624
-0.0012333258 0.0028263978 -0.016748792
0.0008222172 0.0028263978 -0.01526087
-0.0023296154 -0.0019991596 -0.022835748
-0.002055543 0.0022749056 -0.021212561
0.0001370362 0.002964271 -0.022700483
-0.002055543 0.0022749056 -0.01147343
-0.0028777602 -0.00062042882 -0.016884059
-0.0016444344 -0.0025506518 -0.0053864736
-0.0012333258 -0.0026885248 -0.016478261
0.0030147964 -0.00048255574 -0.0202657
0.0015073982 -0.0013097941 -0.024729468
0.001370362 0.00089617493 -0.00011111111
-0.0005481448 0.002964271 -0.006874396
0.0031518326 0.00020680959 -0.0076859905
-0.002740724 -0.0013097941 -0.015937198
-0.0024666516 0.0017234134 -0.0075507248
0.0019185068 0.0024127786 -0.0093091791
-0.0009592534 0.002964271 -0.022565218
0.002740724 -0.0013097941 -0.0072801933
0.0021925792 -0.0019991596 -0.0025458937
-0.0010962896 -6.8936533e-05 0.0020531402
-0.0030147964 0.00034468266 -0.017966183
-0.0030147964 6.8936533e-05 -0.0056570047
0.0021925792 -0.0021370326 -0.020671498
0.0015073982 -0.0026885248 -0.0076859905
0.002740724 -0.001034048 -0.003357488
0.0021925792 -0.0019991596 -0.0064685992
-0.0004111086 -0.002964271 -0.0099855075
0.002055543 -0.00075830187 -0.00024637682
-0.0023296154 0.0018612863 -0.0071449275
-0.0028777602 0.00089617493 -0.0084975846
-0.000685181 0.002964271 -0.023106281
0.0009592534 0.0028263978 -0.013772947
-0.0023296154 0.0018612863 -0.018913044
0.002740724 0.001171921 -0.017019324
0.0008222172 -0.0028263978 -0.016884059
-0.0012333258 -6.8936533e-05 0.001647343
0.0023296154 0.0018612863 -0.01052657
-0.0009592534 -0.002964271 -0.024323672
-0.001370362 0.0026885248 -0.01336715
-0.0028777602 -0.001034048 -0.015801933
0.0015073982 -0.0025506518 -0.007415459
-0.000685181 0.002964271 -0.0040338165
0.0001370362 0.002964271 -0.02405314
0.002740724 -0.0013097941 -0.0011932367
0.0017814706 -0.0025506518 -0.023917874
-0.0004111086 0.002964271 -0.0048454106
0.0024666516 -0.0015855402 -0.010797101
0.0010962896 0.0028263978 -0.013231884
-0.0009592534 -0.0021370326 -0.024594203
-0.0009592534 0.0018612863 -0.024594203
0.0030147964 0.00048255574 -0.010797101
-0.0026036878 0.0015855402 -0.014584541
0.0010962896 0.0028263978 -0.016884059
0.0015073982 0.0026885248 -0.006874396
-0.0009592534 -0.0028263978 -0.0018695652
0.0026036878 0.0015855402 -0.02215942
-0.0017814706 0.0024127786 -0.014855073
-0.002055543 -0.0022749056 -0.0083623184
-0.0024666516 -0.0018612863 -0.018777778
-0.0030147964 0.00048255574 -0.0094444444
0.002740724 -0.001171921 -0.0091739129
0.0030147964 0.00075830187 -0.0049806763
-0.0002740724 0.003102144 -0.0090386476
0.0030147964 0.00048255574 -0.016748792
-0.0024666516 -0.001171921 -0.024594203
0.0026036878 0.0015855402 -0.0022753624
-0.0012333258 0.0028263978 -0.01742512
-0.0030147964 -0.00020680959 -0.01810145
0.0005481448 0.002964271 -0.021483092
0.0019185068 0.0024127786 -0.0076859905
-0.0030147964 -0.00089617493 -0.0014637681
-0.0030147964 -0.00075830187 -0.0034927537
0.0002740724 0.002964271 -0.01147343
-0.0028777602 -0.001171921 -0.0080917878
0.0028777602 0.00089617493 -0.00038164252
0.0001370362 -0.002964271 -0.0071449275
-0.0010962896 -0.00020680959 0.000294686
0.0008222172 -0.0022749056 -0.024594203
-0.0004111086 0.0015855402 -0.00011111111
0.0023296154 -0.0018612863 -0.020806763
0.0028777602 -0.00075830187 -0.012149759
-0.0030147964 0.00075830187 -0.016748792
-0.002740724 0.0013097941 -0.010661836
0.0021925792 0.0019991596 -0.0082270531
0.0004111086 0.002964271 -0.0013285024
-0.0030147964 0.00048255574 -0.015531401
0.0010962896 0.0015855402 -0.00011111111
0.0012333258 -6.8936533e-05 0.0013768116
-0.0030147964 0.00089617493 -0.0076859905
-0.0008222172 -0.0028263978 -0.019048309
0.0030147964 -6.8936533e-05 -0.015125603
-0.0005481448 -0.003102144 -0.017019324
0.0021925792 0.0019991596 -0.010797101
0.0016444344 0.0026885248 -0.022835748
-0.0008222172 -0.0028263978 -0.011067633
0.0030147964 0.00062042882 -0.010120773
-0.0009592534 -0.00034468266 -0.00011111111
-0.0008222172 -0.002964271 -0.0076859905
-0.0001370362 -0.003102144 -0.020806763
0.0024666516 -0.0017234134 -0.0067391302
-0.0024666516 -0.0017234134 -0.0026811594
-0.0001370362 -0.002964271 -0.016748792
-0.0005481448 0.003102144 -0.019048309
0.0002740724 0.002964271 -0.00024637682
-0.0024666516 0.0018612863 -0.0063333334
0.0019185068 0.0024127786 -0.011743961
-0.0010962896 0.0028263978 -0.011743961
0.0026036878 -0.0014476673 -0.01052657
-0.0004111086 0.0014476673 -0.00011111111
-0.0028777602 -0.00075830187 -0.003357488
-0.0008222172 0.002964271 -0.0028164252
0.002055543 0.0022749056 -0.022835748
0.0030147964 -0.00048255574 -0.0056570047
0.0001370362 -0.002964271 -0.01742512
-0.0005481448 0.002964271 -0.0079565216
-0.001370362 0.0026885248 -0.023647344
0.0030147964 -0.00020680959 -0.003763285
0.0009592534 -0.0028263978 -0.019724637
0.0001370362 0.002964271 -0.015937198
0.0015073982 -0.0025506518 -0.012961352
-0.0002740724 0.003102144 -0.0017342995
-0.0026036878 -0.0015855402 -0.012690822
-0.0030147964 -0.00062042882 -0.0087681161
-0.0004111086 0.002964271 -0.01999517
-0.0016444344 -0.0014476673 -0.024729468
0.0016444344 0.0019991596 -0.00024637682
-0.0005481448 0.002964271 -0.018507246
0.0021925792 -0.0021370326 -0.015666667
0.0008222172 0.0017234134 -0.024729468
-0.0030147964 0.00075830187 -0.022565218
0.0016444344 -0.0025506518 -0.015396135
-0.000685181 0.002964271 -0.019318841
-0.0021925792 0.00034468266 -0.024729468
0.0030147964 -0.00034468266 -0.0078212563
0.0024666516 -0.0014476673 -0.00078743964
-0.0016444344 0.0026885248 -0.021077294
-0.0008222172 0.002964271 -0.018371981
0.0017814706 -0.0024127786 -0.023241546
0.0024666516 -0.0018612863 -0.019859903
-0.0031518326 0.00020680959 -0.0095797097
-0.0021925792 0.0021370326 -0.011338164
0.0030147964 0.00034468266 -0.0078212563
0.0016444344 -0.0025506518 -0.01620773
0.0017814706 0.0025506518 -0.023241546
-0.0028777602 -0.00089617493 -0.0084975846
-0.0005481448 0.003102144 -0.024458937
0.0023296154 0.0019991596 -0.0091739129
0.002055543 0.0022749056 -0.023647344
0.002740724 0.0013097941 -0.017966183
0.001370362 0.00020680959 0.0012415459
-0.0009592534 -0.0028263978 -0.013637681
0.0028777602 -0.00062042882 -0.0090386476
0.0028777602 -0.00062042882 -0.0082270531
0.0024666516 0.0017234134 -0.0038985508
0.0016444344 0.0025506518 -0.001057971
-0.0016444344 0.0025506518 -0.0026811594
-0.0002740724 -0.002964271 -0.003763285
-0.0028777602 -0.001034048 -0.018642511
0.0017814706 -0.0024127786 -0.01052657
0.0019185068 -0.0022749056 -0.0083623184
-0.0016444344 0.0025506518 -0.0091739129
0.0002740724 0.002964271 -0.0070096618
0.0021925792 -0.0019991596 -0.010661836
-0.0004111086 0.003102144 -0.0087681161
-0.0023296154 -0.0019991596 -0.020130435
0.0012333258 -0.0026885248 -0.016884059
-0.0023296154 -0.0019991596 -0.020806763
-0.0024666516 0.0015855402 -0.00038164252
0.002055543 0.0022749056 -0.010120773
0.0028777602 0.001034048 -0.0057922704
0.0005481448 -0.002964271 -0.018236715
0.0017814706 0.0022749056 -0.00078743964
-0.0002740724 -0.0026885248 -0.024594203
0.0001370362 0.002964271 -0.013637681
0.0001370362 0.002964271 -0.0028164252
0.0023296154 -0.0018612863 -0.017695652
-0.0004111086 0.002964271 -0.0099855075
0.0019185068 0.0017234134 -0.00024637682
-0.0001370362 0.002964271 -0.0013285024
-0.0030147964 -0.00034468266 -0.022565218
-0.0030147964 0.00020680959 -0.0018695652
0 0.002964271 -0.00092270534
0.0023296154 -0.0018612863 -0.0053864736
0.0004111086 -0.0018612863 -0.024729468
-0.0031518326 0.00034468266 -0.0049806763
-0.0017814706 -0.0024127786 -0.006603865
0.001370362 -6.8936533e-05 -0.00011111111
-0.0015073982 0.0025506518 -0.0034927537
-0.000685181 -0.002964271 -0.019589372
-0.002740724 -0.0013097941 -0.0067391302
-0.0002740724 -0.002964271 -0.022294685
-0.0019185068 -0.0024127786 -0.024458937
-0.0010962896 0.0028263978 -0.011067633
0.0004111086 -0.002964271 -0.0091739129
-0.0019185068 -0.0022749056 -0.0083623184
0.0026036878 0.0014476673 -0.01052657
-0.0016444344 -0.0025506518 -0.00024637682
-0.0024666516 0.0017234134 -0.013637681
-0.0030147964 0.00048255574 -0.0041690823
0.0023296154 0.0018612863 -0.024188405
-0.0005481448 0.0015855402 -0.024729468
0.0001370362 0.002964271 -0.0011932367
-0.0030147964 -0.00048255574 -0.0083623184
0.0031518326 0.00020680959 -0.018507246
-0.0001370362 0.00089617493 -0.00011111111
0.0001370362 0.002964271 -0.020806763
-0.0019185068 0.0022749056 -0.016613526
0.0002740724 -0.002964271 -0.011067633
0.0001370362 -0.002964271 -0.017695652
-0.0010962896 -6.8936533e-05 0.0017826087
0.0005481448 -0.00020680959 -0.00011111111
0.002055543 -0.0021370326 -0.009714976
0.001370362 0.0028263978 -0.01742512
-0.0024666516 0.0017234134 -0.016342996
0.002055543 0.0022749056 -0.020400966
0.0030147964 6.8936533e-05 -0.021618357
-0.0005481448 -0.002964271 -0.0011932367
0.0010962896 -0.0015855402 -0.024729468
0.0030147964 6.8936533e-05 -0.01431401
0.0021925792 0.0021370326 -0.010120773
0.0028777602 0.00089617493 -0.0083623184
-0.0030147964 -6.8936533e-05 -0.017019324
0.0026036878 0.0014476673 -0.010797101
-0.0002740724 -0.003102144 -0.0044396133
-0.0004111086 -0.001171921 -0.024864735
0.0017814706 0.0024127786 -0.022429952
-0.0008222172 -0.0015855402 -0.024729468
0.002740724 -0.001171921 -0.021888889
0.002055543 -0.0021370326 -0.01052657
0.0012333258 0.00020680959 0.0004299517
0.002740724 0.0013097941 -0.019454107
0.001370362 -0.001034048 -0.00011111111
0.002740724 -0.001034048 -0.022700483
0.000685181 -0.002964271 -0.0056570047
-0.0030147964 0.00034468266 -0.014043478
-0.0030147964 -0.00020680959 -0.006603865
-0.0023296154 -0.0019991596 -0.0070096618
0.0016444344 -0.0025506518 -0.013502415
-0.0026036878 0.0014476673 -0.0098502412
0 -0.0017234134 -0.00011111111
0.0005481448 0.002964271 -0.006603865
0.0028777602 0.001034048 -0.0091739129
0.0030147964 -0.00020680959 -0.017560387
0 0.003102144 -0.0094444444
-0.0002740724 0.001171921 -0.024864735
0.0004111086 -0.00034468266 -0.024864735
-0.0031518326 6.8936533e-05 -0.0094444444
0.0030147964 -0.00048255574 -0.018642511
-0.0026036878 0.0015855402 -0.010661836
-0.0017814706 -0.0024127786 -0.010661836
0.0015073982 -0.001171921 -0.024729468
0.0002740724 -0.002964271 -0.017019324
-0.0030147964 -6.8936533e-05 -0.019454107
-0.0030147964 -0.00075830187 -0.022565218
-0.0019185068 -0.0022749056 -0.022565218
0.0030147964 -0.00048255574 -0.0091739129
0 0.003102144 -0.019454107
-0.001370362 -0.0026885248 -0.010391304
-0.002055543 0.0022749056 -0.0079565216
0.0012333258 0.0028263978 -0.0064685992
-0.002055543 0.0022749056 -0.0067391302
-0.001370362 0.0026885248 -0.0086328499
0 0.002964271 -0.00024637682
0.0009592534 -0.0028263978 -0.024458937
-0.0030147964 0.00020680959 -0.0025458937
-0.0019185068 -0.0022749056 -0.015531401
-0.0026036878 -0.0017234134 -0.0018695652
0.0023296154 -0.0019991596 -0.021347826
0.0001370362 -0.002964271 -0.016342996
-0.0010962896 0.0028263978 -0.0014637681
-0.0026036878 0.0015855402 -0.011202899
-0.002740724 0.0014476673 -0.022971015
-0.000685181 -0.0015855402 -0.024729468
-0.0030147964 -0.00034468266 -0.015396135
0.0030147964 0.00089617493 -0.0095797097
-0.0001370362 -0.002964271 -0.013908213
0.0030147964 6.8936533e-05 -0.0053864736
-0.001370362 -0.0024127786 -0.00024637682
-0.0021925792 -0.0021370326 -0.02405314
0 -0.002964271 -0.013502415
0 0.002964271 -0.012285024
0.0009592534 0.0028263978 -0.016342996
-0.002740724 0.001034048 -0.00024637682
-0.0017814706 0.0025506518 -0.017019324
0.0028777602 0.001034048 -0.010256039
-0.001370362 0.0026885248 -0.004304348
0.002740724 -0.0013097941 -0.011879227
0.0030147964 0.00034468266 -0.0040338165
-0.0031518326 0.00020680959 -0.011879227
0.0031518326 -6.8936533e-05 -0.01242029
0.000685181 0.002964271 -0.0024106281
0.001370362 0.0026885248 -0.0017342995
0.001370362 0.00020680959 0.0007004831
-0.0004111086 -0.002964271 -0.020536233
-0.0026036878 0.0014476673 -0.021753624
-0.002740724 0.0014476673 -0.0067391302
-0.0004111086 0.002964271 -0.014449275
-0.0023296154 -0.0019991596 -0.0202657
0.0004111086 0.002964271 -0.0038985508
0.002055543 -0.0022749056 -0.010391304
0.002740724 -0.0013097941 -0.021212561
-0.002740724 -0.0013097941 -0.003763285
-0.0021925792 0.0021370326 -0.011879227
-0.0028777602 -0.001171921 -0.0051159421
0.0028777602 0.00089617493 -0.003763285
0.002740724 -0.001171921 -0.019454107
-0.0030147964 -0.00020680959 -0.016478261
-0.0030147964 -0.00062042882 -0.018236715
-0.001370362 -0.0026885248 -0.017966183
-0.000685181 -0.002964271 -0.0095797097
0.000685181 0.002964271 -0.017560387
-0.0028777602 -0.00089617493 -0.006874396
-0.0008222172 -0.002964271 -0.023512077
0.000685181 0.002964271 -0.011202899
0.000685181 -0.002964271 -0.0030869565
0.0030147964 0.00048255574 -0.0067391302
0.002055543 0.0022749056 -0.023106281
-0.002055543 -0.0021370326 -0.013502415
0.0015073982 -0.0025506518 -0.012690822
-0.0001370362 -0.002964271 -0.0045748791
0.0023296154 -0.0018612863 -0.010391304
0.0001370362 0.0025506518 -0.00024637682
-0.0016444344 -0.0013097941 -0.00011111111
0.0028777602 0.00089617493 -0.01147343
0 -0.003102144 -0.013772947
-0.0016444344 -0.0025506518 -0.023512077
-0.002055543 -0.0022749056 -0.022565218
-0.002740724 0.001171921 -0.017154589
-0.0026036878 0.0014476673 -0.017289855
-0.0019185068 0.0022749056 -0.02405314
0.0015073982 0.0026885248 -0.020671498
0.0017814706 -0.0024127786 -0.0080917878
-0.0028777602 0.001034048 -0.023376811
-0.0028777602 -0.00089617493 -0.01242029
0.0028777602 0.00089617493 -0.020536233
-0.0005481448 -0.002964271 -0.014990338
0.002055543 0.0021370326 -0.018507246
-0.0002740724 0.003102144 -0.0047101448
-0.001370362 -0.0026885248 -0.0098502412
-0.0030147964 -0.00075830187 -0.01810145
0.0017814706 0.0024127786 -0.014719807
0.0028777602 -0.00075830187 -0.01526087
-0.0009592534 0.0028263978 -0.00024637682
0.0009592534 -0.0028263978 -0.014178744
0.0026036878 0.0014476673 -0.0056570047
-0.0016444344 0.0025506518 -0.0093091791
-0.002055543 0.0021370326 -0.015801933
-0.0012333258 -0.0026885248 -0.014719807
-0.0030147964 -0.00034468266 -0.0093091791
0 0.003102144 -0.013772947
0.0002740724 0.002964271 -0.018507246
-0.0023296154 -0.00048255574 -0.00024637682
-0.0023296154 -0.0019991596 -0.006874396
-0.0008222172 0.002964271 -0.021212561
-0.002740724 -0.0014476673 -0.013231884
-0.0004111086 -0.002964271 -0.021753624
-0.0008222172 -0.002964271 -0.013908213
0.0015073982 -0.0025506518 -0.023106281
0.0001370362 -0.002964271 -0.021212561
-0.0010962896 -0.0028263978 -0.012285024
0 0.002964271 -0.013231884
0.0023296154 -0.0018612863 -0.0082270531
0.0001370362 -0.002964271 -0.021888889
0.0004111086 -0.002964271 -0.0089033814
0.0023296154 -0.0019991596 -0.018642511
0.002055543 0.0022749056 -0.018371981
-0.0031518326 -6.8936533e-05 -0.0084975846
-0.0008222172 0.0028263978 -0.0095797097
-0.0008222172 -0.0028263978 -0.023106281
-0.0001370362 -0.002964271 -0.0099855075
-0.0016444344 0.0025506518 -0.01052657
0.002055543 -0.0021370326 -0.0076859905
-0.002055543 -0.0019991596 -0.00065217394
-0.0009592534 0.0028263978 -0.024458937
-0.0028777602 -0.001034048 -0.010797101
-0.0028777602 -0.001171921 -0.021618357
-0.0001370362 0.0017234134 -0.024729468
0.0030147964 0.00062042882 -0.022024155
0.002055543 -0.0021370326 -0.01336715
0 -0.003102144 -0.022971015
-0.0005481448 0.003102144 -0.0059275362
-0.0002740724 0.0025506518 -0.024594203
-0.0016444344 0.0025506518 -0.012285024
-0.0026036878 0.0014476673 -0.021618357
0.0024666516 -0.0013097941 -0.024594203
-0.0031518326 6.8936533e-05 -0.011202899
0 -0.003102144 -0.003763285
0.0004111086 -0.002964271 -0.015666667
-0.001370362 6.8936533e-05 0.0024589372
-0.0016444344 0.0017234134 -0.00024637682
-0.001370362 -0.0026885248 -0.019454107
-0.0031518326 0.00034468266 -0.0083623184
-0.0001370362 0.003102144 -0.022294685
0.002055543 -0.0021370326 -0.0098502412
0.0017814706 0.0025506518 -0.0048454106
-0.002740724 -0.0013097941 -0.011743961
-0.0030147964 0.00048255574 -0.024458937
0.001370362 0.0015855402 -0.00024637682
0.002055543 0.0022749056 -0.015937198
-0.0023296154 -0.0018612863 -0.0013285024
0.0010962896 6.8936533e-05 0.0023236715
-0.0019185068 -0.0022749056 -0.007415459
-0.0016444344 -0.00089617493 -0.024729468
0.0030147964 -0.00034468266 -0.015396135
-0.0028777602 -0.001034048 -0.015937198
-0.0023296154 0.0018612863 -0.018507246
-0.0030147964 -6.8936533e-05 -0.0078212563
0.000685181 -0.001034048 -0.00011111111
-0.000685181 -0.002964271 -0.015531401
-0.0001370362 -0.003102144 -0.021753624
-0.0012333258 6.8936533e-05 0.0008357488
-0.0021925792 0.00048255574 -0.00024637682
-0.0024666516 0.0018612863 -0.024323672
-0.0030147964 6.8936533e-05 -0.0055217389
0.0024666516 -0.0017234134 -0.016748792
-0.0031518326 0.00020680959 -0.014584541
0.0026036878 0.0015855402 -0.018913044
0.0030147964 0.00075830187 -0.0064685992
-0.002055543 0.0022749056 -0.01526087
-0.002740724 0.001171921 -0.015801933
0.0010962896 0.0028263978 -0.00092270534
0.0005481448 -0.0026885248 -0.00024637682
-0.0024666516 -0.0017234134 -0.0079565216
-0.0030147964 -0.00034468266 -0.018507246
0.0016444344 0.0026885248 -0.0032222222
-0.002055543 0.0022749056 -0.016478261
0.0019185068 0.0024127786 -0.020806763
0.0026036878 -0.0014476673 -0.022971015
-0.0024666516 0.0018612863 -0.0087681161
0.0001370362 -0.002964271 -0.01336715
0.0001370362 0.002964271 -0.015125603
-0.0028777602 -0.00062042882 -0.00024637682
-0.0015073982 0.0026885248 -0.022835748
0.0010962896 0.0028263978 -0.001057971
0.0028777602 -0.00089617493 -0.021483092
-0.0009592534 0.002964271 -0.019048309
-0.0030147964 6.8936533e-05 -0.022971015
-0.0030147964 0.00048255574 -0.0015990338
-0.0023296154 -0.0018612863 -0.00038164252
0.0024666516 0.0017234134 -0.013772947
0.0030147964 -0.00034468266 -0.018236715
0.002055543 -0.0022749056 -0.0082270531
0.0030147964 -0.00034468266 -0.012285024
-0.002055543 -0.0021370326 -0.018507246
0.000685181 -0.002964271 -0.016072463
-0.0008222172 -0.002964271 -0.0056570047
0.0031518326 -0.00020680959 -0.020536233
0.0024666516 -0.0015855402 -0.00092270534
0 -0.003102144 -0.01336715
0.0028777602 0.00089617493 -0.010932367
-0.000685181 -0.002964271 -0.015396135
0.0015073982 0.0025506518 -0.024594203
0.0026036878 0.0014476673 -0.0072801933
-0.0026036878 -0.0015855402 -0.018507246
0.0002740724 0.0019991596 -0.024729468
0.0023296154 0.0019991596 -0.0064685992
0.0028777602 0.001171921 -0.01526087
-0.002740724 0.0013097941 -0.009714976
0.0028777602 -0.00062042882 -0.020942029
-0.0001370362 0.003102144 -0.0040338165
-0.0012333258 -0.001034048 -0.00011111111
-0.002740724 -0.0014476673 -0.0086328499
-0.0002740724 -0.002964271 -0.01810145
-0.0012333258 -0.0026885248 -0.015531401
0.002055543 0.0022749056 -0.011608696
0 -0.002964271 -0.014990338
0 -0.003102144 -0.015125603
-0.0028777602 -0.001034048 -0.017154589
-0.0030147964 0.00048255574 -0.017154589
-0.0030147964 0.00062042882 -0.020942029
-0.0016444344 -0.0024127786 -0.024594203
-0.0005481448 -0.002964271 -0.015125603
0.0021925792 -0.0019991596 -0.011067633
-0.002055543 0.0021370326 -0.021483092
0.0017814706 -0.0024127786 -0.023782609
-0.000685181 -0.002964271 -0.0022753624
-0.0010962896 0.0028263978 -0.018236715
-0.0028777602 0.0013097941 -0.011879227
0.0005481448 -0.0013097941 -0.00011111111
0.002740724 0.0013097941 -0.019859903
-0.0012333258 -0.00048255574 -0.024729468
0.0015073982 0.0026885248 -0.016613526
0.002740724 -0.0013097941 -0.014584541
-0.0001370362 0.003102144 -0.006603865
-0.0030147964 6.8936533e-05 -0.023917874
0.0024666516 -0.0017234134 -0.011338164
0.0008222172 -0.0028263978 -0.013096618
0.0015073982 0.0026885248 -0.018371981
0.0030147964 6.8936533e-05 -0.010932367
-0.002740724 -0.0014476673 -0.020942029
0.0031518326 0.00020680959 -0.0055217389
-0.0030147964 0.00034468266 -0.021077294
0.0021925792 -0.0019991596 -0.0026811594
0.0021925792 0.0019991596 -0.0049806763
-0.0008222172 -0.002964271 -0.023241546
-0.0030147964 0.00020680959 -0.00024637682
-0.0002740724 0.002964271 -0.0095797097
0.0019185068 -0.0015855402 -0.024594203
-0.0030147964 0.00034468266 -0.0091739129
0.0026036878 -0.0015855402 -0.019454107
-0.0015073982 0.0026885248 -0.0047101448
0.0005481448 -0.002964271 -0.0057922704
0.002055543 0.0022749056 -0.019454107
-0.0017814706 0.0024127786 -0.01147343
-0.0023296154 -0.0019991596 -0.0095797097
0.0028777602 0.001034048 -0.02405314
-0.000685181 0.002964271 -0.00024637682
0.0026036878 -0.0015855402 -0.021618357
-0.0021925792 0.0019991596 -0.00024637682
-0.0002740724 -0.002964271 -0.014855073
0.002740724 -0.001034048 -0.021212561
0.0021925792 0.0019991596 -0.023917874
-0.0002740724 0.002964271 -0.0084975846
-0.0010962896 0.0026885248 -0.00065217394
-0.0021925792 0.0021370326 -0.0079565216
0.0005481448 0.002964271 -0.0087681161
0.000685181 0.002964271 -0.0036280192
-0.0028777602 -0.001034048 -0.0089033814
-0.0030147964 0.00048255574 -0.0028164252
0.0008222172 -0.00020680959 -0.00011111111
0.001370362 0.0028263978 -0.01336715
0.0024666516 -0.0017234134 -0.02405314
-0.0023296154 0.0018612863 -0.017289855
-0.0030147964 0.00075830187 -0.023647344
-0.000685181 -0.002964271 -0.024323672
-0.0023296154 0.0018612863 -0.01999517
0.0001370362 0.002964271 -0.01620773
0.0028777602 -0.00075830187 -0.010256039
-0.0030147964 0.00034468266 -0.0022753624
0.0002740724 -0.002964271 -0.0014637681
0.0030147964 0.00075830187 -0.010256039
-0.0028777602 0.001171921 -0.0030869565
0.0026036878 0.0014476673 -0.012826087
0.0005481448 0.0013097941 -0.00011111111
