# .PCD v0.7 - Point Cloud Data file format
VERSION 0.7
FIELDS x y z
SIZE 4 4 4
TYPE F F F
COUNT 1 1 1
WIDTH 1195
HEIGHT 1
VIEWPOINT 0 0 0 1 0 0 0
POINTS 1195
DATA ascii
-0.0087358719 -0.00026462361 -0.020478528
-0.0074122548 -0.0021169889 -0.00042944786
0 0.0084679555 -0.00201227
-0.0031766805 0.0082033323 -0.038680982
-0.0087358719 -0.00079387083 -0.022325153
-0.0018530637 0.0018523653 -0.039999999
0.0039708507 0.0079387082 -0.016521472
-0.0087358719 -0.00052924722 -0.028656442
-0.0087358719 0 -0.011773006
-0.0018530637 -0.0039693541 -0.039999999
0.0026472339 0.0084679555 -0.026809815
-0.0087358719 0.00052924722 -0.019423313
0.0037061274 -0.007674085 -0.0022760737
-0.0087358719 -0.00026462361 -0.034723926
0.0084711481 -0.0026462362 -0.035779141
-0.0087358719 0.0015877417 -0.032349695
0.0052944678 -0.0071448376 -0.0078159506
0 -0.0026462362 -0.00016564417
-0.0082064252 0.003440107 -0.013355828
-0.002117787 -0.0084679555 -0.0041226996
0.0055591911 -0.006880214 -0.017576687
-0.0058239144 0.0066155903 -0.021797545
-0.0066180849 -0.0058217193 -0.0057055214
-0.0045002974 -0.00079387083 -0.00016564417
0 0.0087325796 -0.018104294
0.0076769781 -0.0044986014 -0.006760736
-0.002117787 0.0084679555 -0.0078159506
0.00052944676 -0.0087325796 -0.0049141105
0.002117787 -0.0084679555 -0.027337423
-0.0084711481 0.0018523653 -0.00069325155
-0.0071475315 -0.0050278488 -0.037625767
-0.0084711481 0.0026462362 -0.039208587
0.0074122548 -0.0047632251 -0.028392637
-0.0079417014 0.0039693541 -0.039208587
-0.002117787 -0.007674085 -0.039472394
0.0087358719 -0.0015877417 -0.016257668
0.002117787 0.0084679555 -0.010190184
-0.0039708507 0.0031754833 -0.039736196
0.0055591911 0.0031754833 -0.00042944786
0.0039708507 0.0079387082 -0.037625767
-0.0087358719 -0.00079387083 -0.039208587
0.0079417014 0.0039693541 -0.03129448
0.0087358719 0.00079387083 -0.015993865
-0.0060886377 0 -0.00016564417
0.0084711481 0.0026462362 -0.00069325155
0.0018530637 0.0026462362 -0.039999999
-0.0076769781 0.0042339778 -0.021533743
-0.0029119572 0.0082033323 -0.0046503069
-0.004235574 0.0018523653 -0.039999999
0.0055591911 -0.006880214 -0.0025398773
-0.0084711481 -0.0023816125 -0.029975461
-0.0050297445 0.0023816125 -0.039736196
-0.00052944676 -0.0087325796 -0.029447854
0.0055591911 -0.006880214 -0.021533743
-0.004235574 0.007674085 -0.018631902
0.0082064252 0.0013231181 -0.0017484663
-0.0087358719 -0.0015877417 -0.012828221
-0.0039708507 -0.0071448376 -0.00042944786
0.0060886377 0.003440107 -0.039472394
-0.0087358719 -0.00026462361 -0.01203681
-0.0055591911 -0.006880214 -0.038680982
0.0074122548 -0.0039693541 -0.00042944786
-0.0052944678 0.0071448376 -0.0033312882
0.0029119572 0.0082033323 -0.019687116
0.00079417013 0.0087325796 -0.021797545
0.0087358719 -0.0015877417 -0.0086073624
-0.0084711481 -0.0013231181 -0.00042944786
0.0071475315 -0.0050278488 -0.0072883437
-0.0052944678 0.0071448376 -0.01704908
0.0082064252 -0.0029108597 -0.025226993
-0.0074122548 -0.0047632251 -0.014674847
0.0010588935 0.0058217193 -0.039736196
0.0015883403 0.0082033323 -0.00042944786
0.0084711481 0.0023816125 -0.034987729
0.0084711481 -0.0021169889 -0.017840492
0.0082064252 0.003440107 -0.0049141105
0.0023825106 0.0031754833 -0.039999999
-0.0060886377 0.0063509666 -0.0033312882
0.0034414041 -0.0079387082 -0.0012208589
0.00079417013 0.0087325796 -0.016257668
-0.0082064252 0.0031754833 -0.0078159506
-0.00026472338 -0.0087325796 -0.02285276
-0.0058239144 0.0066155903 -0.0086073624
0.00052944676 0.0015877417 -0.039999999
0.0050297445 0.0071448376 -0.022588957
0.00052944676 0.0087325796 -0.03788957
0.0029119572 0.0082033323 -0.017312884
0.0015883403 0.0031754833 -0.00016564417
-0.0023825106 0.0082033323 -0.039208587
0.0015883403 -0.0018523653 -0.039999999
-0.0071475315 -0.0052924724 -0.027337423
-0.0074122548 -0.0047632251 -0.016785275
-0.0018530637 -0.0084679555 -0.022588957
0.0087358719 0.0010584944 -0.0080797542
-0.0076769781 -0.0031754833 -0.00042944786
0.0084711481 0.0026462362 -0.016521472
0.0087358719 -0.0013231181 -0.010453988
0.0047650211 0.0037047307 -0.00016564417
0.00079417013 0.0087325796 -0.0072883437
0.0037061274 -0.00026462361 0.0027361964
0.0060886377 -0.0021169889 -0.00042944786
0.0031766805 0.0015877417 -0.00016564417
0.0082064252 -0.003440107 -0.018104294
0.002117787 0.0084679555 -0.026018405
-0.0076769781 -0.0042339778 -0.010981595
-0.0076769781 0.0042339778 -0.011773006
-0.0087358719 0.00052924722 -0.0041226996
-0.0087358719 -0.00079387083 -0.030766871
0.0013236169 -0.0087325796 -0.028128834
-0.0026472339 -0.006086343 -0.00042944786
-0.002117787 -0.0084679555 -0.036834355
0.0087358719 0.0010584944 -0.022588957
0.0082064252 0.003440107 -0.0025398773
0.0076769781 -0.0042339778 -0.026546013
0.0050297445 -0.0071448376 -0.0072883437
0.0084711481 0.0018523653 -0.038153373
-0.0037061274 0.0029108597 -0.039736196
-0.0058239144 -0.006086343 -0.0017484663
0.0079417014 -0.0037047307 -0.033932514
0.002117787 0.0084679555 -0.018104294
0.0029119572 0.0074094613 -0.039472394
0 -0.0087325796 -0.030503068
-0.0087358719 -0.0013231181 -0.024963191
-0.0071475315 -0.0052924724 -0.025226993
0.0015883403 0.0087325796 -0.0083435578
-0.0076769781 0.0044986014 -0.0049141105
0.0087358719 -0.0010584944 -0.018895706
0.0082064252 0.0026462362 -0.0022760737
-0.0087358719 0.0010584944 -0.0099263806
0.002117787 -0.0084679555 -0.0012208589
0.0052944678 -0.0071448376 -0.002803681
0.0079417014 0.0037047307 -0.029711656
0.0063533611 0.006086343 -0.030239264
-0.0087358719 0.00052924722 -0.028392637
-0.0068828082 0.0055570961 -0.036042944
-0.0052944678 -0.00026462361 -0.00016564417
0.00052944676 0.0087325796 -0.011509202
0.0023825106 -0.0084679555 -0.011509202
0.0084711481 -0.0021169889 -0.019687116
-0.002117787 0 -0.00016564417
-0.0087358719 -0.00052924722 -0.015730061
-0.0087358719 0 -0.014674847
-0.0087358719 0.0015877417 -0.030239264
-0.0079417014 0.0037047307 -0.011509202
0.00052944676 -0.0087325796 -0.038944785
-0.0060886377 -0.0063509666 -0.021269938
0.002117787 -0.0084679555 -0.0099263806
-0.0026472339 0.0082033323 -0.039208587
-0.0074122548 -0.0047632251 -0.027601227
0.00052944676 0.0087325796 -0.032085888
0.0018530637 -0.0079387082 -0.039472394
-0.00052944676 -0.0087325796 -0.030503068
-0.0023825106 0.0031754833 -0.039999999
0.0087358719 0.0015877417 -0.0041226996
-0.00079417013 0.00052924722 -0.00016564417
0.0031766805 -0.0082033323 -0.015466258
0.0087358719 -0.00026462361 -0.002803681
-0.00052944676 -0.0087325796 -0.022588957
-0.0018530637 -0.0084679555 -0.017576687
-0.0066180849 0.0058217193 -0.011509202
0.0063533611 -0.006086343 -0.033932514
-0.0068828082 0.0055570961 -0.013355828
0 -0.0087325796 -0.03630675
0.0039708507 -0.0079387082 -0.00069325155
-0.0087358719 -0.00079387083 -0.034987729
-0.0068828082 0.0047632251 -0.0017484663
0.0015883403 0.0087325796 -0.0328773
-0.0079417014 0.0039693541 -0.0038588957
0.0052944678 -0.0071448376 -0.030503068
-0.00052944676 0.0087325796 -0.0022760737
-0.0058239144 0.0066155903 -0.033668712
-0.0074122548 0.0047632251 -0.0080797542
-0.0087358719 0 -0.028920246
-0.0039708507 -0.0079387082 -0.008871166
-0.0045002974 0.0058217193 -0.039472394
-0.0013236169 -0.0087325796 -0.006760736
-0.0018530637 0.0084679555 -0.0072883437
-0.0079417014 0.0037047307 -0.031558283
-0.0023825106 -0.0084679555 -0.016785275
-0.0063533611 -0.006086343 -0.023644172
0.0031766805 0.0079387082 -0.0014846625
-0.0079417014 0.0039693541 -0.028128834
0.0047650211 -0.0074094613 -0.028128834
-0.0026472339 -0.0074094613 -0.039472394
-0.0087358719 0.0015877417 -0.025226993
0.0084711481 0.0023816125 -0.03788957
-0.0026472339 0.0084679555 -0.030503068
-0.0031766805 -0.0082033323 -0.027601227
-0.0084711481 -0.0026462362 -0.028920246
0.0018530637 -0.0084679555 -0.018631902
0.0087358719 -0.0015877417 -0.026809815
0.0013236169 0.0055570961 -0.039736196
-0.0068828082 -0.0055570961 -0.031558283
-0.0084711481 -0.0021169889 -0.027601227
0 -0.0055570961 -0.039736196
-0.0050297445 0.0071448376 -0.032349695
0.002117787 0.0058217193 -0.039736196
0.0071475315 0.0052924724 -0.02206135
0.0055591911 0.006880214 -0.016257668
0.00026472338 -0.0087325796 -0.023644172
0.002117787 0.0084679555 -0.002803681
-0.0071475315 -0.0052924724 -0.0046503069
0.0074122548 0.0047632251 -0.019950921
0.0055591911 0.006880214 -0.010981595
-0.0010588935 0.0087325796 -0.025226993
-0.0076769781 -0.0042339778 -0.035251535
0.0055591911 0.006880214 -0.017576687
-0.002117787 -0.0084679555 -0.016521472
-0.0076769781 -0.0042339778 -0.023644172
0.0084711481 0.0023816125 -0.035779141
-0.0023825106 -0.0084679555 -0.035251535
-0.0071475315 0.0052924724 -0.028392637
0.0060886377 -0.0050278488 -0.039472394
0.0076769781 0.0042339778 -0.010717792
0.0015883403 0.0087325796 -0.014411043
0.00052944676 -0.007674085 -0.039472394
-0.0031766805 0.0082033323 -0.028392637
-0.0023825106 0.0084679555 -0.038944785
-0.0071475315 0.0050278488 -0.025490798
-0.0055591911 -0.006880214 -0.024699386
-0.0018530637 -0.0084679555 -0.026809815
0.004235574 0.0055570961 -0.00042944786
0 -0.0058217193 -0.00016564417
-0.0074122548 -0.0047632251 -0.039208587
-0.0079417014 -0.0039693541 -0.013355828
0.0060886377 -0.0026462362 -0.039736196
0.0066180849 0.0058217193 -0.029447854
-0.0010588935 -0.0087325796 -0.010981595
0.0031766805 -0.0082033323 -0.0038588957
0.0037061274 -0.0079387082 -0.010190184
0.0029119572 -0.0039693541 -0.039736196
-0.0029119572 -0.0055570961 -0.00016564417
0.0066180849 -0.0058217193 -0.010717792
-0.0084711481 -0.0023816125 -0.0041226996
0.00052944676 0.0084679555 -0.00042944786
-0.0013236169 0.0087325796 -0.00069325155
0.0015883403 -0.0087325796 -0.028128834
0.0087358719 -0.0015877417 -0.024699386
-0.004235574 -0.007674085 -0.03129448
0.0018530637 -0.0084679555 -0.032613497
-0.0010588935 0.0084679555 -0.0014846625
0.0087358719 -0.0015877417 -0.023116564
0.0060886377 -0.006086343 -0.0022760737
-0.0068828082 0.0055570961 -0.024171779
-0.0018530637 -0.0063509666 -0.00042944786
-0.0082064252 0.003440107 -0.033932514
0.0045002974 -0.007674085 -0.015466258
0.00026472338 0.0055570961 -0.00016564417
-0.0039708507 -0.0079387082 -0.034196317
0.0010588935 0.0013231181 -0.00016564417
-0.00052944676 -0.0087325796 -0.0033312882
-0.0023825106 0.0084679555 -0.032349695
-0.0052944678 0.0071448376 -0.037361965
-0.0079417014 -0.0037047307 -0.039208587
0.0087358719 0.00079387083 -0.0041226996
0.0055591911 -0.00052924722 -0.00016564417
0.0076769781 0.0042339778 -0.031030675
0.0084711481 0.0021169889 -0.0038588957
0.0047650211 -0.0074094613 -0.010453988
-0.0047650211 -0.0074094613 -0.0043865032
-0.0045002974 0.007674085 -0.025226993
0.0050297445 -0.0071448376 -0.0080797542
-0.00079417013 0.0018523653 -0.00016564417
0.0076769781 0.0042339778 -0.0086073624
-0.0068828082 -0.0055570961 -0.018104294
-0.0015883403 -0.0087325796 -0.015466258
-0.0084711481 -0.0023816125 -0.024963191
-0.0084711481 -0.0018523653 -0.033141103
0.0055591911 0.006880214 -0.0075521474
-0.0055591911 -0.006880214 -0.012564417
0.0087358719 -0.0010584944 -0.030239264
-0.0055591911 -0.006880214 -0.021797545
0.0026472339 0.0084679555 -0.023380369
-0.0084711481 -0.0018523653 -0.038417179
0.0087358719 0 -0.0030674846
0.0052944678 -0.0058217193 -0.039472394
-0.00052944676 -0.0087325796 -0.021533743
-0.0029119572 -0.0082033323 -0.015202454
-0.0079417014 -0.0037047307 -0.028128834
-0.00026472338 0.0029108597 -0.039999999
0.0037061274 -0.0079387082 -0.029975461
0.0055591911 0.003440107 -0.039736196
-0.0087358719 0 -0.027601227
-0.0087358719 -0.00026462361 -0.034196317
0.0087358719 -0.00026462361 -0.021533743
0.0037061274 -0.0079387082 -0.0099263806
-0.0060886377 0.0063509666 -0.037098158
0 -0.0087325796 -0.0043865032
0.0026472339 0.0084679555 -0.038680982
0.0066180849 -0.0058217193 -0.037625767
0.0082064252 -0.003440107 -0.029447854
0.0026472339 0.00052924722 -0.00016564417
0.0031766805 0.0082033323 -0.0062331287
0.00079417013 0.0087325796 -0.015202454
-0.0047650211 -0.0029108597 -0.039736196
-0.0034414041 -0.0082033323 -0.03129448
0.0063533611 -0.006086343 -0.019159509
0.0079417014 0.0037047307 -0.021269938
0.0076769781 -0.0042339778 -0.035251535
-0.0079417014 -0.0037047307 -0.024963191
-0.0037061274 -0.0063509666 -0.00042944786
-0.0013236169 0.0029108597 -0.00016564417
-0.0010588935 0.00026462361 -0.00016564417
-0.0052944678 -0.0071448376 -0.02786503
0.0076769781 -0.0042339778 -0.019687116
0.0060886377 -0.0063509666 -0.026282208
0.0013236169 -0.0087325796 -0.025226993
0.0084711481 0.0026462362 -0.013619632
-0.0068828082 0.0047632251 -0.0014846625
0.00079417013 -0.006880214 -0.00042944786
-0.0076769781 -0.0042339778 -0.0041226996
-0.0087358719 0.0010584944 -0.0328773
0.0082064252 0.0031754833 -0.035515338
-0.0087358719 -0.0015877417 -0.0054417178
-0.0045002974 -0.007674085 -0.0075521474
-0.0045002974 0.007674085 -0.014147239
0.0066180849 -0.0010584944 -0.039472394
-0.0079417014 0.0039693541 -0.0030674846
-0.0013236169 -0.0082033323 -0.0017484663
-0.0084711481 -0.0013231181 -0.039208587
0.0052944678 0.0071448376 -0.032085888
0.0034414041 0.0082033323 -0.0059693251
0.0029119572 -0.0082033323 -0.038944785
0 -0.0087325796 -0.020478528
-0.0082064252 0.0031754833 -0.034196317
0.0026472339 0 -0.039999999
-0.0084711481 -0.0021169889 -0.017312884
-0.0087358719 -0.00052924722 -0.014938651
0.0034414041 0.0082033323 -0.037098158
-0.0087358719 0.00079387083 -0.0093987733
0.0010588935 0.0087325796 -0.0062331287
-0.0068828082 -0.0055570961 -0.0086073624
-0.0060886377 0.0063509666 -0.034723926
0.00026472338 0.0052924724 -0.00016564417
-0.0084711481 0.0018523653 -0.021269938
0.0052944678 0.0031754833 -0.00016564417
0.0087358719 0.0015877417 -0.019159509
-0.0066180849 -0.0055570961 -0.00095705519
-0.00079417013 -0.0087325796 -0.010981595
-0.0055591911 -0.0039693541 -0.00042944786
-0.0029119572 -0.0082033323 -0.0064969324
-0.0015883403 0.0087325796 -0.016257668
0.0037061274 0.0079387082 -0.037098158
0.002117787 -0.0084679555 -0.038680982
-0.0068828082 -0.0044986014 -0.039472394
0.0076769781 0.0042339778 -0.038417179
0.0071475315 -0.0050278488 -0.017312884
-0.0029119572 0.0082033323 -0.01203681
-0.0071475315 0.0023816125 -0.00042944786
-0.0071475315 0.0050278488 -0.023644172
0.004235574 0.007674085 -0.021797545
-0.0010588935 -0.0087325796 -0.018104294
0.0013236169 -0.0052924724 -0.00016564417
0.0082064252 -0.0031754833 -0.029711656
0.0063533611 0.006086343 -0.013092024
0.0052944678 -0.0071448376 -0.014147239
0.0034414041 -0.0082033323 -0.012564417
-0.0082064252 0.0031754833 -0.010981595
-0.0015883403 -0.0087325796 -0.038153373
-0.00052944676 0.0087325796 -0.021533743
0.0050297445 0.00052924722 -0.039736196
-0.00052944676 0.0071448376 -0.039472394
0.0031766805 -0.007674085 -0.039208587
0.0013236169 -0.0015877417 -0.039999999
-0.0087358719 0.0010584944 -0.014674847
-0.0050297445 -0.0071448376 -0.013355828
-0.0055591911 -0.0029108597 -0.00016564417
-0.0087358719 -0.00052924722 -0.012828221
-0.0045002974 0.007674085 -0.020214723
0.0082064252 -0.003440107 -0.037625767
0.0039708507 -0.0071448376 -0.00042944786
0.0087358719 -0.00026462361 -0.036042944
0.0039708507 0.0013231181 -0.039999999
-0.0066180849 -0.0058217193 -0.038680982
0.0023825106 -0.0055570961 -0.00016564417
0.00052944676 -0.0087325796 -0.011509202
0.0050297445 -0.0071448376 -0.0059693251
-0.00026472338 -0.0087325796 -0.002803681
-0.0063533611 -0.006086343 -0.023116564
0.0076769781 -0.0042339778 -0.0041226996
-0.0076769781 0.0044986014 -0.035779141
-0.0063533611 -0.0039693541 -0.00042944786
-0.00026472338 0.0042339778 -0.00016564417
0.0071475315 -0.0052924724 -0.032349695
0.0060886377 -0.0063509666 -0.017576687
-0.00026472338 0.0087325796 -0.02285276
-0.0013236169 0.0087325796 -0.026809815
0.0034414041 0.0082033323 -0.025226993
-0.00079417013 0.0087325796 -0.010717792
0.0084711481 0.0021169889 -0.009662577
-0.0079417014 0.0037047307 -0.031030675
-0.0029119572 -0.0082033323 -0.02285276
-0.0029119572 0.0082033323 -0.032349695
-0.0084711481 0.0021169889 -0.010190184
-0.0013236169 0.0087325796 -0.014411043
-0.0082064252 -0.0029108597 -0.018895706
-0.00026472338 -0.0087325796 -0.035779141
0.0087358719 0.00026462361 -0.018104294
0.0034414041 0.0044986014 -0.039736196
0.0058239144 -0.0066155903 -0.024963191
-0.0087358719 -0.0010584944 -0.01704908
-0.0082064252 -0.0031754833 -0.00095705519
0.0010588935 -0.0087325796 -0.020214723
-0.0055591911 -0.0052924724 -0.039472394
-0.00079417013 -0.0055570961 -0.00016564417
0.0087358719 0.00079387083 -0.034196317
0.002117787 0.0029108597 -0.00016564417
0.0034414041 0.007674085 -0.00042944786
-0.0037061274 0.0037047307 -0.00016564417
0.0063533611 -0.0058217193 -0.0012208589
0.0029119572 0.0082033323 -0.013355828
-0.0079417014 -0.0039693541 -0.023380369
-0.0068828082 -0.0050278488 -0.0017484663
-0.0087358719 -0.0015877417 -0.033141103
-0.0039708507 -0.0079387082 -0.0091349697
-0.0058239144 -0.0066155903 -0.013092024
-0.0087358719 -0.00079387083 -0.014674847
-0.0029119572 -0.0052924724 -0.039736196
0.0052944678 0.0071448376 -0.03129448
0.004235574 0.007674085 -0.0070245401
-0.0071475315 0.0023816125 -0.039472394
0.0023825106 -0.0084679555 -0.028920246
-0.0037061274 0.0079387082 -0.015466258
0.0015883403 0.00079387083 -0.00016564417
-0.0084711481 0.0023816125 -0.0046503069
-0.0087358719 -0.00079387083 -0.031030675
0.0087358719 -0.00052924722 -0.0043865032
-0.0055591911 -0.006880214 -0.02285276
-0.0037061274 0.00026462361 0.0027361964
-0.0010588935 -0.0079387082 -0.039472394
0.0076769781 0.0042339778 -0.0072883437
-0.0087358719 0.00026462361 -0.0057055214
-0.0015883403 0.0087325796 -0.0038588957
-0.0015883403 0.0087325796 -0.03788957
-0.0010588935 0.0082033323 -0.039472394
0.0084711481 -0.0026462362 -0.008871166
-0.0071475315 0.0052924724 -0.019950921
-0.0084711481 0.0023816125 -0.02786503
0.0031766805 0.0082033323 -0.019423313
0.0087358719 -0.00026462361 -0.035779141
-0.0050297445 0.0071448376 -0.013883435
-0.0084711481 -0.0023816125 -0.002803681
0.0034414041 0.0050278488 -0.00016564417
0.0082064252 -0.0029108597 -0.034460124
0.0013236169 0.0087325796 -0.018895706
0.0037061274 -0.006880214 -0.039472394
0.0013236169 -0.0087325796 -0.029184049
-0.0084711481 -0.0026462362 -0.029975461
-0.0066180849 0.0058217193 -0.014938651
0.0087358719 -0.00052924722 -0.019950921
0 -0.0087325796 -0.010453988
0.0087358719 0.0010584944 -0.013883435
0.0074122548 -0.0047632251 -0.035515338
-0.0052944678 0.0071448376 -0.02707362
0.0039708507 0.0058217193 -0.039472394
-0.0026472339 0.0026462362 -0.039999999
0.002117787 0.0037047307 -0.039999999
-0.0087358719 -0.0015877417 -0.038153373
-0.0015883403 -0.00052924722 -0.00016564417
0.004235574 0.007674085 -0.03129448
-0.0084711481 -0.0018523653 -0.037625767
-0.0026472339 -0.0084679555 -0.011509202
-0.00079417013 -0.0087325796 -0.026546013
-0.0087358719 -0.0010584944 -0.010981595
0.0026472339 0.0084679555 -0.0328773
0.0055591911 0.006880214 -0.0030674846
0.0068828082 0.0042339778 -0.039472394
-0.0026472339 -0.0084679555 -0.026018405
0.0082064252 0.0031754833 -0.014674847
-0.0079417014 -0.0037047307 -0.019950921
-0.0039708507 0.0079387082 -0.0057055214
-0.0026472339 -0.0084679555 -0.028920246
-0.0084711481 0.0026462362 -0.031558283
0.002117787 -0.0084679555 -0.0038588957
0.0082064252 0.0029108597 -0.0049141105
-0.00026472338 -0.0037047307 -0.00016564417
0.00026472338 -0.0087325796 -0.015202454
-0.0026472339 -0.0084679555 -0.0051779142
0.002117787 -0.0084679555 -0.023380369
-0.0029119572 0.0052924724 -0.039736196
-0.0076769781 0.0042339778 -0.0080797542
-0.0084711481 0.0021169889 -0.015466258
0.0071475315 0.00052924722 -0.039472394
-0.0050297445 -0.0071448376 -0.024435584
-0.0079417014 -0.0037047307 -0.014674847
0.0074122548 0.0010584944 -0.00042944786
-0.0074122548 -0.0042339778 -0.039208587
0.004235574 0.007674085 -0.0064969324
-0.0055591911 -0.00079387083 -0.039736196
-0.002117787 0.0084679555 -0.0057055214
0.00026472338 -0.0084679555 -0.00042944786
-0.0084711481 -0.0021169889 -0.037098158
0.0087358719 -0.00079387083 -0.035515338
0.0079417014 -0.0039693541 -0.0025398773
-0.0031766805 -0.0050278488 -0.039736196
-0.0087358719 -0.0015877417 -0.024171779
0.002117787 0.0013231181 -0.00016564417
0.0087358719 -0.00026462361 -0.011245399
-0.0060886377 -0.0063509666 -0.0033312882
-0.002117787 0.0037047307 -0.00016564417
0.0087358719 0.0015877417 -0.018895706
0.0087358719 -0.00026462361 -0.013883435
-0.0079417014 0.0037047307 -0.034987729
-0.0087358719 -0.00079387083 -0.0091349697
0.00079417013 0.0087325796 -0.015730061
-0.0084711481 0.0018523653 -0.030503068
0.00079417013 0 -0.00016564417
0.0034414041 0.0082033323 -0.0051779142
-0.0052944678 0.006880214 -0.038944785
0.002117787 0.0084679555 -0.0049141105
0.0037061274 0.0079387082 -0.01203681
-0.0047650211 -0.0074094613 -0.011245399
0.0055591911 0.006086343 -0.039472394
0.0055591911 0.006880214 -0.023644172
-0.0079417014 -0.0023816125 -0.039472394
0.0076769781 0.0044986014 -0.015466258
0.0082064252 -0.0031754833 -0.0046503069
0 0.0087325796 -0.029184049
-0.00052944676 -0.0087325796 -0.031822085
0.0034414041 0.003440107 -0.039736196
0.0071475315 0.0052924724 -0.0041226996
-0.0066180849 -0.0042339778 -0.00042944786
-0.0013236169 -0.00052924722 -0.00016564417
-0.0066180849 0.003440107 -0.00042944786
0.0047650211 -0.0074094613 -0.033404909
0.0084711481 -0.0023816125 -0.015466258
0.0066180849 0.0050278488 -0.039472394
-0.0082064252 0.0031754833 -0.021797545
-0.0084711481 0.0018523653 -0.0070245401
-0.0047650211 -0.006086343 -0.039472394
-0.0087358719 0 -0.0070245401
-0.00079417013 0.0087325796 -0.0091349697
-0.0084711481 0.0023816125 -0.0093987733
0.0087358719 -0.00026462361 -0.025754601
0.0087358719 -0.00026462361 -0.016257668
-0.0037061274 -0.0015877417 -0.00016564417
0.0029119572 0.0082033323 -0.013619632
-0.0047650211 0.0074094613 -0.015730061
0.0052944678 0.0015877417 -0.039736196
-0.0010588935 0.0087325796 -0.030239264
-0.0037061274 0.0079387082 -0.034987729
-0.004235574 -0.007674085 -0.021797545
-0.0076769781 0.0042339778 -0.008871166
-0.00079417013 -0.0087325796 -0.034196317
-0.0058239144 -0.0063509666 -0.039208587
-0.0079417014 0.0031754833 -0.0014846625
0.0068828082 0.0055570961 -0.014411043
-0.0029119572 -0.003440107 -0.00016564417
-0.0071475315 -0.0050278488 -0.00069325155
0.0037061274 0.00026462361 -0.039999999
0 -0.0071448376 -0.039472394
0.0037061274 -0.0050278488 -0.00016564417
-0.0084711481 0.0021169889 -0.027601227
-0.0074122548 -0.0047632251 -0.0049141105
-0.0034414041 -0.0082033323 -0.01704908
-0.0084711481 -0.0018523653 -0.034723926
0.0010588935 -0.00026462361 -0.039999999
-0.00079417013 0.0087325796 -0.037361965
-0.0031766805 0.0082033323 -0.032349695
-0.0023825106 0.0023816125 -0.00016564417
-0.002117787 -0.0063509666 -0.039472394
0.0047650211 -0.0010584944 -0.00016564417
0.0013236169 0.0087325796 -0.015730061
0.0018530637 0.0084679555 -0.017840492
0.00026472338 -0.0087325796 -0.021269938
0.0052944678 -0.0071448376 -0.01203681
0.0071475315 -0.0039693541 -0.039472394
-0.0023825106 -0.0084679555 -0.0064969324
0.0066180849 0.0058217193 -0.026282208
-0.0071475315 0.0052924724 -0.027337423
0.0087358719 0.0010584944 -0.021533743
-0.0029119572 -0.0047632251 -0.039736196
0.0010588935 -0.0087325796 -0.0083435578
0.0031766805 0.0082033323 -0.021006135
-0.0015883403 -0.0026462362 -0.00016564417
-0.0079417014 -0.0037047307 -0.030503068
-0.0087358719 -0.00026462361 -0.00069325155
0.0079417014 -0.0039693541 -0.021797545
-0.0082064252 0.003440107 -0.0086073624
-0.00026472338 0.0087325796 -0.022588957
-0.0087358719 0.00026462361 -0.037098158
0.0087358719 0.0010584944 -0.021269938
-0.0074122548 0.0047632251 -0.026018405
-0.0087358719 0.00079387083 -0.013092024
0.0060886377 0.0063509666 -0.031558283
0.0058239144 0.0066155903 -0.0086073624
0.0026472339 -0.0084679555 -0.0051779142
-0.0052944678 -0.0071448376 -0.030239264
0.0079417014 -0.0039693541 -0.034460124
0.0079417014 -0.0039693541 -0.032349695
-0.0029119572 0.0082033323 -0.022325153
-0.0031766805 -0.0037047307 -0.039736196
0.0037061274 -0.0079387082 -0.009662577
0.0045002974 -0.007674085 -0.0072883437
0.0087358719 0 -0.00042944786
-0.0045002974 -0.007674085 -0.011773006
-0.002117787 -0.0084679555 -0.034987729
-0.0066180849 0.0058217193 -0.009662577
-0.0058239144 -0.0063509666 -0.0022760737
0.0015883403 -0.0066155903 -0.00042944786
-0.0034414041 -0.0082033323 -0.02707362
0 0.0087325796 -0.009662577
-0.0087358719 0.0010584944 -0.023380369
-0.0029119572 0.0082033323 -0.016257668
-0.0068828082 0.0055570961 -0.033668712
0.0076769781 -0.0044986014 -0.0086073624
-0.0018530637 0.0084679555 -0.011773006
0.0013236169 0 -0.00016564417
0.0015883403 -0.0084679555 -0.00201227
0.0037061274 0.0079387082 -0.014147239
0.0074122548 0.0031754833 -0.039472394
-0.0052944678 0.0071448376 -0.022588957
-0.0029119572 0.0082033323 -0.029184049
0.0023825106 0.0029108597 -0.039999999
0.0087358719 0.00079387083 -0.015730061
0.0071475315 0.0050278488 -0.011773006
-0.0087358719 0.00026462361 -0.02707362
-0.0039708507 0.0079387082 -0.034460124
0.0050297445 -0.0018523653 -0.039736196
0.0018530637 0.0058217193 -0.00016564417
-0.0055591911 0.006880214 -0.018895706
0.0082064252 0.0015877417 -0.039472394
-0.0026472339 -0.0029108597 -0.039999999
0.0050297445 0.0026462362 -0.039736196
0.0045002974 0.0074094613 -0.00095705519
0.0034414041 0.0082033323 -0.01704908
-0.0015883403 0.0087325796 -0.023907976
0.00026472338 -0.0087325796 -0.011509202
-0.0034414041 0.0082033323 -0.023644172
-0.0031766805 0.0082033323 -0.020478528
-0.0052944678 0.0071448376 -0.026809815
0.0076769781 0.0044986014 -0.017312884
-0.0026472339 0.0084679555 -0.020214723
0.0047650211 0.0044986014 -0.00042944786
0.0082064252 0.0031754833 -0.031030675
0.0034414041 -0.0082033323 -0.029447854
0.0018530637 -0.0084679555 -0.038153373
-0.0082064252 -0.0031754833 -0.029184049
-0.0087358719 0.0010584944 -0.021797545
-0.0015883403 -0.0087325796 -0.025226993
0.0031766805 -0.0082033323 -0.0086073624
0.0082064252 -0.0031754833 -0.006760736
0.0082064252 -0.0029108597 -0.028392637
0.00026472338 -0.0087325796 -0.038680982
-0.0076769781 0.0042339778 -0.017840492
-0.0047650211 -0.0074094613 -0.014938651
-0.0084711481 0.0021169889 -0.0038588957
-0.0082064252 -0.0031754833 -0.021797545
0.0079417014 -0.0039693541 -0.013092024
0.0063533611 -0.006086343 -0.028128834
-0.0071475315 -0.0010584944 -0.00042944786
-0.00026472338 -0.0087325796 -0.037098158
-0.004235574 -0.0023816125 -0.039999999
0.0063533611 0.006086343 -0.0080797542
0.0084711481 0.0021169889 -0.015993865
-0.0074122548 0.0047632251 -0.034460124
-0.0060886377 -0.0063509666 -0.020478528
0.0015883403 0.0087325796 -0.036834355
-0.0082064252 0.003440107 -0.015993865
0.0082064252 -0.003440107 -0.039208587
-0.0031766805 0.0082033323 -0.034196317
-0.0063533611 -0.006086343 -0.024699386
0.0068828082 0.0055570961 -0.037098158
0.0087358719 -0.00052924722 -0.0099263806
-0.0084711481 -0.0018523653 -0.023907976
0.0087358719 0 -0.019950921
0.00052944676 -0.0055570961 -0.039736196
-0.0018530637 -0.0084679555 -0.029975461
-0.0045002974 0.007674085 -0.0093987733
-0.0045002974 -0.00026462361 -0.039999999
-0.0063533611 0.006086343 -0.020742331
0.0055591911 0.006880214 -0.021533743
-0.0074122548 -0.0039693541 -0.00201227
-0.0034414041 0 0.001417178
0.0076769781 -0.0042339778 -0.031030675
0.0060886377 0.0063509666 -0.019950921
0.0084711481 -0.0023816125 -0.035515338
0.0060886377 -0.0063509666 -0.002803681
-0.0084711481 0.0021169889 -0.026018405
-0.0079417014 0.0039693541 -0.035251535
0.0087358719 0.00052924722 -0.014938651
0 0.0087325796 -0.026546013
-0.0079417014 -0.0037047307 -0.020742331
0.0052944678 0.0023816125 -0.00016564417
0.0082064252 -0.0031754833 -0.033668712
-0.0066180849 0.0058217193 -0.038153373
-0.0063533611 -0.006086343 -0.002803681
0.0082064252 -0.0031754833 -0.018631902
-0.0010588935 0.0071448376 -0.00042944786
-0.00079417013 0.0087325796 -0.029711656
0.0087358719 0.00052924722 -0.020742331
-0.0076769781 -0.0039693541 -0.0022760737
0.0010588935 0.0087325796 -0.036570553
-0.0079417014 -0.0039693541 -0.002803681
-0.00026472338 0.0026462362 -0.00016564417
-0.0010588935 0.0087325796 -0.037098158
-0.002117787 -0.0084679555 -0.0064969324
-0.0047650211 -0.0029108597 -0.00016564417
-0.0063533611 0.006086343 -0.016257668
0.0087358719 0.0013231181 -0.0062331287
-0.002117787 -0.0084679555 -0.028128834
-0.0031766805 -0.003440107 -0.00016564417
0.0026472339 -0.0084679555 -0.018104294
-0.00079417013 0.0087325796 -0.034460124
0.0082064252 -0.003440107 -0.028656442
0.0029119572 -0.0082033323 -0.026282208
-0.0076769781 -0.0042339778 -0.014938651
0.0084711481 0.0023816125 -0.0072883437
0.0060886377 0.0063509666 -0.031822085
0.002117787 -0.0084679555 -0.03788957
0.0055591911 0.006880214 -0.028392637
-0.002117787 -0.003440107 -0.00016564417
-0.0031766805 0.00079387083 -0.00016564417
-0.0087358719 -0.0013231181 -0.023116564
-0.0060886377 -0.0063509666 -0.024171779
0.0047650211 -0.0074094613 -0.011509202
0.0074122548 0.0047632251 -0.03630675
0.0010588935 -0.0010584944 -0.00016564417
-0.0076769781 -0.0044986014 -0.0035950921
-0.0026472339 0.0084679555 -0.024699386
-0.0034414041 0.0082033323 -0.033404909
0.0087358719 -0.0013231181 -0.012828221
-0.0082064252 0.003440107 -0.020478528
-0.0031766805 -0.00026462361 -0.00016564417
0.0015883403 -0.0074094613 -0.039472394
-0.0087358719 0.00026462361 -0.010981595
-0.0015883403 0.0074094613 -0.00042944786
-0.0082064252 -0.003440107 -0.033141103
-0.0026472339 0.0084679555 -0.0046503069
0.0047650211 0.0055570961 -0.00042944786
-0.0052944678 -0.0058217193 -0.00042944786
-0.0023825106 0.0084679555 -0.021797545
0.0076769781 0.0044986014 -0.021006135
-0.0047650211 -0.0074094613 -0.0051779142
-0.0055591911 -0.006880214 -0.0078159506
-0.0039708507 -0.0079387082 -0.033668712
-0.0087358719 0.00079387083 -0.0033312882
-0.0010588935 -0.0039693541 -0.00016564417
0.0047650211 -0.0074094613 -0.011245399
-0.0029119572 -0.0082033323 -0.0022760737
-0.0050297445 -0.0071448376 -0.016257668
0.0066180849 0.0058217193 -0.031030675
-0.0071475315 0.0052924724 -0.031822085
0.0013236169 0.0087325796 -0.026546013
-0.0015883403 -0.0087325796 -0.0083435578
-0.0039708507 -0.0079387082 -0.0328773
0.0076769781 0.0021169889 -0.00042944786
0.0029119572 0.0082033323 -0.0083435578
0.0087358719 0 -0.019159509
0.0087358719 -0.00079387083 -0.015993865
-0.0079417014 0.0039693541 -0.012300613
0.002117787 -0.0047632251 -0.00016564417
-0.0026472339 0.0013231181 -0.039999999
0.0066180849 -0.0058217193 -0.016257668
-0.0071475315 -0.0052924724 -0.009662577
0.0087358719 -0.0015877417 -0.030766871
-0.0015883403 0.0082033323 -0.0017484663
0.0079417014 0.0039693541 -0.023907976
-0.0082064252 0.003440107 -0.037098158
-0.0018530637 0.0084679555 -0.029447854
-0.0015883403 -0.0087325796 -0.015730061
0.0015883403 0.0087325796 -0.013883435
-0.0050297445 0.0071448376 -0.02707362
0.004235574 -0.007674085 -0.021797545
0.0079417014 -0.0037047307 -0.028392637
-0.0055591911 0.006880214 -0.023380369
-0.0087358719 -0.00079387083 -0.0078159506
-0.0087358719 0.0010584944 -0.019687116
-0.0084711481 0.0023816125 -0.016257668
-0.0087358719 0.0013231181 -0.016785275
-0.002117787 0.0058217193 -0.00016564417
-0.0087358719 -0.0010584944 -0.0091349697
-0.00079417013 0.00026462361 -0.00016564417
-0.0066180849 -0.0058217193 -0.02707362
-0.0055591911 0.006880214 -0.0328773
0.0037061274 -0.0058217193 -0.00042944786
-0.0052944678 -0.0071448376 -0.0083435578
-0.0087358719 0 -0.0086073624
-0.0037061274 -0.0079387082 -0.029447854
0.0063533611 0.006086343 -0.035251535
-0.0087358719 0.0010584944 -0.016521472
0.0063533611 -0.006086343 -0.019687116
-0.0079417014 -0.0037047307 -0.02285276
-0.0058239144 0.0039693541 -0.00042944786
-0.0034414041 0.0066155903 -0.00042944786
0.00079417013 -0.0042339778 -0.00016564417
0.0047650211 -0.0074094613 -0.02285276
0.0082064252 -0.0029108597 -0.013619632
-0.0055591911 -0.006880214 -0.016521472
0.002117787 -0.0084679555 -0.025754601
0.0050297445 -0.0071448376 -0.017576687
-0.002117787 -0.0042339778 -0.039999999
0.0071475315 0.0050278488 -0.029184049
-0.0087358719 0.0013231181 -0.0328773
-0.0050297445 -0.0071448376 -0.031030675
-0.0045002974 -0.0021169889 -0.00016564417
0.0084711481 0.0026462362 -0.036042944
0.002117787 -0.0084679555 -0.037361965
0.0052944678 -0.0071448376 -0.012564417
-0.0023825106 0.0082033323 -0.00201227
0.0058239144 -0.0066155903 -0.010453988
-0.0087358719 -0.0013231181 -0.038153373
0.0055591911 -0.0063509666 -0.0014846625
-0.0082064252 0.003440107 -0.024699386
-0.0045002974 -0.007674085 -0.019950921
0.0066180849 -0.0058217193 -0.025490798
-0.0045002974 0.007674085 -0.020742331
0.0018530637 -0.0084679555 -0.0057055214
0.0015883403 0.00026462361 -0.039999999
-0.0079417014 0.0039693541 -0.031822085
-0.0029119572 0.0082033323 -0.0054417178
-0.00079417013 0.003440107 -0.039999999
0.0082064252 -0.0023816125 -0.00042944786
0.0026472339 0.0084679555 -0.018104294
-0.0063533611 0.006086343 -0.0038588957
-0.0052944678 0.0071448376 -0.0059693251
0.0087358719 0.0010584944 -0.037098158
0.0026472339 -0.0084679555 -0.014147239
0.0031766805 -0.0082033323 -0.014411043
0.0084711481 -0.0021169889 -0.012300613
-0.0071475315 -0.0050278488 -0.00042944786
0.0074122548 0.0047632251 -0.0075521474
-0.0087358719 -0.0013231181 -0.0046503069
-0.0079417014 -0.0039693541 -0.0046503069
-0.0013236169 -0.0055570961 -0.00016564417
-0.0076769781 -0.0042339778 -0.03129448
0.0026472339 0.0082033323 -0.0025398773
0.0087358719 0.0010584944 -0.017312884
0.0037061274 -0.00026462361 9.8159508e-05
0.0052944678 0.0071448376 -0.037098158
0.0034414041 -0.0082033323 -0.038944785
0.0045002974 -0.007674085 -0.0038588957
-0.0052944678 -0.006880214 -0.00042944786
-0.0068828082 -0.0052924724 -0.039208587
0.0079417014 -0.0039693541 -0.026282208
0.0037061274 -0.0079387082 -0.008871166
-0.0087358719 0.00079387083 -0.013619632
0.00052944676 -0.0087325796 -0.02285276
-0.0084711481 -0.0026462362 -0.002803681
0.0071475315 -0.0052924724 -0.038680982
-0.0031766805 -0.0082033323 -0.0022760737
0.0066180849 -0.0058217193 -0.033404909
-0.0037061274 0.00026462361 0.0003619632
-0.0066180849 -0.0058217193 -0.033141103
0.0034414041 -0.003440107 -0.00016564417
0.0045002974 0.00079387083 -0.00016564417
-0.00026472338 -0.00079387083 -0.039999999
-0.0087358719 0.00052924722 -0.023644172
-0.0045002974 -0.007674085 -0.032613497
-0.0045002974 0.007674085 -0.021533743
0.0047650211 0.0074094613 -0.010981595
-0.0082064252 -0.003440107 -0.034723926
0.0034414041 0.0082033323 -0.016257668
0.0082064252 0.0031754833 -0.011245399
0.0068828082 0.0055570961 -0.012828221
-0.0013236169 0.0087325796 -0.020214723
0.0055591911 -0.006880214 -0.0328773
-0.0058239144 0.0066155903 -0.030239264
0.0018530637 -0.0079387082 -0.00042944786
-0.0058239144 -0.0066155903 -0.0080797542
0.0087358719 0.00052924722 -0.019423313
0.0084711481 -0.0018523653 -0.0049141105
-0.0039708507 0 -0.039999999
0.0084711481 0.0026462362 -0.032613497
-0.0015883403 0.0087325796 -0.037361965
0.0034414041 0.0082033323 -0.014674847
-0.00052944676 -0.0087325796 -0.0025398773
-0.0082064252 0.0029108597 -0.028656442
0.0087358719 0.00052924722 -0.034196317
0.0026472339 -0.0084679555 -0.037625767
0.0082064252 -0.0029108597 -0.035779141
0.0084711481 0.0026462362 -0.022325153
0.00079417013 0.0087325796 -0.01203681
-0.0039708507 -0.0079387082 -0.038680982
-0.00052944676 0.0087325796 -0.018895706
-0.0023825106 -0.0074094613 -0.039472394
-0.0039708507 0.00026462361 -0.00016564417
0.0052944678 -0.00052924722 -0.00016564417
-0.0045002974 -0.007674085 -0.038680982
-0.0018530637 0.0084679555 -0.023116564
0.0018530637 0.0052924724 -0.00016564417
-0.0082064252 0.0031754833 -0.033404909
0.0047650211 0.0074094613 -0.0078159506
-0.0087358719 0.0013231181 -0.01704908
0.0087358719 -0.0015877417 -0.00069325155
0.0087358719 0 -0.014938651
0.0087358719 -0.00079387083 -0.013092024
-0.0047650211 -0.0074094613 -0.017576687
-0.0082064252 -0.0031754833 -0.006760736
0.0060886377 -0.0063509666 -0.023644172
-0.0037061274 -0.0079387082 -0.034987729
-0.0076769781 0.0042339778 -0.0072883437
0.0039708507 0.0079387082 -0.0075521474
-0.0018530637 0.0084679555 -0.034460124
-0.0068828082 -0.00052924722 -0.039472394
0.0084711481 0.0021169889 -0.0070245401
0.0074122548 0.0047632251 -0.0035950921
-0.0058239144 -0.0066155903 -0.035515338
-0.0074122548 -0.0047632251 -0.028392637
-0.0087358719 0 -0.023380369
0.0084711481 0 -0.00201227
-0.0013236169 0.0021169889 -0.00016564417
0.0039708507 0.0079387082 -0.031822085
-0.0037061274 0.0079387082 -0.0022760737
-0.0060886377 0.0063509666 -0.00042944786
0.0084711481 -0.0026462362 -0.038680982
0.0084711481 0.0018523653 -0.029447854
-0.0026472339 -0.0084679555 -0.013883435
-0.0010588935 0.00079387083 -0.039999999
-0.0015883403 -0.0087325796 -0.006760736
0.0037061274 -0.0026462362 -0.00016564417
-0.0082064252 -0.0029108597 -0.038417179
-0.0034414041 -0.0047632251 -0.00016564417
0.00052944676 -0.0087325796 -0.029184049
-0.0039708507 0.0071448376 -0.039472394
-0.0082064252 0.0029108597 -0.002803681
-0.0079417014 -0.0037047307 -0.013355828
-0.0076769781 -0.0042339778 -0.027337423
-0.0071475315 0.0050278488 -0.03129448
-0.0039708507 -0.0066155903 -0.039472394
0.0076769781 -0.0044986014 -0.014674847
-0.0074122548 0.0047632251 -0.036570553
0.0015883403 0.0087325796 -0.010717792
-0.0082064252 0.0031754833 -0.010453988
-0.0082064252 -0.0029108597 -0.038680982
-0.00079417013 0.0087325796 -0.023907976
0.0055591911 -0.006880214 -0.034723926
0.00079417013 -0.0074094613 -0.039472394
-0.0084711481 0.0018523653 -0.010981595
-0.0037061274 0.0079387082 -0.023116564
-0.0050297445 -0.0071448376 -0.022325153
0.0082064252 0.0029108597 -0.021006135
0.0087358719 -0.0013231181 -0.021269938
0.0026472339 0.0044986014 -0.039736196
0.0026472339 -0.0084679555 -0.017312884
0.0076769781 -0.0044986014 -0.029975461
-0.0071475315 0.0052924724 -0.030239264
-0.0076769781 -0.0042339778 -0.039208587
-0.0010588935 0.0047632251 -0.00016564417
0.0010588935 0.0087325796 -0.011245399
-0.0055591911 -0.006880214 -0.03630675
-0.0076769781 -0.0042339778 -0.0072883437
0.002117787 -0.0084679555 -0.036834355
-0.00052944676 -0.003440107 -0.00016564417
-0.0074122548 0.0047632251 -0.032613497
0.0015883403 0.0087325796 -0.011509202
-0.0087358719 0.00079387083 -0.014411043
-0.0063533611 -0.006086343 -0.0091349697
-0.0074122548 0.0047632251 -0.0070245401
-0.0013236169 -0.0087325796 -0.016521472
-0.0082064252 0.0029108597 -0.0035950921
-0.0074122548 0.0047632251 -0.015466258
0.00026472338 0.0087325796 -0.015730061
-0.0079417014 -0.0039693541 -0.016521472
0.0066180849 -0.0058217193 -0.0049141105
0.0058239144 0.0066155903 -0.026282208
-0.0023825106 0.0084679555 -0.015730061
0.0023825106 -0.0084679555 -0.019159509
-0.0079417014 0.0031754833 -0.0017484663
0.0074122548 -0.0047632251 -0.026282208
-0.0010588935 -0.0087325796 -0.0075521474
-0.0087358719 -0.00026462361 -0.00042944786
-0.002117787 0.0044986014 -0.00016564417
-0.0023825106 0.0082033323 -0.0017484663
-0.0013236169 0.0087325796 -0.030503068
0.0087358719 0.0013231181 -0.024435584
0.0050297445 0.0071448376 -0.025490798
-0.0084711481 0.0026462362 -0.038417179
-0.0050297445 0.0071448376 -0.013619632
-0.0047650211 0.0074094613 -0.035251535
0.0087358719 0.00052924722 -0.024963191
0.0029119572 -0.0082033323 -0.039208587
0.0034414041 0.0082033323 -0.029975461
-0.0010588935 0.0087325796 -0.0041226996
-0.0010588935 -0.0074094613 -0.00042944786
-0.0055591911 -0.006880214 -0.026018405
-0.0023825106 0.0084679555 -0.034196317
-0.0026472339 0.0084679555 -0.028920246
-0.0087358719 0.0010584944 -0.00095705519
-0.0063533611 -0.00052924722 -0.00042944786
0.002117787 0.0084679555 -0.037625767
-0.002117787 0.0084679555 -0.021533743
-0.0063533611 -0.006086343 -0.016521472
0.0026472339 -0.0084679555 -0.023644172
-0.0039708507 -0.0047632251 -0.00016564417
-0.0015883403 0.0087325796 -0.011245399
-0.0087358719 0.0010584944 -0.036570553
-0.0071475315 0.0052924724 -0.017576687
0.00026472338 0.0087325796 -0.012828221
-0.0023825106 0.00079387083 -0.039999999
0.0071475315 -0.0050278488 -0.00042944786
0.0066180849 0.0058217193 -0.039208587
0.004235574 -0.007674085 -0.016521472
0 0.0087325796 -0.010190184
0.0084711481 0.0018523653 -0.033141103
-0.0063533611 0.006086343 -0.013092024
0 0.0018523653 -0.039999999
0.0052944678 0.006880214 -0.00042944786
-0.0087358719 0.0010584944 -0.0059693251
-0.0039708507 -0.00026462361 0.00088957057
0.0066180849 0.0058217193 -0.03129448
-0.0071475315 -0.0052924724 -0.030239264
-0.0082064252 0.0031754833 -0.02285276
-0.0010588935 -0.0087325796 -0.0062331287
0.0034414041 0.0082033323 -0.017312884
0.0018530637 0.0050278488 -0.039736196
-0.0087358719 -0.0015877417 -0.034987729
-0.0047650211 0.0074094613 -0.022588957
0.0087358719 0.00052924722 -0.027337423
0.0031766805 -0.0082033323 -0.011773006
-0.0055591911 0.003440107 -0.039736196
0.0023825106 -0.0084679555 -0.019687116
0.0034414041 0.0082033323 -0.035251535
0.0082064252 -0.003440107 -0.0033312882
0.0050297445 0.0071448376 -0.029447854
-0.002117787 0.0084679555 -0.024963191
-0.0071475315 0.0050278488 -0.010453988
-0.00052944676 -0.0087325796 -0.012828221
0.0015883403 -0.0039693541 -0.039999999
0 -0.0087325796 -0.029975461
0.00052944676 -0.0087325796 -0.036570553
0.0037061274 -0.0079387082 -0.03129448
0.0039708507 -0.0079387082 -0.029447854
-0.00079417013 -0.0087325796 -0.017312884
-0.0066180849 -0.0058217193 -0.022325153
-0.00052944676 -0.0066155903 -0.039472394
0.0087358719 0.00026462361 -0.028656442
-0.0031766805 0.0082033323 -0.037361965
0 0.0087325796 -0.020478528
0.0031766805 0.0082033323 -0.012300613
-0.0084711481 -0.0018523653 -0.0093987733
-0.0087358719 -0.00026462361 -0.029711656
-0.0076769781 -0.0044986014 -0.021006135
-0.0023825106 0.0084679555 -0.02285276
0.0071475315 0.0050278488 -0.025226993
0.0034414041 -0.007674085 -0.039208587
-0.0047650211 -0.0074094613 -0.030239264
-0.0076769781 -0.0044986014 -0.013619632
0.0076769781 -0.0044986014 -0.025754601
0.0058239144 0.0066155903 -0.023644172
0.0071475315 0.0052924724 -0.014147239
0.0047650211 0.0074094613 -0.036570553
-0.0026472339 -0.0084679555 -0.022325153
0.0023825106 0.0029108597 -0.00016564417
-0.0082064252 -0.0031754833 -0.002803681
-0.0063533611 -0.006086343 -0.0038588957
0.0037061274 0.0079387082 -0.0030674846
0.00052944676 0.0087325796 -0.008871166
-0.0074122548 0.00079387083 -0.039472394
-0.0087358719 0.0015877417 -0.029447854
0.002117787 -0.0084679555 -0.0093987733
0.0029119572 0.003440107 -0.00016564417
0.0010588935 0.0087325796 -0.0051779142
-0.0074122548 -0.0047632251 -0.017840492
-0.0063533611 0.006086343 -0.008871166
-0.0010588935 -0.0087325796 -0.011245399
0.0071475315 -0.0050278488 -0.034460124
-0.004235574 0.007674085 -0.01704908
-0.0087358719 0.00079387083 -0.028656442
0.0087358719 0.0015877417 -0.026282208
-0.0076769781 -0.0042339778 -0.025226993
-0.002117787 -0.0058217193 -0.039736196
-0.0074122548 -0.0047632251 -0.013355828
-0.0071475315 0.0052924724 -0.012828221
0.0018530637 0.0082033323 -0.0017484663
-0.0079417014 0.0037047307 -0.0064969324
0.0034414041 -0.0082033323 -0.009662577
0.0055591911 0.0063509666 -0.00201227
0.0034414041 0.0055570961 -0.00042944786
-0.0018530637 0.0084679555 -0.034723926
0.0084711481 0.0026462362 -0.033932514
-0.0034414041 -0.0082033323 -0.037361965
-0.0034414041 0.0015877417 -0.00016564417
0.0079417014 -0.0037047307 -0.024435584
-0.002117787 0.0084679555 -0.03788957
0.0055591911 0.006880214 -0.023907976
-0.00079417013 -0.0084679555 -0.0017484663
-0.0034414041 0.0082033323 -0.038680982
-0.0052944678 -0.0071448376 -0.029447854
0.0071475315 0.0047632251 -0.0012208589
0.0063533611 0.006086343 -0.021533743
0.0087358719 -0.0013231181 -0.0083435578
0.0058239144 0.00052924722 -0.00016564417
-0.0084711481 0.0026462362 -0.0051779142
0.0029119572 -0.0082033323 -0.0078159506
0.0084711481 -0.0023816125 -0.014674847
-0.0052944678 -0.0071448376 -0.024435584
-0.0084711481 0.0026462362 -0.019423313
0.0087358719 0.0015877417 -0.0075521474
-0.0068828082 -0.0055570961 -0.032349695
0.0018530637 -0.0018523653 -0.039999999
-0.0055591911 -0.0058217193 -0.00042944786
-0.0047650211 0.0074094613 -0.015202454
-0.0082064252 0.0029108597 -0.010717792
0.0087358719 -0.0013231181 -0.021533743
0.0087358719 0.00052924722 -0.027601227
0.0058239144 0.006086343 -0.00201227
0.0084711481 0.0023816125 -0.013092024
-0.0055591911 -0.006880214 -0.03788957
0.0018530637 0.0084679555 -0.028128834
0.0050297445 -0.0071448376 -0.028128834
0.0087358719 -0.0015877417 -0.012828221
0.0074122548 0.0047632251 -0.010453988
-0.002117787 0.0084679555 -0.014147239
-0.00052944676 0.0087325796 -0.011773006
0.0068828082 -0.0055570961 -0.00095705519
-0.0045002974 0.007674085 -0.029184049
-0.0084711481 0.0018523653 -0.02206135
0.0082064252 0.0029108597 -0.0054417178
0.0087358719 0.00079387083 -0.03129448
-0.0068828082 -0.0055570961 -0.033668712
-0.0052944678 -0.0037047307 -0.00042944786
0.0066180849 -0.0058217193 -0.002803681
0.0087358719 -0.0010584944 -0.0022760737
0.0023825106 -0.0084679555 -0.024435584
-0.0087358719 -0.00079387083 -0.031558283
-0.0031766805 -0.0010584944 -0.039999999
-0.0071475315 -0.0052924724 -0.0093987733
0.0045002974 0.00079387083 -0.039999999
-0.0034414041 -0.0015877417 -0.00016564417
-0.0084711481 -0.0023816125 -0.024435584
-0.0087358719 -0.0015877417 -0.031558283
0.0079417014 -0.003440107 -0.00042944786
0.002117787 0.0079387082 -0.00042944786
-0.0074122548 -0.0047632251 -0.018631902
-0.0029119572 0.0082033323 -0.00069325155
0.0084711481 -0.0023816125 -0.010717792
0.0034414041 -0.0082033323 -0.029975461
-0.0055591911 0.006880214 -0.011245399
0.0039708507 0.0079387082 -0.02707362
-0.0076769781 0.0044986014 -0.0072883437
-0.0076769781 -0.0044986014 -0.010981595
0.0084711481 -0.0023816125 -0.032349695
-0.0058239144 0.0066155903 -0.0059693251
0.0055591911 -0.006880214 -0.02707362
0.0015883403 -0.0087325796 -0.016785275
0.0087358719 -0.00026462361 -0.014147239
-0.0013236169 0.0087325796 -0.0054417178
-0.0058239144 -0.0066155903 -0.033404909
-0.00052944676 -0.0087325796 -0.022325153
0.0050297445 -0.0071448376 -0.031030675
-0.0039708507 0 0.0024723927
0.0023825106 -0.0074094613 -0.039472394
-0.0071475315 -0.0037047307 -0.039472394
0.0039708507 -0.0079387082 -0.037361965
-0.0026472339 0.0039693541 -0.00016564417
0.0034414041 0.0082033323 -0.024699386
0.0087358719 0.00026462361 -0.017576687
-0.0082064252 0.003440107 -0.010717792
0.002117787 0.0084679555 -0.038153373
0.0082064252 0.003440107 -0.0070245401
-0.0055591911 0.006880214 -0.010453988
-0.0050297445 -0.0071448376 -0.029184049
0.0087358719 0.00052924722 -0.014674847
0.0087358719 0.00026462361 -0.028392637
-0.00026472338 -0.0010584944 -0.039999999
-0.0084711481 0.0023816125 -0.013883435
0.004235574 0.00052924722 -0.039999999
-0.002117787 0.0084679555 -0.030766871
0.0066180849 -0.0058217193 -0.02206135
-0.0084711481 -0.0021169889 -0.0062331287
-0.0066180849 0.0058217193 -0.028128834
-0.0071475315 0.0050278488 -0.0041226996
-0.0034414041 -0.0082033323 -0.012828221
-0.002117787 0.0084679555 -0.0099263806
0.0063533611 0.0037047307 -0.00042944786
0.0084711481 -0.0021169889 -0.0051779142
0.00052944676 -0.0015877417 -0.039999999
-0.0052944678 -0.0071448376 -0.031030675
0.0074122548 0.0047632251 -0.029711656
0.0023825106 0.0084679555 -0.034987729
0.0084711481 0.0023816125 -0.029711656
0.0087358719 -0.00052924722 -0.029975461
-0.0058239144 -0.0015877417 -0.039736196
-0.0018530637 -0.0084679555 -0.024699386
-0.0076769781 0.0031754833 -0.00042944786
-0.00079417013 -0.0087325796 -0.02206135
-0.0015883403 -0.0087325796 -0.024699386
0.0068828082 -0.0055570961 -0.002803681
0.0034414041 -0.007674085 -0.0017484663
-0.0045002974 -0.007674085 -0.024435584
0.0031766805 -0.0082033323 -0.021533743
-0.0055591911 -0.006880214 -0.021006135
0.0031766805 -0.0082033323 -0.026546013
-0.0068828082 0.0055570961 -0.0099263806
-0.0050297445 0.0071448376 -0.032613497
-0.0029119572 -0.0082033323 -0.029711656
-0.0079417014 -0.0015877417 -0.00042944786
0.0052944678 0.0013231181 -0.00016564417
-0.0084711481 -0.0021169889 -0.02285276
-0.0018530637 -0.0084679555 -0.024171779
-0.00026472338 0.0058217193 -0.039736196
0 0.0037047307 -0.00016564417
0.0087358719 -0.00052924722 -0.013355828
-0.0066180849 -0.0058217193 -0.03630675
