# .PCD v0.7 - Point Cloud Data file format
VERSION 0.7
FIELDS x y z
SIZE 4 4 4
TYPE F F F
COUNT 1 1 1
WIDTH 1170
HEIGHT 1
VIEWPOINT 0 0 0 1 0 0 0
POINTS 1170
DATA ascii
0.0011191663 0.0036966109 -0.0092270579
-0.0015668328 -0.0031051531 -0.0010259826
0.00037305543 0.0051752552 -0.00072776165
0.00067149976 0.0099069169 -0.0050519654
-7.4611082e-05 -0.0059145773 -0.00057865115
0.0015668328 -0.010646239 -0.0075868429
0.0041036098 -0.00088718662 -0.0062448489
-0.0029098322 -0.006801764 -0.0016224245
-0.0049989424 -0.008576137 -0.0050519654
-7.4611082e-05 -0.010646239 -0.0087797269
0.0049989424 -0.0056188484 -0.0056484072
0.0039543873 -0.010498375 -0.0031135292
0.0012683885 0.0036966109 -0.0092270579
0.0049989424 0.0054709841 -0.0038590813
0.003506721 -0.00073932216 -0.0016224245
0.004402054 -0.0057667131 -0.0060957386
-0.004402054 0.0090197306 -0.0044555231
-0.0024621657 0.0072453571 -0.00072776165
0.0030590545 -0.010054781 -0.001175093
-0.00052227761 -0.0069496282 -0.0092270579
-0.0020144992 -0.0016265088 -0.001473314
0.0018652771 0.0017743732 -0.0089288373
-0.0048497203 -0.010498375 -0.0052010757
0.0020144992 0.0065060351 -0.0092270579
-0.0032082766 0.0069496282 -0.0013242034
-0.0036559431 -0.0075410861 -0.0020697559
-0.0023129436 0.010202646 -0.0017715349
-0.00052227761 0.0082804086 -0.00072776165
0.0047004982 0.0014786443 -0.0049028546
-0.0033574987 0.0063581704 -0.001473314
0.0020144992 -0.010646239 -0.0074377325
0.00082072191 0.010646239 -0.002815308
-0.0015668328 -0.0057667131 -0.00057865115
0.0027606101 -0.0042880685 -0.0008768721
-0.0038051652 0.0066538993 -0.007885064
7.4611082e-05 0.0011829154 -0.00057865115
0.0024621657 0.0094633233 -0.0041573024
-0.0033574987 -0.0010350511 -0.0025170872
0.0038051652 -0.010202646 -0.0080341743
-0.001716055 -0.007836815 -0.00057865115
0.0021637215 -0.0014786443 -0.0008768721
-0.0024621657 0.0087240012 -0.00072776165
0.0032082766 -0.0026615597 -0.0016224245
-0.0041036098 -0.0082804086 -0.0025170872
-0.0012683885 -0.0059145773 -0.0089288373
0.00082072191 -0.0039923396 -0.0092270579
0.0041036098 0.0090197306 -0.0063939593
0.0033574987 0.00088718662 -0.0025170872
0.0023129436 -0.0044359332 -0.0010259826
0.0027606101 -0.0079846792 -0.0010259826
-0.0021637215 0.00073932216 -0.0087797269
0.0047004982 0.0066538993 -0.0065430696
-0.00052227761 -0.0028094242 -0.0092270579
0.003506721 -0.0056188484 -0.0080341743
-0.0024621657 -0.010646239 -0.0077359537
0.0041036098 0.0079846792 -0.0022188663
0.0012683885 -0.010646239 -0.005350186
0.0030590545 0.0091675948 -0.0023679768
-0.0048497203 0.0013307799 -0.003709971
-0.0023129436 -0.0050273906 -0.0087797269
0.0011191663 0.0047316616 -0.00072776165
-0.00096994411 -0.0016265088 -0.0089288373
-0.0027606101 0.0072453571 -0.0008768721
0.0014176106 -0.0099069169 -0.0092270579
-0.0048497203 -0.007836815 -0.0038590813
0.0024621657 -0.0082804086 -0.0090779476
-0.0041036098 0.0047316616 -0.0071395119
-0.00052227761 -0.0065060351 -0.00057865115
-0.00082072191 -0.0013307799 -0.00057865115
0.0018652771 -0.0039923396 -0.0090779476
0.00082072191 0.0066538993 -0.0090779476
0.0029098322 0.003400882 -0.008332395
-7.4611082e-05 0.0079846792 -0.0010259826
0.0049989424 0.0048795263 -0.003709971
0.002611388 -0.0072453571 -0.0087797269
-0.002611388 -0.0031051531 -0.0019206454
-0.0021637215 0.010498375 -0.0035608604
0.0049989424 -0.0038444754 -0.0052010757
0.0049989424 0.0062103062 -0.0040081921
0.0023129436 0.00029572885 -0.00057865115
0.0041036098 -0.0072453571 -0.0072886222
0.00096994411 -0.0017743732 -0.0093761683
0.0048497203 0.008576137 -0.005350186
0.0041036098 0.0081325434 -0.0022188663
0.00052227761 -0.010498375 -0.0090779476
-0.001716055 -0.0070974929 -0.0089288373
-0.0024621657 -0.0051752552 -0.0086306166
-0.0049989424 0.0073932218 -0.0038590813
0.00022383325 -0.0026615597 -0.0093761683
-0.0021637215 0.0091675948 -0.0075868429
0.0047004982 -0.01035051 -0.0060957386
0.0020144992 0.006801764 -0.00057865115
-0.0049989424 0.0039923396 -0.0040081921
-0.00096994411 0.0059145773 -0.0089288373
-0.0030590545 -0.0016265088 -0.0022188663
0.00082072191 0.0076889507 -0.00072776165
0.0024621657 -0.0041402043 -0.0086306166
0.0049989424 -0.0048795263 -0.0044555231
0.0029098322 -0.0059145773 -0.0084815063
0.0049989424 0.0051752552 -0.0050519654
0.0021637215 0.0093154591 -0.0032626395
0.004402054 -0.0013307799 -0.0060957386
-0.0047004982 -0.0035487465 -0.005350186
0.00096994411 -0.0070974929 -0.00057865115
0.0049989424 0.0038444754 -0.0047537442
-0.0048497203 -0.0044359332 -0.0040081921
0.0023129436 0.0010350511 -0.0084815063
-0.0021637215 -0.0011829154 -0.0017715349
-0.0049989424 -0.0029572886 -0.0047537442
-0.0012683885 0.010646239 -0.0046046339
-0.0048497203 -0.00088718662 -0.0034117501
-0.0041036098 0.0065060351 -0.0022188663
0.0012683885 -0.0087240012 -0.00072776165
-0.0048497203 0.0011829154 -0.0034117501
-0.00037305543 0.010202646 -0.0035608604
0.0014176106 -0.0076889507 -0.00072776165
0.0048497203 -0.0070974929 -0.0040081921
0.0045512761 0.0023658308 -0.0060957386
0.0018652771 -0.0054709841 -0.0090779476
-0.004402054 0.003400882 -0.0060957386
7.4611082e-05 -0.0070974929 -0.00072776165
-0.0024621657 0.0079846792 -0.00072776165
0.003506721 0.008576137 -0.0069904011
-0.0020144992 0.0088718664 -0.00057865115
-0.0030590545 0.0079846792 -0.0087797269
-0.0018652771 0.0091675948 -0.0074377325
0.0012683885 -0.0047316616 -0.0092270579
0.0032082766 -0.0047316616 -0.0080341743
-0.0030590545 -0.0075410861 -0.008332395
0.0047004982 -0.0014786443 -0.0059466278
0.0015668328 -0.00073932216 -0.0089288373
-0.00037305543 0.01035051 -0.0026661977
0.00067149976 0.0091675948 -0.0089288373
0.0012683885 -0.0029572886 -0.0093761683
-0.0020144992 -0.0044359332 -0.0089288373
0.0036559431 0.003400882 -0.0074377325
-0.00052227761 0.0016265088 -0.0095252795
0.0042528319 -0.0069496282 -0.0025170872
0.0047004982 0.0029572886 -0.0054992964
-0.0023129436 -0.00088718662 -0.008332395
0.001716055 -0.010646239 -0.0016224245
0.0018652771 0.010054781 -0.0050519654
-0.00082072191 0.0044359332 -0.00072776165
0.00067149976 -0.0047316616 -0.0093761683
0.0048497203 0.0062103062 -0.0062448489
-0.0041036098 0.0079846792 -0.0077359537
-0.00052227761 -0.0025136953 -0.00057865115
-0.002611388 0.0088718664 -0.001175093
0.0029098322 -0.0047316616 -0.0084815063
0.002611388 0.0093154591 -0.001473314
-0.0024621657 0.0093154591 -0.0034117501
-0.0012683885 0.0039923396 -0.00057865115
-0.00067149976 0.0084282728 -0.00072776165
-0.0018652771 -0.0066538993 -0.00072776165
-0.0049989424 0.0076889507 -0.0049028546
-0.0049989424 -0.0070974929 -0.0047537442
0.0011191663 0.0035487465 -0.0092270579
7.4611082e-05 0.0093154591 -0.0080341743
-0.004402054 0.0082804086 -0.0026661977
-0.0041036098 -0.0056188484 -0.0031135292
-0.0020144992 0.01035051 -0.0013242034
0.0032082766 -0.010646239 -0.0069904011
-0.002611388 0.0054709841 -0.00057865115
7.4611082e-05 -0.008576137 -0.0093761683
0.0032082766 0.0088718664 -0.0081832847
0.001716055 0.0093154591 -0.0059466278
7.4611082e-05 0.0028094242 -0.00072776165
-0.0049989424 -0.0038444754 -0.0043064128
0.0012683885 -0.010646239 -0.0060957386
-7.4611082e-05 0.0093154591 -0.0066921804
-0.0048497203 -0.0010350511 -0.0034117501
-0.0014176106 -0.010646239 -0.0031135292
-0.001716055 0.0091675948 -0.0087797269
-0.0039543873 -0.008576137 -0.0075868429
-0.0012683885 0.010498375 -0.0047537442
-0.00096994411 -0.00088718662 -0.0090779476
0.0024621657 0.006062442 -0.0089288373
-0.00037305543 0.010646239 -0.0046046339
-0.0018652771 -0.010646239 -0.0043064128
-0.0049989424 -0.0050273906 -0.0046046339
-0.0029098322 0.00029572885 -0.0022188663
0.00096994411 -0.0075410861 -0.0092270579
0.0049989424 0.0057667131 -0.0041573024
-0.0036559431 0.0054709841 -0.007885064
0.0027606101 -0.0057667131 -0.0010259826
0.0024621657 -0.0099069169 -0.00072776165
-0.003506721 -0.0070974929 -0.0019206454
0.0049989424 0.0038444754 -0.0043064128
0.0038051652 -0.0075410861 -0.0022188663
0.0011191663 0.010054781 -0.0026661977
-0.0014176106 0.0091675948 -0.001473314
0.0047004982 -0.00088718662 -0.0056484072
0.0027606101 -0.00073932216 -0.0016224245
-0.00082072191 0.010202646 -0.0026661977
-0.0041036098 -0.0026615597 -0.005350186
0.0027606101 0.0059145773 -0.0008768721
0.0018652771 -0.0096111884 -0.00057865115
-0.00052227761 -0.0093154591 -0.00072776165
0.0021637215 0.0088718664 -0.0068412907
-0.0012683885 -0.010646239 -0.0032626395
0.0038051652 0.0094633233 -0.0046046339
0.0029098322 0.010202646 -0.0035608604
-0.0048497203 -0.0096111884 -0.0056484072
-0.004402054 -0.0016265088 -0.0032626395
0.00067149976 -0.0079846792 -0.0092270579
-0.0039543873 -0.0075410861 -0.0023679768
-0.004402054 0.0088718664 -0.0065430696
0.0038051652 0.0091675948 -0.0071395119
-0.0023129436 0.0057667131 -0.0087797269
-0.00067149976 0.010646239 -0.0032626395
-0.0014176106 -0.0070974929 -0.0089288373
-0.0047004982 -0.00029572885 -0.0032626395
0.00082072191 -0.0053231195 -0.0092270579
0.0032082766 0.0053231195 -0.001473314
0.0036559431 -0.010498375 -0.0025170872
0.0033574987 0.0094633233 -0.0044555231
0.00037305543 0.0093154591 -0.0022188663
0.0030590545 -0.0013307799 -0.0074377325
-0.0041036098 0.0093154591 -0.0050519654
0.0049989424 0.0032530176 -0.0046046339
-7.4611082e-05 0.0093154591 -0.0069904011
0.0020144992 -0.0041402043 -0.0010259826
-0.0020144992 0.0091675948 -0.0016224245
0.0049989424 0.007836815 -0.0041573024
0.0049989424 0.0016265088 -0.0049028546
0.0030590545 -0.0087240012 -0.0086306166
-0.00067149976 0.0016265088 -0.00057865115
0.0045512761 -0.006801764 -0.0029644186
-0.0021637215 0.0029572886 -0.0089288373
0.0032082766 -0.010202646 -0.0013242034
-0.0027606101 -0.010498375 -0.0086306166
0.0014176106 0.0091675948 -0.0087797269
-0.0047004982 -0.0054709841 -0.0035608604
0.0024621657 0.0035487465 -0.0087797269
0.00052227761 -0.007836815 -0.0092270579
-0.0041036098 -0.003400882 -0.0034117501
-0.0029098322 0.010202646 -0.0017715349
-0.0021637215 0.006062442 -0.0089288373
0.0023129436 0.0093154591 -0.0065430696
-0.002611388 -0.0022179666 -0.0019206454
0.0020144992 -0.010646239 -0.0071395119
-0.0011191663 0.0090197306 -0.00072776165
0.003506721 -0.0016265088 -0.0068412907
0.0015668328 -0.00029572885 -0.0010259826
-7.4611082e-05 0.0054709841 -0.00072776165
0.0029098322 -0.0051752552 -0.0084815063
0.00052227761 -0.0020701021 -0.0093761683
0.0049989424 0.0054709841 -0.0035608604
0.003506721 -0.00014786443 -0.0013242034
0.0030590545 -0.0050273906 -0.001175093
-0.00052227761 0.0045837974 -0.0092270579
0.001716055 0.0063581704 -0.00057865115
-0.00082072191 -0.010498375 -0.0089288373
0.0048497203 0.0079846792 -0.0063939593
-0.0023129436 -0.0019222377 -0.008332395
0.0042528319 -0.006062442 -0.0066921804
7.4611082e-05 -0.010646239 -0.0066921804
-0.0024621657 0.0094633233 -0.0041573024
0.0020144992 -0.010646239 -0.007885064
-0.00082072191 -0.0032530176 -0.00057865115
-0.0047004982 0.0029572886 -0.0034117501
-0.0021637215 0.010202646 -0.0050519654
-0.00067149976 -0.0056188484 -0.0092270579
0.00082072191 -0.0093154591 -0.00057865115
-0.002611388 0.0026615597 -0.0084815063
0.0018652771 0.010646239 -0.0040081921
-0.0011191663 0.007836815 -0.0089288373
0.0018652771 -0.0073932218 -0.0092270579
0.0039543873 0.0057667131 -0.0023679768
-0.0038051652 0.0013307799 -0.0066921804
0.001716055 -0.0072453571 -0.00072776165
0.0047004982 0.0050273906 -0.0031135292
0.0032082766 -0.0088718664 -0.0084815063
0.0014176106 -0.007836815 -0.0092270579
-0.0039543873 -0.0096111884 -0.0019206454
-0.00096994411 -0.0075410861 -0.00057865115
0.0032082766 -0.01035051 -0.001473314
0.0038051652 0.0013307799 -0.0034117501
-0.0048497203 0.0038444754 -0.0034117501
-0.0039543873 -0.0066538993 -0.002815308
-0.002611388 0.0069496282 -0.00072776165
-0.0020144992 -0.0082804086 -0.00057865115
-0.0029098322 -0.0075410861 -0.001175093
0.0036559431 -0.0072453571 -0.0080341743
0.0049989424 0.0045837974 -0.0060957386
0.0032082766 -0.0020701021 -0.001175093
0.0048497203 0.008576137 -0.0047537442
0.0012683885 -0.0079846792 -0.00057865115
-0.0049989424 -0.007836815 -0.0035608604
0.0049989424 0.0019222377 -0.0043064128
0.0048497203 -0.010054781 -0.0062448489
0.0029098322 -0.010054781 -0.0010259826
-0.00082072191 -0.0031051531 -0.0090779476
-0.0045512761 -0.010498375 -0.0056484072
0.0049989424 0.0032530176 -0.0049028546
0.0032082766 0.0097590527 -0.0050519654
0.002611388 -0.0013307799 -0.0020697559
-0.00037305543 0.00059145771 -0.0092270579
-0.00037305543 -0.010646239 -0.0054992964
0.00082072191 -0.0081325434 -0.0092270579
0.0018652771 -0.010646239 -0.0075868429
-0.0036559431 -0.0093154591 -0.0019206454
-0.0048497203 -0.0091675948 -0.0057975175
0.0049989424 0 -0.0044555231
0.00037305543 -0.0038444754 -0.00057865115
0.004402054 0.0091675948 -0.003709971
0.0036559431 0.0056188484 -0.0077359537
-0.0036559431 -0.0011829154 -0.0032626395
7.4611082e-05 -0.010646239 -0.0068412907
0.0033574987 -0.00029572885 -0.002815308
-0.0015668328 -0.0056188484 -0.00057865115
0.001716055 -0.0014786443 -0.0089288373
0.0015668328 -0.010646239 -0.0087797269
0.0011191663 -0.0087240012 -0.00072776165
-0.0048497203 0.0019222377 -0.0034117501
-0.0041036098 -0.0013307799 -0.0032626395
0.0012683885 -0.0097590527 -0.0092270579
-0.0027606101 -0.0062103062 -0.001473314
0.0011191663 -0.010202646 -0.00072776165
0.0021637215 -0.0041402043 -0.0087797269
0.001716055 0.0036966109 -0.0092270579
0.00037305543 0.0099069169 -0.0046046339
0.0029098322 0.0053231195 -0.0086306166
-0.0029098322 0.010054781 -0.0043064128
0.003506721 -0.0032530176 -0.001473314
0.0029098322 0.00029572885 -0.0016224245
-0.00022383325 0.010646239 -0.0047537442
0.0011191663 -0.010646239 -0.0068412907
0.0036559431 -0.0047316616 -0.0025170872
0.0032082766 -0.0072453571 -0.0084815063
0.0047004982 -0.0053231195 -0.0034117501
0.002611388 -0.00088718662 -0.0081832847
0.001716055 -0.00088718662 -0.0010259826
-0.00037305543 0.0070974929 -0.00072776165
0.004402054 -0.0082804086 -0.002815308
0.0014176106 0.0039923396 -0.00072776165
0.0030590545 -0.010202646 -0.0087797269
-0.00022383325 0.00014786443 -0.00057865115
-0.0015668328 -0.006062442 -0.00057865115
-0.00022383325 0.010054781 -0.0044555231
-0.00037305543 -0.0016265088 -0.00057865115
-0.003506721 0.0065060351 -0.0017715349
0.0039543873 -0.0047316616 -0.0065430696
0.0014176106 -0.010646239 -0.0090779476
0.0020144992 -0.010646239 -0.0038590813
-0.0049989424 -0.0076889507 -0.0046046339
-0.0045512761 -0.0097590527 -0.0066921804
0.00082072191 0.010646239 -0.0038590813
0.0015668328 -0.0042880685 -0.00057865115
-0.0021637215 0.0088718664 -0.001175093
0.0041036098 0.00029572885 -0.0035608604
-0.00082072191 -0.010646239 -0.0056484072
0.0041036098 0.0050273906 -0.0072886222
0.0042528319 -0.01035051 -0.0029644186
0.00022383325 -0.010498375 -0.0090779476
-0.0020144992 0.0017743732 -0.001175093
-0.0024621657 -0.0079846792 -0.0089288373
0.0036559431 0.0056188484 -0.0019206454
-0.00022383325 0.006801764 -0.0092270579
0.00096994411 -0.0093154591 -0.0090779476
0.0012683885 0.0056188484 -0.0090779476
-0.0027606101 0.0097590527 -0.0050519654
0.0018652771 -0.0062103062 -0.00057865115
7.4611082e-05 0.010054781 -0.0017715349
0.0036559431 -0.0013307799 -0.0016224245
0.0045512761 0.0038444754 -0.0062448489
0.0049989424 0.00088718662 -0.0038590813
-0.0023129436 0.00088718662 -0.0084815063
0.0047004982 0.0057667131 -0.0032626395
0.0014176106 -0.0014786443 -0.0090779476
-0.0033574987 -0.0088718664 -0.001473314
-0.0042528319 -0.008576137 -0.0025170872
-0.0012683885 -0.0094633233 -0.0089288373
-0.0049989424 0.0070974929 -0.003709971
-0.0018652771 -0.010646239 -0.0016224245
-0.0029098322 0.0048795263 -0.0013242034
-0.0047004982 -0.0097590527 -0.003709971
-0.002611388 -0.0094633233 -0.0010259826
-0.003506721 -0.0081325434 -0.0019206454
-0.0049989424 0.0038444754 -0.0052010757
0.0029098322 0.0070974929 -0.0010259826
-0.003506721 -0.0017743732 -0.0065430696
-0.00022383325 0.0094633233 -0.0038590813
0.0024621657 -0.0020701021 -0.0008768721
-0.001716055 -0.0056188484 -0.0087797269
-0.0030590545 0.0053231195 -0.0084815063
0.0049989424 -0.003400882 -0.0046046339
-0.0024621657 0.0088718664 -0.0090779476
0.0049989424 0.0065060351 -0.0049028546
0.0048497203 -0.0088718664 -0.0056484072
-0.00096994411 0.0084282728 -0.0089288373
-0.0045512761 -0.0082804086 -0.0066921804
0.00067149976 -0.0099069169 -0.00072776165
0.0020144992 0.01035051 -0.0032626395
-0.0049989424 0.0079846792 -0.0047537442
-0.0020144992 0.0075410861 -0.0089288373
0.0011191663 0.0093154591 -0.0034117501
0.0012683885 0.0065060351 -0.0090779476
0.0029098322 -0.003400882 -0.0016224245
-0.00037305543 -0.010646239 -0.0032626395
0.004402054 0.0019222377 -0.0060957386
-0.0048497203 0.0041402043 -0.0034117501
7.4611082e-05 0.003400882 -0.0093761683
-0.0045512761 -0.0094633233 -0.0031135292
-0.00022383325 -0.003400882 -0.00057865115
-0.00096994411 0.0045837974 -0.0093761683
0.0042528319 -0.0031051531 -0.0035608604
-0.00037305543 -0.0045837974 -0.0093761683
0.004402054 0.00073932216 -0.0056484072
0.0014176106 0.0039923396 -0.0092270579
-0.0023129436 0.010202646 -0.0031135292
0.0049989424 0.0039923396 -0.0049028546
-0.0015668328 0.0051752552 -0.0089288373
0.0033574987 0.0014786443 -0.0023679768
0.00037305543 0.010498375 -0.0043064128
-0.00067149976 0.010202646 -0.002815308
-0.0023129436 0.0091675948 -0.0020697559
-0.001716055 0.0093154591 -0.0077359537
0.0048497203 0.0044359332 -0.003709971
0.0029098322 0.0011829154 -0.0019206454
-0.0032082766 0.0072453571 -0.0013242034
0.0041036098 -0.0075410861 -0.0072886222
0.0014176106 -0.00059145771 -0.0092270579
-0.0033574987 -0.0031051531 -0.0071395119
-0.0045512761 -0.008576137 -0.0065430696
0.0048497203 -0.010202646 -0.0062448489
0.003506721 0.0059145773 -0.0017715349
0.0021637215 0.0029572886 -0.00072776165
0.004402054 0.0091675948 -0.0038590813
0.00082072191 0.0056188484 -0.0090779476
0.0015668328 0.00088718662 -0.0008768721
0.00022383325 -0.0057667131 -0.00057865115
0.0015668328 0.0093154591 -0.0057975175
-0.0042528319 -0.0010350511 -0.0032626395
-0.0049989424 -0.008576137 -0.0043064128
-0.002611388 -0.00029572885 -0.0080341743
-0.0038051652 -0.007836815 -0.0075868429
0.0012683885 0.010054781 -0.002815308
-0.0018652771 0.0048795263 -0.00057865115
-0.0038051652 -0.0039923396 -0.0031135292
0.0047004982 0.0011829154 -0.0050519654
0.0036559431 0.0066538993 -0.0017715349
-0.0049989424 -0.0048795263 -0.0052010757
0.0045512761 -0.0020701021 -0.0060957386
-0.002611388 -0.0050273906 -0.0084815063
0.0041036098 -0.0082804086 -0.0075868429
0.002611388 -0.00088718662 -0.00057865115
0.002611388 -0.00059145771 -0.0016224245
-0.0048497203 -0.0054709841 -0.0040081921
0.0036559431 -0.010498375 -0.0071395119
0.0045512761 -0.008576137 -0.0068412907
0.00096994411 0.0093154591 -0.0074377325
-0.0018652771 -0.0094633233 -0.0089288373
0.0029098322 0.0017743732 -0.0080341743
-0.0018652771 0.0062103062 -0.0089288373
-0.004402054 0.0023658308 -0.0059466278
0.00082072191 0.0091675948 -0.0086306166
-0.0049989424 0.0069496282 -0.0059466278
-0.004402054 -0.0041402043 -0.005350186
-0.004402054 -0.0038444754 -0.0034117501
0.0029098322 0.0025136953 -0.001175093
7.4611082e-05 -0.0072453571 -0.00072776165
0.0047004982 -0.0066538993 -0.0060957386
-0.0049989424 0.0081325434 -0.0041573024
0.0045512761 0.0091675948 -0.0041573024
0.00082072191 0.0093154591 -0.0054992964
0.00052227761 -0.0081325434 -0.0092270579
-0.00052227761 -0.0075410861 -0.00057865115
0.0015668328 -0.010646239 -0.0069904011
0.00082072191 0.0047316616 -0.00072776165
-0.0023129436 -0.008576137 -0.0008768721
-0.0029098322 -0.00029572885 -0.0022188663
0.0018652771 0.0053231195 -0.0092270579
0.0024621657 -0.010646239 -0.0056484072
-0.004402054 0.0038444754 -0.0062448489
-0.0023129436 -0.010646239 -0.0075868429
-0.0045512761 -0.0091675948 -0.0032626395
0.00022383325 0.006801764 -0.0010259826
-7.4611082e-05 -0.0091675948 -0.0093761683
-0.0027606101 -0.0051752552 -0.008332395
0.0048497203 0.0051752552 -0.0060957386
-0.0048497203 -0.010498375 -0.0054992964
-0.0015668328 0.0038444754 -0.00057865115
-0.003506721 0.010054781 -0.0044555231
0.00067149976 -0.00014786443 -0.0093761683
0.0027606101 -0.0017743732 -0.0080341743
0.0041036098 -0.0090197306 -0.0023679768
0.0036559431 0.0038444754 -0.0023679768
0.0048497203 -0.0044359332 -0.0040081921
0.00082072191 0.00059145771 -0.0093761683
-0.0014176106 -0.003400882 -0.0089288373
-0.0014176106 0.0093154591 -0.0043064128
-0.0011191663 -0.01035051 -0.0010259826
0.0036559431 -0.003400882 -0.0066921804
0.003506721 0.0017743732 -0.0072886222
-0.0045512761 0.0019222377 -0.0034117501
-0.0029098322 0.0057667131 -0.0010259826
-0.00037305543 0.010054781 -0.0035608604
0.0038051652 0.0031051531 -0.0025170872
0.0020144992 -0.010646239 -0.005350186
0.0048497203 -0.0011829154 -0.005350186
0.0032082766 -0.0075410861 -0.0013242034
0.00082072191 -0.0025136953 -0.00057865115
-0.0049989424 0.0038444754 -0.0040081921
-0.0015668328 0.0093154591 -0.0020697559
-0.0018652771 -0.0073932218 -0.00072776165
-0.0047004982 -0.0032530176 -0.0032626395
0.0021637215 0.0079846792 -0.0092270579
-0.0049989424 -0.0063581704 -0.0047537442
0.0047004982 -0.0036966109 -0.0062448489
0.0045512761 -0.0047316616 -0.0060957386
-0.0042528319 0.0090197306 -0.005350186
0.0049989424 0.0072453571 -0.0043064128
0.0023129436 -0.0011829154 -0.0017715349
-0.0011191663 -0.0022179666 -0.0008768721
0.0038051652 0.0091675948 -0.0020697559
-0.0049989424 -0.0045837974 -0.0044555231
0.0042528319 -0.0050273906 -0.0032626395
0.0049989424 -0.0020701021 -0.0050519654
-7.4611082e-05 0.0065060351 -0.0008768721
-0.0038051652 -0.010498375 -0.0069904011
0.0033574987 0.0081325434 -0.0084815063
-7.4611082e-05 0.010054781 -0.0041573024
0.0021637215 0.0062103062 -0.00057865115
-0.0020144992 -0.0053231195 -0.0087797269
0.00096994411 -0.0081325434 -0.00057865115
-0.0045512761 0.0082804086 -0.0029644186
0.0015668328 -0.0042880685 -0.0092270579
-0.002611388 -0.010646239 -0.0065430696
0.0018652771 0.0073932218 -0.00057865115
-0.0015668328 -0.0047316616 -0.0089288373
0.0048497203 -0.0069496282 -0.0043064128
0.00067149976 -0.0017743732 -0.00057865115
-0.0029098322 0.00029572885 -0.0080341743
-0.0014176106 -0.010646239 -0.0071395119
-0.0047004982 -0.0020701021 -0.005350186
0.001716055 -0.00044359331 -0.0089288373
-0.0033574987 0.0066538993 -0.0086306166
-0.0014176106 -0.0017743732 -0.0089288373
-0.0020144992 0.01035051 -0.0020697559
0.00052227761 -0.0072453571 -0.0092270579
0.0024621657 -0.0013307799 -0.0019206454
-0.00067149976 -0.010646239 -0.0019206454
-0.0020144992 -0.010202646 -0.0087797269
0.001716055 -0.010646239 -0.0047537442
-0.0033574987 0.0093154591 -0.0052010757
-0.00067149976 -0.0079846792 -0.00057865115
-0.0045512761 0.007836815 -0.0068412907
-0.003506721 -0.00073932216 -0.0066921804
-0.0032082766 -0.0094633233 -0.0084815063
-0.0047004982 0.0023658308 -0.005350186
0.003506721 0.006801764 -0.001473314
0.0036559431 -0.01035051 -0.0019206454
0.0015668328 0.0079846792 -0.0092270579
-0.00082072191 0.0025136953 -0.00057865115
0.0049989424 0.0084282728 -0.0044555231
-0.00052227761 0.0093154591 -0.005350186
0.00096994411 0.0082804086 -0.0092270579
-0.00067149976 0.010202646 -0.0022188663
0.0020144992 0.0054709841 -0.0092270579
-0.0049989424 0.0048795263 -0.0040081921
-0.004402054 0.00088718662 -0.0032626395
0.00022383325 -0.00029572885 -0.0093761683
-0.0049989424 -0.003400882 -0.0046046339
0.001716055 0.0093154591 -0.0035608604
0.001716055 0.010646239 -0.0041573024
0.0018652771 -0.0075410861 -0.0092270579
0.002611388 0.010498375 0.0015088953
0.0048497203 -0.0041402043 -0.0059466278
0.0011191663 -0.00073932216 -0.00072776165
0.0021637215 0.0090197306 -0.0090779476
0.0032082766 -0.0048795263 -0.001175093
-0.0014176106 0.0057667131 -0.0089288373
-0.00022383325 0.0047316616 -0.00072776165
-0.0049989424 0.0020701021 -0.0043064128
-0.001716055 0.010498375 -0.002815308
-0.0041036098 0.0031051531 -0.0029644186
-0.0047004982 0.007836815 -0.0063939593
0.002611388 0.0070974929 -0.0089288373
-0.00037305543 -0.010646239 -0.0019206454
0.0048497203 -0.0059145773 -0.0060957386
0.00022383325 0.0094633233 -0.0029644186
-0.0030590545 -0.0076889507 -0.0016224245
0.0014176106 -0.008576137 -0.0092270579
0.0021637215 -0.00014786443 -0.00072776165
0.0029098322 0.00044359331 -0.0020697559
0.0030590545 0.0032530176 -0.0081832847
-0.0011191663 -0.010646239 -0.005350186
0.002611388 -0.0020701021 -0.00072776165
-0.0036559431 0.0022179666 -0.0074377325
0.0039543873 -0.0053231195 -0.0068412907
-0.0011191663 0.0091675948 -0.001473314
-0.0012683885 0.0079846792 -0.00072776165
-0.0027606101 0.0056188484 -0.0008768721
0.001716055 -0.0013307799 -0.0089288373
-0.00052227761 0.0093154591 -0.0066921804
0.0038051652 0.0011829154 -0.0032626395
-0.0011191663 0.0047316616 -0.00057865115
0.0033574987 0.0094633233 -0.003709971
-0.0012683885 -0.010646239 -0.0087797269
-0.0032082766 -0.0057667131 -0.0080341743
-0.0033574987 -0.010646239 -0.0038590813
-0.0021637215 0.0054709841 -0.0087797269
-0.00082072191 0.00044359331 -0.00057865115
0.004402054 -0.0087240012 -0.0029644186
0.0015668328 0.010054781 -0.0035608604
-0.0039543873 -0.0041402043 -0.0032626395
-0.0023129436 0.0091675948 -0.0066921804
0.0029098322 -0.0045837974 -0.0010259826
-0.0015668328 0.0025136953 -0.0089288373
-0.0027606101 -0.010646239 -0.0034117501
0.0038051652 -0.0082804086 -0.0020697559
-0.00022383325 -0.0096111884 -0.0092270579
0.0045512761 -0.00044359331 -0.003709971
0.003506721 0.0032530176 -0.0077359537
-0.002611388 -0.010646239 -0.0017715349
-0.0038051652 -0.0026615597 -0.0056484072
-0.00022383325 0.010054781 -0.0040081921
-0.0038051652 0.0084282728 -0.0081832847
-0.0049989424 0.0028094242 -0.0049028546
-0.00096994411 -0.01035051 -0.0010259826
0.00022383325 -0.010646239 -0.0090779476
-0.0020144992 0.010498375 -0.0019206454
0.0033574987 -0.003400882 -0.0023679768
0.0036559431 0.0026615597 -0.0072886222
-0.0033574987 -0.0017743732 -0.0031135292
0.0030590545 0.0059145773 -0.0084815063
-0.0049989424 0.0053231195 -0.0049028546
0.00067149976 0.0094633233 -0.0060957386
0.0030590545 -0.0026615597 -0.0023679768
-0.0041036098 0.0091675948 -0.0035608604
0.0041036098 0.0044359332 -0.0068412907
-0.0036559431 -0.0069496282 -0.007885064
0.0042528319 0.0063581704 -0.0072886222
0.0018652771 -0.006801764 -0.00072776165
-0.0045512761 0.0072453571 -0.0026661977
-0.0045512761 0.0056188484 -0.0029644186
0.00096994411 -0.010646239 -0.0040081921
-0.0024621657 -0.01035051 -0.0087797269
-0.0018652771 0.0023658308 -0.0010259826
-0.003506721 0.0035487465 -0.0020697559
-0.004402054 -0.0069496282 -0.0062448489
0.0041036098 -0.00029572885 -0.003709971
-0.002611388 -0.010646239 -0.0016224245
0.0047004982 -0.0031051531 -0.0035608604
0.0029098322 0.0079846792 -0.0010259826
-0.0015668328 0.0011829154 -0.0008768721
0.0038051652 0.0051752552 -0.0075868429
-0.00052227761 -0.0019222377 -0.0090779476
0.0032082766 -0.0063581704 -0.008332395
-0.0020144992 0.010498375 -0.0023679768
0.0049989424 -0.0041402043 -0.0046046339
0.0018652771 -0.0082804086 -0.00057865115
0.003506721 -0.0088718664 -0.0084815063
-0.0032082766 -0.010646239 -0.0025170872
-0.001716055 0.00059145771 -0.0010259826
-0.00037305543 -0.0084282728 -0.0092270579
0.0048497203 -0.0045837974 -0.0057975175
-0.002611388 0.0054709841 -0.0010259826
-0.0041036098 -0.0087240012 -0.0072886222
0.0021637215 0.0025136953 -0.00072776165
-0.0049989424 0.0076889507 -0.0044555231
0.004402054 -0.0096111884 -0.0071395119
0.0018652771 0.0091675948 -0.0026661977
0.0036559431 -0.0013307799 -0.0029644186
0.002611388 0.010498375 0.0013597849
0.002611388 0.010202646 -0.001175093
0.0032082766 0.00059145771 -0.001175093
-0.0015668328 0.01035051 -0.0050519654
-0.0036559431 -0.010646239 -0.0031135292
-0.0033574987 -0.010646239 -0.0068412907
-0.0038051652 0.0090197306 -0.0072886222
0.0038051652 -0.0087240012 -0.0019206454
0.0024621657 0.0057667131 -0.00057865115
0.0042528319 -0.006801764 -0.0025170872
0.0049989424 -0.0032530176 -0.0038590813
-0.0018652771 0.0094633233 -0.0046046339
0.00067149976 0.0048795263 -0.0090779476
-0.0036559431 -0.0070974929 -0.0020697559
-0.0023129436 -0.0090197306 -0.0089288373
0.00052227761 -0.0047316616 -0.00057865115
-0.0038051652 0.0093154591 -0.0038590813
0.0011191663 0.0096111884 -0.0046046339
0.0033574987 -0.00014786443 -0.0071395119
-0.0033574987 0.0065060351 -0.001473314
0.0049989424 -0.0044359332 -0.005350186
0.0041036098 0.0096111884 -0.0047537442
0.00052227761 0.0011829154 -0.00057865115
-0.0047004982 -0.0059145773 -0.0035608604
0.0030590545 -0.0079846792 -0.0086306166
0.0049989424 0.00073932216 -0.0049028546
-0.0033574987 0.0099069169 -0.0050519654
-0.0042528319 -0.0057667131 -0.0032626395
0.0038051652 -0.008576137 -0.0019206454
0.0021637215 -0.010646239 -0.0054992964
-0.004402054 -0.0088718664 -0.002815308
-0.0027606101 -0.00088718662 -0.0022188663
-0.00082072191 0.0023658308 -0.00057865115
0.0014176106 0.0070974929 -0.0092270579
0.0015668328 -0.010646239 -0.0057975175
-0.0049989424 -0.0022179666 -0.0050519654
0.001716055 -0.0017743732 -0.0010259826
0.003506721 -0.00014786443 -0.0065430696
0.0030590545 0.006801764 -0.0086306166
0.0033574987 -0.0042880685 -0.0023679768
-0.0029098322 0.0084282728 -0.0089288373
-0.001716055 -0.0097590527 -0.00057865115
-0.00037305543 -0.010646239 -0.0071395119
-0.0024621657 0.010498375 0.00031601163
-0.001716055 -0.0044359332 -0.0089288373
-0.0049989424 -0.0029572886 -0.0044555231
-0.0048497203 0.0088718664 -0.0050519654
-0.0038051652 -0.0031051531 -0.0032626395
-0.0047004982 0.008576137 -0.0031135292
0.00022383325 -0.007836815 -0.00072776165
0.0033574987 0.0038444754 -0.007885064
0.0020144992 -0.00073932216 -0.0087797269
0.0033574987 -0.00029572885 -0.0016224245
0.0039543873 -0.0013307799 -0.0035608604
0.0029098322 0.01035051 -0.0038590813
0.0011191663 0.0090197306 -0.0092270579
0.0032082766 0.0025136953 -0.0020697559
0.0024621657 0 -0.00057865115
-0.003506721 0.0079846792 -0.008332395
0.0030590545 -0.0016265088 -0.0077359537
0.004402054 -0.0014786443 -0.0060957386
0.004402054 0.0056188484 -0.002815308
-0.00037305543 -0.010646239 -0.0066921804
0.00022383325 0.0042880685 -0.00072776165
-0.0036559431 0.0073932218 -0.0081832847
0.0011191663 -0.0032530176 -0.00057865115
0.003506721 0.0099069169 -0.0041573024
0.0014176106 -0.0035487465 -0.0093761683
0.00052227761 -0.0036966109 -0.0093761683
-0.0014176106 0.0023658308 -0.0089288373
-0.001716055 0.0017743732 -0.0089288373
-0.004402054 -0.0096111884 -0.0069904011
0.0041036098 0.0050273906 -0.0071395119
0.00052227761 0.0019222377 -0.0093761683
-0.0024621657 0.010202646 0.0022544477
0.0049989424 -0.00088718662 -0.0044555231
-0.003506721 0.0099069169 -0.003709971
-0.001716055 0.0013307799 -0.0010259826
-0.0033574987 0.0011829154 -0.0075868429
0.0039543873 -0.0032530176 -0.0032626395
0.0047004982 -0.00088718662 -0.0057975175
-7.4611082e-05 -0.0094633233 -0.0093761683
0.0033574987 -0.0032530176 -0.0075868429
-0.0021637215 0.0066538993 -0.0089288373
-0.0014176106 -0.010646239 -0.0063939593
-0.0048497203 -0.0050273906 -0.0040081921
-0.0042528319 -0.0069496282 -0.0065430696
-0.0029098322 -0.010498375 -0.0016224245
0.0014176106 -0.0029572886 -0.0092270579
0.002611388 -0.010646239 -0.0072886222
0.0045512761 -0.00029572885 -0.0059466278
0.0011191663 0.010054781 -0.0044555231
0.004402054 -0.0019222377 -0.0062448489
7.4611082e-05 -0.0023658308 -0.00057865115
0.003506721 -0.0053231195 -0.0023679768
0.00082072191 0.0032530176 -0.00072776165
-0.0018652771 0.0072453571 -0.00072776165
0.0047004982 0.0084282728 -0.0059466278
-0.004402054 0.008576137 -0.002815308
-0.00052227761 -0.0020701021 -0.00057865115
0.00037305543 0.0039923396 -0.00072776165
-0.00052227761 0.0075410861 -0.0090779476
-0.0045512761 -0.0070974929 -0.0056484072
-0.003506721 -0.006062442 -0.0075868429
-0.00037305543 0.0072453571 -0.0090779476
0.0048497203 0.0087240012 -0.0056484072
-0.0036559431 -0.0070974929 -0.0077359537
0.0048497203 0.0084282728 -0.0041573024
-0.0049989424 -0.0069496282 -0.0040081921
0.0038051652 -0.010498375 -0.0066921804
0.0011191663 -0.0022179666 -0.00057865115
-0.0049989424 0.00044359331 -0.0052010757
0.0039543873 -0.0041402043 -0.0065430696
0.00037305543 0.0011829154 -0.00057865115
-0.0039543873 0.00029572885 -0.0057975175
-0.0029098322 0.0023658308 -0.0080341743
0.002611388 -0.0029572886 -0.0084815063
0.0014176106 -0.006062442 -0.0092270579
-0.0027606101 -0.0042880685 -0.0081832847
-0.0030590545 0.0036966109 -0.0017715349
0.0020144992 0.0079846792 -0.00057865115
0.0032082766 -0.0051752552 -0.0013242034
0.0042528319 0.0065060351 -0.0072886222
0.001716055 0.0051752552 -0.0092270579
-0.001716055 0.010498375 -0.0017715349
0.0038051652 0.0031051531 -0.0072886222
0.0045512761 0.00073932216 -0.0052010757
0.0032082766 0.0050273906 -0.0084815063
-0.0045512761 -0.010498375 -0.005350186
0.00022383325 -0.0042880685 -0.00057865115
0.0027606101 -0.00014786443 -0.0020697559
0.00096994411 -0.0054709841 -0.0092270579
-0.0038051652 0.0038444754 -0.0020697559
0.0029098322 -0.0032530176 -0.0016224245
-0.004402054 0.0070974929 -0.002815308
-0.0049989424 -0.0039923396 -0.0052010757
-0.0011191663 -0.0019222377 -0.0089288373
0.0030590545 -0.0057667131 -0.0084815063
0.002611388 -0.0075410861 -0.0010259826
0.0023129436 0.0045837974 -0.00072776165
0.0027606101 -0.010646239 -0.0022188663
-0.0014176106 -0.0082804086 -0.00057865115
0.0047004982 0.00044359331 -0.003709971
0.0036559431 -0.0056188484 -0.0077359537
0.00096994411 0.0093154591 -0.0019206454
0.0029098322 -0.0042880685 -0.0010259826
0.0041036098 0.0026615597 -0.0034117501
-0.0036559431 -0.0065060351 -0.0075868429
0.0018652771 -0.0063581704 -0.00057865115
-0.0048497203 0.0031051531 -0.0038590813
0.00037305543 0.0022179666 -0.00057865115
0.0032082766 -0.0053231195 -0.0019206454
0.0015668328 0.0073932218 -0.00057865115
-7.4611082e-05 -0.0025136953 -0.0093761683
-0.0047004982 0.0082804086 -0.0065430696
-0.0041036098 -0.0050273906 -0.0062448489
-0.0049989424 0.0056188484 -0.0044555231
-0.0012683885 0.0035487465 -0.0089288373
-0.0042528319 -0.0065060351 -0.0066921804
0.00037305543 -0.0069496282 -0.00057865115
0.001716055 0.0026615597 -0.0092270579
0.0045512761 0.0014786443 -0.0052010757
0.0047004982 -0.00044359331 -0.0052010757
0.0027606101 -0.0010350511 -0.007885064
-0.00022383325 -0.010646239 -0.0040081921
-0.0039543873 0.0025136953 -0.002815308
7.4611082e-05 -0.0090197306 -0.0093761683
7.4611082e-05 -0.0014786443 -0.0093761683
0.004402054 0.0081325434 -0.0074377325
0.0042528319 -0.0076889507 -0.0068412907
0.001716055 -0.0022179666 -0.0010259826
-0.0030590545 0.0048795263 -0.0086306166
0.002611388 0.00073932216 -0.0081832847
0.0030590545 -0.0010350511 -0.0072886222
-0.0015668328 0.0082804086 -0.0089288373
0.0033574987 -0.00044359331 -0.002815308
0.0039543873 -0.0045837974 -0.0025170872
0.0032082766 -0.0070974929 -0.0013242034
7.4611082e-05 0.0073932218 -0.0092270579
-0.003506721 0.0069496282 -0.001473314
0.003506721 -0.01035051 -0.0017715349
0.0012683885 -0.010646239 -0.0043064128
-0.0048497203 0.00029572885 -0.005350186
0.0038051652 -0.0028094242 -0.0063939593
-0.0042528319 -0.010054781 -0.0074377325
-0.0024621657 -0.0041402043 -0.0086306166
0.0045512761 -0.0019222377 -0.0060957386
0.00096994411 0.0063581704 -0.00072776165
-0.0049989424 -0.0045837974 -0.0050519654
-0.0048497203 -0.0093154591 -0.0060957386
0.0048497203 -0.0087240012 -0.0059466278
0.0032082766 0.00014786443 -0.0072886222
0.0042528319 0.0066538993 -0.0023679768
-0.0042528319 0.0065060351 -0.0026661977
0.0030590545 -0.0084282728 -0.0086306166
-0.002611388 0.010054781 -0.00057865115
0.0029098322 -0.0022179666 -0.0016224245
-0.0048497203 -0.0047316616 -0.0041573024
-0.0023129436 0.00088718662 -0.0087797269
0.0012683885 0.0093154591 -0.0035608604
0.001716055 -0.0090197306 -0.0092270579
-0.0048497203 0.008576137 -0.0054992964
-0.0020144992 -0.0093154591 -0.0089288373
-0.0029098322 -0.010646239 -0.0038590813
-0.001716055 0.0091675948 -0.0013242034
0.00037305543 -0.0082804086 -0.0092270579
-0.001716055 -0.00014786443 -0.0089288373
-0.001716055 -0.01035051 -0.0089288373
-0.003506721 0.0069496282 -0.0016224245
-0.0042528319 -0.0057667131 -0.0059466278
7.4611082e-05 0.0017743732 -0.00057865115
0.00052227761 -0.0011829154 -0.00057865115
0.0032082766 0.0087240012 -0.001175093
-0.0033574987 -0.00044359331 -0.0023679768
0.00052227761 -0.0035487465 -0.00057865115
-0.0038051652 0.0023658308 -0.0022188663
0.00067149976 -0.0091675948 -0.00072776165
-0.0039543873 0.0044359332 -0.0020697559
0.0030590545 -0.0010350511 -0.0075868429
-0.0029098322 0.0025136953 -0.0080341743
-0.00067149976 -0.0059145773 -0.0092270579
0.0012683885 -0.0035487465 -0.00057865115
-0.0030590545 -0.010646239 -0.0049028546
7.4611082e-05 -0.0048795263 -0.0093761683
-0.0049989424 -0.0031051531 -0.0041573024
-0.00022383325 -0.00029572885 -0.00057865115
-0.0038051652 0.0041402043 -0.0074377325
0.00082072191 -0.0065060351 -0.0090779476
7.4611082e-05 0.0091675948 -0.008332395
0.0041036098 0.0069496282 -0.0022188663
-0.004402054 -0.0081325434 -0.0065430696
0.0012683885 -0.01035051 -0.0092270579
-0.0029098322 -0.010202646 -0.0087797269
0.002611388 -0.0066538993 -0.0010259826
-0.002611388 0.010498375 0.0013597849
0.00096994411 -0.010646239 -0.0086306166
-0.0038051652 -0.0076889507 -0.0074377325
0.0012683885 0.0072453571 -0.00072776165
-0.0039543873 -0.010498375 -0.0022188663
0.00082072191 0.0093154591 -0.0081832847
-0.00052227761 0.010498375 -0.0040081921
7.4611082e-05 0.0047316616 -0.0093761683
-0.00037305543 0.010646239 -0.002815308
-0.0047004982 0.0050273906 -0.0062448489
0.0039543873 0.0025136953 -0.0065430696
0.0039543873 -0.0087240012 -0.0020697559
-0.003506721 -0.010646239 -0.0065430696
-0.00067149976 0.0062103062 -0.00072776165
-0.003506721 -0.0069496282 -0.0019206454
0.0029098322 -0.010646239 -0.0072886222
0.0027606101 -0.0016265088 -0.0080341743
-0.004402054 0.0026615597 -0.0056484072
-0.0049989424 0.0057667131 -0.0043064128
-0.0023129436 -0.0020701021 -0.0084815063
0.0041036098 -0.006062442 -0.0025170872
-0.0049989424 -0.0010350511 -0.0041573024
0.0039543873 -0.0039923396 -0.002815308
-0.0023129436 -0.0039923396 -0.001175093
0.0041036098 0.0093154591 -0.0032626395
0.0029098322 0.0070974929 -0.0087797269
-0.0049989424 0.0054709841 -0.0035608604
0.002611388 -0.0053231195 -0.0086306166
0.002611388 0.00014786443 -0.0080341743
7.4611082e-05 -0.010646239 -0.0072886222
-0.0041036098 0.0014786443 -0.0063939593
-0.0012683885 0.010054781 -0.0041573024
0.004402054 -0.0017743732 -0.0035608604
0.002611388 -0.01035051 -0.0089288373
0.0036559431 0.006062442 -0.007885064
-0.0023129436 -0.0056188484 -0.0010259826
0.0029098322 -0.007836815 -0.0086306166
0.00082072191 -0.0059145773 -0.00057865115
0.0030590545 -0.00044359331 -0.0075868429
0.0014176106 0.0073932218 -0.00057865115
0.0036559431 0.0066538993 -0.0080341743
-0.0032082766 0.0091675948 -0.002815308
0.002611388 -0.00059145771 -0.0080341743
-0.0049989424 -0.0038444754 -0.0049028546
-0.0023129436 -0.0087240012 -0.0008768721
-0.0018652771 -0.0011829154 -0.0013242034
0.0029098322 0.0090197306 -0.0080341743
-0.0033574987 -0.0054709841 -0.0077359537
-0.001716055 -0.010646239 -0.001473314
-0.00022383325 0.010646239 -0.0046046339
-0.0023129436 -0.008576137 -0.0089288373
-0.0014176106 -0.0079846792 -0.00057865115
0.0036559431 -0.0011829154 -0.0034117501
0.0018652771 0.0019222377 -0.00072776165
-0.00067149976 0.010054781 -0.0050519654
0.0029098322 -0.010646239 -0.0043064128
7.4611082e-05 -0.0090197306 -0.0010259826
-0.0023129436 -0.010646239 -0.0041573024
-0.00052227761 -0.00029572885 -0.00057865115
-0.00052227761 -0.0081325434 -0.00057865115
0.0024621657 0.0097590527 -0.0052010757
0.0011191663 0.0093154591 -0.0046046339
0.0030590545 -0.0013307799 -0.0023679768
0.00022383325 0.0059145773 -0.0008768721
0.0039543873 0.0093154591 -0.0052010757
-0.00022383325 -0.010646239 -0.005350186
0.0027606101 0.0084282728 -0.0008768721
-0.0023129436 -0.0057667131 -0.0087797269
0.0047004982 -0.0082804086 -0.0062448489
-0.0015668328 0.0094633233 -0.003709971
0.0033574987 0.0029572886 -0.0016224245
-0.0011191663 0.010054781 -0.0025170872
0.0021637215 0.0042880685 -0.00072776165
-0.00096994411 0.0042880685 -0.0093761683
-0.0049989424 0.0065060351 -0.0054992964
0.0048497203 -0.008576137 -0.0040081921
-0.003506721 0.0066538993 -0.0017715349
0.004402054 -0.0056188484 -0.0060957386
-0.0039543873 0.0084282728 -0.0019206454
0.0038051652 -0.003400882 -0.0065430696
0.0029098322 0.0062103062 -0.0087797269
-0.0032082766 0.00044359331 -0.0077359537
0.0030590545 0.0087240012 -0.0069904011
0.002611388 0.0023658308 -0.00072776165
-0.00067149976 0.0091675948 -0.001473314
0.0029098322 0.0093154591 -0.0031135292
-0.00082072191 0.0057667131 -0.0089288373
0.0021637215 0.0090197306 -0.0063939593
0.0045512761 0.0019222377 -0.0050519654
-0.0015668328 0.0035487465 -0.00057865115
0.001716055 0.0014786443 -0.0090779476
-0.0039543873 -0.01035051 -0.0020697559
-0.0012683885 -0.01035051 -0.0089288373
-0.0021637215 0.00029572885 -0.0086306166
-0.0020144992 -0.00088718662 -0.0086306166
0.0029098322 -0.0020701021 -0.0080341743
-0.0049989424 -0.0023658308 -0.0041573024
-0.0038051652 -0.0063581704 -0.0025170872
0.0027606101 0.0090197306 -0.0084815063
-0.003506721 -0.0016265088 -0.0062448489
-0.0021637215 0.010498375 -0.0025170872
0.0018652771 0.0094633233 -0.003709971
-0.0027606101 0.00014786443 -0.0020697559
-0.00082072191 0.0088718664 -0.00072776165
0.00082072191 -0.0073932218 -0.00057865115
0.0020144992 0.0090197306 -0.0090779476
-0.0023129436 0.0091675948 -0.0031135292
0.001716055 -0.010646239 -0.0050519654
0.0014176106 -0.0054709841 -0.00057865115
0.0012683885 -0.006062442 -0.00057865115
0.0033574987 -0.0091675948 -0.0013242034
-0.0033574987 -0.0072453571 -0.0081832847
-0.0047004982 -0.010498375 -0.0052010757
0.00037305543 -0.0079846792 -0.00057865115
0.0014176106 -0.0081325434 -0.00072776165
-0.0048497203 -0.0079846792 -0.0038590813
0.0045512761 -0.00029572885 -0.003709971
0.00037305543 0.0029572886 -0.00057865115
0.0032082766 -0.010646239 -0.0038590813
0.00022383325 0.006062442 -0.0092270579
0.0049989424 0.0069496282 -0.0035608604
0.00052227761 -0.0094633233 -0.00072776165
-0.0023129436 0.01035051 -0.00057865115
0.0014176106 -0.0065060351 -0.0092270579
0.0012683885 -0.0069496282 -0.0090779476
0.00022383325 0.0070974929 -0.0010259826
0.0049989424 -0.0044359332 -0.0049028546
0.003506721 -0.0017743732 -0.001473314
0.0020144992 0.0091675948 -0.007885064
-0.0049989424 0.0072453571 -0.005350186
-0.0041036098 0.0088718664 -0.0066921804
-0.0032082766 -0.00044359331 -0.0022188663
-0.002611388 -0.0062103062 -0.001175093
-0.0020144992 0.010498375 -0.0020697559
0.002611388 0.010054781 -0.0029644186
-0.0011191663 -0.00059145771 -0.00072776165
-0.0024621657 -0.010646239 -0.0065430696
0.0048497203 -0.0051752552 -0.0060957386
-0.0048497203 0.006801764 -0.0032626395
0.0021637215 0.010498375 -0.0010259826
-0.0047004982 -0.0070974929 -0.0035608604
-0.00082072191 0.010202646 -0.0044555231
0.0018652771 0 -0.0010259826
0.0036559431 -0.0047316616 -0.0071395119
-0.0038051652 -0.0014786443 -0.0032626395
7.4611082e-05 0.0072453571 -0.0092270579
-0.0041036098 -0.0062103062 -0.0068412907
-0.0030590545 0.006062442 -0.0013242034
-0.00052227761 -0.0038444754 -0.00057865115
-0.0027606101 0.0029572886 -0.008332395
0.004402054 -0.0073932218 -0.0025170872
-0.0029098322 0.0020701021 -0.0080341743
0.0049989424 -0.0072453571 -0.0046046339
-0.0024621657 -0.0075410861 -0.0010259826
0.0036559431 0.0017743732 -0.0026661977
7.4611082e-05 0.0094633233 -0.0038590813
0.0038051652 -0.010498375 -0.0035608604
-0.0030590545 0.0091675948 -0.002815308
0.0015668328 -0.010498375 -0.00057865115
-0.0033574987 -0.0069496282 -0.0019206454
0.0011191663 0.0026615597 -0.00072776165
-0.0012683885 0.010646239 -0.0041573024
-0.0011191663 0.0056188484 -0.00057865115
0.0049989424 0.0073932218 -0.0049028546
0.0020144992 -0.006801764 -0.00072776165
-0.003506721 -0.0084282728 -0.0019206454
-0.0020144992 0.0036966109 -0.0008768721
-0.0011191663 0.010054781 -0.0034117501
-0.0024621657 -0.00088718662 -0.0080341743
0.0011191663 0.0082804086 -0.0092270579
0.0020144992 0.01035051 -0.0049028546
-0.0030590545 -0.0051752552 -0.0019206454
0.0032082766 0.0087240012 -0.0086306166
0.0020144992 -0.006801764 -0.0090779476
0.0020144992 -0.010498375 -0.0089288373
0.0032082766 0.003400882 -0.001175093
-0.003506721 -0.0016265088 -0.0065430696
0.0014176106 -0.0038444754 -0.0093761683
-0.0015668328 0.007836815 -0.0089288373
0.0012683885 0.010646239 -0.0025170872
-0.00052227761 -0.0013307799 -0.00057865115
-0.0029098322 0.0094633233 -0.0046046339
0.00022383325 0.0053231195 -0.00072776165
0.00022383325 -0.0023658308 -0.0093761683
-0.001716055 0.010202646 -0.0034117501
0.0027606101 0.0017743732 -0.0081832847
0.0012683885 0.0072453571 -0.0092270579
-0.0020144992 -0.00073932216 -0.0084815063
0.00037305543 -0.0065060351 -0.00057865115
-0.0030590545 -0.0091675948 -0.001175093
-0.00096994411 -0.006801764 -0.00057865115
0.0032082766 0.00044359331 -0.0023679768
-0.0041036098 -0.0050273906 -0.0032626395
0.0029098322 -0.010498375 -0.0081832847
0.0049989424 -0.0029572886 -0.0056484072
-0.0012683885 -0.010498375 -0.0089288373
0.0049989424 0.0050273906 -0.0052010757
-0.00067149976 -0.0035487465 -0.0093761683
0.0032082766 0.0091675948 -0.0059466278
-0.0049989424 0.0079846792 -0.0056484072
0.002611388 -0.0093154591 -0.0008768721
0.0032082766 -0.00014786443 -0.0074377325
0.0049989424 -0.0066538993 -0.0046046339
0.00022383325 -0.010646239 -0.0072886222
0.0029098322 0.00029572885 -0.0077359537
-0.0049989424 -0.0082804086 -0.0050519654
0.0047004982 -0.0070974929 -0.0060957386
0.003506721 0.0025136953 -0.0023679768
0.003506721 -0.00088718662 -0.0066921804
0.002611388 0.010054781 -0.0026661977
0.003506721 -0.010498375 -0.0075868429
0.00082072191 0.003400882 -0.00072776165
0.0038051652 0.0035487465 -0.0072886222
0.0021637215 -0.0048795263 -0.0089288373
7.4611082e-05 -0.010054781 -0.0010259826
-0.0036559431 -0.0070974929 -0.007885064
-0.00082072191 0.0031051531 -0.0090779476
-0.00096994411 -0.0020701021 -0.00072776165
-0.0023129436 -0.0042880685 -0.001175093
-0.0032082766 -0.010646239 -0.0034117501
0.002611388 0.0090197306 -0.0010259826
-0.0039543873 -0.010498375 -0.0072886222
0.0030590545 -0.0016265088 -0.0016224245
0.001716055 -0.010498375 -0.0092270579
-0.0048497203 -0.0020701021 -0.005350186
0.0021637215 -0.0053231195 -0.0089288373
-0.0042528319 0.0073932218 -0.0074377325
-0.0024621657 -0.003400882 -0.008332395
0.0042528319 0.0066538993 -0.0074377325
0.002611388 0.007836815 -0.0090779476
0.0036559431 0.0091675948 -0.0056484072
-0.0023129436 -0.010646239 -0.0059466278
0.0039543873 0.0073932218 -0.007885064
-0.0036559431 -0.0014786443 -0.0057975175
0.0027606101 0.010054781 -0.0023679768
0.0027606101 0.0050273906 -0.0008768721
-0.0042528319 0.0028094242 -0.0060957386
0.0047004982 0.0029572886 -0.0057975175
0.0033574987 0.0056188484 -0.0016224245
0.0011191663 -0.010646239 -0.0034117501
0.003506721 -0.0022179666 -0.001473314
7.4611082e-05 0.010202646 -0.0029644186
-0.0045512761 0.0073932218 -0.0026661977
0.00067149976 -0.010646239 -0.0068412907
0.001716055 0.0093154591 -0.0056484072
-0.0048497203 0.007836815 -0.0035608604
-0.0029098322 -0.0010350511 -0.0077359537
0.0032082766 -0.003400882 -0.0077359537
0.00096994411 0.006801764 -0.00072776165
0.0041036098 0.0035487465 -0.0031135292
0.0030590545 -0.0020701021 -0.001175093
-0.004402054 0.0022179666 -0.0032626395
0.0012683885 0.0041402043 -0.0092270579
-0.0049989424 0.0036966109 -0.0041573024
-0.0029098322 -0.0045837974 -0.0081832847
0.00052227761 0.0093154591 -0.0026661977
-0.0018652771 -0.00073932216 -0.0013242034
7.4611082e-05 0.006062442 -0.0093761683
-0.001716055 -0.0042880685 -0.0010259826
0.0014176106 -0.010646239 -0.0047537442
7.4611082e-05 -0.010202646 -0.0092270579
-0.001716055 -0.0096111884 -0.00057865115
0.00082072191 -0.010646239 -0.0017715349
0.00082072191 -0.0026615597 -0.00057865115
0.0048497203 -0.0032530176 -0.0057975175
0.00082072191 0.0097590527 -0.0046046339
-0.0033574987 -0.0035487465 -0.0026661977
-0.0024621657 0.0081325434 -0.0089288373
0.0032082766 -0.0099069169 -0.0086306166
-0.0041036098 0.0088718664 -0.0071395119
-0.0038051652 0.0097590527 -0.0050519654
