# .PCD v0.7 - Point Cloud Data file format
VERSION 0.7
FIELDS x y z
SIZE 4 4 4
TYPE F F F
COUNT 1 1 1
WIDTH 1187
HEIGHT 1
VIEWPOINT 0 0 0 1 0 0 0
POINTS 1187
DATA ascii
0.0033660184 -0.0049595437 -0.017104896
0.0059306039 0.0012798823 -0.0031118882
0.0046483111 -0.0039996323 -0.0037552447
0.0030454453 0.00079992641 -5.5944056e-05
0.0038468782 0.0047995583 -0.0092237759
-0.0040071649 0.0027197499 -0.00037762237
0.0041674515 -0.004479588 -0.0034335665
-0.0024042989 -0.00031997057 0.0001048951
-0.0060908906 0.00079992641 -0.018713286
0.0019234391 0.0051195291 -0.019678323
0.0043277382 -0.0031997056 -0.019678323
-0.0044880244 0.0041596172 -0.0048811189
0.0019234391 0.0057594702 -0.01227972
-0.0036865915 0.0028797351 -0.019678323
0.0001602866 0.0060794409 -0.01806993
0.0017631525 0.0054394999 -0.00037762237
-0.0032057317 -0.0052795145 -0.011636363
0.0060908906 0.00095991173 -0.0023076923
0.0057703173 -0.0019198235 -0.010510489
-0.0028851586 0.0054394999 -0.0079370625
0.0057703173 -0.0015998528 -0.019517483
-0.0056100306 -0.0025597645 -0.0048811189
-0.0051291711 -0.0031997056 -0.019517483
0.0046483111 -0.001119897 -0.00037762237
-0.00096171955 -0.0059194556 -0.0056853145
-0.0024042989 0.0023997792 -5.5944056e-05
0.0059306039 -0.001119897 -0.011797203
-0.0057703173 -0.0019198235 -0.016300699
-0.0049688844 -0.0036796615 -0.0069720279
-0.0017631525 0.0057594702 -0.013244756
-0.00048085977 0 -0.02
-0.0054497439 -0.0027197499 -0.015496504
0 0.0060794409 -0.0047202799
-0.0038468782 -0.0047995583 -0.014048951
0.0057703173 0.0019198235 -0.017748252
0.0019234391 0.0036796615 -0.00021678321
-0.0038468782 -0.001119897 -0.01983916
0.0038468782 0.0047995583 -0.01420979
-0.0054497439 0.0027197499 -0.0095454548
0.0035263051 0.00031997057 -5.5944056e-05
0.0024042989 0.0047995583 -0.00037762237
0.0060908906 0.00015998528 -0.015335664
-0.0030454453 0.0052795145 -0.0023076923
-0.00048085977 -0.0014398675 -0.02
0.0011220061 -0.0060794409 -0.018874126
-0.0060908906 0.00015998528 -0.011153846
0.0001602866 0.0055994848 -0.019678323
-0.0051291711 -0.003359691 -0.00053846155
-0.0056100306 0.0023997792 -0.006811189
-0.0033660184 0.0049595437 -0.0016643356
0.0019234391 0.0057594702 -0.0045594405
-0.0052894577 -0.0012798823 -0.019678323
0.0060908906 0.00015998528 -0.0026293707
-0.00048085977 0.0060794409 -0.019034965
0.0033660184 -0.0049595437 -0.01420979
-0.0060908906 0.00047995587 -0.0074545452
-0.00096171955 -0.0017598381 -0.01983916
-0.0012822928 -0.0019198235 -0.01983916
-0.0019234391 -0.0057594702 -0.014048951
-0.0052894577 -0.0030397205 -0.001986014
0.0025645855 0 0.00058741256
0.00096171955 0.00047995587 -0.02
-0.0038468782 -0.0047995583 -0.015657343
-0.0036865915 -0.0049595437 -0.0082587413
0.0025645855 0.0054394999 -0.0066503496
0.0051291711 -0.003359691 -0.0061678323
-0.0038468782 -0.0028797351 -0.019678323
-0.00096171955 0.0060794409 -0.0031118882
-0.0049688844 0.00063994114 -0.019678323
0.00096171955 0.0060794409 -0.0063286712
0.0030454453 0.0052795145 -0.0089020981
0.0024042989 0.0055994848 -0.013888112
-0.0036865915 0.00047995587 -0.00021678321
0.0051291711 -0.003359691 -0.002951049
0.0060908906 0.001119897 -0.011475525
0.0020837258 0.0019198235 -5.5944056e-05
0.0024042989 0.0055994848 -0.012118882
-0.00032057319 0.002239794 -0.01983916
-0.0038468782 0.00063994114 -5.5944056e-05
0.00032057319 0.0060794409 -0.0032727274
-0.0060908906 -0.00031997057 -0.0027902098
-0.0054497439 -0.0027197499 -0.00053846155
-0.0040071649 -0.004479588 -0.00086013984
0.0059306039 0.0012798823 -0.015335664
0.00096171955 -0.0059194556 -0.0018251748
-0.0001602866 0.00063994114 -0.00021678321
0.0048085977 0.0038396469 -0.017587412
0.0040071649 -0.0046395734 -0.012118882
0.0057703173 -0.0012798823 -0.0015034965
-0.0060908906 -0.00031997057 -0.0016643356
-0.0038468782 -0.0047995583 -0.011958042
0.0022440122 0.0057594702 -0.015657343
0.0059306039 0.0015998528 -0.0050419578
-0.0022440122 0.0057594702 -0.012118882
0.0028851586 -0.0051195291 -0.0013426574
0 -0.0060794409 -0.016944056
-0.0019234391 0.0057594702 -0.0093846153
-0.0057703173 -0.0012798823 -0.00037762237
0.00032057319 0.0060794409 -0.013566433
0.0054497439 0.0012798823 -0.00037762237
0.0052894577 0.0030397205 -0.0027902098
-0.0028851586 -0.00031997057 -5.5944056e-05
-0.0016028659 0.0057594702 -0.0052027972
0.0030454453 0.0052795145 -0.0027902098
-0.0025645855 0.00079992641 -5.5944056e-05
0.0056100306 0.0023997792 -0.0080979019
-0.0038468782 0.0047995583 -0.017587412
0.0059306039 -0.00063994114 -0.0039160838
0.0017631525 0.0057594702 -0.019517483
0.0052894577 0.0023997792 -0.00037762237
-0.0044880244 0.0041596172 -0.011153846
0.0033660184 -0.002239794 -0.01983916
-0.0049688844 0.0036796615 -0.0042377622
0.00032057319 0.0039996323 -5.5944056e-05
-0.0001602866 -0.0060794409 -0.016622378
0.0057703173 -0.0020798086 -0.012440559
0 -0.0060794409 -0.0098671326
0.0052894577 0.0025597645 -0.0015034965
0.0049688844 0.0035196762 -0.0016643356
-0.0044880244 -0.0041596172 -0.015174825
0.0060908906 0.00031997057 -0.018391609
0.0030454453 0.0052795145 -0.012440559
-0.0035263051 -0.0051195291 -0.0084195808
-0.0012822928 0.0059194556 -0.010027972
0.0014425793 -0.0023997792 -0.01983916
-0.0054497439 0.002239794 -0.001020979
-0.0060908906 0.00079992641 -0.017104896
-0.0014425793 0.0059194556 -0.01034965
-0.0038468782 0.0047995583 -0.011958042
0.0060908906 0.001119897 -0.017748252
0.0054497439 0.0020798086 -0.019678323
-0.0044880244 -0.0028797351 -0.019678323
-0.0014425793 -0.0059194556 -0.015496504
-0.0001602866 0.0060794409 -0.0024685315
0.0054497439 -0.0027197499 -0.0052027972
0.0016028659 -0.0059194556 -0.01823077
0.0060908906 0.00063994114 -0.010832168
0.0059306039 0.0012798823 -0.0092237759
0 -0.0012798823 -0.02
0.0043277382 0.002239794 -0.019678323
0.0041674515 -0.004479588 -0.015013986
0.0032057317 -0.00047995587 -0.01983916
0.0049688844 0.003359691 -0.00037762237
-0.0048085977 -0.0038396469 -0.0052027972
-0.0033660184 0 -0.01983916
-0.0041674515 0.00079992641 -0.00021678321
-0.0059306039 -0.0014398675 -0.0055244756
-0.0014425793 0.0059194556 -0.018874126
-0.0025645855 -0.0055994848 -0.0034335665
0.0059306039 0.0014398675 -0.0063286712
0.0059306039 0.001119897 -0.00069930073
-0.0011220061 0.0051195291 -0.00037762237
0.00064114638 -0.0060794409 -0.016139859
-0.002724872 0.0054394999 -0.013566433
-0.0011220061 0.0023997792 -5.5944056e-05
-0.0060908906 0.00063994114 -0.0092237759
0.0033660184 -0.0049595437 -0.01227972
0.0052894577 -0.0031997056 -0.0031118882
0.0038468782 -0.0047995583 -0.0060069929
0.0054497439 0.0028797351 -0.017426573
0.0060908906 -0.00095991173 -0.0052027972
0.0059306039 -0.001119897 -0.013727273
0.0017631525 0.0059194556 -0.015013986
-0.0044880244 0.0041596172 -0.018874126
0.0022440122 -0.0057594702 -0.01806993
-0.00048085977 0.0059194556 -0.00037762237
0.0024042989 -0.0035196762 -0.019678323
-0.0049688844 -0.0035196762 -0.013888112
0.002724872 -0.0017598381 -0.01983916
0.0020837258 0.0057594702 -0.0023076923
0.0059306039 0.0015998528 -0.012440559
-0.0059306039 0.0014398675 -0.010027972
-0.0059306039 -0.0012798823 -0.0043986016
0.0056100306 -0.0025597645 -0.015979022
0.0060908906 0.00031997057 -0.016300699
0.0012822928 -0.0059194556 -0.014048951
0.0036865915 -0.0047995583 -0.0087412586
0.0043277382 -0.0036796615 -0.019678323
-0.0012822928 -0.00095991173 -0.02
0.0054497439 -0.0028797351 -0.019195804
-0.0059306039 0.00079992641 -0.001020979
-0.0012822928 -0.0059194556 -0.013405594
0.0057703173 -0.0020798086 -0.0053636362
0.0052894577 -0.0030397205 -0.0084195808
0.0041674515 0.0041596172 -0.001020979
0.0019234391 -0.00063994114 -0.01983916
-0.0040071649 0.0046395734 -0.01823077
-0.0060908906 0.00063994114 -0.011314685
0.0014425793 -0.0059194556 -0.013727273
0.0060908906 0.00095991173 -0.013244756
0.0051291711 -0.0030397205 -0.00037762237
0.0019234391 -0.003359691 -5.5944056e-05
0.0032057317 0.0049595437 -0.001020979
-0.0057703173 -0.00015998528 -0.00037762237
0.0014425793 -0.0059194556 -0.00037762237
-0.0059306039 -0.0012798823 -0.0024685315
-0.0057703173 -0.0019198235 -0.017587412
0.0044880244 -0.0014398675 -0.019678323
-0.0016028659 -0.0059194556 -0.0023076923
0.0059306039 -0.00063994114 -0.015013986
-0.0012822928 -0.0059194556 -0.013727273
0.0036865915 0.001119897 -5.5944056e-05
0.0043277382 0.0043196026 -0.01034965
0.0020837258 -0.0055994848 -0.0016643356
0.0041674515 0.004479588 -0.0063286712
0.0056100306 0.0025597645 -0.0058461539
-0.0028851586 -0.0027197499 -5.5944056e-05
0.0051291711 -0.003359691 -0.01034965
-0.0057703173 -0.0019198235 -0.017909091
-0.0022440122 0.0035196762 -0.019678323
0.0032057317 0.0052795145 -0.012440559
-0.0033660184 0.0051195291 -0.015335664
-0.0043277382 0.0043196026 -0.0018251748
-0.0044880244 -0.0041596172 -0.0085804192
-0.0025645855 0.0030397205 -5.5944056e-05
0.0020837258 -0.0041596172 -0.00037762237
0.002724872 -0.0054394999 -0.0024685315
-0.0028851586 0.0025597645 -5.5944056e-05
0.0020837258 -0.00095991173 -5.5944056e-05
-0.0060908906 0.00095991173 -0.0052027972
-0.0024042989 0.00015998528 0.0001048951
-0.0057703173 -0.002239794 -0.012601399
-0.0038468782 -0.0046395734 -0.019678323
-0.00096171955 -0.0059194556 -0.014048951
-0.0044880244 -0.0030397205 -0.019678323
0.0059306039 -0.001119897 -0.013566433
0.0030454453 -0.0052795145 -0.001986014
0.0057703173 0.0019198235 -0.015496504
0.0025645855 -0.0041596172 -0.00037762237
-0.0001602866 -0.0025597645 -0.01983916
-0.0054497439 0.0027197499 -0.018713286
0.0057703173 -0.0015998528 -0.0039160838
0 -0.0039996323 -0.01983916
-0.0022440122 -0.0057594702 -0.012923077
-0.0016028659 -0.0055994848 -0.0011818182
0.0059306039 -0.00079992641 -0.014692307
0.0056100306 -0.0025597645 -0.0074545452
-0.0028851586 0.0054394999 -0.0077762236
-0.0056100306 0.0023997792 -0.017587412
0.00064114638 0.0014398675 -5.5944056e-05
0.0056100306 -0.0020798086 -0.0018251748
-0.0059306039 0.0017598381 -0.0069720279
0.0054497439 0.0027197499 -0.012923077
0.0033660184 0.0051195291 -0.018391609
0.0032057317 -0.0051195291 -0.0047202799
0.0024042989 -0.00063994114 -0.01983916
-0.0043277382 -0.00047995587 -0.019678323
0.00096171955 -0.0060794409 -0.0031118882
-0.0044880244 -0.0041596172 -0.013244756
0.0046483111 -0.0035196762 -0.019678323
-0.0014425793 -0.00095991173 -0.01983916
-0.0043277382 0.0043196026 -0.00053846155
0.0059306039 0.0014398675 -0.010832168
0.0019234391 -0.0035196762 -0.01983916
0.0041674515 -0.004479588 -0.011153846
-0.00080143294 0.0057594702 -0.019678323
0.0030454453 0.003359691 -0.019678323
-0.0001602866 -0.0054394999 -0.00037762237
0.0043277382 0.0043196026 -0.013727273
-0.0043277382 0.0019198235 -0.00037762237
0.0057703173 -0.0019198235 -0.019517483
0.0036865915 -0.0014398675 -0.01983916
-0.0028851586 -0.00079992641 -5.5944056e-05
0.00032057319 0.0046395734 -0.019678323
-0.0054497439 0.0027197499 -0.0092237759
0.0001602866 0.0015998528 -5.5944056e-05
-0.0040071649 0.0046395734 -0.0050419578
-0.0054497439 0.0027197499 -0.0050419578
-0.0057703173 -0.0015998528 -0.00086013984
-0.0059306039 -0.0012798823 -0.01437063
-0.0014425793 -0.0059194556 -0.0021468531
0.0032057317 -0.003359691 -0.019678323
0.0057703173 -0.002239794 -0.014692307
0.0052894577 -0.0030397205 -0.016139859
-0.0014425793 0.0059194556 -0.011958042
0.0032057317 0.0052795145 -0.0087412586
-0.0024042989 0.0055994848 -0.0079370625
0.00064114638 0.0060794409 -0.002951049
0.0028851586 0.0052795145 -0.0061678323
-0.0036865915 0.0039996323 -0.00037762237
-0.0054497439 0.0027197499 -0.016461538
0.0032057317 0.0052795145 -0.017909091
-0.0030454453 0.0052795145 -0.011636363
0.0016028659 -0.0028797351 -0.01983916
0.0057703173 0.0020798086 -0.001986014
-0.0056100306 0.0025597645 -0.0026293707
-0.0011220061 0.0059194556 -0.01227972
-0.0024042989 -0.00015998528 0.0021958041
0.0049688844 -0.0036796615 -0.002951049
0.0052894577 -0.0025597645 -0.001020979
-0.00048085977 -0.0047995583 -0.019678323
-0.00032057319 0.0046395734 -0.019678323
-0.00080143294 0.0049595437 -0.00037762237
0.0024042989 0.0055994848 -0.00037762237
-0.0020837258 0.0057594702 -0.016783217
0.00048085977 0.0060794409 -0.0032727274
0.0014425793 -0.0059194556 -0.0024685315
0.0060908906 -0.00047995587 -0.016139859
0.002724872 -0.0028797351 -5.5944056e-05
-0.0011220061 0 -0.02
-0.0046483111 0.0023997792 -0.019678323
-0.00096171955 -0.0059194556 -0.0045594405
0.00064114638 0.0060794409 -0.013727273
0.0057703173 -0.0017598381 -0.016622378
-0.0032057317 -0.0039996323 -0.019678323
-0.0049688844 0.002239794 -0.00037762237
0.0043277382 -0.0043196026 -0.0050419578
-0.00080143294 0.00079992641 -5.5944056e-05
-0.0016028659 -0.0038396469 -0.019678323
-0.0048085977 0.0038396469 -0.017104896
0.00048085977 0.0060794409 -0.0074545452
-0.0011220061 -0.002239794 -5.5944056e-05
-0.0035263051 0.00047995587 -0.00021678321
0.0041674515 -0.0043196026 -0.00069930073
-0.0060908906 -0.00015998528 -0.018713286
-0.0060908906 0.00015998528 -0.0053636362
0.00096171955 0.0020798086 -5.5944056e-05
-0.0052894577 0.0031997056 -0.012762237
0.0049688844 0.0020798086 -0.00037762237
0.00096171955 -0.0060794409 -0.011314685
-0.0017631525 0.0057594702 -0.0069720279
0.0022440122 -0.0057594702 -0.010671329
0.0052894577 0.00015998528 -0.019678323
-0.0038468782 -0.0047995583 -0.0050419578
0.0059306039 -0.001119897 -0.0080979019
0.0030454453 -0.003359691 -0.019678323
0.0019234391 -0.0031997056 -5.5944056e-05
-0.0051291711 -0.003359691 -0.015496504
0.0032057317 -0.0051195291 -0.018391609
0.0022440122 -0.0057594702 -0.0053636362
-0.0025645855 0.0055994848 -0.013244756
0.00032057319 0.0035196762 -5.5944056e-05
-0.00096171955 -0.0059194556 -0.0042377622
0.0025645855 0.0055994848 -0.011958042
-0.00064114638 -0.001119897 -5.5944056e-05
0.0049688844 0.0035196762 -0.0032727274
0.0060908906 0.00063994114 -0.0023076923
0.0011220061 -0.0060794409 -0.010188811
0.0056100306 -0.0025597645 -0.00053846155
0.0046483111 0.0020798086 -0.019678323
0.0016028659 0.0043196026 -0.00037762237
0.0012822928 -0.0059194556 -0.013727273
0.0028851586 0.0054394999 -0.015013986
-0.0057703173 0.0019198235 -0.010510489
0.0032057317 0.0052795145 -0.01034965
0.0012822928 -0.0059194556 -0.00037762237
0.0059306039 0.0017598381 -0.019034965
-0.0051291711 -0.00095991173 -0.00037762237
-0.0054497439 -0.0023997792 -0.00037762237
0.0022440122 -0.0057594702 -0.0055244756
0.0046483111 0.0039996323 -0.0058461539
-0.0044880244 0.0041596172 -0.0050419578
0.00064114638 -0.0060794409 -0.0080979019
-0.00064114638 -0.0060794409 -0.015496504
0.0060908906 0.00047995587 -0.012762237
-0.0051291711 0.003359691 -0.011314685
-0.0059306039 0.0017598381 -0.011797203
0.0019234391 0.0057594702 -0.018713286
0.0030454453 -0.0052795145 -0.0056853145
0.0038468782 -0.0047995583 -0.0045594405
0.0060908906 -0.00031997057 -0.0090629375
-0.0024042989 0.0055994848 -0.0097062942
0.0059306039 -0.00079992641 -0.0045594405
-0.0059306039 0.0014398675 -0.014048951
0.0057703173 -0.0017598381 -0.0080979019
-0.0022440122 -0.0057594702 -0.01034965
-0.0049688844 -0.0036796615 -0.0092237759
-0.0016028659 -0.0035196762 -5.5944056e-05
0.0046483111 0.0039996323 -0.0040769232
0.00096171955 -0.0054394999 -0.019678323
-0.0020837258 -0.0057594702 -0.011797203
-0.0060908906 -0.00031997057 -0.0080979019
0.0041674515 0.004479588 -0.0087412586
0.00032057319 0.0060794409 -0.016944056
0 0.0019198235 -0.01983916
0.0019234391 0.0057594702 -0.0066503496
-0.0022440122 0.0017598381 -5.5944056e-05
0.0056100306 -0.0019198235 -0.019678323
0.0060908906 0.00063994114 -0.010510489
-0.0019234391 0.002239794 -0.01983916
-0.0052894577 0.0031997056 -0.015013986
0.00064114638 -0.0020798086 -5.5944056e-05
-0.0020837258 0.0057594702 -0.0076153846
-0.0052894577 -0.0031997056 -0.0023076923
-0.0022440122 -0.0057594702 -0.0053636362
0.0014425793 0.0059194556 -0.011314685
-0.0019234391 0.0057594702 -0.016139859
-0.0012822928 -0.0059194556 -0.011797203
0.0028851586 0.0052795145 -0.0034335665
-0.0001602866 -0.0014398675 -5.5944056e-05
0.0060908906 -0.00031997057 -0.002951049
-0.0049688844 -0.0025597645 -0.00037762237
0.002724872 -0.0025597645 -0.01983916
0.0052894577 0.0030397205 -0.0053636362
-0.0056100306 0.0025597645 -0.010188811
0.00032057319 -0.0060794409 -0.010188811
-0.0032057317 0.0052795145 -0.0089020981
-0.0020837258 -0.0019198235 -5.5944056e-05
-0.002724872 0.0054394999 -0.0066503496
-0.0001602866 -0.0060794409 -0.019517483
-0.0001602866 -0.0017598381 -5.5944056e-05
0.0059306039 -0.0014398675 -0.0034335665
0.0057703173 -0.0020798086 -0.01420979
0.0043277382 -0.00015998528 -0.019678323
0.00096171955 -0.00015998528 -5.5944056e-05
-0.00064114638 -0.0057594702 -0.019678323
0.0024042989 -0.0055994848 -0.010510489
0.0016028659 0.0059194556 -0.0034335665
0.0028851586 0.0043196026 -0.019678323
0.0001602866 -0.0060794409 -0.014531469
-0.0017631525 0.0057594702 -0.015496504
-0.0044880244 0.0041596172 -0.001986014
-0.0051291711 -0.003359691 -0.01034965
0.00048085977 -0.0060794409 -0.018874126
-0.00032057319 -0.0060794409 -0.001986014
-0.0060908906 0.001119897 -0.017104896
-0.0019234391 0.0057594702 -0.015335664
0.0054497439 -0.0028797351 -0.0032727274
-0.0057703173 0.001119897 -0.001020979
-0.0060908906 0.00015998528 -0.017265735
-0.0040071649 0.0046395734 -0.0043986016
-0.0040071649 -0.0046395734 -0.015657343
-0.0017631525 0.0057594702 -0.019034965
0.0036865915 -0.0047995583 -0.013566433
-0.0001602866 -0.0060794409 -0.018391609
-0.0056100306 -0.0023997792 -0.0031118882
0.0057703173 0.00095991173 -0.0011818182
0 -0.0060794409 -0.0047202799
-0.0048085977 0.0017598381 -0.019678323
0.0025645855 0.0054394999 -0.017265735
-0.0040071649 -0.0036796615 -0.00037762237
-0.0001602866 -0.0051195291 -0.00037762237
0.0038468782 0.003359691 -0.019678323
0.00096171955 0.001119897 -5.5944056e-05
-0.0033660184 -0.0046395734 -0.019678323
0.0041674515 -0.004479588 -0.019356644
-0.0041674515 0.004479588 -0.01420979
-0.0024042989 -0.0054394999 -0.00037762237
0.0024042989 -0.0055994848 -0.0055244756
-0.0049688844 -0.0036796615 -0.019356644
0.0011220061 0.0060794409 -0.01806993
-0.0019234391 0.0057594702 -0.018391609
0.0043277382 -0.0017598381 -0.00037762237
0.0060908906 0.00047995587 -0.0023076923
-0.00048085977 -0.0060794409 -0.0097062942
-0.0036865915 0.0049595437 -0.0066503496
-0.0052894577 0.0031997056 -0.017909091
0.0014425793 0.0059194556 -0.002951049
-0.0041674515 0.004479588 -0.016300699
-0.0043277382 -0.0038396469 -0.0013426574
0.0036865915 -0.0047995583 -0.019195804
-0.0014425793 0.002239794 -5.5944056e-05
0.0060908906 0.00063994114 -0.0066503496
-0.0041674515 0.004479588 -0.014531469
0.00064114638 0.0060794409 -0.0093846153
-0.0025645855 -0.0025597645 -5.5944056e-05
-0.0032057317 0.0052795145 -0.010671329
-0.0051291711 0.003359691 -0.0090629375
-0.0022440122 0.0012798823 -5.5944056e-05
0.0056100306 -0.0023997792 -0.0058461539
-0.0057703173 0.0020798086 -0.010993007
0.0011220061 0.0060794409 -0.014531469
-0.0016028659 -0.0059194556 -0.0042377622
0.0060908906 -0.00031997057 -0.016944056
0.00096171955 -0.0060794409 -0.01823077
0.0025645855 -0.0055994848 -0.016783217
-0.0035263051 -0.0051195291 -0.0072937063
0.0059306039 0.0012798823 -0.0084195808
-0.0052894577 0.0020798086 -0.019678323
0.0036865915 -0.0047995583 -0.019517483
-0.0054497439 -0.0027197499 -0.011636363
0.0059306039 0.0014398675 -0.010993007
-0.0038468782 0.0030397205 -0.019678323
-0.0051291711 0.00063994114 -0.019678323
0.0059306039 0.0014398675 -0.0035944055
0.002724872 0.0025597645 -5.5944056e-05
0.00080143294 0.0060794409 -0.017748252
-0.0056100306 -0.0023997792 -0.01437063
-0.0028851586 -0.0054394999 -0.0050419578
-0.0057703173 0.002239794 -0.013727273
0.0052894577 0.00031997057 -0.019678323
0.0001602866 0.0060794409 -0.00053846155
0.0040071649 -0.0046395734 -0.010510489
0.0056100306 -0.0025597645 -0.0052027972
0.0032057317 0.0052795145 -0.018552447
0.0051291711 -0.003359691 -0.0031118882
-0.0038468782 0.004479588 -0.019678323
-0.0019234391 -0.0035196762 -0.01983916
0.0025645855 -0.0017598381 -5.5944056e-05
0.0032057317 -0.0051195291 -0.014531469
-0.0016028659 -0.0059194556 -0.0040769232
-0.0060908906 -0.00063994114 -0.0027902098
0.0030454453 -0.0052795145 -0.0092237759
-0.0011220061 0.0030397205 -0.01983916
0.0060908906 -0.00015998528 -0.0087412586
-0.0060908906 -0.00047995587 -0.0077762236
-0.0040071649 0.0046395734 -0.015013986
0.0014425793 -0.0059194556 -0.0043986016
0.0052894577 0.0031997056 -0.017426573
0.0051291711 -0.0035196762 -0.013083916
0.00048085977 -0.0060794409 -0.015335664
0.0044880244 -0.0041596172 -0.011475525
0.0016028659 0.00031997057 -5.5944056e-05
0.0060908906 -0.00031997057 -0.0098671326
0.0048085977 0.0038396469 -0.0097062942
0.0049688844 -0.0036796615 -0.0082587413
0.0040071649 0.0046395734 -0.012762237
0.0022440122 0 0.0026783217
0.0028851586 -0.0028797351 -5.5944056e-05
0.0032057317 -0.0051195291 -0.0039160838
-0.0046483111 0.0039996323 -0.0060069929
-0.0052894577 0.0030397205 -0.018552447
0.00080143294 0.0039996323 -5.5944056e-05
0.0059306039 0.0014398675 -0.017748252
0.0036865915 0.0049595437 -0.013566433
0.0057703173 -0.0020798086 -0.012601399
0.0033660184 -0.003359691 -0.00037762237
0.0059306039 -0.00063994114 -0.010832168
0.00080143294 0.0060794409 -0.0023076923
-0.0060908906 -0.00031997057 -0.019195804
-0.0011220061 0.0059194556 -0.016622378
0.0060908906 0 -0.019356644
0.0059306039 0.0017598381 -0.001986014
-0.00080143294 0.0060794409 -0.017587412
0.0038468782 -0.0047995583 -0.0047202799
0.0032057317 0.0052795145 -0.01437063
0.0012822928 -0.0059194556 -0.012118882
-0.0046483111 0.0039996323 -0.012923077
0.0032057317 -0.0051195291 -0.013405594
0.0014425793 -0.0014398675 -5.5944056e-05
-0.0057703173 0.0020798086 -0.011314685
-0.0060908906 -0.00079992641 -0.0023076923
0.0025645855 0.0054394999 -0.0082587413
0.0057703173 0.0020798086 -0.0080979019
-0.0028851586 0.0054394999 -0.0063286712
0.0054497439 0.0027197499 -0.015335664
0 -0.0030397205 -0.01983916
-0.0020837258 -0.0057594702 -0.014531469
-0.0036865915 0.0049595437 -0.0076153846
-0.0019234391 -0.0057594702 -0.010188811
0.0036865915 -0.0047995583 -0.013405594
0.0052894577 -0.0030397205 -0.0034335665
-0.0057703173 -0.0020798086 -0.0027902098
-0.0001602866 -0.00015998528 -5.5944056e-05
-0.0060908906 0.001119897 -0.0042377622
0.00048085977 0.0060794409 -0.012923077
-0.00096171955 0.0060794409 -0.011475525
0.0019234391 -0.0046395734 -0.019678323
-0.0054497439 -0.0028797351 -0.0095454548
-0.0057703173 0.0020798086 -0.0040769232
0.0025645855 -0.0055994848 -0.0031118882
0 0.0060794409 -0.0031118882
0.0017631525 -0.0059194556 -0.011797203
0.00064114638 -0.0060794409 -0.01227972
0.0030454453 -0.0052795145 -0.0079370625
-0.0059306039 -0.0015998528 -0.0082587413
-0.00048085977 -0.0060794409 -0.014048951
-0.00064114638 0.0060794409 -0.0087412586
0.0056100306 -0.0025597645 -0.010993007
0.0046483111 -0.0039996323 -0.0055244756
-0.0024042989 0.0055994848 -0.0060069929
0.0059306039 0.0012798823 -0.016300699
-0.0035263051 -0.0051195291 -0.016622378
0.0033660184 -0.00063994114 -5.5944056e-05
-0.0060908906 0.00031997057 -0.0031118882
0.0052894577 -0.0030397205 -0.0089020981
0 -0.0060794409 -0.014692307
-0.0016028659 -0.0059194556 -0.019195804
0.0056100306 0.0023997792 -0.013888112
-0.0017631525 0.003359691 -0.01983916
-0.0060908906 0.00031997057 -0.010510489
-0.0032057317 -0.0052795145 -0.0035944055
0.0052894577 0.0030397205 -0.0074545452
-0.0022440122 0.0057594702 -0.010993007
-0.0054497439 0.0027197499 -0.0037552447
-0.0051291711 0.003359691 -0.012923077
-0.00064114638 -0.0015998528 -5.5944056e-05
0.0035263051 -0.0049595437 -0.0084195808
-0.0054497439 -0.0027197499 -0.017265735
0.0044880244 0.0041596172 -0.0074545452
0.0022440122 0.0057594702 -0.0072937063
-0.00096171955 0.0060794409 -0.018874126
-0.0057703173 0.00079992641 -0.0011818182
0.0060908906 -0.00047995587 -0.0089020981
-0.0019234391 -0.0019198235 -0.01983916
-0.0011220061 -0.0059194556 -0.012440559
-0.0022440122 0.0055994848 -0.010671329
0.0025645855 -0.0055994848 -0.016944056
0.0048085977 -0.0038396469 -0.0058461539
0.0017631525 -0.0059194556 -0.001986014
-0.0020837258 -0.0025597645 -0.01983916
0.00080143294 -0.0025597645 -5.5944056e-05
-0.002724872 0.0049595437 -0.019678323
0.0036865915 0.0049595437 -0.011153846
0.002724872 0.0047995583 -0.019678323
0.00080143294 0.0060794409 -0.013083916
0.0056100306 -0.0025597645 -0.017748252
0.0060908906 -0.001119897 -0.0061678323
0.0060908906 -0.00047995587 -0.0090629375
-0.0032057317 -0.0052795145 -0.002951049
-0.0060908906 0.00047995587 -0.01227972
0.0060908906 -0.00015998528 -0.018552447
0.0001602866 -0.0049595437 -0.019678323
0.0011220061 -0.0020798086 -5.5944056e-05
0.0059306039 -0.0012798823 -0.0021468531
-0.0051291711 -0.003359691 -0.0024685315
-0.0056100306 0.0023997792 -0.0085804192
0.0051291711 -0.003359691 -0.0079370625
-0.0060908906 -0.00079992641 -0.0090629375
-0.0038468782 -0.0047995583 -0.0064895106
-0.0054497439 -0.0028797351 -0.012762237
0.0016028659 0.0059194556 -0.014048951
-0.002724872 0.0047995583 -0.00037762237
-0.0022440122 -0.0057594702 -0.0031118882
0.0052894577 0.0031997056 -0.0063286712
-0.0056100306 0.0023997792 -0.015174825
-0.0060908906 0 -0.0056853145
-0.0016028659 -0.0059194556 -0.012118882
-0.0059306039 0.0012798823 -0.011314685
-0.0028851586 -0.0052795145 -0.0015034965
-0.00096171955 -0.0059194556 -0.0080979019
-0.0011220061 0.0047995583 -0.00037762237
0.0060908906 0.00015998528 -0.0097062942
-0.0020837258 0.0027197499 -0.01983916
-0.0011220061 -0.0060794409 -0.017426573
0.0038468782 -0.0027197499 -0.00037762237
0.0011220061 0.0025597645 -0.01983916
0.0060908906 0.00015998528 -0.00037762237
-0.0060908906 0.00063994114 -0.0085804192
0.0012822928 0.0059194556 -0.010993007
0.0030454453 -0.0052795145 -0.0037552447
-0.00032057319 -0.0060794409 -0.01227972
0.00096171955 0.0060794409 -0.0098671326
-0.0049688844 -0.0036796615 -0.0040769232
-0.00096171955 -0.0059194556 -0.013888112
0.0022440122 0.0057594702 -0.0077762236
0.0054497439 0.0028797351 -0.017587412
0.0046483111 -0.00031997057 -0.00037762237
0.0060908906 -0.00031997057 -0.019356644
-0.0056100306 -0.0025597645 -0.0042377622
-0.0060908906 -0.001119897 -0.013244756
-0.0012822928 -0.0038396469 -0.01983916
-0.0057703173 0.0019198235 -0.0074545452
-0.0052894577 0.0030397205 -0.019356644
0.0035263051 0.0051195291 -0.01437063
-0.0060908906 -0.00031997057 -0.0063286712
0.0057703173 -0.0015998528 -0.013727273
0.0032057317 0.0014398675 -0.01983916
-0.0038468782 -0.0047995583 -0.010993007
-0.0025645855 -0.0017598381 -0.01983916
-0.0060908906 0.00015998528 -0.0090629375
-0.0056100306 -0.0025597645 -0.0031118882
-0.0019234391 -0.0054394999 -0.0013426574
-0.0060908906 0.001119897 -0.016300699
0.0051291711 0.0028797351 -0.001020979
-0.0057703173 -0.0019198235 -0.0056853145
-0.0057703173 -0.002239794 -0.015818182
0.0017631525 0.0051195291 -0.019678323
-0.0035263051 -0.0051195291 -0.001986014
0.0036865915 0.0049595437 -0.013888112
0.0049688844 0.0035196762 -0.0098671326
0.0057703173 -0.0020798086 -0.012118882
-0.0020837258 -0.0057594702 -0.0061678323
0.0056100306 -0.0025597645 -0.011636363
-0.00048085977 -0.0060794409 -0.0080979019
-0.0060908906 0 -0.017104896
-0.0060908906 0.00031997057 -0.0087412586
-0.0001602866 0.0060794409 -0.016944056
-0.0052894577 0.0030397205 -0.011314685
0.0011220061 0.0015998528 -0.01983916
0.0059306039 -0.001119897 -0.011153846
0.0059306039 -0.00079992641 -0.0042377622
-0.0048085977 -0.0038396469 -0.0058461539
0.0017631525 -0.0046395734 -0.019678323
-0.00064114638 0.0059194556 -0.00086013984
0.0049688844 -0.002239794 -0.00037762237
0.0040071649 0.004479588 -0.00086013984
-0.0060908906 -0.00047995587 -0.015496504
-0.00032057319 -0.0060794409 -0.013727273
-0.0043277382 0.0043196026 -0.014853147
0.0049688844 0.0036796615 -0.0080979019
-0.0044880244 -0.0041596172 -0.012118882
0.00048085977 0.00063994114 -0.00021678321
0.00096171955 -0.0047995583 -0.019678323
-0.0048085977 -0.0038396469 -0.01420979
0.0060908906 -0.00047995587 -0.017748252
0.0060908906 0.00079992641 -0.010510489
0.0041674515 -0.0012798823 -0.00021678321
-0.0056100306 -0.0025597645 -0.015657343
-0.0059306039 -0.0017598381 -0.013083916
0.0057703173 -0.002239794 -0.0061678323
0.0052894577 0.0028797351 -0.019517483
-0.0060908906 0.001119897 -0.0085804192
-0.00048085977 -0.0060794409 -0.0082587413
-0.0020837258 -0.0057594702 -0.0060069929
-0.0040071649 -0.0046395734 -0.015818182
0.0041674515 0.004479588 -0.011153846
0.0014425793 0.0059194556 -0.0058461539
-0.0016028659 -0.0059194556 -0.0084195808
0.0059306039 0.00015998528 -0.0015034965
-0.0036865915 0.0049595437 -0.0064895106
-0.0035263051 -0.0051195291 -0.0093846153
-0.0038468782 0.0047995583 -0.01227972
-0.0024042989 -0.0027197499 -5.5944056e-05
-0.0036865915 0.0049595437 -0.01034965
0.0022440122 -0.0057594702 -0.011636363
0.0052894577 0.0027197499 -0.00086013984
0.0046483111 -0.003359691 -0.00037762237
-0.0041674515 -0.0015998528 -0.019678323
0.00048085977 0.0057594702 -0.019678323
-0.00096171955 -0.0023997792 -0.01983916
-0.0056100306 0.0025597645 -0.011797203
0.0014425793 0.0059194556 -0.010027972
-0.0017631525 -0.0055994848 -0.019678323
-0.0038468782 -0.0047995583 -0.010188811
-0.0033660184 0.0051195291 -0.0072937063
-0.0011220061 -0.0059194556 -0.011958042
0.0025645855 0.0054394999 -0.016622378
-0.0014425793 -0.0057594702 -0.00086013984
-0.0040071649 0.0038396469 -0.00037762237
-0.0046483111 0.0039996323 -0.0064895106
-0.0028851586 -0.0054394999 -0.015657343
0 0.0059194556 -0.019678323
0.0019234391 0.0035196762 -5.5944056e-05
-0.0020837258 -0.0057594702 -0.019517483
-0.0028851586 0.0054394999 -0.016461538
0.0059306039 -0.00095991173 -0.010510489
-0.0016028659 0.0035196762 -0.01983916
0.0060908906 -0.00031997057 -0.017587412
-0.0046483111 0.0039996323 -0.0037552447
-0.0052894577 -0.0031997056 -0.0053636362
0.00080143294 -0.0060794409 -0.01227972
0.0020837258 0.0047995583 -0.00037762237
0.0059306039 0.0012798823 -0.0053636362
0.0001602866 0.0059194556 -0.0015034965
-0.00064114638 0.0030397205 -0.01983916
-0.0052894577 0.0031997056 -0.0058461539
-0.00064114638 -0.0019198235 -0.01983916
-0.0019234391 -0.0057594702 -0.016783217
-0.0032057317 0.0017598381 -0.01983916
-0.0020837258 -0.0057594702 -0.0055244756
0.00064114638 -0.0023997792 -5.5944056e-05
0.0022440122 -0.0057594702 -0.0092237759
-0.0016028659 -0.0059194556 -0.011475525
0.0041674515 0.004479588 -0.013244756
-0.00032057319 -0.0046395734 -0.00037762237
-0.0048085977 -0.0038396469 -0.017909091
0.0060908906 0.00063994114 -0.017265735
0.0012822928 0.0059194556 -0.0037552447
0.0059306039 -0.0012798823 -0.0032727274
-0.0032057317 -0.0046395734 -0.019678323
0.0059306039 -0.001119897 -0.0069720279
-0.0059306039 -0.0012798823 -0.0055244756
-0.0038468782 0.0047995583 -0.0055244756
-0.0043277382 -0.0043196026 -0.0053636362
0.0059306039 0.0015998528 -0.0080979019
0.0011220061 -0.0060794409 -0.0072937063
0.00096171955 -0.0060794409 -0.0092237759
0.0052894577 0.0031997056 -0.0084195808
0.0059306039 -0.0014398675 -0.014531469
-0.0059306039 0.00079992641 -0.0016643356
-0.00080143294 0.00031997057 -0.02
0.0016028659 -0.0059194556 -0.012601399
-0.0048085977 0.0038396469 -0.0071328674
0.0028851586 0.0052795145 -0.014531469
0.0056100306 -0.0023997792 -0.011958042
-0.0022440122 -0.0057594702 -0.014853147
-0.0040071649 0.00031997057 -5.5944056e-05
0.0059306039 0.0017598381 -0.006811189
-0.0001602866 0.0060794409 -0.013405594
0.0030454453 -0.0052795145 -0.010510489
0.0014425793 0.00031997057 -0.02
-0.0030454453 0.0031997056 -0.00021678321
-0.0060908906 -0.00063994114 -0.0063286712
0.0011220061 -0.0043196026 -0.00021678321
0.0025645855 0 0.0021958041
-0.0060908906 0.001119897 -0.010510489
0.0016028659 -0.0015998528 -0.01983916
0 -0.0060794409 -0.0055244756
0.0060908906 -0.00063994114 -0.010027972
-0.0024042989 0.0055994848 -0.016944056
0.0017631525 -0.0059194556 -0.0047202799
-0.0044880244 0.003359691 -0.00037762237
-0.0032057317 0.0051195291 -0.00069930073
0.00080143294 -0.0060794409 -0.017104896
-0.00080143294 0.0060794409 -0.0097062942
-0.0046483111 0.0038396469 -0.019678323
-0.0028851586 0.0054394999 -0.0098671326
-0.0030454453 0.0052795145 -0.013727273
0.0030454453 -0.0052795145 -0.01823077
0.0035263051 -0.0023997792 -0.019678323
0.0017631525 0.002239794 -5.5944056e-05
0.0060908906 -0.00015998528 -0.0027902098
-0.0041674515 -0.004479588 -0.014531469
-0.00048085977 0.0060794409 -0.0024685315
0.0059306039 -0.00063994114 -0.0074545452
-0.0022440122 -0.0057594702 -0.0085804192
0.00032057319 -0.0060794409 -0.0039160838
-0.0056100306 0.0025597645 -0.011475525
-0.0025645855 0.0055994848 -0.015979022
-0.0059306039 -0.0017598381 -0.011475525
0.0060908906 -0.00031997057 -0.019517483
-0.0036865915 0.0049595437 -0.0080979019
0.0043277382 0.0043196026 -0.014048951
-0.0035263051 -0.0051195291 -0.0050419578
-0.00064114638 0.0060794409 -0.0027902098
-0.0052894577 0.0030397205 -0.00053846155
0.00080143294 0.0047995583 -0.00037762237
-0.0059306039 -0.0012798823 -0.016300699
-0.0043277382 -0.0038396469 -0.0011818182
-0.0019234391 0.0057594702 -0.013888112
-0.0046483111 -0.0039996323 -0.016300699
0.0024042989 0.0031997056 -5.5944056e-05
-0.0024042989 0.00031997057 -0.01983916
-0.0059306039 0.0015998528 -0.015174825
-0.00032057319 -0.0060794409 -0.0058461539
0.0011220061 -0.0060794409 -0.011636363
0.0028851586 0.0054394999 -0.010188811
0.0057703173 -0.0015998528 -0.00053846155
0.0056100306 0.0023997792 -0.0087412586
0.0041674515 0.004479588 -0.01806993
-0.0036865915 -0.0049595437 -0.01437063
-0.00032057319 0.00015998528 -0.02
-0.00032057319 0.0060794409 -0.001986014
0.0022440122 0.0057594702 -0.001986014
-0.0019234391 0.0057594702 -0.015174825
0.0033660184 0.003359691 -0.00037762237
-0.0014425793 -0.0059194556 -0.016944056
-0.0036865915 -0.0019198235 -5.5944056e-05
-0.0060908906 0.00063994114 -0.0087412586
-0.00032057319 0.0060794409 -0.0072937063
0.00064114638 -0.0019198235 -0.01983916
0.0051291711 -0.0035196762 -0.010027972
0.00096171955 -0.0030397205 -0.01983916
0.0012822928 0.0059194556 -0.0018251748
0.0060908906 0.00079992641 -0.01420979
-0.0033660184 -0.0051195291 -0.010188811
0.0033660184 -0.00047995587 -0.00021678321
-0.0019234391 0.0057594702 -0.017587412
-0.0059306039 0 -0.00037762237
-0.0025645855 -0.0055994848 -0.012601399
-0.0054497439 0.0019198235 -0.0011818182
-0.0044880244 -0.0041596172 -0.017748252
0.0059306039 -0.00047995587 -0.019517483
0.0049688844 0.0035196762 -0.001986014
-0.0049688844 -0.0035196762 -0.0042377622
-0.0057703173 -0.0020798086 -0.013566433
-0.0059306039 0.0012798823 -0.0024685315
0.0060908906 -0.00095991173 -0.019356644
-0.002724872 -0.00015998528 0.0018741259
-0.0020837258 -0.0057594702 -0.011475525
-0.0014425793 -0.002239794 -5.5944056e-05
-0.0041674515 -0.004479588 -0.015174825
-0.0043277382 -0.00095991173 -0.019678323
-0.002724872 -0.0019198235 -0.01983916
0.0012822928 0.0019198235 -5.5944056e-05
-0.0059306039 0.0012798823 -0.0058461539
0.0060908906 0 -0.018552447
-0.0028851586 -0.0054394999 -0.01806993
0.0049688844 -0.0035196762 -0.018713286
0.0054497439 0.0028797351 -0.0063286712
0.0001602866 0.0012798823 -5.5944056e-05
-0.0059306039 -0.0014398675 -0.010027972
-0.0051291711 0.003359691 -0.017265735
0.0014425793 -0.0059194556 -0.0027902098
-0.0028851586 0.0054394999 -0.0095454548
-0.00048085977 0.00095991173 -5.5944056e-05
-0.0046483111 0.0039996323 -0.017265735
-0.0001602866 0.0060794409 -0.010027972
0.0036865915 0.0049595437 -0.0084195808
0.00080143294 0.0060794409 -0.015174825
-0.0056100306 -0.0023997792 -0.0090629375
0.0060908906 -0.00031997057 -0.0034335665
-0.0035263051 0.0051195291 -0.0098671326
-0.0059306039 -0.0014398675 -0.001986014
-0.0060908906 -0.00063994114 -0.017426573
0.0051291711 -0.0030397205 -0.0015034965
0.0020837258 0.0057594702 -0.013405594
0.0014425793 0.0059194556 -0.012601399
-0.0022440122 0.0057594702 -0.0035944055
0.0060908906 0.00079992641 -0.011153846
-0.0024042989 0.0055994848 -0.017587412
0.00048085977 0.0054394999 -0.00037762237
0.0059306039 0.0014398675 -0.013727273
-0.0054497439 0.0028797351 -0.0090629375
0.0041674515 -0.004479588 -0.0026293707
-0.00080143294 -0.0057594702 -0.0011818182
-0.0052894577 -0.002239794 -0.019678323
-0.0046483111 -0.0038396469 -0.00086013984
-0.0052894577 0.00079992641 -0.00037762237
0.0040071649 0.0046395734 -0.016139859
-0.0056100306 -0.0025597645 -0.017265735
0.0017631525 0.0059194556 -0.017104896
0.0046483111 0.0012798823 -0.00037762237
0.0043277382 -0.0043196026 -0.015496504
0.00032057319 0.0060794409 -0.00069930073
-0.0059306039 0.0012798823 -0.010993007
0.0014425793 -0.0059194556 -0.0071328674
-0.00080143294 0.0060794409 -0.011153846
0.0043277382 -0.0028797351 -0.00037762237
0.0044880244 0.0041596172 -0.011153846
-0.0048085977 0.00063994114 -0.019678323
-0.0032057317 0.00031997057 -5.5944056e-05
-0.00096171955 -0.0012798823 -5.5944056e-05
0.0016028659 -0.0059194556 -0.0090629375
0.0040071649 -0.0035196762 -0.00037762237
0.0057703173 -0.002239794 -0.012440559
0.0025645855 -0.0055994848 -0.0066503496
0.0033660184 -0.0049595437 -0.0042377622
0 -0.0060794409 -0.006811189
-0.0035263051 0.0051195291 -0.010832168
-0.0038468782 0.00095991173 -0.01983916
-0.0060908906 0.00095991173 -0.0050419578
0.00096171955 0.0060794409 -0.017426573
-0.0043277382 0.0043196026 -0.013888112
-0.002724872 -0.0049595437 -0.00037762237
-0.0016028659 -0.0059194556 -0.010027972
0.0028851586 0.0052795145 -0.002951049
-0.0024042989 -0.0015998528 -0.01983916
-0.00048085977 -0.0020798086 -0.01983916
0.0012822928 -0.0059194556 -0.017587412
0.0057703173 -0.0017598381 -0.0016643356
0.0014425793 0.0059194556 -0.0034335665
0.002724872 -0.0054394999 -0.0037552447
-0.0033660184 -0.0049595437 -0.0016643356
-0.0025645855 0.00095991173 -5.5944056e-05
0.0033660184 -0.0049595437 -0.010027972
-0.0049688844 0.0036796615 -0.0035944055
0.0036865915 0.0049595437 -0.0066503496
0.0054497439 -0.0028797351 -0.0079370625
-0.0022440122 0.0057594702 -0.0066503496
0.0060908906 -0.00047995587 -0.017909091
-0.0049688844 -0.0035196762 -0.0016643356
-0.0052894577 0.0030397205 -0.0069720279
-0.0056100306 0.0025597645 -0.013244756
-0.0041674515 -0.004479588 -0.011314685
0.0035263051 0.0051195291 -0.017426573
0.0044880244 -0.00095991173 -0.019678323
0.0059306039 -0.001119897 -0.018391609
-0.0059306039 -0.0014398675 -0.01420979
-0.0011220061 -0.0060794409 -0.015335664
-0.0017631525 -0.0051195291 -0.00037762237
-0.0019234391 0.0057594702 -0.01227972
0.0035263051 0.0028797351 -0.019678323
-0.00032057319 -0.0025597645 -0.01983916
-0.0052894577 -0.0030397205 -0.0082587413
-0.0011220061 -0.0049595437 -0.00037762237
-0.0057703173 -0.0019198235 -0.010510489
0 -0.0036796615 -5.5944056e-05
-0.0057703173 0.0019198235 -0.011797203
0.0022440122 0.00079992641 -0.01983916
0.0060908906 0.00031997057 -0.012601399
0.0049688844 0.0035196762 -0.0097062942
-0.0057703173 0.0019198235 -0.014853147
-0.0059306039 0.0012798823 -0.0079370625
0.0011220061 -0.0060794409 -0.017587412
0.0043277382 -0.0043196026 -0.011958042
-0.00048085977 -0.0059194556 -0.001020979
-0.00064114638 0.0059194556 -0.019517483
-0.0014425793 -0.0059194556 -0.0093846153
0.0059306039 -0.0012798823 -0.0026293707
-0.0046483111 -0.0039996323 -0.010993007
-0.0019234391 -0.0036796615 -0.00021678321
-0.0051291711 0.003359691 -0.017104896
-0.00080143294 0.0060794409 -0.015013986
-0.0043277382 0.0043196026 -0.019034965
-0.0035263051 0.0051195291 -0.013727273
-0.0019234391 -0.0057594702 -0.0061678323
0.0040071649 0.0030397205 -0.019678323
0.0051291711 -0.003359691 -0.0045594405
0.0059306039 0.0014398675 -0.015818182
-0.0043277382 -0.0043196026 -0.0045594405
0.0059306039 -0.00095991173 -0.0066503496
-0.0017631525 0.0039996323 -0.00021678321
0.0019234391 -0.0025597645 -5.5944056e-05
0.0059306039 -0.00095991173 -0.011153846
0.0056100306 0.0023997792 -0.00053846155
0.0024042989 0.0055994848 -0.0060069929
-0.0060908906 -0.00063994114 -0.016461538
-0.0054497439 0.0027197499 -0.00086013984
-0.0022440122 -0.0023997792 -5.5944056e-05
-0.0060908906 -0.00047995587 -0.001986014
0.0059306039 -0.001119897 -0.0066503496
0.0016028659 0.0059194556 -0.013888112
-0.0052894577 0.0031997056 -0.0063286712
-0.0035263051 0.0051195291 -0.015979022
0 0.0060794409 -0.01227972
0.0057703173 -0.0020798086 -0.015979022
-0.0049688844 -0.0035196762 -0.010510489
0.0024042989 -0.0030397205 -0.01983916
0.0011220061 -0.0060794409 -0.010510489
0.0059306039 0.0017598381 -0.011475525
0.0024042989 -0.00031997057 -0.01983916
-0.0060908906 0.00079992641 -0.019034965
0.0051291711 0.003359691 -0.017426573
-0.0057703173 -0.0019198235 -0.0089020981
0.0033660184 -0.0049595437 -0.017909091
0.0060908906 0.00063994114 -0.016300699
-0.0011220061 -0.0012798823 -5.5944056e-05
-0.0057703173 0.0020798086 -0.0064895106
0.0025645855 0.0038396469 -0.00037762237
-0.0060908906 0.00015998528 -0.01437063
-0.0057703173 -0.002239794 -0.0079370625
0 0.0060794409 -0.016139859
0.0012822928 0.0059194556 -0.011475525
-0.0060908906 0.00047995587 -0.00053846155
0.0012822928 0.0059194556 -0.0048811189
0.0035263051 -0.0049595437 -0.0031118882
-0.0022440122 0.0039996323 -0.019678323
-0.0040071649 -0.0046395734 -0.015979022
-0.002724872 -0.0054394999 -0.0082587413
-0.0048085977 0.0023997792 -0.019678323
-0.0060908906 0 -0.0045594405
0.0052894577 -0.0031997056 -0.0048811189
0.0060908906 0.00063994114 -0.0039160838
0 -0.0060794409 -0.0072937063
0 -0.0060794409 -0.013727273
0.0028851586 -0.0054394999 -0.018713286
-0.0016028659 -0.0043196026 -0.019678323
-0.0035263051 0.0051195291 -0.015174825
0.0017631525 0.0059194556 -0.0047202799
-0.0057703173 0.002239794 -0.011797203
-0.0059306039 0.00031997057 -0.001020979
0.0025645855 -0.0027197499 -5.5944056e-05
0.0024042989 -0.0055994848 -0.0064895106
-0.0048085977 0.0038396469 -0.017909091
-0.0056100306 0.0025597645 -0.0072937063
-0.0051291711 0.0017598381 -0.00037762237
-0.0052894577 -0.0031997056 -0.017909091
-0.0001602866 0.0060794409 -0.010993007
-0.0052894577 0.0031997056 -0.0064895106
0.00080143294 0.0060794409 -0.0060069929
-0.0041674515 0.00079992641 -0.019678323
0.0019234391 -0.0030397205 -0.01983916
-0.0032057317 0.0052795145 -0.0084195808
-0.0048085977 0.0038396469 -0.01034965
-0.0038468782 -0.0047995583 -0.0042377622
-0.0017631525 -0.0052795145 -0.00037762237
-0.0060908906 -0.00031997057 -0.013083916
0.0056100306 -0.0025597645 -0.0090629375
0.0030454453 0.0052795145 -0.018874126
0.0057703173 -0.002239794 -0.019034965
-0.00064114638 0.0017598381 -5.5944056e-05
-0.002724872 -0.0054394999 -0.017909091
0.0040071649 0.0046395734 -0.0092237759
0.0046483111 -0.0039996323 -0.011153846
0.0060908906 0 -0.0090629375
-0.0043277382 0.0014398675 -0.00037762237
-0.0059306039 -0.0014398675 -0.0052027972
0.0046483111 0.0039996323 -0.010832168
0.00080143294 -0.0028797351 -0.01983916
-0.00096171955 0.0060794409 -0.014853147
-0.0057703173 0.0019198235 -0.0098671326
0.0036865915 0.0049595437 -0.01806993
-0.00048085977 -0.0060794409 -0.019034965
0.0032057317 0.0052795145 -0.010027972
-0.0017631525 -0.0014398675 -0.01983916
-0.0054497439 0.0028797351 -0.015174825
-0.0001602866 0.0060794409 -0.016783217
0 0.0059194556 -0.00037762237
-0.0054497439 0.0027197499 -0.0055244756
0.0046483111 0.0036796615 -0.019678323
0.0060908906 -0.00047995587 -0.014048951
-0.0016028659 -0.0020798086 -5.5944056e-05
-0.0044880244 0.0012798823 -0.019678323
0.0032057317 0.0052795145 -0.0052027972
-0.0038468782 -0.0047995583 -0.0066503496
0.0057703173 0.0017598381 -0.0016643356
-0.0020837258 0.0055994848 -0.0018251748
-0.002724872 0.0054394999 -0.0063286712
-0.0001602866 -0.0060794409 -0.012440559
0.0014425793 0.0059194556 -0.011636363
0.0056100306 -0.0025597645 -0.001986014
-0.0019234391 -0.0057594702 -0.015496504
0.0049688844 0.0036796615 -0.0093846153
0.00064114638 -0.0060794409 -0.0053636362
0.0054497439 -0.0015998528 -0.019678323
-0.0057703173 -0.0019198235 -0.016622378
0.0057703173 -0.0015998528 -0.010671329
-0.0017631525 0.0057594702 -0.011153846
0.0051291711 -0.0035196762 -0.015335664
-0.002724872 0.0054394999 -0.0021468531
-0.0001602866 -0.0060794409 -0.01034965
0.0020837258 0.0057594702 -0.0040769232
0.0056100306 0.0019198235 -0.0015034965
0.0056100306 -0.0012798823 -0.019678323
0.0051291711 -0.00095991173 -0.00037762237
-0.0022440122 0.0057594702 -0.019034965
-0.0054497439 0.00031997057 -0.019678323
0.00064114638 0.0046395734 -0.019678323
0.0048085977 -0.0038396469 -0.011958042
0.0049688844 0.0036796615 -0.010188811
0.0052894577 0.0031997056 -0.016461538
0.0030454453 0.0052795145 -0.0047202799
0.00096171955 -0.0060794409 -0.014853147
-0.0046483111 0.0038396469 -0.00069930073
0.00048085977 -0.0055994848 -0.00037762237
-0.0040071649 0.0046395734 -0.011153846
0.0051291711 -0.003359691 -0.0097062942
-0.0059306039 0.0014398675 -0.0031118882
0.0060908906 0.00031997057 -0.011636363
-0.0014425793 0.0027197499 -5.5944056e-05
0.00048085977 -0.0020798086 -0.01983916
-0.0020837258 0.0057594702 -0.0061678323
0 0.0025597645 -0.01983916
-0.0028851586 0.0041596172 -0.019678323
-0.0001602866 0.002239794 -5.5944056e-05
-0.0001602866 0.0060794409 -0.017104896
0.0028851586 -0.0054394999 -0.0037552447
-0.0020837258 0.0057594702 -0.0031118882
-0.0054497439 -0.0027197499 -0.0031118882
-0.0043277382 0.00015998528 -0.019678323
-0.0019234391 -0.002239794 -0.01983916
0 0.0047995583 -0.00037762237
-0.0032057317 -0.0052795145 -0.010188811
0.0011220061 0.0060794409 -0.0058461539
-0.0060908906 0.00047995587 -0.017748252
-0.0060908906 0.001119897 -0.010188811
0.0051291711 0.0035196762 -0.0027902098
-0.0056100306 -0.0014398675 -0.019678323
0 -0.0060794409 -0.015818182
0.00048085977 -0.0060794409 -0.0026293707
0.0019234391 -0.0036796615 -0.019678323
0.0043277382 -0.0043196026 -0.006811189
-0.0033660184 0.0051195291 -0.0082587413
0.0022440122 0.0057594702 -0.0097062942
0.0057703173 -0.0019198235 -0.001986014
0.0025645855 0.0051195291 -0.019678323
0.0060908906 -0.00047995587 -0.0052027972
0.00064114638 0.0060794409 -0.010188811
-0.002724872 0.0054394999 -0.010027972
-0.0038468782 0.0047995583 -0.019517483
-0.0054497439 0.0025597645 -0.0016643356
0.0024042989 -0.0055994848 -0.0035944055
-0.0033660184 0.0035196762 -0.019678323
-0.0049688844 0.0035196762 -0.001986014
-0.0016028659 0.0025597645 -5.5944056e-05
-0.0025645855 -0.002239794 -5.5944056e-05
-0.0043277382 0.0043196026 -0.0093846153
0.0056100306 0.0014398675 -0.0011818182
-0.0033660184 -0.0020798086 -0.01983916
-0.0060908906 0.00079992641 -0.017587412
0.0044880244 0.0041596172 -0.014853147
-0.0059306039 0.0017598381 -0.0097062942
0.0011220061 0.0039996323 -0.00021678321
-0.0016028659 -0.0051195291 -0.00037762237
-0.0033660184 -0.0014398675 -5.5944056e-05
0.0024042989 -0.0031997056 -5.5944056e-05
-0.00096171955 0.0060794409 -0.0050419578
0.00064114638 -0.0060794409 -0.011314685
0.00048085977 -0.004479588 -0.019678323
-0.0024042989 -0.0055994848 -0.013888112
-0.0035263051 0.0012798823 -0.01983916
0.0012822928 -0.0059194556 -0.011797203
0.0059306039 0.001119897 -0.00086013984
-0.0041674515 -0.004479588 -0.017587412
0.0044880244 -0.0041596172 -0.016300699
-0.0060908906 0.00079992641 -0.0018251748
-0.0043277382 0.0043196026 -0.0043986016
0.0040071649 0.0046395734 -0.017748252
-0.0046483111 0.0039996323 -0.010671329
0.00048085977 -0.0060794409 -0.0076153846
0.0060908906 0.00047995587 -0.0097062942
-0.0059306039 -0.0014398675 -0.014048951
0.0057703173 0.0019198235 -0.0042377622
-0.0049688844 0.0035196762 -0.018874126
0.00096171955 -0.0035196762 -0.01983916
-0.0044880244 -0.003359691 -0.00037762237
0.0001602866 0.0060794409 -0.011958042
-0.0012822928 -0.0059194556 -0.0098671326
-0.0014425793 -0.0059194556 -0.011797203
0.0060908906 -0.00015998528 -0.013888112
0.0041674515 0.0030397205 -0.019678323
-0.00032057319 0.0060794409 -0.0021468531
0.0016028659 -0.0059194556 -0.0072937063
0.0024042989 0.0055994848 -0.0024685315
-0.0054497439 0.0027197499 -0.0085804192
-0.0033660184 -0.0051195291 -0.0089020981
-0.0011220061 0.0059194556 -0.013888112
0.0059306039 0.00079992641 -0.0015034965
0.0001602866 -0.0060794409 -0.011153846
0.0051291711 0.003359691 -0.0064895106
0.0059306039 0.00079992641 -0.019517483
-0.0060908906 -0.00095991173 -0.01227972
0.0043277382 -0.0043196026 -0.010832168
0.0033660184 -0.0036796615 -0.00037762237
0.002724872 -0.0031997056 -0.00021678321
