# .PCD v0.7 - Point Cloud Data file format
VERSION 0.7
FIELDS x y z
SIZE 4 4 4
TYPE F F F
COUNT 1 1 1
WIDTH 1206
HEIGHT 1
VIEWPOINT 0 0 0 1 0 0 0
POINTS 1206
DATA ascii
-0.0068653845 -0.0079253735 -0.0015826087
0.013057692 0.0089999996 -0.013173913
0.0009423077 -0.0071194028 -0.0037391305
-0.013596154 0.0076567163 -0.0077826087
0.014942308 0.0036268656 -0.023147827
-0.0012115384 0.008462687 -0.0013130435
-0.013596154 -0.0071194028 -0.012095653
-0.014673077 -0.0047014924 -0.0156
-0.013865384 0.0060447762 -0.025304347
0.00013461539 0.0089999996 -0.0013130435
0.0044423076 0.003358209 -0.028000001
0.0082115382 -0.0049701491 -0.027730435
-0.0065961541 -0.0071194028 -0.027730435
-0.013865384 -0.0052388059 -0.013443478
-0.0092884619 0.008462687 -0.0058956523
-0.0074038464 -0.0081940303 -0.017217392
-0.0074038464 -0.0081940303 -0.0021217391
0.0012115384 0.0017462687 -0.028000001
0.014942308 0.0047014924 -0.012365217
-0.013865384 -0.0068507465 -0.011556522
-0.0039038463 0.0073880595 -0.010747826
0.014942308 0.0017462687 -0.022069566
-0.00875 -0.0081940303 -0.0077826087
0.014673077 0.00040298508 -0.02692174
0.014942308 -0.0036268656 -0.0037391305
0.013865384 -0.0065820897 -0.0031999999
-0.0082115382 0.0087313429 -0.0013130435
-0.0052499999 0.0076567163 -0.0053565218
0.0014807692 -0.0071194028 -0.0018521739
-0.014403846 -0.0052388059 -0.025304347
-0.0071346154 0.0079253735 -0.016947826
-0.0092884619 0.0089999996 -0.00050434784
0.0020192307 -0.0071194028 -0.0091304351
0.0065961541 -0.0079253735 -0.018295651
0.014673077 0.00040298508 -0.0072434782
0.013865384 0.0055074627 -0.016139131
-0.0079423077 0.0038955223 -0.028000001
0.0074038464 0.0063134329 -0.027730435
0.014673077 0.00013432835 -0.024226086
-0.014134616 -0.0036268656 -0.0013130435
-0.014942308 -0.0047014924 -0.023956522
0.011980769 -0.0087313429 -0.017217392
-0.0095576923 0.0038955223 -0.028000001
0.013865384 0.0068507465 -0.0099391304
-0.015211538 -0.0073880595 -0.0013130435
-0.011442307 -0.0087313429 -0.0064347824
0.0039038463 -0.0076567163 -0.024495652
-0.013596154 -0.0076567163 -0.0034695652
0.0044423076 -0.0076567163 -0.0064347824
-0.011711539 0.0028208955 -0.027730435
-0.0033653846 0.0073880595 -0.0040086955
-0.015480769 0.0038955223 -0.023686957
-0.014942308 -0.003358209 -0.019643478
0.0052499999 -0.0038955223 -0.028000001
0.014673077 0.0012089552 -0.027191304
-0.014942308 -0.002283582 -0.024226086
0.010903846 0.0063134329 -0.0013130435
0.013326923 0.0089999996 -0.0156
0.0079423077 0.0030895523 -0.028000001
-0.0074038464 0.0089999996 -0.00077391305
-0.013865384 0.0065820897 -0.027460869
-0.0068653845 0.0079253735 -0.022608696
-0.0025576924 0.0052388059 -0.027730435
-0.012519231 0.0087313429 -0.0050869565
-0.014942308 0.0020149255 -0.0069739129
-0.011980769 -0.0055074627 -0.027730435
-0.013326923 -0.0089999996 -0.0015826087
-0.0065961541 0.0079253735 -0.011286956
-0.010903846 -0.0017462687 -0.028000001
0.010903846 0.0087313429 -0.0042782607
-0.0063269231 -0.0089999996 -0.00077391305
-0.0060576922 0.0076567163 -0.0091304351
0.01225 0.0087313429 -0.0058956523
0.0033653846 0.0076567163 -0.011286956
-0.012788462 0.0073880595 -0.0013130435
-0.013865384 -0.0052388059 -0.0088608693
-0.010096154 -0.0087313429 -0.015869565
-0.014134616 0.0049701491 -0.0218
0.0057884618 -0.00040298508 -0.0013130435
-0.014673077 0.00040298508 -0.017217392
-0.00013461539 -0.0068507465 -0.0072434782
0.013865384 -0.0068507465 -0.025034783
-0.00040384615 -0.0071194028 -0.026382608
-0.013865384 0.0049701491 -0.027730435
0.0033653846 0.0076567163 -0.016678261
0.002826923 0.0073880595 -0.0091304351
0.0076730768 -0.0081940303 -0.019643478
0.00013461539 -0.0063134329 -0.027730435
-0.012519231 -0.0089999996 -0.026652174
-0.013865384 -0.0060447762 -0.0029304349
-0.013596154 -0.0073880595 -0.0088608693
0.0065961541 -0.0079253735 -0.0075130435
0.013596154 0.0063134329 -0.027460869
-0.0039038463 0.0076567163 -0.019104348
0.013596154 -0.00013432835 0.0013826087
0.014673077 0.00067164178 -0.0037391305
0.0047115386 0.0030895523 -0.0013130435
0.0071346154 -0.0079253735 -0.02018261
-0.014673077 0.00013432835 -0.0156
0.00013461539 -0.0038955223 -0.028000001
0.0047115386 0.0017462687 -0.028000001
-0.01225 0.0087313429 -0.016139131
-0.01225 -0.0089999996 -0.0218
-0.012519231 0.0089999996 -0.016678261
0.0047115386 -0.0063134329 -0.027730435
-0.011442307 -0.0087313429 -0.015869565
-0.012788462 0.002283582 -0.0013130435
-0.0012115384 0.0068507465 -0.027730435
-0.0036346153 0.0073880595 -0.011286956
0.0092884619 -0.008462687 -0.02018261
0.0071346154 0.0081940303 -0.027460869
-0.010096154 -0.0087313429 -0.013982609
-0.0060576922 -0.0076567163 -0.0099391304
0.013326923 -0.0089999996 -0.01506087
0.013865384 0.0057761194 -0.026113043
0.014942308 -0.0036268656 -0.0048173913
-0.013596154 -0.0089999996 -0.0069739129
0.0017500001 0.0044328356 -0.028000001
0.0044423076 -0.0076567163 -0.0072434782
-0.0039038463 0.0079253735 -0.0015826087
-0.0063269231 -0.0079253735 -0.021530434
0.0036346153 -0.0076567163 -0.026382608
-0.0095576923 0.0081940303 -0.0042782607
0.013596154 -0.0087313429 -0.010478261
0.0068653845 0.0081940303 -0.018295651
0.0076730768 -0.00040298508 -0.028000001
-0.011442307 -0.0087313429 -0.013713043
0.014673077 -0.00067164178 -0.0083217388
-0.0057884618 0.0079253735 -0.0018521739
-0.0009423077 -0.0057761194 -0.027730435
-0.015211538 0.0041641793 -0.010747826
-0.014673077 -0.0047014924 -0.0069739129
-0.002826923 -0.0073880595 -0.013713043
0.015211538 0.0047014924 -0.01506087
-0.013596154 -0.0071194028 -0.02018261
-0.0022884614 0.0071194028 -0.0088608693
-0.011173077 0.008462687 -0.0091304351
0.013865384 0.0049701491 -0.027460869
0.014942308 -0.003358209 -0.017756522
0.010096154 0.00067164178 -0.0013130435
0.0068653845 -0.0014776119 -0.0013130435
0.0090192305 -0.0060447762 -0.0013130435
0.015211538 -0.0038955223 -0.018565217
0.014673077 0.0065820897 -0.0013130435
-0.0017500001 0.0071194028 -0.018565217
0.0095576923 -0.008462687 -0.024226086
-0.013596154 0.0076567163 -0.021260869
-0.0012115384 -0.0071194028 -0.0048173913
0.013865384 -0.0057761194 -0.0023913044
-0.0014807692 -0.0036268656 -0.028000001
0.0082115382 0.0049701491 -0.028000001
0.0033653846 0.0020149255 -0.028000001
0.011173077 0.0028208955 -0.0013130435
-0.013865384 -0.0060447762 -0.0021217391
0.0079423077 -0.0017462687 -0.028000001
0.014673077 0.00013432835 -0.011286956
0.0039038463 -0.0079253735 -0.0013130435
0.013596154 -0.008462687 -0.017486956
-0.0014807692 -0.0073880595 -0.024226086
0.015211538 -0.0044328356 -0.0034695652
-0.0052499999 -0.0079253735 -0.021530434
-0.014942308 0.0028208955 -0.0156
0.013865384 -0.0049701491 -0.0083217388
-0.013865384 -0.0065820897 -0.011286956
-0.0060576922 -0.0076567163 -0.0061652176
-0.0047115386 0.0076567163 -0.0067043477
-0.014673077 -0.00094029849 -0.011826087
-0.013865384 0.0063134329 -0.0042782607
0.014673077 -0.0017462687 -0.027460869
-0.013865384 0.0055074627 -0.02018261
0.014942308 0.003358209 -0.017486956
-0.002826923 -0.0052388059 -0.027730435
0.00013461539 0.0071194028 -0.016139131
-0.0039038463 0.0012089552 -0.0013130435
-0.013057692 -0.0044328356 -0.0013130435
0.0036346153 0.00040298508 -0.028000001
-0.01225 0.00040298508 -0.0013130435
-0.0047115386 -0.0079253735 -0.016947826
-0.013596154 -0.0073880595 -0.0058956523
0.013596154 0.0079253735 -0.0075130435
-0.0036346153 -0.0076567163 -0.011556522
-0.014942308 -0.0047014924 -0.017217392
-0.014673077 0.0047014924 -0.011826087
-0.0012115384 0.0038955223 -0.0013130435
0.013596154 -0.0071194028 -0.02018261
-0.014673077 -0.0012089552 -0.019643478
-0.012519231 0.0089999996 -0.012904348
-0.010365385 -0.0047014924 -0.0013130435
0.014942308 -0.0047014924 -0.018295651
-0.013865384 -0.0063134329 -0.004547826
-0.0025576924 -0.0073880595 -0.024765218
0.0068653845 0.0089999996 -0.0015826087
-0.0065961541 0.0017462687 -0.028000001
-0.013865384 -0.0052388059 -0.019643478
0.0017500001 -0.0071194028 -0.012095653
0.00067307689 -0.0068507465 -0.0072434782
-0.002826923 -0.0073880595 -0.0058956523
0.014403846 -0.0049701491 -0.013443478
0.014942308 0.0025522388 -0.0064347824
-0.010365385 -0.0012089552 -0.0013130435
-0.0012115384 -0.0068507465 -0.027730435
-0.0041730767 -0.0076567163 -0.015330435
0.00040384615 -0.0071194028 -0.025034783
-0.013865384 -0.0055074627 -0.018295651
0.0039038463 0.0076567163 -0.016408695
0.003096154 -0.0073880595 -0.011556522
-0.014673077 -0.0047014924 -0.021260869
0.00067307689 -0.0068507465 -0.0013130435
-0.0052499999 0.0076567163 -0.0069739129
0.013596154 0.0071194028 -0.0029304349
-0.014673077 -0.00013432835 -0.018026087
-0.0065961541 0.0012089552 -0.028000001
0.0090192305 -0.0025522388 -0.0013130435
-0.0079423077 -0.0081940303 -0.014791304
0.015211538 -0.0038955223 -0.018295651
0.0044423076 -0.0076567163 -0.019104348
-0.011711539 -0.0087313429 -0.0023913044
0.0036346153 -0.00040298508 -0.0013130435
-0.004980769 -0.0012089552 -0.0013130435
0.0098269228 0.00094029849 -0.0013130435
-0.012788462 0.008462687 -0.0013130435
0.00040384615 -0.0068507465 -0.0023913044
-0.012788462 0.0036268656 -0.0013130435
0.002826923 0.0073880595 -0.0075130435
-0.014942308 0.0017462687 -0.0050869565
0.013057692 0.00040298508 -0.027730435
0.0079423077 -0.0041641793 -0.0013130435
0.011711539 0.0038955223 -0.0013130435
0.014134616 -0.0052388059 -0.0013130435
0.0076730768 0.0081940303 -0.0088608693
-0.014403846 -0.0049701491 -0.027191304
-0.013326923 0.0089999996 -0.010208695
0.0017500001 -0.0036268656 -0.0013130435
0.012788462 0.0089999996 -0.018834783
-0.013865384 -0.0057761194 -0.016947826
0.010096154 -0.008462687 -0.023956522
0.0076730768 0.0081940303 -0.020721739
-0.00875 0.0049701491 -0.027730435
-0.014673077 -0.00067164178 -0.0040086955
0.00067307689 -0.0068507465 -0.0083217388
0.004980769 0.0079253735 -0.022069566
-0.012519231 -0.0089999996 -0.012634783
-0.00875 0.0081940303 -0.010478261
0.0095576923 -0.0081940303 -0.004547826
0.013865384 -0.0065820897 -0.01506087
0.0082115382 0.0063134329 -0.0013130435
0.0092884619 -0.0081940303 -0.010478261
-0.00067307689 0.0087313429 -0.0013130435
-0.012788462 -0.0055074627 -0.027730435
0.0047115386 0.0076567163 -0.0026608696
0.010903846 0.0073880595 -0.00050434784
-0.0036346153 -0.0073880595 -0.0061652176
0.014673077 -0.00094029849 -0.010208695
0.014673077 0.0047014924 -0.020991305
0.010634615 0.008462687 -0.0061652176
-0.0022884614 -0.0073880595 -0.010478261
0.0022884614 -0.0071194028 -0.0085913045
-0.004980769 0.0052388059 -0.0013130435
0.014673077 -0.00094029849 -0.0040086955
-0.0076730768 -0.0079253735 -0.0067043477
-0.013326923 0.0089999996 -0.020991305
-0.012519231 0.0087313429 -0.0083217388
-0.014673077 -0.00067164178 -0.019373912
0.003096154 0.0073880595 -0.0048173913
0.0098269228 0.008462687 -0.018834783
-0.0047115386 0.0076567163 -0.0037391305
0.00040384615 0.0065820897 -0.0013130435
0.013596154 0.0087313429 -0.014791304
-0.012519231 -0.0017462687 -0.027730435
0.010903846 -0.0087313429 -0.021530434
0.0063269231 -0.0063134329 -0.027460869
-0.013865384 0.0089999996 -0.013173913
0.014673077 -0.0014776119 -0.016678261
-0.0079423077 0.0081940303 -0.022878261
-0.013596154 -0.0071194028 -0.008052174
-0.0041730767 -0.0073880595 -0.0061652176
-0.014673077 -0.00040298508 -0.011017391
0.014942308 -0.002283582 -0.018026087
0.0063269231 0.0079253735 -0.0053565218
0.00013461539 -0.0060447762 -0.027730435
-0.0079423077 -0.0081940303 -0.020721739
-0.014134616 0.00094029849 -0.0013130435
0.014942308 -0.0017462687 -0.027191304
-0.014673077 0.0047014924 -0.0023913044
-0.015211538 0.0044328356 -0.0048173913
-0.0065961541 -0.0081940303 -0.019913044
-0.0074038464 -0.0079253735 -0.0072434782
0.0036346153 -0.0044328356 -0.0013130435
-0.010096154 -0.008462687 -0.004547826
0.013596154 0.0073880595 -0.020452173
0.014673077 0.0014776119 -0.02018261
-0.0014807692 0.0071194028 -0.0085913045
0.013865384 -0.0068507465 -0.013173913
0.013865384 -0.0063134329 -0.0021217391
-0.0063269231 0.0030895523 -0.028000001
0.0009423077 -0.0071194028 -0.013443478
0.01225 -0.0081940303 -0.0013130435
0.014673077 0.0047014924 -0.0029304349
-0.0041730767 -0.0073880595 -0.0056260871
-0.00875 0.0081940303 -0.011286956
0.014403846 0.0047014924 -0.0064347824
0.013596154 -0.0079253735 -0.0069739129
0.0084807696 -0.0081940303 -0.023686957
-0.013865384 -0.0063134329 -0.016678261
0.0014807692 -0.0071194028 -0.022069566
-0.011173077 0.0044328356 -0.027730435
0.003096154 -0.0076567163 -0.0013130435
-0.015211538 0.0047014924 -0.0031999999
-0.0014807692 -0.0073880595 -0.016947826
0.0068653845 0.0081940303 -0.013443478
0.0082115382 -0.0065820897 -0.0013130435
-0.012788462 0.0087313429 -0.026652174
-0.014673077 -0.00094029849 -0.02692174
-0.013865384 -0.0049701491 -0.02018261
-0.013865384 0.0063134329 -0.0058956523
0.013865384 -0.0060447762 -0.012634783
-0.0076730768 0.0081940303 -0.019373912
0.014673077 -0.0014776119 -0.0156
0.01225 0.00013432835 -0.027730435
-0.0092884619 -0.008462687 -0.016139131
-0.0025576924 -0.0060447762 -0.0013130435
-0.014403846 -0.0047014924 -0.0218
-0.0095576923 0.0081940303 -0.025034783
0.011442307 0.0087313429 -0.023417391
0.0033653846 0.0017462687 -0.028000001
-0.013865384 0.0065820897 -0.0031999999
0.013596154 -0.0073880595 -0.0040086955
0.014942308 0.0025522388 -0.020452173
-0.011980769 0.0087313429 -0.0075130435
0.014942308 -0.0020149255 -0.0031999999
0.0039038463 0.0060447762 -0.0013130435
0.014942308 0.0020149255 -0.0026608696
-0.013865384 -0.0073880595 -0.027460869
-0.0060576922 0.0020149255 -0.0013130435
0.0009423077 -0.0071194028 -0.0053565218
0.010634615 0.008462687 -0.0085913045
-0.0055192309 -0.0079253735 -0.018295651
0.0033653846 -0.0073880595 -0.01506087
-0.015211538 0.0044328356 -0.02018261
-0.0033653846 -0.0073880595 -0.0077826087
0.014134616 -0.0049701491 -0.025034783
0.011980769 -0.0087313429 -0.014252174
0.013326923 -0.0041641793 -0.027730435
0.013865384 -0.0068507465 -0.0061652176
-0.014942308 0.0025522388 -0.016139131
0.0014807692 0.0047014924 -0.0013130435
-0.013865384 0.0052388059 -0.023686957
0.0095576923 -0.0081940303 -0.0021217391
-0.0082115382 0.0081940303 -0.02692174
0.010365385 -0.0071194028 -0.0010434783
0.00067307689 -0.0014776119 -0.028000001
-0.0082115382 0.0081940303 -0.0083217388
0.010096154 -0.0014776119 -0.028000001
0.013865384 -0.0052388059 -0.0064347824
0.010365385 0.0020149255 -0.0013130435
0.0041730767 -0.0076567163 -0.024226086
0.014942308 0.0036268656 -0.023956522
0.014673077 -0.0012089552 -0.023686957
-0.0017500001 -0.0073880595 -0.018834783
0.0092884619 0.008462687 -0.0023913044
-0.015211538 0.0047014924 -0.0023913044
0.0071346154 0.0081940303 -0.026382608
0.0052499999 -0.00094029849 -0.028000001
-0.012519231 0.0087313429 -0.025573913
0.0065961541 -0.0087313429 -0.0013130435
0.0095576923 0.0038955223 -0.028000001
-0.0060576922 -0.0068507465 -0.027730435
0.0017500001 -0.0076567163 -0.0013130435
-0.002826923 0.0073880595 -0.0021217391
-0.014942308 -0.0020149255 -0.026113043
-0.0068653845 -0.0079253735 -0.010478261
0.00067307689 0.0071194028 -0.025304347
-0.00013461539 0.0071194028 -0.015330435
0.004980769 -0.0076567163 -0.018026087
0.013865384 -0.0063134329 -0.020991305
0.013865384 -0.0052388059 -0.012095653
-0.013865384 -0.0063134329 -0.0034695652
0.00875 -0.0044328356 -0.0013130435
-0.0074038464 0.003358209 -0.028000001
-0.0082115382 -0.008462687 -0.014521739
0.014942308 -0.0047014924 -0.0048173913
0.014403846 0.0047014924 -0.015869565
-0.0009423077 0.0073880595 -0.0013130435
-0.013865384 -0.0060447762 -0.013173913
0.014942308 0.0036268656 -0.025304347
-0.0014807692 -0.0073880595 -0.02018261
-0.014673077 -0.0014776119 -0.0156
-0.00013461539 -0.0025522388 -0.028000001
-0.0084807696 0.0081940303 -0.024495652
0.013865384 0.0087313429 -0.0013130435
-0.0092884619 -0.00040298508 -0.0013130435
-0.0090192305 0.0081940303 -0.0091304351
0.012788462 0.0089999996 -0.0218
0.0071346154 0.0081940303 -0.0156
0.0009423077 -0.0036268656 -0.0013130435
0.0098269228 0.003358209 -0.0013130435
0.013865384 -0.0063134329 -0.024226086
-0.0092884619 -0.008462687 -0.024495652
0.0057884618 0.0079253735 -0.0040086955
0.013596154 -0.0071194028 -0.013173913
0.002826923 0.0073880595 -0.0053565218
-0.0012115384 0.0071194028 -0.0053565218
0.010365385 0.0087313429 -0.014521739
-0.014403846 0.0057761194 -0.0013130435
0.0090192305 0.008462687 -0.023686957
-0.0009423077 -0.00094029849 -0.0013130435
-0.0041730767 0.0076567163 -0.0018521739
-0.00013461539 -0.0071194028 -0.013982609
0.002826923 0.0073880595 -0.0069739129
0.010096154 -0.008462687 -0.00023478261
0.0084807696 -0.0081940303 -0.011286956
-0.0084807696 -0.0071194028 -0.027730435
-0.0090192305 -0.008462687 -0.0015826087
0.0098269228 -0.008462687 -0.02018261
-0.0079423077 -0.0012089552 -0.028000001
0.0025576924 -0.0071194028 -0.0067043477
-0.014942308 -0.0017462687 -0.013713043
0.015211538 0.0044328356 -0.016139131
-0.0017500001 -0.0073880595 -0.025304347
0.014134616 0.0047014924 -0.0023913044
-0.010634615 0.0079253735 -0.00023478261
-0.014673077 -0.0047014924 -0.010747826
-0.013596154 -0.00013432835 -0.00023478261
-0.012788462 -0.0087313429 -0.0053565218
0.013596154 -0.0081940303 -0.016408695
-0.002826923 -0.0073880595 -0.0099391304
0.0084807696 0.008462687 -0.00023478261
-0.01225 -0.0089999996 -0.017486956
0.004980769 0.0020149255 -0.0013130435
0.014942308 -0.002283582 -0.0018521739
0.0014807692 -0.0071194028 -0.027460869
0.00013461539 0.0030895523 -0.028000001
-0.0092884619 -0.0081940303 -0.0056260871
-0.00013461539 -0.0030895523 -0.028000001
-0.013865384 0.0052388059 -0.02233913
0.0009423077 0.0071194028 -0.025304347
-0.014673077 -0.0014776119 -0.012365217
-0.013865384 0.0063134329 -0.012095653
-0.0020192307 0.0073880595 -0.023417391
0.014673077 -0.0049701491 -0.016947826
0.013865384 -0.0055074627 -0.024495652
0.014942308 -0.0047014924 -0.018834783
0.011980769 0.0044328356 -0.0013130435
0.003096154 0.0073880595 -0.0034695652
-0.0095576923 0.0087313429 -0.00023478261
0.015211538 0.0041641793 -0.020452173
0.0060576922 0.0055074627 -0.027730435
0.0033653846 -0.0065820897 -0.027730435
-0.014673077 0.00040298508 -0.017486956
0.014942308 0.0020149255 -0.025843479
0.014673077 -0.0028208955 -0.0013130435
-0.004980769 0.0076567163 -0.0029304349
0.014673077 0.0012089552 -0.025034783
-0.013865384 -0.0057761194 -0.0099391304
0.014942308 0.0028208955 -0.012365217
0.003096154 -0.0073880595 -0.010747826
0.014673077 -0.00040298508 -0.025304347
0.014942308 0.0020149255 -0.019643478
-0.014942308 0.0030895523 -0.0023913044
-0.00875 -0.0081940303 -0.0096695656
0.014673077 -0.00013432835 -0.012095653
-0.013865384 0.0049701491 -0.0013130435
-0.0012115384 -0.0071194028 -0.0050869565
0.0076730768 0.0017462687 -0.0013130435
0.0071346154 0.0060447762 -0.0013130435
0.002826923 -0.0073880595 -0.018026087
-0.003096154 -0.0057761194 -0.0013130435
0.0014807692 0.0060447762 -0.027730435
-0.013596154 0.0081940303 -0.0067043477
0.010634615 -0.0063134329 -0.027730435
0.0017500001 -0.0052388059 -0.027730435
-0.014673077 -0.0014776119 -0.0013130435
-0.013057692 0.0089999996 -0.0018521739
0.013596154 0.0087313429 -0.015869565
0.0055192309 -0.0081940303 -0.0013130435
-0.015480769 0.0087313429 -0.0058956523
-0.00875 -0.008462687 -0.014252174
-0.004980769 0.0073880595 -0.027460869
-0.014134616 0.0047014924 -0.0031999999
0.0009423077 0.0055074627 -0.0013130435
0.0047115386 -0.0076567163 -0.023686957
-0.0084807696 0.0081940303 -0.014791304
-0.015211538 -0.0044328356 -0.025573913
0.00875 -0.0081940303 -0.024226086
0.00013461539 -0.0036268656 -0.0013130435
-0.0090192305 0.0081940303 -0.0099391304
-0.0041730767 -0.00067164178 -0.0013130435
-0.0063269231 0.0079253735 -0.016408695
0.011442307 0.0087313429 -0.018565217
0.013596154 0.0071194028 -0.0072434782
0.013865384 -0.0055074627 -0.004547826
0.0076730768 0.002283582 -0.028000001
0.011173077 -0.0076567163 -0.00050434784
-0.014942308 -0.0028208955 -0.019913044
0.011442307 0.0087313429 -0.0083217388
0.013865384 -0.0068507465 -0.01506087
0.00067307689 -0.0068507465 -0.010208695
0.010096154 0.0087313429 -0.020721739
0.014673077 -0.0012089552 -0.026113043
0.0095576923 0.008462687 -0.019373912
0.00013461539 0.0044328356 -0.0013130435
-0.0063269231 0.0079253735 -0.0099391304
-0.0079423077 -0.0081940303 -0.013173913
0.013596154 0.008462687 -0.024226086
0.013865384 0.0065820897 -0.0069739129
-0.0044423076 -0.0076567163 -0.027460869
0.0063269231 0.0079253735 -0.010747826
-0.014942308 0.0044328356 -0.027460869
-0.0098269228 0.008462687 -0.026113043
0.014942308 0.0036268656 -0.0069739129
0.014673077 -0.00013432835 -0.0031999999
-0.010096154 0.0049701491 -0.027730435
-0.011980769 -0.0089999996 -0.015869565
0.01225 0.00040298508 -0.027730435
-0.010903846 0.0087313429 -0.018834783
0.014673077 -0.003358209 -0.0013130435
-0.0079423077 0.0081940303 -0.020721739
-0.014673077 0.0012089552 -0.018565217
0.014942308 0.0028208955 -0.020452173
-0.015480769 0.0087313429 -0.0083217388
-0.011711539 -0.0089999996 -0.017486956
-0.0052499999 0.0076567163 -0.0088608693
0.010634615 0.0087313429 -0.017217392
-0.0047115386 -0.0036268656 -0.028000001
0.013596154 -0.0081940303 -0.017217392
-0.0084807696 -0.0081940303 -0.008052174
-0.013865384 -0.00040298508 -0.027730435
0.012519231 0.0089999996 -0.011826087
0.0055192309 0.0079253735 -0.019643478
-0.00875 0.0089999996 -0.0010434783
0.0009423077 -0.002283582 -0.028000001
-0.013865384 -0.0068507465 -0.027191304
0.013865384 -0.0060447762 -0.011826087
0.014673077 -0.0012089552 -0.010747826
-0.0025576924 0.0071194028 -0.025843479
0.0047115386 0.0087313429 -0.0015826087
-0.015211538 0.0041641793 -0.018834783
-0.014673077 0.0014776119 -0.0037391305
0.013865384 -0.0065820897 -0.0040086955
0.0060576922 -0.0079253735 -0.026382608
0.012788462 0.0089999996 -0.0085913045
0.0022884614 0.0060447762 -0.0013130435
-0.0052499999 -0.0076567163 -0.008052174
-0.013326923 0.0089999996 -0.0021217391
-0.0047115386 0.0076567163 -0.0218
-0.0095576923 -0.008462687 -0.025843479
0.004980769 -0.0076567163 -0.010208695
-0.014942308 0.0025522388 -0.019913044
0.013596154 0.0081940303 -0.023147827
0.014673077 -0.0036268656 -0.027460869
0.0041730767 -0.0047014924 -0.0013130435
0.0060576922 -0.0076567163 -0.0040086955
-0.010903846 0.00040298508 -0.0013130435
-0.010903846 -0.0087313429 -0.027191304
-0.00013461539 -0.0068507465 -0.0064347824
0.0020192307 0.0073880595 -0.013443478
-0.010903846 -0.0025522388 -0.0013130435
-0.014673077 -0.00067164178 -0.022608696
0.0014807692 -0.0071194028 -0.013173913
0.002826923 -0.0073880595 -0.0029304349
-0.002826923 0.0073880595 -0.019643478
0.004980769 0.0079253735 -0.011826087
0.0052499999 -0.0076567163 -0.0023913044
-0.013865384 0.0036268656 -0.0013130435
-0.013057692 0.0055074627 -0.027730435
0.012788462 0.00040298508 -0.0013130435
0.0057884618 0.0079253735 -0.0069739129
0.014673077 -0.0014776119 -0.0088608693
0.002826923 -0.0057761194 -0.0013130435
0.014134616 -0.0049701491 -0.027191304
-0.0055192309 -0.0017462687 -0.028000001
0.0041730767 0.0076567163 -0.012095653
0.014673077 -0.0012089552 -0.0031999999
0.0082115382 0.008462687 -0.011826087
-0.013865384 -0.0057761194 -0.012634783
-0.0074038464 0.0079253735 -0.011556522
0.0079423077 -0.0081940303 -0.025573913
0.014942308 -0.0020149255 -0.026382608
0.00875 0.0081940303 -0.0093999999
0.014673077 0.0014776119 -0.0050869565
0.011980769 0.0020149255 -0.0013130435
0.0063269231 -0.0030895523 -0.028000001
0.014942308 0.0041641793 -0.0013130435
-0.0014807692 -0.00067164178 -0.028000001
-0.0044423076 -0.0076567163 -0.0053565218
-0.0065961541 0.0079253735 -0.018295651
0.013596154 -0.0079253735 -0.0061652176
-0.0009423077 0.0030895523 -0.028000001
0.0074038464 -0.0068507465 -0.027460869
-0.013865384 0.0055074627 -0.021530434
0.013596154 -0.0087313429 -0.024495652
-0.0055192309 -0.0017462687 -0.0013130435
0.0012115384 -0.0071194028 -0.011826087
-0.010096154 -0.0087313429 -0.022069566
0.013865384 0.0057761194 -0.0064347824
-0.013596154 -0.0081940303 -0.016408695
0.011173077 -0.0047014924 -0.027730435
0.00067307689 -0.0068507465 -0.0023913044
-0.0041730767 0.0073880595 -0.0093999999
0.0009423077 0.0071194028 -0.0026608696
0.010634615 -0.0025522388 -0.0013130435
0.0090192305 -0.0017462687 -0.0013130435
-0.01225 -0.0089999996 -0.0013130435
-0.013057692 -0.0041641793 -0.027730435
0.00875 0.008462687 -0.014521739
0.01225 -0.0049701491 -0.027730435
-0.013057692 -0.0017462687 -0.027730435
-0.012788462 0.0049701491 -0.0013130435
0.011173077 -0.0087313429 -0.023417391
0.0044423076 -0.0052388059 -0.0013130435
-0.014942308 0.0030895523 -0.0029304349
0.013865384 0.0068507465 -0.0013130435
-0.010096154 0.008462687 -0.0058956523
0.011980769 0.0089999996 -0.02692174
-0.013865384 0.0060447762 -0.0077826087
-0.0044423076 0.0076567163 -0.025843479
-0.013865384 0.0076567163 -0.0013130435
0.010903846 0.0087313429 -0.0056260871
0.014942308 0.0017462687 -0.010747826
0.00875 0.0087313429 -0.0013130435
-0.0036346153 0.0076567163 -0.012904348
-0.011711539 0.0025522388 -0.0013130435
-0.0060576922 -0.0079253735 -0.012095653
-0.013596154 0.0071194028 -0.025843479
-0.010096154 -0.0030895523 -0.028000001
-0.0012115384 -0.003358209 -0.028000001
-0.0084807696 0.0087313429 -0.0013130435
0.013596154 0.0089999996 -0.0075130435
-0.0009423077 -0.0071194028 -0.025034783
0.013057692 -0.0089999996 -0.019643478
0.014403846 0.0041641793 -0.027460869
-0.014673077 -0.00040298508 -0.010478261
-0.015480769 -0.0036268656 -0.027191304
0.0022884614 -0.0057761194 -0.027730435
0.0036346153 -0.0076567163 -0.02692174
0.0063269231 0.0079253735 -0.017486956
-0.0063269231 -0.0079253735 -0.026382608
-0.011711539 0.0047014924 -0.0013130435
0.00040384615 0.0071194028 -0.023417391
0.010365385 0.008462687 -0.0023913044
0.0065961541 0.0081940303 -0.016408695
-0.0092884619 -0.0057761194 -0.0013130435
0.013326923 -0.0036268656 -0.027730435
0.002826923 0.0073880595 -0.0050869565
-0.015211538 -0.0047014924 -0.019104348
-0.0079423077 -0.0081940303 -0.018565217
-0.002826923 -0.0057761194 -0.0013130435
-0.004980769 -0.008462687 -0.0013130435
0.013326923 -0.008462687 -0.027191304
0.00875 -0.0081940303 -0.0031999999
0.0074038464 -0.00040298508 -0.028000001
0.0017500001 0.0073880595 -0.0013130435
0.0060576922 0.0089999996 -0.00077391305
-0.0041730767 -0.0076567163 -0.022608696
-0.0009423077 -0.0081940303 -0.0013130435
-0.0095576923 -0.008462687 -0.010208695
0.0044423076 0.0076567163 -0.023686957
0.011173077 -0.0063134329 -0.027730435
0.0017500001 -0.0071194028 -0.0096695656
-0.0052499999 0.0076567163 -0.013443478
0.0065961541 -0.0079253735 -0.025304347
0.010365385 0.0087313429 -0.022608696
-0.0055192309 0.0073880595 -0.0010434783
0.01225 -0.0087313429 -0.015869565
-0.013596154 0.0079253735 -0.027191304
0.002826923 0.0065820897 -0.0013130435
-0.013596154 -0.0076567163 -0.023956522
-0.0020192307 0.0073880595 -0.012904348
0.0057884618 -0.0079253735 -0.0156
-0.0052499999 0.0089999996 -0.0013130435
0.014403846 -0.0047014924 -0.0072434782
0.004980769 -0.0076567163 -0.0023913044
0.013596154 -0.0081940303 -0.011017391
0.013865384 -0.0063134329 -0.0067043477
-0.010365385 0.008462687 -0.012365217
-0.0084807696 0.00094029849 -0.0013130435
-0.003096154 0.0073880595 -0.0096695656
-0.00875 -0.0081940303 -0.0015826087
0.0012115384 -0.0071194028 -0.015869565
0.0060576922 -0.0076567163 -0.011556522
0.0092884619 -0.0028208955 -0.0013130435
0.013596154 -0.0076567163 -0.012634783
-0.002826923 -0.0025522388 -0.0013130435
0.0044423076 0.0076567163 -0.012634783
-0.0098269228 -0.008462687 -0.020721739
-0.015211538 0.0047014924 -0.02018261
-0.010096154 -0.008462687 -0.010747826
0.014942308 0.003358209 -0.015869565
0.0012115384 -0.0014776119 -0.0013130435
-0.013865384 0.0063134329 -0.019104348
0.013057692 -0.0087313429 -0.0083217388
0.012519231 0.0065820897 -0.027730435
-0.0082115382 -0.008462687 -0.013713043
0.014673077 -0.0012089552 -0.0058956523
0.013865384 0.0049701491 -0.0053565218
0.012788462 -0.0063134329 -0.0013130435
0.004980769 -0.0076567163 -0.018834783
-0.013865384 -0.0055074627 -0.023417391
-0.0074038464 0.00013432835 -0.0013130435
0.0055192309 -0.0079253735 -0.017756522
0.013596154 0.0089999996 -0.027191304
0.010096154 -0.008462687 -0.0091304351
-0.0074038464 -0.0057761194 -0.0013130435
0.003096154 -0.0065820897 -0.027730435
-0.0033653846 0.0073880595 -0.024226086
0.0036346153 -0.0017462687 -0.028000001
0.014403846 0.0047014924 -0.021260869
0.014673077 0.00094029849 -0.014791304
0.010365385 0.0073880595 -0.027460869
-0.0076730768 0.00067164178 -0.028000001
0.014673077 -0.0047014924 -0.0061652176
0.015211538 0.003358209 -0.0013130435
0.014942308 -0.0028208955 -0.019373912
-0.0071346154 -0.0081940303 -0.026382608
-0.0095576923 -0.0030895523 -0.0013130435
0.0071346154 -0.0079253735 -0.0042782607
0.0033653846 -0.0068507465 -0.0013130435
-0.0012115384 0.0071194028 -0.0083217388
0.011711539 0.0014776119 -0.027730435
0.014673077 0.00040298508 -0.0029304349
0.014942308 -0.0020149255 -0.019643478
0.0044423076 -0.0076567163 -0.0058956523
-0.015211538 0.0049701491 -0.0013130435
-0.014673077 0.00094029849 -0.018565217
0.0039038463 -0.0076567163 -0.015869565
-0.00875 0.0028208955 -0.028000001
-0.0098269228 -0.008462687 -0.010747826
0.011442307 0.0087313429 -0.016139131
0.0092884619 -0.0014776119 -0.0013130435
-0.0092884619 -0.008462687 -0.018834783
-0.0052499999 -0.0079253735 -0.018295651
0.011980769 -0.0087313429 -0.016678261
0.011173077 -0.0087313429 -0.016408695
-0.010634615 -0.0049701491 -0.0013130435
-0.014134616 0.0049701491 -0.021260869
-0.015211538 0.0044328356 -0.0058956523
0.0022884614 0.0073880595 -0.0156
0.012788462 0.0071194028 -0.027730435
0.0071346154 0.0089999996 -0.00023478261
-0.0098269228 -0.008462687 -0.013713043
0.0084807696 -0.0052388059 -0.0013130435
0.0092884619 -0.0071194028 -0.00050434784
0.0036346153 -0.0036268656 -0.028000001
0.0079423077 0.0089999996 -0.0010434783
0.013596154 -0.0079253735 -0.018026087
-0.00013461539 -0.0041641793 -0.0013130435
0.010365385 0.00013432835 -0.028000001
0.013865384 -0.0052388059 -0.024495652
0.012519231 0.0087313429 -0.027191304
-0.013596154 0.0079253735 -0.012365217
-0.0063269231 -0.00040298508 -0.028000001
-0.013865384 0.0068507465 -0.016139131
0.013326923 0.0068507465 -0.027730435
-0.013865384 -0.0063134329 -0.013443478
-0.013865384 0.0065820897 -0.020991305
0.010634615 -0.008462687 -0.0093999999
0.0041730767 0.0049701491 -0.028000001
-0.01225 0.0087313429 -0.022069566
0.0022884614 -0.0071194028 -0.0056260871
-0.0095576923 0.0025522388 -0.0013130435
-0.013865384 0.0063134329 -0.012365217
0.013326923 -0.0089999996 -0.026652174
0.00067307689 0.0028208955 -0.0013130435
0.013057692 0.0089999996 -0.016947826
0.0090192305 -0.008462687 -0.018565217
0.015480769 0.0049701491 -0.0013130435
0.013596154 -0.0012089552 -0.0013130435
0.002826923 -0.0073880595 -0.023956522
0.0060576922 0.0063134329 -0.027730435
0.0017500001 0.0071194028 -0.027730435
-0.014673077 0.00094029849 -0.0026608696
0.00013461539 0.0071194028 -0.019643478
-0.015211538 -0.0041641793 -0.019104348
-0.0012115384 0.0071194028 -0.027191304
-0.012519231 -0.0089999996 -0.022608696
0.013596154 0.0079253735 -0.023147827
0.0060576922 -0.0041641793 -0.0013130435
0.004980769 -0.0076567163 -0.0048173913
-0.013865384 -0.0065820897 -0.013443478
-0.010634615 0.0087313429 -0.00023478261
-0.010903846 -0.0028208955 -0.0013130435
0.013596154 -0.0079253735 -0.0091304351
0.0092884619 -0.0038955223 -0.0013130435
0.0036346153 -0.00013432835 -0.0013130435
0.0036346153 0.0087313429 -0.0013130435
0.013865384 0.0065820897 -0.019643478
-0.013596154 -0.0079253735 -0.023417391
0.0095576923 -0.003358209 -0.0013130435
0.0014807692 0.0073880595 -0.012365217
0.011173077 0.0087313429 -0.010208695
0.010634615 0.0073880595 -0.00050434784
-0.010096154 -0.0073880595 -0.0010434783
0.014673077 0.00013432835 -0.025573913
0.0052499999 0.0087313429 -0.0015826087
0.0012115384 0.0052388059 -0.027730435
-0.0025576924 0.0044328356 -0.027730435
0.010903846 -0.0014776119 -0.0013130435
0.0076730768 -0.0079253735 -0.010478261
0.0095576923 -0.008462687 -0.023147827
-0.014134616 -0.0047014924 -0.020721739
-0.0071346154 0.0079253735 -0.0091304351
0.0068653845 0.0081940303 -0.022878261
0.014673077 -0.00013432835 -0.0088608693
-0.014134616 0.0049701491 -0.017217392
0.0055192309 -0.0076567163 -0.0010434783
0.0090192305 0.008462687 -0.023417391
-0.004980769 0.002283582 -0.028000001
-0.015211538 0.0047014924 -0.021530434
-0.00067307689 -0.00013432835 -0.028000001
-0.0012115384 -0.0071194028 -0.010478261
0.011173077 -0.0087313429 -0.016678261
-0.0084807696 0.0089999996 -0.0013130435
-0.0022884614 0.00013432835 -0.0013130435
-0.014673077 -0.0012089552 -0.016139131
0.014673077 0.0012089552 -0.026113043
0.0055192309 0.0063134329 -0.027730435
0.0025576924 -0.0065820897 -0.0013130435
0.0068653845 0.0038955223 -0.0013130435
-0.013596154 -0.0071194028 -0.0048173913
-0.014673077 -0.00013432835 -0.014252174
-0.010365385 0.008462687 -0.024765218
-0.014942308 -0.002283582 -0.011286956
0.00875 0.008462687 -0.02233913
0.0017500001 -0.0071194028 -0.024226086
-0.011442307 -0.0030895523 -0.027730435
0.0092884619 0.008462687 -0.025304347
0.0076730768 -0.0079253735 -0.0021217391
-0.0095576923 0.00067164178 -0.0013130435
0.0068653845 0.0081940303 -0.011826087
0.003096154 0.0076567163 -0.013173913
-0.013596154 -0.0073880595 -0.023956522
0.0025576924 0.0073880595 -0.017486956
0.013865384 0.0065820897 -0.013982609
-0.0041730767 -0.0076567163 -0.022878261
0.0036346153 0.0079253735 -0.0015826087
0.0020192307 0.0044328356 -0.028000001
0.014942308 -0.0047014924 -0.010208695
-0.00875 -0.0073880595 -0.027730435
-0.010903846 0.0073880595 -0.00077391305
0.0074038464 0.0081940303 -0.015869565
-0.013865384 -0.008462687 -0.025843479
0.0041730767 0.0076567163 -0.018026087
0.010634615 0.0087313429 -0.016678261
-0.010903846 -0.0087313429 -0.02233913
-0.011442307 -0.0055074627 -0.0013130435
-0.010365385 -0.008462687 -0.008052174
-0.0047115386 -0.0079253735 -0.014521739
-0.012788462 -0.008462687 -0.0013130435
0.0060576922 0.0079253735 -0.024495652
-0.014673077 0.00040298508 -0.022878261
-0.014942308 -0.00067164178 -0.027191304
0.004980769 0.0076567163 -0.0091304351
-0.013596154 0.0079253735 -0.0021217391
0.013865384 0.0068507465 -0.018295651
0.014673077 -0.00067164178 -0.0050869565
-0.013865384 -0.0057761194 -0.019913044
-0.00875 0.0081940303 -0.020452173
0.0052499999 -0.00013432835 -0.028000001
0.0063269231 0.0079253735 -0.023147827
-0.015211538 0.0041641793 -0.0085913045
-0.010096154 -0.008462687 -0.0048173913
0.012788462 0.0055074627 -0.0013130435
0.00067307689 0.0087313429 -0.0015826087
0.0060576922 0.0079253735 -0.011017391
-0.0039038463 -0.0073880595 -0.004547826
0.012519231 -0.0087313429 -0.0099391304
-0.010903846 -0.008462687 -0.0042782607
0.0071346154 0.0081940303 -0.017756522
-0.00875 -0.00040298508 -0.028000001
0.014942308 0.002283582 -0.012365217
-0.0068653845 -0.0079253735 -0.0056260871
-0.013865384 -0.0057761194 -0.0029304349
-0.0012115384 -0.0073880595 -0.021260869
0.0036346153 0.0076567163 -0.025034783
0.010634615 0.0087313429 -0.020991305
-0.0017500001 0.0025522388 -0.028000001
0.0071346154 -0.0073880595 -0.00023478261
-0.014942308 0.0036268656 -0.018834783
0.0025576924 -0.0073880595 -0.019104348
0.004980769 -0.0076567163 -0.019643478
0.0098269228 0.00094029849 -0.028000001
0.011442307 -0.0087313429 -0.016408695
-0.0063269231 0.0079253735 -0.0064347824
-0.015211538 0.0012089552 -0.026652174
-0.012788462 -0.0028208955 -0.0013130435
0.0074038464 -0.0081940303 -0.00023478261
-0.010903846 0.003358209 -0.0013130435
-0.0084807696 -0.008462687 -0.00023478261
0.0052499999 0.002283582 -0.028000001
-0.014673077 0.0049701491 -0.019373912
-0.0047115386 -0.0076567163 -0.0050869565
0.013865384 -0.0055074627 -0.014791304
0.004980769 -0.0076567163 -0.0058956523
0.011711539 -0.0087313429 -0.016947826
-0.014673077 0.00040298508 -0.0096695656
-0.0060576922 -0.0079253735 -0.017486956
0.0022884614 0.0073880595 -0.0048173913
-0.013326923 0.0089999996 -0.0088608693
0.013865384 -0.0049701491 -0.0056260871
-0.00875 -0.0081940303 -0.0075130435
0.011711539 -0.0087313429 -0.0091304351
0.00013461539 0.0071194028 -0.0099391304
0.0076730768 0.0081940303 -0.0040086955
0.00013461539 0.008462687 -0.0013130435
-0.0074038464 0.0081940303 -0.014791304
-0.014942308 0.0036268656 -0.017486956
-0.0044423076 0.0076567163 -0.023417391
0.013596154 -0.0076567163 -0.012365217
0.014942308 0.0028208955 -0.019104348
-0.014673077 -0.0014776119 -0.025573913
-0.0017500001 -0.0073880595 -0.012634783
0.00013461539 0.0071194028 -0.008052174
0.0082115382 0.0065820897 -0.0013130435
-0.014673077 -0.00013432835 -0.023417391
-0.013865384 0.0065820897 -0.0013130435
-0.015480769 -0.0065820897 -0.0013130435
-0.011173077 0.0081940303 -0.00050434784
0.0044423076 0.0076567163 -0.02692174
-0.013596154 0.0071194028 -0.015869565
-0.0041730767 -0.0063134329 -0.0013130435
-0.0052499999 -0.0076567163 -0.011286956
-0.013865384 -0.0049701491 -0.017486956
-0.0017500001 0.0073880595 -0.0013130435
-0.0055192309 0.0038955223 -0.0013130435
0.00067307689 0.0014776119 -0.028000001
-0.015211538 0.0044328356 -0.0021217391
0.013596154 0.0081940303 -0.027460869
0.010634615 -0.008462687 -0.015869565
-0.0090192305 -0.0049701491 -0.0013130435
0.014942308 -0.0028208955 -0.02692174
0.012788462 0.0073880595 -0.027460869
0.011442307 -0.0087313429 -0.022069566
0.014942308 -0.002283582 -0.0064347824
-0.013057692 0.0089999996 -0.014252174
-0.011711539 -0.0089999996 -0.012634783
-0.010903846 0.008462687 -0.0091304351
-0.015211538 -0.0038955223 -0.024495652
-0.0020192307 0.0071194028 -0.026113043
0.014942308 -0.0052388059 -0.0013130435
0.014673077 -0.0049701491 -0.018565217
-0.014942308 0.0030895523 -0.020452173
-0.0071346154 0.0081940303 -0.0013130435
0.0065961541 0.0081940303 -0.013982609
-0.011711539 0.0076567163 -0.027460869
0.012519231 -0.0020149255 -0.0013130435
0.014403846 0.0057761194 -0.0013130435
0.0084807696 -0.0063134329 -0.027460869
-0.010903846 0.0020149255 -0.0013130435
0.014673077 0.00013432835 -0.024495652
0.0090192305 0.008462687 -0.025573913
0.014942308 -0.0030895523 -0.013713043
0.0076730768 -0.002283582 -0.028000001
0.014403846 -0.0047014924 -0.0067043477
0.0074038464 0.0081940303 -0.019104348
0.013865384 -0.0063134329 -0.022608696
-0.013865384 -0.0063134329 -0.0040086955
0.0014807692 0.0073880595 -0.016678261
-0.013596154 -0.0087313429 -0.014252174
0.013865384 0.0057761194 -0.023956522
-0.0060576922 -0.0079253735 -0.011556522
-0.013057692 -0.00067164178 -0.027730435
0.014942308 0.0036268656 -0.016947826
-0.013596154 -0.008462687 -0.013443478
-0.0044423076 -0.0076567163 -0.02692174
-0.0090192305 0.0081940303 -0.024765218
-0.0044423076 -0.0076567163 -0.012095653
-0.013865384 0.0055074627 -0.0083217388
-0.013596154 0.0079253735 -0.0015826087
-0.012788462 0.0087313429 -0.008052174
0.0041730767 -0.0076567163 -0.022069566
-0.010903846 0.0087313429 -0.022608696
0.014942308 0.0028208955 -0.0093999999
-0.013326923 -0.0060447762 -0.0013130435
0.014673077 0.0014776119 -0.017486956
0.0020192307 0.0076567163 -0.0013130435
0.0044423076 -0.0057761194 -0.0013130435
-0.0033653846 -0.008462687 -0.0013130435
0.013865384 -0.0055074627 -0.017217392
-0.014942308 0.0030895523 -0.0040086955
-0.014673077 0.0049701491 -0.01506087
0.013596154 -0.008462687 -0.02018261
0.0020192307 -0.0073880595 -0.020452173
-0.014942308 0.0047014924 -0.0083217388
-0.0022884614 -0.0030895523 -0.028000001
-0.0052499999 0.00013432835 -0.028000001
0.0074038464 -0.0047014924 -0.027730435
0.014673077 -0.0047014924 -0.0013130435
0.014942308 0.0017462687 -0.0050869565
0.0017500001 0.0073880595 -0.016947826
0.0055192309 0.0079253735 -0.02692174
0.0041730767 0.0076567163 -0.0021217391
0.0020192307 -0.0063134329 -0.0013130435
0.013865384 -0.0055074627 -0.010747826
0.0095576923 0.008462687 -0.012095653
0.015211538 0.0044328356 -0.020452173
-0.014134616 0.0038955223 -0.0013130435
0.013865384 -0.0063134329 -0.016678261
-0.0084807696 0.0089999996 -0.00023478261
-0.013865384 -0.0057761194 -0.014252174
-0.013057692 -0.0087313429 -0.0091304351
0.011980769 -0.0087313429 -0.0069739129
-0.014942308 0.0036268656 -0.022608696
0.0076730768 -0.0044328356 -0.0013130435
-0.011442307 0.0087313429 -0.0056260871
0.0022884614 0.0073880595 -0.020991305
-0.010634615 -0.0087313429 -0.024226086
-0.0092884619 -0.0081940303 -0.0042782607
0.0033653846 0.0076567163 -0.027460869
-0.011173077 -0.0087313429 -0.012365217
-0.013865384 0.0063134329 -0.021530434
-0.0084807696 -0.008462687 -0.014521739
0.0055192309 0.0079253735 -0.0061652176
-0.0039038463 0.0076567163 -0.0064347824
-0.014942308 0.003358209 -0.0075130435
0.013596154 -0.0071194028 -0.008052174
-0.0098269228 0.008462687 -0.0085913045
-0.015211538 0.0020149255 -0.024495652
0.014673077 -0.0012089552 -0.018295651
0.013596154 -0.0087313429 -0.024765218
0.00875 0.0065820897 -0.027730435
0.013057692 0.00067164178 -0.0013130435
-0.013865384 -0.0065820897 -0.0077826087
-0.0014807692 0.0071194028 -0.027191304
-0.0090192305 -0.0020149255 -0.028000001
-0.0041730767 0.003358209 -0.0013130435
-0.00875 -0.0065820897 -0.0013130435
0.0012115384 0.0073880595 -0.023956522
-0.0092884619 0.0081940303 -0.0091304351
-0.011442307 -0.0081940303 -0.0010434783
0.00067307689 0.0079253735 -0.0015826087
0.014673077 -0.0047014924 -0.0058956523
0.0095576923 -0.0081940303 -0.011556522
-0.014134616 -0.0047014924 -0.0048173913
-0.013596154 0.008462687 -0.011286956
-0.00040384615 -0.003358209 -0.0013130435
0.013865384 -0.0052388059 -0.025843479
-0.0079423077 -0.00040298508 -0.028000001
-0.013057692 -0.0089999996 -0.010208695
0.013057692 -0.0089999996 -0.01506087
0.0082115382 -0.003358209 -0.0013130435
-0.013057692 0.0089999996 -0.0061652176
-0.00013461539 -0.00013432835 -0.0013130435
0.0084807696 -0.0060447762 -0.027730435
0.0025576924 -0.0073880595 -0.0015826087
0.014673077 0.00094029849 -0.021260869
0.014673077 -0.0012089552 -0.0067043477
-0.0098269228 0.008462687 -0.019104348
-0.0063269231 -0.0079253735 -0.012904348
-0.0079423077 0.0081940303 -0.0091304351
-0.0076730768 0.0047014924 -0.027730435
0.0036346153 0.0076567163 -0.021260869
-0.0068653845 0.0079253735 -0.025573913
-0.014134616 0.0049701491 -0.025304347
-0.0060576922 -0.0076567163 -0.0018521739
-0.013865384 -0.0057761194 -0.0093999999
0.0039038463 0.0041641793 -0.0013130435
0.015211538 -0.0041641793 -0.0021217391
-0.0020192307 0.0073880595 -0.017486956
-0.013057692 -0.0089999996 -0.020721739
0.0076730768 -0.0079253735 -0.0018521739
0.013865384 -0.0068507465 -0.012634783
-0.014673077 0.00013432835 -0.013982609
-0.004980769 0.0076567163 -0.0075130435
0.013865384 -0.0060447762 -0.016678261
-0.011980769 0.0087313429 -0.016408695
0.0044423076 -0.0052388059 -0.027730435
0.0071346154 0.00040298508 -0.028000001
0.015211538 0.0047014924 -0.012634783
-0.01225 -0.0049701491 -0.0013130435
0.0076730768 0.0081940303 -0.025034783
0.0082115382 -0.0081940303 -0.023956522
-0.0060576922 -0.0079253735 -0.010208695
-0.0060576922 -0.00040298508 -0.028000001
0.010365385 0.008462687 -0.0077826087
-0.012788462 -0.0089999996 -0.020991305
-0.0092884619 -0.008462687 -0.024226086
0.013596154 -0.0073880595 -0.0026608696
0.0017500001 -0.0030895523 -0.028000001
0.0082115382 0.0076567163 -0.00023478261
-0.0041730767 0.0073880595 -0.011017391
0.014403846 -0.0049701491 -0.027191304
0.014673077 0.00067164178 -0.0061652176
-0.010365385 -0.0012089552 -0.028000001
-0.014942308 0.00040298508 -0.025843479
-0.013326923 -0.0089999996 -0.025034783
0.0009423077 0.0089999996 -0.0013130435
-0.011442307 0.0071194028 -0.027460869
0.0095576923 -0.0081940303 -0.0061652176
-0.013326923 0.008462687 -0.0013130435
0.0068653845 0.0079253735 -0.0040086955
-0.010903846 -0.008462687 -0.0093999999
0.014673077 0.00013432835 -0.018295651
-0.011711539 0.0068507465 -0.027460869
-0.00067307689 0.0071194028 -0.0026608696
0.013865384 -0.0057761194 -0.0018521739
-0.0065961541 -0.0038955223 -0.028000001
0.014942308 0.0025522388 -0.0093999999
-0.010365385 0.008462687 -0.02018261
0.012788462 0.0089999996 -0.0050869565
-0.0074038464 -0.0081940303 -0.02018261
0.013326923 0.0089999996 -0.018026087
0.0009423077 0.0060447762 -0.0013130435
-0.011173077 0.008462687 -0.024226086
0.00875 -0.0038955223 -0.027730435
-0.014134616 -0.0047014924 -0.018026087
0.0036346153 0.0076567163 -0.013713043
0.0063269231 0.0079253735 -0.022878261
-0.014673077 0.0012089552 -0.0072434782
-0.0017500001 -0.0073880595 -0.020721739
0.0017500001 -0.0073880595 -0.0013130435
-0.013596154 0.008462687 -0.016139131
0.0057884618 0.0079253735 -0.010747826
-0.00067307689 -0.0071194028 -0.0013130435
0.0060576922 0.0041641793 -0.0013130435
-0.015211538 0.0047014924 -0.01506087
0.011980769 -0.0087313429 -0.018026087
-0.0014807692 -0.002283582 -0.028000001
0.0033653846 0.0076567163 -0.019373912
-0.014673077 -0.00067164178 -0.0037391305
0.0092884619 0.008462687 -0.012634783
-0.0041730767 -0.00040298508 -0.0013130435
0.0074038464 0.0081940303 -0.0156
-0.014673077 0.00067164178 -0.0069739129
-0.0025576924 0.0071194028 -0.0085913045
-0.015211538 0.0047014924 -0.016947826
-0.013057692 -0.0089999996 -0.02233913
0.0036346153 -0.0076567163 -0.012904348
0.0084807696 0.008462687 -0.025843479
0.012519231 -0.0089999996 -0.017486956
-0.0060576922 0.00013432835 -0.0013130435
-0.011173077 0.0025522388 -0.028000001
-0.012519231 -0.0089999996 -0.0099391304
0.0014807692 0.0020149255 -0.028000001
-0.0057884618 -0.002283582 -0.028000001
-0.002826923 -0.0017462687 -0.0013130435
-0.014673077 0.00013432835 -0.0029304349
0.0009423077 0.0049701491 -0.0013130435
-0.013057692 -0.0087313429 -0.0053565218
-0.011173077 -0.008462687 -0.004547826
-0.0057884618 -0.0079253735 -0.014521739
0.0071346154 0.0055074627 -0.0013130435
0.0084807696 0.0081940303 -0.0031999999
0.0039038463 0.0076567163 -0.0156
-0.014673077 -0.00094029849 -0.0099391304
0.010365385 -0.008462687 -0.011017391
-0.014673077 -0.00094029849 -0.015330435
-0.0022884614 0.003358209 -0.0013130435
0.010634615 -0.0052388059 -0.0013130435
0.0033653846 -0.0073880595 -0.013173913
0.0022884614 0.00094029849 -0.028000001
-0.0076730768 0.0068507465 -0.027460869
-0.010096154 -0.008462687 -0.010478261
0.014673077 0.0012089552 -0.0018521739
-0.013865384 0.0052388059 -0.0053565218
0.0047115386 -0.0076567163 -0.014521739
-0.013865384 0.0060447762 -0.019643478
-0.014403846 -0.0044328356 -0.027460869
0.0079423077 0.0030895523 -0.0013130435
-0.0022884614 -0.0041641793 -0.028000001
-0.0098269228 0.008462687 -0.0031999999
-0.0071346154 0.0079253735 -0.018834783
-0.0065961541 0.0079253735 -0.027460869
0.0076730768 -0.0079253735 -0.0050869565
-0.0009423077 -0.0020149255 -0.028000001
0.013596154 0.0079253735 -0.025304347
0.014942308 -0.0017462687 -0.0029304349
-0.0055192309 0.00067164178 -0.028000001
-0.014942308 -0.0028208955 -0.019104348
0.013596154 0.0089999996 -0.017486956
-0.014673077 -0.00040298508 -0.023956522
-0.0060576922 -0.0076567163 -0.0085913045
-0.0055192309 -0.0063134329 -0.027730435
0.0052499999 -0.002283582 -0.0013130435
0.003096154 0.0073880595 -0.0056260871
-0.013057692 0.0087313429 -0.0031999999
0.0065961541 -0.0079253735 -0.011556522
0.014942308 -0.0025522388 -0.018026087
0.0047115386 0.0079253735 -0.023417391
-0.012519231 0.0087313429 -0.025843479
0.013596154 0.008462687 -0.022608696
-0.013596154 0.0081940303 -0.018026087
0.002826923 -0.0073880595 -0.016947826
-0.010903846 0.0014776119 -0.0013130435
0.015211538 0.0038955223 -0.02018261
0.014673077 -0.00040298508 -0.0048173913
0.0039038463 -0.0076567163 -0.024765218
0.013865384 0.0065820897 -0.011826087
-0.013596154 0.0079253735 -0.018565217
-0.014942308 -0.003358209 -0.017217392
-0.014942308 -0.0017462687 -0.013443478
-0.013596154 0.0073880595 -0.0099391304
-0.0039038463 -0.0076567163 -0.019104348
0.013865384 0.0065820897 -0.016678261
0.002826923 -0.0073880595 -0.02692174
-0.0082115382 -0.008462687 -0.021530434
-0.0095576923 0.0071194028 -0.00050434784
-0.010096154 -0.0087313429 -0.019913044
0.014942308 -0.0030895523 -0.027191304
0.00875 0.003358209 -0.0013130435
0.0039038463 -0.0073880595 -0.0026608696
-0.0095576923 -0.0041641793 -0.028000001
-0.013596154 0.0071194028 -0.0050869565
-0.015211538 -0.0041641793 -0.0075130435
-0.0071346154 0.0079253735 -0.012095653
-0.013596154 0.0087313429 -0.0218
0.0017500001 0.0073880595 -0.025843479
