# .PCD v0.7 - Point Cloud Data file format
VERSION 0.7
FIELDS x y z
SIZE 4 4 4
TYPE F F F
COUNT 1 1 1
WIDTH 1273
HEIGHT 1
VIEWPOINT 0 0 0 1 0 0 0
POINTS 1273
DATA ascii
-0.00012676057 0.0017234043 -0.010872727
0.0035492957 0.003 -0.0056545455
-0.0062112678 0.0017234043 -0.010745455
-0.0074788732 0.00019148937 -0.00018181818
-0.004690141 6.3829786e-05 -0.010872727
-0.0032957746 -0.0013404256 -0.010872727
0.00012676057 -0.003 -0.0022181817
-0.0081126764 -0.0028723404 -0.007818182
-0.0015211267 -0.003 -0.0092181815
0.0089999996 0.0014680851 -0.0052727275
-0.0081126764 -0.0022340426 -0.010745455
0.0088732392 0.0027446807 -0.0083272727
0.0087464787 0.0028723404 -0.0013272727
0.0088732392 -0.0026170213 -0.0071818181
0.0063380282 -0.003 -0.0074363635
-0.0073521128 0.003 -0.0096000005
0.0072253523 -0.00095744681 -0.00056363636
0.0089999996 -0.0017234043 -0.0093454542
-0.0079859151 0.0028723404 -0.0040000002
0.0087464787 0.0028723404 -0.0038727273
0.0063380282 0.00095744681 -0.010872727
0.0024084507 -0.003 -0.0069272728
-0.0072253523 0.003 -0.0090909088
-0.0089999996 0.00095744681 -0.0085818181
0.0073521128 0.003 -0.0089636361
0.0050704223 -0.003 -0.0012000001
-0.004690141 0.003 -0.0070545455
-0.0015211267 -0.003 -0.006418182
0.0053239437 0.003 -0.00030909092
0.0086197183 -0.0028723404 -0.0087090908
0.0043098591 0.00057446811 -0.010872727
-0.0012676056 0.003 -0.0089636361
0.005830986 -0.003 -0.0010727273
-0.0022816902 -0.003 -0.0096000005
0.0089999996 -0.0010851064 -0.0056545455
0.0027887323 0.0019787233 -0.00056363636
0.0040563382 0.003 -0.0089636361
-0.0057042255 -0.0022340426 -0.00056363636
0.0086197183 -0.0028723404 -0.0029818183
0.0030422534 -0.003 -0.0029818183
0.0013943661 -0.0010851064 -0.010872727
-0.0089999996 -6.3829786e-05 -0.0040000002
0.004690141 -0.0026170213 -0.00030909092
0.0089999996 0.0013404256 -0.0060363635
0.0038028168 -0.003 -0.0085818181
0.0089999996 -0.0010851064 -0.0020909091
-0.0081126764 -0.0027446807 -0.00056363636
-0.0086197183 -0.0019787233 -0.010745455
-0.0041830987 0.003 -0.010363637
0.0040563382 -0.0017234043 -0.010745455
-0.0083661973 0.0028723404 -0.0096000005
-0.00012676057 -0.003 -0.0097272731
0.0044366196 -0.003 -0.0052727275
-0.0089999996 -0.0018510638 -0.0073090908
0.006971831 6.3829786e-05 -0.00043636363
0.0022816902 -0.003 -0.0088363634
-0.0021549296 0.0015957446 -0.00056363636
-0.0024084507 -0.003 -0.0017090909
-0.0011408451 0.00070212764 -0.010872727
0.0053239437 0.0026170213 -0.00018181818
-0.0089999996 0.00019148937 -0.0096000005
0.0082394369 -6.3829786e-05 -0.00056363636
0.0025352112 0.003 -0.0087090908
0.0089999996 -6.3829786e-05 -0.0066727274
-0.0079859151 0.0028723404 -0.0037454546
-0.0016478873 -0.003 -0.0006909091
-0.0024084507 0.003 -0.0087090908
0.0089999996 -0.00044680852 -0.0024727273
-0.0034225353 0.003 -0.0047636363
-0.0089999996 -0.0014680851 -0.0020909091
-0.00038028168 0.003 -0.0090909088
0.0027887323 -0.003 -0.0047636363
-0.0089999996 -6.3829786e-05 -0.010745455
0.00038028168 -0.003 -0.0036181819
-0.0025352112 -0.003 -0.0057818182
0.006971831 0.003 -0.0033636363
0.0032957746 0.00044680852 -0.00056363636
-0.0026619718 -0.0027446807 -0.010745455
-0.0024084507 0.0015957446 -0.010745455
0.0026619718 -0.0024893617 -0.010745455
-0.0076056337 -0.0010851064 -0.00056363636
-0.0054507041 -0.0024893617 -0.00043636363
-0.004690141 -0.003 -0.0070545455
0.0020281691 0.0012127659 -0.010872727
-0.0024084507 0.003 -0.006418182
-0.004690141 -0.003 -0.0083272727
0.00038028168 -0.0026170213 -0.010745455
-0.0089999996 0.0019787233 -0.010363637
-0.0022816902 0.003 -0.0099818185
0.0057042255 0.003 -0.0062909089
0.0036760564 0.0028723404 -5.4545453e-05
0.0089999996 -0.00095744681 -0.0099818185
0.0019014084 -0.002106383 -0.00056363636
0.0043098591 -0.003 -0.0084545454
-0.0087464787 0.0027446807 -0.0070545455
0.0089999996 -0.0015957446 -0.0006909091
-0.00025352114 0.003 -0.0010727273
-0.0026619718 0.00019148937 -0.00056363636
0.0073521128 0.00019148937 0.00032727272
0.0017746479 -0.0022340426 -0.00056363636
-0.0024084507 -0.0026170213 -0.010745455
0.0059577464 0.0017234043 -0.010872727
-0.0062112678 -0.003 -0.0057818182
-0.0022816902 0.003 -0.0024727273
0.0089999996 -0.0022340426 -0.0023454546
0.0089999996 0.0019787233 -0.0029818183
0.0064647887 -0.0028723404 -0.00056363636
0.0050704223 0.003 -0.0045090909
0.0016478873 0.003 -0.006418182
-0.0050704223 0.0026170213 -0.00030909092
-0.0063380282 -0.0018510638 -0.00056363636
-0.0039295773 0.003 -0.0084545454
0.0034225353 0.003 -0.0052727275
-0.0017746479 0.003 -0.0083272727
0.0060845069 -0.0024893617 -0.00030909092
0.0089999996 -6.3829786e-05 -0.0054000001
-0.0089999996 -0.002106383 -0.010490909
-0.0088732392 0.0026170213 -0.0093454542
-0.0048169014 0.003 -0.0088363634
0.0019014084 -0.003 -0.006418182
-0.0070985914 -0.003 -0.0019636364
-0.0057042255 -0.003 -0.00043636363
-0.0053239437 -0.003 -0.0043818182
-0.0024084507 0.003 -0.0090909088
0.0089999996 -0.0018510638 -0.0020909091
-0.00038028168 0.00044680852 -0.00056363636
0.0081126764 0.003 -0.0099818185
0.0083661973 -0.00031914894 -0.00056363636
-0.0077323942 0.0017234043 -0.00056363636
0.0089999996 -0.00031914894 -0.0019636364
-0.0068450705 0.003 -0.0079454547
0.004690141 -0.003 -0.010109091
-0.0089999996 0.0012127659 -0.0080727274
0.0062112678 -0.002106383 -0.00056363636
-0.0062112678 0.003 -0.0084545454
-0.0072253523 -0.003 -0.0043818182
0.0089999996 -0.00095744681 -0.0056545455
-0.0078591546 -0.0013404256 -0.00056363636
0.0015211267 -0.003 -0.0045090909
0.0054507041 0.003 -0.0094727268
0.0067183101 0.003 -0.0076909093
-0.0043098591 -0.003 -0.0037454546
0.00088732393 0.0010851064 -0.010872727
-0.0040563382 -0.003 -0.0093454542
0.0073521128 -0.002106383 -0.00056363636
-0.0073521128 -0.003 -0.0076909093
0.0084929578 0.0028723404 -0.0032363636
-0.00088732393 -0.003 -0.0037454546
-0.005830986 0.002106383 -0.010745455
0.0060845069 -0.003 -0.00081818184
-0.0084929578 -0.0028723404 -0.0090909088
0.0041830987 -0.00070212764 -0.00056363636
0.0089999996 -0.00057446811 -0.0050181816
0.0062112678 0.0026170213 -0.00030909092
-0.0077323942 6.3829786e-05 0.0026181818
0.0072253523 -6.3829786e-05 0.00058181817
0.0089999996 -0.0013404256 -0.0022181817
-0.0032957746 0.003 -0.0083272727
-0.0054507041 -0.003 -0.00043636363
0.0013943661 0.003 -0.0032363636
0.0089999996 -0.0017234043 -0.0075636362
-0.0063380282 0.003 -0.0080727274
0.0082394369 0.0028723404 -0.0018363637
-0.0039295773 0.002361702 -0.00056363636
0.0030422534 0.0019787233 -0.00056363636
0.0089999996 0.0018510638 -0.0046363636
-0.0041830987 -0.003 -0.0084545454
-0.00088732393 -0.0027446807 -0.00056363636
0.0079859151 0.0028723404 -0.00056363636
0.0060845069 -0.003 -0.0026
-0.0039295773 -0.00095744681 -0.010872727
0.0084929578 -0.0028723404 -0.0089636361
-0.0027887323 -0.003 -0.0071818181
-0.00038028168 -0.00031914894 -0.00056363636
0.0011408451 0.003 -0.0012000001
0.0020281691 0.003 -0.0059090909
-0.0081126764 0.0019787233 -0.00056363636
0.0062112678 -0.003 -0.006418182
0.0034225353 -0.003 -0.0046363636
-0.0043098591 0.003 -0.0029818183
-0.0035492957 0.0028723404 -0.00043636363
-0.0063380282 0.003 -0.010363637
-0.0011408451 0.003 -0.0060363635
0.0089999996 -0.0010851064 -0.0040000002
0.0072253523 -0.0024893617 -0.00056363636
0.0070985914 0.003 -0.0036181819
0.0064647887 0.003 -0.0020909091
-0.0010140846 0.003 -0.0075636362
0.00012676057 -0.003 -0.0014545454
-0.0074788732 0.00031914894 -0.010872727
-0.0034225353 -0.003 -0.010490909
0.0020281691 0.0024893617 -0.010745455
-0.0072253523 0.002106383 -0.00056363636
-0.0068450705 0.00082978723 -0.010745455
0.00076056336 -0.003 -0.0068000001
0.0053239437 0.003 -0.00018181818
-0.0017746479 0.003 -0.0047636363
0.0079859151 0.0027446807 -0.00056363636
-0.0045633805 0.003 -0.0024727273
-0.00063380279 0.003 -0.0075636362
0.0032957746 -0.003 -0.0042545456
0.0068450705 -0.003 -0.0060363635
-0.0031690141 -0.003 -0.0076909093
-0.0040563382 -0.0024893617 -0.00043636363
-0.0087464787 0.0027446807 -0.0006909091
-0.0089999996 0.00031914894 -0.0096000005
-0.0010140846 0.003 -0.003490909
-0.0089999996 -0.0018510638 -0.0050181816
0.0089999996 -0.0019787233 -0.0017090909
0.0089999996 -0.0010851064 -0.0006909091
0.0036760564 -0.0018510638 -0.00056363636
0.0043098591 -0.003 -0.0059090909
-0.0076056337 -0.002361702 -0.00056363636
0.0062112678 -0.003 -0.0057818182
-0.0044366196 -0.003 -0.0038727273
0.0068450705 -0.003 -0.0099818185
0.0031690141 -0.00095744681 -0.010872727
0.0089999996 -0.0012127659 -0.0050181816
-0.0074788732 0.00019148937 0.0017272728
-0.00038028168 0.0019787233 -0.00056363636
-0.0043098591 -0.0026170213 -0.00018181818
-0.0057042255 -0.00095744681 -0.010872727
0.0045633805 0.0026170213 -0.010745455
0.0063380282 -0.00019148937 -0.00056363636
-0.0078591546 -0.0022340426 -0.010745455
-0.0089999996 0.0014680851 -0.0017090909
0.0039295773 0.003 -0.0094727268
-0.0022816902 -0.00031914894 -0.00056363636
-0.006971831 0.003 -0.0012000001
-0.0034225353 -0.00095744681 -0.00056363636
-0.0041830987 0.00082978723 -0.010745455
-0.0036760564 0.003 -0.0006909091
-0.0089999996 -0.00070212764 -0.0041272729
-0.0055774646 0.003 -0.003109091
-0.00063380279 0.0018510638 -0.010872727
0.00025352114 -0.003 -0.006418182
0.0036760564 -0.003 -0.0022181817
-0.0070985914 -0.0017234043 -0.00056363636
0.0021549296 -0.003 -0.004890909
-0.0040563382 0.003 -0.0068000001
-0.0089999996 -0.0017234043 -0.0090909088
-0.0086197183 0.0028723404 -0.0057818182
0.0084929578 0.00095744681 -0.010745455
0.0022816902 -0.003 -0.0097272731
0.0089999996 0.00031914894 -0.0012000001
-0.0089999996 -0.0012127659 -0.0089636361
0.0084929578 0.003 -0.010363637
-0.004690141 0.003 -0.0085818181
0.0026619718 -0.003 -0.0032363636
-0.0088732392 -0.0027446807 -0.0080727274
0.0038028168 0.003 -0.0098545458
-0.0089999996 0.0019787233 -0.0075636362
-0.0089999996 0.00019148937 -0.007818182
-0.0064647887 0.003 -0.0061636362
-0.0013943661 0.003 -0.0050181816
0.0045633805 -0.003 -0.0043818182
0.0089999996 -0.00057446811 -0.0056545455
-0.0036760564 0.00044680852 -0.010872727
-0.00050704228 0.0010851064 -0.00056363636
-0.0089999996 0.0015957446 -0.0075636362
0.0072253523 0.003 -0.0038727273
-0.002915493 0.003 -0.0010727273
-0.0081126764 -0.002106383 -0.00056363636
-0.006971831 -0.003 -0.0055272728
-0.006971831 0.0024893617 -0.00056363636
0.0016478873 -0.003 -0.00081818184
0.0089999996 0.0012127659 -0.0033636363
0.0016478873 0.003 -0.0099818185
-0.0059577464 -0.003 -0.0010727273
-0.0081126764 0.0028723404 -0.0050181816
-0.0035492957 -0.003 -0.010236364
-0.0089999996 0.0024893617 -0.0020909091
-0.0086197183 -0.0028723404 -0.0083272727
-0.0067183101 0.003 -0.0041272729
0.0065915491 0.003 -0.0066727274
-0.00025352114 0.0026170213 -0.010745455
0.0081126764 -0.003 -0.0056545455
-0.00038028168 -0.003 -0.006418182
-0.0070985914 -0.003 -0.0045090909
-0.00038028168 -0.003 -0.0052727275
0.0081126764 -0.0017234043 -0.010745455
-0.00050704228 0.003 -0.003109091
-0.00012676057 -0.003 -0.0094727268
-0.0079859151 0.0028723404 -0.0099818185
-0.0020281691 0.003 -0.003490909
-0.0065915491 -0.0010851064 -0.010872727
-0.006971831 0.00070212764 -0.010745455
0.0068450705 -0.00044680852 -0.00056363636
-0.0040563382 0.003 -0.0059090909
-0.0022816902 0.003 -0.0093454542
0.0064647887 -0.003 -0.0068000001
-0.0088732392 0.00082978723 -0.00056363636
0.0089999996 0.0022340426 -0.0015818182
-0.0062112678 0.0013404256 -0.010745455
-0.0067183101 -0.003 -0.0096000005
0.00038028168 -0.003 -0.0013272727
0.0063380282 -0.00070212764 -0.00056363636
0.0030422534 -0.00057446811 -0.00056363636
0.00025352114 -0.003 -0.0052727275
0.0074788732 0.00019148937 0.0024909091
0.0036760564 0.003 -0.0043818182
-0.0088732392 -0.0027446807 -0.0040000002
-0.0086197183 -0.0028723404 -0.0082
0.00025352114 -0.003 -0.0006909091
-0.0035492957 0.00070212764 -0.010745455
-0.00038028168 0.003 -0.0032363636
0.0032957746 -0.002361702 -0.010745455
0.0089999996 -0.0013404256 -0.0024727273
-0.0016478873 0.003 -0.0087090908
-0.0086197183 -0.0028723404 -0.0051454543
0.0050704223 -0.003 -0.0083272727
-0.0087464787 -0.0027446807 -0.0027272727
-0.0021549296 0.00031914894 -0.00056363636
-0.0039295773 0.0024893617 -0.00043636363
0.0035492957 -0.003 -0.0085818181
-0.0089999996 0.00082978723 -0.0088363634
0.0031690141 -0.003 -0.0056545455
0.00076056336 0.0018510638 -0.00056363636
0.0062112678 0.003 -0.0045090909
-0.0040563382 0.00044680852 -0.00056363636
-0.0060845069 0.0014680851 -0.00056363636
-0.0089999996 6.3829786e-05 -0.0026
0.0074788732 0.00019148937 0.0017272728
0.0089999996 -0.0014680851 -0.0015818182
0 0.00019148937 -0.00056363636
-0.0089999996 -0.0022340426 -0.006418182
-0.0089999996 0.00095744681 -0.0061636362
-0.0040563382 0.003 -0.0026
0.0089999996 -0.002106383 -0.0057818182
-0.0064647887 -0.003 -0.0023454546
0.0035492957 -0.0012127659 -0.00056363636
0.0088732392 0.00082978723 -0.0006909091
0.0089999996 0.00095744681 -0.0019636364
-0.0012676056 0.003 -0.00056363636
-0.0089999996 -6.3829786e-05 -0.004890909
-0.004690141 0.003 -0.0079454547
0.0064647887 -0.0027446807 -0.010618182
0.0057042255 -0.003 -0.0020909091
-0.006971831 0.003 -0.0013272727
0.0025352112 0.003 -0.0075636362
0.0039295773 -0.00095744681 -0.010745455
0.0087464787 -0.0027446807 -0.0066727274
0.0084929578 0.003 -0.0046363636
-0.0022816902 -6.3829786e-05 -0.010872727
0.0039295773 -0.00044680852 -0.010872727
0.0045633805 -0.003 -0.00081818184
0.0089999996 -0.002106383 -0.003109091
0.0049436619 -0.0017234043 -0.010745455
-0.00012676057 0.003 -0.0017090909
0.00076056336 0.003 -0.0012000001
-0.0025352112 -0.003 -0.00081818184
0.0010140846 0.00044680852 -0.010872727
0.0035492957 -0.003 -0.0050181816
-0.0030422534 0.00082978723 -0.00056363636
0.0089999996 -0.0013404256 -0.0096000005
0.0060845069 -0.003 -0.0080727274
0.0034225353 0.003 -0.0033636363
0.0027887323 -0.0026170213 -0.00056363636
-0.0048169014 0.003 -0.010363637
-0.0022816902 6.3829786e-05 -0.00056363636
0.0045633805 0.003 -0.0098545458
0.00012676057 0.003 -0.0092181815
-0.0022816902 0.0018510638 -0.00056363636
-0.0024084507 -0.003 -0.0056545455
-0.0044366196 -0.003 -0.0074363635
0.0089999996 -0.002361702 -0.0066727274
-0.0031690141 0.003 -0.0087090908
0.0017746479 -0.0027446807 -0.010745455
0.004690141 -0.00031914894 -0.00056363636
-0.0074788732 0.003 -0.0054000001
-0.0083661973 0.0026170213 -0.00056363636
-0.0059577464 -0.00031914894 -0.010872727
-0.0053239437 -0.0026170213 -0.010745455
0.0055774646 0.003 -0.0010727273
0.0060845069 -0.003 -0.0088363634
0.0084929578 -0.0028723404 -0.0066727274
-0.0089999996 -0.0012127659 -0.007818182
-0.0089999996 -0.0022340426 -0.0013272727
-0.0012676056 0.003 -0.0029818183
-0.0073521128 -0.0028723404 -0.00056363636
-0.0079859151 0.0026170213 -0.010745455
0.0059577464 0.003 -0.006418182
0.0089999996 -0.00044680852 -0.003109091
-0.0041830987 0.003 -0.0052727275
-0.005830986 -0.003 -0.0040000002
0.0089999996 0.0013404256 -0.0066727274
0.0079859151 0.0012127659 -0.010745455
-0.0079859151 -0.0028723404 -0.0042545456
-0.0024084507 0.003 -0.00081818184
-0.0063380282 0.003 -0.0043818182
0.0089999996 0.00070212764 -0.0079454547
0 -0.003 -0.0022181817
0.0089999996 0.0019787233 -0.0047636363
-0.00012676057 0.003 -0.0098545458
0.0021549296 0.003 -0.0050181816
-0.0041830987 0.003 -0.0074363635
-0.00050704228 0.0018510638 -0.010872727
0.0088732392 -0.0026170213 -0.0046363636
-0.0059577464 0.003 -0.0096000005
-0.0038028168 0.003 -0.0023454546
0.004690141 0.003 -0.0022181817
0.005830986 0.0018510638 -0.00056363636
0.0013943661 -0.00044680852 -0.010872727
-0.0025352112 0.003 -0.0051454543
-0.0034225353 -0.00031914894 -0.00056363636
0.0089999996 0.0017234043 -0.0015818182
0.0015211267 0.003 -0.0099818185
-0.0088732392 0.0026170213 -0.0043818182
0.0024084507 -0.003 -0.0019636364
-0.0021549296 0.0018510638 -0.010745455
0.0089999996 -0.002361702 -0.0074363635
-0.0089999996 -0.0010851064 -0.003490909
0.0063380282 -0.003 -0.0022181817
0.005830986 0.002361702 -0.010872727
-0.0063380282 -0.003 -0.0097272731
-0.0089999996 -0.002106383 -0.00081818184
-0.00012676057 0.003 -0.0088363634
-0.0064647887 0.00031914894 -0.00056363636
0.0020281691 0.003 -0.004890909
-0.0070985914 -0.003 -0.0040000002
-0.00038028168 -0.0017234043 -0.010872727
0.0089999996 -0.0013404256 -0.0070545455
0.0074788732 0.00031914894 0.0023636364
-0.0039295773 0.003 -0.0018363637
-0.0079859151 -0.0028723404 -0.010745455
0.0082394369 6.3829786e-05 -0.010745455
0.0089999996 0.0014680851 -0.0006909091
0.0013943661 -0.003 -0.0020909091
-0.0089999996 0.0024893617 -0.003490909
0.0053239437 -0.003 -0.00094545452
0.0089999996 0.0013404256 -0.0071818181
-0.0089999996 0.0014680851 -0.0038727273
-0.00050704228 -0.003 -0.0052727275
-0.0081126764 -0.00031914894 -0.010745455
-0.0010140846 0.003 -0.0080727274
-0.0057042255 -0.0028723404 -0.010745455
0.0016478873 0.00082978723 -0.00056363636
0.0089999996 -0.00082978723 -0.0099818185
-0.0055774646 -0.0017234043 -0.010872727
0.0026619718 0.003 -0.0060363635
-0.0070985914 0.003 -0.0059090909
0.0060845069 0.003 -0.0075636362
0.0089999996 0.002361702 -0.0014545454
-0.0057042255 -0.003 -0.0096000005
0.00076056336 -0.00057446811 -0.010872727
0.0038028168 0.003 -0.0074363635
-0.005830986 -0.003 -0.0045090909
0.0081126764 0.003 -0.0066727274
0.0054507041 0.0028723404 -0.00018181818
0.0067183101 0.0015957446 -0.00056363636
-0.0051971832 0.00044680852 -0.010745455
-0.0013943661 0.003 -0.010363637
-0.0054507041 -0.003 -0.0019636364
0.006971831 0.003 -0.0023454546
0.00050704228 0.003 -0.010363637
0.00012676057 -0.00044680852 -0.010872727
-0.0019014084 -0.003 -0.0037454546
-0.0019014084 -0.003 -0.010109091
0.0049436619 -0.003 -0.010618182
0.0081126764 0.003 -0.010363637
-0.0026619718 0.003 -0.0087090908
0.0041830987 0.003 -0.010109091
0.0057042255 -0.003 -0.0042545456
0.0072253523 -0.003 -0.0022181817
0.0068450705 -0.003 -0.0080727274
-0.0043098591 0.003 -0.004890909
0.0044366196 0.003 -0.0097272731
0.0062112678 0.003 -0.0096000005
0.0062112678 -0.003 -0.0056545455
0.00025352114 0.003 -0.0033636363
0.0051971832 -0.003 -0.0094727268
-0.0059577464 -0.003 -0.0088363634
-0.0089999996 -0.0012127659 -0.0051454543
0.0040563382 0.003 -0.0046363636
0.0017746479 0.003 -0.0028545454
0.0076056337 -0.0015957446 -0.00056363636
-0.0016478873 0.003 -0.0052727275
-0.0088732392 0.0026170213 -0.0084545454
-0.0063380282 -0.003 -0.0015818182
0.0082394369 -0.003 -0.0089636361
-0.0045633805 0.003 -0.0051454543
0.0044366196 0.003 -0.0093454542
0.0076056337 0.0014680851 -0.00056363636
0.0084929578 0.00070212764 -0.010745455
-0.0087464787 -0.00019148937 -0.0006909091
-0.0089999996 0.0017234043 -0.0097272731
0.0076056337 -0.00019148937 0.0013454546
-0.0054507041 0.0026170213 -0.00018181818
0.00012676057 0.003 -0.0055272728
-0.0015211267 0.0019787233 -0.010745455
-0.0019014084 -0.003 -0.0059090909
0.0062112678 -0.0014680851 -0.010745455
0.0034225353 -0.003 -0.0073090908
-0.0020281691 0.003 -0.0050181816
0.00063380279 -0.003 -0.0014545454
0.0083661973 0.003 -0.0079454547
0.0089999996 -0.0015957446 -0.0055272728
0.0024084507 -0.003 -0.0083272727
0.0025352112 -0.0010851064 -0.00056363636
0.0079859151 -0.003 -0.0082
-0.0011408451 0.0015957446 -0.010872727
0.0016478873 0.0027446807 -0.00056363636
-0.0089999996 -0.0026170213 -0.010618182
-0.0072253523 -0.00019148937 -0.00018181818
-0.0076056337 0.003 -0.0032363636
0.0088732392 -0.0026170213 -0.0017090909
0.0054507041 -0.003 -0.0029818183
-0.0015211267 0.0010851064 -0.00056363636
-0.0055774646 -0.0026170213 -5.4545453e-05
0.0076056337 0.003 -0.00081818184
0.0089999996 -0.00095744681 -0.0029818183
-0.0089999996 -0.00044680852 -0.0010727273
0.004690141 -0.003 -0.0047636363
0.0034225353 -0.002106383 -0.010745455
0.0019014084 -0.003 -0.0080727274
-0.0044366196 -0.003 -0.003109091
-0.0010140846 0.003 -0.0040000002
-0.0044366196 0.003 -0.0055272728
0.0060845069 -0.0026170213 -0.010618182
-0.0041830987 -0.0013404256 -0.00056363636
-0.0086197183 -0.0028723404 -0.0043818182
0.0027887323 -0.003 -0.010618182
0.00025352114 0.00095744681 -0.010872727
-0.0022816902 0.003 -0.0054000001
-0.0070985914 0.0019787233 -0.010745455
-0.0013943661 0.003 -0.0090909088
-0.0068450705 0.002361702 -0.010745455
0.0078591546 0.003 -0.0006909091
0.0050704223 0.003 -0.0010727273
-0.0044366196 0.003 -0.0097272731
0.0074788732 0.00019148937 0.0028727273
0.0074788732 -0.003 -0.0046363636
0.0076056337 -0.00070212764 -0.010745455
-0.0035492957 -0.0017234043 -0.00056363636
0.0035492957 -0.003 -0.0012000001
0.00012676057 -0.0014680851 -0.00056363636
-0.0012676056 0.003 -0.0094727268
0.0078591546 -0.003 -0.0073090908
0.0053239437 0.0012127659 -0.010872727
-0.0057042255 -0.003 -0.0042545456
-0.0073521128 0.00057446811 -0.00056363636
0.0084929578 0.003 -0.0068000001
-0.0082394369 0.0019787233 -0.010745455
0.0089999996 -0.00095744681 -0.0006909091
-0.00038028168 -0.0017234043 -0.00056363636
-0.0032957746 -0.0017234043 -0.00056363636
0.006971831 0.003 -0.0084545454
0.0084929578 0.003 -0.0097272731
-0.0010140846 0.00044680852 -0.010872727
0.0048169014 0.003 -0.0029818183
0.0089999996 -0.00070212764 -0.0033636363
0.0088732392 0.0024893617 -0.00081818184
0.0035492957 -0.003 -0.00043636363
-0.0089999996 6.3829786e-05 -0.010236364
0.0089999996 -0.00070212764 -0.0013272727
-0.0019014084 -0.00019148937 -0.010872727
-0.0021549296 0.003 -0.0092181815
0.0012676056 0.003 -0.0029818183
-0.0089999996 6.3829786e-05 -0.0062909089
0.0089999996 0.002361702 -0.0097272731
-0.005830986 0.00019148937 -0.00056363636
0.0016478873 0.002106383 -0.010745455
-0.0067183101 0.00070212764 -0.010872727
0 0.0014680851 -0.00056363636
-0.0068450705 -0.003 -0.0040000002
-0.0035492957 -0.003 -0.0062909089
-0.0088732392 -0.0027446807 -0.0032363636
0.0010140846 0.003 -0.0090909088
0.0079859151 0.003 -0.0006909091
-0.0040563382 0.00044680852 -0.010872727
-0.0065915491 6.3829786e-05 -0.010872727
-0.0020281691 -0.0028723404 -0.00056363636
0.0078591546 -0.00070212764 -0.00056363636
-0.0043098591 0.003 -0.0028545454
-0.0021549296 0.00095744681 -0.010872727
-0.0089999996 -0.0010851064 -0.0079454547
0.0015211267 -0.003 -0.0015818182
-0.0089999996 -0.00019148937 -0.0088363634
0.0011408451 -0.003 -0.0082
0.0016478873 0.003 -0.00081818184
0.0031690141 -0.0018510638 -0.00056363636
0.002915493 -0.002361702 -0.010745455
-0.0044366196 -0.003 -0.0093454542
-0.0039295773 -0.003 -0.0045090909
-0.0078591546 -0.00082978723 -0.00056363636
0.005830986 0.0013404256 -0.010872727
0.0038028168 0.003 -0.0022181817
0.00038028168 -0.003 -0.010109091
0.0082394369 -0.0028723404 -0.0092181815
0.0086197183 0.0028723404 -0.0047636363
-0.0032957746 -0.0018510638 -0.010872727
0.002915493 -0.0013404256 -0.00056363636
0.0049436619 0.003 -0.010363637
0.0041830987 0.003 -0.0096000005
0.002915493 0.0014680851 -0.00056363636
-0.0032957746 0.003 -0.0010727273
-0.00025352114 0.003 -0.0075636362
0.0039295773 -0.003 -0.0036181819
-0.0062112678 0.003 -0.0080727274
-0.0017746479 0.00070212764 -0.00056363636
-0.0044366196 0.003 -0.003109091
-0.0088732392 0.0026170213 -0.0075636362
0.0050704223 0.003 -0.0020909091
0.0067183101 -0.00031914894 -0.00056363636
0.0089999996 0.00082978723 -0.0045090909
-0.0010140846 0.003 -0.0073090908
-0.0089999996 0.0026170213 -0.0020909091
0.0041830987 -0.003 -0.0087090908
0.00038028168 -0.0010851064 -0.010872727
0.00050704228 -0.0014680851 -0.010872727
0.0043098591 -0.003 -0.0023454546
-0.0059577464 0.003 -0.0029818183
-0.0059577464 -0.003 -0.0099818185
-0.0012676056 0.003 -0.0090909088
-0.0010140846 0.003 -0.0089636361
0.0086197183 0.0028723404 -0.0076909093
0.0068450705 0.0018510638 -0.010872727
-0.0027887323 -0.003 -0.010109091
-0.0068450705 -0.003 -0.006418182
-0.0089999996 -0.00057446811 -0.0089636361
0.0078591546 -0.003 -0.0071818181
0.0011408451 0.003 -0.010363637
-0.0081126764 -0.0028723404 -0.0074363635
0.0045633805 0.003 -0.010618182
-0.0013943661 0.00095744681 -0.00056363636
0.0089999996 -0.0014680851 -0.0055272728
-0.0088732392 0.0027446807 -0.0036181819
-0.0072253523 -0.003 -0.0089636361
0.00063380279 0.00019148937 -0.010872727
0.0059577464 -0.003 -0.0052727275
0.0022816902 0.003 -0.0028545454
0.0035492957 0.003 -0.010490909
0.0057042255 -0.003 -0.0010727273
0.0087464787 0.0028723404 -0.006418182
-0.0017746479 -0.003 -0.00081818184
-0.0051971832 0.003 -0.0056545455
0.0045633805 -0.0028723404 -0.010618182
-0.0088732392 0.0027446807 -0.0056545455
0.0044366196 0.003 -0.0037454546
-0.0017746479 0.0022340426 -0.00056363636
0.0089999996 -0.00095744681 -0.0023454546
0.0016478873 -0.003 -0.0080727274
0.0050704223 -0.003 -0.010490909
0.0089999996 0.002106383 -0.0068000001
-0.00088732393 -0.003 -0.0020909091
0.0057042255 0.003 -0.0074363635
0.0089999996 -0.00095744681 -0.010490909
-0.00012676057 0.003 -0.0089636361
-0.0089999996 -0.00082978723 -0.0023454546
0.0089999996 -0.00019148937 -0.0062909089
-0.0049436619 -0.003 -0.007818182
0.0089999996 0.00082978723 -0.0074363635
-0.0074788732 0.00019148937 0.00083636364
-0.0024084507 -0.003 -0.0073090908
0.0059577464 0.003 -0.0065454547
0.0051971832 -0.003 -0.00056363636
0.0089999996 0.0017234043 -0.0012000001
-0.0089999996 0.0019787233 -0.0065454547
0 0.0018510638 -0.010872727
-0.0010140846 0.003 -0.0010727273
-0.0073521128 0.0022340426 -0.010745455
-0.0074788732 -0.003 -0.0051454543
0.0076056337 -0.0028723404 -0.010618182
0.0057042255 -0.0022340426 -0.00056363636
-0.0089999996 0.00031914894 -0.0061636362
-0.0059577464 0.0014680851 -0.00056363636
-0.0024084507 -0.003 -0.0026
-0.0013943661 0.003 -0.0013272727
-0.0089999996 -0.0022340426 -0.0057818182
-0.0035492957 -0.0026170213 -0.00030909092
0.0011408451 0.003 -0.0041272729
0.0011408451 -0.003 -0.0023454546
0.0055774646 0.003 -0.0013272727
0.0041830987 0.0022340426 -0.010745455
0.0078591546 -0.003 -0.0047636363
0 0.0017234043 -0.00056363636
0.0036760564 0.003 -0.0015818182
0.0022816902 -0.00070212764 -0.010872727
0.0048169014 -0.003 -0.0017090909
0.0064647887 0.0012127659 -0.00056363636
-0.0025352112 -0.003 -0.010109091
-0.0038028168 -0.003 -0.0026
0.0022816902 0.002106383 -0.010745455
0 0.003 -0.0069272728
-0.0077323942 0.003 -0.0019636364
0.0072253523 -0.003 -0.0089636361
0.0055774646 0.003 -0.0046363636
0.0057042255 0.003 -0.0082
-0.0087464787 0.0027446807 -0.0085818181
0.0083661973 0.003 -0.0084545454
-0.0082394369 -0.0024893617 -0.010745455
-0.0089999996 0.00057446811 -0.003109091
-0.0054507041 -0.003 -0.0012000001
-0.0065915491 0.003 -0.0087090908
0.0073521128 0.00031914894 0.0016
0.0043098591 -0.003 -0.010490909
0.0089999996 0.0012127659 -0.0006909091
-0.0076056337 0.003 -0.010109091
-0.0055774646 -0.003 -0.0014545454
0.0044366196 -0.0018510638 -0.00056363636
0.0068450705 -0.002361702 -0.00056363636
0.0057042255 0.003 -0.0032363636
-0.0083661973 -0.0028723404 -0.0010727273
-0.0045633805 -0.0013404256 -0.010872727
0.0060845069 0.0010851064 -0.010872727
0.0067183101 -0.0024893617 -0.010745455
0.005830986 -0.003 -0.004890909
0.0026619718 0.003 -0.0054000001
-0.0032957746 0.003 -0.0066727274
0.00025352114 -6.3829786e-05 -0.00056363636
-0.0030422534 -0.003 -0.0023454546
-0.0088732392 -0.0010851064 -0.0006909091
-0.0081126764 -0.0028723404 -0.0083272727
0.0089999996 0.00082978723 -0.010236364
0.0035492957 0.003 -0.0083272727
0.00063380279 0.0018510638 -0.010745455
-0.0013943661 0.003 -0.0097272731
-0.0031690141 0.003 -0.0097272731
0.0073521128 -0.003 -0.007818182
-0.0020281691 -0.003 -0.010618182
-0.0021549296 0.0013404256 -0.010872727
-0.0043098591 -0.003 -0.0089636361
-0.0076056337 -0.00019148937 0.0014727273
-0.0025352112 -0.003 -0.0054000001
-0.00076056336 -0.003 -0.010490909
-0.0055774646 0.00019148937 -0.00056363636
-0.0060845069 6.3829786e-05 -0.010745455
0.0082394369 0.003 -0.0040000002
-0.0089999996 -0.0022340426 -0.0059090909
0.004690141 0.0022340426 -0.00056363636
0.0034225353 0.0014680851 -0.010872727
0.0043098591 -0.003 -0.0032363636
-0.0089999996 -0.002106383 -0.0065454547
-0.0073521128 0.0019787233 -0.010745455
0.0048169014 -0.003 -0.0068000001
-0.0034225353 -0.003 -0.0060363635
0.0078591546 0.003 -0.0054000001
-0.0034225353 0.0010851064 -0.010745455
0.00076056336 -0.003 -0.0056545455
-0.0010140846 -0.003 -0.0055272728
-0.0076056337 -0.003 -0.0096000005
-0.0076056337 0.00019148937 0.0016
0.0082394369 0.0013404256 -0.00056363636
0.0089999996 6.3829786e-05 -0.0012000001
-0.00025352114 -0.003 -0.0026
0.0065915491 -0.003 -0.00094545452
0.0038028168 -0.003 -0.0027272727
0.0015211267 0.00057446811 -0.010872727
0.0040563382 0.003 -0.0018363637
0.0054507041 0.0024893617 -0.00043636363
0.0030422534 0.003 -0.0054000001
0.0053239437 -0.0013404256 -0.010745455
0.0077323942 -0.00019148937 0.00058181817
0.00063380279 0.0015957446 -0.010872727
0.0089999996 -0.0019787233 -0.0045090909
0.0051971832 0.003 -0.0097272731
0.0048169014 0.00019148937 -0.00056363636
0.002915493 0.003 -0.0015818182
-0.0011408451 -0.003 -0.0010727273
-0.0027887323 0.003 -0.0045090909
0.0084929578 -0.00070212764 -0.010745455
-0.0016478873 0.0015957446 -0.00056363636
-0.0089999996 0.0018510638 -0.0022181817
0.0054507041 0.0013404256 -0.00056363636
0.0072253523 0.003 -0.010109091
0.00050704228 0.003 -0.0013272727
0.0043098591 -0.003 -0.0029818183
0.0081126764 -0.002106383 -0.010745455
0.0072253523 -0.003 -0.0066727274
0.0013943661 0.003 -0.0075636362
0.0055774646 -0.003 -0.0094727268
-0.00076056336 -0.0017234043 -0.00056363636
0.0089999996 0.0018510638 -0.0010727273
-0.0016478873 0.003 -0.010236364
0.0038028168 -0.003 -0.010618182
-0.004690141 -0.00082978723 -0.00056363636
-0.0011408451 0.003 -0.0014545454
0.0089999996 0.00070212764 -0.0052727275
-0.0074788732 -0.003 -0.0062909089
0.0019014084 -0.003 -0.0040000002
0.0041830987 0.003 -0.0054000001
0.0025352112 -0.003 -0.0092181815
0.002915493 0.002106383 -0.00056363636
-0.0089999996 0.002361702 -0.0043818182
-0.0063380282 -0.0028723404 -0.010618182
-0.00012676057 -0.003 -0.0092181815
0.0079859151 0.00044680852 -0.00056363636
-0.0079859151 -0.0019787233 -0.00056363636
0.0020281691 0.003 -0.0075636362
-0.0036760564 -0.003 -0.0099818185
0.0089999996 0.002106383 -0.0046363636
-0.0048169014 -0.003 -0.0033636363
-0.0070985914 0.003 -0.0090909088
0.0089999996 -0.00070212764 -0.0098545458
0.0057042255 -0.0018510638 -0.00056363636
-0.0073521128 -0.003 -0.0094727268
-0.0051971832 -0.003 -0.0033636363
-0.0043098591 0.003 -0.0006909091
0.0019014084 -0.003 -0.00056363636
0.0060845069 -0.003 -0.0096000005
0.0053239437 -0.0024893617 -0.00030909092
0.0074788732 -0.003 -0.0047636363
0.0049436619 0.003 -0.00094545452
-0.0012676056 -0.003 -0.0079454547
0.0087464787 6.3829786e-05 -0.010745455
0.0089999996 -0.0015957446 -0.0087090908
-0.0087464787 -0.00044680852 -0.0006909091
-0.0034225353 0.003 -0.0006909091
-0.0034225353 -6.3829786e-05 -0.010872727
-0.0057042255 0.0019787233 -0.010745455
-0.0089999996 0.00095744681 -0.0041272729
-0.00088732393 -0.0027446807 -0.010745455
0.0024084507 -0.0014680851 -0.010872727
0.0010140846 0.003 -0.0038727273
-0.00012676057 0.003 -0.0032363636
-0.0025352112 -0.0027446807 -0.00056363636
-0.0034225353 0.003 -0.0052727275
0.0049436619 -0.00070212764 -0.00056363636
0.0041830987 -0.0028723404 -0.00018181818
0.0025352112 0.00031914894 -0.00056363636
-0.00025352114 0.0019787233 -0.00056363636
-0.0049436619 -0.003 -0.0098545458
0.0048169014 0.003 -0.006418182
0.0050704223 0.003 -0.0074363635
0.0089999996 0.00057446811 -0.0052727275
0.0088732392 0.0027446807 -0.0042545456
-0.0089999996 -0.0019787233 -0.010109091
0.0089999996 0.00057446811 -0.0060363635
-0.0063380282 -0.003 -0.0018363637
0.004690141 -0.0027446807 -0.010745455
-0.0034225353 -0.003 -0.0083272727
-0.0019014084 -0.003 -0.0047636363
0.0036760564 0.00095744681 -0.00056363636
-0.0044366196 -0.003 -0.0068000001
-0.00088732393 -0.0014680851 -0.00056363636
-0.0074788732 0.003 -0.0024727273
-0.0053239437 -0.003 -0.0059090909
0.0067183101 -0.0019787233 -0.00056363636
-0.0039295773 -0.003 -0.0060363635
0.0020281691 -0.0019787233 -0.00056363636
-0.0036760564 0.003 -0.010363637
0.0015211267 -0.00095744681 -0.010872727
-0.0081126764 0.0028723404 -0.0071818181
-0.00050704228 0.003 -0.010490909
0.0060845069 0.003 -0.0023454546
-0.00038028168 0.003 -0.0014545454
0.0084929578 0.003 -0.0037454546
-0.005830986 0.0017234043 -0.00056363636
-0.0086197183 -0.00082978723 -0.010745455
0.0049436619 -0.003 -0.0052727275
-0.0087464787 -0.002361702 -0.010745455
-0.0089999996 6.3829786e-05 -0.0040000002
0.0025352112 -0.003 -0.0056545455
-0.0012676056 0.003 -0.0054000001
0.0089999996 0.0010851064 -0.0046363636
-0.00063380279 -0.003 -0.0046363636
-0.0050704223 -0.0027446807 -0.010745455
0.0082394369 0.00031914894 -0.010745455
-0.0053239437 0.003 -0.0026
-0.0032957746 0.003 -0.0098545458
-0.00050704228 0.003 -0.0075636362
-0.0044366196 0.00082978723 -0.00056363636
0.0089999996 0.00031914894 -0.0050181816
-0.0088732392 -0.0027446807 -0.0084545454
0.0035492957 -0.0015957446 -0.010745455
-0.00050704228 0.003 -0.0071818181
0.0027887323 0.003 -0.0013272727
-0.00025352114 0.003 -0.0042545456
0.0077323942 -0.002106383 -0.00056363636
0.0087464787 -0.0026170213 -0.0006909091
0.002915493 -0.003 -0.0041272729
0.0077323942 -6.3829786e-05 0.0021090908
0.0089999996 -0.00019148937 -0.00056363636
0.0025352112 0.003 -0.0047636363
-0.0045633805 -0.003 -0.0069272728
0.0087464787 0.00019148937 -0.010745455
0.004690141 -0.0028723404 -0.00018181818
-0.0017746479 -0.003 -0.0054000001
-0.0068450705 0.0017234043 -0.010745455
-0.0048169014 -0.003 -0.0038727273
-0.005830986 0.003 -0.0032363636
0.0043098591 0.003 -0.00056363636
-0.0057042255 -0.002361702 -0.00043636363
0.0053239437 -0.003 -0.0062909089
0.0089999996 0.00070212764 -0.0070545455
-0.0049436619 -0.003 -0.0022181817
0.0072253523 0.00019148937 0.0026181818
0.0027887323 0.002361702 -0.010745455
-0.0074788732 0.003 -0.0038727273
0.0015211267 -0.0019787233 -0.010745455
-0.00050704228 0.003 -0.0040000002
-0.0012676056 -0.0015957446 -0.010872727
-0.0034225353 -0.0028723404 -0.010618182
0.0040563382 0.003 -0.007818182
0.0060845069 0.0019787233 -0.00056363636
0.0049436619 -0.003 -0.0006909091
-0.0074788732 0.003 -0.0056545455
-0.00088732393 0.003 -0.0085818181
-0.0089999996 -0.0015957446 -0.0059090909
0.0089999996 -0.00044680852 -0.0028545454
0.0054507041 -0.003 -0.0071818181
-0.0070985914 0.0017234043 -0.010745455
0.0083661973 0.003 -0.0056545455
0.0065915491 -0.003 -0.0026
-0.0027887323 -0.003 -0.003490909
-0.00088732393 0.003 -0.0027272727
-0.0034225353 -0.0022340426 -0.00056363636
0.0089999996 -0.00044680852 -0.0066727274
0.0089999996 -0.0015957446 -0.0079454547
-0.0038028168 -0.003 -0.0097272731
-0.0040563382 -0.0026170213 -0.00018181818
0.0088732392 0.0027446807 -0.0017090909
0.0017746479 -0.0019787233 -0.00056363636
0.0022816902 -0.0024893617 -0.010745455
0.0045633805 0.003 -0.0075636362
0.0035492957 0.003 -0.0093454542
-0.0012676056 0.003 -0.0098545458
-0.00088732393 0.003 -0.0033636363
-0.0031690141 -0.0014680851 -0.010872727
-0.0036760564 -0.0012127659 -0.010872727
-0.004690141 -0.003 -0.0032363636
-0.0041830987 -0.003 -0.010363637
0.0034225353 0.003 -0.0074363635
-0.0034225353 -0.003 -0.0074363635
-0.0013943661 0.003 -0.0041272729
-0.0086197183 -0.0028723404 -0.0057818182
0.0043098591 -0.00044680852 -0.010872727
0.0044366196 0.00044680852 -0.00056363636
-0.0036760564 -0.003 -0.0093454542
-0.0084929578 0.0027446807 -0.0006909091
-0.0022816902 0.0012127659 -0.010872727
-0.00076056336 0.003 -0.0032363636
0.0060845069 0.0010851064 -0.00056363636
0.0044366196 0.0027446807 -0.010745455
-0.0089999996 -0.0014680851 -0.0055272728
0.00050704228 -0.003 -0.0027272727
-0.0089999996 -0.0013404256 -0.010490909
0.0089999996 0.0022340426 -0.0012000001
0.0030422534 0.003 -0.0056545455
0.0016478873 -0.003 -0.0068000001
-0.0089999996 -0.0013404256 -0.004890909
-0.0068450705 0.003 -0.0024727273
-0.0038028168 -0.0019787233 -0.00056363636
-0.0089999996 -0.0024893617 -0.0082
-0.0089999996 0.00082978723 -0.010236364
-0.0064647887 0.003 -0.0068000001
0.0027887323 -0.003 -0.0043818182
-0.0034225353 6.3829786e-05 -0.010872727
-0.0054507041 0.003 -0.0050181816
-0.00050704228 -0.003 -0.0070545455
-0.002915493 -0.003 -0.0088363634
0.0054507041 0.003 -0.0027272727
0.0065915491 -0.00031914894 -0.010872727
0.0026619718 0.003 -0.0085818181
-0.0019014084 -0.003 -0.0096000005
-0.0013943661 -0.00057446811 -0.010872727
0.00038028168 -0.002361702 -0.010745455
-0.0050704223 0.003 -0.00056363636
-0.0020281691 -0.003 -0.0054000001
0.00012676057 -0.002106383 -0.00056363636
0.00012676057 0.0013404256 -0.00056363636
-0.00076056336 -0.003 -0.0071818181
-0.0076056337 0.00044680852 -0.00043636363
-0.0022816902 -0.003 -0.0028545454
-0.0012676056 0.0013404256 -0.00056363636
0.0045633805 0.00031914894 -0.00056363636
0.004690141 0.003 -0.0012000001
-0.0041830987 0.003 -0.0070545455
-0.0055774646 6.3829786e-05 -0.010872727
-0.0089999996 0.0014680851 -0.0023454546
-0.0039295773 0.00082978723 -0.010745455
-0.0012676056 0.003 -0.0079454547
-0.004690141 -0.0010851064 -0.010872727
0.0089999996 0.00070212764 -0.004890909
0.0089999996 0.0012127659 -0.0097272731
-0.0031690141 -0.003 -0.0022181817
-0.0017746479 0.003 -0.0084545454
0.0081126764 -0.00082978723 -0.00056363636
-0.0089999996 -0.0015957446 -0.0024727273
0.0063380282 0.002361702 -0.010745455
-0.0060845069 6.3829786e-05 -0.00056363636
0.0089999996 -0.00095744681 -0.0018363637
0.0011408451 0.003 -0.0050181816
0.0082394369 -0.0028723404 -0.010490909
0.0079859151 -0.003 -0.0088363634
0.0089999996 0.002106383 -0.0045090909
0.0079859151 0.0028723404 -0.0027272727
0.0063380282 -0.003 -0.0066727274
-0.0026619718 0.003 -0.0012000001
0.0021549296 -0.003 -0.0040000002
0.0084929578 0.002106383 -0.010745455
0.0021549296 -0.0022340426 -0.010745455
-0.005830986 -0.003 -0.0096000005
-0.0015211267 0.00044680852 -0.010872727
-0.0067183101 -0.003 -0.0013272727
0.0048169014 0.00019148937 -0.010872727
0.0016478873 0.0014680851 -0.010872727
-0.0074788732 -0.002361702 -0.00056363636
0.0077323942 -0.0026170213 -0.00056363636
-0.0084929578 -0.0028723404 -0.0040000002
-0.0048169014 0.0026170213 -0.010745455
0.0034225353 0.003 -0.003490909
0.00063380279 -0.003 -0.0054000001
-0.0015211267 -0.003 -0.0022181817
0.0089999996 -0.0022340426 -0.0068000001
0.0087464787 0.0028723404 -0.0029818183
0.0089999996 0.0024893617 -0.0097272731
0.0055774646 -0.002361702 -0.010745455
-0.0088732392 0.0027446807 -0.0052727275
0 -0.0013404256 -0.010872727
0.00038028168 -0.003 -0.0038727273
0.0089999996 -0.0015957446 -0.00081818184
0.0051971832 0.003 -0.0045090909
0.0054507041 0.003 -0.0017090909
0.0011408451 -6.3829786e-05 -0.00056363636
0.0054507041 0.003 -0.0065454547
0.0040563382 0.0013404256 -0.010872727
0.0026619718 -0.003 -0.0045090909
0.0024084507 0.0027446807 -0.00056363636
0.0073521128 -0.003 -0.0061636362
0.0043098591 -0.003 -0.0071818181
0.0089999996 0.00057446811 -0.0065454547
0.0059577464 -0.003 -0.0075636362
0.005830986 -0.003 -0.0036181819
0.0020281691 -0.0013404256 -0.00056363636
-0.0089999996 0.0014680851 -0.0082
-0.0059577464 -0.003 -0.0076909093
0.005830986 0.003 -0.0018363637
-0.0081126764 -0.0028723404 -0.0037454546
0.0089999996 -0.0022340426 -0.0069272728
0.0074788732 0.00019148937 0.00070909091
-0.0065915491 -0.0028723404 -0.010745455
-0.00038028168 0.003 -0.0061636362
0.0063380282 0.003 -0.0029818183
-0.0089999996 -0.0019787233 -0.0066727274
0.0039295773 -0.003 -0.010618182
-0.00025352114 -0.003 -0.0020909091
-0.0070985914 0.003 -0.0037454546
0.0087464787 -0.0027446807 -0.0028545454
0.0015211267 0.003 -0.0024727273
0.00050704228 -0.0013404256 -0.00056363636
0.00088732393 -0.003 -0.0070545455
0.0063380282 0.0019787233 -0.00056363636
0.0070985914 0.003 -0.0096000005
0.0030422534 -0.003 -0.0069272728
0.0059577464 0.003 -0.0090909088
-0.0038028168 0.0018510638 -0.010745455
0.0043098591 0.00070212764 -0.010872727
0.0084929578 0.003 -0.007818182
-0.0034225353 -0.00070212764 -0.00056363636
-0.0048169014 0.003 -0.0093454542
0 0.003 -0.0006909091
-0.00063380279 0.003 -0.0036181819
0.0089999996 0.00070212764 -0.0019636364
-0.0022816902 -0.003 -0.0074363635
0.0078591546 0.003 -0.0074363635
-0.0034225353 0.0014680851 -0.010745455
-0.0025352112 0.003 -0.0060363635
-0.0059577464 0.003 -0.0037454546
0.0032957746 0.003 -0.010109091
0.0063380282 0.003 -0.0093454542
0.0068450705 -0.003 -0.0043818182
-0.0077323942 0.00019148937 0.00019999999
0.0034225353 -0.003 -0.0070545455
0.0024084507 -0.003 -0.0068000001
-0.00088732393 -0.00044680852 -0.00056363636
-0.0035492957 -0.003 -0.0087090908
0.0068450705 -0.0010851064 -0.00056363636
0.006971831 -0.00057446811 -0.00056363636
0.0081126764 0.0024893617 -0.010745455
0.0062112678 0.00070212764 -0.010872727
-0.0078591546 0.0028723404 -0.0093454542
-0.0045633805 -0.00019148937 -0.00056363636
0.00050704228 -0.0018510638 -0.010872727
-0.0077323942 -0.00019148937 0.00070909091
-0.00025352114 -0.003 -0.0066727274
0.0073521128 0.003 -0.0057818182
0.0038028168 0.00095744681 -0.010872727
-0.0021549296 -0.003 -0.0027272727
0.0041830987 -0.0013404256 -0.010745455
-0.0082394369 0.0028723404 -0.0089636361
-0.0030422534 0.003 -0.010236364
-0.0072253523 -0.00031914894 -0.00043636363
0.00050704228 -0.003 -0.004890909
-0.0062112678 -0.0022340426 -0.010872727
-0.002915493 0.003 -0.006418182
-0.0025352112 -0.00057446811 -0.010872727
0.0035492957 0.003 -0.010618182
-0.0074788732 0.003 -0.0052727275
0.0015211267 -0.003 -0.0014545454
-0.0048169014 -0.003 -0.0071818181
0.0083661973 -0.0028723404 -0.0013272727
-0.0074788732 -0.003 -0.0084545454
-0.0016478873 -0.003 -0.010363637
-0.0089999996 0.0024893617 -0.0059090909
0.0064647887 -0.003 -0.0074363635
0.0076056337 -0.003 -0.0029818183
-0.0073521128 -0.00044680852 -0.010872727
-0.0089999996 -0.0012127659 -0.0071818181
0 0.0013404256 -0.00056363636
0.0032957746 -0.003 -0.0055272728
0.0039295773 -0.003 -0.010490909
0.0088732392 0.0027446807 -0.0060363635
0.0068450705 0.003 -0.0057818182
-0.0016478873 0.003 -0.010745455
0.004690141 0.00070212764 -0.010872727
0.0027887323 0.003 -0.0020909091
0.0077323942 6.3829786e-05 0.00019999999
-0.004690141 -0.003 -0.0038727273
-0.0030422534 0.00070212764 -0.00056363636
0.0038028168 0.003 -0.00094545452
-0.0053239437 0.003 -0.0066727274
-0.0089999996 0.0019787233 -0.007818182
0.0089999996 -0.0017234043 -0.0051454543
-0.0035492957 -0.0024893617 -0.010745455
-0.002915493 0.003 -0.0033636363
0.0039295773 -0.00057446811 -0.010745455
-0.0015211267 -0.00019148937 -0.00056363636
0.0067183101 -0.0018510638 -0.00056363636
0.0089999996 -0.00095744681 -0.0045090909
0.0060845069 0.003 -0.0065454547
0.0021549296 -0.00031914894 -0.00056363636
0.0024084507 0.00057446811 -0.010872727
-0.0059577464 -0.002361702 -0.010745455
-0.0089999996 0.0015957446 -0.010745455
-0.0026619718 0.003 -0.0082
0.0078591546 -0.003 -0.0070545455
0.0081126764 -0.0010851064 -0.00056363636
0.0089999996 0.00019148937 -0.003109091
-0.0089999996 -0.00019148937 -0.0042545456
0.0089999996 -0.00031914894 -0.00094545452
-0.0074788732 0.00019148937 0.0016
-0.0073521128 0.003 -0.0033636363
-0.0063380282 -0.003 -0.0013272727
-0.00050704228 -0.003 -0.007818182
-0.0049436619 0.0028723404 -0.00018181818
0.0010140846 -0.0024893617 -0.010745455
0.0054507041 0.003 -0.0084545454
-0.0017746479 -0.003 -0.0023454546
0.0083661973 0.003 -0.0037454546
-0.00038028168 -0.0028723404 -0.010745455
-0.0032957746 -0.0013404256 -0.00056363636
0.0089999996 -0.00082978723 -0.0060363635
0.0065915491 -0.003 -0.0089636361
-0.00012676057 -0.003 -0.0056545455
0.0015211267 0.0018510638 -0.00056363636
-0.002915493 0.0019787233 -0.00056363636
-0.00076056336 -0.003 -0.0075636362
0.0030422534 0.003 -0.004890909
0.0032957746 -0.003 -0.0024727273
-0.0089999996 -0.00095744681 -0.010109091
-0.0082394369 -0.0028723404 -0.0018363637
0.0078591546 -0.00031914894 -0.00056363636
0.0065915491 -0.003 -0.0046363636
-0.0089999996 0.0012127659 -0.0073090908
0.0041830987 0.003 -0.0073090908
-0.0010140846 0.002106383 -0.00056363636
0.0064647887 0.003 -0.010236364
-0.0045633805 0.003 -0.0038727273
0.00076056336 -0.0028723404 -0.010618182
-0.00088732393 -0.003 -0.004890909
-0.0012676056 0.0017234043 -0.00056363636
-0.0064647887 0.00019148937 -0.00056363636
-0.0084929578 -0.0028723404 -0.00094545452
-0.0063380282 0.003 -0.0018363637
-0.0030422534 0.00031914894 -0.010872727
0.0010140846 -6.3829786e-05 -0.00056363636
0.0025352112 0.003 -0.0056545455
-0.0015211267 -0.003 -0.0088363634
0.0087464787 -0.00082978723 -0.010745455
0.0081126764 -0.0022340426 -0.00056363636
0.0012676056 0.003 -0.0038727273
-0.0086197183 0.0028723404 -0.0087090908
-0.0030422534 0.003 -0.0075636362
0.0072253523 -6.3829786e-05 0.00083636364
-0.0030422534 0.003 -0.0019636364
-0.0059577464 -0.003 -0.0017090909
-0.0019014084 0.00019148937 -0.00056363636
0.0030422534 -0.00019148937 -0.00056363636
0.0070985914 0.003 -0.0022181817
0.0034225353 -0.0028723404 -0.010618182
-0.0041830987 0.003 -0.0038727273
0.0079859151 0.0022340426 -0.010745455
-0.0010140846 -0.003 -0.0060363635
0.0031690141 -0.003 -0.0033636363
0.0016478873 -0.003 -0.0066727274
0.0015211267 -0.0018510638 -0.00056363636
0.0089999996 0.0014680851 -0.0096000005
-0.005830986 0.002106383 -0.00056363636
-0.0027887323 -0.003 -0.0040000002
0.0010140846 0.003 -0.0088363634
0.002915493 0.003 -0.0098545458
0.0082394369 -0.003 -0.0059090909
-0.0057042255 -0.003 -0.0075636362
-0.0049436619 -0.003 -0.010109091
-0.0083661973 0.0022340426 -0.010745455
-0.0044366196 -0.00057446811 -0.00056363636
-0.0020281691 -0.00057446811 -0.00056363636
0.0079859151 -0.003 -0.00081818184
0.0024084507 0.003 -0.010618182
-0.0089999996 -0.00019148937 -0.0083272727
0.0015211267 0.003 -0.0015818182
0.0057042255 -0.0010851064 -0.010745455
-0.0053239437 -0.0010851064 -0.010872727
0.0038028168 0.003 -0.0057818182
0.0038028168 0.002361702 -0.010745455
-0.0078591546 0.00070212764 -0.00056363636
-0.0044366196 -0.003 -0.0066727274
0.0065915491 -0.003 -0.0042545456
0.0089999996 0.002106383 -0.0012000001
0.005830986 -0.003 -0.0006909091
0.0089999996 -0.00057446811 -0.0093454542
-0.0017746479 0.003 -0.0038727273
0.0027887323 -0.003 -0.0075636362
-0.0032957746 0.003 -0.0012000001
-0.0079859151 -0.0028723404 -0.0069272728
-0.00012676057 0.00082978723 -0.010872727
0.0087464787 0.0015957446 -0.010745455
0.0012676056 -0.003 -0.0065454547
-0.0025352112 0.003 -0.007818182
0.006971831 0.0024893617 -0.00056363636
-0.0027887323 -0.003 -0.0029818183
-0.0089999996 -0.002361702 -0.0018363637
0.005830986 0.003 -0.0074363635
0.0022816902 0.00031914894 -0.010872727
0.0051971832 0.003 -0.0027272727
-0.0073521128 0.00019148937 0.0023636364
0.0039295773 -0.003 -0.0084545454
0.0039295773 -0.003 -0.0087090908
-0.0060845069 0.0014680851 -0.010745455
0.0053239437 -0.003 -0.0033636363
0.00012676057 0.003 -0.0014545454
-0.0084929578 0.0028723404 -0.0023454546
-0.0086197183 -0.0028723404 -0.0096000005
0.002915493 -0.0014680851 -0.00056363636
0.00012676057 -0.003 -0.0071818181
0.0089999996 0.002361702 -0.0093454542
0.0020281691 0.00095744681 -0.010872727
0.0031690141 0.003 -0.0023454546
-0.00076056336 -0.003 -0.0050181816
-0.0074788732 0.003 -0.003490909
-0.0013943661 -0.003 -0.0020909091
0.0032957746 -0.003 -0.0051454543
0.0089999996 -0.00095744681 -0.0032363636
0.0089999996 -0.00095744681 -0.0097272731
-0.0055774646 0.003 -0.0050181816
0.0089999996 0.00019148937 -0.0099818185
-0.0055774646 -0.003 -0.0020909091
-0.0031690141 0.0015957446 -0.010745455
-0.0017746479 0.003 -0.0088363634
0.0062112678 0.00019148937 -0.010872727
0.0054507041 -0.003 -0.0017090909
0.0030422534 -0.003 -0.0052727275
0.002915493 0.00031914894 -0.010872727
0.0086197183 -0.00070212764 -0.00056363636
-0.0081126764 0.00057446811 -0.010745455
0.00076056336 -0.003 -0.0093454542
-0.0022816902 0.003 -0.0074363635
0.0089999996 0.0018510638 -0.003109091
0.0054507041 -0.003 -0.0055272728
0.0050704223 0.003 -0.0083272727
0.0074788732 -0.003 -0.0073090908
0.0088732392 -0.0026170213 -0.0075636362
-0.0038028168 0.003 -0.0024727273
-0.0089999996 -0.00095744681 -0.0093454542
0.0089999996 -0.0010851064 -0.0098545458
-0.004690141 -0.003 -0.0094727268
0.0089999996 -0.0012127659 -0.003490909
0.0027887323 0.0018510638 -0.010745455
-0.0089999996 0.0010851064 -0.0097272731
-0.0068450705 -0.00044680852 -0.00056363636
-0.0089999996 -0.0022340426 -0.0033636363
0.0044366196 -0.0012127659 -0.00056363636
