# .PCD v0.7 - Point Cloud Data file format
VERSION 0.7
FIELDS x y z
SIZE 4 4 4
TYPE F F F
COUNT 1 1 1
WIDTH 1193
HEIGHT 1
VIEWPOINT 0 0 0 1 0 0 0
POINTS 1193
DATA ascii
0.0060930657 -0.0062500001 -0.016233645
0.011611314 0.00023148148 -0.021500001
0.0051733577 0.0062500001 -0.014172897
0.015290146 0.0018518518 -0.0089065423
-0.014370438 -0.0041666669 -0.0082196258
0.013680657 0.0037037036 -0.00066355139
-0.014140511 0.0057870368 -0.0050140186
-0.0072427006 -0.0062500001 -0.003640187
0.014140511 0.0062500001 -0.0057009347
0.0088521894 -0.0062500001 -0.018981308
-0.0017244526 0.0060185185 -0.014401869
0.0033339416 -0.00046296295 -0.021500001
-0.00080474454 0.0057870368 -0.014630841
-0.014370438 0.0046296297 -0.0077616824
-0.0010346716 -0.0023148148 -0.00066355139
-0.0095419707 0.0062500001 -0.0086775701
0.0010346716 0.0057870368 -0.017607477
-0.015290146 0.0018518518 -0.003640187
0.0031040146 -0.0060185185 -0.0066168224
0.010461679 -0.0062500001 -0.0066168224
-0.015060219 0.0060185185 -0.018523365
-0.0028740875 -0.0062500001 -0.0061588786
-0.010001825 -0.0062500001 -0.016691588
-0.0090821171 -0.0041666669 -0.00066355139
0.015290146 -0.00023148148 -0.018752337
0.010921533 0.0062500001 -0.011196261
0.0031040146 0.0060185185 -0.016233645
-0.014370438 0.0050925924 -0.0073037385
0.0090821171 0.0062500001 -0.002495327
0.0051733577 0.0062500001 -0.0029532709
-0.010691606 0.0032407406 -0.021271028
0.0054032844 0.0062500001 -0.0063878503
0.00034489052 0.0057870368 -0.0070747663
0.015520073 -0.0034722222 -0.0061588786
-0.0012645986 0.0060185185 -0.013714953
0.010461679 -0.0062500001 -0.018065421
-0.0010346716 0.0060185185 -0.014172897
0.0026441605 -0.0060185185 -0.0068457946
0.0054032844 0.0037037036 -0.00066355139
-0.015060219 0.00092592591 -0.012570093
0.015520073 -0.0025462962 -0.017149532
0.010921533 0.0062500001 -0.0022663551
0.0010346716 0.0057870368 -0.010280374
0.015520073 -0.0032407406 -0.01211215
0.014140511 0.0060185185 -0.0040981309
-0.0035638686 0.0060185185 -0.0029532709
-0.015290146 -0.0023148148 -0.020355141
-0.010231752 -0.0062500001 -0.018523365
-0.0077025546 0.0062500001 -0.0079906546
0.00057481753 -0.00069444446 -0.00066355139
-0.0058631385 0.0062500001 -0.0022663551
0.015290146 -0.0018518518 -0.0022663551
0.0063229925 -0.0062500001 -0.016920561
0.0070127738 -0.0013888889 -0.021271028
-0.012071168 0.0023148148 -0.00066355139
0.012531022 -0.0062500001 -0.015317757
-0.014370438 -0.004398148 -0.014859813
-0.0067828465 0.0062500001 -0.0079906546
0.0058631385 0.0062500001 -0.016233645
-0.0024142335 -0.00069444446 -0.00066355139
-0.0010346716 -0.0057870368 -0.0077616824
-0.0081624091 -0.0030092592 -0.021271028
-0.014370438 -0.0039351853 -0.016004672
-0.0021843065 -0.0062500001 -0.020584112
-0.010461679 -0.00069444446 -0.021500001
-0.0063229925 -0.0062500001 -0.017378505
-0.0088521894 0.0025462962 -0.00066355139
0.00080474454 -0.0032407406 -0.021271028
-0.0093120439 -0.0030092592 -0.021271028
0.0049434309 -0.0062500001 -0.008448598
0.0033339416 -0.0062500001 -0.016233645
-0.010461679 -0.0062500001 -0.010738318
-0.00034489052 0.0046296297 -0.00066355139
0.010001825 -0.0062500001 -0.002724299
0.014830292 0.0034722222 -0.011425233
0.011841241 -0.0062500001 -0.0047850469
-0.0033339416 0.0062500001 -0.011654206
-0.0037937956 0.00023148148 -0.00066355139
-0.013910584 -0.0020833334 -0.021271028
0.013220803 0.00023148148 -0.00066355139
0.0083923358 -0.0062500001 -0.010738318
-0.00080474454 -0.0057870368 -0.0057009347
-0.0077025546 -0.0062500001 -0.0082196258
0.0044835769 0.00023148148 -0.021500001
-0.011841241 -0.0062500001 -0.0061588786
0.012760949 -0.0062500001 -0.018752337
0.0077025546 -0.0062500001 -0.0061588786
-0.0081624091 -0.0032407406 -0.021271028
0.014370438 -0.0048611113 -0.0068457946
-0.0083923358 0.0062500001 -0.002724299
-0.0060930657 -0.00023148148 -0.00066355139
-0.0010346716 0.0057870368 -0.014859813
0.00080474454 -0.0030092592 -0.021271028
-0.0051733577 0.0062500001 -0.0038691589
0.014600365 0.004398148 -0.019897196
-0.015060219 0.00023148148 -0.015088785
-0.0047135036 0.0062500001 -0.010051402
0.0026441605 0.0032407406 -0.021271028
0.014830292 0.0039351853 -0.020584112
-0.0081624091 -0.0062500001 -0.016691588
-0.01115146 0.0062500001 -0.0086775701
0.015290146 0.0016203703 -0.0029532709
0.0031040146 0.00046296295 -0.021500001
0.014600365 -0.0039351853 -0.020813083
-0.015060219 0.00046296295 -0.0098224301
-0.0019543795 0.0062500001 -0.0086775701
-0.0035638686 0.0025462962 -0.021271028
0.012071168 0.0062500001 -0.004327103
-0.0056332117 0 -0.00066355139
-0.014370438 0.0046296297 -0.0075327102
-0.014370438 0.0050925924 -0.014401869
-0.014830292 0.0060185185 -0.003640187
-0.0010346716 -0.0030092592 -0.00066355139
-0.0033339416 -0.0062500001 -0.0079906546
0.00057481753 -0.0046296297 -0.021271028
0.00057481753 -0.00023148148 -0.00066355139
-0.012990876 0.0016203703 -0.00066355139
0.0024142335 -0.0060185185 -0.0031822431
-0.01345073 -0.0062500001 -0.0031822431
0.00080474454 0.0057870368 -0.015317757
0.0065529197 -0.0062500001 -0.016233645
-0.014370438 -0.0055555557 -0.00066355139
-0.014370438 0.0050925924 -0.010280374
0.014600365 0.0053240741 -0.0095934579
0.0063229925 -0.0062500001 -0.01211215
0.012531022 0.0062500001 -0.010280374
0.0049434309 -0.0062500001 -0.0059299064
0.014830292 0.0039351853 -0.013485981
-0.010001825 -0.0062500001 -0.0093644857
0.0056332117 -0.0062500001 -0.01211215
0.015520073 -0.0016203703 -0.013485981
-0.012990876 -0.0046296297 -0.021271028
-0.014830292 -0.0030092592 -0.0040981309
-0.015290146 -0.0018518518 -0.0013504673
0.015290146 0.0020833334 -0.003640187
0.015060219 0.0013888889 -0.016004672
-0.015290146 0.0016203703 -0.0054719625
0.012531022 0.0062500001 -0.014859813
-0.0081624091 0.0062500001 -0.012570093
0.010231752 -0.0046296297 -0.021042056
0.00011496351 -0.0062500001 -0.00066355139
-0.015290146 -0.0018518518 -0.01096729
0.01345073 0.0025462962 -0.021271028
-0.012301095 0.0062500001 -0.017378505
-0.0072427006 0.0062500001 -0.012341121
-0.0024142335 -0.0060185185 -0.0082196258
-0.015290146 -0.0030092592 -0.016920561
-0.0021843065 -0.0053240741 -0.021042056
0.0074726278 0 -0.021500001
0.014370438 0.0050925924 -0.003411215
-0.0058631385 0.0048611113 -0.021042056
-0.0067828465 -0.0062500001 -0.016920561
-0.0014945256 0.0046296297 -0.021271028
0.0042536496 -0.0062500001 -0.013714953
-0.0037937956 -0.0034722222 -0.00066355139
-0.0093120439 -0.0062500001 -0.0059299064
-0.0058631385 0.0027777778 -0.021271028
0.010001825 -0.0062500001 -0.01211215
-0.0067828465 0.0037037036 -0.00066355139
-0.015060219 0.0013888889 -0.014859813
-0.015520073 0.0032407406 -0.0013504673
0.01575 -0.0032407406 -0.01096729
-0.015060219 -0.00046296295 -0.014401869
0.00011496351 0.0055555557 -0.020126168
-0.015290146 -0.0023148148 -0.013257009
-0.0017244526 -0.0020833334 -0.00066355139
0.014370438 0.0039351853 -0.021271028
0.0047135036 0.0062500001 -0.0013504673
0.015290146 0.0020833334 -0.0054719625
-0.014600365 0.0034722222 -0.015546729
-0.012990876 0.0023148148 -0.00066355139
0.015520073 -0.0023148148 -0.015088785
0.0021843065 -0.0016203703 -0.00066355139
-0.0021843065 -0.0060185185 -0.012799066
-0.012990876 0.0030092592 -0.021271028
-0.014370438 -0.0055555557 -0.0068457946
-0.015060219 0 -0.014172897
-0.0070127738 -0.0062500001 -0.019439252
-0.015060219 -0.00069444446 -0.0070747663
-0.0097718975 -0.0060185185 -0.00020560747
-0.0056332117 -0.0062500001 -0.00066355139
-0.015290146 -0.0027777778 -0.015088785
-0.01115146 -0.0020833334 -0.00066355139
0.0097718975 -0.0050925924 -0.00066355139
-0.012760949 -0.0062500001 -0.010509346
-0.0086222626 -0.0055555557 -0.021042056
-0.0090821171 0.0034722222 -0.00066355139
0.0083923358 -0.0062500001 -0.017378505
-0.010921533 0.0023148148 -0.021271028
0.0074726278 0.0025462962 -0.021500001
-0.01115146 0.0062500001 -0.017149532
-0.011611314 0.0062500001 -0.017607477
0.0033339416 0.0025462962 -0.00066355139
-0.014140511 0.0062500001 -0.004327103
-0.0067828465 0.0060185185 -0.021042056
-0.0014945256 0.0060185185 -0.010738318
-0.0056332117 0.0027777778 -0.021271028
0.011611314 0.0053240741 -0.00066355139
0.015060219 -0.0034722222 -0.010738318
-0.0079324814 -0.0037037036 -0.021271028
0.0083923358 0.0013888889 -0.021500001
0.0040237228 0.0062500001 -0.003411215
0.0077025546 -0.0062500001 -0.0095934579
0.0070127738 0.0046296297 -0.021271028
0.013910584 0.0041666669 -0.00066355139
-0.0040237228 0.0062500001 -0.0098224301
-0.0090821171 -0.0062500001 -0.00066355139
-0.00034489052 0.0055555557 -0.0040981309
-0.0088521894 0.0062500001 -0.0073037385
-0.0083923358 -0.0062500001 -0.0045560747
0.0028740875 -0.0011574074 -0.021500001
0.01575 -0.0032407406 -0.0075327102
0.014830292 0.0034722222 -0.015546729
0.0083923358 -0.0062500001 -0.0073037385
0.015290146 0.0011574074 -0.0059299064
0.012531022 -0.0062500001 -0.017607477
0.0093120439 0.0062500001 -0.015546729
0.0028740875 0.00023148148 -0.021500001
-0.0042536496 -0.0062500001 -0.0086775701
0.013910584 -0.0023148148 -0.021271028
-0.010921533 0.0062500001 -0.014401869
0.0031040146 0.0062500001 -0.0022663551
-0.0067828465 0.0062500001 -0.011425233
-0.013680657 -0.0062500001 -0.0038691589
-0.0019543795 0.0060185185 -0.014401869
-0.0074726278 -0.0062500001 -0.0095934579
-0.0079324814 -0.0062500001 -0.011425233
-0.015060219 0.0060185185 -0.0091355136
0.0088521894 0.0032407406 -0.00066355139
0.0072427006 0.0062500001 -0.00043457944
-0.0065529197 0.0062500001 -0.020813083
-0.012760949 0.0062500001 -0.015088785
-0.0088521894 0.0062500001 -0.003411215
0.014370438 -0.004398148 -0.016462617
0.012760949 0.0062500001 -0.0091355136
0.0024142335 -0.0060185185 -0.016004672
0.0083923358 0.0041666669 -0.021271028
-0.014370438 -0.0046296297 -0.012570093
-0.0047135036 0.00046296295 -0.021500001
-0.015060219 0.0011574074 -0.018065421
-0.0077025546 0.0062500001 -0.0054719625
0.010921533 0.0062500001 -0.013257009
-0.0035638686 -0.0062500001 -0.012799066
-0.015520073 0.0057870368 -0.0091355136
-0.010691606 0 -0.00066355139
0.015520073 -0.0018518518 -0.014859813
-0.015060219 0 -0.0011214954
-0.01115146 0.0062500001 -0.0070747663
-0.0079324814 0.0016203703 -0.00066355139
0.00057481753 -0.0053240741 -0.021042056
-0.014370438 -0.0055555557 -0.015317757
-0.012071168 0.0062500001 -0.015317757
-0.0058631385 -0.0062500001 -0.014630841
-0.015290146 0.0018518518 -0.0054719625
0.014830292 0.0034722222 -0.014630841
-0.012531022 -0.00092592591 -0.021271028
0.0095419707 0 -0.00066355139
0.0047135036 -0.0062500001 -0.010280374
0.011381387 0.0062500001 -0.011425233
0.0079324814 0.0013888889 -0.021500001
-0.0026441605 0.0057870368 -0.016462617
0.0049434309 0.0062500001 -0.020584112
0.0088521894 -0.0062500001 -0.019210281
-0.0086222626 -0.0062500001 -0.017378505
-0.0049434309 -0.0046296297 -0.021271028
0.0026441605 -0.0027777778 -0.00066355139
0.010691606 -0.0062500001 -0.0070747663
-0.0031040146 -0.0062500001 -0.002724299
-0.0024142335 0.0041666669 -0.00066355139
-0.014600365 0.0037037036 -0.0098224301
0.0042536496 0.00046296295 -0.021500001
0.010001825 0.0062500001 -0.003640187
-0.0031040146 -0.0062500001 -0.0047850469
-0.0049434309 -0.00046296295 -0.00066355139
-0.00080474454 0.0057870368 -0.0045560747
0.0047135036 -0.0062500001 -0.0068457946
0.0072427006 -0.0062500001 -0.0013504673
-0.015290146 0.0027777778 -0.014172897
-0.010461679 -0.0062500001 -0.016233645
0.0093120439 -0.0046296297 -0.00066355139
-0.012760949 0.0062500001 -0.002495327
0.0083923358 -0.0037037036 -0.021271028
-0.00080474454 0.0055555557 -0.018981308
0.00057481753 -0.0016203703 -0.00066355139
0.010691606 -0.0032407406 -0.021271028
-0.0024142335 -0.0060185185 -0.0073037385
0.014600365 0.004398148 -0.019668225
-0.0070127738 -0.0062500001 -0.0057009347
0.0097718975 -0.0062500001 -0.019668225
0.0095419707 0.0062500001 -0.014401869
0.0086222626 0.0062500001 -0.0066168224
0.012301095 0.0062500001 -0.020126168
0.015520073 -0.0025462962 -0.015088785
-0.014370438 -0.0039351853 -0.00066355139
-0.0081624091 -0.0062500001 -0.011425233
0.013910584 -0.0062500001 -0.013028038
-0.0077025546 0.0062500001 -0.00089252339
-0.00034489052 -0.0057870368 -0.0079906546
-0.0031040146 -0.0053240741 -0.00066355139
0.01345073 0.0062500001 -0.013257009
0.015290146 -0.0016203703 -0.0029532709
-0.012301095 0.0062500001 -0.0038691589
-0.0072427006 0.0025462962 -0.021271028
0.00034489052 -0.0055555557 -0.018294392
-0.015290146 0.0020833334 -0.0095934579
-0.0077025546 -0.0062500001 -0.016462617
-0.0031040146 0.0011574074 -0.021500001
0.0021843065 -0.0060185185 -0.0063878503
-0.012531022 0.0020833334 -0.021271028
0.0047135036 -0.0034722222 -0.021271028
-0.0051733577 0.0062500001 -0.0052429908
-0.015290146 0.0027777778 -0.012799066
0.0070127738 -0.0062500001 -0.0089065423
-0.015290146 -0.0020833334 -0.0029532709
-0.010001825 0.0062500001 -0.018065421
0.0047135036 0.0062500001 -0.013257009
0.0067828465 -0.0023148148 -0.021271028
-0.015290146 0.0023148148 -0.018523365
0.0070127738 0.0030092592 -0.021271028
-0.0040237228 0.0060185185 -0.00066355139
0.00080474454 -0.0060185185 -0.017378505
-0.0010346716 0.0057870368 -0.01211215
0.0012645986 -0.0048611113 -0.00066355139
0.010231752 -0.0062500001 -0.0059299064
-0.0040237228 -0.0050925924 -0.00066355139
0.015290146 0.00069444446 -0.010738318
-0.012760949 0.0062500001 -0.016920561
-0.0017244526 0.0057870368 -0.0059299064
0.012071168 -0.0062500001 -0.0020373832
-0.010461679 0.0020833334 -0.00066355139
-0.013910584 -0.0062500001 -0.014859813
-0.01345073 0.0037037036 -0.021042056
0.010001825 0.0013888889 -0.00066355139
-0.010461679 0.0062500001 -0.020355141
0.00080474454 -0.0057870368 -0.013028038
-0.0035638686 -0.0060185185 -0.017607477
-0.013910584 0.0050925924 -0.021042056
-0.0031040146 -0.0062500001 -0.020813083
0.0031040146 -0.0060185185 -0.017836448
-0.0017244526 0.0055555557 -0.018981308
0.00057481753 -0.0055555557 -0.011196261
0.0072427006 0.0062500001 -0.0089065423
0.012071168 0.0060185185 -0.021042056
-0.0093120439 0.0025462962 -0.00066355139
0.0010346716 0.0057870368 -0.004327103
-0.01345073 0.0062500001 -0.012799066
-0.014370438 -0.004398148 -0.013028038
0.0035638686 0.0060185185 -0.015317757
-0.014140511 0.0057870368 -0.018981308
0.0051733577 0.0062500001 -0.002724299
-0.015060219 -0.00046296295 -0.016233645
0.012301095 -0.0062500001 -0.002495327
0.0090821171 -0.0016203703 -0.021271028
-0.0019543795 -0.0060185185 -0.013714953
-0.015290146 -0.0025462962 -0.018065421
-0.0060930657 0.0048611113 -0.021042056
0.0049434309 -0.0062500001 -0.003411215
0.0014945256 0.0057870368 -0.018752337
0.013910584 0.00023148148 0.0027710281
-0.012301095 0.0062500001 -0.012799066
-0.0074726278 0.0062500001 -0.0031822431
-0.0042536496 -0.0062500001 -0.016004672
-0.0083923358 -0.0062500001 -0.0059299064
-0.0086222626 0.0062500001 -0.0068457946
-0.0012645986 0.0046296297 -0.021271028
0.0037937956 -0.0062500001 -0.016004672
0.013910584 0.0062500001 -0.0075327102
-0.015060219 0.00046296295 -0.016920561
-0.015060219 -0.0013888889 -0.010509346
-0.012760949 -0.0016203703 -0.00066355139
-0.0090821171 -0.00046296295 -0.00066355139
0.00011496351 0.0057870368 -0.0070747663
-0.0037937956 -0.0062500001 -0.0079906546
0.010231752 0.0050925924 -0.021042056
-0.0054032844 0.0062500001 -0.003640187
0.0044835769 0.0062500001 -0.0038691589
0.010001825 -0.0062500001 -0.017149532
-0.0047135036 -0.0025462962 -0.00066355139
0.0065529197 -0.0062500001 -0.0086775701
-0.014830292 0.0034722222 -0.0063878503
0.0081624091 -0.0062500001 -0.012570093
0.014830292 0.0039351853 -0.021042056
-0.012301095 -0.0062500001 -0.011196261
0.0072427006 -0.0062500001 -0.0045560747
-0.013910584 0.0016203703 -0.00066355139
-0.0035638686 -0.0062500001 -0.020355141
0.0081624091 0.0062500001 -0.013257009
-0.0040237228 -0.0062500001 -0.010280374
0.0077025546 0.0062500001 -0.013943925
0.015290146 0.0030092592 -0.01211215
-0.014370438 0.0060185185 -0.0079906546
-0.0019543795 -0.0060185185 -0.0057009347
0.011841241 -0.0060185185 -0.020813083
-0.015290146 -0.0025462962 -0.013485981
-0.0026441605 -0.0060185185 -0.012341121
0.0012645986 0.0057870368 -0.0073037385
0.0090821171 -0.00023148148 -0.00066355139
-0.00011496351 -0.004398148 -0.021271028
0.0088521894 0.0062500001 -0.0020373832
0.012760949 -0.0062500001 -0.013028038
-0.014140511 -0.0062500001 -0.016233645
0.012531022 0.0062500001 -0.0018084112
-0.012301095 -0.0062500001 -0.0015794393
-0.0088521894 0.0027777778 -0.021271028
-0.0058631385 0.004398148 -0.00066355139
0.0083923358 0.0050925924 -0.021042056
0.012760949 0.004398148 -0.00066355139
0.0079324814 -0.0062500001 -0.019897196
0.0037937956 0.0062500001 -0.0054719625
0.0056332117 0.0062500001 -0.015775701
-0.01345073 0.0025462962 -0.00066355139
0.013910584 0.0062500001 -0.016920561
-0.0054032844 -0.0062500001 -0.0052429908
0.014370438 -0.004398148 -0.0093644857
0.0056332117 -0.0062500001 -0.0038691589
-0.00080474454 -0.0057870368 -0.012341121
0.0049434309 -0.0062500001 -0.0054719625
-0.013680657 -0.00023148148 0.0011682243
0.00080474454 0.0057870368 -0.014172897
0.014600365 0.0041666669 -0.014401869
0.010921533 0.0062500001 -0.002724299
-0.0042536496 0.0016203703 -0.021271028
-0.0070127738 0.0034722222 -0.00066355139
0.0010346716 -0.0055555557 -0.0029532709
-0.0058631385 0.00069444446 -0.021500001
-0.014370438 0.004398148 -0.011196261
-0.0081624091 0.0062500001 -0.0068457946
-0.015520073 0.0030092592 -0.0057009347
0.015290146 0.0027777778 -0.018981308
0.0031040146 -0.0030092592 -0.021271028
0.0090821171 0.0050925924 -0.00066355139
0.0067828465 0.0062500001 -0.016462617
-0.010231752 0.0062500001 -0.0098224301
-0.0070127738 0.0062500001 -0.0054719625
0.0097718975 -0.0062500001 -0.013714953
0.014140511 -0.0048611113 -0.021042056
-0.0010346716 -0.0057870368 -0.016691588
0.013910584 0.00092592591 -0.021271028
0.0035638686 -0.0060185185 -0.014630841
-0.013680657 0 0.00071028038
-0.0014945256 -0.0041666669 -0.021271028
-0.0049434309 -0.0062500001 -0.017378505
0.013910584 0.0062500001 -0.0047850469
0.0070127738 -0.00069444446 -0.00066355139
-0.015060219 -0.00046296295 -0.012341121
-0.01345073 0.0041666669 -0.021042056
-0.014370438 0.0046296297 -0.011654206
0.015520073 -0.00046296295 -0.021042056
-0.010001825 -0.0062500001 -0.017836448
-0.00011496351 0.0055555557 -0.017607477
-0.014370438 0.004398148 -0.010051402
-0.0044835769 0.0062500001 -0.0098224301
-0.00080474454 -0.004398148 -0.021271028
0.01575 -0.0025462962 -0.0066168224
0.015290146 0.0016203703 -0.015546729
0.010921533 0.004398148 -0.021271028
0.01115146 0.0030092592 -0.00066355139
0.015060219 0.0030092592 -0.018752337
0.0012645986 0.0060185185 -0.00066355139
0.00057481753 -0.004398148 -0.021271028
-0.0063229925 -0.0062500001 -0.0052429908
0.014370438 -0.0046296297 -0.020126168
-0.0042536496 0.0060185185 -0.019668225
-0.0019543795 -0.0016203703 -0.021500001
0.012071168 0.0062500001 -0.020126168
-0.015290146 0.0057870368 -0.020813083
0.0031040146 0.00023148148 -0.021500001
-0.010921533 -0.0057870368 -0.00066355139
-0.0070127738 0.0062500001 -0.0079906546
0.011611314 0.00046296295 -0.00066355139
-0.011611314 0.0062500001 -0.0079906546
0.010691606 -0.00092592591 -0.021500001
-0.0088521894 -0.0062500001 -0.013485981
-0.0095419707 0.0062500001 -0.0066168224
-0.014600365 -0.0032407406 -0.0022663551
0.00011496351 0.0055555557 -0.017607477
0.0077025546 0.0050925924 -0.00066355139
-0.0067828465 -0.0062500001 -0.002495327
-0.0044835769 -0.0062500001 -0.016691588
0.010001825 0.0062500001 -0.0050140186
-0.0049434309 -0.0034722222 -0.021271028
-0.0010346716 0.0060185185 -0.012341121
-0.010921533 0.0050925924 -0.021042056
-0.0067828465 0 -0.00066355139
-0.013220803 -0.0062500001 -0.019439252
0.012071168 -0.0062500001 -0.011883178
-0.0049434309 0.0030092592 -0.00066355139
-0.0049434309 0.0062500001 -0.017378505
0.0017244526 0.0057870368 -0.018523365
-0.0010346716 0.0018518518 -0.021271028
-0.0035638686 0.0060185185 -0.0059299064
0.014140511 -0.0062500001 -0.018981308
-0.0077025546 0.0062500001 -0.0061588786
-0.015290146 0.0020833334 -0.0040981309
-0.0072427006 0.0062500001 -0.016920561
-0.012990876 -0.0062500001 -0.003411215
-0.0083923358 0.0011574074 -0.00066355139
-0.0047135036 0.0062500001 -0.0031822431
-0.01345073 -0.0032407406 -0.021271028
-0.00034489052 0.0011574074 -0.021500001
0.0033339416 -0.00092592591 -0.021500001
-0.010231752 0.0062500001 -0.0050140186
-0.0090821171 0.0041666669 -0.00066355139
-0.0051733577 0.0057870368 -0.021042056
-0.0079324814 -0.0062500001 -0.017836448
-0.0040237228 0.0060185185 -0.016920561
-0.014600365 -0.004398148 -0.0054719625
0.010691606 -0.0062500001 -0.019210281
-0.0072427006 -0.0062500001 -0.011654206
0.0088521894 -0.0062500001 -0.012570093
-0.0070127738 -0.0062500001 -0.003411215
0.014140511 -0.0062500001 -0.0086775701
-0.0044835769 0.0062500001 -0.014859813
0.0086222626 0.0060185185 -0.00043457944
-0.012760949 0.0062500001 -0.0050140186
0.010921533 0.0062500001 -0.0098224301
-0.0056332117 -0.0062500001 -0.0050140186
-0.0026441605 -0.0060185185 -0.0068457946
-0.0035638686 -0.0060185185 -0.015775701
0.015290146 0 -0.010738318
-0.012301095 0.0013888889 -0.021271028
-0.014830292 0.0023148148 -0.021042056
-0.00080474454 0.0060185185 -0.012341121
0.0060930657 -0.0062500001 -0.0059299064
0.0051733577 -0.0062500001 -0.017607477
-0.0040237228 0.0062500001 -0.0079906546
-0.0070127738 0.0027777778 -0.021271028
-0.0063229925 0.0016203703 -0.00066355139
-0.015060219 0.00023148148 -0.0059299064
0.0097718975 -0.0062500001 -0.017836448
-0.014830292 0.0032407406 -0.0040981309
-0.0012645986 0.0055555557 -0.002495327
0.01345073 -0.0062500001 -0.012341121
0.014830292 0.0046296297 -0.008448598
0.0097718975 -0.0062500001 -0.010509346
-0.015060219 -0.00023148148 -0.0089065423
0.015520073 -0.0030092592 -0.015317757
0.0060930657 -0.0062500001 -0.0040981309
-0.012301095 -0.0062500001 -0.0031822431
-0.015290146 0.0020833334 -0.00089252339
-0.0033339416 0.0060185185 -0.003411215
-0.013680657 -0.0062500001 -0.0031822431
-0.015290146 0.0027777778 -0.017378505
-0.0063229925 -0.0062500001 -0.014630841
-0.00057481753 0.0053240741 -0.019439252
-0.0012645986 0.0055555557 -0.018752337
0.0047135036 0.0062500001 -0.013714953
-0.0090821171 0.0062500001 -0.019439252
0.011841241 0.0062500001 -0.0013504673
-0.014830292 0.0041666669 -0.00089252339
-0.0067828465 0.0053240741 -0.00066355139
-0.0093120439 0.0062500001 -0.010738318
0.0017244526 0.0060185185 -0.013257009
-0.0095419707 0.0055555557 -0.00066355139
0.0024142335 0.0060185185 -0.013257009
0.014600365 -0.0037037036 -0.0015794393
0.012301095 0.0062500001 -0.016004672
-0.0090821171 0.0062500001 -0.0052429908
-0.0093120439 -0.0048611113 -0.021042056
-0.012760949 0.0062500001 -0.019668225
-0.014370438 0.0055555557 -0.016691588
-0.00057481753 -0.0011574074 -0.021500001
0.010461679 0.0062500001 -0.00043457944
0.015290146 -0.0025462962 -0.0022663551
-0.0019543795 0.0060185185 -0.012341121
0.013220803 -0.0050925924 -0.00066355139
0.010461679 -0.0062500001 -0.0018084112
-0.0040237228 -0.0046296297 -0.00066355139
-0.015060219 -0.0013888889 -0.017607477
0.0063229925 -0.0062500001 -0.015088785
-0.0081624091 -0.0025462962 -0.00066355139
-0.013680657 -0.0062500001 -0.012799066
0.011381387 -0.0062500001 -0.0098224301
0.0040237228 -0.0062500001 -0.01211215
-0.0074726278 0.0062500001 -0.0082196258
-0.014370438 -0.0046296297 -0.019210281
-0.0049434309 0.0062500001 -0.010051402
-0.00057481753 -0.0057870368 -0.00089252339
0.0090821171 -0.0062500001 -0.0022663551
0.010461679 0.0034722222 -0.00066355139
-0.015060219 -0.00092592591 -0.019210281
0.0040237228 -0.0062500001 -0.0086775701
-0.011841241 0.0030092592 -0.021271028
-0.014370438 -0.0050925924 -0.004327103
-0.0097718975 0.0023148148 -0.00066355139
0.00057481753 -0.0055555557 -0.0038691589
-0.0014945256 0.0057870368 -0.0038691589
-0.0035638686 0.0023148148 -0.021271028
0.0033339416 0.0062500001 -0.0098224301
-0.0060930657 0.0053240741 -0.00066355139
0.0077025546 -0.0055555557 -0.021042056
0.012760949 0.0062500001 -0.0054719625
-0.014600365 -0.004398148 -0.020355141
-0.00057481753 -0.0048611113 -0.021271028
-0.014370438 0.0046296297 -0.010051402
-0.014600365 0.0060185185 -0.017607477
-0.012301095 0.0037037036 -0.00066355139
-0.0093120439 0.0062500001 -0.015546729
-0.010921533 -0.0020833334 -0.00066355139
-0.0079324814 0.0062500001 -0.0011214954
-0.0037937956 -0.0020833334 -0.021500001
-0.00080474454 0.0057870368 -0.016004672
0.013680657 0.0062500001 -0.0063878503
-0.010921533 0.0048611113 -0.00066355139
0.012990876 0.0062500001 -0.018981308
0.012071168 -0.0062500001 -0.0015794393
0.015060219 0.0032407406 -0.011425233
0.0090821171 -0.0018518518 -0.00066355139
0.013910584 -0.0050925924 -0.00066355139
0.014600365 0.004398148 -0.0045560747
-0.010001825 0.0062500001 -0.0073037385
-0.0079324814 -0.0062500001 -0.0059299064
0.00057481753 0.0057870368 -0.0040981309
0.00011496351 0.0057870368 -0.014401869
0.0054032844 0.0050925924 -0.00066355139
0.012990876 0.0062500001 -0.011883178
0.010231752 -0.0062500001 -0.0022663551
0.011611314 0.0011574074 -0.021500001
0.0024142335 0.0060185185 -0.0040981309
0.0042536496 0.0037037036 -0.021271028
-0.0083923358 -0.0013888889 -0.00066355139
0.014600365 -0.0037037036 -0.0029532709
0.0017244526 -0.0057870368 -0.010509346
0.0070127738 -0.0053240741 -0.00066355139
-0.0035638686 0.0053240741 -0.021042056
-0.01345073 -0.00046296295 -0.00066355139
-0.015060219 -0.00046296295 -0.0031822431
-0.014370438 -0.0041666669 -0.014859813
-0.015520073 0.0057870368 -0.013943925
-0.010001825 -0.0062500001 -0.010280374
0.010921533 0 -0.00066355139
-0.015290146 -0.0023148148 -0.0082196258
-0.012990876 0.0027777778 -0.00066355139
0.0021843065 -0.0057870368 -0.0057009347
-0.014140511 -0.0062500001 -0.0045560747
0.014600365 -0.0037037036 -0.017378505
0.014370438 -0.0048611113 -0.002495327
-0.0047135036 -0.0062500001 -0.013943925
0.00034489052 -0.0055555557 -0.018981308
0.015520073 -0.0027777778 -0.021042056
-0.015520073 0.0057870368 -0.0075327102
0.0017244526 0.0057870368 -0.016233645
-0.01345073 -0.0025462962 -0.021271028
0.014830292 -0.0020833334 -0.00066355139
-0.0017244526 -0.0060185185 -0.0068457946
0.0081624091 -0.0062500001 -0.013028038
-0.0031040146 0.0062500001 -0.0095934579
-0.014140511 0.0053240741 -0.021042056
0.0077025546 0.0011574074 -0.021500001
0.0079324814 0.0039351853 -0.00066355139
-0.0074726278 -0.0062500001 -0.016004672
-0.010001825 -0.0048611113 -0.00066355139
0.010461679 0.0032407406 -0.00066355139
-0.0072427006 0.00092592591 -0.021271028
-0.0058631385 -0.00069444446 -0.00066355139
0.010231752 -0.0039351853 -0.021042056
0.014370438 0.0060185185 -0.020126168
0.0056332117 -0.0034722222 -0.021271028
0.00011496351 -0.0057870368 -0.010280374
0.015520073 -0.0025462962 -0.018981308
-0.0010346716 -0.0057870368 -0.016920561
-0.0056332117 0.0062500001 -0.0047850469
-0.0017244526 -0.0060185185 -0.010738318
-0.010461679 0.0062500001 -0.0050140186
0.010691606 -0.0062500001 -0.003640187
0.011611314 -0.0062500001 -0.014172897
-0.0060930657 0.0062500001 -0.0031822431
0.0077025546 0.0062500001 -0.015317757
-0.014370438 -0.0057870368 -0.0018084112
-0.0017244526 -0.0016203703 -0.021500001
0.0090821171 0.004398148 -0.021271028
0.015520073 -0.00092592591 -0.0050140186
0.0012645986 0.0057870368 -0.0098224301
-0.014370438 -0.0048611113 -0.011425233
-0.0063229925 0.004398148 -0.00066355139
-0.00080474454 0.00069444446 -0.021500001
0.0088521894 0.0062500001 -0.0047850469
-0.015290146 0.0027777778 -0.01211215
0.010461679 -0.0062500001 -0.0073037385
-0.0026441605 0.0050925924 -0.021042056
0.0088521894 0.0062500001 -0.0075327102
-0.0014945256 0.0057870368 -0.0029532709
-0.0049434309 0.0062500001 -0.0091355136
-0.00011496351 -0.0057870368 -0.018523365
0.0095419707 0.00023148148 -0.021500001
-0.011611314 0.0062500001 -0.0098224301
0.0097718975 -0.00069444446 -0.00066355139
-0.010461679 0.0062500001 -0.020126168
0.0060930657 0.0062500001 -0.018065421
-0.0014945256 0.0048611113 -0.00066355139
-0.015290146 -0.0016203703 -0.016004672
0.014830292 -0.0011574074 -0.00066355139
0.013910584 -0.0062500001 -0.018294392
0.014370438 -0.0048611113 -0.0077616824
-0.010691606 0.0062500001 -0.0057009347
-0.014370438 -0.0046296297 -0.013485981
-0.0012645986 -0.0057870368 -0.011883178
-0.015520073 0.0057870368 -0.0047850469
0.0097718975 0.00069444446 -0.021500001
0.0081624091 -0.00023148148 -0.00066355139
0.01115146 0.0062500001 -0.0020373832
0.014830292 0.004398148 -0.012799066
-0.0017244526 0.0060185185 -0.0077616824
-0.012760949 -0.0062500001 -0.015546729
-0.0024142335 -0.0060185185 -0.017149532
0.0079324814 -0.0062500001 -0.012341121
-0.0033339416 0.0060185185 -0.018065421
-0.014600365 -0.0032407406 -0.0029532709
0.0010346716 0.004398148 -0.00066355139
0.015520073 -0.0013888889 -0.020584112
0.00080474454 -0.0023148148 -0.00066355139
0.0063229925 -0.0027777778 -0.00066355139
-0.0044835769 -0.0048611113 -0.00066355139
-0.0086222626 0.00092592591 -0.00066355139
-0.012760949 0.00023148148 -0.00066355139
0.0037937956 0.00046296295 -0.021500001
-0.015290146 0.0018518518 -0.0086775701
0.0035638686 -0.0032407406 -0.021271028
-0.014140511 -0.0062500001 -0.0070747663
-0.012990876 -0.0062500001 -0.0018084112
-0.00034489052 -0.0050925924 -0.021042056
0.015060219 0.00092592591 -0.017836448
0.0081624091 -0.0025462962 -0.00066355139
-0.0040237228 0.0060185185 -0.0045560747
-0.0026441605 0.00023148148 -0.00066355139
-0.0031040146 0.0039351853 -0.00066355139
0.015060219 0.0013888889 -0.010051402
0.0033339416 -0.0046296297 -0.00066355139
0.0063229925 -0.0062500001 -0.018065421
0.0097718975 0.0062500001 -0.011196261
-0.011381387 -0.0062500001 -0.0091355136
-0.015290146 -0.0030092592 -0.018523365
0.013220803 0.004398148 -0.021271028
-0.010691606 -0.0062500001 -0.0063878503
0.0060930657 -0.0037037036 -0.00066355139
0.013220803 -0.0062500001 -0.018523365
0.0035638686 -0.0060185185 -0.0029532709
-0.0088521894 0.0062500001 -0.0020373832
-0.0010346716 -0.0057870368 -0.0015794393
0.0012645986 0.0057870368 -0.012799066
0.0012645986 -0.0039351853 -0.00066355139
0.010921533 -0.0062500001 -0.016462617
-0.010231752 -0.0062500001 -0.019897196
-0.010921533 -0.0062500001 -0.017149532
-0.0072427006 0.0011574074 -0.021271028
0.0051733577 0.0062500001 -0.013028038
-0.0035638686 0.0062500001 -0.013485981
0.011841241 -0.0027777778 -0.00066355139
-0.010231752 -0.0030092592 -0.00066355139
0.0021843065 -0.0060185185 -0.014630841
0.015290146 -0.0032407406 -0.019668225
-0.014370438 -0.0041666669 -0.016462617
0.015520073 -0.0016203703 -0.013714953
0.0072427006 0.0062500001 -0.0057009347
-0.015290146 -0.0032407406 -0.0063878503
0.00011496351 0.0011574074 -0.021500001
-0.010691606 0.0062500001 -0.018294392
0.0093120439 -0.0062500001 -0.011883178
-0.0060930657 -0.0041666669 -0.021271028
0.0072427006 -0.0062500001 -0.0073037385
0.00057481753 0.0057870368 -0.0079906546
-0.012071168 -0.0034722222 -0.021271028
-0.0083923358 -0.0062500001 -0.014172897
0.015520073 -0.00092592591 -0.014630841
0.0079324814 -0.00023148148 -0.021500001
0.010691606 -0.0062500001 -0.003411215
-0.0072427006 0.0062500001 -0.013714953
0.01345073 -0.0062500001 -0.010738318
0.015060219 -0.0034722222 -0.0013504673
-0.00057481753 -0.0057870368 -0.020584112
-0.0088521894 0.0062500001 -0.00089252339
-0.0090821171 -0.0046296297 -0.021271028
0.0090821171 -0.0062500001 -0.010051402
0.013910584 0.0062500001 -0.014401869
0.011841241 0.0057870368 -0.00066355139
0.015290146 0.00046296295 -0.013257009
-0.0079324814 0.0062500001 -0.011196261
0.0033339416 0.0060185185 -0.012341121
-0.0077025546 0.0062500001 -0.016691588
0.0040237228 0.0062500001 -0.019439252
-0.015060219 0.0032407406 -0.0015794393
-0.0019543795 0.00069444446 -0.00066355139
0.014370438 -0.0053240741 -0.019439252
0.0074726278 -0.0041666669 -0.00066355139
0.015060219 0.0011574074 -0.013943925
0.014370438 0.004398148 -0.0020373832
0.012531022 0.0055555557 -0.021042056
-0.015290146 0.0023148148 -0.010509346
-0.0067828465 -0.0062500001 -0.0098224301
0.0093120439 0.0062500001 -0.011654206
-0.014370438 0.0053240741 -0.012341121
-0.015290146 0.0057870368 -0.015775701
0.0090821171 0.0062500001 -0.016462617
-0.015520073 0.0057870368 -0.016920561
-0.0021843065 0.0060185185 -0.016920561
0.014140511 -0.0062500001 -0.014401869
-0.010691606 0.0037037036 -0.00066355139
0.0074726278 0.0062500001 -0.0018084112
0.01345073 0.0039351853 -0.021271028
0.011381387 -0.0062500001 -0.011425233
-0.0077025546 -0.0062500001 -0.0029532709
0.00011496351 0.0055555557 -0.016920561
0.00034489052 0.0057870368 -0.0093644857
-0.0088521894 0.0062500001 -0.0040981309
-0.015060219 0.00023148148 -0.0057009347
0.015290146 0.0027777778 -0.003411215
0.0097718975 -0.0062500001 -0.010051402
0.014600365 0.0055555557 -0.018523365
0.0095419707 -0.0023148148 -0.00066355139
0.015290146 0.0018518518 -0.013257009
0.011611314 0.0030092592 -0.00066355139
0.0019543795 0.0057870368 -0.015317757
-0.010461679 0.0062500001 -0.016920561
0.0079324814 -0.0055555557 -0.021042056
0.013220803 0.0048611113 -0.021042056
-0.0042536496 0.0060185185 -0.0057009347
0.014830292 -0.0034722222 -0.0077616824
-0.00011496351 -0.0057870368 -0.010738318
-0.01345073 0.0011574074 -0.00066355139
-0.0093120439 -0.0062500001 -0.0015794393
0.0042536496 0.0062500001 -0.014630841
0.0060930657 0.0062500001 -0.002724299
-0.010921533 0.0013888889 -0.021271028
0.014140511 -0.0060185185 -0.0022663551
-0.015520073 0.0030092592 -0.0018084112
0.0037937956 0.0062500001 -0.016233645
-0.014370438 0.0050925924 -0.020355141
-0.015060219 -0.0013888889 -0.004327103
0.0042536496 -0.0050925924 -0.00066355139
-0.010921533 0.0062500001 -0.0086775701
0.0070127738 -0.0062500001 -0.0066168224
0.010001825 -0.0062500001 -0.0031822431
-0.014140511 0.0062500001 -0.015317757
0.0054032844 -0.0039351853 -0.00066355139
-0.015060219 0.00092592591 -0.0057009347
-0.011611314 -0.0062500001 -0.014630841
0.0081624091 -0.0037037036 -0.021271028
-0.015290146 0.0025462962 -0.014172897
-0.01115146 0.0041666669 -0.021042056
-0.0010346716 -0.0057870368 -0.0057009347
-0.0021843065 0.0060185185 -0.00066355139
-0.00080474454 -0.0060185185 -0.0061588786
0.0093120439 0.00046296295 -0.00066355139
0.0086222626 0.0037037036 -0.00066355139
0.015290146 0.0018518518 -0.0018084112
-0.0074726278 0.0030092592 -0.00066355139
-0.015520073 0.0030092592 -0.019210281
0.010921533 -0.0062500001 -0.0020373832
0.0051733577 -0.0062500001 -0.0091355136
0.010001825 0.00046296295 -0.00066355139
-0.0090821171 0.0020833334 -0.00066355139
0.0081624091 0.0062500001 -0.017149532
-0.0010346716 0.0030092592 -0.021271028
-0.0090821171 -0.0062500001 -0.014172897
-0.0054032844 -0.00069444446 -0.021500001
-0.014140511 -0.0060185185 -0.0075327102
-0.012760949 0.0062500001 -0.015546729
-0.0079324814 -0.0062500001 -0.0070747663
-0.0026441605 0 -0.021500001
0.0056332117 -0.0016203703 -0.021271028
0.0083923358 -0.0016203703 -0.00066355139
0.00057481753 -0.0046296297 -0.00066355139
0.015290146 -0.0011574074 -0.016462617
0.014140511 0.0055555557 -0.021042056
-0.0026441605 0.0057870368 -0.018523365
-0.011841241 -0.0062500001 -0.002724299
-0.0081624091 -0.0062500001 -0.017149532
-0.0031040146 -0.0039351853 -0.00066355139
0.0097718975 0.0039351853 -0.021271028
0.0063229925 -0.0011574074 -0.021271028
0.014140511 0.0039351853 -0.021042056
-0.0056332117 0.0062500001 -0.010509346
0.012990876 0.0013888889 -0.021271028
-0.0012645986 0.0057870368 -0.0089065423
0.014830292 0.0041666669 -0.0075327102
0.0019543795 0.00069444446 -0.00066355139
0.0024142335 -0.0025462962 -0.00066355139
-0.014370438 0.0048611113 -0.0045560747
0.01345073 0.0062500001 -0.0070747663
-0.014830292 0.0060185185 -0.00089252339
0.014140511 -0.0062500001 -0.003411215
-0.0090821171 0.0011574074 -0.021271028
0.0054032844 0.0062500001 -0.0059299064
-0.0072427006 0.0037037036 -0.00066355139
-0.0079324814 -0.0062500001 -0.0075327102
0.015520073 -0.0011574074 -0.0054719625
-0.014600365 -0.0037037036 -0.019439252
-0.010691606 0.0011574074 -0.00066355139
-0.0056332117 -0.004398148 -0.021271028
0.015520073 -0.0032407406 -0.012341121
0.0017244526 -0.0060185185 -0.014630841
-0.00034489052 -0.0060185185 -0.00066355139
-0.0086222626 0.0062500001 -0.0013504673
0.010921533 0.0048611113 -0.021042056
0.012990876 -0.0062500001 -0.0077616824
0.0083923358 0.0011574074 -0.021500001
0.0070127738 0.0062500001 -0.0066168224
0.014370438 -0.0039351853 -0.011883178
0.012071168 -0.0062500001 -0.019668225
0.0072427006 -0.00046296295 -0.00066355139
-0.00011496351 -0.0055555557 -0.015317757
-0.01115146 -0.0020833334 -0.021271028
-0.0028740875 -0.0046296297 -0.021271028
0.0049434309 -0.0062500001 -0.013714953
0.01575 -0.0032407406 -0.011425233
0.0063229925 0.0025462962 -0.00066355139
-0.0090821171 0.0050925924 -0.021042056
-0.0086222626 -0.0062500001 -0.002724299
0.015060219 0.0011574074 -0.017149532
-0.014370438 0.0053240741 -0.016233645
0.0097718975 0.0062500001 -0.012799066
-0.0035638686 -0.0025462962 -0.021500001
0.0047135036 0.0062500001 -0.018752337
0.0088521894 0.0062500001 -0.010738318
-0.015290146 -0.0030092592 -0.013943925
0.0093120439 -0.0013888889 -0.00066355139
0.01345073 0.0055555557 -0.00066355139
-0.014370438 0.0041666669 -0.011196261
0.0058631385 0.0062500001 -0.017607477
0.010001825 0.0062500001 -0.013028038
0.0049434309 0.0062500001 -0.0011214954
-0.0093120439 0.00046296295 -0.021500001
-0.0072427006 -0.0062500001 -0.0075327102
-0.0067828465 0.0057870368 -0.021042056
-0.0024142335 0.0037037036 -0.021271028
0.011381387 0.0039351853 -0.021271028
-0.014600365 -0.0046296297 -0.0015794393
-0.014370438 0.0041666669 -0.0095934579
0.0083923358 0.0062500001 -0.020355141
-0.0054032844 0.00046296295 -0.00066355139
0.00080474454 -0.0055555557 -0.019897196
0.010001825 0.0062500001 -0.010280374
-0.0019543795 0.00046296295 -0.021500001
-0.0070127738 0.0062500001 -0.004327103
-0.0051733577 -0.0062500001 -0.011883178
0.014830292 -0.0037037036 -0.0013504673
0.012531022 -0.0062500001 -0.010509346
-0.012301095 0.0055555557 -0.00066355139
0.015520073 -0.0011574074 -0.011425233
-0.0042536496 0.0062500001 -0.0047850469
-0.0031040146 -0.0025462962 -0.00066355139
0.0063229925 -0.0062500001 -0.019439252
-0.012990876 -0.00046296295 -0.00066355139
0.0019543795 0.0057870368 -0.0063878503
0.015290146 0.00023148148 -0.0093644857
0.0090821171 -0.0039351853 -0.00066355139
-0.010691606 0.0062500001 -0.013943925
0.0058631385 0.0062500001 -0.0075327102
-0.015290146 0.0027777778 -0.016462617
-0.0028740875 0.0039351853 -0.021271028
-0.015060219 -0.00023148148 -0.018294392
-0.010001825 -0.0062500001 -0.0022663551
0.015290146 -0.0023148148 -0.002495327
-0.015520073 -0.0025462962 -0.020126168
-0.010231752 -0.0016203703 -0.021500001
0.0035638686 -0.0060185185 -0.004327103
-0.011841241 0.0037037036 -0.00066355139
0.014140511 0.0025462962 -0.021271028
-0.014600365 -0.0039351853 -0.0068457946
0.0088521894 0.0062500001 -0.019210281
0.0019543795 -0.00046296295 -0.00066355139
0.0017244526 0.0057870368 -0.018294392
0.0095419707 0.0057870368 -0.021042056
0.012990876 0.0062500001 -0.011654206
0.0081624091 -0.0062500001 -0.012341121
0.0058631385 -0.0060185185 -0.00043457944
-0.0060930657 -0.0018518518 -0.021500001
0.012990876 -0.0062500001 -0.0066168224
0.0067828465 -0.004398148 -0.00066355139
-0.0083923358 -0.0062500001 -0.010738318
-0.0058631385 0.0053240741 -0.021042056
-0.0081624091 0.0062500001 -0.016233645
-0.013910584 -0.0062500001 -0.010509346
0.014600365 -0.0037037036 -0.013028038
0.0024142335 0.0039351853 -0.00066355139
0.0081624091 0.0062500001 -0.0068457946
-0.015060219 0.00046296295 -0.0013504673
-0.00034489052 -0.0057870368 -0.013028038
-0.010461679 0.0062500001 -0.016233645
0.0024142335 0.0060185185 -0.011883178
0.0054032844 0.0062500001 -0.015088785
0.014600365 0.0060185185 -0.0093644857
0.0058631385 0.0062500001 -0.010051402
0.0054032844 0.0062500001 -0.0095934579
0.0060930657 0.0062500001 -0.011425233
0.015520073 -0.00092592591 -0.0093644857
0.0017244526 0.00023148148 -0.021500001
-0.0095419707 0.0062500001 -0.019210281
-0.0010346716 -0.0057870368 -0.019668225
0.0067828465 0.0062500001 -0.0029532709
-0.0024142335 -0.0027777778 -0.00066355139
-0.013220803 -0.0062500001 -0.0052429908
0.0012645986 0.0037037036 -0.00066355139
-0.01345073 -0.0062500001 -0.013028038
0.014370438 -0.0041666669 -0.017378505
-0.013220803 0.0060185185 -0.021042056
0.0095419707 -0.0062500001 -0.0011214954
0.0056332117 -0.0062500001 -0.0059299064
0.011381387 -0.0057870368 -0.00043457944
0.01115146 -0.0062500001 -0.0054719625
0.01345073 -0.0062500001 -0.016233645
-0.0047135036 0.0062500001 -0.011425233
-0.015060219 -0.00046296295 -0.0082196258
-0.010461679 -0.0046296297 -0.00066355139
-0.010231752 -0.0057870368 -0.021042056
-0.0081624091 0.0062500001 -0.016920561
0.013910584 -0.0020833334 -0.00066355139
0.0086222626 0.0016203703 -0.00066355139
-0.015060219 0.00046296295 -0.021042056
-0.0063229925 0.00046296295 -0.00066355139
0.00011496351 0.0011574074 -0.00066355139
0.0079324814 0.0041666669 -0.00066355139
0.0083923358 -0.0018518518 -0.00066355139
0.012301095 -0.0025462962 -0.021271028
0.0086222626 0.0062500001 -0.0093644857
0.0017244526 -0.0057870368 -0.010280374
-0.014830292 -0.00092592591 -0.021042056
-0.00011496351 -0.0057870368 -0.0015794393
-0.014370438 0.0055555557 -0.0098224301
-0.0072427006 -0.0060185185 -0.020813083
-0.0033339416 -0.0060185185 -0.019210281
0.0070127738 0.0062500001 -0.019897196
-0.0083923358 0.0050925924 -0.00066355139
0.0014945256 0.0060185185 -0.0079906546
0.012301095 -0.0048611113 -0.021042056
-0.0058631385 0.0062500001 -0.0079906546
0.010691606 0.0062500001 -0.010738318
-0.0074726278 -0.0057870368 -0.00043457944
0.0033339416 0.0050925924 -0.021271028
-0.014600365 0.0030092592 -0.00066355139
-0.0019543795 0.0060185185 -0.0082196258
0.014370438 -0.0053240741 -0.016004672
-0.0026441605 -0.0060185185 -0.012570093
0.014600365 0.0055555557 -0.0079906546
0.0044835769 -0.0062500001 -0.0052429908
0.0021843065 0.0060185185 -0.002495327
-0.012531022 0.0062500001 -0.0075327102
-0.015060219 0.00046296295 -0.0040981309
0.014370438 -0.0039351853 -0.018065421
0.0081624091 0.0062500001 -0.017836448
-0.0024142335 -0.0060185185 -0.013485981
0.014600365 0.0057870368 -0.0052429908
-0.01345073 0.0062500001 -0.0015794393
-0.0010346716 -0.0057870368 -0.010738318
0.0017244526 0.0057870368 -0.017607477
0.0095419707 -0.0062500001 -0.0059299064
0.0037937956 -0.0011574074 -0.00066355139
0.010461679 0.0062500001 -0.016462617
0.0014945256 -0.0060185185 -0.013257009
0.014600365 0.00069444446 -0.00066355139
0.0037937956 0.00023148148 -0.00066355139
-0.0093120439 0.0062500001 -0.019897196
-0.0047135036 -0.0032407406 -0.021271028
0.010461679 0.0027777778 -0.021271028
-0.014140511 -0.0062500001 -0.0040981309
-0.014600365 -0.0034722222 -0.0050140186
0.0090821171 -0.00046296295 -0.021500001
0.015060219 0 -0.003411215
0.014370438 -0.0055555557 -0.010738318
-0.0081624091 -0.0062500001 -0.0089065423
-0.00034489052 0.0050925924 -0.021042056
0.015290146 -0.0032407406 -0.002724299
0.014830292 -0.0034722222 -0.003640187
-0.015520073 -0.0039351853 -0.0011214954
-0.0093120439 -0.0027777778 -0.021271028
-0.0088521894 0.0062500001 -0.0050140186
0.0086222626 0.0062500001 -0.0031822431
0.010691606 0.0062500001 -0.011654206
-0.0044835769 -0.0062500001 -0.0095934579
0.00011496351 0.0060185185 -0.00066355139
0.011611314 -0.0062500001 -0.014859813
0.01345073 -0.0016203703 -0.00066355139
-0.015520073 0.0037037036 -0.00089252339
0.012071168 -0.0060185185 -0.00089252339
-0.01345073 0.0062500001 -0.0022663551
-0.00011496351 -0.0057870368 -0.0098224301
-0.0028740875 -0.0041666669 -0.021271028
0.0014945256 -0.0025462962 -0.00066355139
0.014600365 0.0053240741 -0.017836448
0.0083923358 -0.0062500001 -0.012799066
-0.015060219 0 -0.014401869
-0.010921533 0.0062500001 -0.020584112
0.012760949 -0.0062500001 -0.018523365
0.0074726278 0.0016203703 -0.021500001
-0.0060930657 0.0062500001 -0.00089252339
-0.00057481753 -0.0060185185 -0.0013504673
-0.012760949 0.0050925924 -0.00066355139
-0.015290146 0.0016203703 -0.020584112
0.015290146 0.00023148148 -0.011654206
-0.014140511 -0.0027777778 -0.021271028
0.0024142335 0.0060185185 -0.011425233
-0.014830292 -0.0032407406 -0.0063878503
-0.010231752 -0.0048611113 -0.00066355139
0.0026441605 0.0060185185 -0.012799066
0.0010346716 0.0057870368 -0.013257009
-0.0024142335 0.0060185185 -0.0031822431
-0.014370438 -0.0055555557 -0.018981308
0.0074726278 0.0062500001 -0.015088785
-0.0026441605 0.0018518518 -0.00066355139
0.0037937956 0.0034722222 -0.00066355139
0.015520073 -0.0025462962 -0.016691588
-0.0019543795 0.0057870368 -0.0045560747
-0.0065529197 0.0048611113 -0.021042056
0.0044835769 0.0037037036 -0.00066355139
-0.010461679 -0.004398148 -0.021271028
0.0065529197 -0.0055555557 -0.021042056
-0.014600365 0.0020833334 -0.00066355139
0.015520073 -0.0027777778 -0.0047850469
0.015290146 -0.0013888889 -0.021042056
0.014140511 -0.0057870368 -0.01211215
-0.015290146 0.0027777778 -0.0089065423
0.011841241 0.0027777778 -0.021271028
0.0067828465 0.0018518518 -0.00066355139
0.012531022 0.00069444446 -0.00066355139
0.014370438 0.00046296295 -0.00066355139
-0.0021843065 -0.0060185185 -0.0073037385
0.015290146 -0.00046296295 -0.0059299064
0.0074726278 0.0062500001 -0.0057009347
0.010001825 -0.0055555557 -0.021042056
0.0044835769 0.0062500001 -0.013943925
0.015290146 -0.00023148148 -0.0077616824
0.014370438 0.0046296297 -0.0029532709
-0.0035638686 0.0062500001 -0.01096729
-0.013680657 0.0062500001 -0.0061588786
0.0044835769 0.0057870368 -0.00066355139
0.0079324814 0.0062500001 -0.020126168
-0.010231752 -0.0062500001 -0.017607477
0.010231752 -0.0062500001 -0.013714953
-0.00057481753 -0.0055555557 -0.016233645
0.0033339416 -0.0060185185 -0.014401869
0.015290146 0.0034722222 -0.01096729
0.0049434309 -0.0062500001 -0.013028038
0.0014945256 -0.0034722222 -0.00066355139
0.012531022 -0.0016203703 -0.00066355139
0.0019543795 0.0060185185 -0.0018084112
0.0012645986 0.0057870368 -0.003640187
-0.015290146 0.00092592591 -0.0047850469
-0.014830292 0.0034722222 -0.0068457946
0.014600365 0.0050925924 -0.016691588
0.0028740875 -0.0060185185 -0.013943925
-0.010231752 -0.0062500001 -0.011425233
-0.01345073 -0.0062500001 -0.011883178
-0.0019543795 0.0057870368 -0.0068457946
-0.0079324814 0.0062500001 -0.004327103
0.0010346716 -0.0062500001 -0.0011214954
0.0024142335 0.004398148 -0.00066355139
-0.0086222626 0.0062500001 -0.0089065423
-0.01115146 0.0016203703 -0.021271028
-0.012071168 -0.0020833334 -0.021271028
0.0065529197 0.0062500001 -0.004327103
0.0035638686 -0.0055555557 -0.021042056
-0.0051733577 0.0062500001 -0.0022663551
0.0063229925 -0.0062500001 -0.0020373832
0.0097718975 -0.0062500001 -0.00089252339
-0.015290146 -0.0018518518 -0.0052429908
-0.0051733577 -0.0062500001 -0.002724299
-0.0086222626 -0.0062500001 -0.0022663551
-0.015060219 0.00092592591 -0.0073037385
0.011611314 -0.0016203703 -0.021271028
-0.0072427006 -0.0062500001 -0.0038691589
-0.015290146 -0.0025462962 -0.016920561
-0.012531022 -0.0062500001 -0.01096729
-0.014370438 0.0055555557 -0.0045560747
0.012531022 -0.0062500001 -0.014172897
0.014830292 0.0023148148 -0.021042056
-0.0070127738 -0.0062500001 -0.016004672
-0.0012645986 0.0057870368 -0.011196261
-0.015060219 0.00046296295 -0.01211215
-0.0047135036 -0.0053240741 -0.021042056
0.0065529197 0.0034722222 -0.00066355139
-0.0012645986 0.0025462962 -0.021271028
-0.0095419707 0.004398148 -0.021271028
-0.013680657 0.0062500001 -0.0077616824
-0.0017244526 -0.0060185185 -0.0093644857
0.015290146 -0.0020833334 -0.0022663551
0.012990876 -0.00069444446 -0.00066355139
-0.0070127738 -0.0062500001 -0.002495327
0.015290146 0.0011574074 -0.0054719625
0.011841241 -0.0062500001 -0.014630841
-0.0056332117 0.0053240741 -0.021042056
0.0063229925 -0.00092592591 -0.00066355139
0.012531022 -0.0046296297 -0.021042056
0.013220803 -0.0062500001 -0.017836448
-0.0051733577 -0.0062500001 -0.014630841
-0.014600365 0.0041666669 -0.020355141
-0.014370438 -0.0060185185 -0.020126168
0.0060930657 -0.0020833334 -0.021271028
-0.0028740875 0.0060185185 -0.0047850469
0.012990876 0.0034722222 -0.021271028
0.0024142335 0.0057870368 -0.018752337
-0.015060219 -0.0011574074 -0.013028038
0.0054032844 -0.0062500001 -0.0022663551
0.015290146 0.00023148148 -0.019897196
