# .PCD v0.7 - Point Cloud Data file format
VERSION 0.7
FIELDS x y z
SIZE 4 4 4
TYPE F F F
COUNT 1 1 1
WIDTH 1213
HEIGHT 1
VIEWPOINT 0 0 0 1 0 0 0
POINTS 1213
DATA ascii
0.0085159251 0.00083333335 -0.012846757
0.0075333188 -0.0011666666 -0.013663599
0.0031115881 -0.0016666667 -0.017584447
0.0029478204 0.0018333333 -0.0082724355
-0.0057318727 -0.0020000001 -0.0020644274
0.0049130339 0.0013333333 -0.017584447
0.0049130339 0.0018333333 -0.010886333
0.0011463746 -0.0018333333 -0.015460654
0.0058956407 -0.0015 -0.01595076
-0.0022927492 0.0016666667 -0.017911185
-0.0018014457 -0.0020000001 -0.0085991723
-0.002456517 -0.0020000001 -0.010069489
0.0040941951 -0.00066666666 -0.019871607
0.0011463746 -0.0020000001 -0.014317074
0.0072057829 0.001 -0.0068021175
0.0027840526 -0.001 -0.019871607
-0.006550712 -0.001 -0.017421078
0.0073695509 -0.0011666666 -0.015460654
-0.0067144795 -0.0018333333 -0.000920847
0.0045854985 0.0020000001 -0.004351588
-0.0026202847 -0.0020000001 -0.010559596
-0.0062231761 0.0013333333 -0.016114129
0.0039304271 -0.0015 -0.017747816
-0.0026202847 -0.00050000002 -0.020851819
-0.0044217305 0.0018333333 -0.011049702
-0.0058956407 0 -0.01954487
0.0068782475 -0.0013333333 -0.013663599
-0.0018014457 -0.001 -0.0040248507
0.0063869441 -0.00083333335 -0.0068021175
-0.0063869441 -0.0023333333 -0.0061486429
-0.0063869441 -0.0015 0.00038610201
0.0036028915 -0.00016666666 -0.02068845
-0.0019652136 -0.0023333333 -0.0069654859
0.0062231761 0.0015 -0.015624023
0.00032753558 0.0016666667 -0.017421078
0.0034391237 -0.0018333333 -0.016604235
-0.0026202847 0.0021666666 -0.0097427526
-0.009170997 0.00033333333 -0.013990337
0.0076970863 0.00083333335 -0.016277498
-0.0067144795 0.0013333333 -0.0082724355
-0.0019652136 -0.0020000001 -0.010396227
0.0070420154 0.0015 -0.010886333
0.0021289813 -0.0021666666 -0.0099061215
-0.0049130339 -0.0018333333 -0.013010126
-0.0062231761 -0.0023333333 -0.0077823293
-0.003275356 0.0018333333 -0.016277498
-0.00065507117 -0.0020000001 -0.014153706
0.00049130339 0.0020000001 -0.011213071
-0.0085159251 0.00033333333 -0.0085991723
-0.0034391237 -0.0020000001 -0.013990337
0.0013101423 -0.0020000001 -0.013500231
0.00032753558 -0.0023333333 -0.0089259092
-0.00049130339 -0.0020000001 -0.011539808
0.0039304271 0.0013333333 -0.004351588
-0.0039304271 -0.0016666667 -0.016930971
0.0011463746 0.0023333333 -0.007455592
0.0052405694 0.0015 -0.004351588
0.0055681053 -0.00050000002 -0.01954487
-0.0076970863 0.0011666666 -0.010396227
0.0036028915 0.0020000001 -0.010886333
-0.0013101423 -0.0020000001 -0.0050050626
0.0027840526 -0.0018333333 -0.015787391
0.0049130339 0.0016666667 -0.01595076
-0.003275356 -0.00066666666 -0.020361714
-0.004749266 0.00066666666 -0.0048416941
-0.0050768019 0.0011666666 -0.0061486429
-0.0055681053 -0.0024999999 -0.0064753802
-0.0062231761 0.0013333333 -0.0082724355
-0.0057318727 -0.0015 -0.015624023
0.0090072285 0.00033333333 -0.014317074
-0.00032753558 0.0018333333 -0.016440867
0.0078608543 0.001 -0.014643812
-0.00098260678 -0.00016666666 -0.0032080077
-0.0081883902 0.00050000002 -0.0082724355
0.006550712 0.0016666667 -0.0090892781
0.006550712 -0.0015 -0.012356651
-0.0067144795 -0.0018333333 -0.0020644274
0.0054043373 -0.001 -0.017747816
0.0036028915 -0.0016666667 -0.0064753802
-0.0073695509 0.0011666666 -0.013663599
-0.0055681053 -0.00033333333 -0.004351588
0.0031115881 0.0018333333 -0.0082724355
-0.0072057829 -0.0013333333 -0.0095793838
0.00016376779 0.0023333333 -0.010232858
0.0063869441 0.0020000001 0.0013663138
0.006550712 0.0015 -0.0094160158
-0.0067144795 -0.0018333333 -0.00075747835
-0.0011463746 -0.0013333333 -0.019218134
-0.00032753558 -0.001 -0.020361714
-0.0062231761 0.0013333333 -0.0079456978
-0.0037666594 -0.0018333333 -0.015133917
-0.0050768019 0.0016666667 -0.013173494
-0.0049130339 -0.0024999999 -0.0059852744
-0.0054043373 0.00083333335 -0.0059852744
-0.0067144795 -0.0016666667 -0.0090892781
-0.0063869441 -0.0016666667 -0.011866544
0.00016376779 0.0021666666 -0.0064753802
0.003275356 0.001 -0.004351588
0.0054043373 0.00066666666 -0.019218134
-0.0039304271 -0.0020000001 -0.011539808
0.0011463746 -0.0020000001 -0.013173494
-0.0090072285 0.00066666666 -0.012029913
-0.0026202847 0.0018333333 -0.016440867
-0.00065507117 0.0018333333 -0.016930971
0.00016376779 -0.0021666666 -0.012193282
-0.0050768019 -0.0016666667 -0.015297286
0.0044217305 0.0020000001 -0.010069489
0.0085159251 -0.00083333335 -0.014480443
-0.0067144795 -0.00083333335 -0.0056585371
0.0037666594 -0.0020000001 -0.014153706
0.0013101423 -0.0018333333 -0.016767604
0.0040941951 0.00083333335 -0.004351588
0.0055681053 -0.0016666667 -0.014480443
-0.0054043373 -0.0024999999 -0.0069654859
-0.0062231761 -0.0013333333 -0.016440867
-0.0019652136 0.0020000001 -0.0072922232
0.00065507117 -0.0023333333 -0.0081090666
0.004749266 0.0024999999 -0.0076189605
-0.0027840526 0.0020000001 -0.012356651
0.0052405694 0.0018333333 -0.014153706
0.0049130339 0.0023333333 -0.0084358035
-0.0029478204 0.0018333333 -0.0077823293
0.0067144795 0.0015 -0.0053317999
-0.0014739102 -0.0015 -0.018891396
0.0067144795 0.0021666666 -0.0028812704
-0.00081883901 0.0020000001 -0.013990337
0.0090072285 -0.00050000002 -0.013500231
0.0021289813 -0.0015 -0.01823792
0.00016376779 0.0024999999 -0.0077823293
-0.002456517 -0.0023333333 -0.0081090666
-0.0060594087 0.0013333333 -0.0077823293
-0.0060594087 -0.0016666667 -0.010396227
0.0054043373 0.0015 -0.016440867
0.0055681053 -0.0011666666 -0.017421078
0.0067144795 0.0021666666 -0.0012475842
0.00065507117 0.00033333333 -0.021505294
0.0058956407 -0.0016666667 -0.010722964
-0.0018014457 -0.0023333333 -0.010232858
-0.00081883901 0.0018333333 -0.0056585371
-0.0049130339 -0.0011666666 -0.018564658
-0.0018014457 -0.0020000001 -0.014643812
-0.0062231761 -0.0011666666 -0.00075747835
0.00049130339 0.0016666667 -0.0059852744
-0.009170997 0.00050000002 -0.011213071
0.0050768019 -0.0011666666 -0.018401289
-0.0086796936 -0.00083333335 -0.013336862
-0.0073695509 0.0011666666 -0.010886333
0.00016376779 0.0015 -0.018564658
-0.0073695509 0.0013333333 -0.0099061215
-0.006550712 -0.0015 -0.010232858
0.00016376779 -0.00050000002 -0.021178557
0.0013101423 0.0011666666 -0.019708239
-0.0040941951 0.0018333333 -0.0082724355
-0.0018014457 0.00033333333 -0.0033713763
-0.0039304271 -0.001 -0.01954487
-0.0090072285 0.00050000002 -0.014153706
0.0085159251 -0.00083333335 -0.011049702
-0.0067144795 0.0011666666 -0.016114129
0.0018014457 0.0013333333 -0.004351588
0.0045854985 -0.0015 -0.0077823293
-0.0039304271 -0.0020000001 -0.014153706
-0.0081883902 -0.00066666666 -0.0089259092
0.0039304271 0.0020000001 -0.013500231
0.0018014457 -0.00083333335 -0.020525081
0.00016376779 -0.0020000001 -0.013173494
-0.0067144795 -0.0015 -0.0045149568
0.0039304271 -0.00066666666 -0.020198345
0.0075333188 0.0013333333 -0.013663599
0.0063869441 0.0021666666 -0.0085991723
-0.0072057829 -0.001 -0.0064753802
0.0085159251 0.00016666666 -0.0084358035
-0.0076970863 -0.0011666666 -0.012846757
0.0037666594 0.001 -0.019381501
-0.0054043373 -0.0015 -0.004351588
-0.0067144795 -0.0021666666 -0.002227796
-0.0055681053 0.00083333335 -0.018891396
0.0013101423 0.0020000001 -0.015460654
0.0058956407 0.0023333333 -0.0072922232
-0.0080246218 -0.00033333333 -0.0076189605
0.00049130339 0.0020000001 -0.015133917
0.0026202847 -0.0020000001 -0.013990337
-0.0060594087 -0.0018333333 0.0025098941
-0.00032753558 -0.0015 -0.01823792
0.0021289813 -0.0015 -0.018074552
-0.0081883902 0.001 -0.011539808
-0.0055681053 0.0016666667 -0.010559596
-0.00065507117 -0.0011666666 -0.019871607
0.00032753558 0.0021666666 -0.012683388
-0.004749266 -0.0018333333 -0.011539808
-0.0018014457 0.0013333333 -0.019218134
0.0026202847 -0.0020000001 -0.014317074
0.0019652136 -0.0020000001 -0.015624023
0.0045854985 0.0020000001 -0.012683388
-0.0067144795 -0.0016666667 -0.0056585371
-0.0052405694 -0.00033333333 -0.004351588
-0.0062231761 0.00016666666 -0.0054951683
-0.0013101423 -0.0015 -0.018564658
0.00016376779 -0.0016666667 -0.017584447
-0.00049130339 -0.0018333333 -0.0054951683
-0.0080246218 -0.00016666666 -0.0076189605
-0.0031115881 -0.0016666667 -0.017584447
0.00098260678 -0.0016666667 -0.017747816
-0.0063869441 -0.0011666666 -0.01709434
-0.0073695509 -0.0013333333 -0.012520019
0.0039304271 0.00016666666 -0.02068845
-0.00081883901 0.00066666666 -0.0036981136
0.0050768019 0.0018333333 -0.012356651
0.0042579626 0.0023333333 -0.0081090666
-0.003275356 -0.0023333333 -0.0090892781
-0.0013101423 -0.00016666666 -0.0032080077
0.0031115881 -0.00083333335 -0.0041882196
-0.00098260678 0.00050000002 -0.0033713763
-0.00065507117 -0.0020000001 -0.014480443
-0.001637678 0.0015 -0.0059852744
-0.004749266 -0.0021666666 -0.0094160158
-0.001637678 -0.0013333333 -0.019054765
0.0060594087 0.0011666666 -0.0019010587
-0.0050768019 0.0016666667 -0.01595076
-0.0019652136 0.0020000001 -0.014807181
0.0021289813 0.0023333333 -0.0068021175
-0.0034391237 0.0020000001 -0.014317074
-0.0039304271 -0.0020000001 -0.012356651
-0.0031115881 -0.0023333333 -0.0054951683
0.00098260678 -0.0020000001 -0.013173494
0.0057318727 0.0015 -0.0023911647
0.0057318727 0.0015 -0.0032080077
-0.0062231761 -0.0015 0.0025098941
-0.0021289813 -0.00033333333 -0.021178557
0.0058956407 0.0024999999 -0.0050050626
0 -0.0018333333 -0.0053317999
0.0062231761 -0.0011666666 -0.017257709
-0.0090072285 -0.00050000002 -0.014153706
-0.0049130339 -0.0018333333 -0.011376439
0.0057318727 -0.0013333333 -0.016767604
-0.0040941951 0.0018333333 -0.015624023
-0.0057318727 -0.0023333333 -0.0059852744
-0.0040941951 -0.0020000001 -0.0095793838
0.0067144795 0.0018333333 -0.0023911647
-0.0040941951 -0.001 -0.019218134
-0.0060594087 -0.001 -0.0040248507
0.0034391237 0.0021666666 -0.0094160158
0.003275356 -0.0015 -0.0059852744
-0.0073695509 0.00033333333 -0.017911185
0.0039304271 -0.0020000001 -0.0094160158
-0.0063869441 -0.0015 0.0020197881
-0.0044217305 -0.0018333333 -0.015460654
-0.0073695509 0.00083333335 -0.016930971
0.0088434611 -0.00066666666 -0.011703176
0.0063869441 0.0016666667 -0.012193282
-0.0063869441 -0.0011666666 -0.017257709
-0.0063869441 0.0015 -0.0097427526
0.0050768019 -0.0016666667 -0.015460654
0.0018014457 -0.00050000002 -0.0033713763
-0.0037666594 -0.0020000001 -0.012193282
-0.0029478204 0.0018333333 -0.0087625412
-0.0039304271 -0.00083333335 -0.019708239
-0.006550712 -0.0015 -0.011703176
-0.0037666594 -0.0016666667 -0.017421078
0.0083521577 0.001 -0.013500231
0.004749266 0.0018333333 -0.014807181
0.0057318727 0.0020000001 -0.0025545333
-0.0029478204 0.0016666667 -0.006638749
-0.001637678 -0.0020000001 -0.014480443
0.0052405694 -0.0011666666 -0.018074552
0.0044217305 0.0015 -0.017584447
-0.006550712 0.0015 -0.0095793838
0.0013101423 0.0018333333 -0.016604235
-0.0021289813 0.0015 -0.0063120117
0.0078608543 0 -0.0072922232
-0.00032753558 0.0021666666 -0.012520019
-0.0026202847 -0.0021666666 -0.0082724355
-0.0040941951 -0.0015 -0.018074552
-0.0037666594 0.001 -0.01954487
-0.0021289813 -0.0018333333 -0.016114129
0.0057318727 -0.00066666666 -0.019054765
0.0050768019 0.0024999999 -0.0054951683
-0.0054043373 -0.0021666666 -0.0089259092
0.0049130339 -0.0018333333 -0.013500231
0.0031115881 -0.0020000001 -0.014643812
-0.0013101423 -0.0011666666 -0.01954487
-0.0072057829 -0.00066666666 -0.017584447
-0.002456517 0.0016666667 -0.017747816
0.0063869441 0.00033333333 -0.0053317999
-0.0055681053 -0.0016666667 -0.015460654
-0.00049130339 -0.0015 -0.004351588
0.0058956407 0.0023333333 -0.003534745
0.00049130339 0.0023333333 -0.010396227
0.0042579626 -0.0018333333 -0.0090892781
0.0076970863 0.00083333335 -0.007455592
-0.0081883902 -0.00083333335 -0.0090892781
-0.0054043373 0.001 -0.01823792
0.0036028915 -0.00083333335 -0.0046783253
-0.0031115881 0.0020000001 -0.010396227
0.00049130339 0.0021666666 -0.012846757
0.0013101423 0 -0.021505294
-0.0034391237 -0.0023333333 -0.0058219056
0.0018014457 -0.0020000001 -0.014643812
-0.00032753558 -0.0021666666 -0.0081090666
0.004749266 0.0015 -0.016767604
0.0054043373 -0.0015 -0.016277498
-0.0073695509 -0.001 -0.015297286
0.0021289813 0.0023333333 -0.0059852744
0.0060594087 0.0023333333 -0.0028812704
-0.0039304271 0.0018333333 -0.0082724355
0.0027840526 -0.0016666667 -0.017584447
-0.001637678 0.0021666666 -0.0085991723
-0.0013101423 0.0016666667 -0.0059852744
-0.0067144795 0.0013333333 -0.012193282
0.0013101423 0.0020000001 -0.015133917
0.0029478204 -0.0013333333 -0.0054951683
-0.0090072285 -0.00050000002 -0.010396227
0.0067144795 0.0018333333 -0.0025545333
-0.0058956407 -0.0016666667 -0.013663599
0.0093347644 -0.00033333333 -0.012193282
0.0013101423 -0.0015 -0.018564658
0.0039304271 0.0020000001 -0.011703176
-0.002456517 0.0016666667 -0.0071288547
0.002456517 -0.0020000001 -0.012356651
0.0068782475 0.0018333333 -0.0084358035
-0.0039304271 -0.0016666667 -0.016767604
0.0037666594 0.0023333333 -0.0081090666
-0.009170997 0.00033333333 -0.013336862
0.0034391237 0.0016666667 -0.016930971
-0.0027840526 -0.0023333333 -0.0095793838
-0.0018014457 0.0018333333 -0.016767604
0.0067144795 0.0015 -0.013173494
0.0018014457 -0.00066666666 -0.003534745
0.0037666594 -0.0018333333 -0.01595076
0.0073695509 0.00016666666 -0.006638749
0.0062231761 0.0023333333 -0.007455592
0 -0.0021666666 -0.011049702
0.004749266 0.0018333333 -0.012846757
0.0022927492 0.0024999999 -0.0079456978
0.0081883902 0.00066666666 -0.0085991723
0.0072057829 0.001 -0.016114129
0.0013101423 0.0021666666 -0.0056585371
0.0086796936 0.00083333335 -0.012193282
0.00032753558 0.0023333333 -0.010722964
-0.002456517 0.0013333333 -0.0050050626
-0.0022927492 0.00033333333 -0.0033713763
-0.0027840526 -0.0021666666 -0.0050050626
-0.0018014457 -0.0020000001 -0.014317074
-0.0060594087 0.0015 -0.012029913
-0.00098260678 0.0013333333 -0.0050050626
-0.00081883901 0.0020000001 -0.013663599
0.00049130339 0.0021666666 -0.0063120117
0.0011463746 -0.0011666666 -0.019708239
-0.0039304271 -0.0023333333 -0.0048416941
-0.0021289813 -0.0020000001 -0.014153706
0.0026202847 0.0020000001 -0.014480443
0.00016376779 -0.0020000001 -0.011703176
-0.0073695509 0.00083333335 -0.01709434
0.00065507117 -0.0020000001 -0.014153706
0.0039304271 0.00066666666 -0.020198345
0.0045854985 0.00016666666 -0.004351588
0.003275356 0.0020000001 -0.0094160158
-0.0058956407 -0.0015 -0.01595076
-0.0029478204 0 -0.003534745
0.0058956407 -0.0013333333 -0.0081090666
0.0093347644 0 -0.012029913
-0.0060594087 0.0011666666 -0.017584447
0.0026202847 0.0020000001 -0.011049702
0.009170997 -0.00016666666 -0.014317074
-0.0078608543 0.001 -0.010232858
-0.0080246218 0.001 -0.011376439
0.0044217305 0.001 -0.004351588
-0.0050768019 -0.0024999999 -0.0076189605
0.0067144795 0.0020000001 -0.0081090666
-0.0057318727 -0.00066666666 -0.004351588
0.0036028915 -0.0020000001 -0.013500231
-0.0026202847 0.0015 -0.018564658
-0.0080246218 0.00033333333 -0.0077823293
0.0026202847 0.0020000001 -0.007455592
-0.0067144795 -0.0013333333 -0.0025545333
0.0055681053 -0.00066666666 -0.018891396
-0.001637678 0.0023333333 -0.010232858
-0.0078608543 -0.00016666666 -0.007455592
0.001637678 -0.0020000001 -0.014153706
0.0036028915 -0.0020000001 -0.011866544
0.0057318727 -0.0016666667 -0.015133917
0.0011463746 -0.0015 -0.018401289
-0.0057318727 -0.0018333333 -0.0019010587
0.0070420154 0.0013333333 -0.010559596
-0.00032753558 -0.0021666666 -0.010886333
0.0076970863 -0.001 -0.014643812
0.002456517 0.0023333333 -0.0085991723
-0.0068782475 0.0013333333 -0.015624023
0.0062231761 -0.0013333333 -0.015787391
0.00065507117 -0.0023333333 -0.0090892781
-0.00032753558 0.0020000001 -0.014317074
-0.0042579626 0.0016666667 -0.016440867
0.0080246218 0.00083333335 -0.0087625412
-0.00065507117 -0.0020000001 -0.011376439
0.0022927492 0 -0.0033713763
-0.0021289813 0 -0.021341925
-0.003275356 -0.0018333333 -0.016277498
0.00098260678 -0.00066666666 -0.0033713763
0.00098260678 -0.0021666666 -0.011866544
-0.0040941951 -0.0020000001 -0.013500231
-0.00081883901 -0.0018333333 -0.017257709
0.0054043373 -0.0016666667 -0.014480443
0.0018014457 0.0021666666 -0.012846757
-0.0073695509 -0.0013333333 -0.011866544
0.0042579626 0.0020000001 -0.010069489
-0.0057318727 -0.0023333333 -0.0085991723
-0.0062231761 -0.00050000002 -0.0050050626
-0.004749266 -0.0024999999 -0.0061486429
-0.0081883902 0.00083333335 -0.011213071
-0.003275356 0.0018333333 -0.0089259092
-0.0072057829 -0.0013333333 -0.0068021175
-0.0080246218 -0.001 -0.011049702
0.001637678 0.00033333333 -0.021341925
0.0045854985 0.0024999999 -0.0063120117
0.001637678 -0.0021666666 -0.0071288547
0.0018014457 0.001 -0.020034976
0.0027840526 -0.0020000001 -0.013663599
-0.0083521577 -0.00083333335 -0.0099061215
-0.0052405694 -0.0024999999 -0.0051684314
-0.0081883902 -0.001 -0.013500231
-0.0036028915 0.00033333333 -0.0038614823
0.0029478204 0.0020000001 -0.0097427526
-0.0026202847 0.0013333333 -0.019054765
0.0054043373 -0.0011666666 -0.0071288547
-0.001637678 0.0018333333 -0.016114129
-0.0049130339 -0.0013333333 -0.004351588
0.0037666594 0.0011666666 -0.019218134
-0.0018014457 0.0020000001 -0.011213071
-0.0086796936 -0.00033333333 -0.015787391
-0.0060594087 -0.0016666667 -0.013663599
-0.0085159251 0.00066666666 -0.0097427526
0.0021289813 0.0023333333 -0.0085991723
0.0060594087 -0.0016666667 -0.011049702
0.0034391237 0.0018333333 -0.016440867
0.0057318727 0.0016666667 -0.012193282
-0.0070420154 0.0013333333 -0.012846757
-0.006550712 0.0015 -0.011866544
-0.0054043373 0.0016666667 -0.012193282
0.0011463746 0.0023333333 -0.0061486429
-0.004749266 0.00066666666 -0.0050050626
-0.0078608543 0.0011666666 -0.011049702
0.0042579626 0.001 -0.004351588
0.0027840526 -0.0020000001 -0.010559596
0.0013101423 0.0020000001 -0.015624023
-0.0072057829 0.00083333335 -0.01709434
0.0054043373 -0.0013333333 -0.016930971
-0.006550712 -0.0011666666 -0.016767604
0.0072057829 -0.001 -0.0087625412
-0.0063869441 -0.0021666666 -0.0081090666
0.0058956407 0.0023333333 -0.0068021175
0.0052405694 0.0015 -0.016767604
-0.0063869441 -0.0023333333 -0.0076189605
-0.0085159251 0.00033333333 -0.016114129
-0.0042579626 0.0018333333 -0.010722964
-0.0080246218 -0.00066666666 -0.016440867
-0.0054043373 -0.0018333333 -0.013990337
0.004749266 0.0015 -0.017584447
0.0037666594 0.0018333333 -0.016440867
-0.0034391237 0.0016666667 -0.0068021175
-0.0062231761 0.0011666666 -0.016440867
0.0072057829 -0.0011666666 -0.011703176
-0.0054043373 0.0016666667 -0.011866544
0.00098260678 -0.0018333333 -0.0058219056
0.0057318727 -0.0016666667 -0.013500231
0.006550712 0.0023333333 -0.0012475842
0.0072057829 -0.001 -0.016277498
0.0019652136 -0.0020000001 -0.011866544
0.004749266 -0.0011666666 -0.0059852744
-0.004749266 -0.0011666666 -0.0045149568
-0.00032753558 0.0020000001 -0.014480443
0.00098260678 0.0020000001 -0.013010126
-0.0036028915 0.0015 -0.01823792
-0.0022927492 0.0015 -0.01823792
-0.0067144795 -0.0018333333 -0.002717902
0.0036028915 0.0023333333 -0.0085991723
-0.0058956407 -0.0018333333 0.0020197881
-0.003275356 0.0020000001 -0.010069489
-0.0081883902 0.00016666666 -0.0079456978
-0.004749266 0.0015 -0.0068021175
0.0052405694 0.001 -0.018891396
-0.0027840526 -0.0018333333 -0.016440867
-0.00081883901 -0.00083333335 -0.02068845
0.0011463746 -0.0018333333 -0.015297286
0.0075333188 -0.0013333333 -0.010396227
0.009170997 -0.00033333333 -0.011539808
0.0070420154 0.0013333333 -0.013663599
-0.0086796936 -0.00033333333 -0.015460654
-0.0036028915 0.0016666667 -0.0071288547
0.0026202847 0.0020000001 -0.013500231
-0.00016376779 0.0018333333 -0.0059852744
0.0075333188 -0.001 -0.015787391
0.0039304271 0.0013333333 -0.018401289
0.0021289813 -0.0018333333 -0.016604235
-0.0014739102 0.0020000001 -0.015133917
0.003275356 -0.001 -0.0046783253
0.0045854985 -0.00083333335 -0.0053317999
-0.0013101423 0.0021666666 -0.0085991723
0.0080246218 -0.001 -0.011376439
-0.0029478204 0.0020000001 -0.012846757
0.0034391237 0.0020000001 -0.013336862
0.0040941951 -0.0018333333 -0.0087625412
-0.0058956407 0.0015 -0.0087625412
0.0088434611 0 -0.0090892781
-0.0050768019 0.0016666667 -0.016114129
-0.00081883901 0.0021666666 -0.012683388
0.0013101423 0.00066666666 -0.021015188
0.0026202847 -0.0018333333 -0.0082724355
0.0031115881 0.0020000001 -0.013826968
0.0039304271 0.0020000001 -0.010396227
0.0076970863 -0.00066666666 -0.016767604
-0.0054043373 0.00066666666 -0.019054765
0.00049130339 0.0021666666 -0.012193282
-0.0039304271 -0.0020000001 -0.012520019
-0.0090072285 -0.00033333333 -0.010069489
0.0042579626 0.0020000001 -0.014317074
0.0067144795 0.0021666666 -0.0054951683
0.0062231761 0.00066666666 -0.0048416941
-0.0021289813 -0.0021666666 -0.0050050626
-0.0014739102 -0.00050000002 -0.021178557
-0.00016376779 0.0016666667 -0.01823792
0.0093347644 0.00033333333 -0.012356651
0.0072057829 -0.0011666666 -0.011049702
0.0019652136 -0.0020000001 -0.015787391
0.0088434611 -0.00016666666 -0.0094160158
0.0054043373 0.0023333333 -0.0084358035
-0.0085159251 -0.00083333335 -0.012683388
0.00049130339 0.0023333333 -0.0082724355
0.0083521577 -0.00033333333 -0.0084358035
0.0093347644 0.00016666666 -0.011703176
-0.0067144795 -0.0021666666 -0.0064753802
0.0049130339 0.0016666667 -0.016440867
-0.0031115881 0.0016666667 -0.006638749
0.0045854985 -0.0020000001 -0.010396227
-0.0080246218 -0.001 -0.015133917
0.002456517 -0.00050000002 -0.0036981136
0.0019652136 0.0023333333 -0.0058219056
-0.001637678 -0.0021666666 -0.010232858
-0.0013101423 0.00033333333 -0.021178557
-0.00049130339 0.0018333333 -0.015624023
-0.0055681053 -0.0023333333 -0.0081090666
0.0031115881 0.0016666667 -0.018074552
0.0067144795 -0.0013333333 -0.010722964
0.0027840526 -0.0018333333 -0.0077823293
-0.003275356 0.0018333333 -0.0077823293
0.00049130339 -0.0020000001 -0.013336862
-0.0036028915 0.001 -0.019708239
0.0044217305 -0.0011666666 -0.018728027
0.0070420154 0 -0.018401289
0.0021289813 0.0020000001 -0.01595076
0.0042579626 0.0024999999 -0.0076189605
0.001637678 0.0021666666 -0.007455592
-0.0083521577 0.00050000002 -0.01595076
0 0.0011666666 -0.019708239
0.0058956407 0.0016666667 -0.011049702
0.00049130339 -0.0023333333 -0.0097427526
-0.0037666594 -0.0020000001 -0.010232858
-0.0026202847 0.0021666666 -0.010069489
-0.0019652136 -0.0015 -0.017911185
-0.002456517 -0.0023333333 -0.0079456978
0.0037666594 -0.0016666667 -0.0076189605
-0.0045854985 -0.0011666666 -0.018564658
-0.0060594087 -0.0020000001 0.0013663138
-0.0063869441 -0.0011666666 -0.0032080077
-0.0014739102 -0.0018333333 -0.016767604
0.00065507117 0.001 -0.020361714
-0.0052405694 0.0013333333 -0.017421078
0.0052405694 -0.0018333333 -0.014153706
0.0076970863 -0.00050000002 -0.0076189605
0.00049130339 0.0018333333 -0.017257709
0.0029478204 0.0024999999 -0.0061486429
0.00098260678 0.0021666666 -0.0059852744
-0.0067144795 -0.0021666666 -0.0023911647
-0.0083521577 -0.00083333335 -0.013663599
-0.0062231761 -0.0023333333 -0.0069654859
0.0027840526 0.0021666666 -0.0051684314
0.0011463746 0.0011666666 -0.020198345
0.0080246218 -0.001 -0.014480443
-0.009170997 -0.00016666666 -0.011213071
0.003275356 0.0013333333 -0.004351588
0.00016376779 -0.0020000001 -0.014807181
0.0029478204 0.0024999999 -0.0076189605
-0.0090072285 -0.00066666666 -0.013010126
-0.0037666594 0.0020000001 -0.012520019
0.004749266 -0.0015 -0.0082724355
0.0060594087 -0.0016666667 -0.012356651
-0.0031115881 0.0015 -0.0064753802
0.0014739102 0.0021666666 -0.011703176
0.0055681053 0.0015 -0.010559596
-0.0057318727 0.00033333333 -0.0051684314
0.0022927492 0.0020000001 -0.0095793838
-0.003275356 -0.0020000001 -0.010559596
-0.00049130339 -0.00050000002 -0.021341925
-0.0013101423 -0.0021666666 -0.012520019
0.00016376779 0.0023333333 -0.0077823293
-0.0072057829 -0.00083333335 -0.0063120117
-0.004749266 0.0015 -0.016767604
0.004749266 -0.0018333333 -0.015133917
-0.0062231761 0.0015 -0.013990337
0.0049130339 -0.00083333335 -0.019218134
0.0011463746 0.0023333333 -0.0082724355
0.0080246218 -0.001 -0.014970548
-0.0031115881 0.0020000001 -0.013336862
0.0072057829 -0.0011666666 -0.011213071
-0.006550712 -0.001 -0.017747816
0.0021289813 0.0021666666 -0.0051684314
-0.0013101423 0.0016666667 -0.017421078
-0.0034391237 -0.0015 -0.017911185
0.0022927492 -0.00016666666 -0.0033713763
0.0013101423 0.0020000001 -0.015297286
0.00098260678 0.0021666666 -0.0092526469
0.0039304271 0.0020000001 -0.013990337
0.0072057829 -0.0011666666 -0.013336862
0.0018014457 0.0024999999 -0.0076189605
0.003275356 -0.0020000001 -0.012193282
-0.0057318727 0 -0.0050050626
-0.00049130339 -0.0023333333 -0.007455592
0.003275356 0.0018333333 -0.016767604
-0.00049130339 0.0020000001 -0.015297286
0.0049130339 -0.0018333333 -0.011866544
-0.0042579626 -0.0023333333 -0.0061486429
-0.0026202847 -0.0020000001 -0.014643812
0.00098260678 0.0023333333 -0.0068021175
-0.0067144795 -0.0020000001 -0.0069654859
0.0060594087 0.0023333333 -0.0072922232
-0.0034391237 -0.001 -0.019871607
-0.00049130339 0.00050000002 -0.0033713763
-0.0062231761 0.00066666666 -0.018728027
0.00032753558 0.0021666666 -0.0063120117
-0.003275356 0.00083333335 -0.0045149568
0.0037666594 0.0023333333 -0.0084358035
0.0011463746 -0.0013333333 -0.019054765
0.00049130339 -0.0023333333 -0.010232858
0.0050768019 0.0023333333 -0.0087625412
-0.00065507117 0.0020000001 -0.013010126
0.0062231761 0.0016666667 -0.011376439
0.0013101423 -0.0011666666 -0.019871607
0.0060594087 0.0013333333 -0.016604235
-0.0076970863 0.0011666666 -0.012356651
0.00081883901 0.0018333333 -0.016277498
0.0063869441 0.0015 0.0020197881
0.0058956407 0.0023333333 -0.0054951683
-0.004749266 0.0016666667 -0.0094160158
-0.0054043373 -0.00066666666 -0.019218134
-0.0083521577 -0.00050000002 -0.01595076
0.0055681053 0.0016666667 -0.011703176
0.0058956407 -0.0013333333 -0.016767604
-0.0070420154 -0.0011666666 -0.0064753802
0.0045854985 0.0024999999 -0.007455592
0.0027840526 -0.0018333333 -0.0064753802
0.0067144795 0.0015 -0.004351588
-0.00098260678 -0.0021666666 -0.0092526469
-0.0070420154 0.0013333333 -0.014643812
-0.0011463746 0.0013333333 -0.0050050626
-0.0036028915 -0.0023333333 -0.0092526469
0.0049130339 -0.00066666666 -0.01954487
-0.00016376779 0.0023333333 -0.0089259092
0 0.00033333333 -0.021341925
0.00098260678 0.0021666666 -0.012846757
0.0060594087 0.0016666667 0.00038610201
-0.0042579626 -0.0013333333 -0.018401289
0.006550712 -0.0015 -0.011049702
0.0058956407 0.0023333333 -0.0064753802
-0.002456517 0.00083333335 -0.020525081
-0.0013101423 0.0020000001 -0.013173494
-0.0040941951 -0.0016666667 -0.0045149568
0.003275356 0.0011666666 -0.019708239
-0.0075333188 -0.0011666666 -0.0099061215
-0.002456517 0.0020000001 -0.012193282
-0.00081883901 0.0018333333 -0.016440867
0.0058956407 0.0023333333 -0.0085991723
0.0034391237 0.0020000001 -0.013010126
-0.0014739102 -0.00083333335 -0.02068845
-0.0090072285 0.00050000002 -0.013336862
0.0029478204 0.0020000001 -0.0045149568
0.0036028915 0.0023333333 -0.0054951683
-0.0027840526 -0.0020000001 -0.013500231
-0.0031115881 -0.0016666667 -0.007455592
-0.0037666594 0.00083333335 -0.0046783253
-0.0060594087 -0.0020000001 5.9364764e-05
0.0037666594 -0.00066666666 -0.004351588
-0.0057318727 0.00066666666 -0.0058219056
0.001637678 0.0020000001 -0.013173494
-0.002456517 -0.0023333333 -0.0068021175
-0.0072057829 0.0011666666 -0.01595076
-0.00016376779 -0.0020000001 -0.013500231
-0.0036028915 -0.0018333333 -0.014317074
0.0013101423 0.0020000001 -0.011213071
-0.0034391237 -0.0015 -0.004351588
0.00016376779 0.00083333335 -0.0036981136
-0.0044217305 -0.0023333333 -0.0068021175
0.0027840526 -0.0020000001 -0.011049702
-0.0044217305 -0.00033333333 -0.004351588
0.0068782475 -0.0013333333 -0.0097427526
0.0057318727 -0.00083333335 -0.0061486429
-0.0036028915 -0.0023333333 -0.0050050626
-0.0036028915 0.0020000001 -0.012029913
0.0083521577 0.001 -0.011213071
-0.0049130339 -0.0018333333 -0.012846757
0.0076970863 -0.00083333335 -0.0085991723
0.0050768019 -0.0015 -0.0081090666
0.0085159251 -0.00083333335 -0.014317074
-0.00081883901 0.0021666666 -0.012193282
-0.002456517 -0.0023333333 -0.0056585371
0.0021289813 -0.0021666666 -0.010396227
-0.0045854985 -0.001 -0.018891396
-0.0037666594 0.0018333333 -0.0097427526
0.002456517 0.0023333333 -0.0087625412
0.0018014457 0.0018333333 -0.016277498
0.0031115881 0.00033333333 -0.021015188
0.0068782475 -0.0015 -0.012193282
-0.00081883901 0.0020000001 -0.013173494
0.006550712 -0.0015 -0.011539808
-0.0052405694 -0.0013333333 -0.017257709
-0.0067144795 0.00083333335 -0.017584447
-0.006550712 -0.0011666666 -0.0020644274
-0.0057318727 0.0013333333 -0.016604235
0.0013101423 0.0021666666 -0.0085991723
-0.0057318727 -0.0024999999 -0.0064753802
0.0052405694 0.0011666666 -0.018074552
-0.0073695509 0.00066666666 -0.017421078
-0.0080246218 0.0011666666 -0.012029913
-0.0076970863 0.00083333335 -0.016277498
-0.0078608543 0 -0.017421078
0.0085159251 0.00083333335 -0.014317074
0.00049130339 0.0020000001 -0.0056585371
-0.00081883901 0.0016666667 -0.017421078
-0.004749266 -0.0016666667 -0.016604235
-0.0088434611 0.00016666666 -0.0094160158
0.0054043373 0.0016666667 -0.015297286
-0.0044217305 0.0018333333 -0.010559596
0.0040941951 0.0020000001 -0.010232858
0.0026202847 -0.0020000001 -0.0090892781
0.0090072285 0.00016666666 -0.014970548
-0.0013101423 -0.0011666666 -0.019381501
0.0021289813 -0.0020000001 -0.010886333
0.0018014457 0.0018333333 -0.0076189605
-0.002456517 0.0020000001 -0.014970548
0.00049130339 -0.0020000001 -0.015133917
0.0034391237 0.0020000001 -0.013500231
-0.0073695509 0.0013333333 -0.011866544
-0.0034391237 -0.001 -0.004351588
0.0049130339 -0.0013333333 -0.01709434
0.0037666594 0.0020000001 -0.014153706
0.0063869441 0.0020000001 0.0020197881
-0.0031115881 -0.0011666666 -0.01954487
-0.0022927492 -0.0020000001 -0.0092526469
-0.0039304271 0.0015 -0.017747816
-0.00098260678 -0.0023333333 -0.007455592
0.0050768019 -0.0018333333 -0.014317074
0.006550712 0.0023333333 -0.0020644274
0.0014739102 0.0024999999 -0.0076189605
0.0034391237 0.0020000001 -0.014807181
-0.0054043373 0.0015 -0.015787391
-0.0018014457 -0.001 -0.0041882196
0.0078608543 0.00050000002 -0.016930971
-0.0093347644 0 -0.011049702
0.0067144795 0.0015 -0.0020644274
-0.002456517 0.0018333333 -0.01709434
-0.0042579626 0.0016666667 -0.0077823293
-0.0080246218 0.0011666666 -0.013010126
0.0063869441 -0.0015 -0.010559596
-0.0018014457 0.001 -0.004351588
-0.0072057829 -0.0011666666 -0.010559596
0.0054043373 -0.00066666666 -0.019218134
-0.0013101423 -0.00066666666 -0.0033713763
0.00049130339 -0.0018333333 -0.01709434
-0.0036028915 -0.0021666666 -0.010069489
-0.0044217305 -0.0023333333 -0.0089259092
0.0062231761 0.0013333333 -0.015787391
0.0080246218 -0.00066666666 -0.016277498
-0.0052405694 0.0016666667 -0.010722964
-0.0040941951 0.00050000002 -0.004351588
-0.006550712 0.0013333333 -0.0089259092
0.0076970863 -0.00050000002 -0.0072922232
0.0054043373 -0.0018333333 -0.014317074
-0.0022927492 0.0015 -0.018564658
0.0034391237 0.0015 -0.018564658
-0.0026202847 -0.0021666666 -0.011703176
0.0063869441 -0.0015 -0.013990337
-0.0063869441 -0.0020000001 0.001693051
-0.0086796936 0.00050000002 -0.014807181
0.0042579626 -0.00083333335 -0.01954487
0.0044217305 0.0020000001 -0.010886333
0.0021289813 0.0020000001 -0.0090892781
-0.0083521577 -0.00083333335 -0.014317074
0.006550712 -0.0015 -0.010069489
0.0076970863 -0.0011666666 -0.012029913
-0.0073695509 -0.0013333333 -0.013500231
-0.0054043373 -0.0018333333 -0.014317074
0.0073695509 0.0013333333 -0.010722964
0.0054043373 -0.0018333333 -0.012029913
-0.0085159251 -0.00083333335 -0.010232858
-0.006550712 -0.0015 -0.014317074
-0.0067144795 -0.0013333333 -0.0099061215
0.001637678 0.0011666666 -0.0041882196
-0.0022927492 0.0015 -0.018728027
0.00016376779 -0.0015 -0.018564658
0.00065507117 -0.0011666666 -0.0041882196
0.00049130339 -0.0023333333 -0.0084358035
-0.0011463746 0.00016666666 -0.021341925
-0.0011463746 0.0021666666 -0.0084358035
0.0018014457 0.0020000001 -0.012029913
0.0067144795 -0.00066666666 -0.0068021175
0.0050768019 0.0023333333 -0.0090892781
0.0085159251 -0.00083333335 -0.010722964
0.0058956407 -0.0016666667 -0.013826968
0.0031115881 -0.0015 -0.01823792
-0.0062231761 -0.0016666667 -0.011376439
-0.0080246218 0.00066666666 -0.0084358035
0.00016376779 0.0020000001 -0.0056585371
0.0021289813 -0.00066666666 -0.020525081
-0.0040941951 0.0016666667 -0.0077823293
-0.0081883902 0.00016666666 -0.016767604
0.0078608543 0.00050000002 -0.01709434
0.00098260678 -0.0023333333 -0.010232858
0.0040941951 -0.0018333333 -0.014807181
-0.0022927492 -0.0021666666 -0.012193282
-0.0075333188 0.0011666666 -0.015297286
0.0068782475 0.0015 -0.012520019
-0.0085159251 -0.00066666666 -0.014970548
0.0068782475 0.0011666666 -0.0059852744
0.0076970863 -0.0011666666 -0.0099061215
-0.0054043373 -0.0018333333 -0.010722964
-0.0052405694 -0.0016666667 -0.004351588
0.00081883901 -0.0020000001 -0.014643812
0.0052405694 0.0011666666 -0.017911185
0.0014739102 -0.0020000001 -0.012683388
0.002456517 -0.0016666667 -0.0061486429
-0.00032753558 -0.0023333333 -0.0077823293
-0.00049130339 -0.0023333333 -0.0092526469
-0.0060594087 -0.0016666667 0.0026732627
0.0055681053 0.001 -0.017747816
0.0026202847 0.0020000001 -0.0084358035
0 -0.00016666666 -0.0032080077
0.0014739102 0.0021666666 -0.0097427526
-0.0027840526 -0.0011666666 -0.004351588
-0.0055681053 0.0016666667 -0.015297286
-0.0049130339 -0.0011666666 -0.004351588
0.003275356 -0.0011666666 -0.0051684314
0.0026202847 0.0023333333 -0.0081090666
-0.0026202847 0.0016666667 -0.017747816
-0.0013101423 0.0021666666 -0.0090892781
-0.0060594087 -0.0023333333 -0.0053317999
0.0029478204 -0.0020000001 -0.013990337
-0.0019652136 -0.0020000001 -0.0092526469
0.0027840526 -0.0020000001 -0.013173494
-0.0018014457 -0.0018333333 -0.015133917
-0.0031115881 -0.0024999999 -0.0072922232
0.0026202847 -0.0018333333 -0.0079456978
-0.0019652136 0.0018333333 -0.0076189605
0.0055681053 0.0016666667 -0.014317074
-0.0045854985 0.0016666667 -0.0094160158
-0.002456517 -0.0013333333 -0.019054765
-0.0037666594 0.0016666667 -0.017257709
0.006550712 -0.0015 -0.014317074
-0.0068782475 0.001 -0.0077823293
-0.0026202847 0.001 -0.020034976
-0.0073695509 -0.0011666666 -0.0072922232
-0.00049130339 0.00066666666 -0.020851819
0.004749266 0.00083333335 -0.019381501
-0.00065507117 0.0020000001 -0.014970548
-0.0027840526 -0.0018333333 -0.014970548
-0.0029478204 -0.0020000001 -0.013663599
-0.0027840526 -0.0021666666 -0.0084358035
-0.0052405694 -0.0018333333 -0.013990337
0.003275356 -0.0011666666 -0.0053317999
-0.0055681053 0.0015 -0.0089259092
0.0081883902 0.001 -0.013990337
-0.0040941951 -0.0013333333 -0.018401289
-0.0019652136 0.0011666666 -0.01954487
-0.0072057829 -0.0011666666 -0.011049702
-0.0060594087 -0.0016666667 0.0025098941
-0.00065507117 -0.0020000001 -0.012683388
-0.0060594087 -0.0011666666 -0.002717902
0.0057318727 0.0018333333 -0.0028812704
0.0052405694 -0.0018333333 -0.010886333
-0.0039304271 0.0020000001 -0.012193282
0.0090072285 -0.00066666666 -0.012520019
-0.0058956407 -0.0015 -0.015297286
0.0040941951 -0.0020000001 -0.012029913
0.002456517 0.0024999999 -0.007455592
-0.0060594087 -0.00033333333 -0.019218134
-0.0011463746 -0.00066666666 -0.003534745
0.00049130339 0.00066666666 -0.0033713763
0.0044217305 0.0016666667 -0.016767604
0.0083521577 0.00083333335 -0.010232858
-0.0067144795 -0.0021666666 -0.0061486429
-0.0060594087 0.00033333333 -0.0053317999
-0.0022927492 -0.0020000001 -0.011866544
-0.00065507117 -0.0021666666 -0.0059852744
-0.00065507117 -0.0016666667 -0.0048416941
-0.0058956407 0.0015 -0.011049702
0.0026202847 0.0020000001 -0.015133917
-0.0058956407 0.0013333333 -0.016930971
-0.0031115881 -0.0020000001 -0.010069489
0.0093347644 0.00016666666 -0.013173494
-0.00032753558 0.0023333333 -0.0094160158
0.009170997 -0.00016666666 -0.010396227
0.0075333188 0.0011666666 -0.0095793838
0.0067144795 0.0013333333 -0.0010842156
-0.0019652136 0.0020000001 -0.013010126
-0.002456517 -0.0020000001 -0.0089259092
-0.0026202847 0.0020000001 -0.0089259092
-0.003275356 -0.00050000002 -0.02068845
0.0090072285 -0.00016666666 -0.0097427526
0.0081883902 0.00033333333 -0.016604235
-0.0086796936 -0.00083333335 -0.011703176
0.0054043373 0.0024999999 -0.0079456978
0.0052405694 -0.0016666667 -0.015133917
0.0086796936 -0.00050000002 -0.015297286
0.0018014457 0.0018333333 -0.015460654
-0.0050768019 -0.0018333333 -0.013010126
0.0022927492 -0.0013333333 -0.0054951683
-0.0018014457 0.0020000001 -0.013173494
-0.0068782475 0.0013333333 -0.013500231
0.00065507117 0.0023333333 -0.010069489
0.0044217305 0.0020000001 -0.012193282
0.0049130339 0.0016666667 -0.016114129
0.0080246218 -0.0011666666 -0.013173494
0.0070420154 0.0013333333 -0.0095793838
-0.0036028915 -0.0018333333 -0.01595076
-0.009170997 -0.00033333333 -0.011049702
-0.0021289813 -0.0021666666 -0.0076189605
0.003275356 -0.0020000001 -0.014153706
-0.0050768019 -0.0018333333 -0.010559596
-0.00049130339 -0.0023333333 -0.0095793838
-0.0083521577 0.00083333335 -0.011213071
-0.0029478204 0.00066666666 -0.020361714
0.00049130339 0.0024999999 -0.0079456978
-0.0019652136 0.0020000001 -0.014153706
-0.00065507117 -0.0023333333 -0.0097427526
-0.0026202847 0.00033333333 -0.003534745
0.0040941951 0.0020000001 -0.014317074
-0.001637678 -0.0023333333 -0.0071288547
0.004749266 0.0011666666 -0.01823792
0.0049130339 0.0015 -0.016767604
-0.0049130339 -0.0024999999 -0.0054951683
0.002456517 0.00033333333 -0.021015188
-0.0039304271 0 -0.02068845
0.0045854985 -0.0018333333 -0.014643812
0.0022927492 -0.00033333333 -0.0033713763
0.006550712 0.0023333333 -0.0068021175
-0.0083521577 0.001 -0.011866544
0.0062231761 0.0023333333 -0.0077823293
-0.0040941951 -0.0021666666 -0.0094160158
-0.0050768019 -0.0018333333 -0.012520019
0.0062231761 -0.0016666667 -0.011866544
-0.00016376779 0.0023333333 -0.0094160158
0.0027840526 0.0018333333 -0.015297286
-0.00049130339 -0.0016666667 -0.017421078
0.003275356 0.0020000001 -0.013500231
0.0018014457 -0.0020000001 -0.015787391
0.00098260678 0.00016666666 -0.021505294
0.0018014457 -0.0020000001 -0.0064753802
0.0088434611 -0.00083333335 -0.012683388
-0.0021289813 -0.0020000001 -0.0099061215
-0.0011463746 -0.0020000001 -0.011866544
0.001637678 0.0023333333 -0.0068021175
-0.0034391237 -0.0018333333 -0.014480443
-0.002456517 0.0015 -0.0059852744
-0.0014739102 0.0020000001 -0.0071288547
0.00032753558 -0.0016666667 -0.017911185
0.00016376779 0.0016666667 -0.0050050626
-0.0063869441 -0.0011666666 -0.017421078
0.0011463746 0.0016666667 -0.0045149568
0.006550712 0.0011666666 -0.0040248507
0.0083521577 0.00050000002 -0.016114129
-0.0063869441 -0.0016666667 -0.010722964
-0.006550712 -0.0015 -0.010069489
-0.0019652136 0.0018333333 -0.016277498
0.0062231761 0.0015 0.0012029451
-0.0060594087 0.0013333333 -0.016767604
-0.00032753558 0.0020000001 -0.014970548
-0.00081883901 -0.0023333333 -0.0069654859
0.0039304271 0.0023333333 -0.0082724355
0.0018014457 0.00066666666 -0.003534745
0.0062231761 0.0016666667 -0.010232858
0.0068782475 0.0018333333 -0.0072922232
-0.0013101423 -0.0015 -0.0041882196
0.006550712 0.0011666666 -0.0015743215
0.0080246218 -0.00083333335 -0.0094160158
-0.0072057829 0.0013333333 -0.012193282
-0.0029478204 -0.00050000002 -0.0038614823
0.0050768019 0.0024999999 -0.0077823293
0.0040941951 0.0024999999 -0.006638749
0.0029478204 0.0018333333 -0.016277498
0.0019652136 -0.0013333333 -0.0050050626
-0.00049130339 0.0023333333 -0.0077823293
-0.0078608543 -0.00083333335 -0.016114129
0.0036028915 0.0018333333 -0.0082724355
-0.0045854985 -0.0020000001 -0.011539808
0.001637678 -0.00066666666 -0.0036981136
0.0049130339 -0.0016666667 -0.015624023
0.0067144795 0.0021666666 -0.0072922232
0.0044217305 0.0023333333 -0.0051684314
0.0013101423 0.0020000001 -0.013010126
-0.0013101423 0.0020000001 -0.006638749
0.0052405694 0.0024999999 -0.0053317999
-0.0057318727 -0.0024999999 -0.0063120117
-0.003275356 -0.0023333333 -0.0094160158
-0.0067144795 -0.0015 -0.0010842156
-0.0075333188 -0.001 -0.015624023
0.0011463746 -0.0021666666 -0.010559596
-0.0045854985 0.0018333333 -0.013663599
-0.0027840526 0.00066666666 -0.0040248507
0.0026202847 0.0023333333 -0.0063120117
0.0050768019 -0.0018333333 -0.011376439
-0.0026202847 0.0020000001 -0.0085991723
-0.006550712 -0.0018333333 0.0018564196
-0.0058956407 -0.0013333333 -0.0012475842
0.0034391237 -0.0020000001 -0.011703176
0.0063869441 -0.0013333333 -0.01595076
-0.0018014457 -0.0023333333 -0.0059852744
0.0083521577 0.00016666666 -0.016440867
0.0067144795 -0.00066666666 -0.0063120117
-0.0067144795 0.0013333333 -0.013663599
-0.00032753558 0.0013333333 -0.004351588
0.004749266 0.0018333333 -0.014153706
-0.0070420154 0.0013333333 -0.011376439
0.0075333188 -0.001 -0.0089259092
0.0029478204 0.00050000002 -0.020851819
0.0014739102 -0.0020000001 -0.016440867
-0.0014739102 0.00050000002 -0.0033713763
-0.0044217305 -0.0020000001 -0.012520019
0.0026202847 -0.00033333333 -0.021015188
0.0050768019 0.0018333333 -0.012683388
-0.0037666594 -0.0021666666 -0.0045149568
0 -0.0018333333 -0.015297286
-0.0070420154 -0.0016666667 -0.0082724355
0.0052405694 -0.0015 -0.0077823293
-0.0067144795 -0.0018333333 -0.0019010587
-0.0063869441 -0.00083333335 -0.0048416941
0.002456517 -0.0018333333 -0.016440867
-0.0027840526 0.0015 -0.018564658
0.0027840526 0.0021666666 -0.0085991723
0.0045854985 0.0015 -0.017257709
-0.0018014457 -0.0020000001 -0.013010126
-0.00049130339 0.0018333333 -0.017257709
0.0062231761 0.0016666667 -0.014317074
0.0036028915 0.0011666666 -0.019218134
0.00065507117 -0.0015 -0.018564658
-0.0031115881 0.0018333333 -0.014970548
0.0050768019 0.0018333333 -0.011703176
-0.0070420154 -0.00083333335 -0.0061486429
-0.0034391237 0.0020000001 -0.013826968
0.006550712 0.0013333333 -0.0010842156
0.0063869441 -0.0015 -0.011213071
0.0076970863 0.00066666666 -0.007455592
-0.0067144795 -0.0013333333 -0.014153706
0.0018014457 0.0020000001 -0.0081090666
-0.0086796936 -0.00066666666 -0.014480443
0.0067144795 0.001 -0.017421078
-0.0027840526 -0.00050000002 -0.020851819
0.00081883901 -0.0023333333 -0.0097427526
-0.0050768019 0.0015 -0.016604235
-0.0052405694 -0.0018333333 -0.011049702
0.009170997 0.00033333333 -0.011703176
0.004749266 -0.0018333333 -0.015297286
-0.0011463746 0.0018333333 -0.01595076
-0.0063869441 -0.0015 -0.00010400386
0.0063869441 0.0015 5.9364764e-05
-0.0054043373 0.0015 -0.0082724355
0.003275356 0.0020000001 -0.012356651
0 0.0015 -0.018728027
-0.0019652136 -0.0013333333 -0.018728027
-0.0022927492 -0.0023333333 -0.0061486429
0.0068782475 -0.001 -0.0082724355
-0.00049130339 -0.0018333333 -0.015297286
0.0029478204 0.0020000001 -0.0079456978
-0.0054043373 0.00016666666 -0.0046783253
-0.0085159251 -0.001 -0.011866544
0 0.0023333333 -0.006638749
-0.00065507117 -0.0021666666 -0.0089259092
-0.006550712 0.0013333333 -0.01595076
0.00049130339 0.0018333333 -0.0050050626
0.0081883902 -0.00050000002 -0.016277498
-0.0058956407 -0.0011666666 -0.01709434
-0.00081883901 -0.0013333333 -0.019218134
0.001637678 -0.00066666666 -0.003534745
-0.0049130339 -0.0013333333 -0.017747816
-0.00016376779 -0.0023333333 -0.010069489
-0.0052405694 0.0015 -0.0081090666
0.0026202847 0.001 -0.019871607
0.0057318727 0.0016666667 -0.0036981136
0.0037666594 -0.0018333333 -0.015297286
0 -0.0013333333 -0.0041882196
-0.0052405694 -0.0020000001 -0.0092526469
0.0062231761 -0.0015 -0.0097427526
-0.0031115881 -0.0018333333 -0.016767604
0.0013101423 0.0018333333 -0.0046783253
0.0039304271 -0.0016666667 -0.0081090666
0.0044217305 -0.0020000001 -0.013336862
-0.0013101423 0.00016666666 -0.021341925
0.0021289813 0.0018333333 -0.016440867
-0.0045854985 0.0011666666 -0.018564658
-0.004749266 0.0015 -0.0072922232
-0.0049130339 -0.00083333335 -0.019218134
-0.0049130339 -0.00066666666 -0.004351588
-0.0072057829 -0.0011666666 -0.0069654859
0.0029478204 0.0018333333 -0.016604235
-0.00016376779 0.0018333333 -0.01709434
-0.0018014457 -0.0021666666 -0.0097427526
-0.0049130339 0.0016666667 -0.014643812
0.0078608543 -0.001 -0.010069489
0.0039304271 -0.0016666667 -0.007455592
0.0018014457 -0.0013333333 -0.0050050626
-0.0027840526 -0.0020000001 -0.012193282
0.0019652136 -0.0020000001 -0.0071288547
0.00049130339 0.0018333333 -0.01709434
-0.0062231761 -0.0023333333 -0.0082724355
-0.0040941951 -0.0020000001 -0.010069489
0.0060594087 -0.0016666667 -0.013990337
0.0011463746 0.0018333333 -0.016277498
0.0054043373 -0.00033333333 -0.019708239
-0.0063869441 -0.0023333333 -0.0017376901
-0.0088434611 -0.00050000002 -0.010069489
0.0034391237 -0.0013333333 -0.018891396
-0.0085159251 -0.00083333335 -0.013500231
0.0055681053 -0.0013333333 -0.0084358035
0.0050768019 -0.0016666667 -0.014970548
-0.0052405694 -0.0018333333 -0.013500231
-0.006550712 -0.0011666666 -0.0014109529
0.0052405694 0.001 -0.018401289
-0.0045854985 0.0015 -0.016440867
-0.0026202847 -0.0020000001 -0.013663599
-0.0027840526 0.0020000001 -0.0082724355
0.0083521577 0.00083333335 -0.0095793838
-0.0054043373 -0.00083333335 -0.004351588
-0.0021289813 -0.0013333333 -0.019381501
0.0045854985 0.0020000001 -0.010396227
0.002456517 0.00066666666 -0.0038614823
-0.0055681053 0.00083333335 -0.0058219056
0.0080246218 0.001 -0.011703176
-0.0054043373 -0.0024999999 -0.006638749
0.0019652136 0.0020000001 -0.0050050626
-0.0019652136 -0.0020000001 -0.015787391
0.001637678 -0.0016666667 -0.017747816
-0.0057318727 -0.0018333333 -0.003044639
-0.0022927492 0.0016666667 -0.017257709
0.0063869441 0.0015 -0.011703176
0.0026202847 -0.0020000001 -0.015460654
0.0086796936 0.00066666666 -0.010396227
0.0045854985 -0.0018333333 -0.014970548
0.0036028915 0.0020000001 -0.012029913
0.0070420154 -0.00033333333 -0.01823792
-0.0031115881 0.00066666666 -0.020525081
0 -0.0018333333 -0.01709434
-0.0018014457 -0.0023333333 -0.0076189605
-0.00032753558 0.00050000002 -0.021178557
0.0036028915 0.0024999999 -0.0068021175
-0.001637678 0.0018333333 -0.0068021175
0.0040941951 0.00033333333 -0.020525081
0.0014739102 0.0024999999 -0.0081090666
-0.0027840526 0.0020000001 -0.0094160158
-0.0014739102 -0.0011666666 -0.019871607
0.002456517 -0.0018333333 -0.0082724355
0.0050768019 0.0013333333 -0.004351588
-0.0019652136 -0.0018333333 -0.016440867
-0.0060594087 -0.0016666667 -0.011866544
0.0040941951 -0.0020000001 -0.014480443
-0.0022927492 -0.0020000001 -0.011049702
0.00081883901 -0.00050000002 -0.0032080077
-0.0019652136 -0.0023333333 -0.0079456978
-0.0011463746 -0.00016666666 -0.0032080077
0.0090072285 -0.00016666666 -0.014807181
-0.0045854985 0 -0.020361714
0.0019652136 -0.0018333333 -0.016604235
0.0027840526 -0.0013333333 -0.018891396
-0.0062231761 0.0011666666 -0.016604235
-0.0042579626 0.00066666666 -0.019871607
-0.0067144795 -0.0021666666 -0.0014109529
-0.0086796936 -0.00066666666 -0.014153706
0.0093347644 0.00016666666 -0.012846757
0.0057318727 0.0013333333 -0.003044639
0.0021289813 -0.0018333333 -0.0069654859
0.0062231761 0.0016666667 -0.011539808
0.0070420154 0.0015 -0.011866544
0.0058956407 -0.0015 -0.0087625412
0.00081883901 -0.0011666666 -0.01954487
-0.0022927492 0.0015 -0.0061486429
-0.0042579626 -0.00083333335 -0.019708239
-0.0042579626 0.0018333333 -0.0097427526
0.0078608543 -0.0011666666 -0.013010126
-0.00032753558 0.0015 -0.0048416941
-0.0022927492 0.0021666666 -0.0097427526
0.0018014457 0 -0.021341925
0.00098260678 0.00066666666 -0.003534745
-0.0026202847 -0.00016666666 -0.003534745
-0.0011463746 -0.0020000001 -0.0051684314
-0.0018014457 0.0021666666 -0.0099061215
0.001637678 -0.0015 -0.0051684314
-0.0062231761 -0.0016666667 -0.011703176
-0.0054043373 -0.0021666666 -0.004351588
-0.0086796936 0.00033333333 -0.015787391
0.002456517 0.0021666666 -0.010559596
-0.002456517 -0.0023333333 -0.0053317999
0.0058956407 0.0018333333 5.9364764e-05
0.002456517 -0.0020000001 -0.011213071
0.0073695509 0.00083333335 -0.016930971
-0.003275356 -0.0020000001 -0.012029913
0.0060594087 0.0011666666 -0.0036981136
0.0044217305 -0.0016666667 -0.0079456978
0.0019652136 -0.0020000001 -0.014807181
0.0057318727 0.0020000001 -0.0014109529
0.006550712 0.0021666666 -0.0079456978
-0.0037666594 0.0015 -0.018074552
-0.0031115881 0.0020000001 -0.012683388
-0.003275356 0.0018333333 -0.016440867
0.0011463746 0.00033333333 -0.0033713763
-0.0027840526 0.0020000001 -0.011049702
-0.0021289813 0.0020000001 -0.0094160158
-0.003275356 0.0020000001 -0.013663599
0.0068782475 -0.0013333333 -0.010886333
0.0058956407 0.0023333333 -0.003044639
