# .PCD v0.7 - Point Cloud Data file format
VERSION 0.7
FIELDS x y z
SIZE 4 4 4
TYPE F F F
COUNT 1 1 1
WIDTH 1205
HEIGHT 1
VIEWPOINT 0 0 0 1 0 0 0
POINTS 1205
DATA ascii
-0.0024142857 -0.0042500002 -0.015584071
-0.0042714286 0.0034944445 -0.017628318
0.012257143 0.0042500002 -0.017442478
-0.012071429 -0.0016055555 -0.00090265489
-0.011142857 0.0042500002 -0.01019469
-0.0094714286 0.0012277778 -0.017814159
0.008357143 -0.0042500002 -0.013725664
0.0053857141 0.0042500002 -0.00090265489
-0.0089142853 0.0042500002 -0.0023893805
0.0117 -0.0042500002 -0.010752212
0.012814286 0.0012277778 -0.01521239
0.012814286 -0.00047222222 -0.0090796463
0.00037142858 -0.0042500002 -0.0092654871
0.013 -0.0027388888 -0.0044336282
-0.012814286 0.00085000001 -0.0083362833
-0.012814286 0.0029277778 -0.0083362833
-0.0053857141 -0.0042500002 -0.0038761061
0.0059428574 0.0042500002 -0.012424779
-0.012814286 -0.0016055555 -0.0129823
0.012814286 -0.0029277778 -0.015955752
0.013 -0.0014166667 -0.0066637169
0.0013 -0.0033055556 -0.00090265489
-0.013 0.0023611111 -0.015769912
0.0035285715 -0.0042500002 -0.0010884956
-0.0117 -0.0042500002 -0.0079646017
-0.0027857143 -0.0036833333 -0.00071681413
-0.0081714289 -0.0042500002 -0.015026549
-0.0052 -0.0042500002 -0.011123894
-0.0081714289 0.0042500002 -0.0090796463
0.013 -0.0017944444 -0.0068495576
0.0055714287 -0.0042500002 -0.01261062
-0.0079857139 -0.0014166667 -0.00071681413
0.0076142857 0.0042500002 -0.0088938056
-0.0024142857 -0.0042500002 -0.010008849
0.012814286 -0.0012277778 -0.016141593
-0.0089142853 0.0042500002 -0.01539823
-0.0016714286 0.0042500002 -0.011867257
-0.0014857143 -0.0042500002 -0.012424779
0.0046428572 -0.0042500002 -0.0074070795
-0.012814286 -0.0029277778 -0.016327433
0.0085428571 -0.0042500002 -0.01019469
-0.0057571428 -0.0042500002 -0.0040619471
-0.0026 -0.0042500002 -0.017070796
0.00018571429 -0.0042500002 -0.013168141
0.0038999999 0.0042500002 -0.014469027
0.012628571 9.4444447e-05 -0.010938053
-0.0089142853 -0.0042500002 -0.0035044248
-0.010771428 -0.00066111109 -0.00090265489
0.0092857145 0.0042500002 -0.0087079648
0.0016714286 -0.0042500002 -0.0038761061
-0.0096571427 -0.0042500002 -0.016327433
0.010028572 0.0042500002 -0.01279646
0.0055714287 -0.0042500002 -0.0029469028
0.00092857145 -0.0027388888 -0.00071681413
0.012814286 -0.00085000001 -0.013911504
-0.013 -0.0021722221 -0.010380531
-0.0022285713 -0.0042500002 -0.0098230084
0.0016714286 -0.0042500002 -0.010380531
-0.013 0.0025500001 -0.008522124
0.012257143 0.0036833333 -0.013911504
0.0016714286 -0.0042500002 -0.0010884956
-0.012628571 0.00047222222 -0.014097345
-0.0022285713 -0.0012277778 -0.017814159
-0.012628571 -0.00047222222 -0.0038761061
0.0055714287 -0.0014166667 -0.017814159
0.0057571428 -0.0042500002 -0.013539823
0.00092857145 -0.0040611112 -0.017628318
-0.012628571 -0.00066111109 -0.0062920353
-0.012628571 0.0040611112 -0.0025752212
0.00074285717 -0.0036833333 -0.017628318
0.0057571428 -0.0042500002 -0.011681416
0.0091000004 -0.0042500002 -0.016141593
0.0014857143 -0.0042500002 -0.016327433
0.0046428572 -0.0042500002 -0.0064778761
0.012814286 -0.00028333333 -0.017256638
-0.010585714 0.0042500002 -0.014840708
0.0052 0.0042500002 -0.0088938056
0.0053857141 0.0042500002 -0.012238938
-0.0042714286 0.0042500002 -0.008522124
-0.013 0.0023611111 -0.0096371677
0.012257143 -0.0042500002 -0.007778761
-0.0098428568 0.0042500002 -0.0016460177
-0.012442857 0.0034944445 -0.017628318
0.0022285713 -0.0042500002 -0.012424779
-0.010771428 0.0042500002 -0.0092654871
-0.0044571427 -0.0017944444 -0.00071681413
0.0092857145 0.0042500002 -0.0051769912
-0.00055714283 -0.0042500002 -0.0075929202
-0.0027857143 0.0014166667 -0.017814159
-0.010028572 9.4444447e-05 -0.017814159
-0.012814286 -0.0029277778 -0.002761062
0.0068714283 9.4444447e-05 -0.00071681413
-0.00018571429 0.0042500002 -0.014283186
0.0016714286 0.0042500002 -0.0048053097
-0.012071429 0.0040611112 -0.010380531
-0.0066857142 0.0034944445 -0.00015929203
0.0027857143 0.0042500002 -0.010752212
-0.0089142853 -0.0042500002 -0.0066637169
-0.0029714287 0.0042500002 -0.0036902656
-0.0117 -0.0042500002 -0.010566371
0.011514286 9.4444447e-05 0.0020707964
0.0027857143 -0.0042500002 -0.013911504
-0.0050142859 -0.00085000001 -0.017814159
0.012814286 -0.0034944445 -0.012238938
0.012814286 0.0010388889 -0.0025752212
0.0038999999 -0.0027388888 -0.00071681413
0.0070571429 -0.0016055555 -0.00071681413
0.00055714283 0.0033055556 -0.017628318
0.0020428572 0.0027388888 -0.017814159
-0.010957143 -0.0042500002 -0.013911504
-0.0022285713 0.0036833333 -0.00071681413
0.0061285715 0.0017944444 -0.00071681413
-0.0098428568 0.0042500002 -0.0049911505
-0.013 -0.0021722221 -0.0048053097
-0.012442857 0.0040611112 -0.013353982
-0.00018571429 -0.0040611112 -0.00071681413
0.0066857142 0.0010388889 -0.00071681413
-0.012628571 -0.0036833333 -0.0049911505
-0.011328571 -0.0042500002 -0.015026549
0.0065000001 0.0042500002 -0.012424779
0.0117 0.0016055555 -0.017628318
-0.011328571 0.0042500002 -0.011867257
-0.008357143 0.0027388888 -0.00071681413
-0.010214286 0.0025500001 -0.00090265489
-0.012257143 -0.0038722223 -0.0055486728
0.0024142857 -0.0042500002 -0.0074070795
-0.0092857145 0.0042500002 -0.017256638
-0.00092857145 -0.0042500002 -0.0020176992
0.012814286 0.0016055555 -0.0087079648
0.0035285715 0.0042500002 -0.016699115
0 0.0010388889 -0.00071681413
0.0076142857 0.0042500002 -0.016327433
0.012814286 -0.0033055556 -0.015584071
0.0065000001 -0.0042500002 -0.0055486728
0.0035285715 0.0019833334 -0.00071681413
0.012814286 -0.0034944445 -0.0055486728
0.0042714286 0.0025500001 -0.00071681413
-0.0013 -0.0042500002 -0.0031327433
-0.011885715 9.4444447e-05 -0.00071681413
0.0117 -0.0042500002 -0.0031327433
0.0066857142 0.0042500002 -0.016141593
0.0070571429 -0.0034944445 -0.00015929203
0.0014857143 9.4444447e-05 -0.00071681413
0.0035285715 -0.0042500002 -0.0098230084
-0.0050142859 0.0042500002 -0.001460177
0.012814286 -0.0012277778 -0.013539823
-0.012071429 -0.0042500002 -0.010008849
0.0016714286 -0.0042500002 -0.002761062
-0.0046428572 -0.0042500002 -0.010752212
-0.012814286 -0.0034944445 -0.0023893805
0.0066857142 0.0042500002 -0.0010884956
0.010957143 -9.4444447e-05 0.00076991151
-0.0074285716 -0.00047222222 -0.00071681413
-0.00092857145 -0.0042500002 -0.0068495576
0.007242857 0.0042500002 -0.0031327433
-0.0048285713 -0.0042500002 -0.0062920353
0.0092857145 0.0042500002 -0.005362832
0.010214286 -0.0023611111 -0.00090265489
-0.0022285713 0.0042500002 -0.0022035397
0.0117 0.0021722221 -0.017628318
-0.012628571 9.4444447e-05 -0.0087079648
0.0066857142 0.0042500002 -0.013911504
-0.0070571429 0.0042500002 -0.0010884956
-0.013 -0.0021722221 -0.011867257
-0.0057571428 -0.0042500002 -0.016699115
0.0063142856 -0.0042500002 -0.016884957
0.0059428574 -0.0042500002 -0.0010884956
0.010957143 -9.4444447e-05 0.001699115
-0.0066857142 -0.0033055556 -0.00015929203
0.0091000004 -0.0042500002 -0.0025752212
0.0044571427 -0.0042500002 -0.0072212392
0.0053857141 0.0014166667 -0.00071681413
-0.0092857145 -0.0017944444 -0.00071681413
-0.0076142857 -0.0042500002 -0.015584071
-0.0050142859 -0.0042500002 -0.0062920353
0.012257143 0.0040611112 -0.0070353984
0.0063142856 -0.0031166666 -0.00071681413
-0.0037142858 0.0042500002 -0.0096371677
0.0077999998 -0.0042500002 -0.0040619471
-0.0013 -0.0042500002 -0.0070353984
0 0.0042500002 -0.0048053097
-0.012071429 -0.0038722223 -0.0081504425
0.012814286 -0.0038722223 -0.0064778761
0.010214286 0.0042500002 -0.0129823
0.012814286 -0.00085000001 -0.017256638
0.010771428 0.0042500002 -0.0064778761
0.012814286 -0.0040611112 -0.0092654871
0.0094714286 0.0042500002 -0.0061061946
0.0077999998 -0.0042500002 -0.01261062
0.013 -0.0021722221 -0.0092654871
0.012442857 -0.0040611112 -0.0075929202
0.013 0.0017944444 -0.007778761
-0.0037142858 0.0042500002 -0.0081504425
-0.008357143 -0.0012277778 -0.017814159
0.0089142853 0.0042500002 -0.017442478
0.0031571428 -0.00028333333 -0.00071681413
-0.012814286 0.00085000001 -0.01539823
0.011142857 0.0042500002 -0.0042477874
0.0022285713 0.0042500002 -0.0040619471
-0.012814286 -0.0029277778 -0.0096371677
-0.0076142857 -0.0042500002 -0.010008849
0.011514286 0.0042500002 -0.011309735
-0.0065000001 0.0016055555 -0.017814159
0.0022285713 0.0025500001 -0.017814159
-0.0024142857 -0.0021722221 -0.00090265489
-0.0038999999 0.0042500002 -0.010752212
-0.0104 0.0027388888 -0.017628318
0.011514286 -0.0042500002 -0.0023893805
-0.010771428 -0.0042500002 -0.0087079648
0.0044571427 -0.0036833333 -0.00071681413
0.0063142856 -0.00028333333 -0.017814159
0.010771428 -0.0042500002 -0.01261062
-0.011885715 0.0040611112 -0.017628318
0.00074285717 -0.0042500002 -0.0036902656
-0.012814286 0.0029277778 -0.0070353984
0.012257143 0.0027388888 -0.00090265489
0.012257143 -0.0042500002 -0.017070796
-0.011885715 -0.0042500002 -0.011495575
0.0066857142 0.0042500002 -0.014283186
0.012814286 0.00028333333 -0.0088938056
-0.0063142856 0.0042500002 -0.017256638
0.011142857 -0.0042500002 -0.014840708
0.0038999999 0.0042500002 -0.013539823
-0.0089142853 0.0042500002 -0.014840708
0.011885715 0.0042500002 -0.0016460177
0.012257143 -0.0042500002 -0.013353982
0.012814286 0.00085000001 -0.011495575
-0.0055714287 0.0042500002 -0.00090265489
-0.011328571 0.0023611111 -0.017628318
0.012814286 -0.0033055556 -0.0072212392
-0.013 -0.0021722221 -0.0044336282
-0.012814286 0.0010388889 -0.0088938056
-0.0070571429 -0.0042500002 -0.013911504
0.00074285717 0.0042500002 -0.0049911505
0.012814286 -0.00066111109 -0.0074070795
-0.0081714289 0.0010388889 -0.017814159
-0.012628571 0.00028333333 -0.016699115
-0.012814286 -0.0034944445 -0.017070796
0.0022285713 0.0031166666 -0.017628318
0.010957143 -0.00085000001 -0.017814159
0.0066857142 0.0042500002 -0.0087079648
0.0035285715 -0.0042500002 -0.014840708
-0.011885715 -0.0042500002 -0.0020176992
0.0085428571 -0.0042500002 -0.016327433
-0.0046428572 0.0033055556 -0.00071681413
0.012442857 0.0036833333 -0.0098230084
0.013 -0.0023611111 -0.012424779
0.012814286 9.4444447e-05 -0.0040619471
0.012814286 0.0010388889 -0.0016460177
0.012628571 0.0036833333 -0.013168141
-0.0085428571 0.0042500002 -0.011495575
-0.00055714283 0.0042500002 -0.011867257
0.012442857 0.0036833333 -0.01539823
0.0068714283 -0.0042500002 -0.0066637169
0.0038999999 0.0042500002 -0.01521239
-0.011885715 -0.0042500002 -0.0066637169
-0.012814286 -0.0038722223 -0.0092654871
0.013 -0.0031166666 -0.014840708
0.00018571429 0.0042500002 -0.0079646017
0.0057571428 0.0042500002 -0.0066637169
-0.0052 -0.0042500002 -0.001460177
0.013 -0.0010388889 -0.0020176992
-0.012814286 0.0016055555 -0.016513275
-0.0031571428 -0.0042500002 -0.0023893805
0.0014857143 -0.0031166666 -0.017628318
-0.012628571 -9.4444447e-05 -0.0074070795
-0.011514286 0.0042500002 -0.0075929202
0.0048285713 -0.00028333333 -0.00071681413
-0.0066857142 -0.0023611111 -0.00071681413
-0.0048285713 0.0042500002 -0.017256638
0.0014857143 0.0042500002 -0.016699115
-0.0050142859 -0.0042500002 -0.0035044248
0.0011142857 0.0042500002 -0.0090796463
-0.012814286 0.00066111109 -0.00090265489
0.0081714289 0.0042500002 -0.0036902656
-0.011885715 -0.0042500002 -0.0055486728
0.0061285715 -0.0042500002 -0.0129823
-0.00055714283 0.0042500002 -0.0025752212
-0.011885715 0.00028333333 -0.017628318
-0.00055714283 0.00085000001 -0.017814159
0.0057571428 -0.0042500002 -0.0038761061
-0.0020428572 0.0019833334 -0.00071681413
-0.0091000004 0.0042500002 -0.0066637169
0.0057571428 -0.0029277778 -0.017628318
0.0022285713 0.0042500002 -0.010008849
0.0020428572 0.0042500002 -0.016141593
0.00092857145 0.0042500002 -0.0010884956
0.0050142859 0.0042500002 -0.0083362833
-0.0024142857 -0.0029277778 -0.00071681413
0.0079857139 0.0042500002 -0.0055486728
0.012071429 0.0042500002 -0.0083362833
-0.0048285713 0.0042500002 -0.014097345
0.0070571429 -0.0042500002 -0.007778761
-0.013 0.0023611111 -0.0090796463
-0.0092857145 0.0042500002 -0.0018318584
0.012628571 0.0017944444 -0.017628318
0.013 -0.0023611111 -0.011123894
0.00074285717 0.0042500002 -0.011681416
-0.00055714283 0.0042500002 -0.011123894
0.012814286 -9.4444447e-05 -0.017070796
-0.012628571 -0.00085000001 -0.0088938056
0.0091000004 -0.0042500002 -0.016513275
-0.011514286 0.0042500002 -0.0016460177
0.012071429 0.0040611112 -0.016699115
-0.0024142857 -0.0042500002 -0.0035044248
-0.010957143 0.0042500002 -0.013539823
0.00018571429 -0.00066111109 -0.017814159
-0.0117 -0.0042500002 -0.0020176992
-0.011885715 0.00047222222 -0.00090265489
-0.0018571429 0.0031166666 -0.017628318
-0.0011142857 0.0042500002 -0.012053098
0.007242857 0.0042500002 -0.0012743362
-0.0066857142 -0.0042500002 -0.0038761061
0.011514286 0.0042500002 -0.014097345
-0.0059428574 0.0042500002 -0.0049911505
-0.00037142858 -0.0042500002 -0.0072212392
-0.0077999998 -0.0042500002 -0.0055486728
-0.0065000001 0.0042500002 -0.013911504
0.0055714287 -0.0042500002 -0.0031327433
0.013 0.0027388888 -0.0049911505
0.0070571429 -0.0042500002 -0.016513275
0.0074285716 -0.0042500002 -0.0068495576
0.00074285717 -0.0042500002 -0.001460177
-0.0081714289 -0.0042500002 -0.0036902656
0.007242857 -0.0042500002 -0.0090796463
-0.0063142856 0.0042500002 -0.0094513278
0.0020428572 0.0042500002 -0.014840708
-0.012814286 0.00047222222 -0.00090265489
-0.0018571429 -0.0042500002 -0.0083362833
-0.013 -0.0023611111 -0.0048053097
-0.012257143 -0.0036833333 -0.0098230084
-0.0035285715 -0.0042500002 -0.010380531
0.0033428571 0.0036833333 -0.017628318
-0.0044571427 0.0042500002 -0.01279646
-0.0117 0.0042500002 -0.0059203538
0.0046428572 0.00047222222 -0.017814159
0.0014857143 0.0042500002 -0.005362832
-0.0026 0.0042500002 -0.011309735
0.008357143 0.00066111109 -0.017814159
-0.012628571 0.00028333333 -0.014283186
0.0013 0.0042500002 -0.013725664
0.0104 0.0042500002 -0.0012743362
0.0094714286 0.00047222222 -0.00071681413
-0.0033428571 -0.00085000001 -0.017814159
0.0085428571 0.0017944444 -0.00071681413
0.012814286 0.0025500001 -0.00090265489
-0.0020428572 -0.0042500002 -0.011681416
0.012814286 0.0038722223 -0.017070796
0.0024142857 0.0042500002 -0.0061061946
-0.008357143 0.0042500002 -0.01279646
0.0055714287 -0.0042500002 -0.01279646
-0.0038999999 -0.0042500002 -0.017256638
-0.0037142858 0.0042500002 -0.014840708
0.012814286 -0.0038722223 -0.0016460177
-0.0085428571 0.0025500001 -0.017628318
-0.010214286 -0.0042500002 -0.0096371677
0.0096571427 -0.0042500002 -0.0051769912
0.013 -0.0025500001 -0.0035044248
-0.0024142857 0.0042500002 -0.013911504
-0.0018571429 0.0014166667 -0.017814159
0.013 0.0019833334 -0.0059203538
-0.010957143 0.0012277778 -0.017814159
-0.011514286 -0.0042500002 -0.017628318
-0.0038999999 -0.0042500002 -0.014283186
0.012257143 0.0036833333 -0.014283186
-0.0068714283 -0.0010388889 -0.017814159
-0.0020428572 -0.0012277778 -0.00090265489
0.0068714283 0.0038722223 -0.017628318
0.0042714286 0.0042500002 -0.0046194689
0.0104 -0.0042500002 -0.0092654871
-0.0104 0.0042500002 -0.0036902656
0.0018571429 -0.0042500002 -0.011867257
0.0074285716 0.0042500002 -0.00071681413
-0.0014857143 -0.0042500002 -0.013539823
-0.011514286 -0.0042500002 -0.0051769912
-0.012814286 0.00085000001 -0.010566371
0.008357143 0.0027388888 -0.00071681413
0.012628571 -0.00028333333 -0.010938053
0.010585714 -0.0025500001 -0.017628318
0.0027857143 -0.0033055556 -0.017628318
0.0087285712 -0.0042500002 -0.016513275
0.0070571429 0.0042500002 -0.0090796463
0.0096571427 0.0042500002 -0.010380531
-0.0029714287 0.0042500002 -0.0090796463
0.012814286 -0.0029277778 -0.005734513
-0.0085428571 -0.0042500002 -0.0087079648
-0.00055714283 -0.0042500002 -0.014469027
-0.0031571428 0.0029277778 -0.017628318
0.0079857139 0.0042500002 -0.0036902656
0.0018571429 -0.0042500002 -0.0072212392
-0.013 -0.0017944444 -0.014469027
-0.0087285712 -0.0014166667 -0.017814159
-0.012814286 0.0010388889 -0.01019469
-0.0085428571 -0.0027388888 -0.017814159
0.0094714286 -0.0042500002 -0.016513275
-0.0024142857 0.0042500002 -0.012053098
0.0011142857 -0.0042500002 -0.0070353984
-0.00074285717 0.0042500002 -0.0051769912
0.013 0.0017944444 -0.001460177
0.012814286 0.00085000001 -0.017256638
-0.0085428571 -0.0042500002 -0.0035044248
-0.0053857141 0.0042500002 -0.013353982
0.0011142857 -0.0042500002 -0.011123894
0.0059428574 -0.0042500002 -0.0088938056
-0.0059428574 0.0042500002 -0.0072212392
-0.0070571429 -0.0019833334 -0.017814159
0.0074285716 -0.0042500002 -0.0081504425
0.00055714283 0.0012277778 -0.00071681413
0.0053857141 -0.0042500002 -0.017442478
-0.012628571 9.4444447e-05 -0.011309735
0.0091000004 0.0042500002 -0.0040619471
-0.00037142858 -0.0042500002 -0.0098230084
-0.007242857 0.0042500002 -0.0083362833
-0.011142857 0.0042500002 -0.013911504
-0.0081714289 0.0042500002 -0.0074070795
0.0087285712 -0.0042500002 -0.0068495576
0.012814286 -0.0031166666 -0.013539823
-0.011328571 0.0042500002 -0.010008849
-0.0079857139 0.0023611111 -0.00071681413
-0.0059428574 -0.0016055555 -0.00071681413
0.010957143 -0.0042500002 -0.0020176992
0.0092857145 -0.0042500002 -0.017256638
0.012814286 0.00085000001 -0.010752212
-0.0038999999 -0.0042500002 -0.0023893805
0.008357143 -0.00066111109 -0.017814159
0.0031571428 0.0042500002 -0.010566371
-0.0020428572 0.00028333333 -0.017814159
0.00092857145 -0.00066111109 -0.00071681413
0.013 -0.0014166667 -0.0051769912
-0.0014857143 0.0034944445 -0.017628318
0.011142857 -0.0042500002 -0.011681416
-0.0022285713 -0.0042500002 -0.0040619471
0.0037142858 -0.0042500002 -0.0092654871
-0.0048285713 -0.0042500002 -0.014840708
0.010957143 0.0042500002 -0.0025752212
0.013 0.0021722221 -0.014654867
0.0089142853 0.0042500002 -0.0029469028
-0.0092857145 -0.0042500002 -0.0022035397
0.007242857 -0.0040611112 -0.017442478
0.012628571 -0.00047222222 -0.0075929202
0.00074285717 -0.0042500002 -0.012053098
-0.0089142853 0.0042500002 -0.016327433
-0.011514286 -0.0042500002 -0.014097345
-0.0052 -0.0027388888 -0.017814159
-0.0066857142 -0.0042500002 -0.014283186
0.0087285712 0.0042500002 -0.0036902656
0.012814286 -0.0029277778 -0.0092654871
0.0046428572 -0.0034944445 -0.00053097343
0.00074285717 -0.0042500002 -0.005362832
-0.0026 -0.0042500002 -0.00090265489
-0.0018571429 -0.0042500002 -0.0055486728
0.013 0.0023611111 -0.012053098
-0.012814286 -0.0016055555 -0.014840708
-0.0033428571 -0.0042500002 -0.01261062
0.0031571428 -0.0042500002 -0.0092654871
-0.013 0.0023611111 -0.011495575
0.0081714289 0.0042500002 -0.012053098
0.012814286 0.0031166666 -0.013911504
0.0085428571 -0.0042500002 -0.014283186
0.013 -0.0027388888 -0.013168141
0.0091000004 0.0012277778 -0.00071681413
-0.0068714283 0.0021722221 -0.00071681413
-0.013 0.0014166667 -0.0031327433
-0.011142857 -0.00047222222 -0.017814159
-0.010771428 -0.00085000001 -0.00090265489
-0.0053857141 -0.0042500002 -0.01019469
0.011142857 -0.0038722223 -0.017628318
-0.0066857142 -0.0034944445 -0.00015929203
-0.011514286 -0.0042500002 -0.0081504425
0.012257143 0.0040611112 -0.00090265489
0.013 -0.0010388889 -0.0036902656
0.0048285713 0.0042500002 -0.014469027
-0.013 0.0010388889 -0.0038761061
0.012628571 0.0036833333 -0.0092654871
-0.013 -0.0021722221 -0.011309735
0.0050142859 0.00066111109 -0.00071681413
-0.010028572 -0.0033055556 -0.00090265489
-0.0014857143 -0.0042500002 -0.0068495576
0.00018571429 -0.0025500001 -0.00071681413
0.0068714283 -0.0042500002 -0.001460177
-0.0087285712 0.0042500002 -0.0020176992
0.0037142858 -0.0036833333 -0.00071681413
-0.0027857143 -0.0042500002 -0.01539823
-0.0089142853 -0.0029277778 -0.00071681413
0.0085428571 0.0042500002 -0.00071681413
0.012814286 -0.0029277778 -0.013911504
-0.0035285715 -0.0042500002 -0.0070353984
0.012814286 -9.4444447e-05 -0.010380531
-0.008357143 0.0042500002 -0.0035044248
-0.0070571429 -0.0042500002 -0.014097345
0.0081714289 -0.0042500002 -0.0036902656
-0.0029714287 -0.0042500002 -0.01019469
-0.0029714287 -0.0036833333 -0.017628318
0.012257143 -0.0042500002 -0.011495575
0.012071429 0.0038722223 -0.012424779
-0.0018571429 -0.0042500002 -0.013353982
-0.0052 0.0042500002 -0.00071681413
-0.00018571429 0.0042500002 -0.0075929202
0.0038999999 0.0042500002 -0.0029469028
0.0066857142 0.0033055556 -0.00034513275
0.0081714289 -0.0042500002 -0.014283186
-0.011142857 -9.4444447e-05 -0.00015929203
-0.013 0.0027388888 -0.0087079648
0.012814286 -0.00085000001 -0.005362832
0.0076142857 0.0042500002 -0.01019469
-0.010771428 0.0010388889 -0.00090265489
0.0066857142 0.0042500002 -0.0061061946
0.012814286 0.0038722223 -0.0040619471
0.011328571 0.0042500002 -0.0010884956
-0.0091000004 -0.0040611112 -0.017628318
0.0050142859 -9.4444447e-05 -0.00071681413
-0.0027857143 0.0042500002 -0.005362832
-0.0081714289 0.0042500002 -0.0029469028
0.0026 0.0034944445 -0.00090265489
0.010771428 -0.0042500002 -0.0129823
-0.0068714283 -0.0042500002 -0.014097345
0.0065000001 0.0042500002 -0.010566371
-0.012257143 -0.0036833333 -0.011867257
0.012814286 0.0033055556 -0.010566371
-0.012257143 0.00028333333 -0.00090265489
-0.012442857 -0.0036833333 -0.0066637169
-0.0063142856 -0.0042500002 -0.0044336282
0.00092857145 9.4444447e-05 -0.017999999
0.00018571429 -0.0042500002 -0.014283186
-0.0053857141 0.0042500002 -0.010752212
-0.0013 0.0042500002 -0.014469027
-0.00092857145 -0.0042500002 -0.0023893805
0.0024142857 -0.0042500002 -0.011309735
0.0053857141 -0.0042500002 -0.0092654871
-0.011885715 -0.0012277778 -0.017628318
0.011142857 0.0042500002 -0.007778761
0 0.0042500002 -0.010752212
0.013 0.0017944444 -0.0061061946
0.0020428572 0.0042500002 -0.012238938
0.012814286 -0.0012277778 -0.011867257
-0.0081714289 0.0023611111 -0.017628318
-0.0098428568 0.0042500002 -0.0022035397
-0.012628571 -0.0012277778 -0.010752212
0.00092857145 -0.0033055556 -0.00090265489
0.0077999998 0.0042500002 -0.001460177
0.0117 0.0042500002 -0.016699115
-0.013 0.0021722221 -0.013353982
0.0033428571 9.4444447e-05 -0.017814159
0.0052 -0.0017944444 -0.017814159
0.0096571427 0.0042500002 -0.014840708
0.0026 -0.0042500002 -0.0090796463
0.0022285713 0.0033055556 -0.00071681413
0.013 0.0025500001 -0.01521239
0.0027857143 0.0042500002 -0.0042477874
0.0098428568 -0.0042500002 -0.0036902656
0.0074285716 -0.0042500002 -0.001460177
-0.0081714289 -0.0042500002 -0.010752212
-0.012814286 0.0012277778 -0.017628318
0.011514286 -0.00028333333 -0.017628318
-0.0044571427 0.0016055555 -0.017814159
0.0085428571 -0.0042500002 -0.0010884956
-0.0087285712 -0.0042500002 -0.016884957
-0.010771428 -0.0036833333 -0.00090265489
0.0079857139 0.0021722221 -0.00071681413
0.0016714286 0.00028333333 -0.017814159
-0.0018571429 -0.0042500002 -0.00090265489
0.012071429 -0.0042500002 -0.0055486728
-0.0074285716 0.0040611112 -0.017442478
-0.00018571429 -0.0042500002 -0.0051769912
-0.0013 0.0014166667 -0.017814159
-0.0037142858 -0.0014166667 -0.00090265489
-0.012814286 0.0012277778 -0.0081504425
-0.0057571428 0.0042500002 -0.015769912
0.010585714 -0.0027388888 -0.017628318
0.0055714287 -0.0042500002 -0.0018318584
-0.0046428572 -0.0042500002 -0.005362832
-0.0046428572 0.0042500002 -0.015955752
0.012814286 0.0023611111 -0.00090265489
0.013 0.00047222222 -0.0010884956
0.012814286 0.0014166667 -0.014469027
-0.007242857 0.0042500002 -0.0074070795
-0.012814286 0.0010388889 -0.0087079648
-0.0074285716 0.0042500002 -0.0062920353
-0.012442857 -0.0034944445 -0.00090265489
0.0055714287 0.0042500002 -0.007778761
-0.0061285715 -0.0034944445 -0.00015929203
-0.0031571428 0.0027388888 -0.00071681413
-0.010214286 0.0042500002 -0.011681416
-0.0087285712 -0.0042500002 -0.0094513278
-0.011328571 0.0042500002 -0.016884957
-0.008357143 0.0016055555 -0.00071681413
-0.0013 0.0042500002 -0.015584071
0.011142857 -0.0042500002 -0.0038761061
-0.0081714289 -0.0017944444 -0.00071681413
0.012628571 0.0034944445 -0.00090265489
-0.012628571 -0.00066111109 -0.0038761061
-0.0087285712 0.0042500002 -0.0129823
-0.0098428568 0.00047222222 -0.017814159
-0.0063142856 0.0034944445 -0.017628318
0.010957143 -0.0042500002 -0.001460177
-0.010585714 0.0042500002 -0.014097345
0.0029714287 -0.0042500002 -0.0048053097
-0.0063142856 -0.0014166667 -0.017814159
0.0104 0.0042500002 -0.017070796
0.0013 0.0023611111 -0.00071681413
-0.0061285715 0.0042500002 -0.013539823
0.0027857143 0.0042500002 -0.00071681413
-0.0068714283 0.0042500002 -0.0062920353
-0.0029714287 0.0042500002 -0.0031327433
0.0091000004 0.0042500002 -0.0046194689
0.012257143 -0.0042500002 -0.0055486728
0.0027857143 0.0042500002 -0.0061061946
0.010957143 -0.0042500002 -0.0046194689
0.010028572 0.0042500002 -0.0010884956
-0.0050142859 0.0042500002 -0.014469027
0.0117 0.0042500002 -0.016141593
-0.011328571 0.0042500002 -0.013539823
-0.0098428568 0.0021722221 -0.00071681413
0.0035285715 0.0040611112 -0.017442478
0.010028572 -0.0042500002 -0.0023893805
-0.012814286 0.0036833333 -0.017070796
-0.012814286 -0.00066111109 -0.0022035397
0.0096571427 0.0040611112 -0.017628318
0.0031571428 0.0042500002 -0.0036902656
0.0037142858 0.0042500002 -0.0072212392
-0.0104 0.0042500002 -0.010380531
-0.0081714289 -0.0042500002 -0.005362832
-0.0053857141 -0.0034944445 -0.017628318
0.00055714283 0.0042500002 -0.016141593
0.012071429 0.0042500002 -0.010938053
-0.0077999998 0.00085000001 -0.00071681413
-0.0098428568 -0.0042500002 -0.0022035397
0.00092857145 0.0029277778 -0.017628318
0.0052 0.0031166666 -0.00071681413
0 -0.0038722223 -0.017628318
0.0011142857 0.0042500002 -0.014097345
-0.010585714 -0.00047222222 -0.017814159
0.010214286 -0.0029277778 -0.017628318
-0.00092857145 -0.0042500002 -0.015584071
-0.0057571428 -0.0025500001 -0.017814159
-0.0089142853 -0.0042500002 -0.0129823
0.0014857143 -0.00085000001 -0.00071681413
0.011142857 0.0042500002 -0.0016460177
0.0104 -0.0042500002 -0.013168141
0.0042714286 0.0038722223 -0.017628318
0.0070571429 0.0036833333 -0.00015929203
-0.0018571429 0.0042500002 -0.0066637169
0.012814286 -0.0031166666 -0.011309735
0.0040857145 0.0014166667 -0.00071681413
-0.0104 0.0042500002 -0.00090265489
-0.0076142857 0.0042500002 -0.015769912
-0.00037142858 -0.0042500002 -0.0079646017
-0.011885715 0.0042500002 -0.010008849
-0.012814286 -9.4444447e-05 -0.0048053097
-0.0104 0.0042500002 -0.0025752212
0.00074285717 0.0042500002 -0.015026549
0.0087285712 -0.0042500002 -0.015955752
-0.0022285713 -0.0042500002 -0.0035044248
-0.011328571 0.00066111109 -0.00090265489
-0.0081714289 -0.0014166667 -0.017814159
0.00074285717 0.0031166666 -0.017628318
-0.0079857139 0.0042500002 -0.0023893805
0.0042714286 -0.0042500002 -0.0083362833
-0.00092857145 0.0017944444 -0.017814159
0.012814286 0.0036833333 -0.0094513278
0.0094714286 -0.0042500002 -0.01019469
-0.0016714286 -0.0042500002 -0.005734513
-0.0031571428 -0.0019833334 -0.017814159
-0.007242857 -0.0042500002 -0.008522124
-0.0050142859 -9.4444447e-05 -0.017814159
0.0068714283 0.0042500002 -0.0033185841
-0.0092857145 0.0042500002 -0.0010884956
0.010771428 0.0042500002 -0.0083362833
0.0098428568 -0.00066111109 -0.017814159
0.0037142858 -0.0042500002 -0.0066637169
0.0022285713 -0.0040611112 -0.00090265489
0.012814286 -0.0036833333 -0.0055486728
0.011142857 -0.0025500001 -0.00090265489
0.010585714 -0.0012277778 -0.00090265489
0.0104 -0.0042500002 -0.0040619471
0.010957143 0.0042500002 -0.0066637169
0.0096571427 0.0025500001 -0.017814159
0.012814286 -0.0016055555 -0.012053098
-0.012628571 -0.00047222222 -0.0018318584
-0.00074285717 0.0016055555 -0.017814159
-0.0089142853 -0.0010388889 -0.00071681413
-0.0061285715 0.00047222222 -0.00071681413
-0.013 -0.0019833334 -0.0031327433
-0.0059428574 -0.00047222222 -0.017814159
-0.0092857145 -0.0019833334 -0.00071681413
-0.0117 -0.0042500002 -0.015955752
-0.008357143 0.0038722223 -0.00015929203
-0.0085428571 -0.0042500002 -0.010566371
-0.0079857139 0.0042500002 -0.014283186
0.0066857142 0.0042500002 -0.011123894
-0.0013 -0.0025500001 -0.00071681413
-0.012628571 0.0040611112 -0.0129823
-0.012257143 -0.00028333333 -0.00090265489
-0.00074285717 -0.0042500002 -0.01019469
-0.012071429 -0.0042500002 -0.0090796463
-0.0037142858 -0.00047222222 -0.00090265489
0.0022285713 -0.0042500002 -0.012238938
0.011885715 -0.0031166666 -0.00090265489
-0.007242857 0.0042500002 -0.01539823
0.012628571 0.0036833333 -0.0031327433
0.0040857145 -0.0017944444 -0.00071681413
0.0063142856 0.0019833334 -0.017814159
0.0011142857 0.0042500002 -0.0042477874
0.012257143 -0.0042500002 -0.0092654871
-0.008357143 -0.0034944445 -0.00053097343
-0.0024142857 -0.0042500002 -0.0083362833
-0.010771428 -0.0042500002 -0.016699115
-0.013 0.0019833334 -0.0081504425
-0.0042714286 -0.0042500002 -0.013353982
0.011514286 -0.00047222222 -0.00090265489
-0.007242857 -0.0042500002 -0.014840708
0.011142857 -0.0012277778 -0.017814159
0.012814286 -0.00028333333 -0.0031327433
-0.0053857141 0.0042500002 -0.0035044248
-0.012814286 -0.00085000001 -0.0033185841
-0.00074285717 0.0042500002 -0.016513275
0.012071429 -0.00047222222 -0.00090265489
-0.0059428574 0.0042500002 -0.0033185841
-0.0063142856 0.0042500002 -0.017442478
-0.0085428571 0.00066111109 -0.017814159
-0.0098428568 -0.0042500002 -0.0051769912
-0.013 0.0023611111 -0.0025752212
-0.010771428 0.0040611112 -0.017628318
0.0077999998 -0.0042500002 -0.0031327433
0.0035285715 0.0042500002 -0.0098230084
-0.010214286 -0.0042500002 -0.0042477874
0.012257143 -0.0042500002 -0.005362832
0.012814286 -0.0031166666 -0.0025752212
-0.0027857143 0.0019833334 -0.00071681413
0.0089142853 -0.0033055556 -0.017628318
-0.0089142853 0.0042500002 -0.0075929202
0.00092857145 -0.0042500002 -0.005362832
-0.013 -0.0025500001 -0.015026549
-0.0053857141 -0.0042500002 -0.005734513
-0.0053857141 0.0016055555 -0.00071681413
-0.0011142857 -0.0031166666 -0.00071681413
-0.0098428568 0.0042500002 -0.0074070795
0.0031571428 0.0042500002 -0.0081504425
-0.0018571429 0.0042500002 -0.0061061946
0.0085428571 0.0042500002 -0.0018318584
0.0011142857 0.0029277778 -0.00071681413
-0.0061285715 -0.0042500002 -0.013911504
-0.0038999999 -0.0042500002 -0.014840708
-0.012814286 -0.0031166666 -0.0059203538
-0.0065000001 0.0042500002 -0.014469027
-0.0027857143 -0.0021722221 -0.017814159
-0.013 0.0021722221 -0.0092654871
-0.0066857142 -0.0033055556 -0.00034513275
0.010585714 -0.0042500002 -0.013911504
0.0074285716 0.0021722221 -0.00071681413
0.0040857145 0.0012277778 -0.00071681413
0.012442857 0.0036833333 -0.013911504
-0.012628571 -0.00085000001 -0.008522124
0.0079857139 -0.0042500002 -0.0090796463
-0.008357143 -0.0042500002 -0.015769912
0.011514286 0.0042500002 -0.001460177
-0.012257143 -0.0038722223 -0.0022035397
-0.0055714287 0.0042500002 -0.015026549
-0.0052 -0.0042500002 -0.01019469
-0.010028572 0.0042500002 -0.0055486728
-0.0065000001 0.00066111109 -0.00071681413
-0.008357143 0.0042500002 -0.015026549
0.0016714286 0.0042500002 -0.0055486728
0.0096571427 0.0042500002 -0.01279646
0.0020428572 -0.0042500002 -0.016141593
-0.0087285712 -0.0042500002 -0.0020176992
-0.007242857 9.4444447e-05 -0.017814159
-0.0079857139 -0.0042500002 -0.0059203538
-0.013 0.0016055555 -0.0040619471
0.0070571429 -0.0042500002 -0.00071681413
0.00055714283 0.0042500002 -0.005362832
0.012814286 0.0012277778 -0.0040619471
-0.010957143 -0.0042500002 -0.016513275
0.0011142857 0.0042500002 -0.005734513
0.0037142858 -0.0027388888 -0.00071681413
-0.012628571 -9.4444447e-05 -0.01261062
0.010028572 -0.0014166667 -0.00071681413
-0.0027857143 0.0042500002 -0.0038761061
0.0070571429 -0.0042500002 -0.0042477874
0.0035285715 -0.0042500002 -0.0061061946
-0.0063142856 -9.4444447e-05 -0.017814159
0.0053857141 0.0042500002 -0.0083362833
-0.012628571 0.0040611112 -0.0038761061
-0.00074285717 0.0042500002 -0.01521239
0.0016714286 0.0034944445 -0.00071681413
-0.0076142857 0.0031166666 -0.017628318
-0.0029714287 -0.0038722223 -0.00090265489
0.0068714283 0.0042500002 -0.010938053
0.0077999998 -0.0042500002 -0.0081504425
-0.0026 -0.0042500002 -0.0049911505
-0.010771428 0.0042500002 -0.012424779
-0.0046428572 0.0033055556 -0.017628318
0.007242857 -0.0042500002 -0.015584071
0.0081714289 -0.0042500002 -0.016327433
-0.0079857139 0.0038722223 -0.00015929203
-0.0027857143 -0.0042500002 -0.012238938
-0.012814286 -0.00028333333 -0.0055486728
-0.011514286 0.0029277778 -0.00090265489
-0.0033428571 0.0042500002 -0.0055486728
0 -0.0042500002 -0.013353982
-0.00018571429 -0.0042500002 -0.015026549
-0.0052 -0.0042500002 -0.00034513275
-0.0013 0.0042500002 -0.0033185841
0.0057571428 -0.0042500002 -0.002761062
0.0057571428 -0.0042500002 -0.010938053
0.0076142857 0.0042500002 -0.0096371677
0.0057571428 0.00085000001 -0.017814159
-0.0068714283 -0.0038722223 -0.017628318
-0.012814286 0.0038722223 -0.0036902656
0.0092857145 0.0042500002 -0.0046194689
-0.0050142859 -0.0042500002 -0.0079646017
0.0020428572 0.0042500002 -0.016699115
0.0117 -0.0042500002 -0.0090796463
0.0042714286 0.0017944444 -0.017814159
0.0068714283 -0.00085000001 -0.00071681413
0.012814286 -0.0010388889 -0.013539823
0.013 -0.0023611111 -0.0033185841
0.0013 -0.00085000001 -0.017814159
-0.00055714283 0.0042500002 -0.0044336282
0.013 -0.0021722221 -0.0035044248
-0.012442857 -0.0025500001 -0.00090265489
0.012257143 0.0042500002 -0.0088938056
0.0026 -0.0042500002 -0.014469027
0.0027857143 -0.0042500002 -0.0092654871
0.0027857143 -0.0042500002 -0.0088938056
-0.012628571 9.4444447e-05 -0.012053098
-0.012814286 0.00085000001 -0.0059203538
0.00092857145 -0.0016055555 -0.00071681413
-0.0052 -0.0042500002 -0.010566371
-0.0079857139 0.0042500002 -0.005362832
-0.0087285712 -0.0038722223 -0.017628318
0.012814286 -0.0017944444 -0.0075929202
0.012257143 0.0038722223 -0.0074070795
-0.0037142858 -0.00028333333 -0.017814159
0.0033428571 -0.0042500002 -0.0035044248
-0.012814286 0.00047222222 -0.0035044248
-0.0033428571 0.0042500002 -0.01521239
0.0092857145 -0.0027388888 -0.017628318
0 0.0042500002 -0.0094513278
0.0077999998 -0.0042500002 -0.0061061946
0.013 -0.0012277778 -0.005362832
0.0050142859 -0.0031166666 -0.017628318
0.008357143 -0.0042500002 -0.010566371
0.00074285717 -9.4444447e-05 -0.017999999
0.012814286 -0.0023611111 -0.00090265489
-0.0016714286 0.0042500002 -0.0016460177
0.0091000004 0.00066111109 -0.00071681413
-0.0013 0.0042500002 -0.0092654871
0.0013 0.00085000001 -0.00071681413
0.0042714286 0.0042500002 -0.0098230084
0.011885715 0.0042500002 -0.0096371677
0.0053857141 0.0042500002 -0.0049911505
0.012442857 0.0031166666 -0.017628318
-0.011514286 0.0019833334 -0.00090265489
-0.0094714286 0.0042500002 -0.00071681413
-0.010771428 -0.0042500002 -0.013539823
-0.00055714283 -0.0042500002 -0.0042477874
0.0016714286 -0.0042500002 -0.0016460177
0.0038999999 -0.0042500002 -0.01019469
-0.0013 -0.0016055555 -0.017814159
-0.012814286 -0.0027388888 -0.0072212392
-0.010028572 0.0042500002 -0.0059203538
-0.0081714289 -0.0042500002 -0.014097345
-0.0068714283 0.0042500002 -0.0090796463
0.012442857 -0.0040611112 -0.015769912
-0.010585714 -0.0042500002 -0.015769912
0.00018571429 0.0012277778 -0.00071681413
-0.00074285717 0.0042500002 -0.011309735
-0.0057571428 -0.0042500002 -0.015584071
0.010585714 0.0042500002 -0.015584071
0.0053857141 -0.0012277778 -0.00071681413
0.013 -0.0027388888 -0.0023893805
0.012071429 -0.0042500002 -0.010008849
-0.0018571429 -0.0033055556 -0.00071681413
0.0022285713 -0.0017944444 -0.017814159
0.0016714286 0.0042500002 -0.012424779
-0.0063142856 0.0042500002 -0.005362832
0.00018571429 -0.0042500002 -0.017256638
0.0013 -0.0042500002 -0.014840708
0.012071429 0.0010388889 -0.017628318
-0.0070571429 0.0042500002 -0.005362832
-0.0081714289 9.4444447e-05 -0.00071681413
-0.0066857142 0.0042500002 -0.017256638
-0.00055714283 -0.00028333333 -0.00071681413
0.012814286 -0.00028333333 -0.0033185841
-0.013 -0.0017944444 -0.0064778761
0.013 -0.0014166667 -0.0092654871
0.007242857 -0.0042500002 -0.016513275
-0.0070571429 0.0042500002 -0.016327433
0.010214286 0.0017944444 -0.00090265489
-0.0020428572 -0.00085000001 -0.017814159
-0.0092857145 0.0042500002 -0.0079646017
-0.0027857143 -0.0031166666 -0.017628318
0.010214286 0.0042500002 -0.0016460177
-0.012442857 -0.0036833333 -0.0035044248
0.0040857145 0.0042500002 -0.0025752212
0.0050142859 -0.0042500002 -0.0059203538
-0.00055714283 -0.0042500002 -0.0079646017
-0.0089142853 0.0042500002 -0.0096371677
0.0040857145 0.0031166666 -0.017814159
-0.0035285715 -0.0023611111 -0.017814159
0.012814286 -0.0033055556 -0.016327433
-0.012628571 0.0040611112 -0.01261062
-0.0018571429 -0.0042500002 -0.0040619471
-0.0020428572 -0.0042500002 -0.0066637169
-0.0104 0.00085000001 -0.00090265489
0.0092857145 0.0017944444 -0.017814159
-0.0081714289 -0.0042500002 -0.013168141
0.0027857143 -0.0029277778 -0.017628318
0.011514286 0.0031166666 -0.017628318
-0.0029714287 0.0042500002 -0.013168141
-0.013 -0.0023611111 -0.010380531
0.0104 0.0042500002 -0.011681416
0.0026 0.0021722221 -0.017814159
0.0035285715 -0.0042500002 -0.0036902656
0.0098428568 0.0042500002 -0.014654867
-0.0031571428 0.0042500002 -0.0023893805
0.0052 9.4444447e-05 -0.00071681413
0.0029714287 0.0040611112 -0.017442478
0.0048285713 -0.0042500002 -0.013353982
0.00037142858 0.0042500002 -0.016513275
-0.0074285716 -9.4444447e-05 -0.00071681413
0 0.0021722221 -0.017814159
0.0098428568 -0.0042500002 -0.0068495576
0.012814286 0.00085000001 -0.016327433
0.010957143 -9.4444447e-05 0.0020707964
-0.011328571 0.0021722221 -0.00090265489
0.008357143 0.0042500002 -0.0036902656
0.0091000004 -0.0019833334 -0.017628318
-0.0089142853 -0.0042500002 -0.0081504425
0.011885715 -0.0036833333 -0.017628318
-0.011885715 -0.0021722221 -0.017628318
0.012814286 0.0033055556 -0.011495575
-0.0050142859 0.0042500002 -0.002761062
-0.0104 0.0042500002 -0.0064778761
0.0085428571 -0.0021722221 -0.00071681413
0.0040857145 0.0038722223 -0.00071681413
0.0074285716 -0.0042500002 -0.0088938056
0.0081714289 -0.0042500002 -0.001460177
0.0076142857 -0.0042500002 -0.0059203538
-0.0096571427 0.0042500002 -0.001460177
-0.0057571428 -0.0040611112 -0.00015929203
-0.0074285716 -0.0042500002 -0.0018318584
-0.0020428572 0.0042500002 -0.0036902656
0.0029714287 0.0042500002 -0.010008849
0.012257143 0.0038722223 -0.0048053097
-0.010585714 -0.0042500002 -0.01539823
-0.0035285715 0.0042500002 -0.0059203538
-0.013 -0.0023611111 -0.016141593
-0.00074285717 -0.0042500002 -0.0048053097
-0.0048285713 0.00047222222 -0.00071681413
-0.012814286 0.0031166666 -0.014840708
-0.0016714286 0.0042500002 -0.016884957
0.010957143 0.0014166667 -0.017814159
-0.0117 -0.0012277778 -0.00090265489
-0.0070571429 -0.0042500002 -0.011495575
0.013 -0.0029277778 -0.010752212
0.011885715 -0.0042500002 -0.016884957
-0.0076142857 0.0034944445 -0.00034513275
-0.0046428572 -0.0019833334 -0.00071681413
-0.00037142858 -0.0042500002 -0.010380531
-0.010028572 0.0042500002 -0.012053098
-0.00055714283 -0.0016055555 -0.00071681413
0.0050142859 -0.0042500002 -0.0064778761
0.00018571429 0.0042500002 -0.0092654871
0.0052 0.0042500002 -0.016327433
-0.0031571428 -0.0042500002 -0.016513275
0.0066857142 -0.0042500002 -0.00015929203
-0.0027857143 -0.0042500002 -0.001460177
0.0104 -0.0042500002 -0.0031327433
0.0070571429 -0.0033055556 -0.00015929203
0.0081714289 -0.0016055555 -0.017814159
0.0079857139 0.0042500002 -0.0012743362
0.0050142859 0.0042500002 -0.010566371
-0.012628571 -0.00066111109 -0.0042477874
-0.013 -0.0019833334 -0.0046194689
0.0033428571 -0.0042500002 -0.017256638
-0.0076142857 -0.0042500002 -0.0012743362
-0.0098428568 0.0042500002 -0.016699115
-0.0050142859 0.0027388888 -0.00071681413
-0.011514286 -0.0042500002 -0.0044336282
0.012071429 -0.0042500002 -0.0088938056
-0.0037142858 0.0042500002 -0.005734513
0.0037142858 -0.0042500002 -0.013911504
0.00074285717 0.0042500002 -0.01539823
-0.00018571429 0.0042500002 -0.0066637169
-0.0066857142 0.0042500002 -0.0083362833
-0.0085428571 -0.0042500002 -0.011495575
0.013 0.0027388888 -0.0129823
0.0085428571 9.4444447e-05 -0.00071681413
0.0096571427 0.0042500002 -0.0079646017
0.008357143 -0.0042500002 -0.0010884956
0.0016714286 -0.0038722223 -0.00090265489
0.012814286 -0.00085000001 -0.005734513
0.007242857 -0.0042500002 -0.0016460177
0.010585714 -0.0042500002 -0.015955752
0.010957143 0.0012277778 -0.00090265489
0.0061285715 0.0038722223 -0.00015929203
-0.011885715 -0.0042500002 -0.0033185841
0.0070571429 -0.0042500002 -0.012053098
-0.0059428574 -0.0042500002 -0.0129823
-0.012628571 9.4444447e-05 -0.00090265489
-0.012814286 0.0029277778 -0.01521239
-0.013 -0.0025500001 -0.012238938
-0.012814286 0.00085000001 -0.008522124
-0.010028572 -0.0042500002 -0.0079646017
-0.0011142857 -0.0042500002 -0.016699115
-0.0079857139 0.0042500002 -0.0079646017
0.0066857142 -0.0042500002 -0.014097345
0.012628571 0.0036833333 -0.0046194689
-0.0027857143 -0.0042500002 -0.0075929202
0.0070571429 -0.0029277778 -0.00071681413
-0.012814286 0.0033055556 -0.0049911505
-0.0066857142 0.0042500002 -0.00071681413
0.012071429 -0.0042500002 -0.0098230084
-0.0068714283 -0.0042500002 -0.0023893805
-0.0050142859 0.0042500002 -0.0018318584
-0.011885715 -0.0042500002 -0.014283186
0.0057571428 0.0042500002 -0.008522124
-0.0024142857 0.0042500002 -0.0038761061
-0.0061285715 -0.0042500002 -0.0096371677
-0.0104 -0.0025500001 -0.00090265489
0.0066857142 0.0025500001 -0.017814159
-0.00055714283 0.0042500002 -0.010566371
-0.0014857143 0.0034944445 -0.00071681413
-0.011328571 -0.0042500002 -0.015769912
-0.0104 -0.0042500002 -0.014469027
-0.0063142856 0.0042500002 -0.0092654871
0.0092857145 -0.0042500002 -0.0046194689
-0.012071429 0.0010388889 -0.017814159
-0.0066857142 0.0042500002 -0.0029469028
0.00018571429 -0.0042500002 -0.011681416
-0.0074285716 -0.0036833333 -0.017628318
0.0061285715 0.0042500002 -0.0022035397
0.012071429 0.0042500002 -0.013539823
-0.012628571 -0.0012277778 -0.01261062
-0.010957143 0.0023611111 -0.017628318
0.011514286 -0.0042500002 -0.017256638
0.0033428571 0.0042500002 -0.010752212
0.0096571427 0.0042500002 -0.0036902656
0.010214286 -0.0042500002 -0.013539823
0.013 -0.0033055556 -0.010380531
-0.0020428572 -0.0042500002 -0.010008849
-0.00018571429 0.0042500002 -0.0064778761
-0.0018571429 -0.0042500002 -0.0010884956
0.0050142859 0.0042500002 -0.0055486728
-0.0018571429 -0.0040611112 -0.017628318
-0.0040857145 0.0042500002 -0.013168141
-0.011885715 -0.0042500002 -0.0018318584
0.0031571428 0.0042500002 -0.017070796
0.0087285712 0.0042500002 -0.0048053097
0.012814286 -0.0029277778 -0.0031327433
0.0087285712 -0.0042500002 -0.013539823
0.013 0.0023611111 -0.014654867
0.012814286 0.0038722223 -0.0064778761
0.0053857141 -0.0036833333 -0.017628318
-0.0096571427 0.0042500002 -0.013539823
-0.00055714283 -0.0042500002 -0.013725664
-0.0024142857 0.0040611112 -0.017442478
-0.012628571 -0.00047222222 -0.0072212392
0.012814286 -0.0033055556 -0.0036902656
-0.0018571429 -0.0042500002 -0.0066637169
0.012814286 0.0012277778 -0.016327433
0 0.0029277778 -0.017814159
0.012814286 0.0012277778 -0.017442478
0.0029714287 0.0010388889 -0.00071681413
-0.0066857142 0.0042500002 -0.0092654871
-0.0059428574 0.0042500002 -0.014469027
-0.011328571 -0.0017944444 -0.00090265489
-0.0085428571 0.0036833333 -0.00015929203
0.0081714289 -0.0042500002 -0.010566371
0.0065000001 -0.0019833334 -0.017814159
0.0066857142 -0.00085000001 -0.00071681413
0.010028572 0.0042500002 -0.0042477874
-0.012628571 0.00028333333 -0.014469027
-0.0033428571 -0.0017944444 -0.00090265489
0.012814286 -9.4444447e-05 -0.0059203538
0.0048285713 0.0042500002 -0.0018318584
0.0068714283 0.0042500002 -0.010380531
-0.011514286 -0.0042500002 -0.0092654871
-0.0117 0.0042500002 -0.0064778761
-0.00092857145 0.0042500002 -0.008522124
-0.0022285713 -0.00066111109 -0.00071681413
0.0104 -0.00047222222 -0.017814159
0.0022285713 -0.0042500002 -0.0088938056
0.0079857139 -0.0042500002 -0.010566371
0.0040857145 0.0042500002 -0.0068495576
-0.0104 -0.0014166667 -0.00090265489
-0.012628571 -0.00028333333 -0.0079646017
-0.011142857 -0.0042500002 -0.013725664
-0.0087285712 -0.0042500002 -0.017070796
0.0094714286 -0.0042500002 -0.0031327433
-0.011328571 9.4444447e-05 0.0015132744
0.011885715 0.0042500002 -0.0092654871
0.0057571428 -0.0042500002 -0.015955752
0.013 -0.0017944444 -0.0087079648
-0.0031571428 -0.0021722221 -0.00071681413
0.0089142853 -0.0042500002 -0.012053098
-0.0117 -0.0042500002 -0.013725664
0.0061285715 -0.0017944444 -0.017628318
-0.0042714286 0.0031166666 -0.00071681413
-0.0053857141 0.0042500002 -0.017256638
-0.0016714286 -0.0042500002 -0.016513275
-0.008357143 -0.0042500002 -0.0075929202
-0.0091000004 -0.0036833333 -0.017628318
0.0046428572 0.0025500001 -0.00071681413
0.0046428572 0.0042500002 -0.017442478
-0.011328571 0.0042500002 -0.0033185841
0.011328571 0.0042500002 -0.007778761
-0.0079857139 -0.00028333333 -0.017814159
-0.00074285717 0.0042500002 -0.0031327433
-0.0044571427 -0.0042500002 -0.007778761
0.012814286 -0.0033055556 -0.0098230084
-0.0077999998 -0.0012277778 -0.017814159
-0.0046428572 0.0036833333 -0.017628318
0.0014857143 -0.0042500002 -0.0129823
-0.0081714289 0.0042500002 -0.00034513275
0.0031571428 -0.0042500002 -0.013539823
-0.0020428572 -0.0042500002 -0.010938053
0.012814286 0.0012277778 -0.01279646
-0.0059428574 -0.0042500002 -0.017070796
0.012814286 -0.0031166666 -0.0051769912
0.012814286 0.00066111109 -0.013539823
0.0042714286 0.0042500002 -0.0059203538
0.0050142859 -0.0042500002 -0.0129823
0.0035285715 0.0042500002 -0.0068495576
-0.0081714289 0.0042500002 -0.013539823
-0.010028572 0.0042500002 -0.0096371677
0.011514286 0.0042500002 -0.013911504
0.013 0.0021722221 -0.01521239
0 -0.0042500002 -0.0081504425
-0.011514286 -0.0025500001 -0.00090265489
-0.011142857 -0.0042500002 -0.0051769912
0.0033428571 0.0040611112 -0.017442478
0.0042714286 -0.0042500002 -0.007778761
0.0024142857 -0.0031166666 -0.017628318
-0.0059428574 0.00028333333 -0.017814159
-0.0014857143 -0.0042500002 -0.013725664
0.0011142857 0.0042500002 -0.0098230084
-0.0046428572 -0.0042500002 -0.0048053097
0.0042714286 -0.0042500002 -0.0098230084
0.0057571428 0.0042500002 -0.0018318584
0.011142857 -0.0017944444 -0.00090265489
0.012257143 0.0042500002 -0.0022035397
-0.0044571427 -0.0042500002 -0.0059203538
-0.0026 -0.0042500002 -0.014654867
-0.012071429 0.0040611112 -0.005734513
0.012442857 0.0036833333 -0.0059203538
-0.0040857145 0.0042500002 -0.012424779
0.0061285715 -0.00085000001 -0.017814159
0.0057571428 -0.0042500002 -0.0062920353
0.0026 0.0031166666 -0.017628318
-0.010214286 0.0019833334 -0.00090265489
-0.0022285713 0.0042500002 -0.010008849
-0.0070571429 -0.0019833334 -0.00071681413
0.0048285713 -0.0025500001 -0.00071681413
0.0027857143 -0.0042500002 -0.0036902656
-0.0042714286 0.0042500002 -0.00071681413
0.011142857 9.4444447e-05 0.0028141593
-0.0063142856 0.0042500002 -0.013168141
-0.010214286 0.0042500002 -0.0022035397
-0.0061285715 0.0042500002 -0.0051769912
-0.0059428574 0.0042500002 -0.0016460177
-0.012628571 -0.0034944445 -0.016884957
-0.0098428568 0.0042500002 -0.01261062
0.0066857142 0.0042500002 -0.0044336282
-0.013 0.0016055555 -0.0025752212
0.0079857139 0.0042500002 -0.01279646
-0.012628571 -0.00028333333 -0.0092654871
-0.007242857 0.0042500002 -0.007778761
-0.010214286 -9.4444447e-05 -0.017814159
-0.0037142858 -0.0042500002 -0.0074070795
-0.0035285715 0.0042500002 -0.0062920353
-0.0068714283 -0.0017944444 -0.017814159
-0.010771428 -0.00028333333 -0.017814159
-0.012628571 -0.0012277778 -0.008522124
-0.0026 -0.0042500002 -0.0055486728
-0.0081714289 0.00085000001 -0.00071681413
-0.012814286 -0.00028333333 -0.0046194689
-0.0117 0.00028333333 -0.00071681413
-0.0011142857 0.0042500002 -0.0055486728
0.011328571 -0.0042500002 -0.0022035397
-0.0052 -0.0042500002 -0.0022035397
-0.012628571 0.0040611112 -0.0066637169
-0.011514286 -9.4444447e-05 0.0003982301
0.0081714289 -0.0042500002 -0.0072212392
-0.013 -0.0019833334 -0.0036902656
-0.013 -0.0025500001 -0.0072212392
0.0027857143 -0.0042500002 -0.01261062
0.0052 0.0042500002 -0.0074070795
-0.010028572 0.0042500002 -0.0035044248
0.0011142857 0.00066111109 -0.017814159
-0.0035285715 0.0042500002 -0.005362832
0.0035285715 0.0042500002 -0.0075929202
0.0085428571 0.0042500002 -0.010008849
-0.0013 0.0023611111 -0.00071681413
0.00055714283 -0.0042500002 -0.0046194689
-0.013 -0.0017944444 -0.0022035397
-0.00037142858 -0.0042500002 -0.0081504425
0.00074285717 -0.0027388888 -0.017814159
-0.0085428571 0.0042500002 -0.017442478
0.0092857145 0.0042500002 -0.0016460177
-0.0018571429 0.0042500002 -0.010938053
0.0048285713 -0.0042500002 -0.007778761
-0.0016714286 -0.0034944445 -0.017628318
