# .PCD v0.7 - Point Cloud Data file format
VERSION 0.7
FIELDS x y z
SIZE 4 4 4
TYPE F F F
COUNT 1 1 1
WIDTH 1169
HEIGHT 1
VIEWPOINT 0 0 0 1 0 0 0
POINTS 1169
DATA ascii
0.0054256199 0.0024999999 -0.0075801527
-0.00016115702 -0.0014130435 -0.00052671757
-0.00091322314 -0.0024999999 -0.010038168
-0.00048347109 0.0015217392 -0.01078626
-0.0030619835 0.0024999999 -0.0035190841
-0.0065000001 0.0016304348 -0.0070458017
-0.0019876033 -0.0024999999 -0.00052671757
0.0020950413 -0.0024999999 -0.009931298
0.0031694216 -0.0024999999 -0.0023435114
-0.0063925618 -0.0020652174 -0.010251909
0.0046735536 0.0016304348 -0.01078626
0.0065000001 0.00032608697 -0.0030916031
0.0065000001 -0.00021739131 -0.0068320609
0.0040289257 -0.0024999999 -0.0024503816
0.0034917356 -0.00086956524 -0.01078626
0.0038140495 0.0024999999 -0.0056564887
0.0065000001 -0.00043478262 -0.0097175576
0.00091322314 0.0021739129 -0.00052671757
0.0048884298 0.0024999999 -0.0019160305
0.0045661158 -0.0024999999 -0.0067251907
0.0044586775 -0.0024999999 -0.0027709925
5.371901e-05 -0.0024999999 -0.0091832057
-0.0049958676 0.00021739131 0.002572519
-0.0054256199 0.0017391305 -0.00052671757
-0.0065000001 0.0010869565 -0.0044809161
0.0044586775 -0.00054347824 -0.01078626
-0.0065000001 0.0011956522 -0.0081145037
0.0017727272 -0.0024999999 -0.0058702291
0.00016115702 -0.0024999999 -0.010465649
0.0022024794 -0.0024999999 -0.0029847329
-0.00080578512 -0.00097826088 -0.01078626
0.0055330577 0.0024999999 -0.0062977099
0.00596281 -0.0024999999 -0.0052290075
-0.0026322315 -0.0024999999 -0.0069389311
0.00048347109 -0.0024999999 -0.0018091603
-0.00596281 -0.0024999999 -0.0039465651
0.0034917356 0.0024999999 -0.0057633589
0.0053181816 -0.0024999999 -0.0038396947
0.0048884298 -0.00010869565 0.002572519
0.0023099172 0.0024999999 -0.010038168
0.0022024794 -0.0021739129 -0.010679389
0.0054256199 0 -0.00052671757
0.00037603304 -0.0024999999 -0.0056564887
-0.0024173553 -0.00054347824 -0.01089313
-0.0063925618 -0.0019565218 -0.0039465651
0.0023099172 -0.0024999999 -0.0092900768
0.00596281 0.0024999999 -0.010145038
0.0013429752 -0.0024999999 -0.0018091603
0.0063925618 0.0019565218 -0.0051221373
-0.0035991736 -0.0024999999 -0.00052671757
-0.0017727272 0.0024999999 -0.0081145037
0.00069834711 0.0024999999 -0.0051221373
0.0065000001 -0.00065217394 -0.0029847329
-0.0065000001 0.00021739131 -0.0030916031
0.0060702479 0.0024999999 -0.00170229
-0.0029545454 0.0024999999 -0.0010610687
-0.0005909091 -0.0024999999 -0.00063358777
0.0014504133 -0.0024999999 -0.0040534353
-0.0028471074 -0.0024999999 -0.010145038
-0.0015578512 0.0024999999 -0.010679389
-0.0065000001 0.0021739129 -0.00170229
0.0010206612 -0.0024999999 -0.0034122136
0.0047809919 -0.0024999999 -0.0090763355
0.0044586775 0.0024999999 -0.010145038
-0.0018801653 -0.0024999999 -0.0057633589
0.0061776862 0.00097826088 -0.01078626
-0.0065000001 -0.0017391305 -0.0066183205
0.00080578512 0.0024999999 -0.010251909
0.0043512397 -0.0024999999 -0.0073664123
0.0024173553 -0.00086956524 -0.01078626
-0.0054256199 0.0024999999 -0.0044809161
0.0011280992 -0.0024999999 -0.002664122
0.00091322314 -0.00021739131 -0.01089313
-0.0038140495 -0.0024999999 -0.0018091603
0.0016652893 0.00097826088 -0.00052671757
-0.0016652893 -0.00043478262 -0.00052671757
-0.0043512397 0 -0.00052671757
-0.0065000001 0.0014130435 -0.010038168
0.0041363635 0.0018478261 -0.01078626
-0.0019876033 0.0017391305 -0.00052671757
-0.0012355372 -0.0024999999 -0.0038396947
-0.0063925618 -0.0022826088 -0.0055496185
0.0060702479 0.00065217394 -0.01078626
-0.0046735536 -0.0024999999 -0.0038396947
-0.0048884298 -0.00021739131 0.00086259539
-0.0065000001 -0.00065217394 -0.0057633589
-0.0063925618 -0.0021739129 -0.0049083969
-0.0065000001 0.00021739131 -0.0062977099
0.0053181816 0.0024999999 -0.009396947
-0.0016652893 -0.0022826088 -0.01078626
0.0065000001 -0.00086956524 -0.0050152671
0.0041363635 -0.0024999999 -0.00052671757
0.0049958676 -0.0024999999 -0.0072595421
0.00596281 0.0024999999 -0.0049083969
-0.0014504133 0.0024999999 -0.0041603055
0.00026859503 -0.0010869565 -0.01089313
-0.0019876033 0.0024999999 -0.00095419848
-0.0065000001 0.0017391305 -0.0086488547
-0.00091322314 0.0024999999 -0.0028778627
0.00048347109 0.00086956524 -0.00052671757
-0.00091322314 -0.0024999999 -0.0087557249
-0.0045661158 -0.0024999999 -0.0035190841
-0.0043512397 0.0017391305 -0.00052671757
0.0027396695 0.00076086959 -0.00052671757
0.0024173553 0.00086956524 -0.01089313
-0.0035991736 -0.0024999999 -0.0087557249
-0.0037066115 -0.00065217394 -0.00052671757
-0.00069834711 0.0024999999 -0.0065114503
0.0047809919 -0.0024999999 -0.0046946565
0.0015578512 0.0024999999 -0.0028778627
-0.0028471074 0.0024999999 -0.0051221373
-0.0019876033 0.0024999999 -0.0095038172
0.00091322314 0.0013043479 -0.01078626
-0.00596281 -0.0024999999 -0.0097175576
-0.0037066115 -0.0024999999 -0.00074045802
-0.0065000001 -0.0013043479 -0.0092900768
-0.0065000001 0.0020652174 -0.0071526719
-0.0055330577 0.0024999999 -0.010572519
-0.0051033059 -0.00021739131 0.0007557252
-0.00037603304 -0.0024999999 -0.0011679389
0.0053181816 -0.0024999999 -0.0089694653
-0.0005909091 0.0024999999 -0.0022366412
-0.0032768594 -0.0024999999 -0.0061908397
0.0026322315 0.0024999999 -0.0010610687
-0.0065000001 -0.00043478262 -0.0098244278
0.0010206612 -0.0024999999 -0.0087557249
-0.0011280992 0.00097826088 -0.01089313
-0.006285124 0.0023913044 -0.0022366412
-0.0010206612 0.0024999999 -0.0050152671
0.0031694216 -0.0024999999 -0.0020229009
-0.0037066115 -0.0018478261 -0.01078626
0.0024173553 -0.0024999999 -0.0068320609
-0.0048884298 0.00021739131 -0.01078626
0.00596281 0.0024999999 -0.0034122136
0.0052107438 -0.0011956522 -0.01078626
-0.0045661158 0.0024999999 -0.00170229
-0.0029545454 -0.0024999999 -0.010251909
-0.00091322314 0.00065217394 -0.00052671757
-0.0047809919 -0.0024999999 -0.0062977099
-0.0013429752 -0.0024999999 -0.0089694653
0.00016115702 0.0024999999 -0.0097175576
0.00596281 0.0024999999 -0.00095419848
-0.0045661158 0.0024999999 -0.0088625951
0.0011280992 0.0024999999 -0.010358779
-0.00080578512 -0.00043478262 -0.01089313
0.0034917356 -0.0024999999 -0.0020229009
0.0032768594 -0.0024999999 -0.0061908397
-0.0063925618 -0.0022826088 -0.010465649
-0.0053181816 0.00065217394 -0.00052671757
0.00069834711 -0.00054347824 -0.01089313
0.0010206612 0.0022826088 -0.00052671757
0.0065000001 0.0010869565 -0.0069389311
-0.0041363635 0.0024999999 -0.0031984732
0.0019876033 -0.0024999999 -0.0054427483
0.0022024794 0.0024999999 -0.0050152671
0.0061776862 0.0024999999 -0.0076870229
-5.371901e-05 -0.0010869565 -0.01089313
-0.0011280992 -0.0013043479 -0.00052671757
-0.0063925618 -0.0022826088 -0.002129771
-0.0051033059 -0.0024999999 -0.0048015267
0.0034917356 -0.00032608697 -0.01078626
-0.0052107438 -0.0010869565 -0.01078626
-0.00026859503 0.0024999999 -0.0097175576
0.0042438018 -0.00097826088 -0.01078626
-0.0017727272 0.0024999999 -0.0057633589
0.0041363635 0.0024999999 -0.010145038
0.00048347109 -0.0024999999 -0.0035190841
-0.0048884298 0.00021739131 0.00064885494
0.0005909091 0.0024999999 -0.0098244278
-0.0012355372 -0.00097826088 -0.01078626
-0.00091322314 -0.0013043479 -0.00052671757
0.0035991736 -0.0020652174 -0.010679389
-0.0034917356 0.0024999999 -0.0066183205
-0.0041363635 0.0024999999 -0.0087557249
-0.0063925618 -0.0021739129 -0.0095038172
-0.0047809919 -0.0024999999 -0.0011679389
-0.0065000001 0.00054347824 -0.0041603055
-0.0005909091 -0.0024999999 -0.0086488547
-0.0018801653 0.0024999999 -0.0039465651
-0.0033842975 0.0024999999 -0.0020229009
-0.0048884298 0.00010869565 0.0012900763
0.0037066115 -0.0018478261 -0.00052671757
0.0065000001 -0.00054347824 -0.0098244278
0.0045661158 0.0024999999 -0.010145038
0.0029545454 -0.0020652174 -9.923664e-05
0.0058553717 0.0017391305 -0.00052671757
-0.0038140495 0.0024999999 -0.00063358777
-0.0065000001 -0.00021739131 -0.0066183205
0.0033842975 -0.0024999999 -0.0075801527
-0.00596281 0.0024999999 -0.0076870229
0.0027396695 0.0024999999 -0.0015954198
-0.0034917356 0.0024999999 -0.0074732825
0.0043512397 -0.0020652174 -0.00041984732
-0.0057479339 -0.0024999999 -0.0018091603
-0.0061776862 -0.0024999999 -0.0050152671
0.0043512397 0.0024999999 -0.0070458017
0.00069834711 0.0024999999 -0.0064045801
-0.0063925618 -0.0022826088 -0.0091832057
-0.00596281 0.0024999999 -0.0044809161
-0.0030619835 0.0024999999 -0.0056564887
-0.0049958676 -0.0024999999 -0.0079007633
0.0018801653 0.0024999999 -0.0048015267
-0.00026859503 0.0011956522 -0.01089313
0.0058553717 0.0024999999 -0.0068320609
-0.0057479339 0.00097826088 -0.01078626
-0.005640496 0.0024999999 -0.0051221373
0.0049958676 0.00010869565 0.0018244275
-0.0037066115 0.0020652174 -0.00041984732
0.0025247934 -0.0024999999 -0.010251909
0.0030619835 -0.0021739129 -9.923664e-05
-0.0013429752 -0.0024999999 -0.00084732822
0.0023099172 -0.0024999999 -0.0039465651
-0.0018801653 -0.0010869565 -0.01078626
0.0042438018 0.0024999999 -0.0085419845
0.0044586775 0.0024999999 -0.0035190841
-5.371901e-05 -0.0024999999 -0.0015954198
0.0029545454 0.0024999999 -0.0085419845
-0.00048347109 -0.0024999999 -0.0046946565
0.0052107438 -0.0024999999 -0.0046946565
0.0037066115 -0.0024999999 -0.0028778627
-0.006285124 -0.0023913044 -0.0090763355
0.0023099172 -0.0024999999 -0.0018091603
0.0065000001 0.0010869565 -0.010251909
-0.0065000001 -0.00032608697 -0.0038396947
0.0017727272 0.0024999999 -0.0058702291
0.0052107438 -0.0024999999 -0.0075801527
-0.0005909091 0.0024999999 -0.0097175576
0.0051033059 0.00010869565 0.0012900763
-0.0065000001 0.0011956522 -0.0057633589
0.0020950413 -0.00097826088 -0.00052671757
-0.00080578512 -0.0024999999 -0.0089694653
-0.00016115702 -0.0019565218 -0.01078626
0.0023099172 0.0024999999 -0.0051221373
0.00037603304 -0.0024999999 -0.0095038172
0.005640496 -0.0024999999 -0.0068320609
0.0016652893 0.0024999999 -0.0036259543
0.0065000001 -0.0015217392 -0.0085419845
0.0020950413 0.0024999999 -0.010358779
0.0048884298 -0.0024999999 -0.010038168
-0.0031694216 -0.00021739131 -0.00052671757
0.0061776862 0.0024999999 -0.0039465651
0.0028471074 0.0024999999 -0.0041603055
-0.00026859503 -0.0024999999 -0.0085419845
-0.00080578512 0.0024999999 -0.0010610687
0.0005909091 0.0024999999 -0.0097175576
-0.0019876033 0.0024999999 -0.0085419845
-0.0065000001 0.0014130435 -0.0038396947
-0.0032768594 0.0024999999 -0.0062977099
-0.00037603304 0.0024999999 -0.0079007633
0.00037603304 0.00032608697 -0.01089313
-0.006285124 -0.0023913044 -0.0052290075
-0.00069834711 0 -0.00052671757
-0.0015578512 0.0024999999 -0.0036259543
-0.0030619835 -0.0024999999 -0.0071526719
-0.0030619835 0.0024999999 -0.010251909
-0.00091322314 -0.0024999999 -0.0084351143
-0.0052107438 -0.0024999999 -0.0082213739
-0.0061776862 0.0024999999 -0.0058702291
-0.005640496 -0.0024999999 -0.0059770993
-0.0065000001 0.0015217392 -0.0041603055
0.00069834711 0.0024999999 -0.0037328245
-0.0032768594 0.0024999999 -0.0072595421
0.0039214878 0.0024999999 -0.0091832057
-0.0047809919 -0.0024999999 -0.0060839695
0.00596281 -0.0024999999 -0.0077938931
-0.0026322315 -0.0024999999 -0.0052290075
-0.0039214878 0.0018478261 -0.00052671757
0.0011280992 -0.0024999999 -0.0019160305
-0.0015578512 0.0024999999 -0.0030916031
-0.00596281 0.0024999999 -0.0031984732
-0.0034917356 -0.0021739129 -0.01078626
-0.0065000001 0.00021739131 -0.0070458017
-0.0012355372 -0.0017391305 -0.00052671757
0.00069834711 0.0024999999 -0.0030916031
0.0049958676 0.0024999999 -0.00063358777
0.00091322314 -0.0024999999 -0.0066183205
-0.005640496 0.0024999999 -0.0035190841
0.0033842975 -0.0024999999 -0.010465649
0.0065000001 0.0013043479 -0.0089694653
-0.006285124 -0.0023913044 -0.0010610687
-0.0065000001 -0.0013043479 -0.0035190841
0.0041363635 0.0024999999 -0.0054427483
-0.0060702479 -0.0024999999 -0.0050152671
-0.0054256199 -0.0024999999 -0.0053358776
-0.0065000001 -0.0010869565 -0.0072595421
0.0035991736 0.00076086959 -0.01089313
-0.0054256199 0.0024999999 -0.0034122136
0.0020950413 0.0024999999 -0.0079007633
0.0065000001 0.00021739131 -0.0077938931
-5.371901e-05 -0.0024999999 -0.0081145037
-0.0065000001 0 -0.0043740459
0.0016652893 -0.0024999999 -0.0028778627
0.0048884298 0.00021739131 7.6335882e-06
-0.0010206612 0.0024999999 -0.0027709925
0.005640496 -0.00086956524 -0.00052671757
-0.0053181816 0.0024999999 -0.0022366412
0.0014504133 -0.0024999999 -0.002129771
0.00026859503 0.00076086959 -0.00052671757
0.0005909091 0.0024999999 -0.00052671757
-0.0039214878 -0.0014130435 -0.01078626
0.0022024794 -0.0024999999 -0.0087557249
0.005640496 -0.0024999999 -0.0033053434
-0.0049958676 0.0024999999 -0.0081145037
-0.0028471074 -0.0024999999 -0.0095038172
-0.00091322314 0.0024999999 -0.00095419848
-0.0023099172 -0.0024999999 -0.0088625951
-0.0049958676 0.0024999999 -0.0023435114
-0.0065000001 -0.0010869565 -0.0071526719
-0.0057479339 0.0024999999 -0.0046946565
0.0061776862 0.0024999999 -0.0088625951
-0.0058553717 -0.0024999999 -0.0088625951
5.371901e-05 0.0024999999 -0.0067251907
0.0043512397 0.0016304348 -0.00052671757
-0.0033842975 -0.00043478262 -0.00052671757
-0.0055330577 0.0024999999 -0.0041603055
0.0061776862 -0.0019565218 -0.010679389
0.0042438018 0.00010869565 -0.01078626
0.0065000001 0.00076086959 -0.0070458017
0.0053181816 -0.0024999999 -0.0095038172
0.0046735536 0.0024999999 -0.0098244278
0.0005909091 0 -0.00052671757
0.0052107438 0.0024999999 -0.0080076335
-0.0012355372 0.0024999999 -0.009396947
0.0044586775 0.0024999999 -0.00020610687
-0.0027396695 -0.0024999999 -0.010038168
0.0005909091 0.0011956522 -0.01089313
0.0024173553 0.0018478261 -0.01078626
0.0005909091 0.0024999999 -0.010251909
-0.0051033059 -0.0024999999 -0.0042671757
-0.0034917356 -0.0024999999 -0.0041603055
0.0025247934 -0.0024999999 -0.0060839695
-0.0040289257 -0.0024999999 -0.0080076335
0.0012355372 0.0015217392 -0.01078626
0.0065000001 -0.0015217392 -0.0027709925
0.0015578512 0.0018478261 -0.00052671757
0.0024173553 0.0024999999 -0.0046946565
0.0023099172 0.0024999999 -0.0082213739
-0.006285124 -0.00086956524 -0.01078626
-0.005640496 0.0024999999 -0.0075801527
-0.0065000001 -0.00043478262 -0.010572519
0.0022024794 -0.0024999999 -0.00063358777
-0.0005909091 -0.0024999999 -0.0010610687
-0.0014504133 0.0024999999 -0.0075801527
0.0042438018 -0.0024999999 -0.0085419845
0.0029545454 0.00097826088 -0.00052671757
0.00080578512 0.0024999999 -0.0087557249
0.0014504133 0.0015217392 -0.01078626
0.00026859503 -0.0024999999 -0.0018091603
-0.0015578512 -0.0024999999 -0.0086488547
-0.0060702479 -0.0023913044 -0.0098244278
-0.0035991736 0.0024999999 -0.0095038172
-0.0005909091 -0.0024999999 -0.0019160305
-0.0058553717 0.0024999999 -0.0036259543
-0.0048884298 0.0024999999 -0.0045877863
-0.0065000001 0.0011956522 -0.0030916031
0.0051033059 0.0024999999 -0.0034122136
-0.0065000001 -0.0020652174 -0.0096106874
0.0033842975 -0.0024999999 -0.0010610687
-0.0037066115 -0.0024999999 -0.0081145037
0.0055330577 -0.0024999999 -0.009396947
0.0065000001 -0.0020652174 -0.0075801527
0.0058553717 -0.0024999999 -0.0081145037
-0.0017727272 -0.0024999999 -0.0044809161
-0.0065000001 -0.00010869565 -0.0084351143
-0.0042438018 0.0024999999 -0.0097175576
0.0012355372 -0.0024999999 -0.0069389311
0.00048347109 -0.0024999999 -0.0022366412
-0.0060702479 0.0024999999 -0.0060839695
0.0058553717 -0.0024999999 -0.0075801527
0.0025247934 -0.0024999999 -0.0045877863
0.0025247934 -0.0024999999 -0.0084351143
0.0052107438 -0.0024999999 -0.0068320609
0.0024173553 0.0024999999 -0.0085419845
0.0017727272 -0.00010869565 -0.00052671757
0.0065000001 0.00010869565 -0.0056564887
0.0012355372 0.0024999999 -0.0057633589
0.0017727272 -0.0024999999 -0.0092900768
-0.0065000001 0.0015217392 -0.0083282441
0.0065000001 -0.0020652174 -0.0043740459
0.0054256199 0.00021739131 -0.00052671757
-0.0013429752 0.0024999999 -0.0010610687
0.0049958676 0.0024999999 -0.0088625951
-0.0065000001 -0.00086956524 -0.0062977099
0.0017727272 0.0015217392 -0.01089313
-0.0037066115 0.0024999999 -0.00170229
-0.0065000001 0.0020652174 -0.010572519
0.0016652893 -0.0024999999 -0.0034122136
0.0051033059 0.0024999999 -0.0075801527
-0.0055330577 -0.0024999999 -0.010251909
0.0020950413 0.0024999999 -0.010465649
-0.0029545454 0.0015217392 -0.00052671757
0.0039214878 -0.0015217392 -0.00052671757
-0.0025247934 0.0014130435 -0.01078626
0.0063925618 0.0016304348 -0.0090763355
-0.0065000001 -0.0020652174 -0.0097175576
-0.00026859503 -0.0010869565 -0.00052671757
-0.0037066115 0.00097826088 -0.01078626
0.0058553717 0.0024999999 -0.002129771
0.0027396695 -0.0020652174 -0.00041984732
0.0005909091 0.0024999999 -0.0072595421
0.0047809919 -0.0014130435 -0.00052671757
-0.0054256199 0.00076086959 -0.01078626
-0.0011280992 0.00076086959 -0.00052671757
0.0024173553 0.0024999999 -0.0081145037
0.0045661158 0.0021739129 -0.01078626
-0.0034917356 0.0024999999 -0.0043740459
0.0030619835 -0.0024999999 -0.0080076335
0.00016115702 -0.0024999999 -0.0035190841
0.0063925618 -0.00076086959 -0.01078626
-0.0045661158 -0.0011956522 -0.01089313
0.0012355372 0.0013043479 -0.00052671757
-0.0052107438 -0.00043478262 -0.00052671757
0.0065000001 0.00065217394 -0.010572519
-0.0065000001 0.00032608697 -0.0087557249
0.0045661158 0.0019565218 -0.00052671757
0.0047809919 -0.0024999999 -0.009931298
0.0054256199 -0.0024999999 -0.0036259543
-0.0028471074 -0.0024999999 -0.0020229009
-0.0034917356 -0.00076086959 -0.01089313
0.0029545454 -0.0015217392 -0.00052671757
-0.0065000001 -0.00086956524 -0.0046946565
0.0051033059 0.00010869565 7.6335882e-06
-0.0047809919 -0.0024999999 -0.0033053434
0.0065000001 -0.0011956522 -0.002129771
0.0061776862 -0.0024999999 -0.0045877863
-0.0022024794 0.0024999999 -0.0056564887
0.0040289257 -0.0017391305 -0.01078626
0.0049958676 0.0024999999 -0.0052290075
-0.00596281 0.0024999999 -0.0034122136
0.0051033059 -0.0024999999 -0.0070458017
-0.0023099172 -0.0024999999 -0.0027709925
0.0065000001 -0.00054347824 -0.0040534353
-0.0041363635 -0.0024999999 -0.0024503816
-0.0065000001 0.00065217394 -0.0076870229
-0.0022024794 -0.0024999999 -0.0084351143
0.0032768594 0.0024999999 -0.00170229
-0.0038140495 0.0020652174 -0.00020610687
0.0058553717 0.0024999999 -0.0018091603
-0.0028471074 0.0024999999 -0.00170229
0.0028471074 0.0024999999 -0.0048015267
0.0049958676 -0.0022826088 -0.00052671757
-0.0065000001 0.0014130435 -0.0072595421
0.0045661158 -0.0024999999 -0.0065114503
0.0065000001 0.00065217394 -0.0091832057
0.0037066115 -0.0024999999 -0.0058702291
-0.0065000001 -0.00065217394 -0.010145038
0.0028471074 -0.0023913044 -0.00020610687
-0.0057479339 -0.0024999999 -0.0042671757
-0.0037066115 0.0024999999 -0.0054427483
0.0065000001 0.0013043479 -0.0087557249
-0.0041363635 -0.0024999999 -0.0043740459
-0.0041363635 0.0024999999 -0.0051221373
0.0034917356 0.0024999999 -0.0064045801
-0.00080578512 -0.0024999999 -0.0054427483
0.0038140495 0.0024999999 -0.010251909
-0.0065000001 -0.00021739131 -0.0054427483
0.0060702479 0.0024999999 -0.0034122136
-0.0033842975 -0.0024999999 -0.0056564887
0.0016652893 -0.0016304348 -0.00052671757
0.0025247934 -0.00021739131 -0.01078626
0.0060702479 0.0024999999 -0.00063358777
0.0005909091 -0.0024999999 -0.0090763355
-0.0060702479 -0.0015217392 -0.00052671757
-0.0065000001 0.00065217394 -0.010358779
0.0063925618 0.0016304348 -0.0044809161
-0.0034917356 0.0015217392 -0.01078626
-0.0017727272 0.0024999999 -0.0080076335
-0.0012355372 0.0019565218 -0.01078626
-0.0049958676 0.00021739131 -0.01078626
-0.0057479339 0.0024999999 -0.0092900768
-0.0055330577 -0.00032608697 -0.01078626
-0.0042438018 -0.0017391305 -0.00052671757
-0.006285124 -0.0014130435 -0.00052671757
-0.00091322314 0.0024999999 -0.0040534353
-0.0065000001 -0.00097826088 -0.0044809161
-0.0065000001 0.0014130435 -0.0090763355
0.0055330577 0.0024999999 -0.00170229
0.0063925618 0.0020652174 -0.0082213739
0.00037603304 -0.0024999999 -0.0040534353
-0.0065000001 0.0013043479 -0.0024503816
-0.0057479339 0.0010869565 -0.00052671757
-0.0042438018 -0.0024999999 -0.0050152671
0.0026322315 0.0016304348 -0.00052671757
0.00080578512 -0.0024999999 -0.0034122136
-0.0039214878 0.0024999999 -0.0076870229
0.0025247934 -0.0024999999 -0.0087557249
-0.00069834711 0.0024999999 -0.00052671757
-0.0028471074 -0.0024999999 -0.0018091603
0.0058553717 0.0024999999 -0.0023435114
0.0065000001 -0.00010869565 -0.0055496185
0.0047809919 0.0024999999 -0.00074045802
-0.0060702479 -0.0024999999 -0.0086488547
0.0055330577 -0.0024999999 -0.0022366412
-0.0016652893 0.0024999999 -0.0010610687
0.0039214878 0.0024999999 -0.00084732822
-0.0029545454 0.0024999999 -0.0029847329
0.00596281 0.0024999999 -0.0045877863
0.0063925618 0.0019565218 -0.0087557249
-0.00596281 -0.0010869565 -0.00052671757
-0.0030619835 -0.0024999999 -0.0089694653
-0.0052107438 0.0024999999 -0.0050152671
-0.0052107438 0.0016304348 -0.00052671757
0.0065000001 -0.0011956522 -0.0067251907
-0.0065000001 0.0017391305 -0.0054427483
0.00026859503 -0.0020652174 -0.00052671757
-0.0022024794 -0.0024999999 -0.00170229
0.0039214878 -0.00065217394 -0.00052671757
0.0048884298 -0.00021739131 0.0018244275
-0.0018801653 0.0024999999 -0.00063358777
0.0018801653 0.0024999999 -0.0039465651
-0.0028471074 -0.0017391305 -0.00052671757
-0.0038140495 -0.0014130435 -0.01078626
0.0057479339 -0.0024999999 -0.0030916031
-0.0063925618 0.0016304348 -0.010679389
-0.00091322314 0.0024999999 -0.0023435114
0.0065000001 -0.0014130435 -0.0059770993
0.0042438018 -0.0024999999 -0.0079007633
0.0052107438 -0.0023913044 -0.00052671757
0.00080578512 -0.0024999999 -0.0052290075
-5.371901e-05 0.0017391305 -0.00052671757
0.00016115702 -0.0020652174 -0.01078626
0.00016115702 0.0024999999 -0.0065114503
0.0063925618 -0.0019565218 -0.010679389
-0.0065000001 0.0011956522 -0.0045877863
0.0065000001 0.00043478262 -0.0029847329
-0.00091322314 -0.0024999999 -0.0090763355
0.0023099172 0.0024999999 -0.0043740459
-0.0023099172 -0.0024999999 -0.00074045802
-0.00069834711 -0.0024999999 -0.0043740459
-0.0054256199 0.0010869565 -0.00052671757
0.0063925618 0.0019565218 -0.0031984732
-0.00016115702 0.0024999999 -0.0018091603
-0.0031694216 -0.0024999999 -0.0074732825
0.0017727272 0.0024999999 -0.0096106874
-0.0065000001 -0.0020652174 -0.0087557249
0.00048347109 -0.0024999999 -0.0062977099
0.0026322315 -0.0024999999 -0.0088625951
-0.0045661158 -0.0024999999 -0.0058702291
0.0042438018 0.0024999999 -0.0013816794
0.00016115702 0.0024999999 -0.0069389311
0.0065000001 0.00097826088 -0.0051221373
0.0038140495 -0.0024999999 -0.0045877863
0.00091322314 -0.0024999999 -0.0075801527
-0.0035991736 0.00054347824 -0.01078626
0.00048347109 -0.0024999999 -0.010251909
0.0028471074 0.00021739131 -0.00052671757
0.0005909091 -0.0024999999 -0.0023435114
0.0031694216 -0.0022826088 -0.010679389
0.0054256199 0.00032608697 -0.00052671757
-0.0014504133 -0.0024999999 -0.0045877863
-0.006285124 -0.0023913044 -0.0046946565
0.0043512397 0.0024999999 -0.0082213739
0.0058553717 -0.0024999999 -0.0096106874
-0.0065000001 0.00086956524 -0.010251909
-0.0063925618 -0.0020652174 -0.0024503816
-0.0024173553 0.0024999999 -0.0010610687
-0.0038140495 -0.0024999999 -0.0027709925
-5.371901e-05 0.0024999999 -0.0048015267
-0.0016652893 0.0024999999 -0.0046946565
-0.0033842975 -0.0020652174 -0.01078626
-5.371901e-05 -0.0021739129 -0.01078626
-0.006285124 0.00054347824 -0.01078626
0.00016115702 0.0024999999 -0.0038396947
-0.0030619835 -0.0015217392 -0.01078626
-0.0065000001 0.00021739131 -0.0068320609
-0.0065000001 0.00010869565 -0.0087557249
-0.0041363635 0.0024999999 -0.0043740459
-0.0065000001 -0.0017391305 -0.0048015267
0.0031694216 0.00032608697 -0.00052671757
0.0033842975 -0.00043478262 -0.00052671757
0.0025247934 -0.0024999999 -0.00063358777
-0.0058553717 0.0024999999 -0.010358779
-0.00596281 -0.0024999999 -0.0033053434
0.0015578512 0.0018478261 -0.01078626
0.0055330577 -0.0024999999 -0.0019160305
-0.0022024794 0.0024999999 -0.010465649
-0.0012355372 0.00032608697 -0.01089313
-0.00596281 0.00054347824 -0.01078626
-0.0048884298 0.0021739129 -0.010679389
0.00026859503 0.0023913044 -0.00052671757
-0.0060702479 -0.00065217394 -0.01078626
0.0030619835 -0.0024999999 -0.0056564887
0.0005909091 -0.00043478262 -0.00052671757
-0.0040289257 0.0024999999 -0.0036259543
-0.0015578512 -0.00097826088 -0.00052671757
0.0048884298 0.0024999999 -0.0068320609
0.0011280992 -0.0024999999 -0.0079007633
0.0017727272 -0.0024999999 -0.0073664123
-0.00080578512 -0.0024999999 -0.0030916031
-0.0065000001 0.0018478261 -0.0086488547
-0.0060702479 -0.0024999999 -0.0042671757
0.00048347109 0.0024999999 -0.0014885496
-0.0020950413 0.0024999999 -0.0090763355
0.0041363635 -0.0024999999 -0.0092900768
0.0015578512 0.0024999999 -0.00084732822
-0.0046735536 0.0022826088 -0.010679389
-0.0020950413 0.0024999999 -0.0038396947
-0.0057479339 -0.0024999999 -0.00063358777
-0.005640496 0.0024999999 -0.0091832057
-0.0065000001 0.00086956524 -0.0040534353
0.0030619835 0.0024999999 -0.0048015267
0.0030619835 -0.0024999999 -0.0065114503
0.0024173553 -0.0024999999 -0.0020229009
0.0055330577 -0.0024999999 -0.0062977099
-0.0061776862 0.0018478261 -0.010679389
0.0053181816 0 -0.01078626
0.0045661158 0.0024999999 -0.0052290075
0.0041363635 0.0024999999 -0.0080076335
0.0058553717 -0.0024999999 -0.0062977099
-0.0010206612 0.0024999999 -0.00052671757
0.0031694216 0.0024999999 -0.0034122136
-0.0016652893 0.0024999999 -0.0072595421
-0.0049958676 0.0014130435 -0.00052671757
-0.0065000001 0.00021739131 -0.0090763355
0.0049958676 -0.0024999999 -0.0045877863
0.0055330577 0.0024999999 -0.0061908397
-0.0023099172 0.0024999999 -0.0057633589
-0.0032768594 -0.00032608697 -0.00052671757
-0.0065000001 0.00065217394 -0.0051221373
0.0049958676 0.00010869565 0.00032824426
0.0034917356 -0.0024999999 -0.0025572518
-0.0029545454 -0.0024999999 -0.0090763355
0.0065000001 -0.0015217392 -0.0028778627
0.0053181816 -0.0024999999 -0.0035190841
0.0020950413 0.0024999999 -0.0067251907
5.371901e-05 -0.0024999999 -0.0028778627
-0.0005909091 0.0024999999 -0.0050152671
0.00048347109 -0.0024999999 -0.002129771
0.0049958676 0.0024999999 -0.0089694653
0.0065000001 -0.00054347824 -0.0031984732
-0.006285124 -0.00054347824 -0.00052671757
-0.0053181816 -0.0024999999 -0.010251909
0.006285124 -0.0023913044 -0.0052290075
-0.0044586775 0.0024999999 -0.0092900768
0.0065000001 0.00086956524 -0.0022366412
-0.0035991736 0.0010869565 -0.01078626
0.0018801653 0.0019565218 -0.01078626
-0.0033842975 0.0024999999 -0.0010610687
-0.0019876033 0.0024999999 -0.010465649
0.0054256199 0.0024999999 -0.0048015267
-0.0061776862 -0.0024999999 -0.0074732825
-0.00080578512 -0.0024999999 -0.0058702291
0.0005909091 0.0024999999 -0.0048015267
-0.0031694216 -0.00086956524 -0.00052671757
0.0065000001 0.00097826088 -0.0023435114
-0.005640496 0.00043478262 -0.00052671757
-0.0026322315 0.0018478261 -0.01078626
-0.0053181816 -0.0024999999 -0.0087557249
0.0045661158 -0.0024999999 -0.010679389
-0.0011280992 -0.0024999999 -0.0061908397
-0.0060702479 -0.0020652174 -0.010679389
-0.0049958676 0.0022826088 -0.00041984732
-0.0048884298 0.00010869565 0.00054198474
-0.0065000001 0.0016304348 -0.0010610687
-0.0065000001 -0.0019565218 -0.0052290075
0.006285124 -0.00076086959 -0.01078626
0.0038140495 -0.00076086959 -0.00052671757
-0.0065000001 0.00054347824 -0.0075801527
0.0016652893 -0.0024999999 -0.0049083969
0.0010206612 0.0024999999 -0.0097175576
-0.0013429752 0.0024999999 -0.0072595421
-0.00069834711 0.0013043479 -0.01089313
-0.0031694216 -0.0024999999 -0.0052290075
-0.0045661158 0.0010869565 -0.00052671757
0.0063925618 0.0016304348 -0.0035190841
-0.0065000001 0.0020652174 -0.0042671757
0.0047809919 -0.0024999999 -0.010358779
0.006285124 0.0021739129 -0.00095419848
-0.00026859503 0.00065217394 -0.00052671757
0.0016652893 -0.0024999999 -0.0011679389
-0.00026859503 -0.00086956524 -0.01089313
-0.0010206612 -0.0024999999 -0.0042671757
-0.0040289257 -0.0024999999 -0.0046946565
0.0047809919 0.0024999999 -0.0091832057
-0.0061776862 0.0014130435 -0.00052671757
0.0024173553 0.00065217394 -0.00052671757
-0.0046735536 -0.0016304348 -0.01078626
-0.0044586775 0.0024999999 -0.0087557249
0.0065000001 0.00086956524 -0.0065114503
0.0037066115 0.0019565218 -0.01078626
0.00596281 -0.0024999999 -0.0014885496
-0.0065000001 0.00043478262 -0.0025572518
-0.0063925618 -0.0019565218 -0.0034122136
0.0032768594 -0.0022826088 -0.010679389
0.0058553717 -0.0018478261 -0.01078626
0.0047809919 -0.0024999999 -0.0028778627
-0.0063925618 -0.0022826088 -0.0064045801
0.0045661158 -0.0011956522 -0.01078626
-0.00091322314 -0.0024999999 -0.0079007633
-0.0035991736 0.0024999999 -0.0044809161
0.0049958676 -0.0024999999 -0.0023435114
0.0065000001 -0.00043478262 -0.009931298
0.0016652893 0.0024999999 -0.010038168
-0.0040289257 0.0019565218 -0.010679389
-0.0058553717 -0.0023913044 -0.00052671757
0.0065000001 0.0015217392 -0.0046946565
-0.0046735536 -0.0014130435 -0.01089313
0.0020950413 -0.0024999999 -0.0066183205
0.006285124 -0.0023913044 -0.0059770993
0.0051033059 -0.0024999999 -0.002664122
0.0034917356 -0.0024999999 -0.0045877863
0.0033842975 0.0024999999 -0.00020610687
0.0065000001 0.00065217394 -0.0038396947
0.0035991736 -0.0024999999 -0.0054427483
0.0012355372 -0.0024999999 -0.0065114503
-0.0025247934 -0.0024999999 -0.0071526719
-0.0024173553 0.0021739129 -0.01078626
0.0018801653 -0.00010869565 -0.01078626
-0.0065000001 0.00010869565 -0.0023435114
-0.0052107438 0 0.0023587786
-0.0038140495 0.0024999999 -0.0082213739
-0.0022024794 0.0019565218 -0.00052671757
-0.0034917356 0.0024999999 -0.0097175576
-0.0028471074 0.0023913044 -0.010679389
-0.0015578512 -0.0024999999 -0.0052290075
0.0018801653 -0.0024999999 -0.0095038172
0.0031694216 -0.0024999999 -0.0084351143
-0.0065000001 0.0019565218 -0.0046946565
-0.0052107438 -0.0024999999 -0.0044809161
0.0037066115 0.0011956522 -0.01089313
-0.0065000001 0.0010869565 -0.010572519
0.0031694216 0.0010869565 -0.00052671757
0.0063925618 0.0018478261 -0.0053358776
0.0049958676 0.0024999999 -0.0015954198
0.0010206612 0.0016304348 -0.00052671757
0.0065000001 0.00065217394 -0.0065114503
0.0055330577 0.0024999999 -0.0042671757
-0.0063925618 0.00054347824 -0.00052671757
-0.0049958676 -0.00032608697 -0.00041984732
-0.00091322314 -0.0024999999 -0.0043740459
0.0042438018 0.0024999999 -0.0029847329
0.0065000001 -0.00065217394 -0.0039465651
0.0037066115 -0.0017391305 -0.00052671757
-0.0012355372 0.00010869565 -0.01089313
-0.0043512397 0.0024999999 -0.0025572518
0.0031694216 -0.0024999999 -0.0080076335
0.006285124 -0.00032608697 -0.00052671757
-0.0035991736 -0.0024999999 -0.00063358777
-0.0043512397 -0.0015217392 -0.01089313
0.0016652893 -0.0024999999 -0.0061908397
0.0044586775 0.0024999999 -0.00084732822
0.0014504133 -0.00054347824 -0.00052671757
-0.0065000001 0.00076086959 -0.0054427483
-0.0020950413 0.0024999999 -0.0014885496
0.0005909091 -0.0024999999 -0.0011679389
-0.0065000001 0.0010869565 -0.010251909
-0.0013429752 0.0013043479 -0.01078626
-0.0055330577 0.00032608697 -0.00052671757
0.0029545454 0.0016304348 -0.01078626
0.0048884298 -0.00010869565 0.0012900763
-0.00069834711 0.0024999999 -0.0029847329
0.0029545454 0.0024999999 -0.0075801527
-0.00037603304 -0.0024999999 -0.010038168
0.00026859503 -0.0024999999 -0.0046946565
-5.371901e-05 0.00076086959 -0.00052671757
-0.0060702479 0.0024999999 -0.0090763355
-0.0065000001 0.0016304348 -0.0035190841
-0.0054256199 -0.0024999999 -0.0054427483
-0.0065000001 0.0021739129 -0.010251909
-0.0047809919 0.0013043479 -0.01078626
-0.00069834711 0.0024999999 -0.009931298
-0.0014504133 0.0024999999 -0.0072595421
-0.0063925618 -0.0017391305 -0.00170229
-0.0039214878 0.0024999999 -0.0057633589
0.0065000001 0.00086956524 -0.009396947
0.0051033059 0.00010869565 0.00064885494
-0.0065000001 0.00010869565 -0.00170229
-0.0034917356 -0.0024999999 -0.0081145037
-0.0037066115 -0.0024999999 -0.0092900768
-0.00048347109 -0.0024999999 -0.009396947
-0.0051033059 -0.00021739131 0.00011450382
0.0043512397 0.0013043479 -0.01089313
0.0039214878 0.0024999999 -0.0066183205
0.0065000001 -0.00032608697 -0.0070458017
0.00016115702 -0.0024999999 -0.0031984732
-0.0060702479 -0.0024999999 -0.0041603055
-0.0057479339 0.00032608697 -0.01078626
-0.0065000001 0 -0.0037328245
-0.0038140495 0.0014130435 -0.00052671757
-0.0065000001 0.00076086959 -0.0065114503
-0.0038140495 0.0024999999 -0.0054427483
0.0031694216 -0.0010869565 -0.01078626
-0.00080578512 -0.0024999999 -0.0022366412
0.0033842975 -0.0024999999 -0.0098244278
0.0049958676 0.00043478262 -0.01089313
-0.0017727272 0.0024999999 -0.010038168
5.371901e-05 0.00097826088 -0.01089313
-0.0065000001 0.0013043479 -0.0038396947
-0.0027396695 -0.0024999999 -0.0038396947
0.0028471074 -0.0024999999 -0.010145038
0.0034917356 0.0024999999 -0.0043740459
0.0010206612 0.0024999999 -0.0043740459
-0.0040289257 0.0024999999 -0.0028778627
-0.005640496 -0.0024999999 -0.0091832057
-0.0060702479 0.0024999999 -0.0045877863
-0.00596281 -0.0023913044 -0.00052671757
0.00016115702 0.0023913044 -0.00052671757
-0.0018801653 -0.0024999999 -0.0038396947
0.0052107438 0.00010869565 0.0015038168
0.0046735536 -0.0020652174 -0.00041984732
-0.0046735536 0.0024999999 -0.0042671757
-0.0039214878 0.00054347824 -0.00052671757
0.00048347109 0 -0.00052671757
-0.00048347109 0.0024999999 -0.0091832057
-0.00596281 0.0024999999 -0.0053358776
-0.0040289257 0.0024999999 -0.010465649
-0.0038140495 0.0024999999 -0.0050152671
-0.0065000001 -0.00021739131 -0.010038168
0.0065000001 -0.0020652174 -0.0041603055
-0.0016652893 0.0024999999 -0.0069389311
0.0016652893 0.00032608697 -0.00052671757
-0.0005909091 -0.0024999999 -0.0036259543
-0.0028471074 0.0024999999 -0.0079007633
0.0016652893 -0.0024999999 -0.0097175576
-0.0028471074 -0.0024999999 -0.009931298
-0.0065000001 0.00032608697 -0.0052290075
-0.0060702479 -0.0024999999 -0.0011679389
-0.0060702479 -0.0024999999 -0.0033053434
-0.0065000001 0.00010869565 -0.0061908397
0.0058553717 -0.0024999999 -0.0037328245
0.0023099172 0.0016304348 -0.01078626
-0.0051033059 0.0024999999 -0.0014885496
-0.0010206612 -0.00010869565 -0.01089313
-0.0065000001 0.00043478262 -0.0066183205
0.0063925618 -0.0022826088 -0.0014885496
-0.0065000001 -0.00086956524 -0.0060839695
0.0030619835 0.0024999999 -0.0086488547
0.0026322315 0.0015217392 -0.01078626
-0.0026322315 0.0024999999 -0.0035190841
0.0065000001 0.0010869565 -0.0042671757
-0.0014504133 0.0024999999 -0.0049083969
-0.0051033059 -0.00032608697 -0.01078626
0.006285124 0.0021739129 -0.0096106874
0.0065000001 0.00010869565 -0.0023435114
0.0048884298 0.00010869565 0.0022519084
0.00596281 0.0013043479 -0.01078626
0.0025247934 -0.0024999999 -0.00074045802
0.0065000001 0.00097826088 -0.002664122
-0.0020950413 0.0024999999 -0.0035190841
0.00080578512 -0.0024999999 -0.0074732825
-0.0065000001 -0.0018478261 -0.0041603055
-0.0019876033 -0.0017391305 -0.01078626
-0.0025247934 -0.0017391305 -0.01078626
0.0063925618 -0.0022826088 -0.0048015267
0.0013429752 0.00076086959 -0.00052671757
0.0010206612 0.0024999999 -0.0081145037
0.00080578512 -0.0010869565 -0.00052671757
-0.0013429752 0.00076086959 -0.01089313
0.0014504133 0.0010869565 -0.00052671757
-0.0012355372 -0.0019565218 -0.00052671757
0.0005909091 0.0024999999 -0.010038168
-0.00037603304 -0.0024999999 -0.002129771
-0.00091322314 -0.0024999999 -0.0056564887
0.0027396695 -0.0024999999 -0.0087557249
0.0055330577 -0.0024999999 -0.0031984732
-5.371901e-05 -0.0024999999 -0.0043740459
0.0017727272 -0.0024999999 -0.0046946565
-0.00080578512 0.0018478261 -0.01078626
0.0032768594 -0.0018478261 -0.01078626
-0.0015578512 0.0014130435 -0.01078626
-0.0065000001 -0.00065217394 -0.0027709925
-0.0065000001 -0.0010869565 -0.0045877863
0.0017727272 -0.0017391305 -0.00052671757
0.0058553717 -0.0024999999 -0.0041603055
0.00596281 0.0024999999 -0.0065114503
-0.0018801653 0.0024999999 -0.0097175576
-0.00016115702 0.00097826088 -0.00052671757
-0.0019876033 -0.0020652174 -0.00052671757
0.0039214878 -0.0024999999 -0.0095038172
0.0047809919 0.0019565218 -0.01078626
0.0016652893 0.0022826088 -0.01078626
0.0029545454 -0.0024999999 -0.0059770993
-0.0045661158 -0.0024999999 -0.0051221373
0.0040289257 -0.0022826088 -0.00020610687
0.0065000001 -0.0017391305 -0.0097175576
0.0040289257 -0.0024999999 -0.0066183205
0.0058553717 -0.0024999999 -0.0067251907
-0.0033842975 -0.0024999999 -0.010572519
-0.0042438018 -0.00043478262 -0.00052671757
-0.0065000001 0.0021739129 -0.0027709925
-0.0065000001 -0.0013043479 -0.010251909
0.0014504133 0.0024999999 -0.0088625951
0.0061776862 -0.0024999999 -0.010038168
0.00091322314 0.00054347824 -0.00052671757
-0.0048884298 0.0024999999 -0.0065114503
-0.00026859503 0.0024999999 -0.00052671757
0.0065000001 -0.0017391305 -0.0059770993
-0.0046735536 -0.0024999999 -0.0045877863
0.0030619835 0.0013043479 -0.00052671757
-0.0030619835 0.0016304348 -0.01078626
0.0065000001 0.00021739131 -0.0085419845
-0.0011280992 0.00097826088 -0.00052671757
0.0048884298 -0.00010869565 0.002038168
-0.0027396695 -0.0024999999 -0.0020229009
-0.0060702479 0.0021739129 -0.00052671757
0.0065000001 -0.0014130435 -0.0033053434
-0.00080578512 -0.0024999999 -0.0079007633
0.0035991736 0.0021739129 -0.00031297709
0.0045661158 -0.0024999999 -0.0023435114
0.00026859503 0.0024999999 -0.009931298
-0.0051033059 0.0024999999 -0.0080076335
0.0065000001 -0.00032608697 -0.0096106874
-0.0027396695 0.0024999999 -0.0058702291
-0.0060702479 0.0015217392 -0.00052671757
-0.0057479339 0.0016304348 -0.00052671757
0.00069834711 -0.0024999999 -0.0041603055
0.0065000001 0.00054347824 -0.0066183205
0.0039214878 -0.0013043479 -0.01078626
0.0037066115 0.0024999999 -0.010038168
-0.0065000001 -0.00076086959 -0.0027709925
-0.0013429752 -0.0024999999 -0.0050152671
0.0029545454 0.0024999999 -0.0046946565
0.0022024794 0.0024999999 -0.0036259543
-0.0023099172 0.00010869565 -0.00041984732
0.0030619835 -0.0024999999 -0.0043740459
0.0028471074 0.0014130435 -0.01078626
0.0043512397 0.00097826088 -0.01089313
-0.0039214878 0.0024999999 -0.0066183205
0.0035991736 -0.0024999999 -0.00063358777
0.0011280992 -0.0024999999 -0.0029847329
0.0026322315 -0.0024999999 -0.0013816794
0.0055330577 -0.00097826088 -0.00052671757
-0.0005909091 -0.0024999999 -0.002664122
0.0014504133 -0.0024999999 -0.0033053434
-0.0044586775 -0.0024999999 -0.01078626
-0.0011280992 0.0024999999 -0.010145038
0.0013429752 0.0024999999 -0.0015954198
-0.00016115702 -0.0010869565 -0.01089313
0.0065000001 0.00065217394 -0.0036259543
0.0028471074 0.0021739129 -0.01078626
-0.00016115702 -0.0024999999 -0.0083282441
0.0037066115 0.0024999999 -0.0010610687
-0.0046735536 0.0024999999 -0.0080076335
-0.00037603304 -0.0024999999 -0.0066183205
0.0020950413 -0.0024999999 -0.0091832057
-0.0037066115 0.00043478262 -0.00052671757
0.0065000001 -0.0017391305 -0.0028778627
-0.0037066115 -0.0024999999 -0.0082213739
-0.0065000001 0.0017391305 -0.0053358776
-0.0039214878 -0.0024999999 -0.010679389
-0.0047809919 0.0024999999 -0.0042671757
-0.0010206612 0.00021739131 -0.01089313
0.0054256199 -0.0024999999 -0.00052671757
0.0063925618 0.0020652174 -0.0041603055
-0.0012355372 -0.00086956524 -0.01089313
0.00080578512 -0.0024999999 -0.0028778627
-0.0065000001 -0.00043478262 -0.0025572518
0.0038140495 0.0024999999 -0.0090763355
-0.0065000001 -0.0018478261 -0.0071526719
0.0044586775 0.00065217394 -0.00052671757
-0.0010206612 -0.00043478262 -0.00052671757
-0.0025247934 -0.00086956524 -0.01078626
0.0019876033 -0.0024999999 -0.0014885496
0.00016115702 -0.00010869565 -0.00052671757
0.00069834711 0.0024999999 -0.0059770993
0.0065000001 -0.0022826088 -0.009931298
-0.00048347109 0.0024999999 -0.0085419845
-0.0016652893 -0.0024999999 -0.00095419848
0.0024173553 -0.0024999999 -0.0061908397
-0.0039214878 0.0024999999 -0.00031297709
0.006285124 0.0023913044 -0.0010610687
-0.0065000001 -0.0020652174 -0.0052290075
-0.0034917356 0.0024999999 -0.0027709925
-0.0049958676 -0.0024999999 -0.0024503816
0.0026322315 0.0021739129 -0.01078626
0.0065000001 -0.0010869565 -0.0069389311
0.0051033059 0.0024999999 -0.002664122
0.0045661158 -0.0024999999 -0.0091832057
-0.00596281 0.0024999999 -0.0054427483
-0.0032768594 0.0019565218 -0.01078626
-0.006285124 -0.00054347824 -0.01078626
0.0029545454 -0.0024999999 -0.0052290075
0.0065000001 -0.0019565218 -0.0050152671
-0.00016115702 -0.0021739129 -0.01078626
0.0012355372 0.00043478262 -0.00052671757
0.0012355372 0.0024999999 -0.0023435114
-0.0034917356 -0.0024999999 -0.0052290075
-0.0057479339 0.0024999999 -0.0012748091
-0.0030619835 -0.0024999999 -0.0051221373
-0.0041363635 0.0023913044 -9.923664e-05
0.00048347109 0.0024999999 -0.010572519
0.0037066115 -0.0011956522 -0.01078626
-0.0005909091 -0.0024999999 -0.0051221373
0.0039214878 0.0024999999 -0.0037328245
-0.005640496 -0.0015217392 -0.00052671757
-0.0040289257 0.0024999999 -0.0042671757
0.0012355372 0.0024999999 -0.0030916031
-0.0065000001 0.0016304348 -0.010038168
-0.0065000001 -0.00065217394 -0.010465649
-0.0037066115 -0.0024999999 -0.0015954198
-0.00026859503 -0.0010869565 -0.01089313
-0.0057479339 0.0022826088 -0.00052671757
0.0051033059 -0.0024999999 -0.0058702291
0.0031694216 0 -0.01078626
-0.0060702479 -0.00010869565 -0.00052671757
0.0043512397 0.0024999999 -0.0018091603
-0.0038140495 -0.0024999999 -0.0039465651
-0.0065000001 0.0021739129 -0.0042671757
-0.0044586775 -0.0024999999 -0.0023435114
-0.005640496 0.0024999999 -0.0018091603
-0.0065000001 0.0016304348 -0.0011679389
-0.0037066115 0.0024999999 -0.0014885496
0.0049958676 0.00010869565 0.0021450382
-0.0014504133 0.0024999999 -0.0054427483
-0.00080578512 -0.0024999999 -0.0031984732
0.0065000001 -0.0019565218 -0.0070458017
-0.0012355372 0.0024999999 -0.010251909
-0.0031694216 -0.0024999999 -0.0051221373
0.0037066115 -0.0024999999 -0.0071526719
0.0012355372 0.0024999999 -0.00052671757
0.0038140495 -0.0024999999 -0.0055496185
0.0041363635 -0.0024999999 -0.0023435114
-0.0065000001 0.0017391305 -0.010145038
-0.0038140495 -0.0022826088 -0.01078626
0.0035991736 0.0024999999 -0.0096106874
-0.0045661158 -0.0021739129 -0.00020610687
0.0065000001 0.00054347824 -0.0013816794
-0.0063925618 -0.00054347824 -0.01078626
-0.0060702479 0.0024999999 -0.0014885496
0.00016115702 -0.0024999999 -0.0081145037
-0.00091322314 0.0024999999 -0.0096106874
-0.0030619835 0.0021739129 -0.00020610687
-0.0065000001 0.00032608697 -0.0074732825
-0.0063925618 -0.0018478261 -0.0043740459
-0.00080578512 -0.0011956522 -0.00052671757
-0.00026859503 -0.0023913044 -0.010679389
0.0065000001 -0.0017391305 -0.0077938931
0.0026322315 0.0017391305 -0.01078626
-0.0063925618 -0.0017391305 -0.0011679389
0.0034917356 -0.0024999999 -0.0023435114
0.0065000001 -0.0013043479 -0.0057633589
-0.00091322314 0.0014130435 -0.01078626
0.0063925618 0.0017391305 -0.0034122136
-0.0042438018 -0.0015217392 -0.01089313
-0.00080578512 0.0022826088 -0.01078626
0.0029545454 -0.0024999999 -0.0025572518
0.0045661158 0.0011956522 -0.01089313
-0.0065000001 0.0013043479 -0.010679389
0.0022024794 0.0024999999 -0.0042671757
0.0005909091 -0.0024999999 -0.0046946565
0.0065000001 -0.0013043479 -0.00095419848
-0.0035991736 0.0024999999 -0.0051221373
0.0027396695 0.0024999999 -0.0084351143
-0.0065000001 0.00065217394 -0.0025572518
0.0022024794 0.0024999999 -0.00084732822
-0.0065000001 -0.00054347824 -0.0073664123
0.0005909091 0.00086956524 -0.01089313
0.0025247934 0.0010869565 -0.00052671757
-0.0016652893 -0.0011956522 -0.01078626
0.0049958676 -0.0024999999 -0.0061908397
0.0019876033 -0.00086956524 -0.01078626
0.0027396695 0.00086956524 -0.01089313
-0.0065000001 0.00054347824 -0.0023435114
0.0044586775 -0.0023913044 -0.00020610687
-0.0051033059 0.0018478261 -0.010679389
0.0053181816 0.0024999999 -0.0079007633
0.0065000001 -0.0015217392 -0.0049083969
-0.0012355372 0.0024999999 -0.002129771
0.0026322315 0.0024999999 -0.0014885496
-0.0010206612 -0.0019565218 -0.01078626
0.0034917356 -0.0024999999 -0.0010610687
0.0048884298 -0.0024999999 -0.0081145037
-0.0058553717 0.0024999999 -0.0039465651
0.0049958676 0.0024999999 -0.0040534353
0.0027396695 -0.0024999999 -0.0027709925
-0.0065000001 -0.0013043479 -0.0053358776
-0.0055330577 0.0024999999 -0.0044809161
-0.0034917356 -0.00010869565 -0.00052671757
0.0026322315 -0.0024999999 -0.00084732822
-0.0038140495 0.0024999999 -0.0042671757
-0.0044586775 -0.0024999999 -0.0012748091
0.0065000001 0.00021739131 -0.010145038
-0.0065000001 0.0017391305 -0.0023435114
0.0019876033 0.0024999999 -0.0083282441
-0.006285124 -0.0014130435 -0.01078626
-0.0028471074 0.0021739129 -0.010679389
0.0047809919 0.0024999999 -0.0060839695
0.0065000001 0.00054347824 -0.0024503816
0.0057479339 0.00043478262 -0.01078626
-0.0025247934 0.0024999999 -0.0066183205
-0.0014504133 0.0022826088 -0.00052671757
0.0038140495 -0.0024999999 -0.0042671757
-0.0044586775 -0.0011956522 -0.00052671757
0.0040289257 -0.0024999999 -0.0079007633
-0.00016115702 0.0024999999 -0.0092900768
0.0065000001 0.00097826088 -0.0097175576
0.0054256199 -0.0013043479 -0.01078626
-0.0048884298 0.0020652174 -0.00052671757
-0.0012355372 0.00021739131 -0.00052671757
-0.0017727272 0.0024999999 -0.0029847329
0.0043512397 -0.0024999999 -0.0067251907
-0.006285124 -0.0023913044 -0.010145038
0.0043512397 0.0024999999 -0.00074045802
-0.0013429752 0.0024999999 -0.0089694653
-0.0065000001 -0.00010869565 -0.0066183205
0.0065000001 0.00054347824 -0.0072595421
0.0043512397 0.0024999999 -0.00170229
0.0057479339 -0.0024999999 -0.0036259543
-0.0057479339 -0.0024999999 -0.0036259543
-0.0010206612 -0.0024999999 -0.0068320609
-0.00026859503 0.00054347824 -0.00052671757
-0.0065000001 0.00054347824 -0.0071526719
0.0065000001 -0.0016304348 -0.0042671757
-0.0047809919 -0.0024999999 -0.0085419845
-0.0015578512 0.0024999999 -0.0015954198
-0.0017727272 0.00065217394 -0.00052671757
0.0048884298 -0.00021739131 -0.00031297709
0.006285124 0.0023913044 -0.0014885496
0.00026859503 -0.0024999999 -0.010038168
0.0061776862 0.0024999999 -0.0044809161
-0.0063925618 -0.0017391305 -0.0067251907
0.00037603304 -0.0024999999 -0.002129771
0.0034917356 -0.00043478262 -0.00052671757
-0.0035991736 -0.0024999999 -0.0042671757
-0.0051033059 -0.0024999999 -0.0052290075
-0.0034917356 -0.0024999999 -0.0072595421
-0.0015578512 -0.0024999999 -0.0045877863
0.0023099172 0.0024999999 -0.0095038172
-0.0042438018 -0.00076086959 -0.00052671757
0.0049958676 -0.0013043479 -0.01078626
0.0049958676 0 -0.01078626
-0.0014504133 0.0024999999 -0.002664122
0.0019876033 0.0024999999 -0.00084732822
0.0026322315 -0.00076086959 -0.01078626
-0.0065000001 0.0014130435 -0.0085419845
0.0042438018 -0.0024999999 -0.0059770993
0.00080578512 -0.0024999999 -0.0038396947
0.0018801653 0.00010869565 -0.00052671757
0.00069834711 0 -0.01089313
-0.0038140495 0.0024999999 -0.0072595421
0.006285124 0.0022826088 -0.0019160305
0.0026322315 -0.00065217394 -0.00052671757
0.0065000001 0.00076086959 -0.0030916031
0.00091322314 -0.0024999999 -0.0035190841
-0.0065000001 -0.00021739131 -0.00084732822
-0.0042438018 -0.0024999999 -0.0075801527
0.00016115702 0.0024999999 -0.0098244278
-0.0038140495 -0.0024999999 -0.0029847329
0.0018801653 0.0017391305 -0.00052671757
0.0011280992 0.0024999999 -0.00084732822
-0.0053181816 -0.0024999999 -0.0065114503
0.0033842975 0.0024999999 -0.0033053434
-0.0020950413 -0.00021739131 -0.01089313
-0.0043512397 0.0017391305 -0.01078626
0.0023099172 0.0024999999 -0.0035190841
0.0037066115 0.0024999999 -0.0095038172
-0.0023099172 -0.0024999999 -0.00170229
-0.0014504133 -0.0024999999 -0.0046946565
0.00080578512 -0.0024999999 -0.0043740459
-0.0038140495 -0.0024999999 -0.0052290075
0.0039214878 -0.00065217394 -0.01078626
0.0033842975 0.0020652174 -0.01078626
-0.0049958676 -0.0024999999 -0.0023435114
0.0063925618 0.0019565218 -0.0058702291
0.0065000001 -0.00054347824 -0.0041603055
-0.00016115702 -0.0024999999 -0.0095038172
0.00080578512 0.0024999999 -0.0095038172
-0.0026322315 0.0024999999 -0.00052671757
0.0065000001 -0.00086956524 -0.0083282441
0.005640496 0.0024999999 -0.010038168
-0.0055330577 -0.0024999999 -0.0077938931
-0.0030619835 0.0014130435 -0.01078626
-0.00091322314 0.0018478261 -0.01078626
-0.0065000001 0.00097826088 -0.0086488547
0.0027396695 -0.0024999999 -0.0064045801
0.0018801653 0.0024999999 -0.00052671757
-0.0031694216 -0.0024999999 -0.0010610687
0.0060702479 -0.0024999999 -0.0050152671
0.0065000001 0.00086956524 -0.0091832057
