# .PCD v0.7 - Point Cloud Data file format
VERSION 0.7
FIELDS x y z
SIZE 4 4 4
TYPE F F F
COUNT 1 1 1
WIDTH 1162
HEIGHT 1
VIEWPOINT 0 0 0 1 0 0 0
POINTS 1162
DATA ascii
0.0017303382 -0.0032042253 -0.0079306569
-0.00034606765 0.0035000001 -0.0075364965
0.00074157352 0.0035000001 -0.0062554744
0.0013348324 0.0034014084 -0.005959854
0.0028179793 -0.0020211267 -0.0041861315
-0.0022247205 0.0016267606 -0.0090145981
0.0033123617 -0.0014295775 -0.0049744528
-0.0042022499 -0.0012323944 -0.0021167884
-0.00034606765 0.0023169015 -0.0096058398
0.0039056207 -4.9295773e-05 0.0027116789
4.9438237e-05 0.002612676 -0.0033978103
0.00252135 -0.0021197184 -0.0039890511
0.0032134852 0.0023169015 -0.0056642336
0.0031146088 -0.00083802815 -0.0079306569
0.0027191029 0.0032042253 -0.0068467152
0.0032134852 0.0016267606 -0.0074379561
0.0039056207 -4.9295773e-05 0.0014306569
-0.003806744 -0.00024647888 0.0032043795
-0.0032134852 -0.0025140846 -0.0061569344
0.0015325852 0.0034014084 -0.006058394
0.0039056207 -4.9295773e-05 0.00014963503
-0.0013348324 0.0034014084 -0.0069452557
4.9438237e-05 -0.00034507041 -0.0032007298
0.0034112383 0.00054225355 -0.0063540144
0.0022247205 0.0022183098 -0.0033978103
-0.0030157324 -0.0023169015 -0.0079306569
0.0021258441 0.0025140846 -0.0088175181
4.9438237e-05 0.0031056339 -0.0036934307
-0.0031146088 0.00054225355 -0.0075364965
0.0030157324 0.0027112677 -0.0057627736
0.00014831471 0.0035000001 -0.006058394
0.002323597 0.0032042253 -0.0078321164
0.0034112383 0.0020211267 -0.0038905109
0.0017303382 -0.0034014084 -0.0065510948
-0.0031146088 0.0021197184 -0.0049744528
-0.0040044971 -0.0016267606 -0.002609489
-0.0015325852 -0.003302817 -0.0078321164
-0.00074157352 0.0034014084 -0.0051715327
-0.0013348324 0.00044366196 -0.0033978103
-0.0033123617 0.00024647888 -0.0032992701
-0.0033123617 -0.00083802815 -0.0069452557
-0.0042022499 -0.001528169 -0.0032007298
-0.0030157324 -0.002612676 -0.0053686132
0.0036089912 -0.00014788733 0.00044525549
4.9438237e-05 -0.003302817 -0.0088175181
-0.00064269704 -0.0035000001 -0.005861314
0.00014831471 0.0020211267 -0.0032007298
0.0020269677 -0.0013309859 -0.0091131385
-0.0015325852 -0.0013309859 -0.0034963503
-0.00034606765 -0.0007394366 -0.0032007298
0.0032134852 -0.0016267606 -0.0076350365
-0.00252135 -0.0016267606 -0.0087189777
-0.00093932648 -0.0013309859 -0.0096058398
-0.0035101147 -0.0009366197 -0.00063868612
0.0004449441 -0.0034014084 -0.0057627736
0.0039056207 0.0011338028 -0.0013284672
0.00252135 -0.00034507041 -0.0087189777
-0.0035101147 -0.0017253521 -0.0046788319
0.0031146088 -0.0011338028 -0.0078321164
-0.0028179793 -0.00044366196 -0.0082262773
0.00064269704 0.0035000001 -0.0072408761
-4.9438237e-05 0.0007394366 -0.0097043794
0.0032134852 -0.0025140846 -0.0055656936
-0.0015325852 -0.0034014084 -0.005959854
-0.0015325852 0.0034014084 -0.0051715327
-0.0013348324 0.0014295775 -0.0033978103
-0.0013348324 -0.0019225352 -0.009211679
-0.0028179793 0.0012323944 -0.0081277369
-0.0032134852 0.00083802815 -0.0034963503
0.0012359559 -0.0019225352 -0.0093102194
0.002916856 -0.0027112677 -0.0076350365
-0.0033123617 0.0016267606 -0.0056642336
-0.0031146088 -0.0022183098 -0.0049744528
-0.002323597 -0.00014788733 -0.0087189777
0.0035101147 4.9295773e-05 0.00083941605
0.0013348324 0.0024154929 -0.0034963503
0.0015325852 0.0034014084 -0.0066496353
0.00014831471 0.0017253521 -0.0097043794
0.0036089912 -0.00014788733 -0.0001459854
0.0026202265 0.003302817 -0.0065510948
-0.0011370794 -0.0010352113 -0.0033978103
0.0026202265 0.00044366196 -0.0033978103
-0.0033123617 0.0020211267 -0.0053686132
-0.00064269704 -0.0035000001 -0.0076350365
0.00024719117 -0.003302817 -0.0083248178
-0.0035101147 -0.00014788733 5.1094892e-05
-0.0034112383 -0.0010352113 -0.0063540144
0.00093932648 -0.001528169 -0.0032992701
-0.0027191029 0.001528169 -0.0083248178
0.0035101147 -0.00024647888 -0.0052700732
0.0019280912 -0.003302817 -0.0054671532
0.0032134852 0.0023169015 -0.005861314
0.0015325852 -0.00083802815 -0.0033978103
-0.0020269677 0.003302817 -0.0051715327
-0.0020269677 -0.0011338028 -0.0034963503
-0.00252135 0.0032042253 -0.0062554744
0.0004449441 0.003302817 -0.0040875911
0.0010382029 0.003302817 -0.0046788319
-0.0035101147 -0.00014788733 -0.0048759123
-0.0033123617 -0.00054225355 -0.0069452557
-0.0031146088 -0.002612676 -0.005861314
-0.0027191029 0.0016267606 -0.0084233573
-0.003806744 -4.9295773e-05 -0.0044817519
0.002916856 -0.0030070422 -0.0064525548
-0.003806744 -0.0012323944 -0.0016240876
-0.00093932648 0.0009366197 -0.0032992701
0.0019280912 -0.00034507041 -0.0091131385
0.0020269677 0.0010352113 -0.0091131385
-0.0013348324 0.0027112677 -0.009211679
0.0004449441 -0.0035000001 -0.0068467152
0.00014831471 0.0024154929 -0.0032007298
0.0018292147 0.003302817 -0.0079306569
0.0034112383 -0.0012323944 -0.0069452557
-0.00064269704 -0.0035000001 -0.0052700732
-0.00084045 -0.00083802815 -0.0096058398
0.0012359559 0.0024154929 -0.0033978103
-0.0037078676 -0.00024647888 0.0007408759
0.002916856 0.00014788733 -0.0033978103
-0.0035101147 -0.00064084504 -0.0050729928
-0.00074157352 -0.0034014084 -0.0041861315
0.00084045 -0.0028098591 -0.0093102194
0.0010382029 0.0035000001 -0.0066496353
-0.0012359559 0.003302817 -0.0047773723
-0.0039056207 -0.0016267606 -0.0032992701
-0.0027191029 -0.0007394366 -0.0032992701
-0.0030157324 0.0017253521 -0.0042846715
-0.00064269704 0.0022183098 -0.0032007298
0.00014831471 -0.0007394366 -0.0096058398
0.0017303382 -0.0019225352 -0.0091131385
0.0024224736 -0.002612676 -0.0085218977
0.00074157352 -0.0034014084 -0.0080291973
0.0032134852 -0.0012323944 -0.0045802919
0.0020269677 0.0028098591 -0.0039890511
0.00074157352 -0.0013309859 -0.0096058398
0.0033123617 -0.00083802815 -0.0072408761
-0.00024719117 0.00034507041 -0.0032007298
0.0012359559 0.00054225355 -0.009408759
-0.002916856 -0.0021197184 -0.0033978103
-0.0032134852 -0.0023169015 -0.0041861315
0.0034112383 0.00054225355 -0.006058394
-0.0039056207 -0.0009366197 -0.0016240876
0.0034112383 0.00064084504 -0.0068467152
-0.0043011266 -0.0007394366 -0.0034963503
0.0037078676 0.00014788733 0.0023175182
-0.0034112383 -0.0007394366 -0.0067481752
-0.0017303382 0.00034507041 -0.0034963503
0.0024224736 0.0021197184 -0.0033978103
0.00252135 -0.0032042253 -0.0055656936
-0.0031146088 0.0011338028 -0.0077335765
0.0026202265 0.001528169 -0.0032992701
-0.0014337088 0.0031056339 -0.0040875911
-0.0037078676 0.00034507041 -0.0042846715
0.0018292147 -0.0031056339 -0.0043832115
-0.003806744 0.00014788733 0.0016277372
-0.0034112383 -0.001528169 -0.0066496353
-0.0012359559 -0.0034014084 -0.0054671532
-0.0017303382 0.00064084504 -0.0034963503
0.00074157352 0.0009366197 -0.0032007298
-0.0014337088 -0.0027112677 -0.0034963503
0.0034112383 0.0007394366 -0.0063540144
0.0018292147 -0.00054225355 -0.0034963503
-0.00014831471 -0.001528169 -0.0032007298
0.0039056207 0.0010352113 -0.00083576643
-0.0024224736 0.001528169 -0.0034963503
0.0024224736 -0.0010352113 -0.0089160586
-0.00014831471 -0.0032042253 -0.0037919709
0.0016314618 0.0034014084 -0.006058394
-0.00054382061 -4.9295773e-05 -0.0032007298
-0.0043011266 -0.0007394366 -0.0029051094
0.002323597 -0.0012323944 -0.0034963503
-0.00093932648 0.0030070422 -0.009211679
0.00252135 -0.0012323944 -0.0088175181
-0.0012359559 0.0035000001 -0.006058394
0.0004449441 -0.0035000001 -0.0071423356
-0.0041033737 -0.00034507041 -0.0036934307
-0.0035101147 0.00044366196 -0.0063540144
-0.0010382029 -0.0035000001 -0.0068467152
0.00093932648 -0.00014788733 -0.0033978103
-0.0036089912 -0.00014788733 0.00054379564
4.9438237e-05 -0.0020211267 -0.0096058398
0.00034606765 0.0028098591 -0.0033978103
-0.0033123617 0.00024647888 -0.0067481752
-0.002323597 -0.0023169015 -0.0088175181
0.0034112383 0.0007394366 -0.0021167884
-0.00064269704 -0.0035000001 -0.0068467152
0.00064269704 -0.0012323944 -0.0032992701
-0.0044000028 -0.0011338028 -0.0031021899
-0.0028179793 0.0023169015 -0.0044817519
-0.0015325852 0.0013309859 -0.0033978103
0.0039056207 0.00024647888 -0.0043832115
0.0016314618 -0.0020211267 -0.0091131385
0.0026202265 -0.00024647888 -0.0084233573
-0.003806744 -0.00044366196 -0.0045802919
-0.0021258441 -0.003302817 -0.0062554744
0.0021258441 0.0034014084 -0.005959854
0.0032134852 0.00064084504 -0.0025109488
-0.0033123617 0.0020211267 -0.0054671532
-0.0016314618 0.003302817 -0.0081277369
-0.0024224736 -0.001528169 -0.0087189777
0.0039056207 4.9295773e-05 5.1094892e-05
-0.0026202265 -0.003302817 -0.0064525548
0.003806744 0.00014788733 0.0019233577
0.002916856 0.00083802815 -0.0029051094
-0.00054382061 0.003302817 -0.0086204382
0.00024719117 0.0035000001 -0.0056642336
-0.00054382061 -0.0025140846 -0.0095072994
0.00084045 0.0035000001 -0.0054671532
-0.0031146088 -0.0012323944 -0.0025109488
-0.0030157324 0.0029084508 -0.0065510948
-0.0036089912 -0.00014788733 0.00093795621
-0.00093932648 0.0035000001 -0.0062554744
0.0013348324 0.0032042253 -0.0040875911
-0.00084045 -0.0035000001 -0.0050729928
-0.0039056207 -0.0010352113 -0.00073722628
-0.0034112383 0.0019225352 -0.0061569344
-0.0042022499 -0.00054225355 -0.0032007298
0.0021258441 -4.9295773e-05 -0.0090145981
0.0042022499 0.0009366197 -0.0041861315
0.0034112383 -0.0014295775 -0.0068467152
0.00024719117 0.0016267606 -0.0097043794
0.003806744 0.0012323944 -0.0011313868
-0.0036089912 -0.0012323944 -0.0018211679
-0.0018292147 0.0024154929 -0.0091131385
0.0014337088 -0.003302817 -0.0050729928
-0.0010382029 -0.0035000001 -0.0061569344
-0.002916856 0.0010352113 -0.0033978103
0.0019280912 -0.0024154929 -0.0091131385
-0.0012359559 0.00014788733 -0.009408759
0.0017303382 0.0017253521 -0.009211679
-0.0032134852 0.0025140846 -0.0066496353
-0.0035101147 -0.0020211267 -0.0041861315
-0.0035101147 -0.00054225355 -0.0050729928
-0.0035101147 -0.00014788733 -0.0031021899
0.00054382061 -0.003302817 -0.0040875911
0.002323597 0.0009366197 -0.0088175181
-0.0013348324 0.0034014084 -0.0065510948
0.0015325852 0.003302817 -0.0048759123
0.0034112383 4.9295773e-05 -0.0052700732
0.00054382061 0.0034014084 -0.0078321164
-0.0014337088 0.0016267606 -0.0033978103
-0.0014337088 -0.003302817 -0.0046788319
0.00074157352 -0.00034507041 -0.0096058398
-0.0033123617 0.0009366197 -0.0037919709
0.0026202265 -0.00044366196 -0.0033978103
0.002916856 0.0016267606 -0.0081277369
-0.0031146088 -0.0027112677 -0.0068467152
0.00034606765 0.0034014084 -0.0084233573
0.00054382061 -0.0018239437 -0.0096058398
-0.00252135 0.0032042253 -0.0069452557
-0.0019280912 0.0030070422 -0.0042846715
-0.002916856 -0.00014788733 -0.0077335765
0.0030157324 0.00064084504 -0.0078321164
-0.0040044971 -0.0016267606 -0.0033978103
-0.00074157352 -0.00014788733 -0.0032992701
0.0042022499 0.00044366196 -0.0035948905
0.00074157352 0.0035000001 -0.0057627736
0.0012359559 0.00044366196 -0.0033978103
-0.0033123617 0.0020211267 -0.0068467152
0.00093932648 0.0011338028 -0.0096058398
0.0021258441 0.00054225355 -0.0034963503
-0.0013348324 -0.0018239437 -0.0093102194
0.0034112383 -0.0012323944 -0.0067481752
0.0031146088 -0.0010352113 -0.0079306569
-0.0027191029 0.0028098591 -0.0079306569
-0.00064269704 -0.0012323944 -0.0032992701
0.00064269704 0.0030070422 -0.009211679
-0.0013348324 0.0029084508 -0.0091131385
-0.00084045 -0.0034014084 -0.0045802919
-0.0037078676 -0.0016267606 -0.002609489
-0.0037078676 -0.0012323944 -0.0014270073
-4.9438237e-05 0.00034507041 -0.0097043794
-4.9438237e-05 0.00064084504 -0.0032007298
-0.00054382061 -0.0034014084 -0.0042846715
0.0010382029 0.003302817 -0.0051715327
0.0024224736 0.003302817 -0.005861314
-0.002323597 0.0021197184 -0.0089160586
0.0026202265 0.0032042253 -0.0056642336
0.0039056207 0.0011338028 -0.0018211679
-0.0014337088 0.0034014084 -0.006058394
0.0018292147 0.0021197184 -0.0091131385
-0.0033123617 0.00083802815 -0.0067481752
0.0011370794 0.0028098591 -0.0093102194
0.0035101147 0.0009366197 -0.0051715327
0.003806744 0.0016267606 -0.0029051094
-0.00093932648 0.0035000001 -0.006058394
0.002916856 0.0021197184 -0.0032992701
-0.0012359559 0.0032042253 -0.0042846715
0.0004449441 -0.0011338028 -0.0032007298
0.0030157324 0.0023169015 -0.0039890511
-0.00084045 -0.0025140846 -0.0033978103
0.0035101147 0.001528169 -0.002609489
0.0035101147 0.001528169 -0.0021167884
0.0028179793 -0.0011338028 -0.0033978103
0.0004449441 0.0034014084 -0.0084233573
-0.0033123617 0.0018239437 -0.0055656936
-0.0037078676 -0.00083802815 -0.00093430659
-0.0034112383 0.0007394366 -0.0052700732
-0.0035101147 -0.00083802815 -0.0049744528
-0.0030157324 -0.0013309859 -0.0028065694
0.002323597 0.0032042253 -0.0075364965
-4.9438237e-05 -0.00014788733 -0.0097043794
0.00034606765 0.0023169015 -0.0096058398
-0.0032134852 -0.002612676 -0.0065510948
-0.0039056207 -0.0011338028 -4.7445257e-05
-0.0033123617 0.0020211267 -0.0052700732
0.0044000028 0.0012323944 -0.0031021899
-0.0032134852 0.0018239437 -0.0049744528
0.002323597 -0.0032042253 -0.0073394161
-0.0036089912 -0.00054225355 -0.00054014596
-0.0027191029 -0.00044366196 -0.0082262773
-0.0030157324 0.0007394366 -0.0078321164
-0.00034606765 0.0035000001 -0.0052700732
0.002323597 -0.0029084508 -0.0082262773
-0.0030157324 -0.00054225355 -0.0079306569
0.00014831471 -0.0031056339 -0.0036934307
4.9438237e-05 -0.0035000001 -0.0067481752
-0.0011370794 -0.0034014084 -0.0066496353
0.0032134852 0.0019225352 -0.0032007298
-0.0017303382 0.0029084508 -0.0038905109
0.0031146088 0.0019225352 -0.0032007298
0.0036089912 0.0012323944 -0.0010328467
-0.0024224736 -0.003302817 -0.0061569344
-0.0017303382 0.0019225352 -0.0033978103
0.002916856 0.001528169 -0.0031021899
-0.0024224736 -0.0022183098 -0.0033978103
0.0035101147 0.0013309859 -0.0047773723
-0.0028179793 0.0011338028 -0.0081277369
0.0030157324 -0.0019225352 -0.0080291973
-0.0033123617 -4.9295773e-05 -0.0069452557
0.00084045 -4.9295773e-05 -0.0095072994
0.0030157324 -0.0028098591 -0.0070437957
0.00014831471 -0.0022183098 -0.0096058398
0.0016314618 0.0024154929 -0.009211679
-0.002916856 0.00024647888 -0.0033978103
0.00014831471 -0.0035000001 -0.0080291973
-0.00084045 -0.0035000001 -0.0047773723
0.0040044971 0.0014295775 -0.0040875911
-0.0034112383 -0.0018239437 -0.0062554744
0.0032134852 -0.00064084504 -0.0033978103
-0.0033123617 0.0023169015 -0.0063540144
-0.0033123617 4.9295773e-05 -0.0054671532
-0.0033123617 -0.00083802815 -0.0070437957
-0.0033123617 -0.0018239437 -0.0055656936
0.0018292147 -0.0032042253 -0.0077335765
0.0039056207 0.0017253521 -0.0032007298
-0.00014831471 0.0035000001 -0.0057627736
-0.0018292147 -0.003302817 -0.0072408761
-0.0037078676 -0.00034507041 -0.0025109488
-0.0036089912 -4.9295773e-05 0.0023175182
-0.0031146088 -0.0027112677 -0.0062554744
-0.0004449441 -0.00034507041 -0.0032007298
0.0039056207 0.00014788733 0.0018248175
0.0031146088 -0.0028098591 -0.0062554744
0.0030157324 0.0022183098 -0.0036934307
-0.00054382061 -0.0035000001 -0.0050729928
0.00034606765 0.0035000001 -0.0061569344
0.0015325852 -0.0034014084 -0.0072408761
-0.00084045 0.00054225355 -0.0096058398
-0.0031146088 0.0017253521 -0.0045802919
0.00074157352 -0.00024647888 -0.0096058398
-0.0027191029 0.00054225355 -0.0082262773
0.0036089912 0.00014788733 0.00054379564
-0.0010382029 -0.0035000001 -0.0078321164
-0.0016314618 -0.0034014084 -0.0051715327
0.00093932648 -0.0023169015 -0.0095072994
-0.00064269704 -0.0035000001 -0.0061569344
-0.0010382029 -0.0029084508 -0.0034963503
-0.00252135 -0.00024647888 -0.0033978103
0.0031146088 -0.0021197184 -0.0048759123
-0.0034112383 -0.0020211267 -0.0034963503
0.0010382029 0.0035000001 -0.0065510948
0.0024224736 0.0027112677 -0.0084233573
0.0021258441 -0.0032042253 -0.0079306569
0.00074157352 -0.0019225352 -0.0032992701
-0.0030157324 -0.0011338028 -0.0027080292
-0.0017303382 0.0018239437 -0.009211679
0.00014831471 0.0021197184 -0.0032007298
-0.0028179793 0.0021197184 -0.0042846715
0.0019280912 0.00083802815 -0.009211679
-0.002916856 -0.00024647888 -0.0080291973
0.0036089912 -4.9295773e-05 0.0018248175
-0.0033123617 -0.00083802815 -0.005861314
0.0017303382 -0.003302817 -0.0057627736
-0.0043011266 -0.0013309859 -0.0030036496
0.0031146088 -4.9295773e-05 -0.0077335765
0.002916856 0.0027112677 -0.0051715327
0.00034606765 -0.0009366197 -0.0096058398
0.0022247205 -0.0012323944 -0.0090145981
0.0014337088 0.003302817 -0.0043832115
0.0033123617 -0.0013309859 -0.0049744528
-0.0043011266 -0.0007394366 -0.0023138686
-0.003806744 -0.0011338028 -0.0011313868
-0.003806744 -0.00044366196 -4.7445257e-05
-0.0015325852 -0.0021197184 -0.009211679
-0.0027191029 -0.0024154929 -0.0038905109
-0.0033123617 0.0014295775 -0.0069452557
-0.00064269704 0.00083802815 -0.0096058398
0.0040044971 0.00034507041 -0.0033978103
0.0033123617 -0.0019225352 -0.0054671532
0.00093932648 0.0030070422 -0.009211679
0.0033123617 0.0022183098 -0.0046788319
-0.002916856 0.0030070422 -0.005959854
-0.0030157324 -0.0028098591 -0.0072408761
-0.0032134852 0.0018239437 -0.0051715327
0.00014831471 -0.0035000001 -0.0052700732
0.0031146088 0.0023169015 -0.0050729928
-0.00054382061 0.0035000001 -0.0061569344
0.0019280912 -0.0032042253 -0.0045802919
0.0033123617 0.0014295775 -0.0062554744
0.0013348324 -0.003302817 -0.0047773723
0.0035101147 0.0009366197 -0.00054014596
0.0022247205 -0.0022183098 -0.0037919709
0.0040044971 0.0009366197 -0.001919708
0.0014337088 -0.0022183098 -0.009211679
0.0017303382 -0.0010352113 -0.0034963503
-0.003806744 -0.00024647888 0.0027116789
-0.0032134852 -0.0020211267 -0.0033978103
-0.0022247205 -0.0027112677 -0.0039890511
0.00034606765 -4.9295773e-05 -0.0096058398
-0.0032134852 0.002612676 -0.006058394
0.0026202265 -4.9295773e-05 -0.0084233573
-0.0011370794 -0.0035000001 -0.0070437957
4.9438237e-05 0.003302817 -0.0084233573
-0.0036089912 -4.9295773e-05 0.0024160584
0.0031146088 -0.0016267606 -0.0078321164
-0.00093932648 -0.0034014084 -0.0046788319
-0.0020269677 -0.0022183098 -0.0090145981
0.0039056207 0.00024647888 -0.00024452555
0.0016314618 0.003302817 -0.0051715327
0.0037078676 4.9295773e-05 -0.00044160584
-0.00014831471 -0.0035000001 -0.0066496353
-0.003806744 -0.0017253521 -0.0033978103
-0.0020269677 -0.003302817 -0.0064525548
-0.00074157352 0.0021197184 -0.0032007298
0.0014337088 -0.003302817 -0.0042846715
0.0010382029 0.0035000001 -0.0056642336
0.0013348324 -0.00034507041 -0.0033978103
0.00024719117 -0.0035000001 -0.0053686132
0.00034606765 0.0034014084 -0.0046788319
0.0028179793 -0.0030070422 -0.0056642336
-4.9438237e-05 -0.00024647888 -0.0097043794
4.9438237e-05 0.0035000001 -0.0055656936
-0.0034112383 -0.0020211267 -0.0035948905
0.0011370794 -0.003302817 -0.0049744528
-4.9438237e-05 -4.9295773e-05 -0.0032007298
-0.0030157324 -0.0029084508 -0.0057627736
-4.9438237e-05 0.0035000001 -0.0052700732
0.002916856 -0.0011338028 -0.0035948905
-0.0033123617 -0.00034507041 -0.0070437957
-0.0020269677 0.0023169015 -0.0036934307
0.00093932648 -0.0035000001 -0.0068467152
-0.0036089912 -4.9295773e-05 0.0013321168
-0.0044000028 -0.0010352113 -0.0025109488
-0.0010382029 0.0021197184 -0.0032992701
0.00084045 0.0035000001 -0.0070437957
-0.0027191029 0.001528169 -0.0036934307
-0.0014337088 -0.00024647888 -0.0034963503
4.9438237e-05 -0.0012323944 -0.0032007298
0.0033123617 0.0012323944 -0.0071423356
0.002323597 0.0017253521 -0.0033978103
-0.0030157324 -0.001528169 -0.0031021899
0.00014831471 -0.0035000001 -0.0081277369
0.0043011266 0.0007394366 -0.0025109488
0.0032134852 -0.0021197184 -0.0075364965
-0.00084045 0.0011338028 -0.0032992701
-0.003806744 -0.00034507041 -0.0030036496
0.0021258441 -0.003302817 -0.0051715327
-0.0042022499 -0.001528169 -0.0027080292
4.9438237e-05 -0.0031056339 -0.0036934307
-0.0039056207 4.9295773e-05 0.0028102191
0.00054382061 0.003302817 -0.0041861315
0.0012359559 -0.003302817 -0.0077335765
-0.0032134852 -0.0018239437 -0.0076350365
-0.00014831471 -0.0018239437 -0.0097043794
-0.0027191029 0.0020211267 -0.0040875911
0.0028179793 -0.0023169015 -0.0046788319
0.0028179793 0.00034507041 -0.0082262773
0.002323597 -0.00024647888 -0.0033978103
-0.002916856 -0.00054225355 -0.0080291973
-0.0017303382 -0.0016267606 -0.0034963503
0.0033123617 -0.0010352113 -0.0050729928
0.0028179793 0.00054225355 -0.0082262773
0.0010382029 0.0012323944 -0.0032992701
0.0024224736 0.003302817 -0.0057627736
-0.0011370794 0.0013309859 -0.009408759
-0.0036089912 -0.00064084504 -0.0021167884
-0.00074157352 -0.00044366196 -0.0096058398
-0.0039056207 4.9295773e-05 0.0020218978
-0.00064269704 0.0035000001 -0.0070437957
0.0033123617 0.0007394366 -0.005861314
-0.0035101147 -0.00014788733 -0.006058394
-0.00252135 -0.0032042253 -0.0056642336
0.00034606765 0.0035000001 -0.0076350365
-0.0014337088 0.0034014084 -0.0074379561
-0.0027191029 -0.0011338028 -0.0032007298
-0.0016314618 -0.003302817 -0.0083248178
-0.00084045 -0.0028098591 -0.0033978103
-0.003806744 -0.00024647888 0.0016277372
-0.0004449441 0.001528169 -0.0032007298
0.0033123617 -0.00024647888 -0.0054671532
-0.0036089912 -0.00014788733 0.0026131386
-0.0016314618 0.0032042253 -0.0083248178
0.0018292147 -0.0016267606 -0.0033978103
0.002916856 0.0019225352 -0.0081277369
0.0024224736 -0.0032042253 -0.0055656936
0.0040044971 0.00024647888 -0.0039890511
0.0019280912 -0.0030070422 -0.0041861315
0.003806744 0.0011338028 -4.7445257e-05
-0.0024224736 0.0032042253 -0.0055656936
0.0013348324 0.00024647888 -0.0033978103
0.0033123617 0.0009366197 -0.0068467152
-0.00084045 -0.0034014084 -0.0042846715
4.9438237e-05 -0.0011338028 -0.0097043794
-0.00064269704 -0.0013309859 -0.0096058398
-0.0018292147 -0.0032042253 -0.0083248178
0.00054382061 0.0035000001 -0.0068467152
0.0013348324 -0.00044366196 -0.009408759
0.0024224736 -0.0017253521 -0.0089160586
0.002916856 0.0017253521 -0.0081277369
0.00024719117 -0.0035000001 -0.0064525548
0.0033123617 0.00054225355 -0.0072408761
0.00034606765 -0.0019225352 -0.0032007298
0.0021258441 0.0034014084 -0.0067481752
0.0016314618 0.0034014084 -0.0066496353
0.0032134852 0.0018239437 -0.0075364965
-0.0018292147 -0.0022183098 -0.0091131385
-0.0039056207 -0.001528169 -0.0041861315
0.0016314618 -0.0019225352 -0.0034963503
0.0026202265 0.0016267606 -0.0032992701
-0.0010382029 0.0032042253 -0.0087189777
-0.0012359559 0.0035000001 -0.0068467152
-0.0036089912 -0.00044366196 -0.0047773723
-0.0022247205 -0.0016267606 -0.0089160586
-0.00074157352 0.0035000001 -0.0068467152
-4.9438237e-05 -0.0035000001 -0.0079306569
-0.0014337088 0.0016267606 -0.009211679
0.0020269677 0.0016267606 -0.0034963503
0.0036089912 -0.00014788733 -0.0047773723
0.0032134852 -0.0019225352 -0.0051715327
0.0024224736 0.0024154929 -0.0035948905
0.0004449441 -0.003302817 -0.0042846715
-0.0040044971 -0.0014295775 -0.0042846715
0.0036089912 -0.00014788733 0.0029087591
0.0032134852 -0.0007394366 -0.0076350365
-0.0037078676 0.00014788733 -0.00024452555
0.0034112383 -0.0007394366 -0.006058394
0.0030157324 0.0024154929 -0.0077335765
-0.0031146088 -0.0013309859 -0.0025109488
-0.00093932648 -0.0022183098 -0.0033978103
0.0027191029 0.0022183098 -0.0033978103
0.0033123617 -0.0017253521 -0.005959854
-0.0019280912 -0.00083802815 -0.0090145981
0.0030157324 0.0023169015 -0.0042846715
-0.0032134852 0.0012323944 -0.0040875911
0.0033123617 0.001528169 -0.0073394161
0.0027191029 -0.0009366197 -0.0084233573
0.00064269704 0.0035000001 -0.005959854
0.0018292147 0.0028098591 -0.0037919709
-0.0013348324 0.0032042253 -0.0041861315
0.0016314618 -0.00083802815 -0.009211679
0.0020269677 -0.0034014084 -0.0061569344
-0.0015325852 -0.0034014084 -0.0076350365
0.0030157324 0.0029084508 -0.0071423356
-0.0040044971 -0.00044366196 -0.0023138686
-0.0039056207 -0.0011338028 -0.00024452555
0.00024719117 -0.0012323944 -0.0032007298
0.0010382029 -0.0011338028 -0.0032992701
-0.00034606765 -0.00054225355 -0.0032007298
-0.00252135 0.0024154929 -0.0040875911
-0.0033123617 0.0024154929 -0.0067481752
-0.0016314618 -0.0034014084 -0.0068467152
-0.0012359559 -0.0017253521 -0.009408759
-0.0016314618 -0.0034014084 -0.0056642336
-0.0021258441 4.9295773e-05 -0.0089160586
0.0036089912 -4.9295773e-05 0.0014306569
-0.0032134852 0.0023169015 -0.0054671532
0.00074157352 -0.0012323944 -0.0096058398
0.00252135 0.00024647888 -0.0033978103
0.0043011266 0.0009366197 -0.0035948905
0.00014831471 -0.0011338028 -0.0032007298
-0.0020269677 -0.00024647888 -0.0034963503
0.00084045 -0.0031056339 -0.0089160586
-0.0039056207 4.9295773e-05 0.0018248175
-0.003806744 0.00014788733 0.0028102191
-0.003806744 -0.0010352113 -0.0045802919
0.0019280912 -0.003302817 -0.0052700732
0.0033123617 -0.0011338028 -0.0048759123
0.0031146088 0.0019225352 -0.0077335765
0.0026202265 -0.00064084504 -0.0033978103
0.00093932648 0.0023169015 -0.0095072994
0.00084045 -0.003302817 -0.0088175181
-4.9438237e-05 0.0023169015 -0.0032007298
-0.0020269677 0.00054225355 -0.0034963503
-0.0013348324 -0.0027112677 -0.009211679
-0.0044000028 -0.0012323944 -0.0025109488
-0.00034606765 -0.0035000001 -0.0077335765
-0.0033123617 -0.00064084504 -0.0072408761
-0.00093932648 0.00044366196 -0.0032992701
0.0030157324 0.002612676 -0.0073394161
-0.0032134852 -0.0021197184 -0.0037919709
0.0033123617 0.0011338028 -0.0053686132
-0.00084045 -0.00054225355 -0.0095072994
-0.0039056207 -0.00083802815 -0.00063868612
0.0027191029 0.0027112677 -0.0080291973
0.0013348324 0.0009366197 -0.0033978103
-0.0036089912 0.00014788733 0.0031058395
0.0037078676 0.0007394366 -0.00063868612
-0.0032134852 0.0023169015 -0.0074379561
0.0030157324 0.0020211267 -0.0033978103
-0.0034112383 0.00044366196 -0.0047773723
-0.00093932648 -0.0035000001 -0.0052700732
-0.00074157352 -0.0031056339 -0.0091131385
-0.0028179793 -0.002612676 -0.0046788319
-0.0018292147 -0.0034014084 -0.0074379561
0.0037078676 0.00034507041 -0.0025109488
-0.0039056207 -0.0016267606 -0.0023138686
-0.0036089912 -0.00014788733 0.0015291971
-0.0013348324 0.0028098591 -0.0036934307
-0.00252135 0.0022183098 -0.0086204382
0.0019280912 -0.0014295775 -0.0091131385
-0.0033123617 -0.0016267606 -0.0028065694
-0.0017303382 -0.003302817 -0.0078321164
0.00093932648 0.0028098591 -0.0093102194
0.00084045 0.00054225355 -0.0096058398
-0.0036089912 -0.0012323944 -0.00054014596
0.0033123617 -0.0009366197 -0.0054671532
-0.0026202265 -0.00014788733 -0.0033978103
0.00064269704 0.00034507041 -0.0032992701
0.0034112383 0.00083802815 -0.0067481752
0.0030157324 -0.0013309859 -0.0080291973
-0.0021258441 -0.0023169015 -0.0089160586
-0.0037078676 -0.00083802815 -0.0010328467
0.0010382029 -0.0034014084 -0.0072408761
0.0004449441 4.9295773e-05 -0.0096058398
-0.0030157324 0.0024154929 -0.0048759123
0.0034112383 0.00083802815 -0.0061569344
-0.0014337088 -0.0034014084 -0.006058394
-0.0039056207 4.9295773e-05 0.0019233577
0.0028179793 0.0016267606 -0.0082262773
-0.0032134852 -0.0020211267 -0.0050729928
-0.0012359559 0.0011338028 -0.0033978103
0.0022247205 0.003302817 -0.0065510948
0.0035101147 -0.00083802815 -0.0041861315
0.0004449441 -0.0032042253 -0.0089160586
-0.0010382029 0.0027112677 -0.0033978103
0.00093932648 0.0034014084 -0.0079306569
0.0024224736 -0.0031056339 -0.0047773723
0.0014337088 -0.003302817 -0.0077335765
0.00074157352 0.0034014084 -0.0077335765
-0.0035101147 -4.9295773e-05 -0.0051715327
0.0039056207 0.0016267606 -0.0027080292
-0.0011370794 -0.0034014084 -0.0056642336
0.00024719117 0.0035000001 -0.0052700732
0.00093932648 -0.0035000001 -0.0066496353
-0.0033123617 0.0009366197 -0.0038905109
-0.0012359559 0.0035000001 -0.0055656936
0.0011370794 -0.0034014084 -0.0073394161
0.0032134852 -0.0019225352 -0.0049744528
-0.0030157324 -4.9295773e-05 -0.0032992701
-0.0016314618 0.0030070422 -0.0088175181
-0.0021258441 0.0034014084 -0.0072408761
0.0014337088 -0.00014788733 -0.009408759
0.0030157324 0.0027112677 -0.0075364965
0.00014831471 -0.0034014084 -0.0085218977
-0.0033123617 -0.00044366196 -0.0073394161
-0.00074157352 0.003302817 -0.0088175181
-0.00074157352 -0.0007394366 -0.0096058398
0.0031146088 -0.0013309859 -0.0079306569
0.0011370794 0.0035000001 -0.0071423356
-0.00252135 -0.00034507041 -0.0033978103
-0.0026202265 -0.0028098591 -0.0047773723
-0.00064269704 0.0009366197 -0.0096058398
-0.0035101147 0.00064084504 -0.0061569344
-0.00252135 -0.003302817 -0.0067481752
0.00054382061 -0.0016267606 -0.0032992701
-0.0032134852 0.0011338028 -0.0038905109
0.0010382029 0.0035000001 -0.0075364965
-0.0032134852 -0.002612676 -0.005959854
0.0014337088 -0.0034014084 -0.0075364965
-0.0031146088 -0.00083802815 -0.002609489
0.003806744 0.00014788733 0.0029087591
-0.0033123617 0.0024154929 -0.0066496353
-0.0031146088 0.0027112677 -0.0070437957
0.0011370794 0.003302817 -0.0043832115
-0.00014831471 -0.003302817 -0.0086204382
-0.0034112383 -0.00064084504 -0.0022153284
-0.0021258441 -0.003302817 -0.0078321164
-0.0040044971 -0.00044366196 -0.0041861315
-0.0019280912 -0.003302817 -0.0057627736
0.00093932648 0.0035000001 -0.0068467152
4.9438237e-05 -0.00024647888 -0.0096058398
0.0011370794 0.001528169 -0.0095072994
-0.0034112383 0.00044366196 -0.0052700732
0.002323597 0.0032042253 -0.0073394161
0.0011370794 0.0012323944 -0.0033978103
0.0027191029 0.0031056339 -0.0054671532
-0.00024719117 0.0012323944 -0.0032007298
-0.00024719117 -0.0035000001 -0.0061569344
-0.0026202265 0.0023169015 -0.0085218977
-0.0028179793 -0.0031056339 -0.0068467152
0.0031146088 -0.0028098591 -0.0066496353
-0.0019280912 -0.0032042253 -0.0043832115
0.00093932648 0.0034014084 -0.0047773723
-0.00014831471 0.00034507041 -0.0096058398
-0.0035101147 -0.00044366196 -0.0051715327
0.0033123617 -0.00054225355 -0.0057627736
0.0032134852 -0.00034507041 -0.0055656936
0.00054382061 -0.0034014084 -0.0049744528
-0.00074157352 0.0029084508 -0.0093102194
0.0036089912 0.0009366197 -0.0011313868
-0.0028179793 0.0028098591 -0.0079306569
-0.00074157352 0.0031056339 -0.0090145981
-0.00054382061 -0.0035000001 -0.0076350365
-0.0004449441 0.0016267606 -0.0032007298
0.0024224736 -0.0024154929 -0.0086204382
-0.0020269677 0.0018239437 -0.0034963503
-0.0044000028 -0.0010352113 -0.0027080292
-0.0014337088 -0.0010352113 -0.0033978103
-0.00093932648 0.0035000001 -0.0064525548
0.0011370794 0.0035000001 -0.0073394161
-0.0028179793 0.0021197184 -0.0043832115
0.0010382029 0.0021197184 -0.0033978103
-0.0031146088 0.0025140846 -0.0072408761
0.00054382061 -0.00034507041 -0.0032007298
-0.00064269704 0.0011338028 -0.0032007298
-0.0033123617 -0.0018239437 -0.0051715327
0.0014337088 4.9295773e-05 -0.0033978103
0.0030157324 0.0013309859 -0.0030036496
0.0021258441 -0.003302817 -0.0053686132
-0.0013348324 0.003302817 -0.0085218977
0.002323597 -0.0031056339 -0.0078321164
0.0015325852 0.00083802815 -0.0093102194
-0.0033123617 0.0009366197 -0.0071423356
0.0031146088 -0.0021197184 -0.0051715327
0.00064269704 0.00064084504 -0.0032007298
-0.00014831471 -0.00064084504 -0.0032007298
-0.0031146088 0.0019225352 -0.0046788319
-0.0020269677 0.0034014084 -0.006058394
0.0032134852 0.0021197184 -0.0048759123
0.0031146088 0.00044366196 -0.0078321164
0.00024719117 0.003302817 -0.0083248178
0.0010382029 -0.00014788733 -0.0095072994
-0.0027191029 0.0031056339 -0.0065510948
0.0031146088 -0.00054225355 -0.0077335765
-0.0040044971 -0.00024647888 -0.0038905109
0.0036089912 -4.9295773e-05 0.0030072993
-0.0028179793 -0.0020211267 -0.0082262773
0.00074157352 -0.0034014084 -0.0069452557
-0.0016314618 -0.0019225352 -0.0034963503
-0.0016314618 0.0034014084 -0.0070437957
-0.0024224736 -0.0016267606 -0.0033978103
-0.0027191029 0.00064084504 -0.0082262773
-0.0037078676 -0.00034507041 -0.0023138686
0.003806744 -4.9295773e-05 -0.0038905109
-0.00034606765 -0.0020211267 -0.0032992701
0.0019280912 -0.00034507041 -0.0034963503
0.0014337088 0.003302817 -0.0083248178
0.0034112383 -0.0020211267 -0.0061569344
0.00084045 -0.0019225352 -0.0095072994
0.00084045 -0.003302817 -0.0041861315
-0.002916856 0.00034507041 -0.0080291973
0.00252135 0.0011338028 -0.0087189777
0.0021258441 0.0012323944 -0.0090145981
-0.00064269704 0.0034014084 -0.0050729928
-0.0036089912 0.00034507041 -0.0045802919
-0.0012359559 0.003302817 -0.0085218977
-0.0044000028 -0.0009366197 -0.0023138686
-0.0030157324 -0.0016267606 -0.0031021899
0.002916856 0.0028098591 -0.0076350365
-0.0030157324 0.001528169 -0.0080291973
0.00014831471 0.0035000001 -0.0048759123
-0.002916856 -0.00054225355 -0.0032992701
0.0010382029 -0.0035000001 -0.006058394
-0.0039056207 -0.0010352113 -0.0045802919
0.002323597 0.0029084508 -0.0083248178
0.0033123617 -0.0010352113 -0.0062554744
-0.0033123617 -0.00083802815 -0.0021167884
-0.002323597 0.00083802815 -0.0088175181
-0.0016314618 -0.0011338028 -0.009211679
0.0034112383 0.00044366196 -0.0029051094
0.00024719117 -0.00064084504 -0.0096058398
0.0024224736 -0.0031056339 -0.0048759123
0.0012359559 0.00034507041 -0.009408759
-0.0021258441 -0.003302817 -0.0050729928
0.00252135 -0.0019225352 -0.0086204382
0.00054382061 0.0035000001 -0.0075364965
-0.0017303382 0.00044366196 -0.009211679
-0.0004449441 0.003302817 -0.0086204382
-0.00084045 0.0035000001 -0.0067481752
0.0039056207 -0.00014788733 -0.00024452555
-0.0036089912 -0.0009366197 -0.0011313868
-0.00064269704 -0.0035000001 -0.0057627736
0.002916856 -0.00034507041 -0.0033978103
-0.0027191029 -0.0027112677 -0.0046788319
-0.0033123617 -0.0017253521 -0.0072408761
-0.0035101147 -0.0010352113 -0.0012299271
0.0030157324 -0.00064084504 -0.0080291973
-0.0011370794 0.0034014084 -0.0073394161
0.00084045 0.00034507041 -0.0096058398
-0.0010382029 -0.00014788733 -0.0095072994
-0.0043011266 -0.0011338028 -0.0037919709
-0.00054382061 0.0027112677 -0.0032992701
0.002916856 0.002612676 -0.0077335765
0.0037078676 -0.00024647888 -0.0042846715
0.0032134852 0.0022183098 -0.0045802919
-0.0033123617 -0.00054225355 -0.0056642336
-0.0034112383 0.0018239437 -0.005959854
0.0020269677 -0.0013309859 -0.0034963503
-0.0030157324 0.0028098591 -0.005861314
-0.0033123617 0.0010352113 -0.0070437957
0.0020269677 0.00014788733 -0.0090145981
0.00093932648 -0.0034014084 -0.0048759123
0.0021258441 0.0016267606 -0.0090145981
-0.0033123617 0.0013309859 -0.0057627736
-0.0034112383 0.00054225355 -0.0047773723
0.00054382061 -0.003302817 -0.0086204382
0.0024224736 -0.0023169015 -0.0039890511
0.0037078676 0.00064084504 -0.0047773723
0.0016314618 -0.001528169 -0.009211679
0.0043011266 0.00083802815 -0.0023138686
0.00084045 0.0030070422 -0.0035948905
-4.9438237e-05 0.00014788733 -0.0097043794
-0.0032134852 0.0017253521 -0.0075364965
0.002323597 -0.00064084504 -0.0033978103
-0.0017303382 -0.0030070422 -0.0087189777
0.0035101147 0.0019225352 -0.0040875911
-0.0031146088 0.0016267606 -0.0041861315
-0.00252135 0.0009366197 -0.0085218977
-0.0022247205 -0.003302817 -0.0064525548
-0.0032134852 -0.002612676 -0.0066496353
0.0035101147 0.00054225355 -0.00034306568
-0.002916856 -0.0009366197 -0.0082262773
-0.00024719117 -0.0035000001 -0.0072408761
-0.0034112383 -0.0010352113 -0.0052700732
0.0024224736 -0.0016267606 -0.0089160586
-0.0028179793 -0.0013309859 -0.0082262773
0.00074157352 0.0009366197 -0.0096058398
0.0013348324 -0.0020211267 -0.009211679
-0.0015325852 0.0034014084 -0.0061569344
0.0039056207 4.9295773e-05 0.0029087591
0.0034112383 -0.0016267606 -0.0067481752
-0.002916856 0.0007394366 -0.0033978103
0.00014831471 0.0024154929 -0.0096058398
-0.0033123617 -0.00034507041 -0.0055656936
0.0035101147 4.9295773e-05 -0.0062554744
-0.00252135 0.0031056339 -0.0075364965
0.0024224736 0.0032042253 -0.0052700732
0.00024719117 -0.0011338028 -0.0032007298
0.0036089912 0.00034507041 -0.0028065694
-0.0014337088 -0.0034014084 -0.0077335765
-0.00024719117 0.0020211267 -0.0033978103
0.0015325852 0.003302817 -0.0080291973
0.0036089912 0.0009366197 -0.0012299271
-0.0032134852 -0.0023169015 -0.0056642336
-0.0028179793 -0.0022183098 -0.0035948905
0.0024224736 0.003302817 -0.0072408761
-0.0037078676 -0.00014788733 0.0024160584
-0.002323597 0.0032042253 -0.0077335765
-0.0042022499 -0.00054225355 -0.0025109488
0.0036089912 0.0018239437 -0.0038905109
-0.0034112383 -0.00044366196 -0.0064525548
-0.0017303382 -0.0021197184 -0.0034963503
0.0021258441 -0.00024647888 -0.0034963503
0.0021258441 0.0034014084 -0.0069452557
-0.0011370794 -0.0013309859 -0.0095072994
-0.0032134852 0.002612676 -0.0068467152
-0.0037078676 -0.0011338028 -0.0046788319
0.00034606765 -0.0017253521 -0.0032007298
-0.0027191029 0.00014788733 -0.0033978103
0.0027191029 0.0032042253 -0.0061569344
0.0034112383 0.0013309859 -0.0052700732
-0.0027191029 -0.0029084508 -0.0052700732
0.0036089912 0.0018239437 -0.0040875911
0.00084045 0.0035000001 -0.0066496353
0.0026202265 0.0031056339 -0.0075364965
0.00034606765 0.0031056339 -0.0036934307
0.0033123617 0.0017253521 -0.0070437957
-0.0039056207 -0.0011338028 -0.0017226278
0.0027191029 -0.002612676 -0.0081277369
-0.0004449441 -0.0030070422 -0.0034963503
0.0022247205 -0.0028098591 -0.0085218977
0.003806744 -0.00014788733 0.00054379564
-0.00024719117 0.0035000001 -0.005861314
0.00074157352 0.0014295775 -0.0096058398
0.0037078676 0.0009366197 -0.0046788319
-0.0016314618 0.003302817 -0.0046788319
-0.0004449441 -0.00034507041 -0.0096058398
-0.0022247205 -0.0012323944 -0.0033978103
-0.0020269677 0.0034014084 -0.0066496353
0.00014831471 -0.00024647888 -0.0096058398
-0.003806744 0.00014788733 0.00093795621
-0.0022247205 -0.0014295775 -0.0089160586
-0.0031146088 0.0025140846 -0.0075364965
0.0014337088 -0.0034014084 -0.0062554744
0.0012359559 0.0020211267 -0.0033978103
-0.00034606765 -0.0025140846 -0.0095072994
0.0041033737 0.00083802815 -0.0042846715
-0.00054382061 -0.00064084504 -0.0032007298
-0.0041033737 -0.001528169 -0.0022153284
0.00054382061 -0.0032042253 -0.0089160586
-0.0033123617 -4.9295773e-05 -0.0053686132
-0.0031146088 -0.00054225355 -0.0029051094
0.002916856 0.00054225355 -0.0081277369
-0.0010382029 -0.0032042253 -0.0089160586
0.0039056207 -4.9295773e-05 0.0011350365
-0.0010382029 0.0018239437 -0.0095072994
0.0012359559 -0.00014788733 -0.009408759
4.9438237e-05 0.0018239437 -0.0032007298
0.0018292147 -0.0011338028 -0.0033978103
-0.002916856 0.0030070422 -0.0069452557
-0.00024719117 -0.0035000001 -0.006058394
0.00064269704 0.0035000001 -0.006058394
-0.00252135 0.0011338028 -0.0087189777
0.0026202265 0.0032042253 -0.0067481752
0.003806744 -4.9295773e-05 -0.0040875911
0.0033123617 0.0024154929 -0.0065510948
-0.0014337088 0.003302817 -0.0085218977
-0.002916856 0.001528169 -0.0038905109
-0.0012359559 -0.0034014084 -0.0053686132
0.0012359559 0.003302817 -0.0079306569
0.0026202265 -0.0018239437 -0.0038905109
-0.0033123617 0.0017253521 -0.0071423356
0.0013348324 -0.0031056339 -0.0089160586
-0.00252135 0.0014295775 -0.0087189777
0.0015325852 0.0030070422 -0.0088175181
-0.0013348324 0.0034014084 -0.0068467152
0.0035101147 0.00024647888 -4.7445257e-05
-0.0032134852 0.0014295775 -0.0074379561
-0.00093932648 -0.002612676 -0.009408759
0.002916856 0.0024154929 -0.0078321164
-0.0018292147 0.0034014084 -0.0055656936
0.0042022499 0.001528169 -0.0034963503
0.0024224736 0.003302817 -0.006058394
-0.0030157324 -0.0021197184 -0.0079306569
0.0033123617 -0.0022183098 -0.0064525548
0.00074157352 0.0023169015 -0.0096058398
0.0035101147 0.00024647888 -0.0070437957
0.00054382061 -0.0013309859 -0.0032992701
-0.0014337088 -0.0028098591 -0.0035948905
-0.0004449441 -0.001528169 -0.0032992701
-0.0039056207 -0.00024647888 -0.00024452555
0.00034606765 -0.00034507041 -0.0096058398
-0.0034112383 -0.0013309859 -0.0051715327
0.00252135 0.00034507041 -0.0086204382
4.9438237e-05 -0.003302817 -0.0042846715
-0.0016314618 -0.0020211267 -0.0034963503
0.00093932648 0.0035000001 -0.0052700732
-0.0037078676 -0.00083802815 -0.0016240876
-0.0026202265 0.00083802815 -0.0084233573
-0.0035101147 -0.0012323944 -0.0048759123
-0.0035101147 -0.0009366197 -0.00034306568
0.0036089912 -0.00014788733 -4.7445257e-05
0.00252135 0.0016267606 -0.0033978103
0.00064269704 0.0014295775 -0.0096058398
0.0033123617 0.0011338028 -0.0062554744
0.00014831471 0.0027112677 -0.0032992701
0.0012359559 0.0009366197 -0.0033978103
-0.0012359559 -0.0035000001 -0.0070437957
-0.0041033737 -0.0012323944 -0.0020182482
-0.0016314618 0.003302817 -0.0073394161
-0.002323597 -0.003302817 -0.0056642336
-0.0034112383 -0.00044366196 -0.0025109488
0.00064269704 0.003302817 -0.0086204382
-0.0014337088 0.0007394366 -0.0093102194
-0.0012359559 -0.0020211267 -0.0033978103
0.0022247205 -0.0009366197 -0.0034963503
0.0035101147 0.0007394366 -0.0051715327
-0.0017303382 0.0034014084 -0.0054671532
0.0032134852 -0.0011338028 -0.0074379561
0.0026202265 0.002612676 -0.0082262773
0.0013348324 0.0018239437 -0.009408759
-0.0033123617 0.00044366196 -0.0055656936
0.00064269704 0.0025140846 -0.0095072994
0.0039056207 0.0007394366 -4.7445257e-05
0.0034112383 -0.00064084504 -0.0065510948
-0.0035101147 -0.00014788733 -0.00024452555
-4.9438237e-05 0.00034507041 -0.0032007298
-0.0014337088 -0.0025140846 -0.0034963503
0.0013348324 -0.0009366197 -0.0093102194
-0.0032134852 -0.0010352113 -0.0076350365
-0.0012359559 0.0029084508 -0.009211679
0.0033123617 -0.00034507041 -0.0066496353
-0.0042022499 -0.00044366196 -0.0029051094
-0.00252135 -0.0032042253 -0.0075364965
0.0035101147 0.0007394366 -0.0049744528
0.0019280912 -0.0032042253 -0.0047773723
0.0011370794 -0.00044366196 -0.0033978103
-0.0039056207 -0.00054225355 -0.00034306568
0.002916856 -0.0028098591 -0.0073394161
0.0016314618 -0.0029084508 -0.0090145981
0.0016314618 -0.0032042253 -0.0083248178
0.00064269704 0.0027112677 -0.0033978103
0.0037078676 -0.00014788733 0.0016277372
0.00093932648 -0.00064084504 -0.0033978103
0.0010382029 0.0032042253 -0.0039890511
0.0017303382 -0.003302817 -0.0054671532
-0.00084045 0.00014788733 -0.0096058398
-0.00014831471 0.0035000001 -0.0055656936
0.0022247205 -0.0020211267 -0.0035948905
0.0019280912 0.0034014084 -0.005959854
0.0037078676 -0.00014788733 0.00044525549
-0.0018292147 0.0009366197 -0.0091131385
0.0027191029 0.0018239437 -0.0032992701
0.0036089912 -0.00014788733 0.0018248175
-0.002916856 0.0030070422 -0.0057627736
-0.0017303382 0.00014788733 -0.009211679
-0.002916856 0.0022183098 -0.0081277369
-0.00093932648 0.0024154929 -0.0095072994
0.00014831471 0.0035000001 -0.0077335765
-0.0036089912 0.00014788733 0.0019233577
-0.0030157324 -0.0029084508 -0.0061569344
0.0031146088 -0.0021197184 -0.0047773723
0.0018292147 0.00083802815 -0.009211679
0.0022247205 -0.0030070422 -0.0043832115
-0.0016314618 -0.0034014084 -0.0066496353
0.00014831471 -0.0007394366 -0.0032007298
-0.0033123617 0.0022183098 -0.005959854
0.0027191029 0.0019225352 -0.0084233573
0.0014337088 0.00034507041 -0.009408759
0.00074157352 0.0012323944 -0.0032992701
0.0011370794 0.0023169015 -0.0033978103
-0.0037078676 -4.9295773e-05 -0.0045802919
0.0033123617 0.0023169015 -0.0066496353
0.00014831471 0.0032042253 -0.0037919709
0.0013348324 -0.0034014084 -0.0071423356
0.00074157352 4.9295773e-05 -0.0032992701
0.00252135 -0.0024154929 -0.0085218977
-0.0022247205 -0.0029084508 -0.0083248178
-0.003806744 -0.0011338028 -0.0001459854
-0.0016314618 -0.00034507041 -0.0034963503
0.002916856 0.0023169015 -0.0079306569
0.0032134852 0.002612676 -0.0067481752
-0.0031146088 0.0010352113 -0.0078321164
0.00093932648 -0.0023169015 -0.0032992701
-0.0035101147 -0.00024647888 -0.0065510948
0.0019280912 0.0007394366 -0.0091131385
0.0042022499 0.00064084504 -0.0038905109
0.0020269677 -0.00064084504 -0.0090145981
-0.0016314618 -0.0023169015 -0.0034963503
0.0014337088 -0.00064084504 -0.0033978103
0.0031146088 -0.0016267606 -0.0077335765
-0.00084045 0.0035000001 -0.0065510948
0.0013348324 -0.0032042253 -0.0087189777
0.0012359559 0.00014788733 -0.009408759
-0.0028179793 -0.00014788733 -0.0033978103
0.0039056207 0.00064084504 -0.00054014596
-0.0040044971 -0.0012323944 -0.0042846715
-0.0022247205 -0.0032042253 -0.0078321164
0.0022247205 -0.0031056339 -0.0048759123
-0.0033123617 -0.0011338028 -0.006058394
0.0027191029 -0.00064084504 -0.0033978103
0.0036089912 0.0012323944 -0.0047773723
0.0034112383 -0.0011338028 -0.0052700732
0.00014831471 0.0035000001 -0.0056642336
-0.0034112383 0.00044366196 -0.0048759123
0.0033123617 0.0014295775 -0.0066496353
-0.00064269704 0.0035000001 -0.0065510948
0.0010382029 0.003302817 -0.0044817519
-0.0010382029 0.0025140846 -0.009408759
-0.0031146088 -0.0011338028 -0.0024124088
-0.0033123617 0.0021197184 -0.0069452557
-0.0033123617 -0.00064084504 -0.0053686132
0.0033123617 -0.0009366197 -0.0064525548
-0.002916856 0.0020211267 -0.0044817519
0.002323597 0.003302817 -0.0056642336
-0.0030157324 -0.0013309859 -0.0079306569
-0.0034112383 -0.0009366197 -0.0052700732
-0.0014337088 -0.0034014084 -0.0057627736
-0.0030157324 -0.0023169015 -0.0047773723
0.00024719117 -0.0021197184 -0.0096058398
-0.0015325852 0.0021197184 -0.0033978103
-0.003806744 0.00014788733 0.0018248175
-0.0026202265 -0.00034507041 -0.0033978103
-0.0027191029 -0.0030070422 -0.0074379561
0.0037078676 0.00083802815 -4.7445257e-05
-0.0012359559 -0.0013309859 -0.0033978103
0.00093932648 -0.0019225352 -0.0032992701
-0.00034606765 0.00014788733 -0.0032007298
0.0031146088 0.0010352113 -0.0076350365
-0.0013348324 -0.003302817 -0.0044817519
-0.00014831471 -0.0035000001 -0.005959854
-0.0031146088 0.0011338028 -0.0079306569
-0.00084045 0.0035000001 -0.0057627736
-0.003806744 0.00014788733 -4.7445257e-05
-0.00074157352 -0.00064084504 -0.0096058398
0.0035101147 0.0012323944 -0.0020182482
0.0026202265 0.0031056339 -0.0073394161
0.0044000028 0.0012323944 -0.0027080292
0.0017303382 0.0027112677 -0.0035948905
-0.0011370794 0.001528169 -0.009408759
4.9438237e-05 0.00083802815 -0.0097043794
0.0030157324 -0.0021197184 -0.0079306569
-0.002323597 -0.00044366196 -0.0033978103
-0.0034112383 0.0010352113 -0.006058394
-0.00034606765 -0.0035000001 -0.0048759123
0.0020269677 -4.9295773e-05 -0.0034963503
-0.0018292147 -0.0030070422 -0.0040875911
0.00024719117 0.0007394366 -0.0032007298
-4.9438237e-05 -0.0035000001 -0.0046788319
0.00252135 -0.0029084508 -0.0046788319
0.00054382061 0.0035000001 -0.0049744528
-0.0021258441 0.0030070422 -0.0044817519
-0.0033123617 0.0009366197 -0.0045802919
0.0031146088 0.0028098591 -0.0062554744
-0.0010382029 -0.0035000001 -0.0052700732
0.002916856 0.0030070422 -0.0064525548
-0.0021258441 4.9295773e-05 -0.0034963503
0.0041033737 0.00044366196 -0.0027080292
0.00074157352 0.0028098591 -0.009408759
-0.00084045 0.00064084504 -0.0032992701
4.9438237e-05 -0.0018239437 -0.0097043794
0.0011370794 0.003302817 -0.0087189777
0.00014831471 0.0035000001 -0.0068467152
0.00074157352 0.0017253521 -0.0032992701
-0.0033123617 -0.00054225355 -0.0024124088
-0.0031146088 -0.0024154929 -0.0074379561
-0.00014831471 -0.001528169 -0.0097043794
0.0017303382 0.0030070422 -0.0087189777
0.0013348324 -0.00024647888 -0.009408759
-0.0011370794 0.0027112677 -0.0093102194
0.0034112383 0.00083802815 -0.0070437957
-4.9438237e-05 0.0009366197 -0.0032007298
-0.0031146088 -0.0009366197 -0.0024124088
0.0015325852 -0.0011338028 -0.009211679
0.0033123617 -0.00054225355 -0.005959854
0.0033123617 -0.00054225355 -0.0072408761
0.0031146088 0.0028098591 -0.0066496353
0.0039056207 0.00083802815 -0.00093430659
0.0032134852 0.002612676 -0.0066496353
0.00093932648 -0.00024647888 -0.0033978103
0.0013348324 -0.0028098591 -0.0036934307
0.0033123617 0.0012323944 -0.0061569344
-0.00024719117 -0.00054225355 -0.0097043794
0.0041033737 0.0014295775 -0.0038905109
-0.0020269677 0.0031056339 -0.0084233573
-0.00024719117 -0.0017253521 -0.0032992701
0.00014831471 0.0035000001 -0.0051715327
0.0014337088 -0.00064084504 -0.0093102194
0.0019280912 0.0028098591 -0.0088175181
0.0034112383 -0.0017253521 -0.006058394
-0.0034112383 -0.00054225355 -0.0023138686
-0.0028179793 -0.00034507041 -0.0081277369
-0.00054382061 -0.0028098591 -0.0033978103
0.0027191029 -0.0013309859 -0.0034963503
0.0033123617 0.00083802815 -0.0053686132
0.00024719117 0.0021197184 -0.0032007298
-0.0010382029 -0.0035000001 -0.0062554744
0.0026202265 4.9295773e-05 -0.0033978103
-0.0037078676 0.00014788733 0.0007408759
0.0020269677 -0.0023169015 -0.0037919709
0.00074157352 0.0007394366 -0.0032007298
-0.0012359559 -0.0007394366 -0.009408759
-0.0012359559 -0.00083802815 -0.0033978103
0.0018292147 0.0028098591 -0.0036934307
-0.0039056207 -0.00014788733 0.00014963503
0.00054382061 0.0018239437 -0.0096058398
0.00074157352 0.0035000001 -0.0064525548
0.00014831471 0.0035000001 -0.0066496353
-0.0036089912 -0.0016267606 -0.0022153284
-0.0033123617 0.0011338028 -0.0048759123
0.0004449441 -0.0018239437 -0.0097043794
0.00014831471 0.0031056339 -0.0036934307
