# .PCD v0.7 - Point Cloud Data file format
VERSION 0.7
FIELDS x y z
SIZE 4 4 4
TYPE F F F
COUNT 1 1 1
WIDTH 1214
HEIGHT 1
VIEWPOINT 0 0 0 1 0 0 0
POINTS 1214
DATA ascii
0.0049704723 -0.0019 -0.002810606
-0.00044291338 -0.0019 -0.0018257576
-0.0048720473 0.0020000001 -0.0077348487
0.0045767715 0.0020000001 -0.0088181822
0.0025098426 0.0020000001 -0.002810606
0.0025098426 -0.0020000001 -0.0063560605
-0.0048720473 9.9999997e-05 0.0011287879
-0.00083661417 0.0020000001 -0.0026136364
-0.0010334646 -0.0019 -0.0077348487
-0.0062500001 0.00060000003 -0.0080303028
0.0050688977 -0.00069999998 -0.0098030306
-0.0045767715 0.0020000001 -0.0058636363
0.0018208661 -0.0016 -0.0098030306
-0.0029035434 0.0020000001 -0.0030075759
0.0041830707 -0.0020000001 -0.0010378788
0.0045767715 0.0020000001 -0.0021212122
-0.0052657481 0.0020000001 -0.0043863636
-0.0043799211 -0.0020000001 -0.0072424244
0.0031003938 -0.0020000001 -0.0041893939
0.0060531497 -0.0018 -0.0013333333
-0.0031003938 0.0020000001 -0.007340909
-0.0037893702 -0.0020000001 -0.0027121212
0.001230315 -0.0019 -0.0045833332
0.0055610235 -0.001 -0.0098030306
-0.0024114174 -0.0014 -0.0098030306
0.0055610235 0 -0.0098030306
0.003198819 -0.00019999999 -0.00054545456
0.0034940946 -0.0020000001 -0.0026136364
0.0060531497 -0.0018 -0.0024166666
-0.0062500001 -9.9999997e-05 -0.0010378788
-0.0039862203 0.0020000001 -0.0031060607
0.00054133858 0.0020000001 -0.0093106059
0.0062500001 -0.00019999999 -0.00084090908
-0.0021161418 0.0020000001 -0.0038939393
0.0017224409 0.0020000001 -0.0044848486
0.001230315 0.001 -0.00054545456
0.0059547243 0.0020000001 -0.0054696971
0.0026082678 -0.0013 -0.0098030306
0.0034940946 -0.0020000001 -0.001530303
-0.0045767715 0.0020000001 -0.0072424244
0.0060531497 -0.0018 -0.0049772728
0.0032972442 -0.0020000001 -0.0023181818
0.0053641731 0.001 -0.0004469697
-0.0060531497 0.0019 -0.0032045455
-0.0025098426 0.0020000001 -0.0048787878
-0.0050688977 9.9999997e-05 0.00043939395
-0.0017224409 0.0020000001 -0.0014318182
0.0048720473 0.00019999999 0.0019166666
0.0041830707 -0.0015 -0.00034848484
-0.0059547243 -0.0019 -0.0079318183
-0.0058562993 -0.0019 -0.0051742424
-0.00014763779 -0.0018 -0.0098030306
0.0062500001 0.00060000003 -0.0030075759
0.00063976378 -0.0019 -0.0068484847
0.0028051182 0.0020000001 -0.00074242422
-0.003690945 0.0020000001 -0.0029090908
0.0025098426 -0.0020000001 -0.0061590909
-0.0028051182 0.0011 -0.0004469697
0.0024114174 0.0020000001 -0.0020227272
0.0052657481 0.00069999998 -0.0004469697
0.001230315 0.0020000001 -0.0040909089
-0.0049704723 -0.00079999998 -0.0004469697
-0.0049704723 0.0012000001 -0.00054545456
0.0015255905 0.0020000001 -0.0041893939
-0.0020177166 0.00079999998 -0.0004469697
0.0037893702 0.00089999998 -0.0004469697
-0.0032972442 -0.0019 -0.0097045451
-0.0057578739 0.0019 -0.0030075759
-0.0061515747 -0.0018 -0.002219697
4.9212598e-05 -0.0019 -0.0025151516
-0.0048720473 0.0014 -0.0097045451
-0.0051673227 -0.0019 -0.0078333337
0.0038877954 -0.0013 -0.0098030306
0.0050688977 0.0019 -0.0098030306
-0.0045767715 0.0020000001 -0.00054545456
-0.0061515747 -0.0011 -0.0086212121
-0.0033956694 -0.0020000001 -0.002219697
0.0018208661 0.0020000001 -0.002219697
0.003198819 -0.0020000001 -0.0062575759
4.9212598e-05 -0.00050000002 -0.0099015152
0.00063976378 0.00019999999 -0.0099015152
0.0059547243 0.0020000001 -0.00064393942
0.0059547243 -0.0019 -0.0057651517
-0.002706693 -0.0020000001 -0.0044848486
0.0041830707 -0.0020000001 -0.0052727275
0.0021161418 -0.00050000002 -0.0098030306
-0.002706693 -0.0020000001 -0.0011363636
-0.0051673227 9.9999997e-05 0.0020151515
0.0055610235 0.0012000001 -0.00054545456
4.9212598e-05 0.0012000001 -0.0099015152
0.0044783466 -0.0020000001 -0.0032045455
-0.0043799211 -0.00030000001 -0.0004469697
0.0013287402 0.0020000001 -0.0058636363
0.0048720473 9.9999997e-05 0.0011287879
-0.001230315 0.0020000001 -0.0030075759
-0.0051673227 -0.001 -0.0098030306
-0.0061515747 0.0011 -0.0019242425
-0.0019192913 0.0020000001 -0.0094090905
0.00054133858 0.0020000001 -0.0035984849
0.0033956694 0.00039999999 -0.0098030306
-0.0029035434 0.0020000001 -0.0027121212
-0.00054133858 0.0020000001 -0.0056666667
0.0062500001 -0.00060000003 -0.002810606
-0.0039862203 0.0020000001 -0.0016287878
0.0062500001 -0.00019999999 -0.0096060606
-0.0042814962 -0.0020000001 -0.0059621213
0.00024606299 0.0020000001 -0.0033030303
0.0024114174 0.0020000001 -0.0036969697
0.003690945 -0.0011 -0.0004469697
0.0055610235 0.0020000001 -0.0023181818
-0.0048720473 0.00039999999 -0.0098030306
0.0047736219 -0.0019 -0.0018257576
0.0019192913 -0.0020000001 -0.0082272729
0.0029035434 -0.0020000001 -0.0030075759
-0.0051673227 -9.9999997e-05 0.0021136364
4.9212598e-05 0.0020000001 -0.0038939393
-0.0031003938 -0.0020000001 -0.0085227275
0.00014763779 0.0020000001 -0.0068484847
-0.003690945 0.00050000002 -0.00054545456
0.00014763779 0.0012000001 -0.0099015152
0.0051673227 0.0016 -0.00054545456
0.0059547243 -0.0019 -0.00084090908
0.0019192913 -0.0020000001 -0.0070454543
-0.0031003938 -0.0020000001 -0.0092121214
0.0020177166 0.0020000001 -0.0061590909
-0.0052657481 -0.0011 -0.0004469697
-0.0062500001 -9.9999997e-05 -0.0080303028
-0.002214567 0.0011 -0.0098030306
0.00034448819 0.0020000001 -0.0090151513
0.0061515747 -0.0017 -0.0087196967
0.0044783466 -0.0020000001 -0.0027121212
0.0062500001 0.00069999998 -0.0021212122
0.0044783466 -0.0020000001 -0.0083257575
-0.0029035434 0.0020000001 -0.0089166667
0.0062500001 -0.00030000001 -0.0065530301
-0.0032972442 0.0020000001 -0.0071439394
0.0062500001 -0.00050000002 -0.0075378786
0.0051673227 -0.0019 -0.0035984849
0.0010334646 0.0020000001 -0.0069469698
-0.0049704723 0.0020000001 -0.0086212121
-0.00083661417 0.0020000001 -0.0058636363
-0.0056594489 0.0019 -0.0054696971
0.0016240157 -0.00039999999 -0.0098030306
-0.0062500001 0.00019999999 -0.0040909089
-0.0010334646 0.0020000001 -0.0079318183
-0.0040846458 -0.00039999999 -0.0004469697
-0.0011318898 0.00039999999 -0.0099015152
-0.0031003938 0.0020000001 -0.0096060606
-0.0054625985 -0.0019 -0.00054545456
0.0061515747 0.0019 -0.0066515151
0.0062500001 0.001 -0.0045833332
0.0015255905 0 -0.0099015152
0.0011318898 0.0020000001 -0.00084090908
0.0062500001 0.00089999998 -0.0068484847
0.0047736219 0.0020000001 -0.0032045455
0.0037893702 0.0020000001 -0.0020227272
0.003690945 -0.0020000001 -0.0056666667
-0.0033956694 0.0020000001 -0.0025151516
-0.0045767715 -0.0020000001 -0.0065530301
-0.0048720473 0.0012000001 -0.00054545456
-0.0010334646 0.0012000001 -0.0004469697
0.0058562993 0.0020000001 -0.0039924243
-0.0046751969 -0.0020000001 -0.007340909
-0.00044291338 -0.0019 -0.0055681816
-0.0051673227 -0.0019 -0.0047803032
-0.00014763779 0.0020000001 -0.0036969697
0.0030019686 0.001 -0.0098030306
0.0062500001 -0.00089999998 -0.0077348487
-0.00024606299 -0.0019 -0.0044848486
-0.0062500001 -0.00019999999 -0.0026136364
0.0045767715 0.0020000001 -0.0080303028
0.0047736219 -0.0019 -0.0038939393
0.0013287402 -0.0020000001 -0.002810606
-0.0030019686 -0.0020000001 -0.0034015151
-0.002214567 -0.0020000001 -0.0036969697
-0.0053641731 -0.00079999998 -0.0098030306
0.0016240157 -0.0020000001 -0.002810606
0.0062500001 -0.001 -0.0034015151
0.0061515747 0.0018 -0.002219697
-0.00054133858 -0.0019 -0.0064545455
-0.0040846458 0.00060000003 -0.0004469697
0.0018208661 -0.0013 -0.0098030306
-0.0046751969 -0.0020000001 -0.0018257576
0.0031003938 -0.0020000001 -0.0032045455
0.0038877954 -0.0020000001 -0.0037954545
0.002214567 -0.0020000001 -0.0069469698
0.0042814962 -0.0020000001 -0.0018257576
-0.0018208661 -0.0020000001 -0.0025151516
0.00083661417 -0.0015 -0.00054545456
-0.003198819 -0.0020000001 -0.0023181818
0.0062500001 0.00069999998 -0.0030075759
0.0062500001 0 -0.0075378786
-0.0037893702 -0.0020000001 -0.0029090908
0.0018208661 -0.0020000001 -0.0087196967
0.0034940946 0.0020000001 -0.008424242
0.0029035434 -0.0020000001 -0.0069469698
-0.0047736219 0.0017 -0.00034848484
0.00044291338 0.00079999998 -0.0099015152
0.001230315 -0.0019 -0.0020227272
-0.00093503937 0.0020000001 -0.0071439394
0.0057578739 0.0014 -0.00054545456
0.00024606299 -0.0019 -0.0085227275
-0.0062500001 0.00019999999 -0.0041893939
-0.0039862203 0.0020000001 -0.0020227272
-0.0061515747 -0.0018 -0.0034015151
-0.0031003938 0.0020000001 -0.0050757574
0.0010334646 -0.00019999999 -0.0099015152
-0.00063976378 0.0012000001 -0.0098030306
-0.0014271653 0.0020000001 -0.0077348487
-0.0024114174 0.0017 -0.0097045451
0.0025098426 -0.0013 -0.0098030306
0.0062500001 -0.00060000003 -0.0089166667
-0.0023129922 -0.0020000001 -0.0025151516
-0.0030019686 -0.0020000001 -0.0010378788
-0.002214567 0.0018 -0.0098030306
-0.0025098426 0.0016 -0.00015151515
-0.0021161418 0.0020000001 -0.0048787878
0.0043799211 0.0020000001 -0.0019242425
0.0062500001 0.0013 -0.0068484847
0.0058562993 0.0020000001 -0.0058636363
0.0024114174 -0.0020000001 -0.00084090908
-0.0031003938 -0.0016 -0.0098030306
-0.0061515747 0.0011 -0.0038939393
-0.0025098426 0.0020000001 -0.00093939394
-0.0017224409 -0.0020000001 -0.0076363636
-0.0030019686 -0.0020000001 -0.0062575759
0.0019192913 -0.001 -0.0004469697
-0.0040846458 -0.0020000001 -0.0031060607
0.0051673227 9.9999997e-05 0.0019166666
0.0037893702 0.0020000001 -0.0062575759
0.0038877954 0.0020000001 -0.0088181822
-0.0062500001 -0.00030000001 -0.0031060607
0.0054625985 0.0020000001 -0.0057651517
0.0046751969 -0.0019 -0.0070454543
0.002214567 -0.0020000001 -0.002810606
0.00014763779 -0.0019 -0.0031060607
0.0024114174 0.0020000001 -0.0027121212
-0.0021161418 0.0012000001 -0.0098030306
0.0021161418 -0.0020000001 -0.0062575759
-0.0062500001 0.0011 -0.0010378788
-0.0044783466 -0.0014 -0.0004469697
0.0013287402 -0.00060000003 -0.0004469697
0.0051673227 9.9999997e-05 0.0012272727
-0.0062500001 -9.9999997e-05 -0.0030075759
-0.0014271653 0.0020000001 -0.0014318182
0.0018208661 0.0014 -0.0004469697
0.002706693 -0.0020000001 -0.0018257576
0.0010334646 -0.0019 -0.0059621213
0.0051673227 -0.0019 -0.0058636363
-0.0061515747 -0.0018 -0.00084090908
-0.0035925198 -0.0020000001 -0.0057651517
0.0015255905 -0.0020000001 -0.0051742424
-0.00063976378 0.00039999999 -0.00054545456
-0.0013287402 0.0020000001 -0.0065530301
0.0043799211 0.0020000001 -0.0035984849
-0.0041830707 -0.00039999999 -0.0098030306
-0.00083661417 0.0020000001 -0.00064393942
0.0038877954 0.00030000001 -0.0098030306
0.00073818897 0.0020000001 -0.004287879
-0.0062500001 -0.00039999999 -0.0070454543
-0.0014271653 -0.0016 -0.00054545456
-0.0061515747 -0.0011 -0.0021212122
-0.0019192913 -0.00079999998 -0.0004469697
-0.0044783466 0.0020000001 -0.00093939394
0.0015255905 0.00019999999 -0.00054545456
0.0042814962 0.0020000001 -0.002810606
-0.0019192913 -0.0020000001 -0.0035984849
0.0048720473 -9.9999997e-05 0.0017196969
-0.001230315 -0.0019 -0.005371212
-0.0062500001 0.00019999999 -0.0018257576
-0.003198819 0.0020000001 -0.0085227275
0.0062500001 -0.0012000001 -0.0057651517
-0.0062500001 0.00060000003 -0.0046818182
0.0035925198 0.0020000001 -0.0029090908
0.00014763779 -0.0019 -0.008424242
0.0060531497 0.0019 -0.0062575759
-0.0019192913 -0.0020000001 -0.0039924243
0.0025098426 0.0020000001 -0.0055681816
-0.00083661417 0.0018 -0.0098030306
-0.0044783466 -0.0020000001 -0.0096060606
0.002214567 0.0020000001 -0.0045833332
-0.0052657481 -0.0019 -0.0036969697
-0.0057578739 0.0019 -0.0087196967
-0.0038877954 -0.0020000001 -0.0086212121
0.0029035434 -0.0020000001 -0.009507576
0.0062500001 0.00019999999 -0.0020227272
-0.0029035434 -0.0020000001 -0.0066515151
-0.0018208661 0.0020000001 -0.0033030303
-0.0024114174 -0.0020000001 -0.0038939393
-0.0052657481 0.00030000001 -0.0004469697
-0.0017224409 0.0020000001 -0.0067500002
-0.0053641731 -0.0019 -0.0048787878
-0.0023129922 0.0020000001 -0.0020227272
0.002706693 -0.00030000001 -0.0098030306
0.0055610235 0.0020000001 -0.0093106059
-0.0030019686 -0.0020000001 -0.008424242
-0.0047736219 -0.0020000001 -0.0020227272
0.0051673227 0.0020000001 -0.0052727275
-0.0062500001 0.001 -0.0011363636
-0.0062500001 0 -0.0016287878
0.003198819 0.0020000001 -0.0063560605
0.0039862203 -0.0013 -0.0004469697
-0.0051673227 0 0.0028030302
-0.0054625985 0.0020000001 -0.0020227272
-0.00044291338 -0.0019 -0.0093106059
0.0044783466 0.0020000001 -0.0061590909
-0.003690945 0.00069999998 -0.00054545456
0.0051673227 -9.9999997e-05 0.0027045454
-0.0060531497 0.00079999998 -0.00054545456
-0.0039862203 -0.00089999998 -0.0098030306
-0.0062500001 0.00079999998 -0.0026136364
0.00093503937 0.0013 -0.00054545456
-0.0038877954 0.0020000001 -0.0033030303
0.0030019686 0.0020000001 -0.0061590909
0.0010334646 0.0020000001 -0.0020227272
-0.00093503937 -0.0019 -0.0030075759
-0.0043799211 -0.0020000001 -0.0089166667
-0.0062500001 0.00069999998 -0.0026136364
-0.00034448819 0.0017 -0.00054545456
0.0046751969 -0.0019 -0.0090151513
-0.0062500001 -0.00019999999 -0.0052727275
0.00063976378 0.0020000001 -0.0060606059
-0.0045767715 -0.0020000001 -0.0088181822
-0.0015255905 0.00030000001 -0.00054545456
-0.0041830707 -0.0016 -0.00015151515
0.0031003938 0.0020000001 -0.0030075759
-4.9212598e-05 -0.0013 -0.0004469697
-0.0028051182 0.0020000001 -0.004287879
0.0039862203 9.9999997e-05 -0.0004469697
-0.0062500001 0.00019999999 -0.007439394
0.0062500001 0 -0.0059621213
-0.0014271653 -0.0020000001 -0.0068484847
-0.0034940946 -0.0020000001 -0.0052727275
-0.0055610235 0.0014 -0.00054545456
0.0062500001 0.00060000003 -0.0064545455
0.003198819 0.00079999998 -0.0098030306
0.0053641731 0.0020000001 -0.0096060606
-0.0057578739 0.0014 -0.00054545456
0.0021161418 -0.0020000001 -0.0048787878
0.0056594489 0.0020000001 -0.00093939394
0.0023129922 -0.0020000001 -0.0021212122
-0.0029035434 -0.0020000001 -0.0024166666
-0.0061515747 -0.0017 -0.0066515151
0.0024114174 -0.00050000002 -0.0098030306
0.0047736219 -0.0012000001 -0.00054545456
0.0033956694 -0.0019 -0.00015151515
-0.0020177166 0.0018 -0.0004469697
-0.0049704723 -0.0020000001 -0.0093106059
0.0062500001 0.0012000001 -0.0055681816
0.0062500001 -0.00039999999 -0.00054545456
0.0043799211 0.0019 -0.0097045451
-0.0048720473 0 0.00043939395
0.0055610235 0.00060000003 -0.0098030306
0.0042814962 0.00050000002 -0.0098030306
-0.0050688977 9.9999997e-05 0.0026060606
0.001230315 -0.00039999999 -0.0099015152
-0.003690945 0.0020000001 -0.009507576
0.0044783466 -0.0020000001 -0.0056666667
-0.0062500001 -0.00079999998 -0.0013333333
0.0032972442 -0.0020000001 -0.0070454543
-0.0059547243 -0.0012000001 -0.00054545456
0.00024606299 0.00060000003 -0.00054545456
0.00083661417 0.0020000001 -0.0049772728
-0.0035925198 0.0020000001 -0.0041893939
0.0034940946 -0.0020000001 -0.0048787878
-0.0062500001 -0.00069999998 -0.0081287883
-0.0019192913 0 -0.0004469697
0.0062500001 -0.00079999998 -0.0052727275
-4.9212598e-05 0.00039999999 -0.00054545456
0.0016240157 0.00050000002 -0.0099015152
0.0062500001 -0.00089999998 -0.0076363636
-0.0011318898 -0.0019 -0.0066515151
-0.0061515747 0.0017 -0.0032045455
-0.00093503937 0.0020000001 -0.00093939394
-0.0051673227 0.0019 -0.002810606
0.0050688977 0.0020000001 -0.0057651517
0.0062500001 -0.001 -0.0091136368
-0.0062500001 -0.00079999998 -0.0011363636
-0.0035925198 0.0020000001 -0.0032045455
-0.0061515747 -0.0016 -0.0076363636
0.0049704723 -9.9999997e-05 0.0018181818
-0.00014763779 -0.0019 -0.0030075759
0.0062500001 -0.00019999999 -0.0059621213
-0.0061515747 -0.0012000001 -0.0069469698
-0.0018208661 -0.0020000001 -0.0034015151
0.0061515747 0.00089999998 -0.00054545456
0.0024114174 -0.0020000001 -0.002219697
0.0054625985 -0.0019 -0.0087196967
0.0046751969 -0.0019 -0.0023181818
0.0024114174 -0.0020000001 -0.0094090905
0.0017224409 -0.0020000001 -0.0047803032
0.0053641731 -0.0019 -0.0011363636
0.0062500001 -0.0012000001 -0.0037954545
-0.0033956694 -0.0020000001 -0.0096060606
0.00054133858 0.0020000001 -0.0038939393
-0.0041830707 -0.0020000001 -0.0011363636
-0.0025098426 -0.001 -0.0098030306
-0.0045767715 0.00069999998 -0.0098030306
-0.0056594489 0.0020000001 -0.0034015151
-0.0039862203 -0.0020000001 -0.0091136368
0.0051673227 9.9999997e-05 0.0025075758
0.0062500001 0 -0.0017272728
0.002706693 0.00030000001 -0.0004469697
0.0037893702 0.0020000001 -0.0055681816
0.0042814962 0.0020000001 -0.0029090908
-0.0061515747 0.001 -0.0059621213
-0.0062500001 0 -0.0051742424
-0.003198819 -0.0020000001 -0.0059621213
-0.00063976378 -0.0019 -0.007439394
0.0043799211 -0.0020000001 -0.00074242422
0.0030019686 0.00039999999 -0.0098030306
-0.0025098426 0.0020000001 -0.0080303028
-0.0018208661 0.0019 -0.0004469697
0.0030019686 -0.0020000001 -0.0064545455
-0.0059547243 0.0019 -0.0035000001
-0.0050688977 -0.0020000001 -0.0062575759
0.0035925198 -0.0020000001 -0.00064393942
0.0026082678 0.0020000001 -0.0064545455
-0.0019192913 -0.0020000001 -0.0094090905
0.0054625985 -0.0019 -0.0038939393
0.0016240157 0.0020000001 -0.00084090908
0.0042814962 -0.00069999998 -0.0098030306
0.0042814962 0.00069999998 -0.0098030306
0.0040846458 -0.0020000001 -0.0019242425
0.0011318898 0.0020000001 -0.0043863636
-0.0046751969 0.0012000001 -0.0004469697
-0.0045767715 -0.001 -0.0098030306
0.0016240157 -0.0020000001 -0.009507576
0.0062500001 -0.00030000001 -0.0025151516
-0.0062500001 0.0016 -0.0096060606
0.0018208661 0.0020000001 -0.0051742424
-0.0032972442 0.0020000001 -0.00054545456
-0.0015255905 0.00050000002 -0.00054545456
0.00044291338 0.0020000001 -0.0075378786
-0.0019192913 0.0020000001 -0.0011363636
0.0058562993 -0.0019 -0.0085227275
0.0041830707 0.0020000001 -0.0036969697
-0.0061515747 -0.0012000001 -0.0027121212
-0.00044291338 -0.0019 -0.0069469698
-0.0021161418 -0.00039999999 -0.0099015152
0.0031003938 0.00069999998 -0.0098030306
-0.0062500001 -0.00089999998 -0.0013333333
0.00024606299 -0.00089999998 -0.00054545456
-0.0049704723 0.0020000001 -0.007340909
0.0021161418 0.0018 -0.0004469697
0.0024114174 0.0020000001 -0.0054696971
-0.0061515747 -0.0018 -0.0076363636
0.0026082678 -0.0020000001 -0.002810606
0.0015255905 0.0020000001 -0.0051742424
-0.0018208661 -0.0012000001 -0.00054545456
-0.0060531497 -0.00060000003 -0.0098030306
0.0039862203 -0.0020000001 -0.0012348485
0.0037893702 -0.0020000001 -0.0078333337
0.0062500001 0.00089999998 -0.0036969697
-0.003690945 0.00089999998 -0.0098030306
-0.0031003938 0.0020000001 -0.0004469697
-0.00014763779 -0.0019 -0.0035000001
0.0062500001 0.0014 -0.0019242425
-0.0014271653 0.0020000001 -0.0062575759
-0.0061515747 -0.0018 -0.0038939393
0.0062500001 0.00019999999 -0.0030075759
0.002214567 -0.0020000001 -0.0039924243
-0.0026082678 -0.0020000001 -0.0013333333
-0.0028051182 0.00069999998 -0.0004469697
0.0062500001 -0.0011 -0.0083257575
-0.0061515747 -0.00019999999 -0.00054545456
-0.0023129922 0.0020000001 -0.00054545456
0.0025098426 -0.0020000001 -0.00093939394
0.0034940946 -0.0020000001 -0.00084090908
-0.001230315 -0.0019 -0.0075378786
0.0062500001 0.0016 -0.0086212121
0.0032972442 0.0013 -0.0098030306
4.9212598e-05 -0.0019 -0.0093106059
-0.0019192913 -0.0020000001 -0.0017272728
-0.00073818897 -0.0019 -0.0058636363
0.0011318898 0.0020000001 -0.00054545456
0.0062500001 0.001 -0.0027121212
0.0062500001 -0.0013 -0.0085227275
-0.0024114174 0.00039999999 -0.0004469697
0.002214567 0.0020000001 -0.0040909089
-0.0051673227 0 0.0016212121
-0.00054133858 -0.0019 -0.0036969697
0.0056594489 -0.0013 -0.00054545456
-0.0028051182 0.0020000001 -0.0081287883
-0.0062500001 -0.00089999998 -0.0020227272
-0.003690945 0.0020000001 -0.0081287883
-0.00034448819 -0.0019 -0.0097045451
0.0045767715 -0.0020000001 -0.0070454543
0.0062500001 0.0011 -0.0063560605
0.0046751969 -0.0018 -0.00034848484
-0.0051673227 -0.0019 -0.0088181822
0.0050688977 0.0020000001 -0.0096060606
-0.0010334646 0.001 -0.0004469697
-0.0015255905 -0.0012000001 -0.00054545456
0.0038877954 -0.001 -0.0098030306
-0.0047736219 -0.00030000001 -0.0098030306
-0.0011318898 0.0020000001 -0.00093939394
0.0011318898 0.0020000001 -0.0037954545
0.0062500001 -9.9999997e-05 -0.0056666667
0.0062500001 0.00039999999 -0.0011363636
0.00014763779 -0.0012000001 -0.0099015152
-0.0039862203 -0.0020000001 -0.0016287878
-0.0052657481 0.0019 -0.0071439394
-0.0032972442 -0.0020000001 -0.0079318183
0.0019192913 -0.0020000001 -0.0048787878
-0.00054133858 0.0020000001 -0.0027121212
0.00024606299 0.0020000001 -0.0080303028
0.00073818897 0.0018 -0.0097045451
-0.0062500001 0 -0.0046818182
0.0049704723 -0.0012000001 -0.00054545456
-0.0062500001 -0.00039999999 -0.0065530301
0.0035925198 -0.00030000001 -0.0004469697
0.0024114174 0.00039999999 -0.0004469697
-0.0021161418 -0.0020000001 -0.00054545456
0.0050688977 0.0020000001 -0.002810606
0.0062500001 0.00050000002 -0.0029090908
-0.0042814962 -0.0020000001 -0.0032045455
0.0050688977 -0.00039999999 -0.0004469697
0.0058562993 -0.0019 -0.0012348485
-0.0031003938 0.00019999999 -0.0098030306
-0.0015255905 -0.0020000001 -0.00093939394
-0.00034448819 -0.0018 -0.00054545456
0.0033956694 0.0020000001 -0.0098030306
0.0062500001 -0.0012000001 -0.00054545456
-0.0010334646 0.00079999998 -0.00054545456
-0.0061515747 0.0018 -0.0035984849
-0.0020177166 -0.0020000001 -0.00093939394
0.0054625985 0.00050000002 -0.00054545456
-0.0046751969 -0.00050000002 -0.0004469697
0.0020177166 -9.9999997e-05 -0.0004469697
-0.0045767715 0.0020000001 -0.0044848486
0.0062500001 -0.00079999998 -0.0033030303
0.0045767715 0.0020000001 -0.0091136368
-0.0062500001 -0.00060000003 -0.0097045451
-0.0029035434 0.0020000001 -0.0036969697
0.0023129922 -0.0020000001 -0.0092121214
0.0047736219 0.0020000001 -0.0016287878
0.0062500001 0.0012000001 -0.0052727275
0.0035925198 -0.0020000001 -0.0079318183
-0.0055610235 -0.0019 -0.0012348485
0.0062500001 0.0015 -0.0070454543
0.0051673227 -9.9999997e-05 0.00073484849
0.001230315 0.0020000001 -0.0029090908
-0.0025098426 -0.00079999998 -0.0098030306
-0.00073818897 0.0020000001 -0.008424242
-0.0010334646 -0.0019 -0.00084090908
-0.0043799211 -0.0020000001 -0.002219697
0.0028051182 -0.0020000001 -0.0019242425
-0.00083661417 0.0020000001 -0.009507576
0.0019192913 0.0014 -0.0098030306
-0.0061515747 -0.0011 -0.0035984849
-0.0024114174 -0.0020000001 -0.0071439394
-0.0011318898 -0.0018 -0.0098030306
-0.0039862203 -0.0020000001 -0.0039924243
-0.0062500001 -0.00069999998 -0.005371212
0.0040846458 0.0020000001 -0.0038939393
-0.0033956694 -0.00089999998 -0.0004469697
-0.0034940946 0.0020000001 -0.0030075759
0.0060531497 -0.0012000001 -0.00054545456
-0.0043799211 -0.0020000001 -0.0066515151
0.0044783466 -0.0019 -0.0004469697
-0.0062500001 0.00060000003 -0.0090151513
-0.003690945 0.0020000001 -0.0078333337
-0.0060531497 0.0019 -0.0017272728
0.0055610235 0.0020000001 -0.002219697
0.00014763779 -0.0019 -0.0092121214
-0.0016240157 -0.0020000001 -0.0090151513
-0.0030019686 -0.00050000002 -0.0099015152
0.00073818897 0.0020000001 -0.007340909
-0.0033956694 0.0020000001 -0.0065530301
-0.0051673227 0.0019 -0.0096060606
-0.003198819 -0.0020000001 -0.0040909089
0.0048720473 -0.0019 -0.00054545456
0.0062500001 -0.0011 -0.0024166666
0.0018208661 0.0019 -0.00054545456
0.0025098426 0.0020000001 -0.0067500002
0.0014271653 -0.0020000001 -0.0039924243
0.0048720473 -0.0019 -0.0049772728
0.0024114174 -0.0020000001 -0.0089166667
0.0057578739 0.0020000001 -0.0083257575
0.0042814962 -0.0019 -0.0004469697
0.0062500001 9.9999997e-05 -0.0018257576
-0.002706693 -0.0020000001 -0.0036969697
-0.0013287402 0.0020000001 -0.002810606
0.0062500001 -0.00089999998 -0.0051742424
-0.0061515747 0.0016 -0.0035984849
0.0039862203 -0.0020000001 -0.0029090908
-0.0062500001 -0.00019999999 -0.0040909089
0.0042814962 0.0020000001 -0.0036969697
-0.001230315 -0.0018 -0.0098030306
-0.0014271653 -0.0020000001 -0.0085227275
0.0062500001 0.0013 -0.0043863636
0.001230315 -0.0019 -0.0024166666
0.0062500001 -0.0016 -0.0021212122
-0.0057578739 0.00039999999 -0.00054545456
-0.00093503937 0.0019 -0.00054545456
-0.00024606299 0.0020000001 -0.0038939393
-0.0062500001 -0.00060000003 -0.007439394
0.0059547243 -0.0015 -0.0097045451
0.0043799211 -0.0020000001 -0.0048787878
-0.0061515747 0.0016 -0.0043863636
-0.0034940946 -0.0020000001 -0.0020227272
0.0025098426 0.00089999998 -0.0098030306
0.0010334646 -0.0019 -0.00054545456
0.0058562993 0.0012000001 -0.00054545456
-0.0062500001 0.0016 -0.0094090905
0.0046751969 0.0020000001 -0.0034015151
0.0062500001 0.00069999998 -0.0014318182
0.0042814962 -0.0020000001 -0.0068484847
0.00083661417 9.9999997e-05 -0.00054545456
0.0017224409 0.0013 -0.0098030306
-0.0010334646 -0.0019 -0.0047803032
0.0056594489 0.0020000001 -0.0067500002
-0.0061515747 -0.0011 -0.008424242
0.0026082678 -0.0020000001 -0.00025000001
0.0010334646 0.0020000001 -0.0021212122
-0.0057578739 0.0020000001 -0.0026136364
0.0053641731 0.0020000001 -0.0057651517
-0.0014271653 -0.00089999998 -0.00054545456
0.0045767715 -0.0020000001 -0.0096060606
-0.001230315 -0.0019 -0.0051742424
-0.0049704723 0.0018 -0.00054545456
0.0018208661 0.0020000001 -0.0069469698
-0.0039862203 -0.0011 -0.0098030306
0.0034940946 -0.0020000001 -0.0036969697
0.003690945 -0.0020000001 -0.0012348485
0.00044291338 -0.0016 -0.00054545456
0.003198819 -0.0020000001 -0.0045833332
0.0020177166 0.0020000001 -0.0089166667
0.0043799211 0.0020000001 -0.0017272728
-0.0046751969 -0.0020000001 -0.0039924243
-0.00073818897 0.0011 -0.00054545456
-0.0045767715 -0.0020000001 -0.0067500002
0.0045767715 0.0020000001 -0.0023181818
0.0062500001 0.00039999999 -0.0065530301
0.0026082678 0.00069999998 -0.0099015152
-0.0011318898 0.0020000001 -0.0068484847
-0.0025098426 0.0020000001 -0.0026136364
0.0062500001 0.00039999999 -0.0083257575
-0.0040846458 0.0020000001 -0.001530303
0.0019192913 -0.0020000001 -0.0046818182
0.0037893702 -0.0020000001 -0.0035984849
0.0017224409 -0.0020000001 -0.0049772728
0.0062500001 -0.0016 -0.0088181822
-0.0032972442 -0.0020000001 -0.0057651517
0.0054625985 0.0020000001 -0.0014318182
-0.0051673227 -0.0017 -0.00054545456
0.0046751969 -0.0019 -0.0052727275
-0.0059547243 0.001 -0.00054545456
-0.0034940946 0.0020000001 -0.0086212121
0.0018208661 0.0018 -0.00054545456
-0.0062500001 -9.9999997e-05 -0.0057651517
-0.0062500001 -0.00039999999 -0.0010378788
-0.00044291338 0.0020000001 -0.0013333333
-0.0058562993 -0.00079999998 -0.0098030306
-0.00073818897 0.00089999998 -0.00054545456
0.0052657481 -0.0014 -0.00054545456
-0.00014763779 0.0020000001 -0.0030075759
-0.0020177166 -0.0020000001 -0.0031060607
-0.0062500001 0.0012000001 -0.0090151513
0.0020177166 -0.0012000001 -0.0004469697
-0.0061515747 0.0016 -0.0035000001
-0.00083661417 0.0020000001 -0.0055681816
0.0062500001 9.9999997e-05 -0.0024166666
-0.0057578739 -0.0019 -0.0024166666
0.0050688977 0.0020000001 -0.0059621213
0.00044291338 -0.0017 -0.0098030306
-0.0052657481 -0.0019 -0.001530303
-0.0047736219 -0.0020000001 -0.0087196967
0.0042814962 -0.0013 -0.0004469697
4.9212598e-05 0.00039999999 -0.00054545456
0.00024606299 -0.0019 -0.004287879
0.0024114174 0.0020000001 -0.0059621213
-0.003198819 0.0020000001 -0.0047803032
0.0062500001 -0.00089999998 -0.004287879
-0.0030019686 0.0020000001 -0.0024166666
-0.0047736219 0.0020000001 -0.0066515151
0.0028051182 0.0020000001 -0.0081287883
-0.0062500001 -0.00030000001 -0.0082272729
-0.0046751969 -0.0020000001 -0.0024166666
-0.0015255905 0.0020000001 -0.0040909089
-0.002214567 0.0020000001 -0.00084090908
-4.9212598e-05 -0.0019 -0.0050757574
-0.002214567 0.0020000001 -0.0090151513
-0.0060531497 0.0019 -0.0019242425
-0.0026082678 0.0020000001 -0.0058636363
-0.0062500001 -0.00060000003 -0.0062575759
-0.0040846458 -0.0020000001 -0.0062575759
-0.0017224409 0.0020000001 -0.0080303028
0.0048720473 0.0020000001 -0.0062575759
-0.0034940946 0.0020000001 -0.007340909
0.0011318898 -0.0019 -0.00084090908
0.0051673227 -0.0015 -0.00054545456
-0.0038877954 0.00050000002 -0.00054545456
0.0062500001 0.0012000001 -0.0072424244
0.0062500001 -0.0012000001 -0.0068484847
0.0042814962 -0.00030000001 -0.0004469697
0.002706693 -0.00069999998 -0.00054545456
-0.0039862203 0.0020000001 -0.0017272728
0.0031003938 0 -0.00054545456
0.0049704723 -0.0019 -0.0090151513
0.0019192913 -0.0020000001 -0.0089166667
0.0054625985 0.0020000001 -0.0017272728
-0.00034448819 -0.0019 -0.0069469698
-0.0062500001 0.00030000001 -0.0078333337
-0.0045767715 -0.0020000001 -0.002810606
0.0011318898 0.0020000001 -0.0088181822
0.0039862203 0.0020000001 -0.0090151513
0.0023129922 -0.0020000001 -0.0040909089
0.0062500001 0.00039999999 -0.001530303
0.0024114174 0.0020000001 -0.00084090908
-0.0057578739 0.0019 -0.00054545456
0.0062500001 -0.0013 -0.0040909089
-0.0046751969 0.0018 -0.0097045451
0.0029035434 0.0020000001 -0.007340909
0.0055610235 0.0020000001 -0.007340909
0.0044783466 -9.9999997e-05 -0.00025000001
0.00044291338 0.0020000001 -0.0041893939
0.0014271653 -0.0016 -0.00054545456
0.003198819 0.0013 -0.0098030306
0.0037893702 0.0020000001 -0.0011363636
-0.0061515747 -0.001 -0.0045833332
0.0048720473 -0.00019999999 -0.0098030306
0.0019192913 0.0020000001 -0.008424242
0.0041830707 0.0020000001 -0.0030075759
-0.0020177166 0.0020000001 -0.0027121212
0.0013287402 -0.0020000001 -0.0013333333
0.00024606299 -0.00039999999 -0.0099015152
0.0045767715 -0.0020000001 -0.0035984849
-0.0014271653 -0.00039999999 -0.0099015152
0.0056594489 0.0012000001 -0.0098030306
-0.0032972442 -0.0020000001 -0.008424242
0.0013287402 -0.0016 -0.0004469697
-0.0056594489 -0.0019 -0.009507576
0.0048720473 0.0020000001 -0.00054545456
0.0051673227 -0.0019 -0.00064393942
0.0019192913 -0.00079999998 -0.0098030306
-0.0034940946 -0.0020000001 -0.00034848484
0.0011318898 0.00089999998 -0.00054545456
0.0062500001 9.9999997e-05 -0.0014318182
0.0033956694 -0.0020000001 -0.005371212
-0.00044291338 -0.0019 -0.0048787878
0.0011318898 0.0020000001 -0.002219697
0.0021161418 0.0020000001 -0.0013333333
0.0062500001 -0.00079999998 -0.0089166667
0.0021161418 -0.0018 -0.0098030306
0.0039862203 -0.0020000001 -0.0096060606
0.0059547243 0.0017 -0.0098030306
0.0032972442 0.0020000001 -0.0025151516
-0.0062500001 0.00019999999 -0.00054545456
0.0048720473 0.0020000001 -0.0093106059
0.002706693 0.0020000001 -0.0094090905
0.0015255905 -0.0020000001 -0.0035000001
-0.0062500001 0.0012000001 -0.0093106059
-0.002214567 0.0013 -0.0098030306
-0.0062500001 0.00089999998 -0.0081287883
0.0062500001 -0.0016 -0.0066515151
0.0034940946 0.0020000001 -0.0026136364
-0.0061515747 -0.001 -0.0078333337
0.0062500001 -0.0013 -0.0072424244
0.0050688977 -0.00019999999 -0.0098030306
-0.0019192913 -0.0020000001 -0.0069469698
-4.9212598e-05 0.0020000001 -0.0038939393
-0.0029035434 0.0020000001 -0.0064545455
-0.0033956694 -0.0016 -0.00025000001
-0.0010334646 0.0020000001 -0.0062575759
-0.00073818897 0.0020000001 -0.0011363636
-0.0062500001 0.00069999998 -0.0085227275
0.0048720473 -0.0019 -0.0064545455
-0.00073818897 0.0020000001 -0.0046818182
-0.0051673227 0.0019 -0.0088181822
-0.0062500001 0.0015 -0.0093106059
-0.0058562993 -0.0019 -0.0093106059
-0.0055610235 -0.0013 -0.0004469697
0.00073818897 0.0020000001 -0.0078333337
0.0062500001 0.0011 -0.0018257576
0.00063976378 0.0020000001 -0.0019242425
-0.0042814962 -0.0020000001 -0.0094090905
-0.0050688977 -0.0018 -0.0004469697
0.0049704723 -0.0017 -0.0097045451
0.0013287402 0.0020000001 -0.0039924243
0.0052657481 0.0019 -0.0098030306
0.0020177166 0.0020000001 -0.0064545455
-0.0016240157 -0.00039999999 -0.0099015152
-0.0041830707 0 -0.0004469697
0.0015255905 0.0020000001 -0.00084090908
0.0047736219 0.0020000001 -0.0011363636
0.0062500001 -0.0013 -0.0026136364
0.0021161418 0.0020000001 -0.0051742424
0.0047736219 -0.0014 -0.0098030306
-0.0018208661 -0.0019 -0.0097045451
-0.0062500001 0.00030000001 -0.0058636363
0.0062500001 -0.0011 -0.0026136364
-0.0014271653 -0.0020000001 -0.0013333333
0.003198819 0.0020000001 -0.0049772728
-0.0061515747 -0.0018 -0.0036969697
0.0055610235 0.0020000001 -0.0082272729
-0.0050688977 0.0020000001 -0.0032045455
0.0039862203 0.00050000002 -0.0098030306
0.0034940946 0.0020000001 -0.0036969697
-0.0031003938 -0.0015 -0.0098030306
0.0024114174 -0.0017 -0.00025000001
0.00093503937 -0.00050000002 -0.00054545456
0.0062500001 0.0013 -0.0063560605
-0.0033956694 0.00050000002 -0.0098030306
-0.001230315 0.0020000001 -0.0037954545
-0.0047736219 -0.0013 -0.0098030306
0.0045767715 -0.0020000001 -0.0066515151
0.0060531497 -0.00089999998 -0.0098030306
-0.0048720473 -0.0020000001 -0.0054696971
0.0048720473 0.0020000001 -0.0064545455
-0.0035925198 0.0020000001 -0.0096060606
0.0055610235 0.00069999998 -0.0098030306
-0.0032972442 0.0020000001 -0.0086212121
-0.0062500001 -0.00060000003 -0.0030075759
0.003198819 0.0020000001 -0.00074242422
0.0062500001 -0.0011 -0.0076363636
-0.0061515747 -0.0018 -0.007340909
-0.0058562993 -0.00019999999 -0.00054545456
0.0047736219 -0.00079999998 -0.0098030306
-0.00063976378 -0.0019 -0.0064545455
0.0019192913 -0.0020000001 -0.0090151513
-0.0019192913 -0.0020000001 -0.0062575759
0.0057578739 -0.0019 -0.00074242422
-0.0010334646 -0.00050000002 -0.00054545456
-0.0018208661 0 -0.0098030306
-0.0020177166 -0.0020000001 -0.0061590909
0.0051673227 -0.00019999999 -0.0098030306
0.0062500001 0.00039999999 -0.0079318183
-0.0023129922 0.0020000001 -0.0083257575
-0.0026082678 0.0020000001 -0.0086212121
-0.0058562993 0.0019 -0.0078333337
0.0062500001 -0.0012000001 -0.0011363636
-0.0038877954 -0.0020000001 -0.0060606059
-0.0062500001 -0.00030000001 -0.0050757574
0.0062500001 0 -0.0057651517
-0.00014763779 0.0020000001 -0.0055681816
-0.0014271653 0.0011 -0.0004469697
-0.0039862203 0.00079999998 -0.00054545456
0.0057578739 -0.0019 -0.0058636363
0.0062500001 9.9999997e-05 -0.0031060607
-0.0043799211 -0.00030000001 -0.0098030306
0.0037893702 0.0020000001 -0.0066515151
-0.0033956694 -0.0020000001 -0.0046818182
0.0062500001 -0.00030000001 -0.0044848486
0.0026082678 -0.0020000001 -0.00064393942
-0.0060531497 0.0019 -0.0052727275
-0.0018208661 0.0020000001 -0.0037954545
-0.0032972442 0.0020000001 -0.0039924243
-0.0019192913 -0.0020000001 -0.0076363636
0.00063976378 -0.0019 -0.0080303028
-0.0048720473 -9.9999997e-05 4.5454544e-05
0.0062500001 0 -0.0071439394
0.0062500001 0.0015 -0.0062575759
-0.0025098426 0.0017 -0.0098030306
-0.0054625985 -0.00069999998 -0.00054545456
-0.00014763779 0.0020000001 -0.0018257576
-0.0062500001 9.9999997e-05 -0.0033030303
-0.00093503937 0.0020000001 -0.0035984849
0.00093503937 0.0020000001 -0.0026136364
0.0050688977 -0.0019 -0.0012348485
-0.0058562993 0.00030000001 -0.0098030306
0.0032972442 -0.0020000001 -0.0094090905
-0.0044783466 -0.0015 -0.00034848484
0.0015255905 0.0020000001 -0.00074242422
-0.0059547243 0.0016 -0.0097045451
0.00014763779 -0.0019 -0.0057651517
-0.00014763779 0.0020000001 -0.0077348487
0.0062500001 0.00089999998 -0.0040909089
-0.0048720473 -0.0020000001 -0.0063560605
-0.0048720473 0.0020000001 -0.0040909089
0.0029035434 0.001 -0.0004469697
0.0024114174 -0.0015 -0.00034848484
-0.0041830707 -0.0020000001 -0.0089166667
-0.002214567 0.0020000001 -0.00064393942
0.0046751969 0.0019 -0.0004469697
-0.0061515747 0.0013 -0.007439394
0.00054133858 -0.0019 -0.0043863636
-0.0038877954 0.0020000001 -0.0061590909
0.0050688977 -0.0019 -0.0075378786
-0.0049704723 -0.0020000001 -0.0089166667
-0.0058562993 0.0011 -0.00054545456
0.0054625985 0.0020000001 -0.0052727275
0.0023129922 -0.0020000001 -0.0090151513
0.0014271653 0.0020000001 -0.0060606059
0.0062500001 -0.00039999999 -0.0090151513
0.0026082678 0.00030000001 -0.0004469697
-0.0061515747 -0.0013 -0.0061590909
-0.0016240157 0.0019 -0.0004469697
-0.0062500001 -0.001 -0.00064393942
-0.0019192913 -0.00060000003 -0.0098030306
0.0034940946 -0.00030000001 -0.0004469697
0.0051673227 0 0.00073484849
0.0013287402 0.0020000001 -0.0030075759
-0.0037893702 -0.0020000001 -0.0066515151
0.00024606299 0.001 -0.00054545456
-0.0041830707 0.0020000001 -0.0033030303
-0.0028051182 -0.0020000001 -0.0072424244
0.0060531497 -0.0018 -0.0072424244
0.0015255905 -0.00050000002 -0.00054545456
-0.0062500001 0.0012000001 -0.009507576
-0.0031003938 0.00030000001 -0.0098030306
0.00063976378 -0.0019 -0.0052727275
-0.0058562993 0.0019 -0.00064393942
0.0028051182 0.0020000001 -0.0017272728
0.0031003938 9.9999997e-05 -0.0098030306
-0.0062500001 0.00019999999 -0.0023181818
-0.0049704723 0.0018 -0.0097045451
0.0039862203 -0.0020000001 -0.0047803032
0.0013287402 0.00050000002 -0.00054545456
0.0047736219 -0.0019 -0.0055681816
0.0062500001 9.9999997e-05 -0.0091136368
-0.0047736219 -0.0020000001 -0.0067500002
0.00034448819 -0.0019 -0.0011363636
-0.0062500001 0.0014 -0.0096060606
0.0026082678 -0.0020000001 -0.0064545455
-0.0041830707 -0.0015 -0.00034848484
-0.00044291338 -0.0019 -0.0077348487
0.0048720473 0.00089999998 -0.0004469697
-0.0062500001 -0.00019999999 -0.0010378788
-0.0050688977 -0.0020000001 -0.0034015151
-0.0010334646 -0.0011 -0.00054545456
0.0058562993 0.0020000001 -0.0061590909
0.003690945 -0.0020000001 -0.0071439394
0.0056594489 0.0020000001 -0.0091136368
0.00093503937 0.00060000003 -0.0099015152
-0.0024114174 0.0020000001 -0.0065530301
0.0061515747 -0.0017 -0.0091136368
-0.0057578739 -0.0019 -0.001530303
-0.0060531497 0.0019 -0.0067500002
0.0038877954 -0.0019 -0.00015151515
0.0050688977 0.0020000001 -0.0072424244
0.0011318898 -0.00019999999 -0.0099015152
0.0054625985 -0.00069999998 -0.0098030306
-0.0062500001 -0.00030000001 -0.0016287878
-0.00063976378 0.0020000001 -0.0029090908
-0.0062500001 -0.0012000001 -0.00084090908
-0.0052657481 -0.00050000002 -0.0004469697
0.0062500001 0.00079999998 -0.0040909089
0.0049704723 0.00019999999 0.0027045454
-0.00083661417 0.0020000001 -0.0024166666
-0.0061515747 0.0014 -0.0063560605
0.0062500001 -0.001 -0.0045833332
0.00014763779 -0.0019 -0.0088181822
-0.001230315 -0.0019 -0.0063560605
0.002214567 0.0020000001 -0.007340909
-0.0018208661 -0.0011 -0.00054545456
0.0062500001 0.00030000001 -0.0090151513
0.00093503937 0.0020000001 -0.0092121214
0.00014763779 -0.0019 -0.0040909089
-0.0035925198 -0.0013 -0.0004469697
-0.00083661417 -0.00069999998 -0.00054545456
0.0013287402 -0.00019999999 -0.0099015152
-0.0025098426 -0.0020000001 -0.0050757574
0.0050688977 0.00019999999 0.00043939395
0.0035925198 9.9999997e-05 -0.00054545456
-0.0061515747 -0.001 -0.001530303
0.003198819 0.0020000001 -0.001530303
0.00044291338 -0.0019 -0.0035000001
0.0045767715 0.0020000001 -0.0083257575
-0.0026082678 0.0020000001 -0.0061590909
-0.0033956694 -0.0020000001 -0.0019242425
0.0060531497 -0.0018 -0.0064545455
-0.0062500001 -0.00039999999 -0.0037954545
0.00093503937 0.0020000001 -0.0070454543
0.0015255905 -0.0020000001 -0.0068484847
-0.0061515747 -0.0015 -0.005371212
-0.0061515747 0.0018 -0.0031060607
0.0062500001 -0.00089999998 -0.0067500002
0.0028051182 0.0020000001 -0.0076363636
0.0016240157 0.0020000001 -0.0068484847
0.0024114174 -0.0011 -0.0098030306
0.003198819 -0.0020000001 -0.00074242422
-0.0062500001 -0.00060000003 -0.0021212122
0.0025098426 -0.00069999998 -0.0098030306
4.9212598e-05 0.0020000001 -0.0049772728
0.0045767715 -0.0019 -0.00054545456
0.0062500001 -0.0016 -0.005371212
0.0060531497 0.0019 -0.007439394
0.0055610235 0.0020000001 -0.0038939393
0.0019192913 0.0020000001 -0.0038939393
-0.0045767715 0.0020000001 -0.0045833332
-0.0037893702 -0.0020000001 -0.0025151516
-0.00024606299 0.0020000001 -0.0089166667
-0.0030019686 -0.0020000001 -0.0064545455
-0.0041830707 -0.0020000001 -0.0081287883
-0.0033956694 -0.00069999998 -0.0098030306
0.003198819 -0.0020000001 -0.0041893939
-0.0061515747 -0.0013 -0.004287879
-0.00093503937 0.00039999999 -0.00054545456
0.0015255905 -0.0020000001 -0.0023181818
-0.001230315 -0.0019 -0.0085227275
-0.00063976378 0.0020000001 -0.0049772728
-0.0025098426 0.0020000001 -0.0029090908
-0.00083661417 -0.0019 -0.0051742424
-0.0046751969 -0.0020000001 -0.0055681816
0.0047736219 -0.0019 -0.0043863636
0.0062500001 -9.9999997e-05 -0.0019242425
-0.002214567 0.0020000001 -0.0045833332
-0.003690945 -0.00069999998 -0.0004469697
-0.0037893702 -0.0020000001 -0.007439394
0.0031003938 -0.0020000001 -0.0068484847
0.0047736219 0.00019999999 -0.00034848484
-0.0018208661 0.0020000001 -0.0051742424
-0.00034448819 0.0020000001 -0.0087196967
-0.0050688977 -0.0020000001 -0.0066515151
-0.0042814962 -0.0020000001 -0.0018257576
0.0011318898 0.0020000001 -0.0089166667
0.0060531497 0.0019 -0.0032045455
0.0039862203 0.0020000001 -0.0023181818
0.0032972442 -0.0020000001 -0.0051742424
0.0035925198 0.0020000001 -0.0017272728
0.0013287402 -0.0019 -0.0004469697
-0.003198819 -0.0020000001 -0.0020227272
-0.0046751969 -0.0020000001 -0.0086212121
0.0045767715 0.00019999999 -0.0098030306
0.00073818897 -0.0019 -0.0040909089
0.0057578739 -0.0014 -0.0097045451
0.0041830707 -0.0020000001 -0.0064545455
0.0028051182 -0.0020000001 -0.0071439394
-0.0017224409 -0.0020000001 -0.0067500002
-0.0061515747 0.0014 -0.007340909
0.0041830707 0.0020000001 -0.0037954545
-0.0019192913 0.0020000001 -0.008424242
-0.002214567 -0.0020000001 -0.0094090905
-0.0017224409 0.0016 -0.0004469697
-0.0041830707 0.0020000001 -0.0034015151
0.0043799211 -0.00069999998 -0.00054545456
-0.0062500001 0.0015 -0.00084090908
-0.00054133858 0.0020000001 -0.00074242422
0.0034940946 -0.0020000001 -0.0014318182
-0.0015255905 0.0013 -0.0004469697
0.0011318898 0.0020000001 -0.0091136368
0.0050688977 0.0020000001 -0.0075378786
0.0062500001 0.00069999998 -0.0010378788
0.0046751969 -0.0019 -0.0032045455
-0.0054625985 -0.0019 -0.0060606059
0.0048720473 0.00019999999 0.0022121212
-0.0046751969 0.0020000001 -0.0033030303
0.0062500001 -0.00019999999 -0.0098030306
0.0050688977 0.0020000001 -0.0080303028
-0.0041830707 0.0020000001 -0.0063560605
-0.0061515747 0.0013 -0.0039924243
0.00024606299 0.0020000001 -0.0010378788
-0.0057578739 -0.0019 -0.0011363636
0.0062500001 -0.0016 -0.0039924243
0.0016240157 -9.9999997e-05 -0.0099015152
0.003198819 -0.0020000001 -0.0016287878
0.0018208661 0.0020000001 -0.00093939394
0.0016240157 -0.0020000001 -0.0071439394
0.00044291338 0.0020000001 -0.0014318182
0.0062500001 -0.00050000002 -0.007439394
0.0062500001 -0.0012000001 -0.0058636363
-0.0011318898 -0.0019 -0.0035000001
0.00034448819 0.0020000001 -0.0023181818
-0.0045767715 0.0020000001 -0.0027121212
-0.0034940946 0.0020000001 -0.0024166666
0.0061515747 0.0018 -0.0086212121
0.00093503937 -0.0019 -0.0068484847
-0.0053641731 0.0013 -0.00054545456
0.0053641731 0.00030000001 -0.0004469697
0.0056594489 0.0020000001 -0.0036969697
-0.0023129922 0.0020000001 -0.0045833332
-0.003198819 -0.0014 -0.0098030306
-0.0055610235 0.0019 -0.0091136368
0.0048720473 0.0020000001 -0.0087196967
-0.00063976378 0.0020000001 -0.0035000001
-0.0048720473 -0.0020000001 -0.0076363636
0.00014763779 0.0020000001 -0.0075378786
0.0062500001 -0.00079999998 -0.0034015151
-0.0041830707 -0.0020000001 -0.0020227272
0.0037893702 0.0020000001 -0.00084090908
-0.0013287402 -0.00039999999 -0.0099015152
0.0062500001 -0.00089999998 -0.0089166667
0.0060531497 -0.0018 -0.0082272729
-0.0011318898 0.0020000001 -0.0025151516
-0.00024606299 -0.0019 -0.0092121214
0.0060531497 -0.0018 -0.0069469698
-0.0020177166 0.0020000001 -0.0083257575
0.0014271653 -0.0020000001 -0.0038939393
-0.0028051182 0.0020000001 -0.0083257575
0.0042814962 9.9999997e-05 -0.0098030306
0.00044291338 -0.0019 -0.0088181822
-0.0062500001 -0.00069999998 -0.0041893939
-0.0030019686 0.001 -0.0004469697
0.0016240157 0.0020000001 -0.0064545455
-0.0016240157 0.0020000001 -0.0068484847
-0.0059547243 0.0015 -0.00054545456
0.0062500001 -0.00050000002 -0.0032045455
-0.0061515747 -0.0018 -0.0068484847
-0.0052657481 -0.001 -0.0004469697
0.0029035434 0.00069999998 -0.0098030306
-0.0060531497 -0.0019 -0.0051742424
0.0062500001 0.00050000002 -0.0045833332
-0.0020177166 -0.0020000001 -0.0068484847
-0.0062500001 0.00030000001 -0.0079318183
-0.0062500001 0 -0.0056666667
-0.0061515747 -0.0012000001 -0.001530303
-0.0058562993 -0.00089999998 -0.00054545456
0.0032972442 0.0020000001 -0.0094090905
0.0041830707 -0.0018 -5.3030304e-05
-0.0043799211 0.0020000001 -0.0014318182
0.0026082678 -0.0020000001 -0.0057651517
-0.0061515747 -0.0013 -0.0023181818
-0.0052657481 0.0019 -0.0076363636
-0.0035925198 0.0020000001 -0.0092121214
0.0049704723 0.0020000001 -0.0039924243
0.0041830707 -0.0020000001 -0.0046818182
-0.003198819 0.0020000001 -0.00025000001
-0.0059547243 -0.00069999998 -0.0098030306
-0.0062500001 0.0015 -0.0097045451
0.00034448819 0.0020000001 -0.0077348487
0.0042814962 -0.0020000001 -0.008424242
0.00063976378 0.0020000001 -0.0040909089
0.0040846458 0.0020000001 -0.0082272729
-0.0029035434 -9.9999997e-05 -0.0004469697
-0.00093503937 0.0020000001 -0.0046818182
0.00063976378 0.0020000001 -0.00084090908
0.0059547243 -0.0019 -0.0045833332
-0.002706693 0.0020000001 -0.00064393942
-0.0042814962 0.0020000001 -0.0031060607
0.0046751969 -0.0016 -0.0097045451
-0.0056594489 -0.0019 -0.0080303028
-0.0045767715 -0.0020000001 -0.0066515151
0.0051673227 -0.0017 -0.0097045451
-0.0030019686 0.0020000001 -0.0088181822
0.0019192913 0.0020000001 -0.0019242425
0.0019192913 -9.9999997e-05 -0.0004469697
-0.0058562993 0 -0.00054545456
0.0053641731 -0.0019 -0.0069469698
-0.0062500001 -0.00060000003 -0.0046818182
-0.0049704723 -0.0020000001 -0.0080303028
0.0061515747 0.0017 -0.0040909089
0.0026082678 -0.0020000001 -0.00034848484
0.0062500001 0.00039999999 -0.0085227275
-0.0041830707 0.0020000001 -0.009507576
-0.00054133858 0.0020000001 -0.001530303
-0.0015255905 0.00079999998 -0.0098030306
-0.0061515747 0.0016 -0.0082272729
-0.0062500001 0.00060000003 -0.0054696971
0.0013287402 0.0020000001 -0.0034015151
0.0047736219 0.00039999999 -0.0004469697
0.0048720473 9.9999997e-05 0.0027045454
-0.0024114174 -0.00019999999 -0.0098030306
-0.002706693 -0.0020000001 -0.0035000001
-0.00083661417 0.0020000001 -0.0013333333
-0.0051673227 0.001 -0.0098030306
0.0056594489 0.0020000001 -0.00074242422
0.00044291338 -0.0015 -0.0098030306
-0.0023129922 -0.0020000001 -0.0035000001
0.0058562993 0.0020000001 -0.0057651517
-0.0050688977 0.0020000001 -0.0093106059
-0.00063976378 -0.0019 -0.0025151516
0.0062500001 -0.001 -0.004287879
-0.0030019686 -0.0020000001 -0.0035000001
0.0055610235 0.0016 -0.00054545456
0.00093503937 -0.0019 -0.0038939393
-0.0062500001 -0.00079999998 -0.0061590909
-0.0062500001 -0.00019999999 -0.0014318182
0.0050688977 -9.9999997e-05 0.00083333335
-0.0016240157 0.0020000001 -0.0085227275
-0.0037893702 0.00060000003 -0.0098030306
0.0013287402 0.0020000001 -0.0033030303
0.002706693 -0.0020000001 -0.0048787878
0.0047736219 0.0020000001 -0.0017272728
-0.0057578739 0.0019 -0.0061590909
-0.002706693 0.0020000001 -0.0014318182
-0.0062500001 -0.00039999999 -0.0055681816
0.00083661417 0.0020000001 -0.007340909
0.0052657481 -0.00050000002 -0.0004469697
0.0034940946 0.0020000001 -0.0052727275
-0.0052657481 -0.00089999998 -0.0004469697
0.0062500001 -0.0012000001 -0.0013333333
-0.00034448819 0.0020000001 -0.0070454543
0.0029035434 0.0020000001 -0.0086212121
-0.0061515747 -0.0015 -0.0057651517
0.003198819 0.0020000001 -0.0076363636
-0.0050688977 0.0020000001 -0.0063560605
-0.0061515747 0.0013 -0.002810606
-0.0062500001 0.00019999999 -0.0043863636
-0.0037893702 0.00079999998 -0.00054545456
-0.0062500001 0.00019999999 -0.0072424244
0.0035925198 -0.0020000001 -0.0030075759
0.0048720473 0.0020000001 -0.0027121212
-0.0058562993 0.0019 -0.0051742424
0.0062500001 -0.00050000002 -0.0016287878
-0.0018208661 -0.0020000001 -0.0017272728
-0.0038877954 0.0020000001 -0.0067500002
-0.0058562993 0.0019 -0.0064545455
0.0062500001 0.00050000002 -0.004287879
-0.0018208661 0.0011 -0.0098030306
0.0045767715 -0.0020000001 -0.0034015151
-0.0023129922 0.0020000001 -0.002810606
-0.0062500001 0.00050000002 -0.00084090908
-0.0021161418 0.0020000001 -0.0013333333
0.0052657481 -0.00069999998 -0.00054545456
0.0058562993 0.0020000001 -0.0077348487
0.0028051182 -0.0020000001 -0.0069469698
-0.0054625985 -0.0019 -0.0033030303
-0.003198819 0.0020000001 -0.0093106059
-0.0061515747 0.0013 -0.0047803032
4.9212598e-05 -0.0019 -0.0083257575
-0.0014271653 -0.0020000001 -0.0037954545
0.0062500001 0.00030000001 -0.0049772728
-0.003198819 -0.0020000001 -0.0011363636
-0.0046751969 0.0020000001 -0.0068484847
0.0057578739 0.0020000001 -0.005371212
-0.0042814962 0.0020000001 -0.0040909089
0.0026082678 0.0020000001 -0.0038939393
0.00093503937 -0.0019 -0.0036969697
0.0060531497 -0.0019 -0.0076363636
0.0029035434 0.00079999998 -0.0098030306
-0.0039862203 -9.9999997e-05 -0.0098030306
0.0024114174 -0.0020000001 -0.0019242425
