# .PCD v0.7 - Point Cloud Data file format
VERSION 0.7
FIELDS x y z
SIZE 4 4 4
TYPE F F F
COUNT 1 1 1
WIDTH 1203
HEIGHT 1
VIEWPOINT 0 0 0 1 0 0 0
POINTS 1203
DATA ascii
-0.032090083 0 -0.0086470591
-0.0068388702 -0.0010494214 -0.0044117649
-0.032090083 0.0010494214 -0.0086470591
0.00403318 -0.0010494214 -0.0051176469
0.033492927 0.0041976855 -0.0086470591
0.028232258 0.0045474926 -0.0072352942
0.024725147 -0.0045474926 -0.0054705883
-0.035947908 0.0010494214 -0.00017647058
0.012800962 -0.0013992285 -0.0086470591
0.037350751 -0.0010494214 -0.003
-0.040156443 0.0045474926 -0.0065294118
-0.0092938496 0.0045474926 -0.0026470588
0.019113766 0.0017490356 0.0026470588
0.00052606693 -0.0027984569 -0.0086470591
0.012450251 -0.00034980712 -0.0086470591
0.037701465 0.0041976855 -0.0047647059
0.038052175 0.0038478782 -0.0086470591
0.0096445605 -0.0045474926 -0.0022941176
-0.037350751 -0.0010494214 -0.0026470588
-0.02577728 -0.0010494214 -0.0033529412
0.028933682 -0.0010494214 0.00017647058
0.0085924268 -0.0010494214 -0.003
-0.0050853137 -0.0045474926 -0.0058235293
0.041208576 -0.0013992285 -0.0026470588
-0.0099952715 0.0013992285 -0.00017647058
0.037350751 -0.00034980712 -0.0012352942
0.018763054 -0.0034980711 -0.0086470591
-0.038402885 0.0041976855 -0.0047647059
-0.0033317572 0 -0.0086470591
-0.039805733 0.0010494214 -0.0047647059
-0.013853095 -0.00069961423 -0.00017647058
-0.036649328 -0.0013992285 0.00088235294
-0.032791506 0.00069961423 -0.00017647058
0.02051661 0.0020988428 -0.00017647058
0.031739373 -0.00034980712 -0.00017647058
-0.037000041 0.0010494214 0.0015882353
-0.034895774 0.00069961423 -0.0022941176
0.00052606693 -0.0045474926 -0.0065294118
-0.036649328 0.0041976855 -0.0082941176
0.038753599 -0.0013992285 -0.00017647058
0.014203807 -0.0010494214 -0.0037058825
0.02577728 -0.0045474926 -0.00088235294
-0.0036824686 0.0010494214 -0.0040588235
-0.041559286 0.0041976855 -0.0040588235
-0.025075857 0.00069961423 -0.003
-0.0096445605 -0.0041976855 -0.0086470591
0.011398117 0.0045474926 -0.00017647058
-0.038052175 -0.0034980711 -0.0086470591
-0.010345983 0.00069961423 -0.00017647058
0.025426568 0.0034980711 -0.00017647058
-0.038402885 0.00034980712 -0.0079411762
-0.027881548 0.0017490356 -0.0086470591
0.0064881588 -0.0045474926 -0.0061764708
0.0089431377 0.0045474926 -0.0022941176
-0.01209954 0.0010494214 -0.0040588235
-0.0082417149 -0.0013992285 -0.0086470591
0.039104309 -0.0010494214 -0.0026470588
-0.037350751 0 -0.0075882352
-0.039455019 -0.0041976855 -0.0082941176
-0.038402885 0.0045474926 -0.0054705883
0.016658787 -0.0045474926 -0.0054705883
0.00052606693 0.0038478782 -0.0082941176
-0.019464476 -0.0045474926 -0.00088235294
0.020867322 -0.0045474926 -0.0015882353
0.0036824686 0.0045474926 -0.0051176469
-0.0089431377 0.0010494214 0.00017647058
-0.018763054 -0.00034980712 -0.0051176469
0.027180124 0 -0.003
-0.0033317572 -0.0045474926 -0.0012352942
-0.0096445605 0.0045474926 -0.003
-0.038753599 0.0045474926 -0.0058235293
-0.00087677821 -0.0034980711 -0.0086470591
-0.030336527 -0.0020988428 -0.0086470591
-0.024023723 0.0045474926 -0.0079411762
0.037701465 0 -0.0086470591
-0.023673013 0.003148264 -0.00017647058
-0.013502385 -0.0020988428 -0.00017647058
-0.02577728 0.0017490356 -0.0086470591
-0.039805733 -0.0020988428 -0.00017647058
0.022620877 0.0045474926 -0.00017647058
0.019815188 -0.0045474926 -0.0044117649
-0.0022796234 0.003148264 -0.0082941176
-0.011047405 0.0045474926 -0.0075882352
-0.035246484 0 -0.0058235293
-0.023322301 -0.0045474926 -0.0015882353
-0.032440793 -0.0045474926 -0.0033529412
-0.033142217 0 -0.0086470591
-0.0054360251 -0.0045474926 -0.0072352942
0.024374435 0.0045474926 -0.0075882352
-0.012450251 -0.0045474926 -0.0026470588
0.0096445605 0.0010494214 -0.003
0.03454506 0.0013992285 0.00052941177
-0.010696694 -0.0017490356 -0.0086470591
0.0043838909 0.0027984569 -0.0086470591
0.024725147 0.0034980711 -0.0086470591
-0.027530836 -0.0013992285 -0.0086470591
0.016308075 -0.0045474926 -0.0019411765
-0.019464476 0.0045474926 -0.0075882352
-0.035597194 0 -0.0022941176
0.0019289121 -0.0024486498 -0.0086470591
0.007891004 -0.00069961423 -0.00017647058
0.002981046 0.0010494214 -0.0044117649
0.0075402926 0.00069961423 -0.0054705883
0.0036824686 -0.0013992285 0.00088235294
0.040156443 -0.0041976855 -0.0082941176
0.035246484 0.0013992285 -0.00017647058
0.016658787 0.0010494214 0.00017647058
-0.038052175 0 -0.00017647058
0.02577728 0.0045474926 -0.00017647058
0.03419435 0.0041976855 -0.0086470591
0.032440793 0.0045474926 -0.00017647058
0.014203807 -0.0045474926 -0.0065294118
0.021919455 0.0010494214 -0.0037058825
-0.03419435 -0.0045474926 -0.0033529412
0.0026303346 -0.00069961423 -0.0054705883
-0.040156443 0.0010494214 -0.0061764708
0.033142217 0.0045474926 -0.00017647058
-0.033142217 -0.0010494214 -0.0044117649
0.016658787 0.0027984569 -0.00017647058
-0.017009497 0.0010494214 -0.00017647058
-0.039104309 -0.0010494214 -0.0026470588
-0.0082417149 -0.0024486498 -0.0086470591
-0.002981046 -0.0010494214 -0.0086470591
0.041559286 0.0010494214 -0.00052941177
-0.00052606693 -0.00034980712 -0.0086470591
-0.040156443 0.0045474926 -0.0086470591
0.039805733 0.0041976855 -0.0061764708
-0.007891004 -0.003148264 -0.0086470591
-0.041559286 -0.0038478782 -0.00088235294
0.032791506 -0.00034980712 -0.0086470591
-0.017360209 -0.0045474926 -0.0054705883
0.039104309 0.0010494214 -0.0061764708
-0.012800962 -0.0020988428 -0.0089999996
-0.00087677821 0.0020988428 -0.00017647058
0.02577728 0.0020988428 -0.0086470591
0.0022796234 0.0013992285 -0.0086470591
-0.027180124 0.0045474926 -0.0033529412
-0.034895774 -0.0045474926 -0.0012352942
0.033142217 -0.0038478782 -0.00052941177
-0.016308075 -0.0010494214 -0.0040588235
0.04191 0.0010494214 -0.00017647058
-0.005786736 -0.00069961423 -0.00017647058
-0.031037949 0.0010494214 -0.00017647058
-0.022270167 0.0045474926 -0.00017647058
-0.0075402926 0.0045474926 -0.0040588235
0.022971589 0.0045474926 -0.0072352942
0.032791506 -0.0027984569 -0.00052941177
0.027180124 0.0045474926 -0.0019411765
0.039104309 0.0041976855 -0.00017647058
-0.01490523 0.0024486498 -0.0086470591
-0.0201659 0.0045474926 -0.0058235293
0.03419435 -0.0045474926 -0.0015882353
-0.041559286 -0.0041976855 -0.0065294118
0.039805733 0.0010494214 -0.003
0.041559286 0.0038478782 -0.0047647059
-0.011047405 0.0034980711 -0.0086470591
0.017360209 0 -0.00017647058
-0.00087677821 -0.0041976855 -0.0086470591
-0.02051661 -0.0045474926 -0.0033529412
-0.03419435 0.0020988428 -0.0086470591
0.027881548 0.0020988428 -0.0086470591
-0.0089431377 0 -0.00017647058
0.037000041 0 -0.0019411765
0.010345983 0.0020988428 -0.00017647058
-0.029284393 0.0045474926 -0.0072352942
-0.035246484 -0.0013992285 -0.0086470591
0.035947908 -0.0010494214 -0.0033529412
0.024023723 -0.0045474926 -0.0079411762
-0.041208576 -0.00069961423 -0.0022941176
0.015255941 -0.0045474926 -0.0079411762
0.0075402926 0.0045474926 -0.00052941177
0.014554518 -0.00034980712 -0.0086470591
-0.01771092 0.00069961423 -0.0051176469
-0.013853095 0.0013992285 0.0019411765
0.007891004 -0.0045474926 -0.0082941176
-0.0082417149 0.00069961423 -0.00017647058
-0.0026303346 0.0045474926 -0.0054705883
-0.041559286 -0.00069961423 -0.0082941176
-0.014554518 0.0045474926 -0.0047647059
-0.03419435 -0.00069961423 -0.0086470591
-0.032791506 0.0045474926 -0.0065294118
-0.034895774 0.00034980712 -0.0054705883
0.01806163 -0.00069961423 -0.00017647058
0.023673013 0.0045474926 -0.00088235294
0.0015782008 0.00034980712 -0.0054705883
0.032791506 -0.0010494214 -0.0044117649
0.025426568 0.00034980712 -0.003
-0.03419435 0.0017490356 -0.0086470591
-0.013151674 -0.0045474926 -0.00017647058
0.027530836 0.0045474926 -0.0079411762
0.019464476 -0.0045474926 -0.0061764708
-0.0033317572 -0.0045474926 -0.0075882352
0.00017535564 0.0010494214 -0.0040588235
0.032090083 0 -0.0047647059
0.04191 0.0024486498 -0.00088235294
-0.040857866 0.0041976855 -0.0026470588
-0.013502385 -0.0034980711 -0.0086470591
-0.021218034 -0.0045474926 -0.00088235294
-0.02051661 -0.0045474926 -0.0012352942
0.0071895812 -0.00034980712 -0.00017647058
-0.00052606693 -0.0024486498 -0.0086470591
0.0064881588 0.0017490356 0.00017647058
0.041559286 0.0024486498 -0.0072352942
0.022971589 0.0034980711 -0.00017647058
-0.0015782008 -0.0045474926 -0.0054705883
-0.013502385 0.0045474926 -0.0082941176
-0.036298618 0.0027984569 -0.0086470591
-0.00087677821 0.0010494214 -0.0040588235
-0.02858297 0.0034980711 -0.00017647058
0.02577728 0.0045474926 -0.0065294118
-0.021568744 -0.0045474926 -0.0012352942
0.012800962 -0.0013992285 -0.00017647058
0.027530836 -0.0045474926 -0.003
0.0047346023 0.0045474926 -0.0019411765
-0.024725147 0.0045474926 -0.0079411762
-0.032090083 -0.0045474926 -0.0012352942
-0.0201659 0.0045474926 -0.0065294118
0.035597194 -0.0010494214 -0.0040588235
0.039104309 0.0038478782 -0.0086470591
-0.028933682 0.0010494214 -0.0040588235
-0.0064881588 0.0045474926 -0.0051176469
0.033142217 -0.0024486498 -0.0086470591
-0.014203807 -0.00034980712 -0.00017647058
0.0068388702 0.0010494214 -0.0044117649
-0.038052175 0.00069961423 -0.0022941176
-0.0061374474 -0.0045474926 -0.00052941177
-0.01806163 0.0045474926 -0.0061764708
-0.011398117 -0.00069961423 -0.0051176469
0.0096445605 -0.00034980712 -0.0026470588
-0.0026303346 -0.00034980712 -0.0026470588
-0.0075402926 -0.0045474926 -0.0079411762
0.0085924268 0.0010494214 0.00052941177
0.011398117 0.0017490356 0.0015882353
0.039455019 0.0020988428 -0.00017647058
-0.037000041 -0.00069961423 -0.0022941176
0.017360209 -0.0010494214 -0.0044117649
0.038753599 -0.0034980711 -0.0086470591
-0.028933682 0.0045474926 -0.0075882352
0.0047346023 0.0045474926 -0.0015882353
0.018412342 -0.0024486498 -0.0086470591
0.0064881588 0.0010494214 0.0019411765
-0.019815188 -0.0034980711 -0.00017647058
0.040857866 -0.00034980712 -0.00088235294
0.019464476 0.0017490356 -0.00017647058
0.021218034 0.0045474926 -0.0022941176
0.040857866 0.00069961423 -0.0061764708
0.034895774 0.0045474926 -0.0012352942
-0.02051661 0.0045474926 -0.0044117649
-0.014203807 -0.00069961423 -0.0086470591
0.02858297 0.0045474926 -0.0058235293
0.016308075 -0.0010494214 0.0019411765
0.010345983 0.0045474926 -0.0037058825
0.0092938496 0.0024486498 -0.0086470591
0.038052175 0.0013992285 -0.0086470591
-0.038753599 -0.00069961423 -0.0061764708
-0.014203807 0.0010494214 0.0022941176
-0.0064881588 -0.00034980712 -0.0054705883
0.030687237 -0.0017490356 -0.00017647058
0.017360209 0.0045474926 -0.00017647058
0.02858297 0.0034980711 -0.00017647058
-0.012450251 0.00069961423 -0.0051176469
-0.038753599 0.0041976855 -0.0040588235
0.021568744 -0.0017490356 0.0015882353
0.020867322 -0.0034980711 -0.0086470591
-0.040156443 0.0034980711 -0.0086470591
0.01490523 0.0045474926 -0.0072352942
-0.012800962 -0.00069961423 -0.00017647058
-0.0068388702 0.0045474926 -0.0026470588
0.0075402926 0.0045474926 -0.0044117649
0.021568744 0.0045474926 -0.003
-0.016308075 -0.0045474926 -0.0058235293
0.02051661 0.0010494214 -0.0033529412
-0.036649328 0.0010494214 0.00017647058
0.0036824686 -0.0045474926 -0.00088235294
-0.032440793 0.0045474926 -0.00052941177
0.013502385 0.0045474926 -0.0037058825
0.01490523 0.0045474926 -0.0079411762
-0.029985815 0.0013992285 -0.0086470591
-0.021218034 0.0034980711 -0.0086470591
0.033492927 0.0045474926 -0.0047647059
-0.018412342 0.0045474926 -0.003
-0.034895774 0.0010494214 -0.0033529412
0.035597194 0.0041976855 -0.0026470588
0.0033317572 0.003148264 -0.00017647058
-0.017360209 0.0045474926 -0.0054705883
0.013151674 0.0045474926 -0.0068823528
-0.022620877 -0.0045474926 -0.0037058825
-0.035947908 0.0010494214 -0.0026470588
-0.0043838909 -0.0045474926 -0.0072352942
0.035246484 0.0045474926 -0.0075882352
-0.022270167 0.0010494214 -0.00017647058
0.025075857 0.0020988428 -0.0086470591
0.026829414 -0.0038478782 -0.0086470591
-0.011398117 -0.0045474926 -0.00052941177
-0.020867322 -0.0045474926 -0.0051176469
0.023322301 0.0010494214 -0.0047647059
-0.026829414 -0.0045474926 -0.0044117649
-0.037000041 0.00069961423 -0.0022941176
0.011748828 0.0045474926 -0.0022941176
-0.026829414 0.0027984569 -0.0086470591
0.00403318 -0.0013992285 0.00088235294
-0.002981046 -0.0013992285 -0.0086470591
-0.0096445605 -0.00034980712 -0.0054705883
0.017360209 -0.0038478782 -0.00017647058
0.024725147 0.0041976855 -0.0086470591
-0.041559286 -0.0010494214 -0.0086470591
-0.012450251 0.0045474926 -0.0026470588
0.0096445605 0.00034980712 -0.0086470591
0.040857866 0.003148264 -0.00017647058
-0.029635103 0.0010494214 -0.0047647059
-0.011748828 -0.00034980712 -0.003
-0.029284393 0.0013992285 0.0015882353
0.0092938496 0.0024486498 -0.00017647058
0.035246484 -0.0020988428 -0.00017647058
0.018763054 0.00069961423 -0.0086470591
-0.022971589 0.0045474926 -0.0037058825
0.030687237 0.0013992285 -0.0086470591
-0.013853095 -0.0045474926 -0.0058235293
0.0019289121 0.0024486498 -0.00017647058
-0.0085924268 0 -0.0026470588
0.04191 -0.003148264 -0.0044117649
-0.0061374474 0.0010494214 -0.0033529412
0.033492927 -0.0045474926 -0.0054705883
-0.0201659 -0.0010494214 -0.0037058825
0.016658787 -0.0010494214 0.00088235294
0.039104309 0.0041976855 -0.0047647059
0.010696694 0.0034980711 -0.00017647058
-0.015957363 -0.0010494214 -0.0033529412
-0.029284393 -0.0010494214 -0.0047647059
-0.0036824686 -0.0013992285 0.00088235294
-0.016658787 -0.0013992285 0.00052941177
-0.032090083 -0.0010494214 -0.0033529412
0.019815188 -0.0017490356 -0.00017647058
-0.012800962 0.0013992285 -0.00017647058
0.038052175 -0.00069961423 -0.0022941176
-0.005786736 -0.0010494214 -0.0033529412
0.011398117 -0.0045474926 -0.0054705883
0.029985815 0 -0.0051176469
0.0026303346 0.0045474926 -0.0054705883
0.014203807 -0.0045474926 -0.0068823528
-0.012450251 0.0010494214 -0.0044117649
0.0054360251 -0.0034980711 -0.0086470591
-0.029284393 0.00034980712 -0.0051176469
0.037000041 0.0041976855 -0.00052941177
-0.027530836 -0.0020988428 -0.0086470591
0.033492927 -0.0010494214 -0.00017647058
-0.0043838909 -0.0010494214 -0.0040588235
-0.01209954 -0.0045474926 -0.0026470588
0.0012274896 0 -0.0054705883
-0.041559286 -0.0010494214 -0.0061764708
0.026829414 -0.00034980712 -0.0086470591
-0.021919455 0.0010494214 -0.0040588235
-0.0096445605 0.00069961423 -0.0026470588
-0.0012274896 -0.0045474926 -0.0086470591
-0.023322301 0.0045474926 -0.0075882352
0.038753599 -0.0010494214 -0.0026470588
0.040507153 -0.0013992285 -0.0065294118
-0.037000041 0.0045474926 -0.0068823528
0.034895774 0.0045474926 -0.0072352942
-0.01806163 0.0045474926 -0.003
-0.0033317572 -0.00069961423 -0.0054705883
-0.035597194 0.00069961423 -0.0022941176
0.019113766 0.0045474926 -0.0012352942
0.018763054 0.0045474926 -0.0026470588
0.00403318 -0.0045474926 -0.00052941177
-0.021919455 -0.0045474926 -0.0019411765
-0.024374435 0.00034980712 -0.0051176469
-0.032090083 -0.00034980712 -0.00017647058
0.039104309 -0.0034980711 -0.0086470591
-0.033492927 -0.0045474926 -0.00088235294
0.013151674 0.0045474926 -0.0040588235
0.00017535564 -0.0045474926 -0.0061764708
-0.0089431377 0.0024486498 -0.00017647058
-0.0071895812 0.0038478782 -0.0086470591
0.024023723 -0.0020988428 -0.0086470591
-0.041208576 -0.0041976855 -0.003
-0.00017535564 0.0010494214 -0.0040588235
-0.011047405 0.0045474926 -0.003
-0.03419435 -0.0013992285 -0.0086470591
-0.02612799 -0.0010494214 -0.00017647058
-0.02858297 0.00069961423 -0.00017647058
-0.015606652 0.0027984569 -0.00017647058
-0.038052175 0.00069961423 -0.0012352942
0.022620877 -0.0013992285 -0.0086470591
0.03384364 0.0041976855 -0.00017647058
-0.040507153 -0.0045474926 -0.0058235293
-0.03454506 0.0041976855 -0.0086470591
0.015606652 0.0010494214 -0.00017647058
0.027881548 -0.0045474926 -0.0058235293
-0.039805733 -0.0045474926 -0.0015882353
-0.03419435 0.0045474926 -0.0040588235
0.0099952715 0 -0.0026470588
-0.040857866 0.0041976855 -0.003
0.015957363 0.0045474926 -0.00017647058
-0.021218034 -0.0045474926 -0.0033529412
0.002981046 -0.0013992285 -0.00017647058
0.031388659 0.0045474926 -0.003
0.026478702 0.00069961423 -0.0086470591
-0.0043838909 0.0045474926 -0.0082941176
-0.024725147 -0.0017490356 -0.0086470591
-0.041559286 0.0034980711 -0.0086470591
0.040507153 0.0041976855 -0.0015882353
0.038753599 0.003148264 -0.0086470591
0.035597194 0.0041976855 -0.0079411762
-0.0022796234 -0.0024486498 -0.0086470591
0.022270167 0.0045474926 -0.0072352942
0.0012274896 0.0017490356 -0.0086470591
0.012800962 0.0024486498 -0.00017647058
-0.027881548 -0.00034980712 -0.00017647058
-0.01806163 0.0010494214 -0.0033529412
0.04191 0.0017490356 -0.0044117649
-0.010696694 0.0024486498 -0.00017647058
0.032440793 -0.0038478782 -0.0086470591
0.036649328 -0.0013992285 0.0012352942
-0.02858297 0.0045474926 -0.00088235294
0.024023723 -0.003148264 -0.00017647058
-0.019815188 -0.0010494214 -0.0033529412
0.013151674 -0.0045474926 -0.0086470591
0.032090083 -0.0041976855 -0.0086470591
0.0075402926 0.003148264 -0.00017647058
-0.037000041 0.0010494214 0.0012352942
-0.0071895812 0.0010494214 -0.0086470591
0.033142217 -0.003148264 -0.0086470591
0.0043838909 0.0045474926 -0.0075882352
0.005786736 0.0045474926 -0.0026470588
-0.02858297 -0.0045474926 -0.0012352942
0.005786736 -0.0045474926 -0.0079411762
-0.032440793 -0.0038478782 -0.0086470591
0.0026303346 -0.00034980712 -0.0026470588
0.040156443 -0.0010494214 -0.0065294118
0.0064881588 -0.0045474926 -0.003
0.021218034 0.0010494214 -0.0037058825
-0.032090083 -0.0034980711 -0.00017647058
-0.029284393 -0.0045474926 -0.0040588235
-0.023322301 -0.0045474926 -0.0047647059
-0.037000041 -0.0038478782 -0.00017647058
0.030336527 0.0038478782 -0.0086470591
-0.01490523 0.0045474926 -0.0086470591
-0.037350751 0.0020988428 -0.00052941177
-0.024374435 0.0045474926 -0.0051176469
-0.04191 0.0027984569 -0.0012352942
-0.017009497 -0.0027984569 -0.00017647058
0.023673013 -0.003148264 -0.00017647058
-0.00403318 0 -0.0086470591
-0.011047405 -0.0045474926 -0.0086470591
-0.016658787 -0.0024486498 -0.00017647058
0.024374435 -0.0013992285 0.0015882353
0.0015782008 -0.0034980711 -0.00017647058
-0.036298618 0.00069961423 -0.0065294118
-0.01209954 0.0045474926 -0.0026470588
-0.028232258 -0.0045474926 -0.0019411765
0.031739373 0.0045474926 -0.0065294118
0.015255941 0.0045474926 -0.0068823528
-0.039455019 -0.003148264 -0.00017647058
-0.029985815 -0.0017490356 -0.00017647058
0.015957363 -0.0038478782 -0.00017647058
0.038402885 -0.0045474926 -0.00052941177
0.0015782008 -0.003148264 -0.0086470591
0.02051661 0.0013992285 -0.0086470591
-0.021919455 0.0045474926 -0.0082941176
-0.0071895812 -0.0045474926 -0.0075882352
0.010696694 0.0045474926 -0.0015882353
-0.031388659 0.0034980711 -0.0086470591
0.029284393 0.0010494214 -0.0026470588
-0.035246484 -0.003148264 -0.0086470591
0.019113766 0.0045474926 -0.0022941176
-0.0075402926 -0.0041976855 -0.0086470591
-0.038402885 0.00034980712 -0.0086470591
0.035947908 0.0034980711 -0.00017647058
-0.027180124 -0.0045474926 -0.0082941176
-0.016658787 -0.0017490356 -0.0086470591
-0.025426568 -0.0045474926 -0.0040588235
0.015957363 0.00034980712 -0.0051176469
0.02051661 -0.00069961423 -0.00017647058
-0.027530836 0.0027984569 -0.00017647058
-0.031739373 0.0045474926 -0.0061764708
0.018412342 -0.0027984569 -0.0086470591
-0.04191 0.0020988428 -0.0044117649
-0.015957363 0.0041976855 -0.00017647058
0.039455019 -0.0041976855 -0.0082941176
-0.030687237 0.0013992285 -0.0086470591
0.039104309 0.00034980712 -0.0075882352
-0.013502385 -0.00034980712 -0.003
0.013502385 -0.0010494214 -0.0040588235
-0.027180124 0.0010494214 -0.0044117649
0.010345983 0.0045474926 -0.0065294118
0.022270167 -0.0045474926 -0.0026470588
-0.024725147 -0.0045474926 -0.0054705883
0.019113766 -0.0045474926 -0.00017647058
0.04191 0.0041976855 -0.0079411762
-0.02612799 -0.0045474926 -0.0061764708
-0.027881548 -0.0038478782 -0.00017647058
-0.024023723 0.00069961423 -0.00017647058
-0.0075402926 -0.0034980711 -0.00017647058
0.0043838909 0.0034980711 -0.0086470591
-0.033142217 -0.0045474926 -0.0040588235
-0.0068388702 -0.0045474926 -0.00052941177
0.002981046 -0.0010494214 -0.003
0.0054360251 0.0010494214 -0.0047647059
-0.017009497 0.0045474926 -0.0086470591
-0.0061374474 0.0010494214 0.00017647058
0.029985815 0.0024486498 -0.0086470591
0.0050853137 0.00034980712 -0.0026470588
-0.013502385 -0.00069961423 -0.003
0.019113766 0.0045474926 -0.0037058825
0.039805733 -0.0013992285 -0.0040588235
0.018412342 0.0045474926 -0.0026470588
0.00052606693 -0.0045474926 -0.0051176469
-0.01771092 0.0010494214 -0.0033529412
-0.040156443 0 -0.00088235294
-0.015255941 0.0045474926 -0.0061764708
0.03419435 -0.0013992285 0.0019411765
0.039455019 -0.0041976855 -0.0086470591
-0.022971589 0.0045474926 -0.0040588235
-0.017360209 -0.0045474926 -0.0047647059
-0.00052606693 -0.0045474926 -0.003
-0.041559286 0.003148264 -0.0022941176
0.032440793 0.0045474926 -0.0072352942
-0.019464476 -0.0045474926 -0.00017647058
0.038753599 0.0017490356 -0.0086470591
-0.00403318 -0.00034980712 -0.0054705883
0.038052175 0.00034980712 -0.0022941176
-0.026478702 -0.003148264 -0.00017647058
-0.038753599 0.0045474926 -0.0054705883
0.01490523 -0.0010494214 -0.0086470591
0.01490523 0.0034980711 -0.00017647058
0.022620877 -0.0045474926 -0.0047647059
0.024725147 -0.0010494214 -0.0033529412
-0.031739373 -0.0045474926 -0.0040588235
-0.040857866 0.0034980711 -0.0086470591
-0.041559286 -0.0017490356 -0.0040588235
-0.03454506 -0.0045474926 -0.0072352942
-0.0043838909 0.00034980712 -0.00017647058
0.024374435 0.0010494214 -0.0033529412
0.00052606693 0.00034980712 -0.0086470591
0.0061374474 -0.0034980711 -0.0086470591
-0.01771092 0.0010494214 -0.0086470591
0.039455019 -0.0013992285 -0.0086470591
-0.011047405 -0.0045474926 -0.0037058825
-0.00087677821 0.00034980712 -0.0026470588
-0.0015782008 -0.0034980711 -0.00017647058
0.017009497 0.0027984569 -0.00017647058
-0.007891004 -0.0010494214 -0.0037058825
0.002981046 -0.0045474926 -0.0065294118
-0.03454506 -0.0027984569 -0.00017647058
0.01490523 0.0045474926 -0.0022941176
0.024725147 0.0010494214 -0.0086470591
0.017360209 -0.0045474926 -0.0012352942
0.016308075 -0.0045474926 -0.00052941177
-0.038753599 -0.0045474926 -0.0019411765
-0.026478702 -0.0045474926 -0.0026470588
0.024023723 0.0045474926 -0.0082941176
0.020867322 -0.0024486498 -0.00017647058
-0.029635103 -0.0034980711 -0.0086470591
-0.002981046 -0.0017490356 -0.00017647058
-0.0054360251 0.0010494214 -0.0047647059
-0.019815188 -0.00069961423 -0.00017647058
-0.035597194 -0.0010494214 -0.0051176469
0.019113766 0.0013992285 0.0022941176
-0.033492927 0.0010494214 -0.0051176469
0.022971589 0.0045474926 -0.0068823528
-0.020867322 0.00034980712 -0.0086470591
-0.029284393 0.00034980712 -0.0086470591
0.033142217 0.00034980712 -0.00017647058
0.01490523 -0.0034980711 -0.00017647058
0.014554518 0.0017490356 -0.0086470591
-0.041559286 0.003148264 -0.0079411762
-0.016658787 0.0045474926 -0.0026470588
-0.033492927 -0.0013992285 -0.0086470591
-0.021218034 -0.00069961423 -0.003
-0.03419435 -0.0010494214 -0.0054705883
0.014554518 0.0034980711 -0.0086470591
0.037000041 -0.0045474926 -0.00052941177
0.037000041 -0.0041976855 -0.0079411762
0.00403318 0.0010494214 -0.0033529412
0.0085924268 -0.0045474926 -0.0082941176
0.015255941 0.0045474926 -0.0037058825
-0.038052175 0.0041976855 -0.0044117649
-0.033142217 0.0034980711 -0.0086470591
0.0071895812 -0.00069961423 -0.0086470591
0.041559286 0.0020988428 -0.0086470591
-0.040156443 0.0041976855 -0.0015882353
-0.018763054 -0.0010494214 0.00017647058
0.030336527 0.0013992285 -0.00017647058
0.014203807 0.0010494214 -0.0033529412
-0.028933682 0.0041976855 -0.00017647058
-0.017009497 -0.0045474926 -0.0065294118
-0.028232258 -0.0045474926 -0.00017647058
0.018763054 0.0045474926 -0.00017647058
-0.013502385 0.00034980712 -0.00017647058
-0.041559286 -0.0027984569 -0.0033529412
-0.0085924268 -0.0027984569 -0.0086470591
0.033492927 0.0013992285 -0.00017647058
-0.0043838909 -0.0034980711 -0.0086470591
-0.0015782008 -0.0045474926 -0.0051176469
0.00403318 0.0045474926 -0.0026470588
-0.012450251 -0.00034980712 -0.00017647058
-0.021218034 0.0045474926 -0.0022941176
-0.014554518 0.0013992285 -0.0086470591
-0.038402885 0.0013992285 -0.00017647058
-0.038402885 -0.00069961423 -0.00017647058
-0.024725147 -0.003148264 -0.00017647058
-0.011748828 -0.0045474926 -0.0086470591
0.038753599 0.0034980711 -0.0086470591
-0.035246484 0.00069961423 -0.00017647058
0.026829414 -0.00069961423 -0.0047647059
-0.00087677821 -0.0045474926 -0.003
-0.020867322 0.0027984569 -0.0086470591
-0.019113766 0.0045474926 -0.0086470591
0.021568744 0.0010494214 -0.0033529412
-0.036298618 0.0017490356 -0.00017647058
-0.037000041 0.0010494214 -0.0044117649
-0.0099952715 -0.0045474926 -0.00052941177
-0.025426568 -0.0038478782 -0.0086470591
-0.00403318 -0.0045474926 -0.0044117649
0.029985815 -0.0045474926 -0.0015882353
0.0089431377 0.0045474926 -0.0079411762
0.029635103 0.003148264 -0.00017647058
-0.0050853137 0.00069961423 -0.00017647058
-0.039104309 -0.0045474926 -0.0068823528
0.00403318 0.0017490356 -0.00017647058
-0.016658787 -0.0038478782 -0.00017647058
0.0075402926 -0.00069961423 -0.0051176469
0.0061374474 -0.0045474926 -0.00017647058
-0.041559286 0.0038478782 -0.0054705883
-0.029284393 -0.0034980711 -0.0086470591
-0.02612799 0.0010494214 -0.0044117649
0.036649328 -0.0013992285 0.0022941176
0.01771092 -0.0045474926 -0.0015882353
-0.02858297 0 -0.00017647058
-0.038402885 0.00069961423 -0.0012352942
-0.0033317572 0.0045474926 -0.0019411765
0.010345983 -0.0045474926 -0.0082941176
-0.03384364 -0.003148264 -0.00017647058
-0.039104309 -0.0045474926 -0.0026470588
0.007891004 0.0045474926 -0.0037058825
0.016658787 0.0010494214 0.0015882353
0.038402885 0.0041976855 -0.0015882353
-0.039805733 0.0041976855 -0.0015882353
0.022971589 -0.0045474926 -0.0022941176
-0.002981046 0.0045474926 -0.0072352942
-0.014554518 0.0010494214 -0.00017647058
-0.012800962 0.0024486498 -0.0086470591
-0.041559286 0.0041976855 -0.0044117649
0.0068388702 -0.0010494214 -0.003
0.035947908 0.0013992285 -0.0086470591
0.0075402926 -0.0045474926 -0.0047647059
0.022620877 0.00069961423 -0.0051176469
-0.036298618 -0.00069961423 -0.0086470591
0.0047346023 -0.00034980712 -0.00017647058
-0.00087677821 -0.00034980712 -0.0086470591
-0.037000041 0.0010494214 -0.0086470591
0.038052175 -0.0045474926 -0.0086470591
-0.015255941 0.0045474926 -0.0015882353
0.0033317572 0.0045474926 -0.0033529412
-0.0054360251 -0.0045474926 -0.0065294118
-0.007891004 -0.0045474926 -0.0065294118
0.037701465 -0.0010494214 -0.003
-0.0085924268 0.0045474926 -0.0075882352
-0.031739373 0.0045474926 -0.0068823528
-0.023673013 -0.0010494214 -0.0033529412
-0.0012274896 -0.0013992285 0.00088235294
0.021568744 0.0010494214 0.00052941177
0.029635103 0.00069961423 -0.0061764708
0.0054360251 0.0045474926 -0.00088235294
0.026829414 0.00034980712 -0.0051176469
-0.03454506 -0.0045474926 -0.0065294118
-0.007891004 -0.0010494214 -0.0047647059
-0.01771092 -0.0045474926 -0.0033529412
0.0019289121 -0.0045474926 -0.0058235293
0.013853095 0.0013992285 0.00052941177
0.028933682 -0.0045474926 -0.0033529412
-0.0096445605 -0.0045474926 -0.00088235294
0.013151674 0 -0.0086470591
0.021218034 0.0045474926 -0.0044117649
-0.01490523 0.0045474926 -0.0051176469
0.03454506 -0.0045474926 -0.0061764708
0.01806163 -0.0010494214 -0.0044117649
-0.038753599 0.0038478782 -0.00017647058
0.035947908 -0.0038478782 -0.00052941177
-0.002981046 0.0045474926 -0.00088235294
0.017360209 -0.00034980712 -0.00017647058
-0.038753599 0.00069961423 -0.0019411765
0.0096445605 0.0010494214 -0.0051176469
0.011748828 0.0045474926 -0.0082941176
-0.007891004 0.0020988428 -0.00017647058
0.039805733 -0.0045474926 -0.003
0.012800962 -0.0045474926 -0.0058235293
0.0043838909 -0.0010494214 -0.0047647059
0.0019289121 -0.0010494214 -0.0037058825
-0.027530836 0.0045474926 -0.00052941177
0.0071895812 -0.0045474926 -0.0015882353
0.018763054 0.0045474926 -0.0040588235
0.002981046 -0.0045474926 -0.0044117649
-0.021919455 -0.0045474926 -0.0047647059
-0.030336527 -0.0045474926 -0.0019411765
0.032791506 0.0010494214 -0.0037058825
0.0071895812 -0.0010494214 -0.0040588235
0.026478702 0.0045474926 -0.0033529412
0.035246484 -0.0045474926 -0.0022941176
-0.01209954 -0.0034980711 -0.0086470591
-0.0061374474 -0.0045474926 -0.0033529412
0.017009497 -0.003148264 -0.00017647058
-0.02612799 -0.0045474926 -0.0079411762
-0.0099952715 -0.0013992285 -0.00017647058
0.0033317572 -0.003148264 -0.0086470591
0.016658787 0.0020988428 -0.00017647058
0.040507153 -0.0045474926 -0.0051176469
0.041559286 -0.0041976855 -0.0058235293
0.017009497 0.00069961423 -0.003
0.025075857 -0.0010494214 -0.0044117649
0.038052175 0.0041976855 -0.0072352942
-0.014203807 -0.0013992285 0.0012352942
-0.022620877 -0.0010494214 -0.00017647058
0.0068388702 0.0045474926 -0.00017647058
-0.024023723 -0.0010494214 0.0022941176
-0.019113766 0 -0.00017647058
-0.024023723 0.0045474926 -0.0019411765
0.0092938496 0.003148264 -0.0086470591
-0.0026303346 0.0045474926 -0.0047647059
-0.005786736 0.0045474926 -0.0047647059
-0.0085924268 0.0010494214 -0.0040588235
-0.017009497 0.003148264 -0.00017647058
0.025426568 0 -0.003
-0.041559286 0.0017490356 -0.0068823528
0.0043838909 0 -0.0086470591
0.013853095 0.0045474926 -0.0040588235
0.017009497 -0.0045474926 -0.0026470588
-0.026829414 -0.0045474926 -0.0047647059
-0.038402885 0.0010494214 -0.0058235293
0.037701465 -0.0013992285 -0.00017647058
0.0068388702 -0.0045474926 -0.0040588235
0.040507153 -0.0020988428 -0.0086470591
-0.01771092 0.00034980712 -0.0086470591
0.010696694 -0.0013992285 -0.0086470591
-0.0201659 -0.0045474926 -0.0086470591
0.035246484 0.0010494214 -0.003
-0.019464476 -0.00069961423 -0.0051176469
0.039455019 0.0013992285 -0.0051176469
0.040507153 0.00034980712 -0.0068823528
-0.0061374474 0.0027984569 -0.0086470591
-0.041559286 0.0041976855 -0.0086470591
-0.032791506 -0.00034980712 -0.00017647058
0.019113766 0.0020988428 -0.0086470591
-0.02612799 0 -0.003
-0.016658787 0.0045474926 -0.0022941176
0.0064881588 0.0020988428 -0.0086470591
-0.031388659 -0.00069961423 -0.0022941176
-0.038753599 0.0041976855 -0.0047647059
0.019113766 -0.0010494214 0.00052941177
0.030336527 -0.0017490356 -0.0086470591
-0.0047346023 0.00034980712 -0.00017647058
0.0085924268 -0.0013992285 -0.0086470591
-0.039805733 0.0020988428 -0.0086470591
0.030687237 0.00034980712 -0.0026470588
-0.0082417149 -0.0020988428 -0.0086470591
0.0026303346 0.0045474926 -0.0065294118
0.0050853137 0.0013992285 -0.00017647058
0.034895774 0.0038478782 -0.0086470591
-0.0071895812 0.0045474926 -0.0061764708
0.016308075 -0.0038478782 -0.00017647058
-0.03419435 0.0045474926 -0.0072352942
0.0085924268 0.0045474926 -0.0054705883
-0.0201659 0.0024486498 -0.00017647058
0.014554518 0.0010494214 -0.0047647059
-0.028232258 0.0041976855 -0.0086470591
-0.028933682 0.00034980712 -0.003
-0.0022796234 0.0010494214 -0.0044117649
-0.018763054 -0.0045474926 -0.0065294118
0.04191 -0.0034980711 -0.0047647059
-0.037000041 0.00069961423 -0.0068823528
0.034895774 -0.0045474926 -0.0012352942
-0.013853095 0.0045474926 -0.0086470591
-0.036649328 0.0038478782 -0.0086470591
-0.023673013 -0.0045474926 -0.0061764708
-0.013502385 0.0045474926 -0.0079411762
0.0085924268 0 -0.0026470588
-0.035246484 -0.00069961423 -0.00017647058
-0.016308075 0.0013992285 0.0022941176
-0.035246484 0.00034980712 -0.0051176469
0.017360209 -0.0045474926 -0.0044117649
-0.0043838909 0.00069961423 -0.0086470591
-0.025426568 -0.0045474926 -0.0082941176
-0.027881548 -0.0017490356 -0.00017647058
0.02612799 -0.0045474926 -0.0040588235
-0.031739373 -0.0010494214 -0.003
0.02612799 0.0010494214 -0.0044117649
-0.015255941 -0.0045474926 -0.003
-0.017360209 -0.003148264 -0.00017647058
0.014203807 -0.0010494214 0.00052941177
-0.016308075 0.0013992285 0.0012352942
-0.0075402926 -0.0010494214 -0.0033529412
0.00017535564 -0.0010494214 -0.0033529412
0.017009497 -0.0045474926 -0.0040588235
-0.00087677821 -0.0017490356 -0.0086470591
0.015255941 -0.0045474926 -0.0044117649
0.0085924268 0.0034980711 -0.00017647058
-0.03419435 0.0045474926 -0.0086470591
-0.016658787 -0.0010494214 0.0026470588
0.0099952715 0.003148264 -0.00017647058
0.018763054 -0.0045474926 -0.00088235294
0.013853095 0.0045474926 -0.0079411762
-0.030687237 0.0034980711 -0.00017647058
0.0099952715 0.00034980712 -0.0026470588
0.020867322 -0.0045474926 -0.0044117649
-0.0050853137 -0.0017490356 -0.00017647058
-0.03454506 -0.0027984569 -0.0086470591
0.018763054 0.0010494214 -0.0086470591
-0.040156443 -0.0045474926 -0.00052941177
-0.01771092 -0.00069961423 -0.0086470591
0.0036824686 0.0010494214 0.00017647058
-0.028933682 0.0045474926 -0.0037058825
-0.024374435 0.00069961423 -0.0051176469
0.015255941 0 -0.0086470591
-0.007891004 0.0045474926 -0.0079411762
-0.0085924268 -0.0045474926 -0.0072352942
-0.002981046 0.00034980712 -0.00017647058
-0.0026303346 -0.0017490356 -0.00017647058
0.012800962 -0.0045474926 -0.0075882352
-0.025075857 0.0013992285 -0.0086470591
0.032440793 0.0045474926 -0.0065294118
0.0201659 -0.00034980712 -0.003
-0.032090083 -0.0045474926 -0.0022941176
0.038402885 0.00034980712 -0.0072352942
0.021919455 0.0045474926 -0.0047647059
0.00017535564 -0.0045474926 -0.0022941176
0.034895774 0.0010494214 -0.0044117649
-0.030336527 -0.003148264 -0.00017647058
0.024374435 -0.00069961423 -0.00017647058
0.0054360251 0.0010494214 -0.0044117649
0.018763054 -0.00034980712 -0.003
0.03384364 -0.0045474926 -0.0047647059
-0.00087677821 -0.0027984569 -0.0086470591
0.005786736 -0.0010494214 -0.0037058825
-0.0064881588 0.0010494214 -0.0051176469
-0.00052606693 0.003148264 -0.0082941176
-0.038402885 0.0010494214 -0.0086470591
0.021218034 0.0045474926 -0.0019411765
-0.00087677821 -0.00069961423 -0.0054705883
0.016308075 -0.0045474926 -0.0075882352
0.03419435 -0.0020988428 -0.00017647058
0.029284393 -0.0034980711 -0.00052941177
-0.0061374474 -0.0010494214 0.0015882353
0.03454506 0.0041976855 -0.0086470591
0.019113766 -0.0013992285 0.00088235294
-0.035246484 -0.0010494214 -0.0033529412
-0.0043838909 0.0017490356 -0.0086470591
-0.0061374474 0.003148264 -0.00017647058
0.01209954 -0.0024486498 -0.0086470591
0.010345983 0.0034980711 -0.00017647058
0.00087677821 0.0041976855 -0.0082941176
-0.037701465 -0.0020988428 -0.0086470591
-0.021568744 -0.003148264 -0.0086470591
0.041208576 -0.0041976855 -0.0079411762
0.040156443 0.00034980712 -0.0086470591
-0.029284393 -0.0045474926 -0.0037058825
-0.029284393 -0.0010494214 0.0012352942
-0.024023723 0.0038478782 -0.0086470591
-0.02577728 -0.0045474926 -0.0058235293
-0.013853095 -0.0024486498 -0.0086470591
0.02612799 -0.0045474926 -0.00088235294
-0.0019289121 0.0045474926 -0.0054705883
0.010345983 0.003148264 -0.00017647058
0.013151674 -0.0045474926 -0.0015882353
-0.0019289121 -0.0045474926 -0.0012352942
0.041559286 -0.0041976855 -0.0068823528
0.00087677821 -0.0045474926 -0.0047647059
-0.024374435 -0.0045474926 -0.0033529412
0.018763054 0 -0.003
0.026478702 0.00034980712 -0.0051176469
0.03384364 -0.00069961423 -0.00017647058
-0.027881548 0.0034980711 -0.00017647058
-0.021568744 -0.0010494214 -0.0086470591
-0.00087677821 -0.0013992285 -0.0086470591
0.041559286 0.0020988428 -0.0065294118
-0.031739373 -0.0010494214 0.00017647058
-0.0061374474 -0.0013992285 0.00052941177
0.02858297 0 -0.003
-0.028933682 -0.0024486498 -0.00017647058
-0.029284393 0.0017490356 -0.00017647058
-0.035597194 0.0017490356 -0.0086470591
0.01490523 -0.0045474926 -0.0022941176
-0.025075857 0.0041976855 -0.00017647058
-0.035947908 -0.0038478782 -0.0086470591
0.040156443 -0.0045474926 -0.00052941177
-0.029284393 0.0045474926 -0.0022941176
0.037000041 0 -0.0022941176
0.019464476 -0.00034980712 -0.003
0.031739373 -0.003148264 -0.00052941177
0.03384364 0.0045474926 -0.0044117649
0.018412342 0.0045474926 -0.0040588235
0.021919455 -0.0045474926 -0.0040588235
0.005786736 -0.0045474926 -0.0022941176
-0.03419435 -0.0013992285 0.00017647058
0.026829414 0.00034980712 -0.00017647058
0.027180124 -0.0045474926 -0.0082941176
0.02612799 -0.0010494214 -0.00017647058
-0.015606652 -0.0045474926 -0.0047647059
-0.012800962 0.0045474926 -0.003
0.0054360251 0.0010494214 -0.0086470591
0.029635103 0.0045474926 -0.0015882353
0.011748828 -0.0010494214 -0.0047647059
0.017009497 0.00069961423 -0.0086470591
-0.0047346023 -0.00034980712 -0.0026470588
-0.015957363 -0.0020988428 -0.0086470591
0.015957363 0.003148264 -0.00017647058
-0.0068388702 0.0045474926 -0.0072352942
0.019815188 0.0038478782 -0.0086470591
0.011047405 -0.00034980712 -0.0086470591
-0.00052606693 -0.0045474926 -0.0058235293
0.031739373 0.0017490356 0.00088235294
-0.033142217 0.00069961423 -0.0054705883
-0.0092938496 -0.0045474926 -0.003
0.0012274896 -0.0045474926 -0.0075882352
-0.010696694 -0.0038478782 -0.00017647058
-0.0054360251 0.0013992285 -0.0086470591
0.010345983 -0.00034980712 -0.0054705883
-0.039805733 -0.0041976855 -0.0082941176
0.031037949 -0.0045474926 -0.00052941177
0.015255941 -0.0027984569 -0.0086470591
0.005786736 0.0024486498 -0.00017647058
-0.016308075 0.0024486498 -0.00017647058
-0.028232258 0.0045474926 -0.0072352942
0.025075857 -0.0024486498 -0.00017647058
-0.019815188 0.0027984569 -0.00017647058
-0.01490523 -0.0045474926 -0.0019411765
-0.0026303346 0.0045474926 -0.0012352942
-0.011398117 0.0045474926 -0.0019411765
0.018763054 0.0027984569 -0.00017647058
-0.027180124 -0.0045474926 -0.0047647059
0.016658787 -0.0045474926 -0.0015882353
-0.024374435 0.0010494214 0.00017647058
-0.041559286 0.003148264 -0.0044117649
0.036298618 -0.00069961423 -0.00017647058
0.029635103 0 -0.0086470591
-0.037701465 -0.0013992285 -0.0086470591
-0.031037949 0.0045474926 -0.0061764708
-0.035246484 0.0010494214 -0.0026470588
-0.035597194 -0.0045474926 -0.0044117649
-0.03419435 -0.0045474926 -0.0054705883
0.023322301 0.0045474926 -0.0015882353
0.0064881588 0.0045474926 -0.0068823528
0.033142217 0.0010494214 -0.0044117649
0.023322301 -0.0045474926 -0.0044117649
0.038753599 -0.0045474926 -0.0068823528
0.018763054 -0.0045474926 -0.0022941176
-0.03384364 -0.0020988428 -0.00017647058
-0.016658787 -0.0013992285 0.0019411765
-0.036298618 -0.0010494214 -0.0058235293
0.025075857 0.0041976855 -0.00017647058
0.029284393 -0.0045474926 -0.0044117649
0.01490523 0.0045474926 -0.00017647058
-0.014203807 0.0045474926 -0.0044117649
0.03384364 -0.0041976855 -0.0079411762
-0.0099952715 0.0045474926 -0.0065294118
-0.041559286 -0.0020988428 -0.00017647058
0.031388659 -0.0041976855 -0.0086470591
-0.021919455 0.0010494214 -0.0086470591
0.030336527 -0.0045474926 -0.0026470588
0.0019289121 0.00034980712 -0.0086470591
0.0043838909 -0.0045474926 -0.00088235294
0.036649328 -0.0010494214 -0.003
-0.041559286 -0.0034980711 -0.0012352942
-0.031739373 0.00034980712 -0.0086470591
-0.039455019 -0.0010494214 -0.0054705883
0.018763054 -0.0010494214 -0.0040588235
-0.033492927 -0.0041976855 -0.00017647058
0.0061374474 -0.0045474926 -0.0022941176
-0.037000041 -0.0045474926 -0.00017647058
0.00017535564 0.0010494214 -0.0033529412
0.02051661 -0.00034980712 -0.003
-0.015606652 0.0034980711 -0.0086470591
0.032090083 -0.0045474926 -0.0079411762
-0.00052606693 0.0045474926 -0.00088235294
-0.033142217 -0.0045474926 -0.0068823528
0.024725147 -0.0034980711 -0.0086470591
0.037701465 0.0013992285 -0.0033529412
-0.0099952715 0.0041976855 -0.00017647058
-0.03384364 -0.0045474926 -0.0054705883
-0.011047405 -0.0045474926 -0.0058235293
0.038052175 0.0041976855 -0.00052941177
0.00087677821 0.0010494214 -0.0044117649
-0.037701465 -0.0024486498 -0.0086470591
-0.0033317572 -0.0017490356 -0.00017647058
0.011748828 0.0045474926 -0.00017647058
-0.019113766 0.0045474926 -0.0058235293
-0.031739373 -0.0045474926 -0.0051176469
0.021919455 0.0034980711 -0.0086470591
0.021919455 -0.0045474926 -0.0054705883
0.022270167 -0.0045474926 -0.0061764708
0.0092938496 0.0045474926 -0.0012352942
-0.011748828 0.0010494214 -0.0047647059
0.0033317572 -0.0045474926 -0.0065294118
0.021218034 -0.0045474926 -0.00088235294
0.031739373 0.0041976855 -0.0086470591
0.013502385 -0.0045474926 -0.0065294118
-0.022270167 0.0045474926 -0.0065294118
-0.030687237 -0.00069961423 -0.0061764708
-0.034895774 -0.0010494214 -0.0044117649
0.041559286 0.003148264 -0.0019411765
-0.039104309 -0.0045474926 -0.0051176469
0.029284393 0.00034980712 -0.00017647058
-0.0012274896 0.0017490356 0.00052941177
0.028232258 0.0045474926 -0.0040588235
-0.00052606693 0.0041976855 -0.00017647058
-0.016658787 -0.0045474926 -0.003
-0.02051661 -0.0038478782 -0.0086470591
-0.037701465 0.0041976855 -0.0044117649
-0.014554518 -0.00034980712 -0.0051176469
0.022620877 -0.00034980712 -0.0086470591
0.022971589 -0.0045474926 -0.00088235294
0.014203807 0.0010494214 0.00088235294
-0.007891004 -0.0010494214 -0.003
-0.026478702 0.0045474926 -0.0068823528
0.0022796234 0.0010494214 -0.00017647058
0.013502385 -0.0045474926 -0.0022941176
-0.0075402926 0.00034980712 -0.0086470591
0.011398117 -0.0013992285 0.00088235294
-0.024374435 0.0045474926 -0.0068823528
-0.040507153 0.00069961423 -0.0086470591
-0.005786736 0.0038478782 -0.00017647058
-0.015957363 -0.0010494214 -0.0037058825
0.00087677821 0.0045474926 -0.00052941177
-0.01209954 -0.0045474926 -0.00052941177
-0.022270167 0.0041976855 -0.0086470591
0.012800962 0.00034980712 -0.0051176469
0.0082417149 0.00069961423 -0.0086470591
-0.033492927 -0.00034980712 -0.0086470591
-0.023673013 -0.0045474926 -0.0068823528
0.04191 -0.003148264 -0.0058235293
-0.0099952715 0.0045474926 -0.0037058825
-0.033492927 0.0045474926 -0.0026470588
-0.022620877 0.0045474926 -0.00017647058
0.016658787 -0.0010494214 0.0022941176
-0.011047405 -0.0045474926 -0.0065294118
-0.0022796234 -0.0045474926 -0.00088235294
0.015606652 -0.0041976855 -0.00017647058
-0.0026303346 0 -0.0054705883
0.023673013 0.0045474926 -0.0065294118
-0.030336527 -0.00034980712 -0.0054705883
-0.041559286 -0.0034980711 -0.0022941176
-0.041559286 0.0010494214 -0.00052941177
-0.022971589 0.00069961423 -0.0086470591
-0.01771092 -0.0045474926 -0.0068823528
-0.030687237 -0.0010494214 -0.00017647058
0.010696694 -0.0010494214 -0.0037058825
-0.0099952715 0.0045474926 -0.0044117649
-0.035947908 -0.0034980711 -0.0086470591
-0.033142217 -0.0045474926 -0.0058235293
0.019464476 0.0010494214 -0.0086470591
0.010345983 -0.0010494214 -0.0037058825
0.0082417149 -0.0010494214 -0.0044117649
0.017009497 -0.0045474926 -0.00017647058
0.03419435 -0.0045474926 -0.00052941177
-0.0089431377 0.0017490356 0.0012352942
0.02612799 -0.0045474926 -0.00052941177
-0.012450251 -0.0045474926 -0.0079411762
0.033492927 0.0010494214 -0.0054705883
-0.01771092 0.0045474926 -0.0026470588
0.0012274896 0.0010494214 -0.0051176469
-0.031388659 -0.0045474926 -0.00088235294
-0.029284393 -0.0045474926 -0.0022941176
0.03384364 0.0034980711 -0.0086470591
-0.0012274896 -0.0017490356 -0.0086470591
-0.0015782008 -0.0010494214 -0.0044117649
-0.020867322 0.0024486498 -0.00017647058
-0.017360209 0.0045474926 -0.0079411762
-0.041559286 -0.0017490356 -0.0033529412
0.040507153 -0.0041976855 -0.0082941176
-0.023673013 0.0010494214 -0.0033529412
-0.031388659 0.0010494214 -0.0033529412
-0.030687237 0.0045474926 -0.0068823528
0.020867322 -0.0010494214 -0.0044117649
0.02612799 0.0013992285 -0.00017647058
0.013853095 0.0013992285 0.0012352942
0.0096445605 0.0017490356 -0.0086470591
0.021218034 0.0020988428 -0.00017647058
0.02577728 -0.0010494214 -0.0033529412
-0.04191 0.0010494214 -0.00088235294
-0.010696694 0.0024486498 -0.0086470591
0.023673013 -0.00069961423 -0.00017647058
-0.024023723 0.0045474926 -0.0051176469
-0.0061374474 0.0034980711 -0.00017647058
-0.036298618 -0.00034980712 -0.00017647058
-0.01209954 0.00069961423 -0.0051176469
-0.0064881588 -0.0024486498 -0.00017647058
0.036649328 -0.0013992285 0.00052941177
-0.0022796234 0 -0.0026470588
0.0033317572 -0.0045474926 -0.0068823528
0.0075402926 0.0045474926 -0.0075882352
-0.0089431377 0.0010494214 0.0012352942
-0.041208576 -0.0034980711 -0.00017647058
0.030336527 -0.0045474926 -0.0058235293
0.030687237 0.0010494214 -0.0044117649
-0.024023723 0 -0.0051176469
0.0061374474 0 -0.0054705883
-0.0068388702 -0.0045474926 -0.0065294118
-0.024374435 0.0045474926 -0.00017647058
-0.018763054 0.0045474926 -0.0058235293
-0.01806163 -0.0045474926 -0.0086470591
-0.038402885 -0.00034980712 -0.0072352942
-0.0064881588 0.00069961423 -0.0026470588
-0.0082417149 -0.0045474926 -0.0022941176
0.038402885 0.0034980711 -0.00017647058
0.039805733 -0.0020988428 -0.0086470591
-0.010696694 0.0013992285 -0.00017647058
-0.0082417149 0.0045474926 -0.0072352942
-0.012450251 0.0045474926 -0.0015882353
0.025426568 -0.0045474926 -0.003
0.038052175 0.00034980712 -0.0061764708
0.033142217 -0.00069961423 -0.0047647059
-0.021568744 0.0045474926 -0.0061764708
0.010696694 0.0045474926 -0.0079411762
0.027180124 0.0045474926 -0.0058235293
0.031037949 0.0045474926 -0.00017647058
0.024374435 -0.00069961423 -0.003
-0.029284393 0.0010494214 0.0019411765
-0.025426568 -0.0034980711 -0.00017647058
-0.031037949 0.0045474926 -0.003
0.0050853137 0.0045474926 -0.0051176469
-0.0033317572 0.0045474926 -0.0044117649
0.021568744 -0.0013992285 0.0022941176
-0.015957363 0.0034980711 -0.00017647058
0.00403318 0.0027984569 -0.00017647058
0.025426568 0.0038478782 -0.0086470591
0.035947908 0.00069961423 -0.0086470591
0.035246484 -0.0010494214 -0.0026470588
-0.040857866 0.0041976855 -0.0022941176
0.0043838909 0.0010494214 -0.0033529412
-0.00403318 -0.0010494214 0.00052941177
-0.005786736 -0.0045474926 -0.0061764708
0.027180124 -0.0034980711 -0.00017647058
0.018412342 -0.0045474926 -0.0051176469
0.00087677821 -0.0034980711 -0.0086470591
-0.0061374474 0.0010494214 0.00088235294
0.02051661 0.0045474926 -0.0040588235
-0.035246484 0.0017490356 -0.0086470591
-0.0019289121 0.0045474926 -0.0040588235
-0.019464476 0.0010494214 -0.00017647058
0.038052175 0.0038478782 -0.00017647058
-0.013502385 -0.0045474926 -0.0054705883
0.0022796234 0.003148264 -0.0082941176
-0.0071895812 0.00069961423 -0.00017647058
-0.017360209 -0.0045474926 -0.0075882352
-0.02612799 -0.0020988428 -0.00017647058
-0.040156443 -0.0027984569 -0.0086470591
-0.016658787 0.0045474926 -0.0054705883
-0.024725147 -0.0045474926 -0.0033529412
-0.00052606693 -0.0045474926 -0.0065294118
0.04191 0.0020988428 -0.00052941177
0.041208576 0.0041976855 -0.0054705883
0.025075857 -0.0045474926 -0.0082941176
0.01209954 0.0045474926 -0.0082941176
-0.02051661 -0.003148264 -0.0086470591
-0.030336527 0.0010494214 -0.0086470591
-0.00403318 0.0010494214 -0.0040588235
0.035947908 0.00069961423 -0.0022941176
0.023322301 0.0045474926 -0.0079411762
-0.028232258 -0.0045474926 -0.0022941176
-0.00087677821 -0.0038478782 -0.00017647058
0.012450251 -0.0010494214 -0.0086470591
0.021568744 0.0041976855 -0.00017647058
0.026829414 -0.0045474926 -0.0051176469
-0.039455019 0.0045474926 -0.0086470591
-0.00403318 -0.0027984569 -0.00017647058
0.007891004 -0.0045474926 -0.0047647059
-0.033142217 -0.0010494214 -0.0058235293
-0.027530836 -0.0027984569 -0.0086470591
0.0043838909 0.0010494214 -0.0086470591
-0.040507153 -0.00069961423 -0.0075882352
0.039455019 -0.0041976855 -0.00017647058
0.039455019 0.00034980712 -0.0082941176
0.0061374474 0.00034980712 -0.00017647058
-0.036649328 -0.003148264 -0.0086470591
-0.023673013 0.0017490356 -0.00017647058
0.011047405 -0.0038478782 -0.00017647058
0.010345983 0.0010494214 -0.003
-0.005786736 0.0024486498 -0.00017647058
0.032440793 0.0038478782 -0.00017647058
0.011748828 -0.00034980712 -0.003
-0.026829414 0.0020988428 -0.00017647058
-0.021919455 0.0045474926 -0.0061764708
0.018763054 0.0045474926 -0.0068823528
0.0075402926 0.003148264 -0.0086470591
-0.0085924268 -0.00034980712 -0.0054705883
0.040507153 0.00069961423 -0.0072352942
-0.041559286 -0.0017490356 -0.0054705883
0.00403318 0.0045474926 -0.00088235294
-0.021568744 0.0010494214 0.0019411765
-0.033142217 -0.0010494214 -0.0047647059
-0.041559286 0.0041976855 -0.003
-0.02577728 0.0027984569 -0.0086470591
0.015957363 -0.0045474926 -0.0015882353
-0.038052175 0.0041976855 -0.0047647059
-0.00017535564 0.0017490356 -0.0086470591
-0.026829414 -0.0010494214 0.00017647058
-0.039104309 0.0041976855 -0.0051176469
-0.00403318 -0.0034980711 -0.0086470591
-0.02051661 -0.0034980711 -0.0086470591
-0.0201659 0.003148264 -0.0086470591
0.012800962 0.0010494214 -0.0033529412
0.033142217 0.0010494214 -0.003
-0.037701465 -0.00069961423 -0.0022941176
