# .PCD v0.7 - Point Cloud Data file format
VERSION 0.7
FIELDS x y z
SIZE 4 4 4
TYPE F F F
COUNT 1 1 1
WIDTH 1181
HEIGHT 1
VIEWPOINT 0 0 0 1 0 0 0
POINTS 1181
DATA ascii
0.0059993863 0.0021953413 -0.0088441558
-0.0047527608 0.00094086054 -0.0054155844
0.0092717791 -0.0015681009 -0.00027272728
-0.0097392639 0.00094086054 -0.0037012987
-0.0089601222 -0.0025089614 -0.0088441558
-0.0070901839 0.0045474926 -0.0037012987
0.0042852759 -0.0045474926 -0.0047922079
-0.0074018403 0.002038531 -0.0088441558
-0.0127 -0.0034498218 -0.0018311688
7.7914112e-05 -0.0045474926 -0.0049480521
-0.009583435 0.0012544807 -0.0088441558
-0.0027269938 -0.0015681009 3.896104e-05
-0.00038957054 0.00078405044 -0.00011688311
-0.010830062 0.0043906826 -0.0063506495
-0.0027269938 -0.00094086054 -0.0029220779
0.0088042943 -0.00047043027 -0.0057272729
-0.0011687117 -0.0029793917 -0.00011688311
-0.012076687 -0.0028225814 -0.0088441558
0.010362577 -0.00078405044 -0.00027272728
-0.0039736195 -0.0014112907 -0.00011688311
-0.0030386501 -0.00047043027 -0.00011688311
0.0022595092 -0.0026657714 -0.00011688311
0.0098950919 0.0043906826 -0.0085324673
0.0063110427 0.0037634422 -0.0088441558
0.01005092 0.0031362018 -0.00027272728
0.0047527608 -0.0018817211 -0.00027272728
0.00038957054 0.0045474926 -0.0049480521
0.012388343 0.00047043027 -0.0055714287
-0.0063110427 -0.0045474926 -0.0010519481
0.00085705519 0.00094086054 -0.0026103896
-0.00085705519 0.00094086054 -0.0041688313
0.0024153374 0.00062724034 -0.0058831167
-0.0038177914 0.0045474926 -0.0071298704
-0.00054539874 -0.004077062 -0.0088441558
0.0127 -0.0025089614 -0.0030779222
-0.0066226991 0.0045474926 -0.00042857142
-0.0072460123 -0.0025089614 -0.0088441558
-0.01176503 0.0028225814 -0.00027272728
0.01176503 -0.00094086054 -0.0051038959
-0.0013245399 0.0045474926 -0.0027662339
-0.0069343559 0 -0.0057272729
0.0044411044 0.0045474926 -0.0052597402
-0.00070122699 0.0015681009 -0.00011688311
0.0011687117 -0.0045474926 -0.004012987
0.0083368095 -0.00094086054 -0.0047922079
-0.0025711656 -0.0032930118 -0.0088441558
0.0014803681 0.0026657714 -0.00011688311
-0.01176503 -0.0043906826 -0.0022987013
-0.0050644171 -0.0045474926 -0.0032337662
-0.0011687117 -0.0045474926 -0.004012987
0.0067785275 0.0032930118 -0.00027272728
-0.0084926384 -0.0045474926 -0.0016753246
-0.011453374 0.003920252 -0.00027272728
-0.0049085887 -0.0015681009 0.00097402598
-0.0039736195 -0.0026657714 -0.0088441558
-0.01005092 -0.0023521513 -0.0088441558
-0.0127 0.004077062 -0.0061948053
0.009583435 -0.0045474926 -0.008064935
-0.0025711656 -0.0045474926 -0.008688312
0.0081809815 0.0028225814 -0.0088441558
0.0044411044 0.0045474926 -0.0047922079
0.010518405 -0.00062724034 -0.0057272729
0.010830062 0.0043906826 -0.0074415584
0.012544172 -0.0025089614 -0.006038961
0.0036619632 -0.0045474926 -0.0069740261
-0.0030386501 0.00094086054 -0.0054155844
0.0070901839 0.00094086054 -0.0052597402
-0.0025711656 0.0028225814 -0.00011688311
0.0013245399 -0.00094086054 -0.0030779222
0.0081809815 0.00047043027 -0.00027272728
-0.0127 0.00078405044 -0.0061948053
0.0024153374 0.0045474926 -0.0054155844
0.00023374232 -0.0034498218 -0.0088441558
0.0014803681 -0.0021953413 -0.00011688311
0.0042852759 -0.00094086054 -0.0027662339
-7.7914112e-05 -0.0045474926 -0.0058831167
0.0022595092 0.00094086054 -0.0057272729
0.010362577 -0.0043906826 -0.008688312
-0.00038957054 -0.0045474926 -0.0021428571
-0.0074018403 -0.0045474926 -0.0013636363
0.0049085887 0.0014112907 0.0025324675
0.0127 0.0010976706 -0.0063506495
0.0025711656 -0.00094086054 0.0023766235
0.010518405 -0.0021953413 -0.00027272728
-0.0098950919 0.0043906826 -0.0016753246
0.0086484663 0.0032930118 -0.00027272728
-0.0127 -0.004077062 -0.0021428571
0.0063110427 0.00094086054 -0.0026103896
0.0030386501 -0.0045474926 -0.0041688313
0.0127 0.0029793917 -0.0038571428
0.0056877299 0.0045474926 -0.0055714287
-0.0039736195 -0.00015681009 -0.008688312
0.01005092 0.0043906826 -0.0043246755
-0.0078693246 -0.0010976706 0.0012857143
0.0036619632 -0.00015681009 -0.0024545453
-0.0056877299 0.0045474926 -0.0015194805
-0.0050644171 0.0014112907 0.0025324675
-0.0053760735 0.0045474926 -0.0082207788
0.0052202451 -0.0015681009 0.0020649352
-0.01005092 0.0045474926 -0.0027662339
-0.0091159511 0.00047043027 -0.0088441558
0.0067785275 -0.00015681009 -0.0057272729
-0.0127 -0.0037634422 -0.0046363636
-0.0025711656 -0.00015681009 -0.008688312
0.0127 -0.0018817211 -0.0030779222
0.01005092 -0.0045474926 -0.0074415584
0.0045969323 -0.0045474926 -0.0041688313
-0.0059993863 -0.003920252 -0.008688312
0.01176503 -0.00078405044 -0.00027272728
0.0038177914 0.00047043027 -0.0024545453
-0.0038177914 0.00031362017 -0.008688312
0.0053760735 -0.0045474926 -0.0071298704
-0.0091159511 -0.00094086054 -0.0027662339
0.0033503068 -0.0045474926 -0.00089610391
0.0013245399 0.00031362017 -0.00011688311
-0.0011687117 -0.0045474926 -0.0066623376
-0.010518405 -0.0045474926 -0.001987013
-0.0072460123 0.00031362017 -0.0024545453
0.0044411044 0.00031362017 -0.00011688311
0.0050644171 -0.00094086054 -0.0047922079
-0.0097392639 -0.0029793917 -0.0088441558
-0.00054539874 -0.0045474926 -0.0071298704
-0.0089601222 0.00094086054 -0.0088441558
-0.012232515 -0.00062724034 -0.0071298704
-0.011141717 0.0032930118 -0.0088441558
-0.012388343 0.00062724034 -0.00027272728
0.0050644171 0.00094086054 -0.0029220779
0.011609202 -0.0023521513 -0.00027272728
-0.0067785275 0.00094086054 -0.0035454545
-0.012232515 -0.00078405044 -0.0026103896
0.0067785275 0.0045474926 -0.0075974027
-0.0024153374 0.0014112907 -0.0085324673
0.002103681 0.003920252 -0.0088441558
0.0050644171 -0.0021953413 -0.0088441558
-0.0067785275 0.0025089614 -0.0088441558
-0.010830062 0.0043906826 -0.0058831167
-0.010830062 -0.00094086054 -0.0043246755
-7.7914112e-05 -0.00094086054 0.0022207792
-0.0089601222 -0.0028225814 -0.0088441558
0.0127 -0.0012544807 -0.0049480521
-0.0067785275 0.0029793917 -0.0088441558
-0.011609202 -0.00078405044 -0.0055714287
-0.0030386501 0.00094086054 -0.0035454545
0.00085705519 0 -0.0058831167
0.011453374 0.0043906826 -0.0046363636
0.0075576687 -0.00094086054 -0.0037012987
-0.0024153374 -0.0045474926 -0.0058831167
-0.0049085887 -0.0015681009 0.0017532468
0.0036619632 -0.00094086054 -0.0035454545
0.0013245399 0.00062724034 -0.0058831167
0.0042852759 -0.0042338725 -0.00027272728
-0.01005092 -0.0032930118 -0.0088441558
-0.011453374 -0.0043906826 -0.0052597402
-0.0078693246 -0.0014112907 0.0020649352
0.0014803681 -0.0031362018 -0.00011688311
0.0031944786 0.0043906826 -0.00011688311
0.0049085887 -0.00047043027 -0.0057272729
-0.01176503 -0.0043906826 -0.006038961
0.010674233 -0.003920252 -0.00027272728
0.00054539874 -0.0045474926 -0.0079090912
-0.0127 0.0031362018 -0.00058441557
-0.0033503068 -0.0017249109 -0.008688312
-0.0059993863 -0.0032930118 -0.0088441558
-0.0016361963 0.0012544807 -0.008688312
0.0127 -0.00047043027 -0.0010519481
-0.0127 0.0031362018 -0.0033896104
0.0091159511 -0.0028225814 -0.0088441558
0.0024153374 0.00094086054 0.0020649352
-0.0039736195 0.0036066319 -0.0088441558
-0.0066226991 0.00094086054 -0.0054155844
-0.004129448 -0.00078405044 -0.008688312
0.0088042943 -0.0014112907 -0.00027272728
-0.0064668711 -0.0028225814 -0.00027272728
0.002882822 -0.00094086054 -0.0027662339
0.0094276071 -0.0045474926 -0.0029220779
0.0127 0.0018817211 -0.0051038959
0.0094276071 -0.0045474926 -0.0037012987
0.0050644171 0.0017249109 0.0023766235
-0.0049085887 0.0045474926 -0.0037012987
-0.00085705519 -0.0021953413 -0.00011688311
0.0069343559 0.0045474926 -0.0057272729
-0.0063110427 0.0025089614 -0.00027272728
-0.0080251535 -0.0036066319 -0.00027272728
0.0091159511 0.00062724034 -0.0057272729
0.00023374232 0.00062724034 -0.00011688311
0.002882822 0.0023521513 -0.00011688311
-0.0031944786 -0.00047043027 -0.0024545453
0.0086484663 -0.00094086054 -0.0049480521
0.012544172 -0.0037634422 -0.0083766235
-0.011609202 -0.0043906826 -0.0022987013
-0.0069343559 -0.0045474926 -0.0022987013
-0.0061552147 -0.00031362017 -0.0024545453
0.010362577 0.0043906826 -0.0052597402
0.0063110427 0.0026657714 -0.00027272728
0.0067785275 0.0045474926 -0.0054155844
-0.0053760735 0.0025089614 -0.00027272728
0.0058435583 0.0045474926 -0.0044805193
-0.01005092 0.0025089614 -0.00027272728
0.0086484663 0.00078405044 -0.0057272729
-0.0077134967 0.0045474926 -0.0074415584
-0.0058435583 0.0021953413 -0.00027272728
0.0072460123 0.0023521513 -0.00027272728
-0.0039736195 0.00094086054 -0.008688312
-0.0022595092 0.003920252 -0.008688312
0.010985889 0.00078405044 -0.0026103896
-0.010362577 -0.00094086054 -0.0029220779
0.0047527608 0.0045474926 -0.0063506495
0.011297545 0.0043906826 -0.0066623376
-0.0127 0.0026657714 -0.00042857142
-0.01005092 -0.00015681009 -0.0088441558
0.0084926384 -0.00094086054 -0.0027662339
0.0077134967 0.00094086054 -0.0033896104
-0.004129448 0.0045474926 -0.0068181818
-0.00023374232 0.0045474926 -0.00042857142
-0.0070901839 -0.0045474926 -0.0013636363
0.0052202451 -0.0045474926 -0.0024545453
-0.0127 0.0018817211 -0.0044805193
0.0075576687 0.0015681009 0.0012857143
0.0127 0.00094086054 -0.0061948053
0.00054539874 -0.0045474926 -0.0054155844
-0.0091159511 0.0045474926 -0.0069740261
-0.0064668711 0.0037634422 -0.00027272728
0.0070901839 -0.0045474926 -0.0033896104
0.0127 0.0010976706 -0.0055714287
-0.012544172 0.0043906826 -0.0054155844
0.0127 -0.00015681009 -0.0024545453
-0.0092717791 -0.00062724034 -0.0057272729
-0.012544172 0.0037634422 -0.0077532469
-7.7914112e-05 -0.00015681009 -0.00011688311
0.0080251535 0.0037634422 -0.00027272728
-0.0127 -0.0032930118 -0.0044805193
0.0127 -0.0028225814 -0.0046363636
0.0077134967 -0.0045474926 -0.0041688313
-0.0013245399 -0.0010976706 -0.00011688311
-0.0127 0.0026657714 -0.0032337662
0.00070122699 0.0045474926 -0.0030779222
0.0025711656 0.0026657714 -0.0085324673
0.0097392639 -0.00031362017 -0.0088441558
-0.011920859 0.0043906826 -0.006038961
0.012544172 0.0034498218 -0.004012987
0.0083368095 -0.0045474926 -0.0077532469
0.0013245399 0 -0.0058831167
0.0077134967 -0.00047043027 -0.0088441558
0.0089601222 -0.0045474926 -0.001987013
0.012232515 -0.0042338725 -0.0038571428
-0.0052202451 0.0015681009 0.0025324675
0.0036619632 -0.0045474926 -0.0047922079
-0.0127 -0.0026657714 -0.0030779222
-0.0086484663 -0.0029793917 -0.0088441558
-0.010206749 -0.0045474926 -0.0055714287
0.0030386501 0.0045474926 -0.00042857142
0.0127 -0.0026657714 -0.0012077922
-0.010518405 -0.0043906826 -0.008688312
0.010985889 -0.0026657714 -0.008688312
0.0083368095 0.002038531 -0.0088441558
0.010674233 -0.0043906826 -0.0043246755
-0.012232515 -0.0043906826 -0.00058441557
0.0063110427 -0.0045474926 -0.0082207788
0.0077134967 -0.0045474926 -0.0027662339
-0.010362577 0.0045474926 -0.0044805193
-0.0091159511 0.00094086054 -0.0035454545
-0.005531902 -0.00094086054 -0.0029220779
0.012544172 0.0036066319 -0.0041688313
-0.00038957054 0.00094086054 -0.0049480521
-0.005531902 -0.0045474926 -0.0055714287
0.012232515 -0.0025089614 -0.00027272728
-0.01005092 -0.0021953413 -0.0088441558
-0.0033503068 -0.00094086054 -0.0043246755
0.0074018403 0.0045474926 -0.0077532469
0.0049085887 0.00094086054 -0.0030779222
0.0027269938 0.0036066319 -0.00027272728
0.0031944786 0.0045474926 -0.0049480521
-0.0013245399 0.0045474926 -0.0071298704
0.0063110427 -0.00094086054 -0.0030779222
-0.0092717791 0.003920252 -0.00027272728
-0.011297545 -0.003920252 -0.0088441558
-0.0063110427 -0.0023521513 -0.0088441558
-0.0042852759 0.0045474926 -0.00074025971
0.0097392639 -0.0017249109 -0.00027272728
0.011609202 0.0043906826 -0.0018311688
-0.0056877299 -0.00078405044 -0.0088441558
-0.0127 -0.00062724034 -0.0061948053
-0.010985889 -0.00047043027 -0.00027272728
0.0084926384 0.0031362018 -0.00027272728
-0.0044411044 0.00094086054 -0.0026103896
-0.002103681 0.0014112907 -0.00011688311
-0.012388343 -0.0042338725 -0.0046363636
0.010674233 0.0043906826 -0.0052597402
0.0081809815 -0.00062724034 -0.0057272729
-0.0017920245 0.00094086054 -0.0038571428
-0.012388343 0.0043906826 -0.0030779222
-0.009583435 -0.0023521513 -0.00027272728
0.0044411044 0.0014112907 -0.0088441558
0.004129448 0.0032930118 -0.00027272728
-0.0080251535 0.0045474926 -0.0010519481
0.005531902 -0.0045474926 -0.0033896104
0.010985889 -0.0043906826 -0.001987013
-0.011297545 -0.00062724034 -0.0088441558
0.0039736195 0.0045474926 -0.0037012987
0.0127 -0.0028225814 -0.0041688313
-0.01005092 -0.0045474926 -0.0074415584
0.005531902 0.0045474926 -0.00074025971
-0.0098950919 -0.00094086054 -0.0035454545
0.012544172 -0.004077062 -0.008064935
0.009583435 0.00078405044 -0.0057272729
-0.011609202 0.0021953413 -0.0088441558
0.0044411044 -0.0045474926 -0.0033896104
0.0039736195 -0.0045474926 -0.00027272728
-0.01005092 0.0045474926 -0.00074025971
-0.002103681 0.0037634422 -0.00011688311
-0.01176503 -0.0037634422 -0.0088441558
-0.010518405 -0.0045474926 -0.0018311688
0.0045969323 0 -0.0088441558
0.01005092 -0.00094086054 -0.0088441558
0.012544172 0.0034498218 -0.0068181818
-0.0030386501 0.0045474926 -0.0075974027
0.012076687 0.00062724034 -0.0055714287
-0.0058435583 0.0045474926 -0.0057272729
-0.0098950919 0.00047043027 -0.00027272728
-0.0127 -0.0026657714 -0.0046363636
0.0042852759 0.0045474926 -0.0075974027
-0.0050644171 -0.00094086054 0.00019480519
-0.0127 -0.0017249109 -0.0015194805
-0.0080251535 0.00094086054 -0.0035454545
0.0036619632 -0.0032930118 -0.00011688311
0.00085705519 -0.00094086054 -0.0032337662
0.0127 -0.00094086054 -0.0033896104
-0.011609202 0.0015681009 -0.00027272728
-0.0010128834 0.00094086054 -0.0043246755
-0.010206749 -0.0014112907 -0.00027272728
0.0098950919 -0.0045474926 -0.0010519481
0.0049085887 0.0015681009 0.0011298702
-0.0081809815 0.00062724034 -0.00011688311
-0.00054539874 -0.00094086054 -0.0054155844
-0.003506135 -0.00047043027 -0.008688312
0.0098950919 -0.00094086054 -0.0041688313
0.011141717 0.0043906826 -0.0057272729
-0.0036619632 -0.0045474926 -0.0015194805
0.0088042943 -0.0023521513 -0.0088441558
-0.012232515 -0.00015681009 -0.0074415584
-0.0038177914 0.00094086054 -0.0027662339
-0.0056877299 0.0017249109 -0.00011688311
-0.00023374232 0.0045474926 -0.0038571428
0.0064668711 -0.0014112907 -0.00011688311
-0.0044411044 -0.0021953413 -0.00027272728
-0.0084926384 0.0045474926 -0.0072857141
-0.0074018403 -0.0014112907 0.0014415585
-0.0027269938 0.0045474926 -0.0037012987
-7.7914112e-05 0.00094086054 0.0019090909
0.002103681 -0.0045474926 -0.0026103896
-0.002882822 -0.0036066319 -0.00011688311
0.012232515 -0.0042338725 -0.0077532469
-0.012388343 0 -0.0072857141
-0.0030386501 0.00062724034 -0.0024545453
-0.012544172 0.0010976706 -0.0074415584
-0.0039736195 0.0014112907 -0.00011688311
0.0084926384 -0.0045474926 -0.0047922079
-0.012388343 0.004077062 -0.0082207788
0.00023374232 0.0032930118 -0.00011688311
-0.012388343 0.0034498218 -0.00027272728
0.0049085887 0.0034498218 -0.0088441558
-0.00023374232 -0.00094086054 -0.0035454545
0.002882822 -0.00031362017 -0.0024545453
0.0070901839 -0.0045474926 -0.00042857142
-0.011297545 -0.0043906826 -0.0057272729
-0.0077134967 0.0037634422 -0.008688312
0.0056877299 0.00094086054 -0.0044805193
-0.0084926384 -0.00031362017 -0.0026103896
0.0089601222 -0.0045474926 -0.0057272729
-0.00070122699 0.003920252 -0.0083766235
0.0081809815 0.0026657714 -0.0088441558
0.0049085887 0.0012544807 -0.0088441558
-0.011453374 0.0025089614 -0.0088441558
0.0070901839 0.0025089614 -0.0088441558
-0.00023374232 0.00094086054 -0.0044805193
0.00070122699 -0.0042338725 -0.0088441558
-0.010985889 -0.004077062 -0.00027272728
0.0014803681 -0.0045474926 -0.0027662339
-0.012232515 -0.0043906826 -0.00089610391
-0.012544172 0.0023521513 -0.0074415584
0.0036619632 -0.00031362017 -0.0057272729
0.0052202451 -0.0015681009 0.0005064935
-0.0127 0.004077062 -0.0058831167
-0.0127 0.0029793917 -0.0068181818
0.003506135 0.00094086054 -0.0044805193
-0.0127 0.0018817211 -0.0037012987
-0.0127 -0.0014112907 -0.0013636363
0.0069343559 -0.00094086054 -0.0030779222
0.011920859 -0.0042338725 -0.0044805193
0.0127 0.00047043027 -0.006038961
0.0044411044 -0.00094086054 -0.0047922079
-0.011297545 0.00094086054 -0.0049480521
0.0027269938 -0.00094086054 -0.0026103896
0.00054539874 0.00094086054 -0.0035454545
0.0033503068 -0.0032930118 -0.0088441558
-0.0033503068 -0.0029793917 -0.00011688311
0.0097392639 -0.00062724034 -0.0026103896
-0.0033503068 -0.0045474926 -0.0082207788
-0.0022595092 -0.003920252 -0.00011688311
0.0092717791 0.0032930118 -0.00027272728
0.002103681 0.003920252 -0.00027272728
0.01005092 -0.0045474926 -0.0037012987
0.012388343 0.003920252 -0.0085324673
-0.010518405 -0.00062724034 -0.0026103896
-0.012544172 -0.003920252 -0.00027272728
-0.0056877299 0.00047043027 -0.0024545453
-0.00038957054 -0.0010976706 -0.00011688311
0.0013245399 0.0045474926 -0.00089610391
0.00070122699 -0.0045474926 -0.0052597402
0.0072460123 0.0029793917 -0.00027272728
-0.0067785275 0.0045474926 -0.0069740261
-0.0036619632 0.0031362018 -0.00011688311
0.0017920245 0.0015681009 -0.0085324673
-0.012232515 -0.00062724034 -0.00027272728
-0.0127 -0.0029793917 -0.0018311688
0.012388343 0.0043906826 -0.0041688313
0.003506135 -0.0012544807 -0.0088441558
-0.00070122699 0.0045474926 -0.0049480521
0.010985889 -0.00094086054 -0.0033896104
0.0058435583 0.0045474926 -0.0065064933
0.012388343 0.0028225814 -0.0088441558
-0.0049085887 -0.0015681009 0.0020649352
-0.0064668711 -0.0010976706 -0.00011688311
0.0084926384 -0.0025089614 -0.0088441558
-0.0027269938 -0.00094086054 -0.0038571428
-0.0050644171 0.0045474926 -0.0063506495
0.0077134967 0.00094086054 -0.0049480521
0.00038957054 0.0045474926 -0.001987013
-0.0047527608 0.0018817211 -0.00027272728
0.0067785275 -0.0015681009 -0.0088441558
0.0078693246 -0.0015681009 -0.00011688311
-0.0022595092 0.0018817211 -0.00011688311
0.0127 -0.0012544807 -0.00058441557
0.0031944786 0.0045474926 -0.004012987
0.0083368095 0.00047043027 -0.0057272729
0.0047527608 0.0045474926 -0.008064935
-0.0064668711 -0.00062724034 -0.0088441558
-0.010985889 0.0043906826 -0.006038961
0.0067785275 0.0021953413 -0.0088441558
-0.0063110427 0.0036066319 -0.00027272728
0.0056877299 0.0045474926 -0.0079090912
0.0072460123 0.0045474926 -0.0082207788
0.0010128834 0.0034498218 -0.00011688311
-0.0019478528 0.00094086054 -0.0030779222
-0.0031944786 -0.0036066319 -0.00011688311
-0.0031944786 0.0045474926 -0.0071298704
-0.0019478528 -0.0042338725 -0.008688312
0.0050644171 -0.00094086054 0.0011298702
0.011920859 -0.00094086054 -0.0035454545
-0.009583435 0.0017249109 -0.0088441558
0.0072460123 0.0034498218 -0.0088441558
-0.0127 -0.0023521513 -0.0033896104
0.0077134967 -0.0045474926 -0.0029220779
-0.010674233 0.0043906826 -0.0024545453
-0.0127 0.0031362018 -0.0029220779
0.004129448 0.0018817211 -0.0088441558
0.00085705519 0.0045474926 -0.0069740261
-0.012388343 0.00062724034 -0.0075974027
0.0064668711 0.00015681009 -0.0088441558
0.003506135 -0.002038531 -0.00011688311
0.012544172 -0.004077062 -0.0052597402
0.0044411044 -0.00062724034 -0.00011688311
0.0011687117 -0.0032930118 -0.00011688311
0.012388343 0 -0.0071298704
-0.0127 0.0014112907 -0.0061948053
0.0033503068 -0.0034498218 -0.0088441558
0.0036619632 -0.0045474926 -0.0038571428
-0.0019478528 -0.0045474926 -0.0024545453
-0.0072460123 0.00094086054 -0.0055714287
0.0063110427 0.00094086054 -0.0027662339
0.0069343559 -0.0045474926 -0.0083766235
-0.0025711656 0.00047043027 -0.00011688311
0.01005092 -0.00031362017 -0.0026103896
-0.012232515 0.00015681009 -0.00027272728
-0.0080251535 -0.0045474926 -0.0026103896
-0.0027269938 0.0045474926 -0.0071298704
0.0052202451 0.0045474926 -0.0030779222
0.0098950919 0.0036066319 -0.00011688311
0.011453374 0.0043906826 -0.0043246755
-0.012544172 0.0021953413 -0.0068181818
-0.01176503 0.00094086054 -0.0033896104
0.003506135 -0.0045474926 -0.001987013
-0.0017920245 0.00015681009 -0.0058831167
-0.0022595092 -0.0045474926 -0.0033896104
-0.011609202 0.0043906826 -0.0066623376
-0.0022595092 -0.0045474926 -0.0063506495
0.012388343 -0.00015681009 -0.0079090912
-0.004129448 0.00094086054 -0.00011688311
0.011297545 -0.0043906826 -0.0041688313
0.0044411044 -0.0028225814 -0.00027272728
0.0089601222 -0.0045474926 -0.0065064933
-0.009583435 0.00062724034 -0.0088441558
0.0022595092 0.0012544807 0.00035064935
-0.012388343 0.00078405044 -0.00027272728
0.0092717791 0.0043906826 -0.008064935
0.002882822 0.0043906826 -0.00011688311
0.0067785275 -0.0045474926 -0.00089610391
-0.0078693246 -0.0034498218 -0.00027272728
0.010362577 0.00094086054 -0.0035454545
-0.0127 0.0025089614 -0.0085324673
0.0127 -0.0015681009 -0.0026103896
-0.0025711656 -0.0045474926 -0.0016753246
0.0084926384 0.0045474926 -0.0079090912
0.0022595092 0.00094086054 -0.0051038959
0.011297545 0.0028225814 -0.0088441558
-0.0027269938 0.00015681009 -0.00011688311
-0.011920859 -0.0023521513 -0.00027272728
-0.0088042943 0.0045474926 -0.0010519481
0.0127 0.00094086054 -0.0015194805
-0.0050644171 -0.0015681009 3.896104e-05
-0.0098950919 0.0015681009 -0.00027272728
0.0097392639 0.0043906826 -0.0044805193
0.0017920245 -0.00015681009 -0.008688312
0.0024153374 0.00094086054 -0.0037012987
-0.002103681 -0.0045474926 -0.0030779222
-0.0017920245 -0.0045474926 -0.0051038959
0.0027269938 0.0010976706 3.896104e-05
-0.0056877299 -0.0045474926 -0.0022987013
-0.0069343559 0.0045474926 -0.001987013
0.0070901839 0 -0.00011688311
0.002103681 0.00015681009 -0.00011688311
-0.0127 0.0018817211 -0.0055714287
-0.0022595092 0.0045474926 -0.0061948053
0.0127 0.0023521513 -0.0018311688
0.0127 -0.003920252 -0.0015194805
-0.00023374232 0.0015681009 0.0005064935
-0.0033503068 0.0032930118 -0.0088441558
-0.010674233 0.0043906826 -0.0022987013
0.0056877299 -0.0045474926 -0.0075974027
0.00054539874 0.0023521513 -0.008688312
0.011141717 -0.003920252 -0.008688312
0.004129448 -0.0025089614 -0.0088441558
0.0010128834 -0.0045474926 -0.0055714287
0.012544172 0.003920252 -0.00042857142
-0.0094276071 0.0029793917 -0.00027272728
0.0092717791 0.0028225814 -0.00027272728
0.0092717791 -0.0012544807 -0.0088441558
0.0030386501 0.00031362017 -0.00011688311
0.011609202 -0.00094086054 -0.0030779222
0.0024153374 0.00015681009 -0.0024545453
-0.0127 0.0031362018 -0.0082207788
0.012232515 -0.0042338725 -0.0079090912
-0.0089601222 -0.004077062 -0.0088441558
-0.0058435583 -0.00094086054 -0.0052597402
-7.7914112e-05 -0.0045474926 -0.0051038959
0.0097392639 -0.00094086054 -0.0054155844
-0.0092717791 0.0045474926 -0.00089610391
-0.0038177914 -0.0045474926 -0.0010519481
-0.00038957054 0.00094086054 -0.0030779222
0.0094276071 0.0028225814 -0.0088441558
0.002103681 0.0045474926 -0.0018311688
0.0067785275 0.0014112907 -0.0088441558
-0.0033503068 0.00094086054 -0.0026103896
-0.011920859 0 -0.0026103896
-0.0084926384 -0.0045474926 -0.0041688313
0.0050644171 -0.0045474926 -0.0030779222
-0.0069343559 0.0036066319 -0.00027272728
0.0086484663 0.00062724034 -0.0026103896
-0.0039736195 -0.0029793917 -0.00027272728
0.012388343 0.0014112907 -0.0074415584
-0.0077134967 0.0010976706 0.0023766235
-0.0044411044 0.00062724034 -0.0088441558
0.0027269938 0.0018817211 -0.00011688311
-0.0127 0.0010976706 -0.0061948053
0.0017920245 -0.002038531 -0.0088441558
-0.012544172 -0.0042338725 -0.0055714287
-0.0019478528 0.0029793917 -0.00011688311
-0.010518405 0.0043906826 -0.0057272729
-0.0091159511 -0.00047043027 -0.0057272729
0.00023374232 -0.0012544807 0.0015974026
0.011920859 -0.0026657714 -0.00027272728
0.012544172 0.004077062 -0.0030779222
0.0127 0.0034498218 -0.001987013
0.010985889 0.0017249109 -0.00027272728
0.00070122699 -0.003920252 -0.0088441558
0.0025711656 0.00094086054 -0.0035454545
-0.0077134967 -0.0045474926 -0.0068181818
0.012544172 -0.0023521513 -0.0077532469
-0.0081809815 -0.0045474926 -0.0071298704
0.0061552147 -0.00015681009 -0.0088441558
0.0086484663 -0.0045474926 -0.0047922079
0.011920859 -0.0042338725 -0.0026103896
0.0025711656 -0.00094086054 -0.0049480521
-0.0027269938 -0.0037634422 -0.0088441558
-0.0066226991 -0.0015681009 -0.00011688311
-0.0038177914 0.0045474926 -0.00042857142
0.0027269938 0.00078405044 -0.0024545453
0.0094276071 -0.00015681009 -0.0026103896
-0.0072460123 0.00094086054 -0.0047922079
0.0097392639 -0.0045474926 -0.0055714287
-0.0019478528 0.0031362018 -0.0085324673
-0.0047527608 0.00094086054 -0.0029220779
0.002103681 -0.00047043027 -0.008688312
0.0127 -0.0026657714 -0.0054155844
-0.0025711656 0.0010976706 0.0025324675
-0.011920859 0.0042338725 -0.0069740261
0.0059993863 0.0045474926 -0.0072857141
-0.0044411044 0.0045474926 -0.0013636363
-0.0050644171 0.0017249109 0.0015974026
0.0052202451 -0.00094086054 -0.0044805193
-0.012544172 0.0042338725 -0.0027662339
-0.0017920245 -0.0021953413 -0.00011688311
0.012388343 -0.0031362018 -0.008688312
0.0066226991 0.0045474926 -0.0030779222
0.0083368095 0.00094086054 -0.0044805193
0.0022595092 0.0010976706 0.0015974026
0.0025711656 -0.00094086054 -0.0035454545
-0.0064668711 0.00094086054 -0.0035454545
0.0011687117 -0.0031362018 -0.00011688311
0.0039736195 0.002038531 -0.00027272728
0.0050644171 0.0045474926 -0.0012077922
-0.0092717791 -0.0042338725 -0.008688312
0.0024153374 0.004077062 -0.0088441558
0.0017920245 -0.00094086054 -0.004012987
0.0072460123 0.0012544807 0.00081818184
0.0078693246 0.0045474926 -0.0032337662
-0.0127 0.0037634422 -0.0021428571
0.0066226991 0.0010976706 -0.0088441558
-0.0127 -0.00015681009 -0.0015194805
-0.005531902 -0.00094086054 -0.0026103896
0.0098950919 0.0043906826 -0.0071298704
0.00085705519 -0.0045474926 -0.001987013
0.0072460123 0.00047043027 -0.0024545453
-0.011141717 0.00094086054 -0.0054155844
-0.0072460123 0.0045474926 -0.0051038959
-0.0075576687 -0.00047043027 -0.0024545453
-0.011453374 0.0043906826 -0.0079090912
0.0089601222 -0.0045474926 -0.0046363636
0.0084926384 0.0045474926 -0.00058441557
0.0017920245 0.0032930118 -0.00011688311
0.0064668711 0.0015681009 -0.0088441558
0.0075576687 0.0045474926 -0.0085324673
-0.011453374 -0.0043906826 -0.001987013
-0.0084926384 -0.0045474926 -0.0012077922
0.0027269938 -0.0045474926 -0.0010519481
0.009583435 -0.0045474926 -0.0024545453
-0.012076687 0.0026657714 -0.008688312
-0.0024153374 0.00094086054 0.00066233764
-0.0081809815 0.0045474926 -0.0068181818
-0.0074018403 0.0014112907 0.0019090909
-0.0075576687 0.0045474926 -0.0010519481
0.0127 0.0015681009 -0.0057272729
-0.0084926384 0.0045474926 -0.004012987
-0.0063110427 0.0017249109 -0.00011688311
-0.0088042943 -0.0045474926 -0.0072857141
-0.011297545 0.0043906826 -0.0051038959
0.0058435583 0.003920252 -0.0088441558
0.0086484663 -0.0045474926 -0.006038961
-0.0074018403 0.0045474926 -0.00027272728
-0.0050644171 -0.0015681009 0.0011298702
0.012388343 0.00015681009 -0.0085324673
-0.0078693246 -0.0014112907 0.00019480519
0.0070901839 -0.0021953413 -0.00027272728
-0.0127 0.0025089614 -0.0024545453
-0.0027269938 0.003920252 -0.00011688311
-0.010518405 -0.0045474926 -0.0047922079
0.004129448 -0.0034498218 -0.0088441558
0.01005092 0.00094086054 -0.0032337662
-0.0036619632 -0.0045474926 -0.00089610391
0.00023374232 0.0045474926 -0.0061948053
-0.0022595092 -0.0037634422 -0.0088441558
0.0025711656 0.0017249109 0.0017532468
-0.010985889 0.0043906826 -0.0016753246
0.012544172 -0.0032930118 -0.0074415584
0.0050644171 -0.00094086054 0.00081818184
-0.0127 0.0023521513 -0.006038961
-0.0056877299 -0.0045474926 -0.0072857141
-0.0088042943 0.0045474926 -0.0047922079
0.012544172 -0.004077062 -0.0079090912
-0.010518405 -0.00094086054 -0.0029220779
0.0067785275 -0.0045474926 -0.0082207788
0.0127 -0.0034498218 -0.00042857142
-0.0091159511 -0.00062724034 -0.0026103896
0.0066226991 0.0028225814 -0.0088441558
-0.0127 -0.003920252 -0.0024545453
0.0078693246 0.0012544807 0.0011298702
0.0045969323 0.0045474926 -0.0032337662
0.0058435583 -0.0028225814 -0.0088441558
0.0044411044 0.0045474926 -0.0057272729
-0.00070122699 -0.00078405044 -0.0024545453
-0.00023374232 0.0032930118 -0.00011688311
0.0013245399 0.0037634422 -0.0085324673
-0.002882822 -0.0045474926 -0.0047922079
-0.00038957054 -0.0045474926 -0.0066623376
7.7914112e-05 0.0034498218 -0.0085324673
0.0127 0.0015681009 -0.0018311688
0.012076687 0.00094086054 -0.0035454545
-0.0024153374 -0.0015681009 0.0014415585
0.0086484663 -0.00094086054 -0.0055714287
7.7914112e-05 0.0017249109 0.0012857143
-0.0022595092 -0.00094086054 -0.0029220779
0.010830062 0.0034498218 -0.00027272728
-0.012076687 0.0014112907 -0.00027272728
0.0033503068 -0.0036066319 -0.00011688311
0.0039736195 0.00015681009 -0.0024545453
-0.0049085887 0.00094086054 0.00066233764
0.0036619632 -0.0045474926 -0.0027662339
-0.0069343559 -0.00078405044 -0.0024545453
-0.0088042943 -0.0045474926 -0.0024545453
0.010985889 -0.0043906826 -0.0054155844
-0.0061552147 -0.00094086054 -0.0027662339
-0.0077134967 -0.00094086054 0.0011298702
0.012388343 0.00094086054 -0.0088441558
0.0059993863 -0.0045474926 -0.004012987
0.0010128834 0.0045474926 -0.008064935
-0.0063110427 -0.0045474926 -0.0083766235
0.0083368095 -0.0026657714 -0.0088441558
-0.0072460123 -0.0045474926 -0.00027272728
-0.0019478528 0.004077062 -0.00027272728
-0.012388343 0.0010976706 -0.00027272728
-0.0097392639 -0.0045474926 -0.0069740261
-0.0016361963 0.0045474926 -0.0012077922
0.0094276071 -0.00094086054 -0.0033896104
-0.004129448 -0.0010976706 -0.008688312
-0.0031944786 0.0045474926 -0.0044805193
-0.0042852759 -0.0029793917 -0.0088441558
0.0098950919 -0.0045474926 -0.00074025971
-0.010362577 0.0045474926 -0.0043246755
0.0075576687 0.0017249109 -0.00011688311
0.00054539874 0.0026657714 -0.00011688311
0.002882822 -0.00015681009 -0.008688312
0.0036619632 0 -0.0024545453
0.0098950919 0.0034498218 -0.0088441558
0.0050644171 -0.0010976706 0.0026883117
0.0072460123 0.002038531 -0.0088441558
0.0030386501 0.0031362018 -0.00011688311
0.009583435 0.0043906826 -0.0054155844
-0.01176503 -0.0026657714 -0.0088441558
-0.002882822 0.0014112907 0.00035064935
-0.00054539874 0.0045474926 -0.001987013
0.0127 0.003920252 -0.00058441557
-0.0014803681 0.0045474926 -0.0043246755
0.010830062 -0.0043906826 -0.0022987013
0.003506135 -0.00031362017 -0.00011688311
0.0042852759 -0.0045474926 -0.0055714287
0.005531902 0.0015681009 -0.0088441558
-7.7914112e-05 0.00094086054 -0.0033896104
0.011453374 0.00031362017 -0.00027272728
-0.0049085887 0.00094086054 -0.0052597402
-0.0078693246 0.0032930118 -0.0088441558
-0.01176503 0.00062724034 -0.0088441558
-0.012232515 -0.00094086054 -0.0033896104
-0.003506135 -0.0045474926 -0.0055714287
-0.0078693246 -0.0012544807 0.0017532468
0.0061552147 0.0045474926 -0.00074025971
-0.0069343559 -0.00094086054 -0.0030779222
0.012388343 0.00015681009 -0.0082207788
0.010674233 0.0043906826 -0.00042857142
0.00070122699 0.0015681009 -0.00011688311
0.0050644171 -0.003920252 -0.00027272728
0.0070901839 0.00031362017 -0.00011688311
-0.0052202451 0.0045474926 -0.0082207788
-0.00038957054 -0.0045474926 -0.0018311688
0.011453374 0.00094086054 -0.0030779222
0.0050644171 0.0017249109 0.0017532468
0.0066226991 0.00015681009 -0.00011688311
-0.00085705519 0.0045474926 -0.0051038959
-0.012232515 -0.0043906826 -0.0047922079
-0.0077134967 0.00062724034 -0.0057272729
-0.0017920245 0.0018817211 -0.00011688311
-0.0078693246 -0.00094086054 -0.0035454545
0.0086484663 0.0045474926 -0.00042857142
0.010985889 0.0018817211 -0.0088441558
0.0011687117 -0.0045474926 -0.0044805193
-0.0042852759 -0.00047043027 -0.0088441558
0.0083368095 -0.00062724034 -0.0057272729
0.0030386501 -0.0045474926 -0.0021428571
0.0075576687 -0.0045474926 -0.0083766235
0.0098950919 -0.0012544807 -0.0088441558
-0.0056877299 -0.0031362018 -0.0088441558
0.0077134967 -0.00015681009 -0.0024545453
0.0069343559 -0.0037634422 -0.008688312
-0.011609202 0.0043906826 -0.00027272728
0.0070901839 -0.002038531 -0.00027272728
-0.0059993863 -0.0045474926 -0.0016753246
0.0092717791 0.0043906826 -0.0018311688
-0.0089601222 0.0045474926 -0.0026103896
0.0078693246 0.0045474926 -0.0043246755
-0.00023374232 -0.0045474926 -0.0018311688
-0.0083368095 -0.0045474926 -0.0071298704
0.0088042943 0.00031362017 -0.0057272729
0.0074018403 0.0028225814 -0.00027272728
0.0039736195 0.0014112907 -0.008688312
-0.0059993863 0.0045474926 -0.0026103896
-0.0019478528 -0.0021953413 -0.0088441558
-0.0014803681 0.0017249109 -0.00011688311
-0.0127 0.0010976706 -0.0013636363
0.010830062 -0.00094086054 -0.004012987
-0.012544172 -0.0021953413 -0.0079090912
0.0042852759 -0.0025089614 -0.00011688311
0.0056877299 0.0045474926 -0.0063506495
0.011609202 0.0021953413 -0.0088441558
-0.0080251535 0.0015681009 -0.0088441558
0.0083368095 -0.0045474926 -0.008064935
0.0039736195 -0.0045474926 -0.0044805193
-0.002103681 -0.00094086054 -0.0047922079
-0.0014803681 -0.0010976706 -0.008688312
0.0074018403 0.0015681009 0.00035064935
-0.0064668711 0.0031362018 -0.00027272728
-0.011609202 -0.00094086054 -0.0030779222
0.0061552147 0.00094086054 -0.0052597402
-0.0074018403 -0.0045474926 -0.0046363636
0.0052202451 -0.00094086054 0.0012857143
-0.0088042943 -0.0045474926 -0.0066623376
-0.0072460123 0.0045474926 -0.00074025971
-0.0064668711 0.00078405044 -0.0024545453
0.0052202451 0.00078405044 -0.0057272729
0.0031944786 -0.00031362017 -0.00011688311
0.0059993863 -0.0045474926 -0.0029220779
-0.011920859 0.0042338725 -0.0082207788
0.012544172 0.0018817211 -0.0065064933
-0.00085705519 0.0045474926 -0.0033896104
-0.0038177914 -0.003920252 -0.0088441558
-0.0017920245 0.0018817211 -0.0085324673
0.012388343 0.0042338725 -0.00089610391
-0.0014803681 0.0045474926 -0.0022987013
0.0011687117 0.0015681009 -0.008688312
0.0078693246 -0.00094086054 -0.0033896104
0.0091159511 -0.0017249109 -0.0088441558
0.012544172 -0.0023521513 -0.0079090912
-0.0070901839 0.00062724034 -0.0088441558
-0.0019478528 0.0028225814 -0.00011688311
0.0022595092 0.0012544807 -0.008688312
-0.0127 -0.0014112907 -0.0046363636
0.011609202 0.0043906826 -0.0069740261
0.0050644171 -0.00062724034 -0.00011688311
-0.004129448 0.0045474926 -0.0075974027
0.0011687117 0.00062724034 -0.00011688311
-0.005531902 0.00094086054 -0.0051038959
0.00070122699 0.0025089614 -0.0085324673
-0.003506135 -0.0021953413 -0.00011688311
0.0010128834 0.002038531 -0.00011688311
-0.0053760735 0.0015681009 0.0017532468
-0.0044411044 0.0025089614 -0.00027272728
-0.002882822 0.0018817211 -0.0085324673
0.0025711656 -0.0015681009 0.00097402598
0.0066226991 0.00094086054 -0.0038571428
0.011141717 0.0026657714 -0.0088441558
-0.0127 -0.0026657714 -0.0043246755
0.0024153374 0.0023521513 -0.0085324673
0.0044411044 0.0012544807 -0.0088441558
-0.011920859 -0.0043906826 -0.0054155844
-0.0097392639 0.00062724034 -0.0057272729
0.0058435583 0.00094086054 -0.0043246755
-0.0086484663 0.0037634422 -0.008688312
-0.0053760735 0.00015681009 -0.00027272728
-0.0049085887 0.0045474926 -0.0071298704
-0.0036619632 -0.0045474926 -0.0074415584
0.00038957054 0.0031362018 -0.00011688311
-0.002882822 -0.0045474926 -0.0012077922
0.0070901839 0.00078405044 -0.00027272728
0.0089601222 0.00031362017 -0.00027272728
0.0016361963 -0.002038531 -0.0088441558
-0.0074018403 0.0045474926 -0.004012987
-0.0019478528 -0.0015681009 -0.0088441558
-0.011609202 -0.00015681009 -0.0055714287
7.7914112e-05 -0.0045474926 -0.0038571428
-0.0088042943 -0.0045474926 -0.001987013
-0.0077134967 0.00062724034 -0.0024545453
0.0089601222 -0.0036066319 -0.008688312
0.00038957054 -0.00094086054 -0.0052597402
0.0063110427 -0.0045474926 -0.0033896104
-0.0091159511 0.0045474926 -0.008064935
0.0022595092 -0.0012544807 3.896104e-05
0.0072460123 0.0015681009 0.00035064935
-0.010674233 0.0043906826 -0.0013636363
-0.0097392639 0.00062724034 -0.0088441558
0.0084926384 0.0045474926 -0.0058831167
-0.0072460123 0.0045474926 -0.0046363636
0.0083368095 -0.00094086054 -0.004012987
-0.012388343 0.004077062 -0.0079090912
-0.011141717 0.0043906826 -0.0013636363
0.0022595092 -0.0025089614 -0.0088441558
-0.002882822 0.0045474926 -0.00058441557
-0.012232515 0.0026657714 -0.008688312
0.012388343 -0.004077062 -0.0054155844
0.012388343 -0.00015681009 -0.0072857141
0.0033503068 0.0032930118 -0.00011688311
-0.00038957054 -0.0045474926 -0.0077532469
-0.0083368095 -0.00094086054 -0.0046363636
-0.0047527608 -0.00094086054 -0.004012987
0.012076687 0.0028225814 -0.0088441558
0.0084926384 0.0032930118 -0.00027272728
0.0081809815 -0.00015681009 -0.0026103896
0.0017920245 -0.0010976706 -0.008688312
0.0098950919 0.0043906826 -0.00074025971
0.0127 -0.0014112907 -0.0016753246
-0.012388343 -0.00031362017 -0.008688312
-0.0089601222 0.0045474926 -0.0046363636
-0.0072460123 -0.0014112907 0.00035064935
0.0017920245 0.0045474926 -0.004012987
0.0049085887 0.0014112907 -0.0088441558
-0.0064668711 -0.0012544807 -0.0088441558
0.012544172 0.0023521513 -0.0085324673
-0.0127 -0.003920252 -0.0063506495
0.002882822 -0.00094086054 -0.0032337662
0.0075576687 -0.0045474926 -0.0022987013
-0.01176503 -0.0043906826 -0.0044805193
-0.0063110427 -0.0025089614 -0.00027272728
0.011141717 -0.0043906826 -0.006038961
0.0088042943 0.0045474926 -0.0033896104
-0.002882822 -0.0045474926 -0.0061948053
-0.011920859 0.0031362018 -0.00027272728
-0.010362577 0.003920252 -0.00027272728
-0.0083368095 -0.00015681009 -0.0088441558
0.0052202451 -0.0045474926 -0.0033896104
-0.0127 0.0025089614 -0.001987013
-0.0063110427 0.0025089614 -0.0088441558
-0.002882822 0.0045474926 -0.0015194805
0.0127 0.0031362018 -0.006038961
0.012544172 -0.0021953413 -0.0068181818
-0.0072460123 0.0045474926 -0.00042857142
0.0045969323 -0.0021953413 -0.00027272728
0.0059993863 -0.0045474926 -0.0075974027
-0.0010128834 0.00078405044 -0.00011688311
0.0078693246 0.0012544807 0.00097402598
-0.0050644171 0.00094086054 -0.0032337662
0.0017920245 -0.00078405044 -0.00011688311
0.00070122699 -0.00078405044 -0.008688312
-0.0081809815 -0.0045474926 -0.0082207788
0.0031944786 -0.0017249109 -0.0088441558
-0.0092717791 -0.00094086054 -0.0054155844
-0.0042852759 0.00062724034 -0.0024545453
-0.0011687117 0 -0.00011688311
0.0070901839 -0.0045474926 -0.0026103896
0.010985889 -0.0043906826 -0.0052597402
0.0078693246 0.0045474926 -0.0082207788
-0.00054539874 0.0032930118 -0.00011688311
-0.0127 0.00015681009 -0.0057272729
0.0027269938 0.00047043027 -0.008688312
-0.0011687117 -0.0045474926 -0.0082207788
0.0127 -0.00094086054 -0.0010519481
0.0080251535 -0.0045474926 -0.0035454545
0.0047527608 -0.0037634422 -0.0088441558
-0.0061552147 0.0029793917 -0.00027272728
-0.0049085887 -0.003920252 -0.008688312
0.0059993863 -0.00094086054 -0.004012987
-0.0042852759 0.0045474926 -0.0035454545
0.012232515 -0.00094086054 -0.0035454545
0.012544172 0.0029793917 -0.0072857141
0.0127 -0.002038531 -0.0047922079
-0.0058435583 -0.0015681009 -0.00011688311
0.0042852759 0.00094086054 -0.0037012987
-0.0025711656 0.0045474926 -0.0061948053
0.0011687117 0.0045474926 -0.0021428571
0.0031944786 0.00062724034 -0.0024545453
-7.7914112e-05 -0.0014112907 0.0025324675
0.011141717 0.0021953413 -0.00027272728
0.002103681 0.0010976706 -0.00011688311
0.0067785275 -0.0014112907 -0.0088441558
-0.012388343 0.004077062 -0.0068181818
0.0063110427 -0.0045474926 -0.0030779222
-0.0078693246 0.0014112907 0.0011298702
0.00070122699 0.0042338725 -0.00027272728
0.0127 -0.00094086054 -0.0047922079
-0.0036619632 0.003920252 -0.0088441558
-0.0098950919 -0.0036066319 -0.00011688311
0.010518405 -0.0028225814 -0.00027272728
-0.012388343 -0.0015681009 -0.0077532469
-0.00023374232 0.0018817211 -0.00011688311
0.00085705519 -0.00094086054 -0.0044805193
0.010362577 0.00094086054 -0.0032337662
-0.0078693246 0.003920252 -0.00027272728
0.0030386501 0.00078405044 -0.0024545453
-0.00023374232 -0.0012544807 0.0017532468
-0.0045969323 0.0034498218 -0.00027272728
0.012076687 0.0043906826 -0.0065064933
0.0039736195 -0.0045474926 -0.0049480521
0.0098950919 0.0043906826 -0.001987013
-0.00023374232 -0.00047043027 -0.008688312
-0.00054539874 0.0043906826 -0.0083766235
-0.011141717 -0.0037634422 -0.00027272728
0.0011687117 0.0045474926 -0.004012987
0.0092717791 -0.0045474926 -0.0018311688
0.011609202 0.0025089614 -0.00027272728
-0.00038957054 -0.003920252 -0.00011688311
-0.0127 0.004077062 -0.0054155844
0.0078693246 0.0018817211 -0.0088441558
0.0033503068 -0.0045474926 -0.0037012987
-0.0072460123 -0.0045474926 -0.0021428571
-0.012544172 -0.0017249109 -0.00027272728
-0.0030386501 0.00094086054 -0.0049480521
-0.0127 0.00078405044 -0.0057272729
-0.0022595092 -0.0014112907 0.0017532468
0.0097392639 0.0031362018 -0.0088441558
-0.0061552147 0.00047043027 -0.0088441558
0.011141717 -0.0034498218 -0.008688312
-0.012232515 0.0021953413 -0.0088441558
-0.0127 -0.0012544807 -0.0010519481
-0.0016361963 -0.0045474926 -0.0049480521
0.0053760735 0.0014112907 0.0015974026
-0.0058435583 0.0045474926 -0.001987013
-0.0078693246 -0.0010976706 0.0015974026
-0.0074018403 -0.00094086054 -0.0044805193
-0.0127 0.0021953413 -0.0033896104
0.010362577 -0.00094086054 -0.0055714287
-0.0017920245 0.0045474926 -0.006038961
0.0092717791 -0.0045474926 -0.0075974027
0.0016361963 0.0015681009 -0.00011688311
-0.0066226991 -0.0045474926 -0.0061948053
-0.0030386501 0.0045474926 -0.0010519481
-0.0036619632 0.00078405044 -0.0057272729
-0.0038177914 -0.0036066319 -0.00011688311
0.0011687117 -0.00015681009 -0.008688312
-0.0127 -0.0028225814 -0.00042857142
0.0075576687 -0.0045474926 -0.0052597402
0.012076687 0.0043906826 -0.006038961
-0.0049085887 0.00015681009 -0.0088441558
0.0030386501 -0.0045474926 -0.0038571428
0.012388343 -0.0021953413 -0.0088441558
0.0074018403 -0.0045474926 -0.0049480521
0.012544172 -0.0037634422 -0.0061948053
-0.0092717791 -0.0045474926 -0.00089610391
0.0069343559 -0.0045474926 -0.0015194805
0.00070122699 0.0017249109 -0.00011688311
-0.012388343 0.00094086054 -0.0049480521
0.0053760735 0.00078405044 -0.0024545453
0.010674233 -0.0043906826 -0.001987013
-0.0127 0.00094086054 -0.004012987
-0.002103681 0.00031362017 -0.0024545453
0.0056877299 0.00062724034 -0.0057272729
-0.01005092 0.00094086054 -0.0051038959
-0.003506135 -0.0031362018 -0.00011688311
0.0072460123 -0.0015681009 -0.00011688311
0.0127 0.0018817211 -0.0029220779
-0.0078693246 0.0010976706 0.00097402598
-0.00085705519 -0.0045474926 -0.0038571428
-0.0049085887 0.0043906826 -0.008688312
-0.0080251535 -0.0045474926 -0.0016753246
-0.003506135 0.0025089614 -0.00011688311
-0.00054539874 -0.0045474926 -0.00074025971
0.0049085887 -0.0014112907 0.0005064935
-0.0056877299 0.0045474926 -0.0016753246
-0.0016361963 -0.0045474926 -0.0054155844
-0.0083368095 -0.00094086054 -0.0041688313
0.0027269938 -0.00094086054 -0.0032337662
-0.01005092 -0.0028225814 -0.0088441558
-0.003506135 0.0045474926 -0.0013636363
-0.012544172 -0.0023521513 -0.008064935
0.0027269938 -0.00094086054 -0.0035454545
0.0036619632 0.00094086054 -0.0043246755
0.002882822 -0.0031362018 -0.00011688311
0.0084926384 -0.0037634422 -0.008688312
0.009583435 -0.0045474926 -0.0047922079
-0.012388343 0.00094086054 -0.008064935
0.0127 0.0029793917 -0.0043246755
0.0081809815 -0.00078405044 -0.00011688311
-0.0072460123 -0.0042338725 -0.00027272728
0.005531902 0.0025089614 -0.00027272728
-0.0084926384 0.0045474926 -0.0085324673
-0.0089601222 -0.0045474926 -0.0068181818
0.004129448 -0.0045474926 -0.0083766235
-0.011297545 0.00078405044 -0.00027272728
-0.0063110427 0.0045474926 -0.0082207788
-0.010206749 0.0045474926 -0.0069740261
-0.010674233 -0.0045474926 -0.0038571428
-0.0127 -0.00015681009 -0.0055714287
-0.0094276071 -0.00094086054 -0.0035454545
-0.0061552147 -0.0045474926 -0.0010519481
-0.011920859 -0.0037634422 -0.00027272728
0.011609202 -0.00094086054 -0.0037012987
-0.0070901839 -0.0045474926 -0.0030779222
-0.00054539874 -0.0014112907 -0.00011688311
-0.0063110427 -0.00094086054 -0.0047922079
0.0077134967 0.00015681009 -0.0057272729
-0.0044411044 -0.0045474926 -0.0022987013
0.00085705519 -0.00031362017 -0.0024545453
0.0049085887 -0.00031362017 -0.0088441558
-0.0078693246 -0.0045474926 -0.0013636363
0.0024153374 0.00094086054 -0.0026103896
0.0049085887 -0.0037634422 -0.00027272728
-0.0064668711 -0.0026657714 -0.0088441558
-0.0074018403 0.0045474926 -0.0012077922
-0.00023374232 0.0021953413 -0.008688312
-0.0127 0.00015681009 -0.0063506495
0.0053760735 0.00015681009 -0.0088441558
-0.0127 0.0028225814 -0.008688312
-0.0127 -0.00047043027 -0.0010519481
-0.0038177914 -0.00078405044 -0.00011688311
-0.0094276071 -0.0043906826 -0.0083766235
-0.011141717 0.0043906826 -0.0074415584
-0.010518405 -0.0045474926 -0.0030779222
-0.0127 -0.0036066319 -0.00058441557
-0.005531902 -0.00078405044 -0.0024545453
-0.0098950919 -0.0012544807 -0.00027272728
-0.0075576687 -0.0025089614 -0.00027272728
0.0036619632 0.0045474926 -0.0024545453
0.0042852759 0.00015681009 -0.0057272729
0.00070122699 0.00094086054 -0.0051038959
-0.0010128834 -0.00062724034 -0.008688312
0.012232515 -0.0042338725 -0.00058441557
-0.0077134967 0.0015681009 0.0023766235
-0.002882822 0.0015681009 0.00035064935
-0.012076687 -0.0043906826 -0.0046363636
0.0047527608 -0.0045474926 -0.0055714287
0.0058435583 0.00094086054 -0.0041688313
0.0066226991 0.0045474926 -0.0035454545
-0.0127 0.00015681009 -0.0024545453
0.00085705519 -0.0043906826 -0.008688312
-0.010985889 0.00094086054 -0.0037012987
-0.0080251535 0.0045474926 -0.006038961
-0.012544172 -0.00078405044 -0.0055714287
-0.0127 -0.0037634422 -0.0083766235
-0.0069343559 0.0026657714 -0.00027272728
-0.0097392639 0.0045474926 -0.0075974027
-0.010674233 0.00094086054 -0.0051038959
-0.0098950919 0.0045474926 -0.0015194805
-0.002103681 -0.00047043027 -0.008688312
-0.0053760735 0.0045474926 -0.0010519481
0.0127 0.0034498218 -0.0074415584
0.0010128834 -0.0045474926 -0.0074415584
-0.0084926384 -0.0045474926 -0.0046363636
0.0025711656 0.00031362017 -0.0024545453
-0.010518405 -0.0032930118 -0.0088441558
-0.0127 -0.00047043027 -0.006038961
0.0013245399 -0.00031362017 -0.0058831167
-0.0047527608 0.0037634422 -0.0088441558
0.0127 -0.00047043027 -0.0021428571
0.0016361963 -0.0045474926 -0.0063506495
0.01005092 0.0010976706 -0.0088441558
0.010362577 0.0029793917 -0.00027272728
-0.0025711656 0.0045474926 -0.0075974027
-0.0091159511 0.00015681009 -0.0057272729
-7.7914112e-05 0.00015681009 -0.0058831167
0.00070122699 -0.0045474926 -0.0026103896
-0.0091159511 0.00031362017 -0.0057272729
-0.0127 0 -0.0015194805
0.0056877299 0.0028225814 -0.00027272728
-0.0017920245 0.00094086054 -0.0044805193
0.0030386501 0.0036066319 -0.0088441558
0.0078693246 0.00015681009 -0.0057272729
0.010674233 0.0023521513 -0.00027272728
0.0050644171 -0.0015681009 0.0015974026
0.0127 -0.0036066319 -0.0041688313
0.0044411044 -0.0021953413 -0.0088441558
0.0024153374 0.0014112907 0.0026883117
-0.0063110427 -0.00094086054 -0.0046363636
-0.01005092 -0.00094086054 -0.0035454545
-0.010674233 0.0031362018 -0.0088441558
0.0083368095 0.0010976706 -0.0088441558
-0.0039736195 -0.00094086054 -0.0033896104
0.0010128834 0.0032930118 -0.00011688311
-0.0050644171 0.0045474926 -0.0024545453
-0.010206749 -0.0045474926 -0.008688312
0.0050644171 -0.0015681009 0.0017532468
0.0098950919 0.00078405044 -0.00027272728
-0.0070901839 0.0045474926 -0.0043246755
0.0098950919 0.0028225814 -0.00027272728
-0.0127 0 -0.00089610391
-0.0014803681 -0.0045474926 -0.0015194805
0.0058435583 -0.0026657714 -0.00027272728
0.0097392639 -0.00094086054 -0.004012987
0.0078693246 -0.0010976706 0.00035064935
0.0127 -0.00094086054 -0.0030779222
0.0080251535 0.0045474926 -0.0051038959
-0.0024153374 -0.0045474926 -0.0072857141
0.0013245399 -0.0028225814 -0.0088441558
-0.0047527608 0.0012544807 -0.00011688311
-0.0044411044 0.00094086054 -0.0047922079
-0.0053760735 -0.0026657714 -0.00027272728
0.010830062 0.0043906826 -0.0083766235
0.0084926384 0.00094086054 -0.0047922079
-0.012076687 -0.0034498218 -0.00027272728
0.0091159511 0.0043906826 -0.00089610391
0.0033503068 0.0045474926 -0.001987013
0.0019478528 -0.004077062 -0.00011688311
0.0059993863 -0.0045474926 -0.0047922079
-0.0024153374 0.0015681009 0.0017532468
0.00070122699 -0.0045474926 -0.0079090912
0.012388343 -0.004077062 -0.00074025971
-0.010206749 0.00078405044 -0.0057272729
-0.0053760735 0.0045474926 -0.0071298704
0.0059993863 0.00047043027 -0.00011688311
-0.0127 -0.0036066319 -0.0052597402
0.0016361963 -0.00015681009 -0.00011688311
-0.0097392639 0.0045474926 -0.0013636363
-0.0127 0.0037634422 -0.0010519481
0.010674233 -0.0025089614 -0.0088441558
0.012388343 -0.0029793917 -0.00027272728
-0.009583435 -0.0043906826 -0.00027272728
0.012388343 0.00094086054 -0.0075974027
