# .PCD v0.7 - Point Cloud Data file format
VERSION 0.7
FIELDS x y z
SIZE 4 4 4
TYPE F F F
COUNT 1 1 1
WIDTH 1197
HEIGHT 1
VIEWPOINT 0 0 0 1 0 0 0
POINTS 1197
DATA ascii
-0.00059433962 -0.002781081 -0.0094845798
0.0099056605 0.0015891892 -0.016816549
-0.0033679246 -0.00039729729 -0.00036915956
0.0059433961 0.0067540538 -0.00036915956
-0.0099056605 -0.0059594596 -0.00017099825
-0.0089150947 0.0071513513 -0.00195445
0.0099056605 0.0019864864 -0.0098809022
-0.0053490568 0.0015891892 -0.00036915956
-0.00059433962 -0.0041716215 -0.016618388
-0.0051509435 -0.0029797298 -0.00017099825
-0.0021792452 0.00079459458 -0.013249645
-0.0087169809 -0.0049662162 -0.017411033
0.0071320753 0.0073500001 -0.0073048053
-0.00059433962 0.0021851351 -0.014636775
0.010103773 0.002781081 -0.017609194
-0.0099056605 0.0015891892 -0.0035397406
-0.0097075468 -0.00059594592 -0.0047287084
0.0011886792 -0.0037743242 -0.010475387
-0.0099056605 0 -0.00036915956
0.00059433962 -0.0041716215 -0.009682741
0.0041603772 0.0053635132 -0.00036915956
0.00099056598 -0.0073500001 -0.0088900961
0.00039622642 -0.0071513513 -0.015627582
0.0029716981 -0.0073500001 -0.0071066441
0.010103773 -0.0025824325 -0.007899289
0.0089150947 0.0053635132 -0.017411033
-0.0105 0.0051648649 -0.017212871
-0.0015849057 -0.0067540538 -0.0021526113
0.0089150947 0.00059594592 -0.017212871
-0.0097075468 -0.00039729729 -0.00096364348
0.0089150947 0.0049662162 -0.0027470954
0.0059433961 -0.0053635132 -0.00036915956
-0.010301887 0.0039729727 -0.0023507727
-0.0039622639 0.005562162 -0.013051484
-0.0105 0.0065554054 -0.0090882573
-0.0051509435 -0.0031783783 0.0024050989
0.00059433962 0.0073500001 -0.0071066441
0.0089150947 -0.00039729729 -0.010475387
-0.0091132075 -0.0067540538 -0.010475387
0.0081226416 -0.0029797298 -0.012258838
0.0063396227 0.0073500001 -0.0029452567
0.00059433962 -0.0025824325 -0.012258838
0.00059433962 -0.0013905405 -0.017411033
0.0033679246 -0.0073500001 -0.0077011283
0.0093113212 0.0063567567 -0.0045305472
0.00059433962 0.002781081 -0.015231258
-0.0015849057 0.0059594596 -0.012853323
0.0011886792 -0.0019864864 -0.010277226
-0.0097075468 -0.00019864865 -0.011069871
-0.0043584905 -0.0073500001 -0.0047287084
0.0027735848 -0.0039729727 -0.00036915956
0.00059433962 0.00099324319 -0.011268032
0.0045566037 -0.0029797298 0.0012161309
0.00059433962 -0.0037743242 -0.016816549
-0.0045566037 -0.0073500001 -0.0035397406
0.010301887 0.0043702703 -0.0051250309
-0.0105 -0.0061581079 -0.0092864186
-0.0059433961 0.0073500001 -0.010277226
0.010301887 0.0043702703 -0.010277226
-0.009509434 -0.0035756757 -0.00017099825
-0.0105 -0.0069527025 -0.00017099825
-0.010103773 0.0029797298 -0.012060677
0.010103773 -0.0025824325 -0.016222065
0.010301887 -0.0025824325 -0.018203678
-0.0023773585 0.0039729727 -0.00036915956
0.0089150947 -0.0049662162 -0.012655161
0.0089150947 0.0073500001 -0.010079063
-0.010301887 -0.0039729727 -0.00017099825
-0.004754717 0.0011918918 -0.00036915956
-0.00059433962 -0.0037743242 -0.011268032
0.0083207544 -0.0071513513 -0.00036915956
-0.0097075468 0.00059594592 -0.0017562888
0.0099056605 -0.0071513513 -0.0084937736
-0.0081226416 0.0057608108 -0.012853323
-0.0039622639 0.0073500001 -0.009682741
-0.0085188681 -0.0073500001 -0.010673548
-0.0091132075 -0.0047675674 -0.0031434179
-0.0105 0.005562162 -0.016023904
0.0051509435 0.0073500001 -0.0084937736
0.0091132075 -0.0063567567 -0.017411033
-0.0093113212 -0.0073500001 -0.016222065
0.010103773 0.005562162 -0.0023507727
0.010301887 0.0073500001 -0.007502967
0.00039622642 0.0073500001 -0.002548934
0.0033679246 -0.0073500001 -0.0080974512
-0.0091132075 0.0065554054 -0.0007654822
0.004754717 -0.0073500001 -0.011466193
0.0089150947 -0.00059594592 -0.012655161
0.0079245279 -0.0073500001 -0.002548934
-0.0083207544 -0.0061581079 -0.010871709
0.0081226416 -0.0071513513 -0.011268032
-0.0099056605 0.0011918918 -0.0049268696
-0.0091132075 -0.0047675674 -0.0029452567
-0.0099056605 0.0071513513 -0.0037379018
0.00079245283 0.0073500001 -0.0073048053
0.00059433962 -0.0033770269 -0.010475387
0.004754717 0.0073500001 -0.0035397406
0 0.0065554054 -0.018203678
0.010301887 0.005562162 -0.002548934
-0.010103773 -0.0037743242 -0.010673548
-0.00059433962 0.0045689191 -0.010673548
-0.0089150947 -0.00079459458 -0.016816549
-0.0017830188 0.0053635132 -0.00036915956
0.00059433962 -0.0069527025 -0.011862515
0.0083207544 0.00099324319 -0.010475387
-0.00039622642 0.0073500001 -0.016023904
-0.00059433962 -0.0031783783 -0.015627582
0.0099056605 0.0073500001 -0.007899289
-0.00059433962 -0.0071513513 -0.010277226
0.00059433962 0.0041716215 -0.017212871
0.00059433962 0 -0.014438612
0.0017830188 -0.0073500001 -0.012853323
0.00059433962 -0.0053635132 -0.014834936
0.0089150947 0.0031783783 -0.012655161
0.010301887 0.0045689191 -0.013051484
-0.0099056605 0.0039729727 -0.018203678
0.0093113212 -0.0073500001 -0.01701471
-0.010301887 0.0035756757 -0.01404229
0.0099056605 -0.0019864864 -0.013645967
-0.00059433962 0.0037743242 -0.016023904
0.0059433961 -0.0069527025 -0.013051484
-0.00099056598 0 -0.00017099825
0.00059433962 -0.0073500001 -0.0080974512
-0.0085188681 -0.0025824325 -0.010277226
0.0063396227 -0.0073500001 -0.0059176763
-0.0043584905 0.005562162 -0.013051484
0.0099056605 -0.00099324319 -0.011664354
-0.004754717 -0.0031783783 0.0018106148
-0.0051509435 -0.0023837837 -0.013249645
0.0057452829 0.0073500001 -0.009682741
0.0029716981 0.0073500001 -0.0029452567
-0.0069339625 -0.0073500001 -0.0084937736
-0.0065377359 -0.0073500001 -0.012457
0.00079245283 -0.0073500001 -0.0023507727
-0.0105 0.0065554054 -0.012655161
-0.00059433962 0.0071513513 -0.01701471
-0.00059433962 -0.0061581079 -0.015231258
-0.0043584905 -0.0031783783 0.0041885506
-0.00099056598 -0.0073500001 -0.0082956124
0.0089150947 -0.0015891892 -0.014636775
0 -0.0073500001 -0.0021526113
0.0089150947 -0.0015891892 -0.011862515
-0.010103773 0.0025824325 -0.014834936
0.0055471696 -0.0073500001 -0.012060677
-0.0099056605 -0.0023837837 -0.0051250309
0.0105 -0.0065554054 -0.0069084829
0.0023773585 0.0053635132 -0.00036915956
-0.0073301885 0.0073500001 -0.003936063
-0.0049528303 0.0033770269 -0.00036915956
0.010301887 -0.0045689191 -0.011069871
0.004754717 -0.0073500001 -0.00056732085
0.0071320753 0.00099324319 -0.013249645
-0.0067358492 -0.0073500001 -0.0098809022
0.00019811321 0.0061581079 -0.00195445
0.0099056605 0.0071513513 -0.0069084829
0.0023773585 0.0073500001 -0.011664354
-0.0105 -0.0067540538 -0.010277226
-0.00079245283 0.0023837837 -0.0092864186
0.0063396227 -0.0073500001 -0.003936063
0.0063396227 0.0073500001 -0.010871709
-0.00099056598 -0.0025824325 -0.009682741
0.010103773 -0.002781081 -0.012655161
0.010301887 0.0049662162 -0.0077011283
-0.0097075468 -0.00039729729 -0.015033097
-0.0015849057 -0.0049662162 -0.012853323
-0.00059433962 0.0039729727 -0.012060677
0.0065377359 0.0073500001 -0.0094845798
0.00059433962 0.002781081 -0.015825743
0.010301887 -0.0039729727 -0.0098809022
0.0105 -0.0067540538 -0.012655161
0.0091132075 0.0047675674 -0.0017562888
-0.0081226416 0.0039729727 -0.011664354
0.010103773 0.0029797298 -0.0051250309
-0.00059433962 -0.0019864864 -0.011268032
0.0059433961 0.0073500001 -0.00036915956
-0.0051509435 -0.0031783783 0.0041885506
-0.00019811321 -0.0015891892 -0.018203678
-0.010103773 0.002781081 -0.0061158375
0.00019811321 0.0067540538 -0.013447806
-0.0013867924 0.0019864864 -0.011268032
0.0081226416 0.0059594596 -0.012853323
0.0065377359 -0.0073500001 -0.0067103216
-0.0063396227 -0.0053635132 -0.013249645
0.00059433962 0.0025824325 -0.01701471
-0.0061415094 0.0073500001 -0.002548934
0.00059433962 0.0017878378 -0.014636775
0.0045566037 0.0019864864 -0.00036915956
-0.00059433962 -0.005562162 -0.010871709
0.0053490568 -0.0073500001 -0.0059176763
0.0105 -0.005562162 -0.016023904
-0.0013867924 -0.0059594596 -0.011069871
0.0089150947 0.0017878378 -0.018203678
-0.00059433962 0.00059594592 -0.012258838
-0.0051509435 -0.0073500001 -0.011466193
-0.0087169809 -0.0031783783 -0.01701471
0.0075283018 0.0035756757 -0.00036915956
-0.00099056598 0.0025824325 -0.009682741
0.0011886792 -0.0045689191 -0.00017099825
-0.0027735848 -0.0067540538 -0.0007654822
0.0093113212 0.0049662162 -0.018203678
0.00059433962 -0.0045689191 -0.011466193
0.0033679246 0.0073500001 -0.012853323
0.0105 0.0067540538 -0.012655161
-0.010301887 0.0047675674 -0.0098809022
0.00099056598 0.00019864865 -0.00017099825
-0.00099056598 -0.0033770269 -0.0094845798
-0.0027735848 0.00059594592 -0.013249645
0.010103773 -0.0071513513 -0.012655161
-0.0059433961 -0.0073500001 -0.0092864186
0.010103773 0.0041716215 -0.0047287084
-0.0097075468 0.0071513513 -0.0041342247
0.0039622639 -0.0073500001 -0.0027470954
-0.00099056598 -0.0073500001 -0.0023507727
0.0105 -0.0031783783 -0.018203678
-0.0033679246 -0.0073500001 -0.0027470954
0.0099056605 -0.0017878378 -0.0017562888
0.0099056605 0.00099324319 -0.01701471
0.0097075468 -0.0071513513 -0.0073048053
0.0053490568 -0.00059594592 -0.00036915956
0.010301887 0.0049662162 -0.0049268696
-0.0093113212 -0.0073500001 -0.0049268696
0.0105 -0.0049662162 -0.015825743
-0.0091132075 0.005562162 -0.016222065
-0.010301887 -0.0043702703 -0.017807355
0.0099056605 -0.0019864864 -0.00195445
-0.0027735848 0.0029797298 -0.00036915956
0.0105 0.0057608108 -0.016420227
-0.0049528303 -0.0065554054 -0.00017099825
-0.00059433962 0.0067540538 -0.010277226
0.0089150947 0.00019864865 -0.014240451
-0.0067358492 0.0049662162 -0.00036915956
0.010301887 0.0071513513 -0.0086919349
0.0059433961 -0.0073500001 -0.010673548
0.0021792452 -0.0073500001 -0.0094845798
0.010301887 -0.0047675674 -0.014438612
-0.0063396227 -0.0073500001 -0.0031434179
-0.0023773585 0.0073500001 -0.007899289
-0.0093113212 0.0071513513 -0.0011618048
-0.0099056605 0.00079459458 -0.0015581275
0.0015849057 -0.0067540538 -0.00017099825
0.0029716981 -0.0019864864 -0.00036915956
-0.0105 0.0065554054 -0.013844129
0.010103773 0.0033770269 -0.0049268696
0.010103773 0.0029797298 -0.00195445
-0.0105 -0.0067540538 -0.016618388
-0.0081226416 0.0069527025 -0.011466193
0.0057452829 0.0037743242 -0.013249645
0.0075283018 -0.0061581079 -0.013051484
-0.0105 0.0059594596 -0.0051250309
0.0077264151 -0.0045689191 -0.00036915956
-0.0041603772 0.0043702703 -0.013249645
-0.0061415094 -0.0029797298 -0.013249645
0.0065377359 0.0073500001 -0.0029452567
0.0099056605 -0.0013905405 -0.0077011283
0.00039622642 -0.0073500001 -0.007502967
-0.00019811321 0.0073500001 -0.0041342247
-0.0105 -0.0061581079 -0.015825743
-0.0105 0.0061581079 -0.012853323
0.0089150947 0.002781081 -0.015627582
0.0089150947 -0.00079459458 -0.01701471
0.0097075468 0.0037743242 -0.018203678
0.0017830188 0.005562162 -0.013051484
-0.0087169809 -0.0041716215 -0.015033097
-0.010103773 -0.0073500001 -0.011862515
0.0089150947 0.00019864865 -0.015231258
0.0053490568 0.0067540538 -0.013249645
0.00059433962 -0.0035756757 -0.011268032
-0.0089150947 -0.0033770269 -0.018203678
-0.010103773 -0.0031783783 -0.0017562888
0.00059433962 -0.0057608108 -0.017212871
-0.0071320753 0.0039729727 -0.013051484
-0.0081226416 -0.0035756757 -0.011862515
0.0015849057 -0.00079459458 -0.013051484
-0.0097075468 0.0071513513 -0.00195445
0.0093113212 0.0071513513 -0.016420227
-0.0011886792 0.0073500001 -0.0017562888
-0.0059433961 0.0073500001 -0.0061158375
-0.0023773585 0.0073500001 -0.0071066441
-0.0087169809 -0.0037743242 -0.014834936
0.010103773 -0.0023837837 -0.0094845798
0.00019811321 0.0025824325 -0.00017099825
-0.004754717 -0.0051648649 -0.00017099825
0.0071320753 0.0073500001 -0.0017562888
0.00059433962 -0.0041716215 -0.0092864186
0.010301887 -0.0033770269 -0.016816549
0.010103773 -0.0023837837 -0.0023507727
0.0081226416 0.0073500001 -0.0021526113
-0.0063396227 -0.00059594592 -0.00036915956
0.0091132075 -0.0033770269 -0.018005516
-0.0015849057 -0.0021851351 -0.010871709
0.0039622639 -0.0011918918 -0.00036915956
0.0105 -0.0065554054 -0.0031434179
0.00099056598 -0.0017878378 -0.0094845798
-0.010301887 -0.005562162 -0.015231258
0.0059433961 0.0073500001 -0.0065121604
0.0073301885 -0.0073500001 -0.00036915956
0.00059433962 0.002781081 -0.012457
-0.010103773 0.0013905405 -0.017411033
-0.00059433962 -0.0029797298 -0.010673548
-0.010103773 0.002781081 -0.012655161
0.0067358492 -0.0069527025 -0.0021526113
0.010301887 0.0049662162 -0.0029452567
-0.00059433962 -0.0011918918 -0.013447806
0.0061415094 -0.00019864865 -0.00036915956
0.0061415094 -0.0035756757 -0.00036915956
-0.0081226416 0.0073500001 -0.0084937736
-0.0013867924 -0.0031783783 -0.011664354
0.0081226416 -0.0053635132 -0.012655161
-0.001981132 0.0073500001 -0.00195445
0.0017830188 -0.002781081 -0.013249645
-0.00039622642 -0.0033770269 -0.018203678
-0.0089150947 0.0045689191 -0.016023904
-0.0015849057 0.0065554054 -0.0013599661
0.0097075468 0.00099324319 -0.010079063
-0.0053490568 -0.0047675674 -0.00017099825
0.0051509435 0.0021851351 -0.00036915956
-0.0081226416 0.0019864864 -0.012060677
0.0039622639 0.0045689191 -0.00036915956
0.0083207544 0.0057608108 -0.012060677
0.0079245279 0.0021851351 -0.013051484
-0.0035660376 -0.0073500001 -0.0067103216
0.009509434 0.0073500001 -0.0049268696
0.0089150947 -0.0041716215 -0.015231258
-0.0089150947 -0.0011918918 -0.014240451
0.0081226416 0.0073500001 -0.00036915956
-0.0051509435 0.0073500001 -0.012258838
-0.0025754718 -0.0035756757 -0.013249645
0.0057452829 0.0063567567 -0.00036915956
0.0039622639 0.0011918918 -0.013447806
0.0089150947 0.0043702703 -0.015825743
0.0089150947 -0.0043702703 -0.015231258
-0.0089150947 -0.0019864864 -0.014636775
0.0089150947 -0.0015891892 -0.012853323
-0.0013867924 -0.0033770269 -0.011466193
-0.0053490568 0.0023837837 -0.013249645
-0.0071320753 0.0067540538 -0.00036915956
-0.0097075468 -0.0051648649 -0.018203678
0.0081226416 -0.0073500001 -0.0090882573
0.0089150947 -0.0073500001 -0.0047287084
0.0081226416 0.0039729727 -0.011268032
0.0039622639 0.0073500001 -0.003936063
-0.0079245279 -0.0073500001 -0.010475387
0.0089150947 -0.0015891892 -0.016222065
-0.0081226416 0.0071513513 -0.012457
0.0023773585 -0.0065554054 -0.00036915956
-0.010301887 0.0049662162 -0.018203678
0.004754717 0.0041716215 -0.00036915956
0.001981132 0.0059594596 -0.00036915956
0.0023773585 -0.0073500001 -0.0069084829
0.0097075468 0.0059594596 -0.00017099825
-0.0083207544 -0.0073500001 -0.0065121604
-0.004754717 -0.0069527025 -0.0015581275
0.00059433962 0.0019864864 -0.01701471
0.0097075468 0.00059594592 -0.012258838
-0.0023773585 0.0047675674 -0.013051484
-0.00079245283 0.0073500001 -0.0007654822
-0.0017830188 -0.00039729729 -0.013051484
-0.00059433962 0.0063567567 -0.011862515
0.00059433962 0.0031783783 -0.016420227
0.00059433962 -0.0029797298 -0.013447806
0.0083207544 0.005562162 -0.012060677
0.0097075468 0.00099324319 -0.014438612
-0.00059433962 0.0041716215 -0.013249645
0.0083207544 0.0071513513 -0.011268032
-0.009509434 0.0071513513 -0.0011618048
0.0089150947 0.0017878378 -0.014834936
0.00079245283 -0.0049662162 -0.0090882573
0.0105 -0.0059594596 -0.011466193
0.0087169809 0.0035756757 -0.010277226
0.0097075468 -0.00019864865 -0.011862515
0.0091132075 -0.0063567567 -0.011268032
-0.0081226416 -0.0021851351 -0.00017099825
0.0077264151 -0.00099324319 -0.00036915956
-0.0089150947 -0.0021851351 -0.016618388
-0.0021792452 0.00039729729 -0.013249645
0.0027735848 0.0073500001 -0.002548934
-0.0105 -0.0063567567 -0.012258838
-0.009509434 -0.0059594596 -0.018203678
0.0099056605 -0.0013905405 -0.010277226
-0.0105 -0.0065554054 -0.0035397406
0.00059433962 0.0029797298 -0.010079063
0.004754717 -0.0073500001 -0.0082956124
-0.0045566037 0.0051648649 -0.00036915956
0.0099056605 0.0025824325 -0.0055213538
-0.0099056605 -0.0015891892 -0.0071066441
-0.0079245279 0.0013905405 -0.012655161
-0.00059433962 -0.0023837837 -0.012655161
0.0013867924 0.0073500001 -0.009682741
-0.0039622639 0.0015891892 -0.00036915956
0.00059433962 0.0057608108 -0.016023904
0.0089150947 0.00099324319 -0.018005516
0.0071320753 -0.0073500001 -0.0071066441
0.0069339625 0.0073500001 -0.0090882573
0.0093113212 0.0067540538 -0.0029452567
-0.00059433962 0.0065554054 -0.009682741
0.0071320753 -0.0021851351 -0.00036915956
-0.0013867924 0.0041716215 -0.010871709
0.00059433962 0.0023837837 -0.012457
0.0015849057 0.0073500001 -0.0094845798
-0.0089150947 0.00079459458 -0.013447806
0.0069339625 0.0041716215 -0.00036915956
0.00059433962 0.0049662162 -0.015231258
-0.0091132075 0.0047675674 -0.002548934
0.0035660376 -0.0049662162 -0.00036915956
-0.0011886792 -0.0049662162 -0.00036915956
-0.010103773 -0.0035756757 -0.0037379018
0.0043584905 -0.0037743242 0.003197744
-0.0099056605 0.00079459458 -0.014240451
-0.00059433962 -0.0041716215 -0.014438612
0.0027735848 -0.0073500001 -0.0051250309
-0.0037641509 -0.0073500001 -0.011268032
0.010103773 0.0029797298 -0.0086919349
-0.0089150947 -0.0017878378 -0.016420227
-0.0017830188 0.0073500001 -0.0065121604
0.010301887 -0.0035756757 -0.0080974512
-0.0099056605 -0.0021851351 -0.007502967
-0.0099056605 -0.0017878378 -0.0035397406
0.0057452829 0.0033770269 -0.013249645
0.0069339625 0.0073500001 -0.00036915956
0.0011886792 -0.00019864865 -0.010475387
0.0015849057 -0.0063567567 -0.0011618048
-0.0045566037 0.0057608108 -0.00036915956
-0.0089150947 -0.0061581079 -0.018203678
-0.0105 0.0059594596 -0.018005516
-0.00059433962 -0.0053635132 -0.013447806
-0.0099056605 0.00099324319 -0.012258838
-0.0089150947 0.00099324319 -0.011466193
0.010301887 0.0051648649 -0.015627582
0.010103773 -0.0025824325 -0.015231258
0.0083207544 -0.0051648649 -0.010871709
0.0091132075 -0.005562162 -0.018203678
0.0079245279 0.0019864864 -0.013051484
0.0073301885 -0.0073500001 -0.013051484
-0.0091132075 0.0063567567 -0.017411033
0.009509434 0.0045689191 -0.00195445
0.0049528303 -0.0073500001 -0.0084937736
-0.00079245283 0.0073500001 -0.0069084829
0.0105 -0.0053635132 -0.016023904
0.0081226416 0.0073500001 -0.011069871
-0.0093113212 -0.0073500001 -0.012457
0 -0.0047675674 -0.018203678
0.00059433962 -0.00079459458 -0.016816549
-0.0033679246 -0.0073500001 -0.0033415793
-0.0079245279 -0.00039729729 -0.00017099825
-0.0039622639 -0.0053635132 -0.00036915956
-0.00059433962 0 -0.012457
0.0033679246 0.0065554054 -0.0021526113
-0.001981132 -0.00039729729 -0.00036915956
-0.0027735848 0.0073500001 -0.0069084829
0.0041603772 0.0069527025 -0.00017099825
0.0099056605 0.0019864864 -0.00056732085
-0.00059433962 0 -0.010871709
-0.009509434 0.0071513513 -0.012655161
-0.0041603772 -0.0073500001 -0.0037379018
0.0025754718 -0.0043702703 -0.00036915956
-0.010103773 0.0025824325 -0.010475387
0.0087169809 -0.0063567567 -0.010673548
0.0089150947 -0.0073500001 -0.00017099825
-0.0105 0.0049662162 -0.003936063
0.0099056605 0.0021851351 -0.012258838
0.0043584905 -0.0031783783 0.00081980834
-0.0027735848 -0.0061581079 -0.00036915956
0.0105 -0.0051648649 -0.0035397406
0.0071320753 -0.0039729727 -0.00036915956
-0.0097075468 0 -0.0067103216
0.0097075468 0.0011918918 -0.00195445
0.0099056605 -0.0071513513 -0.015429419
-0.00059433962 0.0037743242 -0.013051484
0 -0.0023837837 -0.00017099825
0.0031698113 0.0073500001 -0.010079063
0.0049528303 -0.0029797298 0.0039903894
0.0063396227 0.00039729729 -0.013249645
-0.0079245279 0.0073500001 -0.010871709
-0.0063396227 -0.0047675674 -0.013249645
-0.0089150947 0.0041716215 -0.013051484
-0.0097075468 0.00059594592 -0.0092864186
-0.0105 -0.0063567567 -0.010079063
-0.0057452829 0.0073500001 -0.0090882573
-0.0033679246 -0.0073500001 -0.010871709
-0.0089150947 -0.0039729727 -0.013645967
-0.0039622639 -0.0071513513 -0.0007654822
0.0093113212 -0.0071513513 -0.011862515
-0.0099056605 0.0015891892 -0.00017099825
0.0097075468 0.00099324319 -0.0047287084
0.0089150947 0.00079459458 -0.016023904
0.0021792452 -0.0073500001 -0.012853323
-0.00059433962 -0.0041716215 -0.011268032
-0.010103773 -0.0037743242 -0.0077011283
0.0099056605 0.0025824325 -0.0051250309
0.0055471696 0.0073500001 -0.011466193
0.0013867924 -0.0019864864 -0.011862515
0.010103773 0.0029797298 -0.005719515
-0.0015849057 0.002781081 -0.012655161
0.010103773 0.0031783783 -0.0023507727
-0.0097075468 0.0047675674 -0.0013599661
0.0013867924 -0.0017878378 -0.010673548
0.0079245279 -0.0067540538 -0.00036915956
-0.010103773 -0.0041716215 -0.0051250309
-0.0027735848 -0.0023837837 -0.013249645
0.0049528303 -0.0073500001 -0.007899289
0.009509434 0.0073500001 -0.0080974512
-0.00059433962 -0.0073500001 -0.016618388
0.010103773 -0.0029797298 -0.007502967
-0.0025754718 -0.0073500001 -0.0069084829
0.0029716981 -0.0071513513 -0.013051484
-0.0105 -0.0057608108 -0.0073048053
0.0081226416 -0.0021851351 -0.011862515
0.0099056605 0.0043702703 -0.0027470954
0.0049528303 -0.0061581079 -0.00017099825
-0.0029716981 -0.0065554054 -0.00195445
-0.00019811321 -0.0073500001 -0.0073048053
-0.0089150947 -0.0043702703 -0.010673548
-0.010103773 -0.0033770269 -0.0077011283
-0.0093113212 0.0047675674 -0.018203678
-0.0089150947 0.0015891892 -0.011069871
-0.00099056598 -0.0051648649 -0.00017099825
0.0071320753 0.0073500001 -0.011466193
0.0099056605 -0.0071513513 -0.0031434179
-0.0069339625 0.0073500001 -0.012258838
-0.010301887 0.0043702703 -0.0047287084
0.010301887 -0.0041716215 -0.007502967
0.0089150947 0.0013905405 -0.017807355
-0.0051509435 -0.0047675674 -0.013249645
0.0051509435 0.0035756757 -0.00036915956
-0.0025754718 -0.0073500001 -0.0055213538
0.010301887 -0.0035756757 -0.013844129
0.0089150947 0.0053635132 -0.011268032
-0.0081226416 -0.0073500001 -0.011862515
0.0075283018 0.0073500001 -0.012457
0.0099056605 -0.0017878378 -0.0094845798
-0.0033679246 0.0073500001 -0.0084937736
0.0087169809 0 -0.010277226
0.0049528303 -0.0035756757 0.0018106148
0.0035660376 -0.0011918918 -0.013249645
-0.0105 -0.0071513513 -0.0047287084
0.0097075468 0.00039729729 -0.0011618048
0.0081226416 -0.0039729727 -0.011069871
0.00059433962 -0.002781081 -0.013249645
-0.0099056605 0.00099324319 -0.00056732085
0.0083207544 0.0049662162 -0.011862515
-0.00059433962 -0.0041716215 -0.01701471
0.0079245279 -0.0073500001 -0.0035397406
-0.0099056605 -0.0073500001 -0.007502967
-0.0091132075 0.0069527025 -0.00017099825
0.0083207544 -0.0061581079 -0.011466193
0.010103773 0.0033770269 -0.0027470954
0.0097075468 0.0011918918 -0.013051484
-0.0099056605 -0.002781081 -0.00056732085
0.0023773585 -0.0073500001 -0.00036915956
-0.00059433962 -0.0065554054 -0.010079063
-0.0053490568 0.0073500001 -0.0007654822
-0.00059433962 0.0071513513 -0.012258838
0.0031698113 0.0073500001 -0.0090882573
-0.0055471696 0.0073500001 -0.0037379018
0.0043584905 0.0033770269 -0.00036915956
0.00079245283 -0.0059594596 -0.0092864186
-0.010103773 -0.0041716215 -0.0027470954
-0.00099056598 0.00039729729 -0.0092864186
-0.010301887 0.0043702703 -0.002548934
0.010301887 0.0047675674 -0.0041342247
-0.010103773 -0.0073500001 -0.014834936
0.0097075468 0.00099324319 -0.013051484
0.009509434 -0.0047675674 -0.002548934
-0.0053490568 -0.0037743242 0.0016124536
0.0089150947 0.00019864865 -0.011268032
0.00059433962 -0.0015891892 -0.014438612
-0.0099056605 0.0019864864 -0.015429419
-0.0089150947 0.0041716215 -0.014636775
0.00059433962 -0.0021851351 -0.0094845798
0.0079245279 -0.0011918918 -0.012655161
0.0065377359 0.0073500001 -0.012258838
0.0053490568 0.0073500001 -0.0007654822
-0.0085188681 0.0043702703 -0.010673548
0.0065377359 0.0015891892 -0.013249645
-0.0083207544 0.0015891892 -0.010475387
0.0037641509 -0.0073500001 -0.00056732085
0.00059433962 0.0029797298 -0.010475387
-0.0091132075 0.0017878378 -0.018203678
-0.0089150947 0.0013905405 -0.013645967
-0.00099056598 -0.0067540538 -0.0098809022
0.0025754718 -0.0071513513 -0.013051484
-0.0013867924 0.0051648649 -0.00036915956
0 -0.0073500001 -0.01404229
0.010103773 -0.0047675674 -0.0013599661
0.0037641509 -0.0067540538 -0.0021526113
-0.0025754718 0.0043702703 -0.013051484
-0.0081226416 -0.0073500001 -0.0092864186
0.0097075468 -0.0049662162 -0.00017099825
0.00019811321 0.0061581079 -0.0021526113
-0.001981132 0.0037743242 -0.013249645
0.00059433962 -0.0015891892 -0.011069871
0.010301887 -0.0035756757 -0.0053231926
0.00059433962 0.002781081 -0.016816549
0.010103773 0.0063567567 -0.0045305472
-0.0089150947 0.0033770269 -0.011466193
0.0105 -0.005562162 -0.013051484
0.00059433962 -0.0017878378 -0.013051484
0.010301887 -0.0045689191 -0.002548934
-0.0089150947 -0.00019864865 -0.015825743
-0.0091132075 0.0071513513 -0.0051250309
-0.0089150947 -0.0011918918 -0.017411033
0.010301887 0.0071513513 -0.0027470954
-0.0079245279 -0.0021851351 -0.013051484
-0.010103773 0.0023837837 -0.0063139992
-0.010301887 0.0037743242 -0.0017562888
0 0.0073500001 -0.007899289
-0.0053490568 -0.0073500001 -0.010871709
0.0083207544 0.0065554054 -0.00036915956
-0.010301887 0.0069527025 -0.003936063
0.0061415094 0.00039729729 -0.013249645
0.0097075468 0 -0.0033415793
0.0023773585 0.0073500001 -0.0023507727
0.0075283018 0.0073500001 -0.0053231926
-0.0105 -0.0069527025 -0.0082956124
0.0031698113 0.0025824325 -0.00036915956
-0.00039622642 0.0041716215 -0.018203678
0.0011886792 0.0041716215 -0.010475387
0 0.0063567567 -0.018203678
0.00059433962 -0.0037743242 -0.017212871
0.0105 0.0063567567 -0.0086919349
-0.0087169809 -0.0037743242 -0.017411033
-0.0089150947 -0.0049662162 -0.012457
0.0081226416 -0.0021851351 -0.011268032
-0.0091132075 0.005562162 -0.011069871
0.00059433962 -0.0053635132 -0.016618388
-0.00099056598 -0.0035756757 -0.0098809022
-0.0097075468 -0.0011918918 -0.010673548
0.00059433962 -0.0021851351 -0.00017099825
0.0011886792 -0.0025824325 -0.010277226
-0.001981132 0.0073500001 -0.010871709
-0.0087169809 -0.0037743242 -0.015825743
-0.00059433962 0.0029797298 -0.017411033
-0.0097075468 0.0059594596 -0.00017099825
0.0013867924 0.0073500001 -0.007502967
0.0075283018 0.0029797298 -0.013051484
0.0029716981 0.0067540538 -0.013051484
-0.0083207544 -0.0029797298 -0.010673548
0.010301887 -0.0035756757 -0.014636775
0.010301887 -0.0037743242 -0.0007654822
0.0085188681 -0.0073500001 -0.0092864186
-0.0089150947 0.0011918918 -0.015627582
0.00059433962 0.0041716215 -0.012258838
-0.0013867924 -0.0047675674 -0.00036915956
0.0097075468 0.00099324319 -0.0059176763
-0.0097075468 0 -0.0031434179
-0.0039622639 -0.0073500001 -0.0031434179
-0.0033679246 -0.0073500001 -0.0098809022
-0.010103773 0.0021851351 -0.0017562888
0.0055471696 0.0019864864 -0.013249645
-0.0013867924 -0.0057608108 -0.012258838
0.00059433962 -0.0013905405 -0.015627582
-0.0089150947 -0.0021851351 -0.010277226
0.0105 -0.0051648649 -0.002548934
0.0053490568 0.0071513513 -0.00036915956
0.0013867924 0.0065554054 -0.0023507727
-0.0051509435 -0.0063567567 -0.00017099825
-0.0067358492 0.0039729727 -0.00036915956
0.0105 -0.005562162 -0.003936063
0.009509434 0.0067540538 -0.00056732085
-0.0105 0.0059594596 -0.016618388
0.00059433962 0.0073500001 -0.016420227
0.0033679246 -0.0035756757 -0.00036915956
0.0097075468 0.00039729729 -0.011862515
0.0089150947 0.00039729729 -0.013844129
0.0097075468 -0.00039729729 -0.0067103216
0.00059433962 0.0041716215 -0.013447806
0.0097075468 0.00099324319 -0.0029452567
0.00059433962 0.0061581079 -0.018005516
-0.00019811321 -0.0069527025 -0.00017099825
0.0097075468 0.00079459458 -0.015429419
-0.0089150947 -0.00079459458 -0.00017099825
0.0015849057 -0.00039729729 -0.012853323
0.0061415094 0.0059594596 -0.013249645
0.0015849057 0.0029797298 -0.012258838
-0.0081226416 0.0047675674 -0.012853323
-0.00059433962 0.005562162 -0.012457
0.0073301885 0.0073500001 -0.010673548
-0.0055471696 -0.0073500001 -0.005719515
-0.0089150947 -0.0031783783 -0.00017099825
0.010301887 -0.0043702703 -0.0047287084
-0.0069339625 0.0059594596 -0.013051484
0.0033679246 -0.0067540538 -0.00036915956
-0.0099056605 -0.0025824325 -0.00017099825
0.00099056598 0.00039729729 -0.0094845798
0.00039622642 -0.0073500001 -0.011069871
-0.0055471696 -0.0049662162 -0.00036915956
-0.0069339625 -0.0037743242 -0.00036915956
-0.0043584905 0.0017878378 -0.00036915956
0.0105 -0.0065554054 -0.011862515
-0.0083207544 0.0063567567 -0.010871709
0.0089150947 0.0059594596 -0.016420227
0.0105 -0.0047675674 -0.0007654822
-0.00059433962 0.0011918918 -0.012853323
-0.0055471696 0.0029797298 -0.00036915956
-0.0099056605 -0.0023837837 -0.0049268696
0.0105 0.0067540538 -0.016420227
-0.0077264151 0.0073500001 -0.012457
0.00019811321 0.0013905405 -0.018401839
0.0071320753 0.0073500001 -0.0067103216
-0.0099056605 0.0071513513 -0.0082956124
0.0053490568 -0.0073500001 -0.0053231926
-0.00059433962 0.0037743242 -0.0098809022
-0.0089150947 0.0017878378 -0.010475387
-0.0079245279 -0.0025824325 -0.00017099825
-0.0075283018 0.005562162 -0.013051484
-0.0013867924 -0.0039729727 -0.011268032
-0.0045566037 -0.0073500001 -0.0069084829
0.0069339625 0.0071513513 -0.00195445
0.00059433962 0.0043702703 -0.009682741
-0.0077264151 0.0071513513 -0.00036915956
0.0091132075 0.0067540538 -0.012853323
-0.010301887 0.0043702703 -0.0065121604
0.00099056598 0.00059594592 -0.0098809022
-0.0039622639 0.0073500001 -0.0051250309
0.00099056598 -0.0069527025 -0.00017099825
-0.0099056605 -0.002781081 -0.0071066441
0.010103773 -0.0025824325 -0.012457
-0.0089150947 0.0061581079 -0.0027470954
0.0037641509 0.0059594596 -0.00036915956
0.0055471696 0.0073500001 -0.012655161
-0.0093113212 -0.0065554054 -0.004332386
-0.0105 -0.0057608108 -0.004332386
0.0065377359 -0.0073500001 -0.0094845798
0.010103773 0.0031783783 -0.012457
-0.0089150947 0.0033770269 -0.010871709
-0.0013867924 0.00079459458 -0.011069871
0.0105 -0.0063567567 -0.00036915956
-0.0089150947 -0.0063567567 -0.018005516
-0.0023773585 -0.0025824325 -0.013249645
-0.0097075468 0.0071513513 -0.007899289
-0.00059433962 -0.0053635132 -0.014636775
0.00059433962 0.0023837837 -0.015627582
0.0059433961 0.00079459458 -0.00036915956
0.001981132 -0.0073500001 -0.010871709
0.010301887 -0.0029797298 -0.01701471
0.00059433962 0.0021851351 -0.0098809022
0.0087169809 0.0063567567 -0.016816549
0.0039622639 -0.0073500001 -0.0041342247
-0.0081226416 -0.0051648649 -0.012655161
0.010301887 -0.0047675674 -0.0082956124
0.0043584905 0.00099324319 -0.00036915956
0.0021792452 0.0043702703 -0.00036915956
-0.0045566037 -0.0073500001 -0.010475387
-0.0105 0.0067540538 -0.0033415793
0.00059433962 -0.0029797298 -0.014834936
-0.010301887 -0.0057608108 -0.00017099825
-0.0091132075 -0.0059594596 -0.0033415793
-0.0087169809 -0.0057608108 -0.016420227
-0.00039622642 0.0073500001 -0.0041342247
-0.0079245279 0.0073500001 -0.0011618048
0.0021792452 -0.0015891892 -0.013249645
-0.0097075468 -0.00099324319 -0.013249645
-0.0079245279 0.0073500001 -0.0021526113
0.0089150947 0 -0.014438612
-0.00099056598 0.0063567567 -0.0013599661
0.0091132075 0.0013905405 -0.018203678
-0.001981132 0.0073500001 -0.0055213538
-0.0021792452 0.0069527025 -0.013051484
-0.0023773585 -0.0067540538 -0.0011618048
-0.0035660376 -0.002781081 -0.013249645
-0.00059433962 0.00099324319 -0.017411033
-0.0011886792 -0.0073500001 -0.010277226
-0.00039622642 0.0071513513 -0.013051484
0.010103773 -0.0031783783 -0.014438612
0.0097075468 0.00019864865 -0.00056732085
0.0013867924 0.00059594592 -0.00017099825
-0.00059433962 0.0031783783 -0.015825743
0.010103773 -0.0023837837 -0.018203678
-0.0087169809 -0.0051648649 -0.016816549
0.0011886792 -0.0045689191 -0.010475387
-0.010103773 -0.0035756757 -0.010079063
0.0053490568 0.0021851351 -0.00036915956
-0.0059433961 0.0073500001 -0.0041342247
0.0079245279 0.0025824325 -0.00017099825
0.0081226416 -0.0013905405 -0.00017099825
-0.010103773 0.0023837837 -0.0098809022
-0.0031698113 -0.00099324319 -0.013249645
0.00039622642 0.0073500001 -0.0027470954
-0.0013867924 0.0049662162 -0.010475387
0.0105 0.0065554054 -0.0071066441
-0.010301887 0.0047675674 -0.0059176763
0.0045566037 0.0069527025 -0.0017562888
0.0081226416 0.00019864865 -0.011664354
0.0083207544 -0.0069527025 -0.011664354
0.0077264151 -0.0049662162 -0.00036915956
0.0091132075 -0.005562162 -0.01404229
-0.010103773 -0.0041716215 -0.015033097
-0.0017830188 -0.0073500001 -0.002548934
0.0087169809 0.0039729727 -0.010277226
-0.00059433962 0.0069527025 -0.017212871
0.0097075468 0.00059594592 -0.0035397406
-0.0025754718 -0.0073500001 -0.010871709
-0.0057452829 -0.0031783783 -0.013249645
-0.0079245279 -0.0047675674 -0.00017099825
0.0053490568 0.0073500001 -0.011862515
0.0027735848 0.0073500001 -0.010871709
-0.0017830188 0.0065554054 -0.013051484
-0.0081226416 0.0073500001 -0.0098809022
-0.010103773 -0.0041716215 -0.010673548
-0.010103773 -0.0031783783 -0.014438612
0.0055471696 -0.0073500001 -0.010475387
0.010301887 -0.0047675674 -0.0086919349
-0.0105 0.0049662162 -0.0061158375
0.0069339625 -0.0021851351 -0.00036915956
-0.0083207544 -0.0073500001 -0.0023507727
-0.00039622642 0.0049662162 -0.018203678
0.010103773 0.0031783783 -0.011862515
-0.0087169809 -0.0025824325 -0.014240451
-0.0105 0.0061581079 -0.011069871
0.0039622639 -0.0053635132 -0.00036915956
-0.0013867924 0.0047675674 -0.010871709
-0.0097075468 -0.0073500001 -0.007899289
-0.010103773 -0.0073500001 -0.01404229
-0.0099056605 -0.002781081 -0.015033097
-0.0013867924 0.0047675674 -0.00036915956
0.0035660376 0.0039729727 -0.013249645
0.010301887 0.0045689191 -0.0049268696
0.0087169809 0.0067540538 -0.0015581275
0.0013867924 0.0061581079 -0.011664354
0.0089150947 0.0031783783 -0.010475387
0.0105 -0.0067540538 -0.0082956124
-0.010103773 0.0025824325 -0.016420227
0.00059433962 0.00039729729 -0.0098809022
-0.0055471696 -0.0067540538 -0.013051484
0.0093113212 -0.0071513513 -0.013051484
0.00079245283 -0.0061581079 -0.0013599661
0.0071320753 0.00079459458 -0.00036915956
0.0087169809 0.0065554054 -0.00096364348
0.0105 -0.0061581079 -0.015429419
-0.0035660376 -0.0021851351 -0.013249645
0.0089150947 -0.0013905405 -0.012457
0.0099056605 -0.0013905405 -0.013249645
-0.0081226416 0.0073500001 -0.010673548
0.0015849057 0.00079459458 -0.010871709
-0.0021792452 -0.0073500001 -0.007502967
0.0037641509 0.0067540538 -0.013051484
0.0105 0.0057608108 -0.0035397406
0.00059433962 -0.00039729729 -0.012853323
-0.0081226416 -0.0019864864 -0.012655161
-0.0013867924 -0.0045689191 -0.011069871
0.00039622642 0.0069527025 -0.00017099825
-0.0015849057 -0.0011918918 -0.011862515
0.0097075468 0.0011918918 -0.012060677
0.0099056605 0.0019864864 -0.015033097
0.0011886792 -0.0067540538 -0.010871709
0.0075283018 -0.0073500001 -0.0098809022
0.0099056605 0.002781081 -0.00195445
0.0015849057 -0.0045689191 -0.00017099825
0.0037641509 0.0073500001 -0.0011618048
0.0097075468 -0.00019864865 -0.003936063
0.00059433962 -0.0071513513 -0.0094845798
-0.010301887 -0.0051648649 -0.012457
0.010301887 0.0073500001 -0.012655161
0.0089150947 0.0057608108 -0.011069871
-0.00059433962 0.0025824325 -0.0094845798
-0.0087169809 -0.0031783783 -0.014240451
0.0013867924 -0.0013905405 -0.011466193
0.010103773 0.0073500001 -0.010871709
0.0091132075 -0.00059594592 -0.017807355
-0.0065377359 0.0073500001 -0.002548934
-0.0067358492 0.0073500001 -0.0094845798
-0.00059433962 0.0017878378 -0.010475387
-0.010103773 -0.0035756757 -0.017609194
0.0099056605 0.0023837837 -0.012258838
0.0089150947 -0.0035756757 -0.011466193
0.0051509435 0.0045689191 -0.013249645
0.010301887 -0.0041716215 -0.004332386
0.0097075468 0 -0.012457
0.010103773 -0.0049662162 -0.00017099825
0.00059433962 -0.00039729729 -0.016618388
0.0037641509 0.0043702703 -0.013249645
0.0083207544 -0.0073500001 -0.0071066441
0.0027735848 -0.0073500001 -0.004332386
-0.0083207544 0.0073500001 -0.0051250309
-0.0071320753 0.0073500001 -0.0088900961
-0.0045566037 0.00079459458 -0.00036915956
-0.0039622639 -0.0051648649 -0.00036915956
0.010301887 -0.0033770269 -0.00036915956
0.0097075468 0.00099324319 -0.012258838
0.0089150947 0.0029797298 -0.01701471
0.0099056605 0.00099324319 -0.017411033
0.0089150947 -0.0019864864 -0.011268032
0.00039622642 0.0073500001 -0.017609194
-0.0073301885 -0.00019864865 -0.00036915956
0.0081226416 0.0073500001 -0.0069084829
0.0037641509 -0.0073500001 -0.0007654822
-0.0105 0.0067540538 -0.015627582
-0.00059433962 -0.0067540538 -0.015429419
0.0055471696 -0.0067540538 -0.00036915956
-0.0057452829 0.0073500001 -0.007899289
0.0087169809 0.0073500001 -0.011069871
-0.0033679246 0.005562162 -0.013051484
0.0043584905 0.0069527025 -0.0017562888
0.0091132075 -0.0059594596 -0.015429419
-0.010103773 0.0069527025 -0.007502967
0.0097075468 0.0047675674 -0.00017099825
0.0099056605 0.0015891892 -0.015825743
0.0039622639 0.0073500001 -0.0080974512
0.0105 0.0067540538 -0.0049268696
0.0091132075 -0.0071513513 -0.00056732085
-0.0093113212 -0.0073500001 -0.010871709
0.0105 -0.0069527025 -0.002548934
-0.010301887 -0.0043702703 -0.0088900961
-0.010301887 0.002781081 -0.01701471
-0.0051509435 0.0073500001 -0.00056732085
-0.0013867924 0.0073500001 -0.011069871
0.0097075468 -0.0071513513 -0.0051250309
-0.0021792452 0.0033770269 -0.00036915956
-0.004754717 0.0073500001 -0.009682741
0.0051509435 -0.0073500001 -0.011268032
0.0099056605 -0.00059594592 -0.01701471
-0.00059433962 0.0043702703 -0.012457
0.0045566037 -0.0067540538 -0.00195445
-0.0097075468 0.0041716215 -0.018203678
-0.0087169809 -0.00079459458 -0.00017099825
-0.0025754718 0.0065554054 -0.00036915956
0.010301887 -0.0039729727 -0.005719515
0.010301887 0.0071513513 -0.0098809022
0.0013867924 0.0045689191 -0.012060677
0.010103773 -0.0031783783 -0.0098809022
-0.001981132 -0.0069527025 -0.00036915956
0.0021792452 0.0073500001 -0.0041342247
-0.0031698113 0.0047675674 -0.00036915956
0.0097075468 0 -0.012655161
-0.0105 0.0059594596 -0.010871709
-0.001981132 -0.0073500001 -0.007899289
-0.00099056598 0.0035756757 -0.0098809022
-0.0045566037 0.0053635132 -0.00036915956
0.0099056605 -0.0071513513 -0.011664354
0.001981132 0.0067540538 -0.00036915956
-0.0025754718 -0.0073500001 -0.010079063
0.0099056605 0.0071513513 -0.005719515
0.00039622642 0.0073500001 -0.014834936
-0.0011886792 0.0061581079 -0.0015581275
0.010301887 -0.0039729727 -0.0023507727
0.0067358492 0.0073500001 -0.0098809022
-0.0097075468 -0.00039729729 -0.0053231926
-0.0035660376 -0.00059594592 -0.00036915956
-0.00039622642 -0.0073500001 -0.009682741
-0.0105 0.0051648649 -0.007502967
-0.0087169809 -0.005562162 -0.015825743
-0.0063396227 0.0073500001 -0.011069871
0.0083207544 0.0053635132 -0.010871709
-0.0081226416 0.0049662162 -0.012655161
0.0039622639 0.0073500001 -0.011268032
0.0099056605 0 -0.00017099825
0.0089150947 0.0047675674 -0.016816549
0.0071320753 0 -0.013249645
0.0055471696 -0.0035756757 -0.013249645
-0.010103773 0.002781081 -0.015033097
-0.0031698113 0.0071513513 -0.0013599661
0.0063396227 -0.0073500001 -0.0073048053
-0.0015849057 -0.0037743242 -0.011862515
-0.0023773585 0.00079459458 -0.013249645
-0.0105 -0.0061581079 -0.01404229
-0.0105 0.005562162 -0.011664354
-0.0083207544 -0.0067540538 -0.011664354
0.0011886792 0.0067540538 -0.010277226
-0.00059433962 -0.0031783783 -0.011466193
-0.010301887 0.0039729727 -0.0073048053
-0.010301887 -0.0047675674 -0.013645967
0.0065377359 0.0031783783 -0.013249645
0.0061415094 0.0073500001 -0.0051250309
0.0079245279 -0.0073500001 -0.0047287084
0.0033679246 0.0065554054 -0.013051484
0.0089150947 -0.0025824325 -0.01404229
-0.0051509435 0.0037743242 -0.013249645
0.0081226416 -0.0021851351 -0.011664354
-0.010301887 -0.0043702703 -0.011069871
-0.00059433962 0.0043702703 -0.0094845798
-0.0089150947 0.0025824325 -0.013645967
0.0077264151 0.0063567567 -0.00036915956
0.0061415094 -0.0073500001 -0.010673548
0.010301887 0.0071513513 -0.009682741
0.00059433962 -0.0047675674 -0.017609194
0.0089150947 0.0011918918 -0.011466193
-0.0089150947 -0.0019864864 -0.011466193
-0.0049528303 -0.0073500001 -0.0063139992
0.0029716981 0.0017878378 -0.00036915956
0.0089150947 -0.00079459458 -0.011268032
-0.010301887 -0.0053635132 -0.017212871
0.0011886792 -0.0029797298 -0.010277226
0.00059433962 -0.0011918918 -0.012258838
0.0039622639 -0.0073500001 -0.0092864186
0.0097075468 0.00079459458 -0.0090882573
0.0013867924 0.0047675674 -0.011466193
-0.010103773 -0.0031783783 -0.01404229
-0.0083207544 0.0073500001 -0.0041342247
0.010103773 -0.0021851351 -0.0073048053
0.0099056605 -0.0019864864 -0.012060677
-0.00059433962 -0.0061581079 -0.011069871
0.0075283018 -0.00019864865 -0.00036915956
0.0063396227 -0.00019864865 -0.013249645
-0.0037641509 -0.0067540538 -0.0017562888
0.00059433962 0.0041716215 -0.018005516
-0.0025754718 -0.0073500001 -0.0027470954
-0.0097075468 -0.00079459458 -0.0023507727
0.0067358492 -0.0015891892 -0.00036915956
0.010301887 -0.0047675674 -0.013645967
0.0055471696 -0.0045689191 -0.013249645
-0.0017830188 -0.0023837837 -0.013249645
-0.0087169809 -0.005562162 -0.016618388
0.010103773 0.0035756757 -0.00096364348
0.0021792452 0.0073500001 -0.0080974512
-0.0097075468 0.0071513513 -0.010673548
0.0079245279 0.00059594592 -0.012060677
-0.0089150947 -0.005562162 -0.011268032
-0.009509434 -0.0045689191 -0.0013599661
0.0089150947 0.0053635132 -0.0013599661
0.00059433962 0.0015891892 -0.014438612
-0.0089150947 -0.0059594596 -0.00096364348
-0.0033679246 -0.0073500001 -0.0047287084
0.0097075468 0 -0.014834936
0.0033679246 0.0073500001 -0.00195445
0.0071320753 0.0073500001 -0.011268032
0.00059433962 0.0043702703 -0.012853323
-0.0053490568 0.0073500001 -0.011466193
0.010301887 -0.0041716215 -0.016023904
0.0089150947 0.0067540538 -0.017411033
0.00039622642 -0.0073500001 -0.016816549
0.00039622642 -0.0073500001 -0.007899289
-0.010301887 0.0067540538 -0.00036915956
-0.0083207544 0.0067540538 -0.012060677
-0.0035660376 0.0073500001 -0.004332386
-0.00059433962 0.0019864864 -0.011268032
0 0.0039729727 -0.00017099825
-0.00099056598 -0.0029797298 -0.00017099825
0.0037641509 -0.0047675674 -0.00036915956
-0.004754717 -0.0073500001 -0.003936063
-0.0105 0.0059594596 -0.0053231926
0.0097075468 -0.00059594592 -0.0015581275
0.0073301885 -0.0037743242 -0.00036915956
0.0083207544 0.0073500001 -0.00096364348
-0.0089150947 -0.0037743242 -0.010871709
-0.0049528303 0.0073500001 -0.0098809022
-0.0083207544 0.0069527025 -0.011862515
0.0081226416 -0.0071513513 -0.012457
-0.010103773 -0.0033770269 -0.004332386
-0.0017830188 0 -0.013051484
0.00059433962 -0.0043702703 -0.012060677
0.00039622642 -0.0071513513 -0.018005516
0.0065377359 0.0073500001 -0.00056732085
0.0097075468 -0.00059594592 -0.011268032
0.0099056605 -0.00079459458 -0.011466193
-0.00059433962 -0.00099324319 -0.010475387
0.0099056605 0.0073500001 -0.014636775
-0.0081226416 0.00019864865 -0.010673548
0.0065377359 -0.0037743242 -0.00036915956
-0.0029716981 0.0041716215 -0.00036915956
-0.0085188681 0.0051648649 -0.010475387
-0.009509434 0.002781081 -0.00017099825
0.0087169809 -0.0015891892 -0.00017099825
-0.004754717 0.0035756757 -0.013249645
-0.0033679246 -0.0061581079 -0.013051484
0.010103773 -0.0033770269 -0.010079063
-0.0087169809 -0.0049662162 -0.018005516
0.0089150947 0.0021851351 -0.016023904
-0.0087169809 0.0063567567 -0.011466193
0.0061415094 -0.0041716215 -0.013249645
0.010301887 0.0049662162 -0.003936063
-0.0097075468 0.0071513513 -0.0067103216
0.00059433962 -0.0037743242 -0.015231258
-0.010103773 -0.0033770269 -0.00096364348
0.001981132 -0.0057608108 -0.00017099825
0.004754717 0.0017878378 -0.013447806
-0.0025754718 0.002781081 -0.00036915956
-0.0099056605 -0.0021851351 -0.0082956124
0.0081226416 0.0073500001 -0.0080974512
0.0053490568 -0.0073500001 -0.0031434179
0.010103773 -0.0071513513 -0.016816549
0.0099056605 -0.0015891892 -0.0084937736
-0.0091132075 -0.0063567567 -0.012655161
-0.010301887 0.0043702703 -0.011862515
0.0031698113 0.0073500001 -0.002548934
0.0059433961 -0.0069527025 -0.00096364348
-0.0105 -0.0059594596 -0.015033097
0.0021792452 -0.0065554054 -0.0007654822
0.00059433962 0.0019864864 -0.016023904
0.0091132075 -0.0067540538 -0.010871709
-0.0091132075 0.0053635132 -0.018203678
0.00059433962 -0.00059594592 -0.0094845798
0.0079245279 -0.0059594596 -0.013051484
0.010301887 0.0037743242 -0.018005516
0.0045566037 -0.0029797298 0.0037922279
0.0097075468 0.0061581079 -0.00017099825
-0.0031698113 -0.0073500001 -0.010673548
0.0105 -0.0049662162 -0.011664354
-0.0053490568 -0.0033770269 0.0004234857
-0.010103773 -0.0037743242 -0.00017099825
0.0105 0.0059594596 -0.0098809022
-0.00059433962 0.0023837837 -0.016023904
0.0105 0.0061581079 -0.0055213538
0.00059433962 -0.0059594596 -0.012457
-0.010103773 0.002781081 -0.0047287084
-0.0013867924 0.0069527025 -0.00036915956
-0.009509434 0.0071513513 -0.014834936
0.0051509435 -0.0045689191 -0.00017099825
-0.0089150947 0.0071513513 -0.0065121604
-0.0091132075 0.0057608108 -0.0015581275
-0.0013867924 -0.0037743242 -0.011069871
-0.010301887 -0.0053635132 -0.014240451
-0.0013867924 0.0049662162 -0.012457
0.010103773 -0.0023837837 -0.0098809022
-0.00059433962 0.0067540538 -0.015627582
0.0099056605 0.0071513513 -0.0045305472
-0.0089150947 -0.0059594596 -0.014834936
-0.0043584905 -0.0073500001 -0.0037379018
-0.010103773 0.0031783783 -0.0049268696
-0.00039622642 0.0073500001 -0.0017562888
-0.0089150947 0.0035756757 -0.015231258
0.0069339625 0.0015891892 -0.013249645
-0.0097075468 -0.00019864865 -0.010079063
0.010301887 0.005562162 -0.0047287084
-0.0085188681 0.0073500001 -0.0051250309
0.0035660376 -0.0057608108 -0.00036915956
0.0045566037 -0.0073500001 -0.0047287084
0.0087169809 -0.0057608108 -0.0011618048
-0.0099056605 0.0011918918 -0.010475387
0.00059433962 -0.0073500001 -0.011466193
-0.0093113212 -0.0019864864 -0.018203678
-0.0099056605 -0.0025824325 -0.0033415793
0.0055471696 0.0061581079 -0.013051484
-0.0041603772 -0.0071513513 -0.0007654822
-0.010301887 -0.0043702703 -0.0017562888
0.0065377359 0.00019864865 -0.00036915956
0.0087169809 0.0059594596 -0.010475387
0.0089150947 -0.0015891892 -0.013249645
-0.0075283018 -0.0053635132 -0.013051484
0.00059433962 -0.0067540538 -0.011268032
0.0081226416 0.005562162 -0.012258838
0.0039622639 0.002781081 -0.013249645
0.0085188681 -0.00019864865 -0.010277226
-0.0093113212 -0.0059594596 -0.0041342247
-0.010103773 0.0013905405 -0.017212871
0.010301887 0.0063567567 -0.018203678
-0.00099056598 -0.0017878378 -0.0092864186
-0.0089150947 0.00079459458 -0.012655161
0.0067358492 0.0029797298 -0.013249645
-0.0081226416 0.0033770269 -0.012060677
-0.010301887 0.0037743242 -0.013051484
-0.0059433961 0.0053635132 -0.00036915956
-0.0105 -0.0071513513 -0.015231258
0.00059433962 0.0073500001 -0.0049268696
-0.0043584905 -0.0073500001 -0.009682741
-0.0079245279 -0.002781081 -0.013051484
-0.010301887 -0.0043702703 -0.0094845798
0.0079245279 0.0011918918 -0.013051484
0.0089150947 -0.00079459458 -0.014240451
0.0065377359 -0.0073500001 -0.00056732085
0.0085188681 -0.0073500001 -0.0031434179
0.00059433962 0.00039729729 -0.013051484
-0.0023773585 -0.0073500001 -0.0094845798
0.0059433961 0.0039729727 -0.00036915956
-0.0033679246 0.0073500001 -0.0045305472
0.0023773585 0.0073500001 -0.00056732085
0.00059433962 0.0051648649 -0.013645967
0.0089150947 0.0023837837 -0.016023904
-0.0081226416 0.0053635132 -0.011069871
0.0099056605 -0.0013905405 -0.013051484
0.010301887 0.0051648649 -0.0033415793
0.0041603772 -0.0031783783 0.0026032601
0.0091132075 -0.0069527025 -0.012853323
-0.0097075468 -0.00059594592 -0.0031434179
0.0085188681 -0.0071513513 -0.0007654822
-0.0061415094 0.0069527025 -0.013051484
-0.001981132 0.00059594592 -0.013249645
-0.0099056605 -0.0023837837 -0.00096364348
-0.0063396227 -0.0073500001 -0.0086919349
0.0075283018 -0.0073500001 -0.0045305472
0.010301887 0.0051648649 -0.013645967
-0.0099056605 0.0017878378 -0.012655161
-0.0105 -0.0061581079 -0.015627582
0.00059433962 -0.00079459458 -0.013645967
0 0.0031783783 -0.00017099825
-0.0089150947 0.0041716215 -0.00017099825
-0.0097075468 0.0067540538 -0.0023507727
0.0089150947 -0.0073500001 -0.0092864186
0.00059433962 0.0011918918 -0.01404229
0.010103773 0.0033770269 -0.012258838
-0.0099056605 0.0071513513 -0.012457
-0.0087169809 -0.0067540538 -0.011466193
-0.0037641509 -0.0051648649 -0.013249645
0.010103773 0.0033770269 -0.00096364348
0.0023773585 0.0045689191 -0.013249645
0.0033679246 0.0073500001 -0.011069871
-0.0089150947 0 -0.011862515
-0.0023773585 0.0037743242 -0.00036915956
-0.010103773 -0.0041716215 -0.0071066441
-0.0073301885 0.0017878378 -0.013249645
-0.0105 0.0063567567 -0.005719515
0.0105 0.0067540538 -0.0041342247
-0.00059433962 0.005562162 -0.016618388
-0.0073301885 0.0031783783 -0.00036915956
0.0091132075 -0.0063567567 -0.015825743
0.004754717 0.0073500001 -0.0063139992
0.0061415094 -0.0013905405 -0.00036915956
0.0057452829 0.0063567567 -0.013051484
