# .PCD v0.7 - Point Cloud Data file format
VERSION 0.7
FIELDS x y z
SIZE 4 4 4
TYPE F F F
COUNT 1 1 1
WIDTH 1223
HEIGHT 1
VIEWPOINT 0 0 0 1 0 0 0
POINTS 1223
DATA ascii
-0.038123257 0.0050531249 -0.00046061864
-0.0047372095 -0.0073500001 -0.012251217
-0.033611629 0.0027562499 -0.00046061864
0.0042860466 -0.003215625 0.0022602887
-0.00067674421 -0.0055124997 -0.015425608
-0.015565116 0.003675 -0.00046061864
0.00067674421 0.003675 -0.014518639
0.0029325581 -0.0055124997 -0.00046061864
-0.031355813 -0.0027562499 -0.013158185
0.030904651 -0.00459375 -0.013158185
0.028197674 0.0055124997 -0.016332578
-0.048500001 0.0050531249 -0.017239546
0.038123257 -0.0073500001 -0.017693032
-0.021430232 -0.0018375 -0.013158185
0.045793023 -0.0073500001 -0.0036350104
0.0015790698 -0.0041343751 -0.011344247
0.024588373 -0.002296875 -0.00046061864
0.003383721 0.0050531249 -0.00046061864
-0.02594186 -0.003215625 -0.013158185
-0.0092488369 0.003215625 -0.012704701
-0.045793023 0.0041343751 -0.012704701
0.0074441861 -0.00045937501 -0.00046061864
0.025490697 -0.0073500001 -0.0077163712
0.016016278 0.0050531249 -0.00046061864
0.018723255 0.0073500001 -0.0077163712
-0.040830232 0.0073500001 -0.0040884949
-0.013760465 0.0055124997 -0.013158185
-0.043988373 0 -0.00046061864
-0.044890698 -0.00091875001 -0.013158185
0.034965117 0.0013781249 -0.00046061864
-0.011053489 0.002296875 -0.010437279
0.021881396 -0.00459375 -0.013158185
0.01782093 -0.0073500001 -0.0049954639
-0.020979069 -0.0073500001 -0.0018210723
-0.044439536 -0.0073500001 -0.0090768253
0.00067674421 -0.002296875 -0.011797733
0.023686046 0.0073500001 -0.011344247
0.04714651 0.003215625 -0.012704701
-0.046695348 -0.00459375 -0.017239546
0.043988373 -0.0013781249 -0.013158185
0.04037907 0.0073500001 -0.0063559175
-0.04714651 -0.0027562499 -0.013158185
0.00067674421 -0.0027562499 -0.017693032
-0.011053489 0.0064312499 -0.012251217
-0.037672091 -0.0073500001 -0.010890763
-0.034062792 0.0013781249 -0.00046061864
-0.01782093 -0.0073500001 -0.0090768253
-0.0092488369 0.0041343751 -0.017239546
0.018272093 0.005971875 -0.012251217
0.033160467 -0.0073500001 -0.003181526
0.015565116 -0.0027562499 -0.00046061864
0.024588373 0.0041343751 -0.013158185
0.0038348837 -0.0073500001 -0.0086233402
0.014211628 -0.0073500001 -0.0099837938
-0.010151163 -0.0027562499 -0.012704701
-0.011504651 0.005971875 -0.00046061864
-0.018723255 0.003675 -0.013158185
-0.020979069 0.0055124997 -0.012704701
-0.041732557 0.0073500001 -0.0027280413
0.0074441861 -0.003675 -0.00046061864
-0.00067674421 0.0055124997 -0.016332578
0.048500001 0.0013781249 -0.015425608
-0.041732557 -0.0068906248 -0.013158185
-0.043537211 0.0073500001 -0.0068094023
-0.0065418603 0.0055124997 -0.00046061864
0.0092488369 0.005971875 -0.013611671
-0.0069930232 -0.0064312499 -0.00046061864
-0.0056395349 0.0073500001 -0.012251217
0.039476745 -0.00459375 -0.011797733
0.048500001 0.005971875 -0.010437279
0.042634882 0.0073500001 -0.0095303096
-0.0092488369 -0.0064312499 -7.1340864e-06
-0.039476745 0.0073500001 -0.012704701
-0.010151163 -0.00091875001 -0.012251217
0.048500001 -0.0055124997 -0.0040884949
-0.028197674 -0.002296875 -0.012704701
-0.033160467 0.0050531249 -0.00046061864
0.00067674421 -0.005971875 -7.1340864e-06
-0.036318604 -0.0073500001 -0.010890763
-0.0020302325 0.003675 -0.013158185
-0.019174419 -0.0073500001 -0.0049954639
0.014662791 -0.0073500001 -0.0086233402
-0.040830232 0.002296875 -0.00046061864
0.003383721 -0.0068906248 -0.00046061864
0.038123257 -0.0050531249 -0.017693032
0.018723255 -0.00045937501 -0.012704701
0.03857442 0.0041343751 -0.015425608
0.030002326 -0.0073500001 -0.0095303096
0.0087976744 0.0064312499 -0.012704701
0.028648837 -0.002296875 -0.013611671
-0.019174419 -0.0064312499 -0.014972124
-0.037672091 0.003215625 -0.014972124
-0.048500001 0.00459375 -0.0081698559
0.0087976744 -0.0041343751 -0.014972124
0.014211628 -0.0064312499 -7.1340864e-06
0.021430232 -0.00459375 -0.00046061864
0.028648837 0.00045937501 -0.012704701
-0.046695348 0.0073500001 -0.0018210723
-0.0020302325 0.0055124997 -0.00046061864
-0.00067674421 -0.0073500001 -0.003181526
0.04037907 0.0073500001 -0.0027280413
-0.0097000003 0.0018375 -0.014065155
-0.037672091 -0.0027562499 -7.1340864e-06
0.04714651 0.005971875 -7.1340864e-06
0.019174419 -0.005971875 -0.014518639
0.034062792 -0.0068906248 -0.00046061864
0.0020302325 0.003675 -0.00046061864
-0.019174419 0.003675 -0.014518639
-0.04037907 0.0073500001 -0.0022745568
-0.039025582 -0.0068906248 -0.012251217
0.048500001 -0.003215625 -0.014518639
-0.0020302325 -0.0050531249 -0.00046061864
0.043988373 0.0073500001 -0.010890763
-0.027746512 -0.0073500001 -0.012251217
0.039927907 -0.0073500001 -0.00046061864
-0.03857442 -0.0073500001 -0.003181526
0.043086048 -0.0073500001 -0.0095303096
0.04037907 -0.0073500001 -0.0040884949
-0.028197674 0.0050531249 -0.014518639
0.038123257 -0.0068906248 -0.00046061864
0.02413721 -0.0073500001 -0.012704701
-0.0087976744 -0.00091875001 -0.010437279
-0.041281395 -0.0013781249 -0.00046061864
-0.0092488369 -0.0073500001 -0.0049954639
0.005188372 -0.003675 -0.013158185
-0.023234883 -0.003215625 -7.1340864e-06
-0.001127907 0.0073500001 -0.00091410318
-0.039476745 0.00459375 -0.011797733
-0.025039535 -0.0018375 -0.013158185
0.033611629 0.0073500001 -0.007262887
-0.032709301 0.0073500001 -0.0068094023
0.011504651 -0.00091875001 -0.00046061864
-0.046695348 0.003215625 -0.014972124
-0.035867441 0.003215625 -0.00046061864
-0.028648837 0 -0.017693032
-0.023234883 -0.0073500001 -0.013158185
0.028197674 -0.0064312499 -0.012704701
-0.0056395349 -0.0073500001 -0.00046061864
-0.0047372095 -0.003675 0.0027137732
0.037672091 0.003215625 -0.016332578
0.0097000003 -0.003215625 -0.016332578
-0.048500001 0.003215625 -0.0086233402
-0.046695348 0.00091875001 -0.017693032
-0.043537211 -0.00459375 -0.013158185
-0.019625582 -0.00459375 -0.013611671
-0.039927907 0.0073500001 -0.0081698559
0.00067674421 0.0027562499 -0.017239546
-0.032709301 0.0041343751 -0.013158185
-0.046244185 -0.003675 -0.011797733
-0.014662791 0.0068906248 -0.00046061864
-0.021881396 0.0050531249 -0.00046061864
0.015113954 -0.0073500001 -0.0022745568
0.011053489 -0.003675 -0.012704701
0.023234883 -0.003215625 0.0027137732
0.025039535 0.0073500001 -0.0068094023
0.00022558139 0.0050531249 -0.00046061864
0.039927907 0.00091875001 -0.00046061864
-0.036769766 -0.00459375 -0.00046061864
0.048048839 -0.00045937501 -0.007262887
0.048500001 -0.003215625 -0.017239546
0.001127907 -0.0073500001 -0.0068094023
0.046695348 -0.002296875 -0.016786063
0.027295349 -0.003215625 -0.012704701
-0.025490697 -0.0041343751 -0.013158185
0.028648837 -0.0055124997 -0.013611671
0.0024813954 0.0073500001 -0.0059024333
0.037672091 0.0050531249 -0.013158185
0.0042860466 0.0073500001 -0.0068094023
0.03857442 -0.0073500001 -0.010437279
0.019625582 0.0041343751 -0.012704701
0.028197674 -0.0055124997 -0.017239546
0.039476745 0.0027562499 -0.010890763
-0.046695348 0 -0.014518639
-0.015565116 -0.0073500001 -0.0090768253
-0.048500001 0.00091875001 -0.011344247
0.011955814 0.0073500001 -0.011344247
-0.003383721 -0.0073500001 -0.00091410318
0.025490697 -0.0055124997 -0.00046061864
0.016918605 -0.0013781249 -0.013158185
-0.034513954 -0.0073500001 -0.0049954639
0.010151163 0.0068906248 -0.015425608
0.0024813954 -0.0073500001 -0.010437279
-0.020979069 0.00045937501 -0.00046061864
0.0015790698 0.0073500001 -0.0081698559
-0.041732557 -0.005971875 -0.00046061864
0.0038348837 0.0073500001 -0.012251217
0.039927907 0.0073500001 -0.0068094023
-0.001127907 -0.0018375 -0.0099837938
0.011053489 0.00091875001 -0.011344247
-0.0047372095 0.0073500001 -0.0027280413
-0.036318604 0 -0.010890763
0.026844187 0.0073500001 -0.0081698559
-0.048500001 0.003215625 -0.011344247
0.011504651 -0.0073500001 -0.003181526
0.034062792 0.0073500001 -0.0068094023
-0.033611629 -0.0073500001 -0.012704701
0.0024813954 0.0073500001 -0.0086233402
-0.04714651 -0.005971875 -7.1340864e-06
-0.0024813954 0.0073500001 -0.0049954639
0.019174419 -0.0018375 -0.014972124
-0.048500001 0.0050531249 -0.0063559175
-0.037672091 0.0018375 -0.00046061864
-0.020527907 0.0073500001 -0.0018210723
0.014662791 -0.003215625 0.0036207424
0.034513954 0.00459375 -0.00046061864
0.048048839 0 -0.0068094023
-0.016918605 0.0073500001 -0.0036350104
0.00022558139 -0.0073500001 -0.015879093
-0.021430232 0.0073500001 -0.0068094023
0.048500001 -0.0018375 -0.0040884949
-0.046695348 -0.003675 -0.017693032
0.015565116 0.0064312499 -0.013158185
-0.030002326 -0.003675 -0.012704701
0.018723255 0.00045937501 -0.015879093
0.04714651 -0.002296875 -0.010890763
-0.028197674 -0.0073500001 -0.0068094023
-0.034965117 -0.0027562499 -0.013158185
0.039476745 -0.005971875 -0.012704701
-0.012858139 -0.0064312499 -0.013158185
-0.033160467 -0.003215625 -0.013158185
0.047597673 -0.0073500001 -0.015425608
-0.04037907 0.003215625 -0.013158185
0.012406977 0.0027562499 -0.013158185
0.032709301 0.0073500001 -0.00046061864
-0.027746512 -0.00459375 -0.014065155
0.030002326 -0.0027562499 -0.012251217
-0.016918605 0.0073500001 -0.00091410318
0.021430232 0.0073500001 -0.0068094023
0.029100001 -0.0050531249 -0.014972124
0.014211628 -0.0073500001 -0.0036350104
-0.04714651 0.0073500001 -0.007262887
-0.046695348 0.00045937501 -0.00046061864
0.00067674421 0.00045937501 -0.016332578
-0.015113954 -0.0055124997 -0.013158185
-0.027295349 -0.00459375 -0.011797733
0.046244185 -0.00459375 -0.00046061864
-0.016467443 0.003675 -0.00046061864
0.025039535 -0.0073500001 -0.0081698559
0.041732557 -0.005971875 -0.00046061864
-0.016918605 0.0073500001 -0.0095303096
0.037672091 -0.005971875 -0.015425608
-0.048048839 -0.0068906248 -0.011797733
0.0097000003 0.0073500001 -0.0095303096
-0.023686046 0.0073500001 -0.010437279
-0.010151163 -0.00045937501 -0.010890763
0.04218372 -0.003675 -0.013158185
-0.022332558 -0.0073500001 -0.0022745568
-0.01782093 -0.0050531249 -7.1340864e-06
-0.028197674 0.0055124997 -0.014065155
-0.00067674421 0.0018375 -0.016332578
-0.048500001 -0.003215625 -0.014972124
0.025490697 0.0073500001 -0.007262887
-0.005188372 0.00045937501 -0.00046061864
-0.019625582 -0.005971875 -0.00046061864
0.028197674 -0.0073500001 -0.0099837938
-0.029100001 -0.005971875 -0.014518639
-0.010151163 0.0073500001 -0.0099837938
0.046695348 -0.00045937501 -0.016786063
-0.028648837 -0.0013781249 -0.015425608
0.025039535 0.003675 -0.00046061864
0.036318604 -0.0073500001 -0.0022745568
0.021881396 0.00091875001 -0.00046061864
-0.0087976744 0.00091875001 -7.1340864e-06
0.02413721 0.00459375 -0.00046061864
-0.0087976744 -0.00459375 -0.010437279
0.038123257 0.0068906248 -0.016332578
0.020076744 0.0041343751 -0.00046061864
0.0042860466 0.0073500001 -0.0045419796
-0.0092488369 -0.003215625 -0.013611671
0.014662791 -0.0073500001 -7.1340864e-06
0.00067674421 0.0055124997 -0.018146517
-0.00067674421 0.00091875001 -0.011344247
-0.045341861 -0.0073500001 -0.0063559175
-0.04714651 -0.0073500001 -0.012251217
0.0038348837 0.0018375 -0.013158185
0.014211628 0.0073500001 -0.012704701
-0.037672091 -0.003675 -0.014518639
0.011053489 0.003215625 -0.011344247
0.02413721 0.00045937501 -0.013158185
-0.010151163 0.0068906248 -0.015879093
-0.020979069 -0.00459375 -0.012704701
0.036769766 0.005971875 -0.012251217
-0.035416279 -0.0073500001 -0.0099837938
0.024588373 0.0027562499 -0.013158185
-0.008346512 -0.005971875 -0.00046061864
-0.020979069 -0.0027562499 -0.00046061864
0.046695348 -0.00045937501 -0.015879093
0.04714651 -0.0050531249 -0.013611671
0.019174419 -0.0073500001 -0.0049954639
-0.028648837 0.002296875 -7.1340864e-06
0.018723255 -0.0041343751 -0.013611671
0.0056395349 0.0073500001 -0.0040884949
-0.00067674421 0.0018375 -0.014065155
-0.00067674421 0.00091875001 -0.016786063
0.029100001 0.0068906248 -0.014972124
0.0015790698 0.0068906248 -0.010890763
-0.045341861 0.0073500001 -0.0090768253
0.048500001 0.0027562499 -0.00046061864
0.0092488369 0.00045937501 -0.012704701
0.028648837 -0.0018375 -0.017239546
0.005188372 -0.003215625 0.0022602887
0.0092488369 0.0013781249 -0.012251217
0.02413721 -0.0055124997 -0.013158185
0.032709301 -0.003675 0.0022602887
-0.0069930232 -0.00459375 -0.00046061864
0.036769766 -0.003675 -0.00046061864
0.029100001 -0.0041343751 -0.00046061864
-0.039476745 0.002296875 -0.011344247
0.0087976744 0.00459375 -0.018146517
-0.038123257 0.0013781249 -0.010890763
0.046695348 0.00091875001 -0.016332578
0.024588373 0.0073500001 -0.0090768253
-0.010151163 -0.003215625 -0.010890763
0.010151163 -0.002296875 -0.012251217
-0.0015790698 0.0073500001 -0.0077163712
-0.039927907 -0.0073500001 -0.0027280413
0.0078953486 -0.0068906248 -0.011344247
-0.04037907 -0.0013781249 -0.013158185
-0.046244185 -0.0018375 -0.010437279
-0.0042860466 0.0013781249 -0.00046061864
-0.037220929 0.0073500001 -0.0081698559
-0.04218372 0.0073500001 -0.0027280413
0.0015790698 0.002296875 -0.013158185
0.0092488369 -0.005971875 -0.018146517
0.045793023 0.0027562499 -0.010890763
0.026393022 0.0073500001 -0.00046061864
0.0092488369 -0.005971875 -0.00046061864
0.040830232 -0.0073500001 -0.007262887
-0.021881396 0.0073500001 -0.0027280413
-0.019174419 -0.0050531249 -0.014518639
0.019625582 0.002296875 -7.1340864e-06
-0.0042860466 -0.0073500001 -0.0054489486
0.048500001 0.00091875001 -0.0049954639
-0.048048839 -0.003215625 -0.0013675877
-0.010151163 0.003675 -0.014518639
-0.045793023 -0.00045937501 -0.010890763
0.0087976744 0.0055124997 -0.018146517
0.034513954 0.0073500001 -0.013158185
0.013760465 -0.0027562499 -0.013158185
0.041732557 -0.0073500001 -0.0063559175
0.035867441 0.0073500001 -0.0027280413
0.013309303 0.0073500001 -0.0095303096
0.031355813 0.0068906248 -0.013158185
-0.018723255 0.0027562499 -0.015425608
-0.02594186 -0.0073500001 -0.00046061864
0.04218372 0.0073500001 -0.012251217
-0.013309303 -0.0073500001 -0.0099837938
0.014662791 -0.003215625 0.0018068041
0.030904651 0.00045937501 -0.00046061864
-0.010151163 0.00045937501 -0.011344247
-0.020076744 0.0073500001 -0.0090768253
0.04218372 0.00045937501 -0.0013675877
-0.00067674421 0.0073500001 -0.00046061864
0.028197674 0.00459375 -0.016332578
-0.019174419 0.00091875001 -0.014972124
-0.0092488369 -0.0064312499 -0.014065155
-0.014662791 -0.0073500001 -0.0090768253
-0.0092488369 0.0064312499 -0.013611671
-0.012406977 0.00459375 -0.013158185
-0.048500001 -0.00091875001 -0.0086233402
0.03857442 -0.0073500001 -0.0036350104
-0.044439536 -0.0073500001 -0.0081698559
0.031355813 -0.00459375 -0.013158185
0.034965117 0.0073500001 -0.010437279
-0.014211628 0.0064312499 -0.00046061864
0.031355813 -0.00459375 -0.00046061864
-0.048500001 0.0055124997 -0.0045419796
-0.043537211 0.0073500001 -0.012251217
0.003383721 -0.002296875 -0.013158185
-0.043086048 -0.0064312499 -0.013158185
0.0092488369 0.002296875 -0.012704701
0.017369768 0.0013781249 -0.011797733
-0.0092488369 0.00091875001 -0.014972124
-0.028648837 -0.00045937501 -0.017239546
0.014211628 -0.0041343751 -7.1340864e-06
-0.0092488369 -0.0027562499 -0.010890763
0.026844187 0.0027562499 -0.012251217
0.048048839 0.0073500001 -0.013611671
0.04714651 0 -0.014518639
0.011053489 0 -0.010437279
-0.0097000003 -0.0073500001 -0.012251217
-0.0047372095 0.003675 -0.013158185
0.021881396 -0.0073500001 -0.011344247
-0.044890698 0.0055124997 -0.00046061864
-0.00067674421 -0.0050531249 -0.016332578
-0.0015790698 0 -0.011344247
0.048500001 0.002296875 -0.014065155
-0.013760465 0.0073500001 -0.0090768253
-0.046695348 -0.003675 -0.014972124
0.033611629 0.0068906248 -0.013158185
0.048048839 -0.00091875001 -0.010890763
0.038123257 -0.0013781249 -0.017239546
-0.010151163 -0.0068906248 -0.011797733
-0.032709301 0.0073500001 -0.0095303096
-0.0087976744 -0.0064312499 -0.012704701
0.00067674421 -0.0027562499 -0.011344247
0.023234883 -0.003215625 0.00089983502
-0.0047372095 0.0073500001 -0.0054489486
-0.028197674 -0.0064312499 -0.014518639
0.043988373 -0.00045937501 -0.0027280413
-0.039025582 -0.0027562499 -0.00046061864
0.016467443 -0.0073500001 -0.0013675877
-0.028648837 0.0041343751 -0.00046061864
0.020979069 0.0027562499 -0.00046061864
-0.00067674421 0.0073500001 -0.0063559175
0.025039535 0.0073500001 -0.00091410318
0.038123257 -0.00459375 -0.00046061864
0.019174419 -0.0013781249 -0.013158185
-0.028648837 0 -0.013611671
-0.020527907 0.0027562499 -0.00046061864
-0.025039535 -0.0073500001 -0.003181526
0.0092488369 -0.0018375 -0.011797733
0.02413721 0.003675 -0.00046061864
0.027295349 0.0073500001 -0.0054489486
0.046695348 -0.00091875001 -0.016786063
-0.038123257 0.0050531249 -0.015879093
0.033160467 -0.003675 0.0027137732
0.0015790698 -0.00091875001 -0.010437279
-0.021430232 -0.0055124997 -0.013158185
-0.0097000003 0.002296875 -0.016332578
-0.046695348 0.003215625 -0.015425608
0.016467443 0.0073500001 -0.00091410318
0.038123257 -0.005971875 -0.016786063
-0.039927907 -0.00091875001 -0.012704701
0.030453488 0 -0.00046061864
0.028648837 0.0041343751 -7.1340864e-06
0.031806976 -0.0013781249 -0.00046061864
0.015113954 -0.0073500001 -0.0090768253
0.028197674 0.003215625 -0.013611671
-0.0092488369 -0.002296875 -0.012704701
0.040830232 -0.0073500001 -0.003181526
-0.028648837 -0.0073500001 -0.0045419796
-0.01782093 0.0068906248 -0.00046061864
0.0078953486 0.003675 -0.011344247
0.046244185 -0.0064312499 -0.010437279
0.046695348 0 -0.0022745568
0.048048839 -0.003675 -0.003181526
0.010151163 -0.0041343751 -0.013158185
-0.046695348 -0.0041343751 -0.012251217
-0.048500001 0.0055124997 -0.014518639
-0.034965117 0.0073500001 -0.0054489486
0.042634882 -0.0068906248 -0.013158185
0.039476745 0.0041343751 -0.011344247
0.028197674 -0.003675 -0.015879093
-0.021430232 -0.0073500001 -0.010890763
-0.00067674421 -0.0018375 -0.013158185
0.019625582 0.0018375 -0.012704701
0.016918605 0.0073500001 -0.010890763
0.045793023 0.00459375 -0.011797733
0.034965117 0.00459375 -0.013158185
0.034965117 0.003215625 -0.00046061864
-0.046244185 0.003675 -0.011797733
0.04714651 -0.00091875001 -0.014065155
-0.019174419 0.0073500001 -0.0027280413
0.030453488 0.00091875001 -0.013158185
-0.037220929 0 -0.00046061864
0.0065418603 -0.0050531249 -0.013158185
0.041732557 -0.0073500001 -0.013158185
-0.039927907 -0.0073500001 -0.010437279
0.042634882 -0.0027562499 -7.1340864e-06
0.013760465 0.003675 -0.00046061864
-0.018723255 -0.0013781249 -0.018146517
-0.048048839 -0.0068906248 -0.0054489486
-0.037672091 0.0013781249 -0.00046061864
-0.030904651 -0.0050531249 -0.00046061864
-0.019174419 0.0073500001 -0.0022745568
-0.038123257 0.002296875 -0.018146517
-0.048500001 0.002296875 -0.0086233402
-0.04714651 -0.0073500001 -0.0077163712
-0.012858139 0.005971875 -0.012704701
-0.043537211 0.0064312499 -0.013158185
-0.048048839 -0.0073500001 -0.010437279
-0.04037907 0.0064312499 -0.012704701
0.037672091 0.0027562499 -0.012251217
-0.028197674 0.0041343751 -0.018146517
0.048048839 0.0055124997 -0.0027280413
0.00067674421 0.0073500001 -0.0013675877
-0.028648837 0.0018375 -0.018146517
-0.013760465 -0.003215625 0.0013533195
-0.00067674421 -0.0018375 -0.012251217
0.0078953486 -0.003675 -0.013158185
-0.03857442 0.00091875001 -0.014518639
-0.048500001 0.0041343751 -0.0095303096
0.0092488369 -0.0027562499 -0.016332578
-0.0069930232 0.005971875 -0.00046061864
-0.033160467 0.0073500001 -0.00046061864
-0.0056395349 0.0073500001 -0.0040884949
-0.042634882 -0.003215625 0.00044635046
0.036769766 0.003675 -0.00046061864
-0.028648837 0.00091875001 -0.014065155
0.04714651 -0.0073500001 -0.0049954639
0.029100001 -0.0073500001 -0.00091410318
-0.012406977 -0.00091875001 -0.00046061864
-0.005188372 0.0064312499 -0.0022745568
0.019625582 -0.0050531249 -0.014972124
0.044439536 0.0073500001 -0.0018210723
0.024588373 -0.0073500001 -0.0049954639
-0.048500001 -0.005971875 -0.014972124
0.0078953486 -0.0073500001 -0.0063559175
0.0024813954 -0.0073500001 -0.0090768253
0.018723255 0.003675 -0.015425608
0.00067674421 -0.0073500001 -7.1340864e-06
-0.048500001 -0.00091875001 -0.007262887
-0.016918605 0.0055124997 -0.00046061864
0.02413721 -0.0073500001 -0.007262887
0.00067674421 -0.0027562499 -0.012251217
0.011053489 -0.0013781249 -0.010437279
-0.024588373 -0.0073500001 -0.0018210723
-0.048500001 -0.0055124997 -0.017693032
0.0015790698 0.0073500001 -0.00046061864
0.033160467 -0.0073500001 -0.0081698559
0.021430232 0.005971875 -0.013158185
0.04714651 -0.0027562499 -0.015879093
0.033160467 -0.0073500001 -0.0013675877
-0.025039535 0.0073500001 -0.0013675877
-0.012858139 0.00091875001 -0.013158185
0.032258138 0.003215625 -0.00046061864
-0.00022558139 -0.00459375 -0.00046061864
0.045793023 0.0073500001 -0.0095303096
0.015113954 -0.0073500001 -0.007262887
-0.016467443 0.0068906248 -0.00046061864
0.021881396 -0.003215625 -0.013158185
0.020979069 -0.0068906248 -0.00046061864
0.0087976744 0.0027562499 -0.014518639
-0.033611629 0.00459375 -0.00046061864
-0.019625582 -0.0064312499 -0.016786063
-0.021881396 -0.0073500001 -0.0068094023
0.029100001 0.002296875 -0.012704701
0.011504651 -0.0073500001 -0.010890763
-0.039476745 -0.0018375 -0.012704701
-0.046695348 -0.0013781249 -0.016786063
0.032258138 -0.0073500001 -0.0049954639
-0.034965117 0.00459375 -0.00046061864
-0.030453488 0.0073500001 -0.010890763
-0.028648837 -0.0018375 -0.014065155
0.043988373 0.0013781249 -0.013158185
0.025490697 -0.003675 -0.013158185
-0.021430232 0.0073500001 -0.010890763
-0.041732557 -0.00045937501 -0.013158185
-0.04714651 -0.0027562499 -0.013611671
-0.045793023 -0.0055124997 -0.00046061864
0.018272093 0.0027562499 -0.012251217
-0.028197674 0.00091875001 -0.014065155
0.034965117 -0.0073500001 -0.012704701
-0.016467443 -0.0073500001 -0.0045419796
-0.03857442 0.0013781249 -0.011797733
-0.028197674 0.003675 -0.015425608
0.008346512 -0.003215625 -0.00046061864
0.032709301 -0.0018375 -0.00046061864
0.01782093 0.0073500001 -0.00046061864
0.022332558 -0.0073500001 -0.0077163712
0.038123257 -0.005971875 -0.015425608
-0.00067674421 -0.005971875 -0.017693032
0.046695348 0.002296875 -0.00046061864
-0.0060906978 0.005971875 -0.00046061864
0.037220929 0.0018375 -0.011344247
0.015565116 -0.00091875001 -0.00046061864
0.034513954 0.0073500001 -0.0018210723
-0.026844187 0.0027562499 -0.012251217
0.022783721 -0.0027562499 -0.00046061864
0.036318604 -0.0068906248 -0.00046061864
-0.023234883 0.0064312499 -0.00046061864
-0.043537211 0.00091875001 -0.00046061864
-0.0097000003 -0.0064312499 -0.00046061864
-0.012406977 0.0050531249 -0.00046061864
-0.035416279 -0.0073500001 -0.0027280413
-0.046695348 0.0018375 -0.015425608
-0.048500001 -0.0018375 -0.017693032
-0.019174419 -0.003675 -0.016332578
-0.028197674 -0.003215625 -0.016332578
-0.048500001 -0.005971875 -0.015425608
-0.033160467 -0.0073500001 -0.0022745568
0.018272093 0.002296875 -0.012251217
0.00022558139 0.0073500001 -0.010890763
0.020979069 0.0018375 -0.013158185
-0.00067674421 0.0041343751 -0.017239546
-0.018272093 -0.005971875 -0.012251217
-0.013760465 0.0073500001 -0.011344247
0.048048839 0.002296875 -0.003181526
0.048048839 0.0073500001 -0.0059024333
0.036769766 0.0027562499 -0.00046061864
0.020076744 -0.00459375 -7.1340864e-06
-0.044890698 -0.0050531249 -0.013158185
0.047597673 -0.0013781249 -0.00046061864
-0.04714651 -0.0064312499 -7.1340864e-06
0.016016278 -0.0073500001 -0.012704701
-0.011053489 -0.0013781249 -0.012704701
-0.039025582 0.0073500001 -0.003181526
0.019174419 0.0018375 -0.013158185
0.026393022 0.003215625 -0.012704701
0.032258138 0 -0.00046061864
0.019174419 0.003675 -0.013611671
-0.020527907 -0.0018375 -0.011797733
-0.045793023 0.0073500001 -0.0022745568
0.038123257 -0.0073500001 -0.014518639
-0.016016278 -0.0064312499 -0.00046061864
-0.028648837 -0.00045937501 -0.011797733
0.0020302325 0.0073500001 -0.0063559175
-0.026844187 -0.0041343751 -0.010890763
-0.038123257 -0.0073500001 -0.012251217
-0.005188372 -0.0073500001 -0.0054489486
-0.034513954 -0.0073500001 -0.013158185
0.029551163 -0.0073500001 -0.0063559175
-0.045341861 0.005971875 -0.00046061864
-0.039476745 0.0050531249 -0.012704701
0.038123257 0.005971875 -0.015425608
0.011504651 0.0050531249 -0.013158185
-0.015565116 0.00459375 -0.00046061864
0.00067674421 -0.002296875 -0.014065155
0.00067674421 0.00091875001 -0.017693032
0.048048839 -0.0068906248 -0.00091410318
-0.014662791 0.0050531249 -0.00046061864
-0.024588373 -0.0018375 -0.013158185
0.041281395 -0.0013781249 -0.013158185
0.00067674421 -0.00091875001 -0.016332578
-0.018723255 0.00045937501 -0.018146517
-0.036769766 -0.0073500001 -0.011344247
0.008346512 -0.0073500001 -0.007262887
0.030904651 0.002296875 -0.013158185
0.030453488 -0.0073500001 -0.0049954639
0.0097000003 -0.003215625 -0.015425608
0.04218372 -0.00045937501 -0.0022745568
0.026393022 0.0027562499 -0.013158185
-0.013760465 -0.0073500001 -0.0095303096
0.046695348 0.0018375 -0.0018210723
-0.037672091 -0.0068906248 -0.018146517
0.016918605 -0.00459375 -0.00046061864
-0.019625582 0.0050531249 -0.017693032
-0.027295349 -0.003675 -0.012251217
-0.013309303 -0.0073500001 -0.011344247
-0.045793023 -0.0013781249 -0.012704701
-0.02413721 -0.0068906248 -0.013158185
-0.035416279 0.005971875 -0.00046061864
-0.02413721 0.0073500001 -0.0090768253
-0.03857442 0.005971875 -0.013158185
-0.032709301 0.0050531249 -0.00046061864
-0.022332558 -0.003675 -0.013158185
0.0087976744 0.003675 -0.010890763
-0.014211628 -0.0055124997 -7.1340864e-06
-0.034513954 -0.0018375 -0.00046061864
0.030904651 0.0041343751 -0.00046061864
0.0078953486 -0.0073500001 -0.0090768253
-0.019174419 0.00459375 -0.014972124
0.0078953486 -0.0073500001 -0.0036350104
0.0092488369 -0.00091875001 -0.011344247
0.032258138 -0.0073500001 -0.0013675877
-0.013309303 0.005971875 -0.012704701
-0.0078953486 0.003675 -0.012704701
-0.048500001 0.005971875 -0.010890763
-0.04218372 -0.0050531249 -0.00046061864
0.036318604 0.0013781249 -0.010890763
-0.028197674 0.0073500001 -0.0049954639
0.048500001 0.005971875 -0.003181526
0.001127907 0.00091875001 -0.00046061864
0.037672091 0.0073500001 -0.016786063
-0.00067674421 0.0041343751 -0.012251217
0.0097000003 -0.0073500001 -0.003181526
-0.0078953486 0.0041343751 -0.00046061864
0.019174419 -0.0027562499 -0.014972124
-0.027746512 -0.0073500001 -0.003181526
0.019174419 -0.003675 -0.017693032
-0.043988373 -0.0073500001 -0.0099837938
-0.008346512 0.0055124997 -0.00046061864
-0.0092488369 0.0013781249 -0.014065155
0.04714651 -0.0013781249 -0.013611671
0.041281395 -0.0073500001 -0.0040884949
0.0060906978 -0.0073500001 -0.00091410318
0.046695348 0.0018375 -0.017693032
0.033611629 -0.0073500001 -0.0049954639
-0.00022558139 -0.005971875 -0.00046061864
-0.0020302325 0.0064312499 -0.00046061864
-0.019174419 0.0018375 -0.013158185
0.025490697 -0.0050531249 -0.013158185
-0.048048839 -0.0073500001 -0.0040884949
-0.030002326 0.0073500001 -0.0090768253
-0.010151163 0.003215625 -0.010890763
0.019174419 -0.00045937501 -0.014518639
-0.03857442 -0.0055124997 -0.013158185
-0.034513954 -0.0073500001 -0.0040884949
0.027746512 -0.0027562499 -0.012704701
0.03857442 0.0041343751 -0.013158185
-0.0097000003 0.00091875001 -0.013158185
0.037672091 0.003675 -0.016786063
-0.046244185 -0.0073500001 -0.011344247
-0.014662791 -0.0068906248 -0.013158185
-0.017369768 0.0027562499 -0.012251217
-0.025490697 -0.00045937501 -0.00046061864
0.013309303 0.0013781249 -0.013158185
0.048500001 -0.005971875 -0.018146517
0.012406977 -0.0041343751 -0.013158185
0.030453488 0.0073500001 -0.0022745568
-0.010151163 0.003675 -0.012704701
-0.031806976 -0.00045937501 -0.00046061864
0.013309303 0.002296875 -0.00046061864
-0.011053489 0.00459375 -0.012704701
-0.041732557 -0.0073500001 -0.010437279
-0.039476745 -0.0050531249 -0.00046061864
-0.008346512 -0.0073500001 -0.0063559175
-0.041732557 0 -0.0018210723
0.03857442 -0.00459375 -0.014972124
-0.043086048 0.0013781249 -0.00046061864
0.005188372 -0.0073500001 -0.0063559175
0.020527907 -0.00045937501 -0.010437279
0.039927907 -0.0073500001 -0.0090768253
0.0015790698 -0.00091875001 -0.010890763
-0.021430232 0.00459375 -0.012704701
-0.048500001 0.00091875001 -0.012251217
-0.032258138 0.0073500001 -0.0095303096
-0.038123257 -0.0018375 -0.018146517
-0.031806976 0.0073500001 -0.0018210723
-0.026393022 -0.0073500001 -0.0036350104
0.026844187 0.003675 -0.011797733
-0.048500001 0.003215625 -0.0045419796
0.0042860466 -0.0055124997 -0.013158185
0.0069930232 0.00459375 -0.00046061864
-0.025039535 0.0041343751 -0.013158185
0.039476745 -0.00091875001 -0.011344247
-0.014662791 -0.002296875 -7.1340864e-06
-0.037672091 -0.00459375 -0.017693032
-0.025490697 -0.0073500001 -0.012251217
-0.043988373 0.0073500001 -0.0068094023
-0.011955814 -0.0055124997 -0.00046061864
-0.048500001 0.0013781249 -0.016332578
-0.008346512 0.0073500001 -0.010890763
-0.019625582 0.0073500001 -0.0045419796
-0.0015790698 0.0050531249 -0.011344247
-0.011955814 0.0073500001 -0.012251217
-0.010602325 -0.0068906248 -0.011344247
0.048500001 0.0064312499 -0.014065155
0.0015790698 -0.005971875 -0.011344247
-0.023234883 -0.00091875001 -0.013158185
0.036769766 -0.0073500001 -0.0036350104
0.018723255 -0.00091875001 -0.013611671
-0.005188372 -0.0073500001 -0.0081698559
0.048500001 -0.00459375 -0.0095303096
0.023234883 -0.003215625 0.0040742266
-0.036318604 0.00091875001 -0.011797733
0.00067674421 -0.00045937501 -0.010890763
0.0087976744 0.0050531249 -0.014065155
0.023234883 0.0073500001 -0.0013675877
0.04714651 0 -0.00091410318
-0.028197674 0.0073500001 -0.0027280413
0.008346512 -0.00091875001 -0.010437279
-0.010151163 0.0068906248 -0.015425608
-0.030453488 0.0073500001 -0.0081698559
-0.034965117 -0.0073500001 -0.0040884949
-0.048500001 -0.002296875 -0.0086233402
0.019174419 -0.0073500001 -0.015879093
-0.018723255 -0.0073500001 -0.0077163712
0.032709301 -0.0055124997 -0.013158185
-0.0078953486 0.003215625 -0.012704701
-0.028648837 -0.0073500001 -0.0099837938
0.033611629 0.0073500001 -0.013158185
0.023686046 -0.0073500001 -0.010890763
0.038123257 -0.003215625 -0.018146517
-0.026393022 0.0073500001 -0.0045419796
-0.041732557 -0.00045937501 -0.00046061864
-0.029100001 0.0068906248 -0.017693032
0.012406977 0.0073500001 -0.00091410318
0.037672091 -0.0073500001 -0.003181526
0.026844187 0 -0.012251217
0.048500001 0.005971875 -0.0077163712
0.018723255 0.0050531249 -0.013611671
0.018723255 0.0073500001 -0.0036350104
-0.0092488369 0.0073500001 -0.0049954639
-0.019174419 0.0018375 -0.014972124
0.033611629 0.00459375 -0.00046061864
-0.015565116 -0.005971875 -0.00046061864
0.0092488369 -0.0013781249 -0.013611671
0.0087976744 0.0050531249 -0.013611671
0.013760465 -0.002296875 -0.013158185
0.046695348 -0.003675 -0.013158185
0.046244185 -0.00091875001 -0.011344247
0.044439536 0.0013781249 -0.013158185
0.048048839 0 -0.007262887
0.023686046 -0.003675 0.0036207424
0.0042860466 -0.00459375 -0.013158185
0.041732557 0.0073500001 -0.0036350104
0.012406977 -0.0073500001 -0.0054489486
0.00067674421 -0.00045937501 -0.013611671
0.0015790698 0.005971875 -0.00046061864
0.019174419 -0.0041343751 -0.00046061864
0.028648837 0.0073500001 -0.0040884949
-0.048500001 -0.0055124997 -0.0090768253
0.031355813 -0.0073500001 -0.011797733
0.014211628 0.0073500001 -0.003181526
0.00067674421 -0.005971875 -0.016786063
0.008346512 -0.0027562499 -0.011344247
-0.0015790698 -0.0041343751 -0.010890763
0.033160467 0.0018375 -0.013158185
0.031355813 0.0018375 -0.00046061864
0.03857442 0.002296875 -0.011344247
0.037220929 -0.003215625 -0.013158185
0.036318604 -0.0013781249 -0.00046061864
0.048048839 -0.003215625 -0.0090768253
-0.023234883 0.0073500001 -0.0086233402
0.023686046 0.0073500001 -0.0090768253
0.0087976744 -0.0073500001 -0.0018210723
0.0047372095 -0.0055124997 -7.1340864e-06
0.048500001 -0.00045937501 -0.0045419796
0.0015790698 0.0073500001 -0.010890763
0.02594186 0.005971875 -0.00046061864
-0.03857442 0.00459375 -0.018146517
0.018723255 -0.0050531249 -0.016786063
-0.016016278 0.0073500001 -0.012251217
0.00067674421 0.005971875 -0.012704701
-0.028648837 0.0027562499 -0.014972124
-0.048500001 0.0013781249 -0.0063559175
0.015113954 0.0073500001 -0.0086233402
0.046244185 -0.0068906248 -0.011344247
-0.0097000003 -0.0068906248 -0.014065155
-0.026844187 0.0073500001 -0.0090768253
-0.0056395349 0.0073500001 -0.0095303096
-0.038123257 -0.0018375 -0.016786063
0.013309303 -0.0050531249 -0.013158185
-0.02413721 -0.00045937501 -0.013158185
0.0020302325 -0.0073500001 -0.0045419796
0.044439536 0.0073500001 -0.0095303096
-0.018723255 0.0027562499 -0.017239546
0.00067674421 0.003675 -0.013158185
-0.016467443 0.0064312499 -0.00046061864
0.0047372095 0.0073500001 -0.012251217
0.005188372 -0.0055124997 -0.013158185
0.023234883 -0.0073500001 -0.00046061864
0.0097000003 -0.00045937501 -0.013611671
-0.037672091 -0.0041343751 -0.014065155
0.020527907 0.005971875 -0.012251217
-0.040830232 0.0073500001 -0.012704701
0.0097000003 0.002296875 -0.014065155
0.044439536 0.003215625 -0.00046061864
-0.0029325581 0.0073500001 -0.0054489486
-0.010151163 0.005971875 -0.018146517
0.037672091 -0.003215625 -0.013611671
-0.016016278 -0.0073500001 -0.0059024333
0.003383721 0.005971875 -0.00046061864
0.048048839 0.0041343751 -0.012704701
0.017369768 0.0073500001 -0.0022745568
0.019174419 0.0064312499 -0.015425608
0.018272093 0.0018375 -7.1340864e-06
0.0038348837 0.00091875001 -0.00046061864
-0.00022558139 0.0073500001 -0.0059024333
0.003383721 -0.0073500001 -0.012251217
0.045793023 -0.0073500001 -0.010890763
-0.041732557 -0.0073500001 -0.011344247
-0.027746512 0.0068906248 -0.010890763
0.024588373 0.0050531249 -0.013158185
0.00067674421 0.00091875001 -0.013611671
-0.048500001 0.0050531249 -0.0036350104
-0.0015790698 0.005971875 -0.011344247
-0.037672091 0.005971875 -0.00046061864
-0.036318604 0.0073500001 -0.010890763
0.022332558 -0.0073500001 -0.00091410318
0.029100001 -0.0068906248 -0.00046061864
-0.048048839 0.0068906248 -0.017693032
-0.0015790698 0.0055124997 -0.011797733
0.021430232 -0.003215625 -0.00046061864
-0.039025582 -0.0073500001 -0.0027280413
-0.046244185 0.00045937501 -0.0022745568
-0.0074441861 -0.0064312499 -0.013158185
0.0097000003 -0.0073500001 -0.014518639
0.00067674421 0.002296875 -0.016786063
-0.001127907 0.0055124997 -0.00046061864
0.039476745 0.003675 -0.012704701
-0.048500001 0.00091875001 -0.016332578
-0.0020302325 0.0050531249 -0.013158185
0.037672091 -0.0073500001 -0.0081698559
0.045793023 -0.00091875001 -0.011797733
0.048048839 0.0073500001 -0.013158185
-0.023234883 -0.0073500001 -0.00046061864
0.046244185 0.0073500001 -0.0054489486
-0.044439536 0.0073500001 -0.007262887
-0.028197674 0.0073500001 -0.010437279
-0.001127907 0.0073500001 -0.00046061864
-0.018723255 0.0073500001 -0.0045419796
0.025490697 0.0073500001 -0.010890763
-0.033160467 0.002296875 -0.013158185
-0.013309303 0.00459375 -0.00046061864
0.012858139 0.005971875 -0.013158185
-0.0060906978 0.0068906248 -0.0018210723
-0.046695348 0.0068906248 -0.010437279
0.018272093 -0.0041343751 -0.012704701
-0.037672091 -0.0073500001 -0.012704701
0.048500001 -0.00459375 -0.0022745568
0.043086048 -0.002296875 -0.013158185
0.032709301 0.0073500001 -0.0068094023
-0.031806976 -0.0013781249 -0.013158185
-0.0092488369 0.003215625 -0.011797733
-0.011955814 0.003215625 -0.00046061864
0.010151163 -0.0041343751 -0.014972124
-0.00067674421 0.0073500001 -0.0077163712
0.048500001 0.0041343751 -0.015425608
0.00067674421 -0.00459375 -0.014065155
0.029100001 -0.0041343751 -0.013158185
-0.028197674 0.0050531249 -0.014972124
-0.038123257 -0.0068906248 -0.017693032
0.016016278 -0.0068906248 -0.00046061864
0.008346512 -0.0073500001 -0.00046061864
-0.034062792 0.0050531249 -0.00046061864
0.045341861 0.0068906248 -0.00046061864
0.016016278 0.0064312499 -0.013158185
0.048048839 0.003675 -0.00091410318
-0.02594186 -0.0068906248 -0.00046061864
-0.026844187 -0.00091875001 -0.012251217
-0.027746512 -0.0027562499 -0.011344247
0.023686046 -0.0073500001 -0.0090768253
0.025490697 0.00091875001 -0.013158185
-0.034513954 0.0073500001 -0.0090768253
0.018723255 0.0013781249 -0.015425608
0.010602325 0.0027562499 -0.0099837938
-0.029551163 -0.0073500001 -0.0090768253
-0.0020302325 -0.0073500001 -0.011797733
0.035416279 0.0018375 -0.00046061864
-0.00067674421 0.0013781249 -0.00046061864
0.039476745 0.002296875 -0.012251217
-0.023686046 -0.0013781249 -0.013158185
0.04218372 0.0041343751 -0.013158185
0.026844187 0.0073500001 -0.0086233402
0.0092488369 -0.00091875001 -0.012251217
-0.028197674 -0.0055124997 -0.012704701
0.014662791 -0.003675 0.0027137732
-0.003383721 -0.0073500001 -0.012251217
0.022332558 0.0073500001 -0.0022745568
0.041732557 -0.0073500001 -0.0086233402
-0.043988373 -0.0041343751 -0.00046061864
0.04714651 0.0055124997 -0.015425608
0.042634882 0.003215625 -0.013158185
0.023686046 0.0073500001 -0.0063559175
-0.048500001 0.00091875001 -0.014065155
-0.028197674 0 -0.013611671
0.01782093 0.0073500001 -0.0027280413
0.01782093 0.0064312499 -7.1340864e-06
0.031355813 0.00459375 -0.013158185
-0.039476745 0 -0.010890763
0.048048839 -0.0013781249 -0.0068094023
-0.043988373 -0.0055124997 -0.00046061864
-0.048048839 0.003675 -0.00091410318
0.019174419 0.0064312499 -0.014518639
0.0015790698 0.003215625 -0.012704701
0.026844187 0.002296875 -0.012251217
-0.019625582 -0.0055124997 -0.013611671
-0.034062792 -0.0073500001 -0.0081698559
-0.0029325581 -0.005971875 -0.013158185
-0.040830232 -0.0073500001 -0.0068094023
-0.0078953486 0.0013781249 -0.012251217
0.027295349 0.0027562499 -0.011344247
0.04714651 0.00045937501 -0.014972124
-0.048500001 0.002296875 -0.015425608
0.039476745 -0.0041343751 -0.00046061864
-0.036769766 0.0055124997 -0.00046061864
-0.0015790698 -0.0073500001 -0.0027280413
-0.018272093 -0.005971875 -0.014518639
-0.043988373 -0.0068906248 -0.00046061864
-0.048500001 -0.0055124997 -0.0099837938
0.037672091 0.0055124997 -0.017693032
0.0097000003 0.00045937501 -0.013158185
-0.011504651 -0.00045937501 -0.013158185
-0.04037907 0.00459375 -0.013158185
-0.020076744 -0.0064312499 -0.011797733
0.046695348 -0.0073500001 -0.011797733
0.018723255 -0.00091875001 -0.013158185
-0.014211628 0.0073500001 -0.012251217
0.036318604 -0.00091875001 -0.010890763
-0.00022558139 0.00459375 -0.018146517
0.039025582 -0.0073500001 -0.0077163712
-0.046695348 0.00459375 -0.012704701
-0.014662791 0.0073500001 -0.0022745568
0.037672091 -0.0055124997 -0.014518639
-0.03857442 -0.0073500001 -0.0036350104
-0.03857442 0.0050531249 -0.00046061864
0.011504651 0.0068906248 -0.00046061864
0.012406977 0.003675 -0.00046061864
-0.043988373 -0.0027562499 -0.00046061864
0.04218372 0.00091875001 -0.0018210723
-0.00067674421 -0.0073500001 -0.00046061864
0.0074441861 -0.0013781249 -0.00046061864
-0.016918605 0.0073500001 -0.012251217
0.010602325 0.0068906248 -0.00046061864
-0.027746512 0 -0.00046061864
0.0097000003 -0.0041343751 -0.018146517
-0.043537211 -0.0073500001 -0.0040884949
-0.038123257 -0.003215625 -0.016786063
0.030002326 -0.0013781249 -0.00046061864
-0.0024813954 -0.0073500001 -0.007262887
0.018272093 0.0073500001 -0.007262887
0.043988373 0.0073500001 -0.0086233402
-0.045341861 0 -0.013158185
-0.0092488369 -0.0055124997 -0.013158185
-0.0060906978 -0.003675 -0.00046061864
-0.0047372095 -0.0073500001 -0.011797733
-0.01782093 -0.0073500001 -0.0077163712
0.020979069 -0.00459375 -0.012704701
-0.04714651 -0.003215625 -7.1340864e-06
0.036769766 -0.00045937501 -0.011344247
-0.0092488369 0.0027562499 -0.018146517
-0.031806976 -0.0073500001 -0.013158185
0.015113954 -0.0073500001 -0.0099837938
-0.0015790698 -0.0073500001 -0.011797733
-0.035416279 -0.0073500001 -0.0013675877
0.0047372095 -0.0068906248 -0.00046061864
0.02413721 -0.003215625 0.0022602887
0.0092488369 0.003215625 -0.017239546
0.020076744 0.0073500001 -0.010437279
0.028197674 -0.0050531249 -0.014518639
-0.032709301 -0.0073500001 -0.0027280413
0.028197674 -0.00459375 -0.017693032
0.0020302325 0.0013781249 -0.013158185
0.048048839 -0.0041343751 -0.0099837938
-0.010151163 0.0073500001 -0.0022745568
-0.031355813 0.0013781249 -0.00046061864
-0.03857442 0.0027562499 -0.014972124
-0.048500001 -0.0041343751 -0.0040884949
0.037672091 -0.0068906248 -0.014065155
0.048500001 -0.0064312499 -0.0095303096
-0.03857442 0.0027562499 -0.011344247
0.033160467 0.00091875001 -0.00046061864
0.030002326 -0.00459375 -0.012704701
0.030453488 -0.0013781249 -0.013158185
-0.032709301 -0.0068906248 -0.013158185
-0.048500001 0.0041343751 -0.007262887
-0.048048839 -0.003675 -0.00091410318
-0.045793023 -0.003215625 -0.012251217
-0.00067674421 0.0050531249 -0.014065155
-0.029100001 0.0073500001 -0.0099837938
0.017369768 -0.00045937501 -0.011797733
-0.032709301 0.0073500001 -0.0018210723
-0.023686046 0.0073500001 -0.0036350104
-0.0074441861 0.00045937501 -0.00046061864
0.039927907 -0.0073500001 -0.0086233402
0.047597673 0.0013781249 -0.0022745568
0.029100001 -0.0041343751 -0.013611671
0.012858139 0.0055124997 -0.00046061864
-0.030002326 0.0064312499 -0.00046061864
-0.042634882 -0.0073500001 -0.007262887
-0.02594186 0.0073500001 -0.0090768253
-0.0078953486 -0.003675 -0.00046061864
-0.0069930232 -0.005971875 -0.00046061864
0.0097000003 -0.0013781249 -0.016332578
-0.048048839 0 -0.00046061864
-0.008346512 0.0073500001 -0.011797733
-0.010151163 0.003215625 -0.012251217
0.018272093 0.0073500001 -0.0027280413
-0.02413721 0.0068906248 -0.012704701
-0.019174419 -0.0027562499 -0.013611671
-0.029100001 -0.0073500001 -0.0036350104
0.030904651 -0.0073500001 -0.0059024333
0.0092488369 -0.0027562499 -0.011344247
0.02594186 0.0027562499 -0.013158185
0.0087976744 -0.00459375 -0.012251217
0.034965117 -0.0027562499 -0.00046061864
0.048500001 -0.00091875001 -0.015879093
-0.010151163 0.0055124997 -0.014065155
-0.048500001 -0.003215625 -0.0049954639
-0.018723255 0 -0.017239546
0.0078953486 -0.0073500001 -0.012704701
0.016918605 -0.0073500001 -0.011344247
0.036769766 -0.0013781249 -0.00046061864
-0.027746512 0.0055124997 -0.011797733
0.034062792 -0.003215625 -0.00046061864
0.045341861 -0.0073500001 -0.0049954639
0.048500001 -0.0064312499 -0.010890763
-0.048048839 0.0068906248 -0.003181526
-0.033160467 -0.0073500001 -0.010890763
-0.048500001 0.0041343751 -0.003181526
0.048500001 -0.0041343751 -0.017239546
0.020979069 -0.0073500001 -0.0077163712
-0.011955814 -0.003215625 -0.013158185
0.02413721 -0.00091875001 -0.013158185
0.046695348 -0.0013781249 -0.00046061864
0.00022558139 -0.0073500001 -0.011797733
-0.03857442 0.00091875001 -7.1340864e-06
-0.034513954 -0.0073500001 -0.007262887
-0.0047372095 0.0041343751 -0.00046061864
-0.048500001 0.0064312499 -0.0054489486
0.043988373 -0.0027562499 -0.013158185
0.011053489 -0.0073500001 -0.012251217
0.0097000003 -0.002296875 -0.017693032
0.025039535 0.0073500001 -0.010437279
-0.043988373 -0.00091875001 -0.00046061864
0.046244185 -0.0050531249 -0.011344247
-0.012406977 0.0073500001 -0.011344247
-0.042634882 0.0013781249 -0.013158185
-0.0069930232 -0.0073500001 -0.00046061864
-0.00022558139 0.00091875001 -0.018146517
0.041281395 0.0073500001 -0.0077163712
0.038123257 0.003215625 -0.016332578
0.042634882 -0.003675 -0.013158185
0.012858139 -0.0073500001 -0.0049954639
-0.00067674421 0.003215625 -0.013158185
0.029100001 0.005971875 -0.015425608
0.038123257 -0.0073500001 -0.0027280413
-0.00067674421 -0.0073500001 -0.0086233402
-0.037672091 0.0050531249 -0.00046061864
0.048500001 -0.00091875001 -0.017239546
0.046695348 0.0041343751 -0.016786063
0.010151163 -0.0064312499 -0.017693032
-0.0024813954 0.003675 -0.00046061864
0.028648837 -0.0013781249 -0.012251217
0.030904651 0.0064312499 -0.00046061864
-0.040830232 0.0041343751 -0.013158185
0.020076744 0.0073500001 -0.0068094023
-0.037220929 0.002296875 -0.012251217
-0.037220929 0.0073500001 -0.0090768253
0.04218372 -0.003675 0.0022602887
0.010602325 -0.0050531249 -0.010890763
-0.048048839 0.0041343751 -0.0013675877
-0.041732557 0.0073500001 -0.012251217
0.010151163 -0.005971875 -0.015879093
0.028197674 0.002296875 -0.012251217
-0.027295349 -0.002296875 -0.011797733
0.0029325581 0.0073500001 -0.011797733
-0.0092488369 -0.0018375 -0.017693032
-0.037220929 -0.0018375 -0.010890763
0.0020302325 -0.00459375 -0.013158185
0.028197674 -0.0073500001 -0.0013675877
-0.020527907 -0.0027562499 -0.011797733
0.019625582 -0.0064312499 -0.017239546
-0.03857442 0.002296875 -0.013158185
-0.04218372 0.0073500001 -0.010437279
-0.048500001 0.003215625 -0.017239546
0.00067674421 -0.0064312499 -0.0022745568
-0.0092488369 0 -0.015425608
-0.037672091 0.0073500001 -0.0054489486
-0.0097000003 0.0073500001 -0.013611671
0.014211628 0.00045937501 -0.00046061864
-0.001127907 0.0073500001 -0.0049954639
-0.00022558139 -0.0073500001 -0.012704701
0.0087976744 -0.0073500001 -0.012251217
0.048048839 0.0041343751 -0.0090768253
0.04714651 -0.0068906248 -0.014065155
0.042634882 -0.003215625 0.0045277113
0.019625582 -0.005971875 -0.014065155
0.035867441 0.0050531249 -0.00046061864
0.034062792 0.0055124997 -0.00046061864
0.02594186 0 -0.013158185
0.0078953486 -0.0018375 -0.012251217
0.035867441 -0.0073500001 -0.0099837938
0.00022558139 0.0073500001 -0.011344247
-0.029551163 0.00045937501 -0.010890763
-0.044890698 -0.0041343751 -0.013158185
0.014662791 0.0073500001 -0.007262887
-0.031806976 0.005971875 -0.013158185
0.020527907 0.0073500001 -0.0059024333
0.023234883 0.0068906248 -0.013158185
-0.048500001 0.003675 -0.015879093
-0.019625582 0.003215625 -0.012704701
0.033611629 0.0073500001 -0.0068094023
-0.048048839 0.0027562499 -0.00046061864
0.01782093 0.0068906248 -0.00046061864
-0.0060906978 -0.0073500001 -0.0027280413
-0.014211628 0.0050531249 -0.00046061864
-0.0056395349 0.0073500001 -0.0068094023
-0.048500001 -0.003675 -0.0077163712
0.029100001 0.00459375 -0.012251217
-0.023686046 0.0073500001 -0.0059024333
-0.038123257 -0.0073500001 -0.0018210723
0.046695348 -0.0018375 -0.016332578
0.008346512 -0.0055124997 -0.011797733
-0.039927907 0.0050531249 -0.013158185
-0.0060906978 -0.0027562499 -0.013158185
0.039927907 0.0073500001 -0.003181526
-0.0092488369 -0.0050531249 -0.010890763
-0.033160467 0 -0.013158185
-0.037220929 -0.005971875 -0.017693032
0.020527907 -0.005971875 -0.011797733
0.013760465 -0.0073500001 -0.0027280413
0.00067674421 0.002296875 -0.014518639
-0.019174419 -0.0068906248 -0.011797733
0.0015790698 -0.002296875 -0.012251217
-0.029100001 0.0055124997 -0.014065155
0.022783721 0.0050531249 -0.013158185
0.0087976744 0.0050531249 -0.018146517
-0.005188372 -0.0027562499 -7.1340864e-06
0.0038348837 -0.005971875 -0.00046061864
0.046695348 -0.00459375 -0.016786063
0.020979069 -0.0073500001 -0.0022745568
-0.0092488369 0.0050531249 -0.013158185
-0.010602325 0.00091875001 -0.00046061864
-0.0015790698 -0.0064312499 -0.0018210723
-0.020979069 0.0013781249 -0.013158185
-0.016467443 -0.0055124997 -0.00046061864
0.0092488369 0.003215625 -0.012251217
0.0092488369 0.0073500001 -0.017239546
-0.033611629 0.00091875001 -0.00046061864
-0.010602325 -0.0055124997 -0.00046061864
0.032709301 -0.003215625 0.0027137732
-0.014211628 0.0050531249 -0.013158185
0.030002326 0.0073500001 -0.007262887
-0.019174419 0.0073500001 -0.0086233402
-0.045341861 0.0073500001 -0.0095303096
0.018723255 -0.0073500001 -0.007262887
-0.019625582 -0.0073500001 -0.0068094023
-0.031806976 0.0073500001 -0.0099837938
0.0065418603 -0.00459375 -0.013158185
-0.046695348 -0.0064312499 -0.012251217
-0.013760465 0.0073500001 -0.003181526
0.048048839 -0.0068906248 -0.012251217
0.020979069 -0.0073500001 -0.012251217
0.0042860466 -0.0073500001 -0.010437279
-0.019174419 0.005971875 -0.015425608
-0.016016278 0.0073500001 -0.0022745568
0.028197674 -0.00459375 -0.014065155
0.035867441 0.0068906248 -0.00046061864
0.0087976744 0.00091875001 -0.014972124
0.037672091 -0.0013781249 -0.014065155
-0.0069930232 0.002296875 -0.013158185
-0.0069930232 -0.003215625 -0.00046061864
-0.045341861 0.0073500001 -0.0099837938
0.029100001 0.0064312499 -0.014972124
-0.010151163 -0.00459375 -0.010890763
0.015113954 0.0073500001 -0.0054489486
-0.020979069 0.00459375 -0.012704701
0.044439536 0.0073500001 -0.0059024333
0.0024813954 0.0073500001 -0.0054489486
0.011955814 0.0073500001 -0.0027280413
-0.030002326 -0.0018375 -0.011344247
-0.0029325581 -0.0073500001 -0.0022745568
0.001127907 -0.0027562499 -0.0099837938
-0.039476745 -0.0064312499 -0.00046061864
0.019625582 -0.0068906248 -0.017239546
-0.036318604 0.0073500001 -0.0013675877
-0.0015790698 -0.005971875 -0.013158185
-0.028197674 -0.0073500001 -0.014518639
0.0092488369 -0.003675 -0.016332578
