# .PCD v0.7 - Point Cloud Data file format
VERSION 0.7
FIELDS x y z
SIZE 4 4 4
TYPE F F F
COUNT 1 1 1
WIDTH 1211
HEIGHT 1
VIEWPOINT 0 0 0 1 0 0 0
POINTS 1211
DATA ascii
-0.0022679346 -0.0071372096 -0.0088169016
-0.0009071739 -0.0039139534 -0.00011971831
-0.029483151 0.0085186046 -0.026669014
-0.015421956 -0.001611628 -0.00011971831
-0.019504238 -0.0085186046 -0.0014929577
0.021318587 0.0029930233 -0.027126761
-0.0095253261 0.0039139534 -0.00011971831
-0.0049894564 -0.0039139534 -0.027126761
0.023586521 -0.0085186046 -0.00011971831
0.019050652 0.0034534885 -0.027126761
-0.039915651 0.0098999999 -0.01156338
-0.019050652 -0.0098999999 -0.010647887
0.0095253261 -0.0057558143 -0.00011971831
0.024040109 -0.0094395354 -0.0079014087
0.0009071739 -0.0062162792 -0.019345071
0.034019019 -0.0098999999 -0.023007043
0.0040822825 0.0080581401 -0.0014929577
-0.04127641 0.0034534885 -0.00011971831
0.033565432 -0.0098999999 -0.0028661971
0.041729998 -0.0043744189 -0.020260563
-0.039462063 -0.0098999999 -0.0074436618
0.012246847 0.0098999999 -0.0083591547
-0.021318587 0.0098999999 -0.020260563
-0.04127641 0.0098999999 -0.0088169016
-0.024040109 -0.0052953488 -0.00011971831
0.036286954 0.0098999999 -0.014309859
-0.04127641 -0.0029930233 -0.012021127
-0.027215216 0.001611628 -0.00011971831
-0.041729998 0.0025325583 -0.0083591547
-0.02222576 -0.0098999999 -0.0046971831
0.015421956 -0.0080581401 -0.00011971831
-0.018143477 -0.0098999999 -0.0079014087
0.024493694 0.0075976746 -0.00011971831
-0.024493694 0.0098999999 -0.0024084507
0.01632913 -0.0043744189 -0.00011971831
0.039008476 -0.0057558143 -0.00011971831
0.011339674 -0.0066767442 -0.02071831
0.023132933 -0.0085186046 -0.021176057
-0.0049894564 0.0080581401 -0.0010352113
-0.017236304 0.00897907 -0.0010352113
0.034926195 -0.0020720931 -0.00011971831
0.032204673 0.0098999999 -0.023922535
0.021318587 -0.0066767442 -0.00011971831
-0.040369239 -0.0043744189 -0.026669014
-0.02812239 0.0098999999 -0.012021127
-0.024947282 0.0025325583 -0.027126761
0.031297497 -0.0098999999 -0.0060704225
0.0099789128 0.0039139534 -0.00011971831
0.041729998 0.0057558143 -0.011105633
-0.014514782 -0.0071372096 -0.00011971831
-0.0054430431 -0.0075976746 -0.015683098
-0.020411413 -0.0043744189 -0.00011971831
0.0068038041 0.0098999999 -0.018429577
-0.024947282 -0.0025325583 -0.00011971831
0.041729998 -0.0057558143 -0.02346479
0.02812239 0.001611628 -0.027126761
0.017236304 0.0098999999 -0.020260563
-0.019957826 0.0020720931 -0.027126761
0.013607608 -0.0071372096 -0.023007043
-0.019957826 0.0098999999 -0.018429577
0.030843912 0.0098999999 -0.019802816
0.00045358695 0.0098999999 -0.024380282
-0.03583337 0.0098999999 -0.012021127
0 -0.0066767442 -0.014767606
0.017236304 -0.0075976746 -0.022091549
-0.027215216 0.0048348838 -0.026669014
0.041729998 -0.0039139534 -0.00057746482
0.0077109779 0.0048348838 -0.00011971831
0.031297497 0.0098999999 -0.025295775
0.0045358692 0.0098999999 -0.018887324
-0.011339674 0.0098999999 -0.010647887
-0.0072573912 -0.0080581401 -0.0074436618
0.016782716 -0.0075976746 -0.024380282
-0.040369239 -0.0098999999 -0.0010352113
-0.013154021 -0.00897907 -0.0028661971
0.041729998 -0.0094395354 -0.024380282
0.033565432 -0.0034534885 -0.00011971831
-0.027668804 -0.0098999999 -0.00378169
-0.012246847 -0.0057558143 -0.026669014
-0.0090717385 -0.0080581401 -0.014767606
0.041729998 -0.00897907 -0.016140845
0.023132933 0.0098999999 -0.025295775
-0.0090717385 -0.0075976746 -0.0024084507
0.041729998 -0.0066767442 -0.014309859
-0.021318587 -0.0039139534 -0.00011971831
0.025854455 0.0098999999 -0.01019014
-0.037194129 0.0094395354 -0.00011971831
0.04127641 0.0025325583 -0.0065281689
-0.031751085 -0.0098999999 -0.0028661971
-0.017236304 0.0039139534 -0.026669014
0.022679348 -0.0085186046 -0.011105633
-0.010886086 -0.00897907 -0.0083591547
-0.037647717 0.0098999999 -0.0069859154
0.026308043 0.0098999999 -0.0019507043
0.034472607 0.0052953488 -0.00011971831
0.034019019 -0.00069069769 -0.00011971831
0.0009071739 0.0075976746 -0.0010352113
-0.040822826 0.0098999999 -0.0019507043
0.041729998 0.0043744189 -0.016598592
0.041729998 -0.0085186046 -0.022549296
-0.014968369 -0.0020720931 -0.027126761
-0.014968369 0.0066767442 -0.026669014
-0.036740541 0.001611628 -0.027126761
0.041729998 -0.0066767442 -0.013394366
-0.041729998 0.00897907 -0.01019014
0.010886086 -0.0075976746 -0.0024084507
0.02540087 0.00069069769 -0.00011971831
-0.0086181518 -0.0071372096 -0.02346479
0.041729998 0.00069069769 -0.024380282
0.040822826 0.0098999999 -0.02346479
-0.041729998 0.0066767442 -0.020260563
0.026308043 0.0080581401 -0.026669014
-0.041729998 0.0048348838 -0.015683098
0.010432499 -0.0066767442 -0.022091549
0.020411413 0.0098999999 -0.0065281689
0.039915651 0.0098999999 -0.0079014087
0.033111848 0.0098999999 -0.024838028
0.033565432 0.0098999999 -0.0092746476
-0.021318587 -0.0098999999 -0.014309859
0.029483151 0.0094395354 -0.026211267
0.0049894564 -0.0071372096 -0.0010352113
0.0009071739 0.00897907 -0.0024084507
0.015875543 -0.001611628 -0.00011971831
0.0081645651 -0.0085186046 -0.00011971831
-0.010432499 0.0098999999 -0.012021127
-0.041729998 0.0066767442 -0.0060704225
0.020411413 -0.0057558143 -0.00011971831
0.011339674 0.0094395354 -0.005612676
0.027215216 0.0029930233 -0.00011971831
-0.011339674 0.0062162792 -0.026669014
-0.041729998 -0.001611628 -0.015225352
-0.029936738 -0.0048348838 -0.026669014
-0.014968369 -0.0085186046 -0.0028661971
0.031751085 -0.0098999999 -0.024838028
-0.0072573912 0.0098999999 -0.023007043
-0.041729998 0.0011511628 -0.0042394367
0.020864999 -0.0029930233 -0.026669014
0.032204673 -0.0071372096 -0.026669014
0.040369239 0.0098999999 -0.02071831
0.033565432 0.0085186046 -0.026669014
0.026308043 0.0098999999 -0.021633802
-0.016782716 -0.0080581401 -0.023007043
0.027215216 -0.0094395354 -0.016598592
-0.0063502174 0.0011511628 -0.027126761
-0.0063502174 -0.0085186046 -0.00011971831
0.0009071739 0.0071372096 -0.0014929577
0.041729998 -0.0034534885 -0.020260563
0.04127641 0.0029930233 -0.005612676
0.0049894564 0.0029930233 -0.027126761
-0.0063502174 0.0071372096 -0.00378169
0.033565432 0.0098999999 -0.0065281689
0.01632913 0.0098999999 -0.0088169016
-0.0063502174 -0.0080581401 -0.0069859154
0.039915651 -0.0098999999 -0.015683098
-0.018143477 -0.0071372096 -0.026669014
0.0086181518 0.0098999999 -0.0024084507
-0.012700435 -0.0025325583 -0.027126761
-0.01179326 0.0098999999 -0.025295775
0.039008476 -0.0098999999 -0.017514085
0.029936738 0.0029930233 -0.00011971831
-0.041729998 -0.001611628 -0.0083591547
0.014061195 0.0098999999 -0.016598592
-0.0077109779 -0.0066767442 -0.020260563
0.029936738 0.0098999999 -0.0079014087
0.02812239 0.0098999999 -0.02346479
-0.015875543 0.0098999999 -0.01019014
0.014968369 -0.0075976746 -0.0092746476
-0.0063502174 0.0071372096 -0.026669014
0.0068038041 -0.0062162792 -0.01019014
0.041729998 -0.0020720931 -0.0014929577
0.011339674 0.0025325583 -0.027126761
0.034472607 0.0075976746 -0.00057746482
-0.025854455 -0.0094395354 -0.022549296
-0.0081645651 0.001611628 -0.00011971831
-0.041729998 -0.0029930233 -0.017056338
0.0054430431 -0.0011511628 -0.027126761
-0.030390326 -0.0098999999 -0.0060704225
0.016782716 -0.0075976746 -0.022549296
0 -0.0075976746 -0.00011971831
-0.0072573912 0.0098999999 -0.022549296
-0.04127641 0.0066767442 -0.0060704225
0.0086181518 0.0080581401 -0.0046971831
-0.019957826 -0.0098999999 -0.016598592
-0.028575977 -0.0052953488 -0.026669014
0.033565432 0.0098999999 -0.026211267
-0.021318587 -0.0098999999 -0.010647887
-0.0040822825 -0.0075976746 -0.005612676
0.010432499 -0.0075976746 -0.00011971831
0.0072573912 -0.0062162792 -0.01293662
-0.02812239 0.0025325583 -0.027126761
-0.031751085 -0.0098999999 -0.014309859
0.0086181518 0.0066767442 -0.00011971831
0.026761629 0.00069069769 -0.027126761
-0.0099789128 -0.0029930233 -0.027126761
-0.038101304 0.0098999999 -0.022091549
0.030390326 0.0098999999 -0.0088169016
-0.018143477 0.0062162792 -0.026669014
0.01632913 -0.0075976746 -0.010647887
0.02812239 -0.00069069769 -0.00011971831
0.04127641 0.0075976746 -0.0046971831
0.011339674 -0.0066767442 -0.020260563
-0.0009071739 -0.0020720931 -0.027126761
0.034019019 -0.0098999999 -0.0033239436
0.012246847 -0.0071372096 -0.013852113
0.021318587 -0.00897907 -0.0088169016
-0.036286954 0.0098999999 -0.0079014087
0.0077109779 0.0020720931 -0.027126761
-0.0081645651 0.0085186046 -0.026669014
-0.014968369 0.0034534885 -0.026669014
-0.028575977 0.0098999999 -0.019345071
-0.041729998 0.001611628 -0.020260563
-0.0054430431 -0.0075976746 -0.0069859154
0.02812239 -0.0098999999 -0.005612676
-0.0018143478 0.0098999999 -0.022091549
0.019050652 0.0098999999 -0.010647887
-0.0068038041 -0.0048348838 -0.00011971831
-0.014968369 -0.0085186046 -0.0010352113
-0.037647717 0.0071372096 -0.00011971831
0.0081645651 0.0029930233 -0.00011971831
-0.037194129 -0.0034534885 -0.00011971831
0.029029565 -0.0020720931 -0.027126761
-0.0049894564 0.001611628 -0.027126761
-0.014061195 0.0066767442 -0.00011971831
0.013607608 -0.0048348838 -0.026669014
0.013154021 -0.0075976746 -0.0079014087
-0.0031751087 -0.0071372096 -0.0028661971
-0.023132933 0.0098999999 -0.005612676
0.029483151 -0.00897907 -0.026211267
-0.037647717 0.0098999999 -0.02575352
0.014514782 0.0029930233 -0.00011971831
-0.032204673 -0.0098999999 -0.022091549
0.035379782 -0.0098999999 -0.016598592
0.010432499 -0.0075976746 -0.0051549296
-0.041729998 -0.00023023256 -0.021633802
0.0018143478 -0.0062162792 -0.01797183
0.04127641 0.0020720931 -0.0042394367
-0.011339674 -0.0080581401 -0.019345071
-0.029936738 0.0098999999 -0.026211267
-0.01632913 0.0071372096 -0.00011971831
0.02812239 -0.0011511628 -0.00057746482
0.029483151 -0.0075976746 -0.00011971831
0.024947282 -0.0098999999 -0.0069859154
-0.034472607 -0.0094395354 -0.026211267
-0.024947282 -0.0094395354 -0.016140845
0.039008476 -0.0098999999 -0.0019507043
-0.034019019 -0.0098999999 -0.010647887
0.033111848 0.0062162792 -0.026669014
0.0099789128 -0.0057558143 -0.00011971831
-0.032204673 0.0098999999 -0.0033239436
0.029483151 0.0057558143 -0.026669014
-0.022679348 0.0098999999 -0.0051549296
0.04127641 0.0066767442 -0.023922535
0.029936738 -0.0011511628 -0.00011971831
0.041729998 -0.0057558143 -0.01156338
0.041729998 -0.0011511628 -0.016598592
0.041729998 0.0020720931 -0.022091549
-0.025854455 0.0080581401 -0.026669014
-0.018143477 0.0098999999 -0.0065281689
0.017236304 -0.0098999999 -0.00057746482
-0.011339674 -0.0085186046 -0.015225352
-0.041729998 -0.0025325583 -0.024380282
-0.0049894564 -0.0075976746 -0.0060704225
-0.0027215215 -0.0071372096 -0.0051549296
-0.0027215215 0.0094395354 -0.005612676
0.0040822825 0.00069069769 -0.00011971831
-0.03265826 0.0098999999 -0.025295775
0.0018143478 -0.0094395354 -0.00011971831
0.016782716 0.0071372096 -0.00011971831
0.039008476 -0.0098999999 -0.012021127
-0.025854455 0.0098999999 -0.0019507043
0.032204673 0.0098999999 -0.01293662
0.0045358692 0.0098999999 -0.00011971831
-0.021318587 0.0075976746 -0.00011971831
-0.041729998 0.0057558143 -0.0014929577
-0.017236304 0.0094395354 -0.026211267
0.0099789128 -0.0075976746 -0.0051549296
-0.03583337 -0.0098999999 -0.02071831
0.020411413 -0.0080581401 -0.015683098
0.041729998 0.0062162792 -0.0088169016
-0.041729998 -0.00069069769 -0.0074436618
0.041729998 0.0029930233 -0.012021127
-0.0054430431 0.0098999999 -0.0065281689
0.016782716 -0.0080581401 -0.0074436618
0.0054430431 -0.0039139534 -0.00011971831
0.0045358692 0.0094395354 -0.026211267
-0.036286954 0.0098999999 -0.015225352
0.021772172 0.0039139534 -0.00011971831
-0.03583337 -0.0020720931 -0.027126761
-0.037194129 -0.0098999999 -0.0097323945
0 -0.0062162792 -0.0028661971
-0.0081645651 0.0098999999 -0.024380282
0.04127641 0.0066767442 -0.018429577
0.03265826 -0.0098999999 -0.01156338
0.0022679346 0.0039139534 -0.00011971831
-0.031751085 0.001611628 -0.027126761
0.041729998 0.0011511628 -0.021176057
-0.039462063 0.0066767442 -0.00011971831
0.0068038041 0.0085186046 -0.026669014
-0.018597065 0.0020720931 -0.027126761
-0.0027215215 -0.0062162792 -0.021633802
-0.039915651 -0.0029930233 -0.00011971831
0.015421956 0.0098999999 -0.0069859154
0.00045358695 -0.0052953488 -0.025295775
0.031297497 -0.0098999999 -0.0079014087
-0.022679348 0.0094395354 -0.0033239436
0.039915651 0.0048348838 -0.026669014
0.023586521 0.0085186046 -0.00011971831
-0.012246847 -0.0075976746 -0.00011971831
-0.0077109779 -0.0039139534 -0.027126761
0.014514782 -0.0071372096 -0.018429577
-0.0045358692 -0.0062162792 -0.019345071
-0.024493694 0.0098999999 -0.016598592
0 0.0057558143 -0.00011971831
-0.037647717 -0.0098999999 -0.018429577
-0.015875543 0.0098999999 -0.010647887
0.0068038041 0.0011511628 0.0021690142
0.03265826 -0.0098999999 -0.014309859
-0.041729998 -0.0071372096 -0.00011971831
0.010432499 0.0098999999 -0.0088169016
0.036740541 0.0098999999 -0.021176057
0.023132933 0.0085186046 -0.00011971831
0.0081645651 0.0085186046 -0.0010352113
-0.016782716 0.0039139534 -0.026669014
-0.0031751087 0.0057558143 -0.00011971831
0 -0.0062162792 -0.019802816
-0.01179326 -0.0080581401 -0.0024084507
0.016782716 -0.0075976746 -0.015683098
-0.014514782 0.0098999999 -0.022549296
-0.0081645651 0.0098999999 -0.025295775
0.0072573912 0.0039139534 -0.027126761
-0.041729998 0.0052953488 -0.018429577
-0.038554888 -0.0098999999 -0.005612676
0.0095253261 -0.0066767442 -0.018887324
-0.019957826 -0.0098999999 -0.00057746482
-0.018597065 0.0039139534 -0.027126761
0.021772172 -0.0085186046 -0.024838028
0.038101304 0.0098999999 -0.02575352
0.036286954 -0.0098999999 -0.00378169
-0.020411413 0.0098999999 -0.012021127
0.01632913 0.0098999999 -0.02575352
-0.037194129 0.0098999999 -0.018887324
0.0054430431 -0.0071372096 -0.0010352113
0.019957826 -0.0080581401 -0.017514085
-0.03265826 0.0098999999 -0.01293662
-0.013607608 0.0098999999 -0.013394366
0.041729998 -0.0025325583 -0.01019014
-0.0090717385 0.0098999999 -0.0079014087
0.027668804 -0.0020720931 -0.027126761
-0.013607608 -0.0075976746 -0.021176057
-0.023586521 0.0098999999 -0.016140845
-0.01179326 0.00897907 -0.00057746482
-0.0036286956 -0.00897907 -0.00011971831
0.040822826 -0.0052953488 -0.021176057
-0.012700435 0.0034534885 -0.00011971831
-0.029483151 0.0098999999 -0.01019014
-0.019050652 0.0098999999 -0.01797183
-0.034019019 0.0098999999 -0.01019014
0.015875543 -0.0075976746 -0.014767606
-0.04127641 -0.0098999999 -0.018429577
0.0054430431 -0.0062162792 -0.0097323945
0.039008476 0.0098999999 -0.0010352113
-0.034926195 0.0034534885 -0.00011971831
-0.021772172 0.0098999999 -0.019345071
0.041729998 -0.00069069769 -0.015683098
-0.026308043 0.0071372096 -0.00011971831
-0.0086181518 0.0039139534 -0.027126761
-0.024040109 0.0098999999 -0.022549296
-0.034926195 0.0052953488 -0.00011971831
-0.0086181518 -0.0071372096 -0.0024084507
0.0022679346 -0.0066767442 -0.0010352113
-0.017236304 0.0029930233 -0.027126761
0.019504238 -0.0080581401 -0.021633802
0.024947282 0.0098999999 -0.021176057
-0.036286954 0.0011511628 -0.00011971831
0.026761629 -0.00023023256 -0.00011971831
-0.0090717385 -0.0066767442 -0.02071831
0.033565432 0.0098999999 -0.022091549
0.024947282 -0.00897907 -0.019802816
-0.0013607608 -0.0057558143 -0.0024084507
-0.033111848 -0.0098999999 -0.01019014
-0.0040822825 0.0098999999 -0.017056338
-0.030390326 0.0098999999 -0.021633802
0.017236304 -0.0029930233 -0.00011971831
-0.02222576 -0.0034534885 -0.027126761
-0.013154021 0.0052953488 -0.00011971831
-0.020411413 0.0098999999 -0.0065281689
0.0081645651 0.0098999999 -0.017056338
0.033565432 0.0098999999 -0.022549296
-0.041729998 0.0066767442 -0.01293662
0.029029565 -0.0094395354 -0.025295775
-0.021772172 0.0098999999 -0.0092746476
0.014514782 0.0029930233 -0.027126761
0.023132933 0.0098999999 -0.02575352
0.041729998 -0.001611628 -0.02575352
0.04127641 0.0066767442 -0.019345071
-0.041729998 0.0039139534 -0.013394366
0.04127641 0.0057558143 -0.015225352
-0.020864999 -0.0085186046 -0.019345071
-0.030390326 0.0057558143 -0.026669014
-0.041729998 -0.00069069769 -0.0079014087
-0.010432499 0.0039139534 -0.026669014
0.0049894564 0.0098999999 -0.021633802
-0.0040822825 0.0098999999 -0.014309859
-0.0027215215 0.0052953488 -0.00011971831
0.0049894564 -0.0062162792 -0.016140845
-0.012246847 0.0071372096 -0.026669014
-0.0077109779 -0.0080581401 -0.0033239436
0.039915651 0.0098999999 -0.02575352
-0.029483151 0.0052953488 -0.026669014
0.028575977 -0.0094395354 -0.018887324
0.037194129 0.0094395354 -0.00011971831
0.036286954 -0.0075976746 -0.026669014
-0.019050652 -0.0085186046 -0.019802816
-0.014968369 0.0098999999 -0.013394366
0.0049894564 0.0085186046 -0.005612676
0.019957826 -0.0085186046 -0.0083591547
0.022679348 0.0098999999 -0.0042394367
0.0081645651 0.0098999999 -0.0097323945
-0.039008476 -0.0098999999 -0.0060704225
-0.041729998 -0.0043744189 -0.021633802
-0.039008476 -0.0080581401 -0.026669014
0.041729998 0.0094395354 -0.013852113
-0.01632913 0.0098999999 -0.0065281689
-0.028575977 -0.0098999999 -0.023922535
0 -0.0062162792 -0.021633802
0.041729998 -0.0085186046 -0.023007043
0.020864999 0.0098999999 -0.012478873
-0.039915651 0.0098999999 -0.02071831
0.032204673 0.0039139534 -0.027126761
0.012700435 0.0098999999 -0.0092746476
-0.00045358695 -0.0071372096 -0.00057746482
-0.010886086 0.0048348838 -0.026669014
0.014514782 0.0098999999 -0.018429577
0.04127641 -0.0048348838 -0.027126761
0.033565432 -0.0098999999 -0.0088169016
0.0058966302 0.00069069769 -0.027126761
0.010432499 0.0098999999 -0.024838028
-0.018597065 -0.0098999999 -0.0088169016
-0.041729998 0.0057558143 -0.018429577
0.04127641 0.0034534885 -0.00011971831
0.026308043 -0.0066767442 -0.00011971831
0.04127641 0.0085186046 -0.0014929577
0.020864999 0.0098999999 -0.0074436618
-0.02540087 -0.0094395354 -0.018429577
0.0090717385 0.0085186046 -0.005612676
0.041729998 0.0011511628 -0.0069859154
0.037647717 0.0098999999 -0.0060704225
0.039915651 -0.0098999999 -0.021633802
0.0099789128 0.0029930233 -0.00011971831
0.0018143478 -0.0048348838 -0.026669014
-0.041729998 0.00069069769 -0.0097323945
-0.02812239 -0.0098999999 -0.018429577
-0.023132933 -0.0098999999 -0.0074436618
0.035379782 -0.0011511628 -0.027126761
0.034926195 0.0098999999 -0.016140845
-0.038101304 -0.0098999999 -0.00378169
-0.028575977 -0.0098999999 -0.021176057
-0.026761629 -0.0098999999 -0.0014929577
0.039462063 0.0066767442 -0.026669014
-0.036286954 -0.0098999999 -0.020260563
0.0077109779 0.0075976746 -0.026669014
-0.02222576 -0.00897907 -0.020260563
0.035379782 0.0085186046 -0.026669014
-0.02222576 0.0025325583 -0.027126761
0.041729998 -0.0020720931 -0.019345071
-0.017236304 0.0098999999 -0.0088169016
-0.04127641 -0.0075976746 -0.0019507043
-0.020411413 -0.0020720931 -0.00011971831
0.030390326 0.0052953488 -0.026669014
0.035379782 -0.0098999999 -0.026211267
0.04127641 0.0057558143 -0.013394366
-0.041729998 0.0094395354 -0.024380282
-0.038101304 -0.0020720931 -0.026669014
0.039462063 0.0062162792 -0.00057746482
-0.02222576 0.0098999999 -0.010647887
0.015421956 0.0094395354 -0.0014929577
-0.0063502174 0.0080581401 -0.005612676
-0.00045358695 0.0098999999 -0.0060704225
-0.028575977 0.0098999999 -0.021176057
-0.0049894564 0.0098999999 -0.01019014
-0.0068038041 -0.0062162792 -0.026669014
-0.0072573912 -0.0066767442 -0.02346479
0.021772172 0.0094395354 -0.00011971831
0.040822826 0.00023023256 -0.0014929577
0.024947282 0.0098999999 -0.00011971831
0.019050652 0.0020720931 -0.027126761
-0.035379782 -0.0080581401 0.0026267606
-0.038554888 0.0098999999 -0.0088169016
0 -0.0071372096 -0.0074436618
-0.019504238 0.0098999999 -0.018887324
-0.02812239 0.0098999999 -0.021633802
-0.019504238 0.0094395354 -0.0010352113
-0.0036286956 -0.0066767442 -0.00011971831
-0.013154021 0.0098999999 -0.02071831
-0.018143477 0.0085186046 -0.00011971831
-0.010886086 -0.0020720931 -0.027126761
-0.0027215215 0.0098999999 -0.0097323945
0.025854455 0.00897907 -0.00011971831
-0.010886086 0.0098999999 -0.013852113
-0.041729998 -0.0029930233 -0.016598592
-0.020864999 0.0098999999 -0.021633802
-0.0013607608 0.0020720931 -0.00011971831
-0.016782716 0.0098999999 -0.015225352
0.024947282 -0.00897907 -0.01293662
0.0063502174 -0.001611628 -0.027126761
0.039008476 -0.0098999999 -0.013394366
-0.040822826 -0.0075976746 -0.026211267
0.029029565 -0.00897907 -0.00011971831
0.0031751087 -0.0098999999 -0.00011971831
0.024493694 0.0034534885 -0.00011971831
-0.017689891 -0.0094395354 -0.01293662
0.032204673 0.0039139534 -0.00057746482
-0.023586521 0.0098999999 -0.011105633
-0.023132933 -0.0048348838 -0.026669014
0.030390326 0.0098999999 -0.023922535
-0.018597065 -0.0080581401 -0.019802816
-0.021772172 0.00023023256 -0.027126761
0.024493694 -0.00897907 -0.01156338
0.017689891 0.0098999999 -0.0083591547
0.024493694 0.0098999999 -0.0069859154
0.023132933 -0.0085186046 -0.017056338
-0.023586521 0.0098999999 -0.012021127
-0.04127641 -0.0075976746 -0.0051549296
0.0099789128 0.0098999999 -0.022549296
-0.040369239 0.0098999999 -0.026211267
-0.038101304 0.0098999999 -0.0010352113
0.011339674 0.0098999999 -0.019802816
-0.04127641 -0.0048348838 -0.01019014
0.040822826 0.0011511628 -0.026669014
-0.027668804 -0.0048348838 -0.026669014
-0.037194129 -0.001611628 -0.00011971831
0.0018143478 0.0075976746 -0.0033239436
-0.041729998 0.0085186046 -0.019345071
0.0090717385 0.0098999999 -0.023007043
-0.027668804 -0.0029930233 -0.027126761
-0.04127641 -0.0075976746 -0.0042394367
-0.010432499 -0.0085186046 -0.01156338
0.02222576 -0.001611628 -0.00011971831
0.02540087 0.0098999999 -0.02575352
-0.026761629 -0.0098999999 -0.01797183
0.039462063 0.0075976746 -0.026669014
0.0049894564 0.0075976746 -0.0046971831
0.038101304 0.00023023256 -0.026669014
0.012246847 -0.0080581401 -0.0051549296
0.036286954 0.0094395354 -0.00011971831
-0.020864999 -0.0094395354 -0.0024084507
0.041729998 0.0062162792 -0.0079014087
-0.036740541 -0.0098999999 -0.00011971831
-0.015875543 0.0098999999 -0.018429577
-0.0022679346 -0.0066767442 -0.017056338
-0.017689891 -0.0085186046 -0.016140845
0.023586521 0.0048348838 -0.027126761
0.018597065 -0.0052953488 -0.026669014
-0.039008476 0.0034534885 -0.00011971831
0.04127641 0.0098999999 -0.011105633
0.0009071739 -0.0020720931 -0.00011971831
0.019050652 -0.0080581401 -0.021633802
0.014968369 0.0098999999 -0.016140845
0.041729998 -0.0011511628 -0.01293662
0.035379782 -0.0098999999 -0.0074436618
-0.04127641 -0.0080581401 -0.01156338
-0.0018143478 -0.0071372096 -0.014767606
0.026761629 0.0098999999 -0.023922535
-0.022679348 -0.0098999999 -0.014309859
0 -0.0066767442 -0.01293662
-0.039915651 0.00023023256 -0.00011971831
0.019050652 0.0057558143 -0.00011971831
-0.041729998 0.00023023256 -0.013852113
0.019050652 -0.0080581401 -0.022549296
0.041729998 -0.00069069769 -0.0069859154
0.031297497 0.0048348838 -0.00011971831
-0.0045358692 -0.0071372096 -0.018887324
0.026308043 -0.0094395354 -0.00011971831
-0.0018143478 -0.0066767442 -0.017056338
-0.019050652 0.0052953488 -0.00011971831
0.041729998 0.0039139534 -0.01019014
-0.024040109 -0.0098999999 -0.0024084507
-0.031751085 0.0098999999 -0.0028661971
-0.031297497 0.001611628 0.0017112676
-0.024493694 0.001611628 -0.027126761
0.036286954 -0.00069069769 -0.00011971831
-0.023132933 -0.00897907 -0.023007043
-0.00045358695 0.0098999999 -0.013394366
0.0058966302 0.0098999999 -0.0083591547
0.021318587 0.0098999999 -0.015225352
-0.01632913 0.0098999999 -0.014309859
0.018143477 -0.0025325583 -0.027126761
-0.02540087 -0.0066767442 -0.00011971831
-0.038554888 0.00023023256 -0.026669014
-0.041729998 0.00069069769 -0.016140845
-0.031297497 0.0011511628 0.00079577463
-0.019957826 0.0029930233 -0.027126761
-0.012700435 0.0098999999 -0.0097323945
-0.041729998 -0.0034534885 -0.017056338
-0.017689891 -0.00897907 -0.01797183
-0.036740541 0.0066767442 -0.026669014
0.020864999 -0.0080581401 -0.00011971831
0.0049894564 -0.0066767442 -0.0051549296
0.04127641 -0.0094395354 -0.02346479
-0.019504238 0.0062162792 -0.026669014
0.0063502174 0.0066767442 -0.00011971831
-0.024040109 0.0075976746 -0.00011971831
-0.030843912 0.0098999999 -0.012478873
-0.021318587 -0.0085186046 -0.021176057
-0.0049894564 -0.0062162792 -0.02575352
0.023132933 -0.0094395354 -0.0074436618
0.027668804 -0.0094395354 -0.011105633
-0.041729998 0.0020720931 -0.022091549
0.029936738 -0.0039139534 -0.026669014
-0.039915651 0.0080581401 -0.026669014
-0.030843912 0.0098999999 -0.021176057
-0.0068038041 0.0094395354 -0.026211267
0.031751085 -0.0057558143 -0.00011971831
0.02540087 0.0098999999 -0.01019014
-0.018597065 -0.0020720931 -0.027126761
-0.041729998 0.0025325583 -0.02071831
-0.026308043 -0.0098999999 -0.005612676
-0.031297497 0.0098999999 -0.021176057
0.040822826 -0.0048348838 -0.019802816
-0.0077109779 0.0048348838 -0.00011971831
-0.02812239 -0.00023023256 -0.027126761
0.016782716 0.0011511628 0.0030845071
0.0049894564 0.00023023256 -0.027126761
0.027668804 0.0098999999 -0.005612676
0.020411413 0.0098999999 -0.019345071
-0.04127641 -0.0062162792 -0.0097323945
-0.012700435 0.0098999999 -0.0069859154
0.030843912 0.0029930233 -0.00011971831
0.0068038041 0.0098999999 -0.0088169016
-0.038554888 0.0098999999 -0.011105633
0.028575977 -0.0094395354 -0.016140845
0.027215216 -0.0098999999 -0.0083591547
0.036740541 -0.0066767442 -0.00011971831
0.037647717 -0.0098999999 -0.024838028
0.021772172 -0.0071372096 -0.00011971831
0.02812239 0.0098999999 -0.0042394367
0.0063502174 0.0098999999 -0.01797183
-0.0086181518 0.0098999999 -0.016598592
0.034472607 0.0098999999 -0.021176057
-0.012700435 -0.0071372096 -0.024380282
0.04127641 -0.0043744189 -0.028042253
-0.030390326 -0.0085186046 -0.026211267
0.0063502174 0.0098999999 -0.011105633
-0.015875543 -0.0094395354 -0.012021127
-0.04127641 -0.0062162792 -0.0092746476
0.0013607608 0.0098999999 -0.017056338
0.012700435 0.0057558143 -0.026669014
0.027668804 0.0098999999 -0.00378169
0.03583337 -0.0098999999 -0.015225352
0.034926195 -0.0039139534 -0.026669014
-0.018143477 0.00023023256 -0.027126761
0 0.0098999999 -0.021633802
-0.04127641 -0.0075976746 -0.01019014
0.0027215215 -0.0057558143 -0.018887324
0.0099789128 0.0098999999 -0.010647887
-0.013154021 -0.0071372096 -0.023922535
0.041729998 0.001611628 -0.019802816
-0.017236304 0.0071372096 -0.00011971831
0.010886086 0.0075976746 -0.026669014
-0.038554888 -0.0034534885 -0.00011971831
0.037194129 0.0098999999 -0.0028661971
-0.013607608 -0.0085186046 -0.017056338
0.00045358695 -0.0052953488 -0.020260563
-0.04127641 -0.0029930233 -0.025295775
0.041729998 -0.0094395354 -0.024838028
0.013607608 0.00897907 -0.0042394367
-0.02812239 0.0098999999 -0.0014929577
-0.013154021 0.0098999999 -0.018887324
0.0027215215 0.00023023256 -0.00011971831
-0.041729998 0.0043744189 -0.024380282
0.010886086 -0.0025325583 -0.027126761
0.0013607608 0.0062162792 -0.026669014
0.02812239 -0.0066767442 -0.026669014
0.0031751087 -0.0052953488 -0.02575352
0.013154021 0.0080581401 -0.026669014
-0.03583337 -0.0052953488 -0.00011971831
-0.031297497 -0.0098999999 -0.005612676
0.019957826 0.0098999999 -0.0074436618
0.024040109 -0.00897907 -0.013394366
-0.039915651 -0.0085186046 -0.00011971831
-0.04127641 -0.0094395354 -0.0010352113
0.033565432 -0.0066767442 -0.026669014
-0.036286954 0.0066767442 -0.026669014
-0.023132933 -0.00897907 -0.024838028
-0.023586521 0.0062162792 -0.026669014
-0.04127641 -0.0080581401 -0.023007043
0.024493694 -0.0080581401 -0.026211267
-0.019050652 0.0057558143 -0.026669014
0.011339674 0.0085186046 -0.0046971831
0.0086181518 0.0098999999 -0.0065281689
0.041729998 -0.0057558143 -0.0024084507
0.020864999 0.0098999999 -0.0042394367
-0.0027215215 -0.0071372096 -0.01156338
-0.016782716 0.0098999999 -0.01797183
-0.041729998 0.0034534885 -0.021176057
-0.04127641 -0.0020720931 -0.0088169016
-0.0090717385 -0.0085186046 -0.01293662
-0.024040109 0.0020720931 -0.00011971831
-0.032204673 0.0098999999 -0.00378169
-0.0013607608 -0.0085186046 -0.00057746482
0.041729998 0.0043744189 -0.017514085
-0.039008476 -0.0062162792 -0.026669014
0.0049894564 -0.0066767442 -0.005612676
-0.041729998 0.0062162792 -0.0051549296
0.00045358695 0.0085186046 -0.005612676
-0.018143477 0.0011511628 -0.00011971831
-0.0099789128 0.0098999999 -0.00011971831
0.0054430431 -0.0062162792 -0.012021127
0.013607608 -0.0071372096 -0.022091549
0.04127641 -0.0094395354 -0.012478873
-0.031751085 0.0052953488 -0.00011971831
-0.0009071739 0.0098999999 -0.021176057
-0.027215216 0.00897907 -0.00011971831
-0.031297497 0.0098999999 -0.01019014
0.0040822825 0.0075976746 -0.0046971831
0.014061195 -0.0080581401 -0.0060704225
-0.039915651 -0.0052953488 -0.00011971831
0.041729998 -0.0080581401 -0.025295775
0.0072573912 -0.0062162792 -0.01019014
0.011339674 0.00897907 -0.00011971831
-0.019504238 -0.0098999999 -0.012021127
0.017236304 0.0062162792 -0.026669014
0.018597065 0.0098999999 -0.023922535
0.041729998 0.001611628 -0.0097323945
-0.0022679346 -0.0098999999 -0.00011971831
-0.0031751087 0.0098999999 -0.0074436618
-0.0045358692 -0.0062162792 -0.02346479
-0.010432499 0.0098999999 -0.012478873
0.041729998 -0.0085186046 -0.0065281689
-0.013154021 0.0071372096 -0.00011971831
-0.02222576 0.0098999999 -0.023922535
-0.0049894564 -0.0075976746 -0.0033239436
0.017689891 -0.00897907 -0.00378169
0.019504238 0.0098999999 -0.011105633
0.038101304 0.0098999999 -0.022549296
0.014968369 -0.0025325583 -0.00011971831
-0.036286954 0.0011511628 -0.027126761
-0.017236304 -0.00897907 -0.0024084507
-0.039462063 0.0034534885 -0.027126761
0.013607608 -0.0071372096 -0.024838028
0.0063502174 0.0098999999 -0.018429577
0.041729998 -0.0062162792 -0.00378169
0.0068038041 0.0098999999 -0.02071831
0.03583337 0.00023023256 -0.00011971831
-0.029936738 -0.0098999999 -0.0092746476
0.017689891 -0.0098999999 -0.00011971831
0.038554888 0.0098999999 -0.0088169016
0.039915651 0.0098999999 -0.0092746476
-0.031297497 -0.0062162792 -0.026669014
0.0095253261 -0.0080581401 -0.0014929577
-0.010886086 -0.0066767442 -0.00011971831
0.037647717 -0.00069069769 -0.00011971831
0.022679348 0.0098999999 -0.0065281689
-0.039915651 -0.0020720931 -0.026669014
-0.033111848 -0.0029930233 -0.00011971831
-0.026761629 0.0098999999 -0.013852113
0.0045358692 0.0098999999 -0.01156338
0.01179326 0.0098999999 -0.020260563
0.041729998 -0.0071372096 -0.016140845
0.0068038041 -0.0029930233 -0.00011971831
-0.025854455 -0.0094395354 -0.0019507043
0.024493694 -0.0025325583 -0.027126761
0.041729998 -0.0075976746 -0.014309859
-0.04127641 -0.0075976746 -0.018887324
0.04127641 -0.0071372096 -0.00057746482
0.041729998 -0.001611628 -0.00057746482
-0.019957826 -0.0094395354 -0.0014929577
0.04127641 0.0080581401 -0.0024084507
-0.0099789128 0.00897907 -0.00011971831
-0.020864999 0.0098999999 -0.014309859
-0.037194129 -0.0098999999 -0.021176057
0.029936738 -0.001611628 -0.027126761
0.0018143478 -0.0034534885 -0.027126761
0.017236304 0.0098999999 -0.00011971831
0.013607608 0.0094395354 -0.0014929577
-0.017236304 0.0080581401 -0.026669014
-0.016782716 -0.0094395354 -0.0097323945
0.032204673 -0.0085186046 -0.026211267
0.028575977 0.00023023256 -0.027126761
-0.023586521 -0.00069069769 -0.027126761
-0.011339674 -0.0071372096 -0.0019507043
-0.034472607 0.0098999999 -0.015683098
-0.01632913 -0.0080581401 -0.02071831
0.021772172 0.0098999999 -0.023007043
-0.030843912 -0.0085186046 -0.00011971831
-0.0068038041 -0.0062162792 -0.025295775
-0.018597065 -0.0098999999 -0.0033239436
-0.02540087 0.00897907 -0.00011971831
0.039008476 -0.0098999999 -0.014309859
0.01179326 -0.0066767442 -0.014309859
0.022679348 -0.0011511628 -0.00011971831
-0.0013607608 0.0011511628 -0.00011971831
0.037194129 0.0098999999 -0.017514085
0.01179326 -0.0085186046 0.0030845071
-0.038554888 -0.0098999999 -0.017056338
0.00045358695 0.0098999999 -0.024838028
-0.039915651 0.0098999999 -0.013394366
0.023132933 0.0098999999 -0.01293662
0.022679348 0.0098999999 -0.023922535
0.021318587 -0.0085186046 0.0017112676
0.025854455 -0.0098999999 -0.00378169
-0.03265826 0.0062162792 -0.026669014
0.026308043 -0.00897907 -0.014309859
-0.0081645651 0.0048348838 -0.00011971831
-0.0063502174 -0.0075976746 -0.0010352113
0.033111848 -0.0098999999 -0.00057746482
0.0049894564 0.0075976746 -0.026669014
0.021318587 -0.0029930233 -0.026669014
-0.017236304 -0.0094395354 -0.013394366
-0.0081645651 0.0098999999 -0.020260563
-0.017236304 0.0098999999 -0.017056338
-0.029936738 0.0052953488 -0.00011971831
0.029483151 0.0098999999 -0.021176057
-0.021772172 0.0098999999 -0.0083591547
-0.034926195 -0.0085186046 -0.026669014
-0.010886086 0.0098999999 -0.018887324
0.032204673 0.0098999999 -0.019345071
-0.028575977 0.0098999999 -0.0097323945
0.013154021 -0.00069069769 -0.00011971831
-0.019050652 -0.0034534885 -0.027126761
0.026308043 0.0098999999 -0.020260563
0.017236304 -0.0075976746 -0.016598592
0.01632913 -0.0075976746 -0.00011971831
0.0086181518 0.0098999999 -0.020260563
-0.019504238 0.0039139534 -0.00011971831
0.034472607 0.0071372096 -0.026669014
0.035379782 0.0052953488 -0.00011971831
-0.024493694 0.0098999999 -0.021633802
0.010886086 0.0098999999 -0.023007043
-0.0049894564 0.0075976746 -0.00011971831
0.03583337 0.0098999999 -0.016140845
-0.041729998 0.00069069769 -0.02575352
-0.011339674 -0.0071372096 -0.019802816
0.0009071739 -0.00023023256 -0.00011971831
0.041729998 -0.00023023256 -0.020260563
-0.041729998 -0.001611628 -0.013394366
0.014061195 -0.0071372096 -0.025295775
-0.026761629 0.0039139534 -0.00011971831
0.0063502174 -0.00897907 -0.00057746482
0.04127641 0.0020720931 -0.026211267
-0.037647717 -0.0011511628 -0.00011971831
-0.02222576 -0.0098999999 -0.00057746482
-0.0086181518 0.0098999999 -0.020260563
0.027668804 0.0098999999 -0.0088169016
0.036286954 0.0098999999 -0.0014929577
-0.034019019 -0.0098999999 -0.012021127
-0.02540087 0.0098999999 -0.022549296
-0.0013607608 0.0098999999 -0.018429577
-0.0072573912 -0.0080581401 -0.014767606
-0.014061195 0.0098999999 -0.021633802
0.038554888 0.0098999999 -0.0019507043
-0.037194129 -0.0071372096 -0.026669014
-0.018597065 -0.0080581401 -0.019345071
0.0099789128 0.0098999999 -0.022091549
-0.010886086 -0.0071372096 -0.0019507043
-0.041729998 0.0057558143 -0.017056338
-0.04127641 -0.0094395354 -0.0051549296
0.0009071739 -0.0071372096 -0.0088169016
-0.0036286956 -0.0071372096 -0.014767606
-0.012246847 -0.0085186046 -0.01293662
0.04127641 0.0057558143 -0.022091549
0.041729998 -0.0062162792 -0.024380282
-0.016782716 -0.0066767442 -0.00011971831
0.022679348 -0.0094395354 -0.0051549296
-0.041729998 -0.0029930233 -0.018429577
-0.041729998 0.0080581401 -0.025295775
-0.039008476 -0.0025325583 -0.00011971831
0.02222576 -0.0039139534 -0.026669014
0.0068038041 -0.00069069769 -0.00011971831
-0.019050652 -0.00897907 -0.0010352113
-0.036286954 -0.0098999999 -0.0074436618
-0.038554888 0.0080581401 -0.026669014
0.016782716 0.0025325583 -0.027126761
-0.041729998 0.0011511628 -0.0065281689
0.019050652 0.0098999999 -0.012021127
0.033111848 0.0075976746 -0.026669014
-0.025854455 -0.0085186046 0.0030845071
-0.023586521 0.0098999999 -0.021633802
0.023132933 0.0098999999 -0.0019507043
-0.023132933 -0.0098999999 -0.00011971831
-0.034019019 0.0098999999 -0.022091549
0.014968369 0.0034534885 -0.00011971831
0.0031751087 -0.0066767442 -0.00011971831
0.036286954 -0.0098999999 -0.0088169016
0.0077109779 0.0043744189 -0.00011971831
0.0068038041 0.0075976746 -0.00011971831
0.012246847 0.0098999999 -0.018429577
0.02812239 -0.0085186046 -0.00011971831
0.014514782 -0.0025325583 -0.00011971831
-0.0049894564 0.0098999999 -0.019345071
0.034926195 0.001611628 -0.027126761
0.033111848 0.0098999999 -0.01293662
0.021772172 -0.00069069769 -0.00011971831
0.029029565 -0.0094395354 -0.014767606
-0.039462063 0.0085186046 -0.00011971831
-0.036740541 -0.0098999999 -0.018429577
-0.021318587 -0.0098999999 -0.0069859154
-0.04127641 0.0098999999 -0.016598592
-0.00045358695 -0.0080581401 -0.00057746482
0.022679348 0.0098999999 -0.02346479
0.041729998 0.00023023256 -0.016598592
-0.01632913 0.001611628 -0.027126761
0.040822826 0.001611628 -0.026669014
-0.018143477 0.0098999999 -0.016598592
0.027215216 -0.0043744189 -0.026669014
-0.0036286956 0.0098999999 -0.017514085
-0.039462063 0.0098999999 -0.022091549
-0.03265826 -0.0025325583 -0.027126761
0.010432499 -0.0075976746 -0.0042394367
0.032204673 0.0098999999 -0.021176057
-0.01632913 0.0098999999 -0.019802816
-0.013154021 -0.00897907 -0.013394366
0.037647717 -0.0085186046 -0.026669014
-0.0040822825 -0.0057558143 -0.019802816
-0.014514782 0.0034534885 -0.00011971831
0.041729998 -0.0094395354 -0.019802816
-0.024493694 -0.00897907 -0.016598592
-0.024040109 0.0066767442 -0.026669014
-0.0040822825 -0.0025325583 -0.00011971831
-0.0031751087 -0.0057558143 -0.023007043
-0.041729998 0.0020720931 -0.026669014
0.020411413 0.0098999999 -0.012478873
-0.0063502174 0.0098999999 -0.00011971831
0.041729998 -0.0039139534 -0.016140845
0.0027215215 -0.0085186046 0.0012535211
-0.037647717 0.0098999999 -0.0014929577
0.0058966302 -0.0039139534 -0.026669014
0.019957826 0.0098999999 -0.00057746482
0.034019019 0.0098999999 -0.0060704225
0.016782716 0.0052953488 -0.00011971831
0.034926195 -0.0052953488 -0.026669014
-0.0031751087 0.0098999999 -0.021633802
0.036740541 0.0025325583 -0.027126761
0.0045358692 0.0098999999 -0.0051549296
-0.027215216 -0.0062162792 -0.026669014
-0.039462063 -0.0020720931 -0.00011971831
0.0081645651 -0.0062162792 -0.013394366
0.037647717 -0.0098999999 -0.0051549296
0.037647717 -0.0098999999 -0.015683098
0.021318587 0.0098999999 -0.0074436618
0.024947282 0.0098999999 -0.0033239436
0.019957826 -0.0098999999 -0.00011971831
-0.025854455 -0.0020720931 -0.027126761
0.0022679346 0.0057558143 -0.00011971831
-0.021772172 -0.0066767442 -0.00011971831
-0.0063502174 0.0098999999 -0.015225352
-0.025854455 0.0098999999 -0.023922535
0.018143477 0.0098999999 -0.025295775
0.0013607608 -0.0066767442 -0.015683098
-0.040369239 0.0098999999 -0.00011971831
0.012700435 0.00897907 -0.0042394367
-0.040369239 0.0098999999 -0.0046971831
0.0077109779 0.0034534885 -0.027126761
-0.041729998 -0.00069069769 -0.0014929577
0.0013607608 -0.0080581401 -0.00011971831
-0.030843912 -0.0071372096 -0.026669014
0.04127641 0.0057558143 -0.0051549296
0.030390326 -0.0011511628 -0.027126761
-0.03265826 0.0098999999 -0.00057746482
0.040822826 0.0098999999 -0.011105633
0.041729998 0.0029930233 -0.016598592
-0.0081645651 -0.0085186046 -0.01019014
0.0027215215 -0.0066767442 -0.0088169016
-0.03583337 -0.0098999999 -0.0051549296
0.0022679346 0.0098999999 -0.016140845
-0.03583337 -0.0098999999 -0.0014929577
0.033565432 0.0057558143 -0.00011971831
-0.0036286956 0.0098999999 -0.017056338
-0.041729998 0.0039139534 -0.015225352
0.027668804 -0.0098999999 -0.0088169016
0.034926195 -0.0098999999 -0.022091549
0.017236304 0.0098999999 -0.0033239436
-0.019504238 0.0025325583 -0.027126761
-0.034019019 0.0052953488 -0.026669014
0.041729998 0.0066767442 -0.0074436618
-0.0068038041 -0.0080581401 -0.0092746476
0.038554888 -0.0080581401 -0.00057746482
0.013154021 0.00897907 -0.0046971831
-0.0018143478 -0.0057558143 -0.02071831
-0.0013607608 0.0098999999 -0.0083591547
-0.04127641 -0.0048348838 -0.0088169016
-0.00045358695 -0.0066767442 -0.017056338
-0.0068038041 -0.0080581401 -0.010647887
-0.0058966302 0.0066767442 -0.0024084507
0.037647717 -0.0057558143 -0.00011971831
-0.041729998 0.001611628 -0.016140845
0.031751085 0.001611628 -0.027126761
-0.03265826 0.0011511628 -0.00011971831
0.041729998 0.00023023256 -0.013394366
0.041729998 -0.0020720931 -0.024380282
-0.0036286956 0.0098999999 -0.025295775
0.0077109779 -0.0062162792 -0.019802816
0.032204673 0.0098999999 -0.024838028
-0.034019019 0.0098999999 -0.0079014087
0.017689891 -0.0094395354 -0.0010352113
-0.0036286956 -0.0052953488 -0.00011971831
-0.012700435 -0.0025325583 -0.00011971831
0.024040109 0.0098999999 -0.016598592
0.04127641 -0.0080581401 -0.021633802
-0.0045358692 0.00023023256 -0.027126761
0.031751085 0.0066767442 -0.00011971831
0.00045358695 0.0098999999 -0.005612676
-0.0090717385 -0.0080581401 -0.0069859154
0.020864999 -0.0075976746 -0.026669014
0.021318587 0.0098999999 -0.00011971831
-0.035379782 -0.0098999999 -0.014309859
-0.0013607608 -0.0052953488 -0.026669014
0.010886086 0.0094395354 -0.00011971831
-0.016782716 0.0098999999 -0.013852113
-0.0095253261 -0.0034534885 -0.00011971831
0.037194129 0.0066767442 -0.00057746482
-0.028575977 0.0098999999 -0.0051549296
0.014061195 0.0098999999 -0.018887324
0.033565432 0.0034534885 -0.027126761
-0.0031751087 0.0066767442 -0.0019507043
-0.013154021 0.0098999999 -0.021176057
-0.0068038041 -0.0080581401 -0.0033239436
0.0049894564 0.0098999999 -0.00057746482
0.018597065 -0.0080581401 -0.018887324
-0.03265826 -0.0098999999 -0.020260563
0.012246847 0.0066767442 -0.00011971831
-0.0095253261 0.0098999999 -0.012021127
0.011339674 -0.001611628 -0.027126761
-0.0095253261 0.0080581401 -0.026669014
-0.0027215215 0.0098999999 -0.02346479
-0.021318587 0.0098999999 -0.017514085
-0.015875543 -0.0094395354 -0.0065281689
0.026761629 -0.001611628 -0.027126761
-0.041729998 -0.0020720931 -0.00011971831
0.030843912 -0.0034534885 -0.00011971831
-0.020864999 -0.0043744189 -0.00011971831
-0.04127641 -0.00897907 -0.0024084507
0.01179326 -0.0080581401 0.0035422535
0.018597065 0.0085186046 -0.026669014
0.041729998 0.0075976746 -0.02575352
-0.039008476 -0.001611628 -0.026669014
-0.020411413 -0.0025325583 -0.00011971831
-0.039008476 -0.0085186046 -0.026669014
0.039462063 -0.0043744189 -0.026669014
-0.03265826 0.0034534885 -0.00011971831
0.029483151 -0.0094395354 -0.024380282
-0.034019019 -0.0098999999 -0.024380282
-0.036740541 -0.0039139534 -0.026669014
-0.041729998 0.00069069769 -0.0014929577
0.0009071739 0.0029930233 -0.027126761
-0.018597065 0.0011511628 -0.027126761
0.0036286956 -0.0062162792 -0.01293662
0.029936738 0.0011511628 -0.027126761
0.0068038041 -0.0062162792 -0.017514085
-0.0031751087 0.0098999999 -0.019345071
-0.0063502174 -0.0075976746 -0.0028661971
0.00045358695 0.001611628 -0.00011971831
-0.019957826 -0.0094395354 -0.0010352113
-0.0072573912 0.0034534885 -0.027126761
0.013154021 0.001611628 -0.00011971831
0.029936738 -0.0098999999 -0.0014929577
-0.030390326 0.0098999999 -0.01293662
-0.037194129 0.0066767442 -0.00011971831
-0.0095253261 0.0075976746 -0.026669014
-0.02540087 0.0025325583 -0.027126761
0.041729998 0.0029930233 -0.021633802
-0.041729998 0.0025325583 -0.00378169
0.0095253261 0.0075976746 -0.026669014
-0.025854455 -0.0071372096 -0.026669014
0.0072573912 -0.0066767442 -0.0051549296
-0.027215216 0.0052953488 -0.00011971831
0.024040109 0.0098999999 -0.023922535
-0.015875543 0.0043744189 -0.00011971831
0.041729998 0.00023023256 -0.0051549296
0.012700435 0.0098999999 -0.024838028
0.0086181518 0.0094395354 -0.00057746482
-0.039915651 -0.0098999999 -0.018429577
-0.025854455 -0.0098999999 -0.0051549296
-0.014514782 -0.0085186046 -0.0010352113
0.014061195 0.0098999999 -0.014767606
-0.016782716 0.0020720931 -0.00011971831
0.036740541 -0.0020720931 -0.00011971831
-0.04127641 -0.0052953488 -0.019345071
-0.017689891 0.0029930233 -0.00011971831
0.041729998 -0.0025325583 -0.02071831
0.023586521 0.0098999999 -0.0065281689
-0.034472607 -0.0098999999 -0.0042394367
-0.040369239 -0.0057558143 -0.026669014
-0.04127641 -0.0057558143 -0.026211267
0.024040109 0.0098999999 -0.024380282
-0.039008476 -0.0098999999 -0.0074436618
0.034472607 -0.0098999999 -0.015225352
-0.019050652 0.0098999999 -0.022091549
-0.0031751087 -0.0075976746 -0.0092746476
-0.0031751087 0.0071372096 -0.00011971831
-0.029483151 0.0098999999 -0.017514085
0.0086181518 0.0098999999 -0.0033239436
0.041729998 0.0039139534 -0.018429577
0.04127641 0.0062162792 -0.0019507043
0.029029565 0.0098999999 -0.0033239436
0.01179326 0.0098999999 -0.0097323945
-0.019957826 0.0098999999 -0.01293662
0.020864999 -0.0085186046 -0.01156338
0.0099789128 0.00023023256 -0.00011971831
-0.041729998 -0.0029930233 -0.01797183
0.018597065 -0.0075976746 -0.026669014
0.0058966302 -0.0066767442 -0.00378169
-0.041729998 0.0080581401 -0.014767606
-0.013607608 -0.0075976746 -0.022091549
-0.015875543 -0.0057558143 -0.026669014
-0.029029565 0.0066767442 -0.026669014
0.041729998 -0.0057558143 -0.0051549296
0.0027215215 0.0057558143 -0.026669014
-0.03583337 -0.0098999999 -0.019345071
-0.0036286956 0.0025325583 -0.027126761
-0.041729998 -0.0020720931 -0.019802816
-0.024493694 -0.0062162792 -0.026669014
-0.040369239 -0.0098999999 -0.020260563
0.04127641 0.0057558143 -0.014767606
0.029936738 -0.0043744189 -0.026669014
-0.0068038041 0.0098999999 -0.024380282
-0.038554888 0.00023023256 -0.00011971831
0.014514782 0.0025325583 -0.00011971831
-0.021772172 -0.00897907 -0.0024084507
0.03583337 0.0048348838 -0.026669014
-0.041729998 -0.0043744189 -0.018429577
0.015875543 0.0098999999 -0.017056338
0.0045358692 -0.0062162792 -0.013852113
0.031297497 -0.0094395354 -0.026211267
0.0049894564 -0.0057558143 -0.021633802
-0.036286954 0.0098999999 -0.020260563
0.011339674 -0.0066767442 -0.025295775
-0.020411413 -0.0029930233 -0.00011971831
0.0090717385 -0.0062162792 -0.021176057
-0.041729998 -0.0011511628 -0.020260563
-0.021318587 0.0098999999 -0.0060704225
-0.024493694 -0.00897907 -0.023922535
0.019957826 -0.0039139534 -0.00011971831
-0.038554888 -0.0098999999 -0.0092746476
0.024040109 0.0011511628 -0.00011971831
0.0086181518 0.0085186046 -0.005612676
0.04127641 -0.0011511628 -0.027126761
-0.039462063 -0.0098999999 -0.02071831
0.028575977 -0.00023023256 -0.00011971831
0.021772172 -0.00897907 -0.0042394367
0.03583337 -0.0085186046 -0.00057746482
-0.0013607608 0.0052953488 -0.00011971831
-0.021318587 -0.0085186046 -0.024380282
-0.0036286956 -0.0057558143 -0.026669014
-0.0077109779 0.0071372096 -0.026669014
0.04127641 0.0052953488 -0.021176057
0.026761629 -0.0098999999 -0.0069859154
0.014968369 -0.0011511628 -0.00011971831
-0.024493694 0.0085186046 -0.00011971831
0.029483151 -0.001611628 -0.00057746482
-0.016782716 0.0034534885 -0.00011971831
0.0031751087 0.0098999999 -0.0088169016
-0.0077109779 -0.0048348838 -0.026669014
0.024947282 0.0062162792 -0.00057746482
0.01632913 0.0098999999 -0.0019507043
-0.04127641 -0.0085186046 -0.0088169016
0.04127641 0.0062162792 -0.01293662
0.012700435 -0.0080581401 -0.0042394367
-0.024947282 -0.0094395354 -0.022091549
-0.01632913 -0.0034534885 -0.027126761
0.033565432 -0.0098999999 -0.02071831
0.039008476 0.0098999999 -0.0083591547
-0.036286954 0.0098999999 -0.02346479
0.020411413 -0.0080581401 -0.013394366
-0.039915651 -0.0098999999 -0.024380282
0.02540087 0.0034534885 -0.027126761
-0.032204673 0.0075976746 -0.026669014
-0.040822826 0.00023023256 -0.00011971831
-0.02812239 -0.0020720931 -0.00011971831
0.019957826 0.0098999999 -0.0010352113
-0.040822826 0.0048348838 -0.00378169
-0.038101304 0.0098999999 -0.020260563
0.0090717385 0.0098999999 -0.0083591547
-0.020411413 -0.0020720931 -0.027126761
0.018143477 -0.0066767442 -0.026669014
-0.010432499 0.001611628 -0.027126761
-0.011339674 0.0098999999 -0.0060704225
0.0054430431 -0.0057558143 -0.02575352
-0.033565432 -0.0098999999 -0.01156338
0.0049894564 0.00897907 -0.00011971831
-0.04127641 -0.0057558143 -0.02575352
-0.033111848 0.0066767442 -0.026669014
0.034472607 -0.0034534885 -0.00011971831
-0.013607608 -0.0075976746 -0.026669014
0.026761629 0.0075976746 -0.026669014
-0.038554888 -0.0098999999 -0.012021127
0.038101304 0.0098999999 -0.0069859154
0.010886086 0.0098999999 -0.012478873
-0.016782716 -0.0020720931 -0.00011971831
0.041729998 -0.0043744189 -0.017056338
0.015875543 0.0071372096 -0.00011971831
-0.04127641 -0.00897907 -0.00057746482
-0.041729998 0.0080581401 -0.00057746482
-0.041729998 0.0062162792 -0.00378169
-0.024040109 0.0080581401 -0.00011971831
0.018597065 -0.0075976746 -0.02071831
-0.031751085 0.0098999999 -0.0024084507
0.010886086 -0.0075976746 -0.0074436618
0.011339674 -0.0066767442 -0.013394366
-0.04127641 -0.0034534885 -0.005612676
0.027215216 -0.0052953488 -0.026669014
0.0072573912 -0.0062162792 -0.015683098
-0.041729998 0.00897907 -0.022091549
-0.041729998 0.0062162792 -0.0019507043
-0.00045358695 0.0066767442 -0.0051549296
0.01179326 -0.0066767442 -0.01797183
0.0045358692 0.0025325583 -0.027126761
-0.0099789128 0.0098999999 -0.0083591547
0.038101304 0.0098999999 -0.012478873
-0.0049894564 -0.0075976746 -0.00011971831
-0.012700435 0.0098999999 -0.023922535
