# .PCD v0.7 - Point Cloud Data file format
VERSION 0.7
FIELDS x y z
SIZE 4 4 4
TYPE F F F
COUNT 1 1 1
WIDTH 1212
HEIGHT 1
VIEWPOINT 0 0 0 1 0 0 0
POINTS 1212
DATA ascii
0.041973349 0.0020045454 -0.011515395
0.037087563 -0.00022272726 -0.013286547
0.037087563 -0.004231818 -0.013286547
0.015767766 -0.0046772729 -0.011958183
0.02376269 0.0020045454 -0.018157212
0.019321065 -0.0060136365 -2.9113392e-06
0.013991117 -0.0028954544 -0.01461491
0.013546954 -0.0073500001 -0.0044307895
-0.0068845176 -0.0055681816 -0.00044569917
-0.02553934 -0.0064590909 -0.00044569917
-0.035310913 0.0073500001 -0.0062019411
0.0015545685 -0.00022272726 0.0044249669
0.0055520306 -0.00245 -2.9113392e-06
0.024206853 0.0037863636 -0.017271636
0.0042195432 0.0006681818 -0.014172122
-0.043305837 -0.0006681818 -0.0093014557
-0.0091053303 0.00022272726 0.0030966036
0.040640865 -0.0073500001 -0.0084158806
0.005107868 -0.0073500001 -0.01682885
0.033534262 0.0015590909 -0.01461491
-0.041085027 0.0060136365 -0.00044569917
0.0086611677 0.00022272726 0.0048677549
0.028204314 0.0073500001 -0.0097442437
0.042417511 -0.0073500001 -0.0013312749
-0.038420051 0.00022272726 0.007081694
-0.024206853 0.00245 -2.9113392e-06
0.0073286803 -0.0006681818 -0.013286547
0.0011104061 -0.0073500001 -0.0097442437
-0.043305837 0.0051227272 -0.011515395
-0.025095178 -0.0073500001 -0.011515395
-0.032201778 0.00022272726 -0.011958183
-0.014435279 0.0073500001 -0.0070875166
0.02553934 -0.0015590909 -0.00044569917
0.043305837 -0.00245 -0.0088586677
0.01088198 0.0051227272 -0.013286547
-0.014435279 0.0064590909 -0.018157212
-0.041973349 -0.0037863636 -0.011958183
-0.0059961928 0.00245 -0.011072607
-0.01265863 0.0073500001 -0.0013312749
-0.027315989 -0.0073500001 -0.0013312749
0.0015545685 -0.0064590909 -0.012843759
0.00066624366 -0.0006681818 -2.9113392e-06
-0.0019987309 -0.0069045452 -0.00044569917
-0.017544417 0.0020045454 -0.013286547
-0.017988579 -0.0073500001 -0.0088586677
-0.037087563 -0.0073500001 -0.0053163655
0.0033312184 0.0073500001 -0.01062982
0.02376269 -0.003340909 -2.9113392e-06
0.0073286803 -0.0073500001 -0.0048735775
0.0055520306 0.00245 -0.014172122
0.033534262 0.0055681816 -0.013286547
0.0028870557 0.0073500001 -0.005759153
0.0042195432 -0.00022272726 -0.012843759
0.029536802 0.00022272726 0.0088528451
-0.0042195432 -0.0073500001 -0.0053163655
-0.041529186 -0.0073500001 -0.0026596384
-0.02376269 0.0028954544 -0.016386062
0.012214467 0.0051227272 -0.012843759
-0.017988579 0.0073500001 -0.005759153
0.041529186 -0.003340909 -0.010187032
-0.016211929 0.0046772729 -0.012843759
0.0055520306 0.0069045452 -0.012843759
-0.020653553 -0.0006681818 -0.013286547
-0.043305837 -0.0037863636 -0.0062019411
0.013991117 0.003340909 -0.011072607
0.030425128 -0.0069045452 -0.00044569917
0.014435279 0.0028954544 -0.015943274
-0.019321065 -0.0073500001 -0.012400971
0.033534262 0.0015590909 -0.017271636
0.0042195432 -0.0073500001 -0.0044307895
-0.020209391 -0.00022272726 0.0035393913
-0.031313453 0.0073500001 -0.011072607
0.0037753808 0.0073500001 -0.005759153
0.02909264 0.0020045454 -2.9113392e-06
0.014879442 -0.0073500001 -2.9113392e-06
0.025095178 0.0060136365 -0.012400971
0.02909264 0.0028954544 -0.013286547
-0.028648477 0.0073500001 -0.0093014557
-0.037975889 -0.0073500001 -0.0079730926
0.024206853 -0.003340909 -0.013286547
-0.033978425 -0.0051227272 -0.012843759
0.041973349 -0.004231818 -0.013286547
0.005107868 0.0073500001 -0.01062982
0.020653553 -0.00022272726 0.010623997
0.019765228 -0.00022272726 0.011509572
-0.005107868 -0.00245 -0.013729334
0.0086611677 -0.00022272726 0.00043987649
0.023318527 0.0037863636 -0.01682885
-0.030425128 -0.0064590909 -0.00044569917
0.022430204 0.00245 -0.011958183
0.020653553 0.00022272726 0.0022110278
-0.012214467 -0.0069045452 -0.012843759
0.0099936547 -0.0073500001 -0.0093014557
0.043305837 0.0015590909 -0.0044307895
-0.040640865 -0.0073500001 -0.0048735775
-0.0068845176 -0.0073500001 -0.0044307895
0.039752539 -0.0073500001 -0.0066447291
-0.027315989 0.0064590909 -2.9113392e-06
-0.01265863 -0.0028954544 -0.013286547
0.021541879 0.0015590909 -0.013286547
0.038864214 -0.00022272726 0.007081694
0.0042195432 -0.0015590909 -0.013729334
-0.03086929 -0.0046772729 -0.013286547
0.039308377 -0.0073500001 -0.012400971
-0.014435279 -0.0051227272 -0.016386062
0.00022208122 -0.0060136365 -2.9113392e-06
0.043749999 0.0055681816 -0.0066447291
-0.027760152 0.0046772729 -0.013286547
-0.005107868 0.0046772729 -2.9113392e-06
0.021097716 -0.0073500001 -0.012843759
-0.035755076 0.0073500001 -0.0097442437
-0.022874365 -0.0073500001 -0.0031024262
-0.0024428933 0.0011136363 -0.00044569917
0.02553934 0.0073500001 -0.005759153
-0.019321065 -0.0015590909 -2.9113392e-06
-0.025983503 0.0073500001 -0.0026596384
-0.0033312184 0.0069045452 -0.00044569917
0.0086611677 -0.00022272726 0.008410058
-0.005107868 -0.0064590909 -0.014172122
0.013102792 -0.0073500001 -0.0079730926
0.0024428933 0.0073500001 -0.0093014557
0.0042195432 -0.0055681816 -0.013729334
-0.020653553 -0.0028954544 -2.9113392e-06
0.042861674 0.00022272726 -0.016386062
0.02376269 0.0015590909 -0.013286547
-0.013546954 0.0060136365 -0.012400971
-0.014435279 -0.0055681816 -0.018157212
-0.0091053303 0.0073500001 -0.0026596384
0.0019987309 -0.003340909 -0.013286547
0.012214467 0.0015590909 -0.00044569917
-0.039752539 -0.0073500001 -0.0075303046
-0.009549492 0.00022272726 0.00176824
0.01088198 0.00022272726 0.0053105429
-0.03086929 -0.0037863636 -0.013286547
-0.028204314 0.00022272726 0.0026538158
-0.013102792 0.0073500001 -0.003988002
0.016656091 -0.0055681816 -0.012843759
-0.014435279 -0.0064590909 -0.013729334
0.016656091 0.004231818 -0.00044569917
0.016656091 -0.0073500001 -0.011515395
0.043305837 0.0037863636 -0.011515395
-0.021541879 -0.00022272726 -0.00044569917
-0.013991117 0.0060136365 -0.012843759
0.0042195432 0.0051227272 -0.01682885
-0.039308377 -0.0073500001 -0.0070875166
0.017988579 0.0073500001 -0.0022168504
-0.015767766 -0.0060136365 -0.011958183
-0.036199238 0.00022272726 0.007081694
0.043305837 0.00022272726 -0.01682885
-0.036199238 0.00022272726 0.0030966036
-0.0086611677 -0.0073500001 -0.0062019411
0.040640865 -0.0073500001 -0.012400971
-0.038420051 -0.00022272726 0.011509572
0.041085027 0.00245 -0.01062982
-0.020209391 -0.0015590909 -0.013286547
0.0033312184 0.0006681818 -0.012400971
-0.032201778 0.004231818 -0.00044569917
0.0042195432 0.00245 -0.01461491
0.043305837 -0.0069045452 -0.011958183
0.030425128 0.0073500001 -0.00044569917
-0.0099936547 -0.00022272726 0.011509572
-0.014435279 -0.0073500001 -0.014172122
-0.031313453 -0.0073500001 -0.0079730926
0.019765228 -0.0028954544 -2.9113392e-06
0.043749999 0.0055681816 -0.015943274
-0.043305837 -0.0055681816 -0.00088848703
-0.03086929 -0.0051227272 -0.012843759
0.0073286803 0.0073500001 -0.003545214
-0.023318527 -0.0060136365 -0.016386062
-0.043305837 -0.0051227272 -0.003545214
-0.029980965 -0.0073500001 -0.0088586677
-0.014879442 -0.0060136365 -0.014172122
0.014879442 -0.0073500001 -0.0048735775
-0.039308377 0.00022272726 0.0061961184
0.024206853 0.0020045454 -0.012843759
0.022430204 0.0051227272 -0.00044569917
0.010437817 -0.00022272726 0.008410058
0.0042195432 0.0037863636 -2.9113392e-06
-0.040196702 0.0055681816 -0.00044569917
0.032201778 0.0060136365 -0.00044569917
-0.039308377 -0.0037863636 -2.9113392e-06
0.0073286803 0.004231818 -0.00044569917
0.014879442 -0.004231818 -0.011515395
-0.038864214 0.0015590909 -2.9113392e-06
-0.009549492 0.0073500001 -0.0062019411
0.02376269 -0.0020045454 -2.9113392e-06
-0.043305837 0.00245 -0.0075303046
0.014879442 -0.0073500001 -0.010187032
-0.018432742 0.0011136363 -2.9113392e-06
0.014879442 -0.0073500001 -0.011072607
0.03486675 0.0073500001 -0.01062982
-0.033534262 0.00022272726 -0.011515395
0.042417511 0.0060136365 -0.013729334
0.042861674 -0.00022272726 -0.015057698
0.019321065 0.0073500001 -0.0097442437
-0.013546954 0.003340909 -0.012400971
-0.0011104061 -0.004231818 -2.9113392e-06
-0.009549492 0.00022272726 0.00796727
-0.029980965 0.0073500001 -0.01062982
-0.033978425 0.0073500001 -0.0079730926
0.0042195432 -0.0015590909 -2.9113392e-06
-0.036643401 -0.0060136365 -2.9113392e-06
0.024206853 -0.0073500001 -0.0013312749
0.043305837 -0.0069045452 -0.013286547
-0.0024428933 -0.0073500001 -0.0048735775
0.032201778 -0.0020045454 -0.011072607
0.028204314 0.00022272726 0.011066784
0.036643401 -0.0073500001 -0.012400971
0.013991117 -0.0028954544 -0.015057698
0.024651015 0.0037863636 -0.011515395
-0.0064403554 -0.0064590909 -0.012843759
-0.0042195432 0.004231818 -0.016386062
0.025983503 -0.0073500001 -0.012400971
0.005107868 -0.0060136365 -0.017714424
-0.009549492 0.00022272726 0.0053105429
-0.017544417 -0.00245 -0.013286547
0.014879442 0.0055681816 -0.014172122
0.022430204 0.0020045454 -0.012400971
-0.023318527 0.003340909 -0.017271636
-0.043305837 0.00022272726 -0.0079730926
-0.020653553 0.00022272726 0.010181209
-0.024206853 -0.0011136363 -0.012400971
-0.026871826 -0.00022272726 0.00088266435
0.023318527 -0.003340909 -2.9113392e-06
0.0019987309 -0.0073500001 -0.0075303046
0.027315989 0.0073500001 -0.011072607
-0.024651015 0.0011136363 -0.011515395
-0.014879442 -0.0073500001 -0.01062982
0.0073286803 0.0037863636 -0.013286547
-0.0011104061 -0.00022272726 0.0097384211
-0.02376269 -0.00022272726 -2.9113392e-06
-0.026871826 0.0037863636 -0.012843759
-0.0082170051 -0.0046772729 -0.013286547
0.013991117 0.0069045452 -2.9113392e-06
-0.038420051 0.00022272726 -0.0017740626
-0.017100254 0.0073500001 -0.0070875166
-0.0099936547 0.0073500001 -2.9113392e-06
-0.03486675 -0.00022272726 -0.012843759
0.023318527 -0.0055681816 -0.013729334
0.013102792 0.0028954544 -0.01062982
0.0024428933 -0.0073500001 -0.0066447291
0.020209391 -0.00022272726 0.00796727
0.0042195432 -0.0060136365 -0.016386062
-0.043749999 0.0055681816 -0.0044307895
0.014435279 0.0073500001 -0.0084158806
0.0091053303 0.00022272726 0.00043987649
-0.02376269 -0.0015590909 -0.015500486
-0.043305837 0.0006681818 -0.0093014557
0.023318527 0.0011136363 -0.011515395
-0.026871826 -0.004231818 -0.013286547
0.036643401 -0.0064590909 -0.00044569917
0.043305837 0.0073500001 -0.0097442437
-0.0086611677 0.0073500001 -0.0093014557
0.025095178 0.0020045454 -0.00044569917
0.024206853 -0.0073500001 -0.0088586677
-0.02376269 -0.00245 -0.016386062
0.014435279 -0.0064590909 -0.017714424
-0.043305837 0.003340909 -0.011958183
0.037531726 -0.0073500001 -0.0013312749
-0.037531726 -0.00245 -0.013286547
-0.0019987309 0.0069045452 -0.012843759
0.043749999 0.0055681816 -0.0053163655
-0.0082170051 0.0011136363 -2.9113392e-06
-0.025095178 0.0060136365 -0.012400971
0.043749999 -0.00245 -0.010187032
-0.0064403554 0.0060136365 -0.012400971
0.035755076 0.0073500001 -0.0097442437
0.043305837 0.0015590909 -0.0066447291
0.0046637054 -0.0073500001 -0.010187032
-0.016211929 -0.0073500001 -0.0079730926
0.009549492 0.0028954544 -0.013286547
0.0042195432 -0.0015590909 -0.01682885
0.0042195432 -0.0015590909 -0.012400971
0.0055520306 0.0073500001 -0.00044569917
0.005107868 -0.0055681816 -0.01682885
-0.017544417 -0.0073500001 -0.0075303046
-0.0330901 0.0006681818 -0.015943274
0.025095178 0.0037863636 -0.011958183
0.02553934 -0.0015590909 -0.012400971
-0.043305837 -0.0015590909 -0.011072607
-0.024206853 0.0046772729 -0.011958183
0.0068845176 -0.0073500001 -0.0088586677
-0.010437817 0.0028954544 -0.013286547
-0.02909264 0.00022272726 0.006638906
-0.026871826 -0.0073500001 -0.0044307895
-0.0073286803 0.0073500001 -0.0053163655
-0.036643401 0.004231818 -0.00044569917
0.035755076 -0.0006681818 -0.013286547
0.02376269 -0.0015590909 -0.018157212
0.027315989 0.0006681818 -2.9113392e-06
0.017544417 0.00022272726 0.011066784
0.043305837 0.00245 -0.015943274
0.0015545685 0.00022272726 0.006638906
0.041085027 -0.0073500001 -0.0017740626
-0.022874365 0.0073500001 -0.0031024262
-0.015767766 -0.0073500001 -0.003545214
-0.0068845176 0.004231818 -0.00044569917
-0.043305837 0.00245 -0.0088586677
-0.0042195432 0.0020045454 -0.01062982
0.029980965 -0.0073500001 -0.0048735775
-0.026871826 -0.003340909 -0.013286547
0.027315989 0.00245 -0.013286547
-0.037087563 0.0073500001 -0.0022168504
0.0011104061 0.0060136365 -0.00044569917
-0.011770304 -0.0037863636 -0.013286547
-0.024206853 0.0011136363 -2.9113392e-06
-0.0099936547 -0.00022272726 0.0022110278
0.0033312184 0.0064590909 -0.011072607
-0.038864214 0.0073500001 -0.0017740626
0.032645941 -0.0073500001 -0.012843759
-0.027760152 0.0073500001 -0.0088586677
0.0011104061 0.0073500001 -0.0044307895
0.035310913 -0.004231818 -0.00044569917
0.0019987309 0.0073500001 -0.0062019411
-0.026427666 0.0073500001 -0.012400971
0.036643401 0.0073500001 -0.0093014557
-0.021541879 -0.0073500001 -0.0062019411
0.0330901 -0.0060136365 -0.015057698
0.0011104061 -0.00022272726 0.0048677549
0.02376269 -0.0015590909 -2.9113392e-06
0.042417511 -0.0020045454 -0.015057698
0.02553934 -0.0037863636 -0.012843759
0.0330901 0.0015590909 -0.015057698
0.03486675 -0.0020045454 -0.00044569917
-0.043749999 0.0064590909 -0.0084158806
0.043305837 0.0028954544 -0.015500486
0.0033312184 0.004231818 -2.9113392e-06
0.0082170051 0.00022272726 0.008410058
-0.043305837 -0.0020045454 -0.003545214
-0.013546954 -0.0055681816 -0.013286547
-0.035310913 -0.0073500001 -0.011072607
0.0042195432 0.0064590909 -0.01682885
-0.0064403554 0.0020045454 -0.00044569917
0.0064403554 -0.0020045454 -0.012843759
0.040196702 -0.0073500001 -0.003988002
-0.031313453 -0.0069045452 -0.011958183
-0.00066624366 0.0073500001 -0.012843759
-0.0055520306 -0.0037863636 -0.012843759
-0.023318527 0.0015590909 -0.012843759
0.038420051 0.0073500001 -0.010187032
-0.017100254 0.00022272726 -0.00044569917
0.025983503 -0.0028954544 -0.012843759
-0.033978425 -0.0073500001 -0.0079730926
-0.023318527 0.003340909 -0.016386062
-0.024651015 0.0073500001 -0.0084158806
0.039308377 0.0069045452 -2.9113392e-06
-0.022874365 0.0073500001 -0.01062982
0.037975889 -0.0011136363 -0.013286547
0.032645941 -0.0073500001 -0.0022168504
-0.043305837 -0.0037863636 -0.0088586677
0.043305837 0.0037863636 -0.014172122
0.021986041 -0.0037863636 -0.00044569917
0.035310913 0.0073500001 -0.0053163655
-0.033534262 0.0011136363 -0.014172122
0.0082170051 0.00022272726 0.0088528451
-0.0082170051 0.00022272726 0.0053105429
0.043749999 0.0064590909 -0.0070875166
0.039752539 -0.00022272726 0.0097384211
0.013991117 -0.0064590909 -0.01461491
0.032645941 0.0060136365 -0.018157212
-0.023318527 0.0055681816 -0.014172122
-0.0086611677 -0.0073500001 -0.0031024262
0.032645941 0.0051227272 -0.01461491
-0.009549492 0.0037863636 -0.013286547
0.014435279 0.0060136365 -0.018157212
-0.024651015 -0.0073500001 -0.0066447291
-0.014435279 0.00245 -0.015500486
0.031313453 0.0073500001 -0.0053163655
0.033534262 -0.0015590909 -0.011515395
0.0033312184 0.0020045454 -0.012400971
-0.0042195432 -0.0020045454 -0.011515395
0.022430204 0.0046772729 -0.012843759
0.043749999 -0.00245 -0.013729334
-0.040196702 0.0015590909 -0.013286547
-0.02376269 -0.0073500001 -0.0088586677
0.024206853 -0.0051227272 -0.012843759
-0.041973349 0.0073500001 -0.0066447291
-0.02909264 0.0073500001 -0.0048735775
-0.033534262 0.0073500001 -0.0084158806
0.042417511 -0.0037863636 -0.014172122
-0.043305837 -0.0069045452 -0.017271636
-0.011326143 0.003340909 -2.9113392e-06
-0.022874365 -0.0073500001 -0.00088848703
-0.0059961928 0.0073500001 -0.0075303046
-0.013102792 0.0015590909 -0.01062982
-0.022430204 -0.0020045454 -0.011958183
-0.032645941 0.0060136365 -0.015500486
0.009549492 -0.00022272726 0.011066784
-0.013991117 0.00022272726 -0.015057698
0.028204314 0.00022272726 0.00796727
0.0055520306 0.0064590909 -0.0026596384
0.011770304 -0.0015590909 -0.013286547
-0.040640865 -0.003340909 -0.00044569917
0.011770304 -0.0073500001 -0.0022168504
0.024206853 0.004231818 -0.015500486
0.010437817 0.0073500001 -0.0066447291
-0.0082170051 -0.0055681816 -0.012843759
-0.02376269 0.0060136365 -0.011515395
-0.040196702 0.0073500001 -0.00044569917
0.0028870557 -0.0073500001 -0.011515395
0.0055520306 -0.003340909 -0.011515395
0.043305837 0.0037863636 -0.01461491
0.0091053303 0.0073500001 -0.0093014557
-0.021986041 -0.0051227272 -0.011958183
0.0330901 0.0069045452 -2.9113392e-06
-0.0011104061 -0.00022272726 0.007081694
0.0042195432 0.0055681816 -0.015057698
-0.041973349 -0.0060136365 -0.01062982
-0.013991117 0.0055681816 -0.013286547
-0.029536802 0.0073500001 -0.010187032
0.013546954 0.004231818 -0.01682885
-0.0028870557 -0.0073500001 -0.00044569917
-0.043749999 -0.0060136365 -0.010187032
-0.005107868 0.0073500001 -0.011958183
0.043749999 -0.0037863636 -0.015500486
0.021097716 -0.00022272726 -0.00044569917
0.031313453 0.003340909 -0.012400971
0.0330901 -0.0028954544 -0.00044569917
0.024206853 -0.0046772729 -0.017714424
0.0086611677 -0.00022272726 0.011066784
-0.041085027 -0.0060136365 -0.00044569917
0.0015545685 0.0069045452 -0.012843759
-0.041085027 0.0011136363 -0.012400971
0.014879442 0.0073500001 -0.01062982
-0.02376269 -0.00022272726 -0.012843759
0.041973349 -0.0069045452 -0.012843759
0.038864214 -0.0046772729 -2.9113392e-06
0.01265863 0.0073500001 -0.011072607
0.0330901 -0.0060136365 -2.9113392e-06
0.043749999 -0.0051227272 -0.01461491
0.015767766 -0.003340909 -0.011515395
0.02553934 -0.0073500001 -0.011072607
0.017988579 0.0006681818 -0.013286547
-0.014435279 0.0028954544 -0.015943274
-0.014879442 0.0046772729 -0.011958183
-0.014435279 -0.0011136363 -0.013286547
-0.038420051 -0.0073500001 -0.0017740626
0.0064403554 0.0060136365 -0.01062982
0.043305837 0.004231818 -0.012400971
-0.027760152 -0.00245 -0.013286547
0.027315989 -0.00022272726 0.0097384211
0.0011104061 0.004231818 -0.013286547
-0.0042195432 0.0051227272 -0.011958183
0.013546954 0.0020045454 -0.013286547
-0.032645941 0.0073500001 -0.003545214
0.038864214 0.00022272726 0.0053105429
-0.042861674 0.0020045454 -0.018157212
-0.028204314 -0.0073500001 -0.010187032
0.036643401 0.0073500001 -0.010187032
0.005107868 0.0006681818 -2.9113392e-06
-0.014435279 0.0028954544 -0.012843759
0.018432742 -0.00022272726 0.00796727
-0.030425128 -0.0073500001 -0.0022168504
0.013102792 -0.0046772729 -0.00044569917
-0.0015545685 -0.0073500001 -0.0044307895
-0.043305837 0.0037863636 -0.0084158806
-0.015767766 0.0073500001 -0.0084158806
0.036199238 -0.0073500001 -0.0044307895
0.02376269 -0.0073500001 -0.0022168504
-0.02376269 0.0073500001 -0.00088848703
-0.0086611677 -0.004231818 -0.013286547
0.009549492 0.0073500001 -0.0079730926
0.043305837 -0.0011136363 -0.01682885
0.013991117 -0.0046772729 -0.017271636
0.036199238 0.00022272726 0.00796727
-0.043305837 -0.0046772729 -0.014172122
0.011326143 0.0073500001 -0.0079730926
-0.02376269 0.0073500001 -0.0075303046
-0.039752539 0.00022272726 0.00043987649
0.023318527 0.0073500001 -0.0053163655
-0.042417511 -0.0020045454 -0.015943274
-0.021097716 -0.0069045452 -0.012843759
-0.0330901 -0.00245 -0.016386062
0.028204314 0.00245 -0.013286547
-0.041973349 0.0006681818 -0.011072607
-0.041085027 0.0015590909 -0.00044569917
0.043305837 0.0028954544 -2.9113392e-06
-0.027315989 0.00022272726 0.0013254521
0.0055520306 -0.0046772729 -0.015500486
0.041529186 0.0073500001 -0.00088848703
-0.012214467 0.0020045454 -0.00044569917
-0.0042195432 0.0011136363 -0.013286547
-0.011326143 0.0051227272 -0.012843759
-0.043749999 -0.0055681816 -0.01682885
-0.005107868 0.0073500001 -0.017271636
0.0086611677 -0.0073500001 -0.01062982
-0.0033312184 -0.0015590909 -0.011072607
0.012214467 0.0064590909 -0.00044569917
-0.023318527 -0.0015590909 -0.017714424
0.0042195432 0.004231818 -0.017271636
0.03486675 0.0073500001 -0.003988002
-0.015323604 -0.0069045452 -0.012400971
-0.041529186 0.0073500001 -0.00044569917
-0.024651015 -0.0073500001 -0.005759153
0.01265863 -0.0055681816 -0.00044569917
-0.0330901 -0.0020045454 -0.017271636
-0.043749999 0.0060136365 -0.015057698
0.02376269 -0.0028954544 -0.017271636
0.022430204 -0.0073500001 -0.0066447291
-0.0033312184 -0.0046772729 -2.9113392e-06
-0.00066624366 -0.0073500001 -0.003545214
0.0037753808 0.0069045452 -0.00088848703
0.043305837 0.0020045454 -0.01062982
0.036643401 -0.0011136363 -0.013286547
0.042417511 0.0046772729 -0.015943274
0.0064403554 0.0064590909 -0.012400971
-0.033534262 0.00245 -0.014172122
-0.041973349 -0.0073500001 -0.00044569917
-0.014879442 -0.0046772729 -0.013729334
-0.0011104061 -0.0073500001 -0.0053163655
-0.043749999 -0.0069045452 -0.011515395
0.017544417 0.0015590909 -0.013286547
-0.031757616 0.0073500001 -0.011072607
-0.0068845176 -0.0037863636 -0.00044569917
0.024206853 0.0028954544 -0.013286547
-0.018876903 -0.00022272726 0.0013254521
-0.026871826 -0.0073500001 -0.012843759
0.028648477 0.0073500001 -0.0079730926
-0.040196702 -0.0020045454 -0.013286547
0.0068845176 0.0028954544 -0.00044569917
0.027760152 -0.00245 -0.013286547
0.0011104061 0.00022272726 0.007524482
-0.019321065 -0.00022272726 0.0061961184
0.016656091 0.0055681816 -0.00044569917
0.0330901 0.0020045454 -0.013729334
-0.0042195432 -0.00022272726 -0.013729334
-0.020653553 -0.00022272726 -0.013286547
0.017544417 0.00022272726 0.006638906
-0.043305837 0.004231818 -0.0097442437
0.023318527 -0.0028954544 -0.012400971
-0.0042195432 -0.0046772729 -0.017714424
-0.014435279 -0.0028954544 -0.015057698
-0.011326143 -0.00022272726 0.0039821793
0.0330901 0.0011136363 -0.012843759
-0.02376269 -0.00022272726 -0.017271636
0.029536802 0.00022272726 0.0053105429
-0.039752539 -0.0073500001 -0.011072607
0.020653553 -0.0069045452 -0.00044569917
-0.02553934 0.0073500001 -0.0013312749
-0.026871826 0.0051227272 -0.00044569917
0.043305837 0.0046772729 -0.015943274
0.0077728424 0.00022272726 -2.9113392e-06
-0.0015545685 0.00022272726 0.0013254521
0.012214467 -0.0073500001 -0.011072607
-0.0091053303 -0.0073500001 -0.0084158806
-0.020653553 -0.0055681816 -0.00044569917
-0.005107868 0.0015590909 -0.011515395
0.0055520306 0.00022272726 -0.017271636
-0.0077728424 -0.0073500001 -0.005759153
0.043305837 0.0037863636 -0.016386062
-0.0086611677 -0.00022272726 0.0026538158
-0.014435279 0.0073500001 -0.015057698
0.024206853 -0.003340909 -0.015943274
-0.0055520306 -0.0020045454 -0.015500486
-0.0091053303 -0.00022272726 0.00088266435
-0.018432742 0.0069045452 -0.00044569917
-0.028648477 0.0073500001 -0.0075303046
0.018432742 0.00022272726 0.00796727
-0.037087563 0.0073500001 -0.0088586677
-0.019321065 0.0073500001 -0.0093014557
-0.042417511 0.0037863636 -0.015943274
0.043749999 0.0060136365 -0.00044569917
-0.0024428933 0.0073500001 -0.0088586677
0.0011104061 -0.0073500001 -0.0088586677
0.0091053303 -0.0073500001 -0.0093014557
-0.032645941 -0.0073500001 -0.0066447291
-0.014879442 0.0060136365 -0.013729334
-0.013991117 0.0028954544 -0.014172122
-0.03086929 0.0073500001 -0.0066447291
0.023318527 0.0028954544 -0.012400971
0.037531726 -0.0069045452 -0.012843759
0.009549492 0.00245 -0.013286547
0.041085027 -0.0073500001 -0.005759153
-0.031313453 0.0028954544 -0.012400971
-0.0019987309 0.0011136363 -2.9113392e-06
-0.0330901 0.0060136365 -0.017271636
-0.017988579 -0.00022272726 0.011066784
-0.028648477 -0.00022272726 0.00176824
-0.041529186 -0.0051227272 -0.011515395
-0.027315989 -0.0073500001 -2.9113392e-06
0.026871826 0.0073500001 -0.0066447291
0.013991117 -0.0020045454 -0.017714424
-0.0330901 0.0046772729 -0.01682885
0.011770304 -0.0051227272 -0.00044569917
-0.020653553 -0.0060136365 -0.012843759
0.017544417 0.0064590909 -0.012843759
0.024206853 -0.003340909 -0.012843759
0.033978425 -0.0055681816 -0.00044569917
-0.015767766 0.0011136363 -0.012843759
0.023318527 0.0037863636 -0.017271636
-0.0042195432 0.0046772729 -0.012400971
0.0037753808 0.0051227272 -2.9113392e-06
0.02376269 -0.0073500001 -0.0088586677
-0.022430204 -0.0011136363 -0.00044569917
-0.033534262 0.0037863636 -0.015057698
-0.02909264 -0.0073500001 -0.0022168504
0.0330901 0.0073500001 -0.017271636
-0.005107868 -0.00022272726 -0.013286547
-0.012214467 0.0037863636 -0.00044569917
-0.022874365 0.00022272726 -0.00044569917
-0.041529186 0.0073500001 -0.011072607
-0.013991117 -0.0028954544 -0.011072607
0.023318527 0.0015590909 -0.014172122
0.011326143 0.00022272726 0.0026538158
-0.024206853 0.0051227272 -0.013729334
-0.0042195432 0.0020045454 -0.014172122
0.0099936547 -0.0069045452 -2.9113392e-06
-0.024651015 -0.0028954544 -0.011515395
0.027760152 0.004231818 -0.013286547
0.028204314 -0.0073500001 -0.0084158806
0.0073286803 0.0073500001 -0.0044307895
-0.02553934 0.0006681818 -0.00044569917
-0.013546954 -0.004231818 -0.01461491
0.0330901 -0.0020045454 -0.018157212
-0.0082170051 -0.0073500001 -2.9113392e-06
-0.005107868 -0.0060136365 -0.015943274
-0.043305837 -0.0069045452 -0.00044569917
0.01088198 -0.00022272726 0.0061961184
-0.038864214 0.003340909 -2.9113392e-06
-0.0046637054 -0.0020045454 -2.9113392e-06
0.016211929 -0.0073500001 -0.012843759
0.016211929 0.0051227272 -0.00044569917
-0.009549492 -0.0020045454 -0.013286547
0.0042195432 -0.0073500001 -0.0075303046
0.021097716 -0.0020045454 -0.00044569917
-0.009549492 0.00022272726 -0.013286547
0.033534262 -0.0028954544 -0.015943274
0.0019987309 -0.004231818 -2.9113392e-06
0.039752539 0.0073500001 -0.0093014557
-0.023318527 0.0020045454 -0.00044569917
0.031313453 0.0060136365 -0.00044569917
-0.039752539 0.004231818 -0.00044569917
-0.015323604 -0.0073500001 -0.0044307895
-0.014879442 0.0037863636 -0.013729334
0.042417511 -0.0020045454 -2.9113392e-06
0.0330901 -0.0028954544 -0.015943274
-0.042417511 0.0046772729 -0.016386062
0.042861674 -0.00022272726 -0.017271636
0.0011104061 0.00022272726 0.0035393913
0.024651015 -0.0055681816 -0.00044569917
0.0330901 0.0011136363 -0.013729334
-0.03486675 -0.0073500001 -0.0031024262
-0.041529186 -0.0046772729 -0.011515395
0.037531726 0.0051227272 -0.013286547
0.0064403554 0.004231818 -0.012400971
0.035310913 0.0015590909 -0.013286547
0.041529186 0.0073500001 -0.003988002
-0.0073286803 0.0069045452 -0.012843759
-0.020653553 0.0015590909 -2.9113392e-06
-0.00066624366 -0.0073500001 -0.003988002
0.037975889 0.00022272726 0.0022110278
-0.038864214 0.0073500001 -0.0084158806
-0.022874365 -0.0073500001 -0.0026596384
0.0091053303 0.0073500001 -0.0022168504
0.0082170051 -0.0073500001 -0.005759153
0.0024428933 0.0073500001 -0.0079730926
0.0086611677 -0.0046772729 -0.012843759
-0.021541879 -0.0073500001 -0.0075303046
-0.017100254 0.003340909 -0.00044569917
-0.0028870557 -0.0060136365 -0.00044569917
-0.017544417 -0.00022272726 -0.013286547
0.0077728424 -0.0011136363 -2.9113392e-06
0.011326143 0.00022272726 0.006638906
-0.043305837 -0.0011136363 -0.013729334
0.02376269 -0.0051227272 -0.00044569917
0.043749999 -0.0055681816 -0.017271636
0.025983503 -0.0073500001 -0.003988002
-0.013991117 0.004231818 -0.013729334
0.040640865 -0.0051227272 -0.00044569917
-0.028204314 0.00022272726 0.011509572
0.043305837 -0.0020045454 -0.0088586677
-0.024206853 0.0028954544 -0.011958183
0.0086611677 0.00022272726 0.00176824
0.03086929 0.0073500001 -0.0017740626
0.03486675 -0.0069045452 -0.012843759
0.0055520306 -0.004231818 -0.017714424
0.0330901 -0.0073500001 -0.0044307895
0.022874365 0.0073500001 -0.0075303046
-0.019765228 -0.0020045454 -2.9113392e-06
-0.016656091 -0.0046772729 -0.013286547
0.014435279 -0.0064590909 -0.018157212
0.024206853 -0.0051227272 -0.017714424
-0.005107868 0.0051227272 -0.013729334
0.043305837 0.0046772729 -0.015500486
0.040196702 -0.003340909 -0.00044569917
-0.02909264 -0.0073500001 -0.0093014557
-0.042861674 0.0055681816 -0.00044569917
0.017100254 0.0028954544 -0.013286547
0.0011104061 0.0011136363 -0.013286547
-0.036643401 -0.00022272726 0.0022110278
0.032201778 -0.0073500001 -0.0048735775
-0.017100254 -0.0015590909 -0.00044569917
0.016656091 0.0006681818 -0.013286547
-0.029536802 -0.00022272726 0.0022110278
-0.00066624366 0.0028954544 -0.013286547
0.013991117 0.003340909 -0.017271636
-0.034422588 -0.0015590909 -0.00044569917
-0.02909264 -0.0073500001 -0.0075303046
0.0073286803 0.0015590909 -0.013286547
0.032645941 0.0051227272 -0.013286547
0.028648477 -0.00022272726 0.0030966036
-0.0091053303 0.00022272726 0.0061961184
0.041973349 -0.0046772729 -0.012400971
0.022430204 -0.0073500001 -0.0070875166
0.0037753808 0.0073500001 -0.0031024262
-0.034422588 0.003340909 -0.00044569917
0.02376269 -0.00022272726 -0.015943274
0.0046637054 0.0069045452 -0.00088848703
-0.013991117 0.0046772729 -0.016386062
-0.029536802 -0.0073500001 -0.0026596384
0.0033312184 -0.0073500001 -0.0031024262
-0.014435279 -0.0028954544 -0.017271636
0.017100254 0.0011136363 -0.013286547
-0.016656091 0.00245 -0.00044569917
0.011326143 -0.0051227272 -0.00044569917
-0.041973349 -0.00022272726 -0.018157212
0.0037753808 -0.0073500001 -0.010187032
-0.017544417 -0.0073500001 -0.003988002
0.033534262 0.00022272726 -0.011072607
0.0077728424 0.0073500001 -0.011515395
-0.0068845176 -0.0073500001 -0.0053163655
-0.034422588 0.00022272726 -0.01062982
0.032645941 0.0020045454 -0.011515395
0.014879442 -0.004231818 -0.01461491
-0.017544417 -0.00022272726 0.011066784
-0.017544417 0.00022272726 0.0039821793
-0.013102792 0.0011136363 -0.01062982
-0.011326143 0.0073500001 -0.0048735775
-0.014435279 -0.0073500001 -0.0013312749
0.036199238 0.00022272726 0.0013254521
0.042417511 -0.0073500001 -0.0093014557
-0.0330901 -0.0006681818 -2.9113392e-06
0.02909264 -0.0073500001 -0.011072607
0.039308377 0.00022272726 0.0048677549
-0.010437817 -0.0073500001 -0.011515395
0.034422588 0.0020045454 -0.00044569917
-0.032645941 0.0073500001 -0.0062019411
-0.011326143 0.00022272726 0.007081694
0.013991117 -0.0051227272 -0.01682885
0.013546954 0.0051227272 -0.016386062
-0.037975889 0.0046772729 -0.012843759
-0.0042195432 -0.0064590909 -0.016386062
-0.028204314 0.0073500001 -0.00044569917
-0.041973349 -0.0073500001 -0.011515395
-0.043305837 0.0015590909 -0.003988002
0.013546954 0.0037863636 -0.015500486
0.00066624366 -0.0015590909 -0.013286547
0.0046637054 -0.0073500001 -0.00044569917
-0.021097716 -0.0069045452 -0.00044569917
0.037531726 0.00022272726 0.00796727
0.02909264 0.00022272726 0.006638906
0.043305837 -0.0015590909 -0.0075303046
0.00066624366 -0.0064590909 -0.012843759
-0.021097716 -0.0073500001 -0.012843759
0.024206853 -0.0037863636 -0.013729334
0.0064403554 -0.0055681816 -0.012843759
-0.028648477 0.0073500001 -0.0053163655
0.035310913 0.004231818 -0.012843759
-0.027315989 0.0073500001 -0.012400971
0.026871826 0.0073500001 -0.00088848703
-0.024206853 0.0060136365 -0.018157212
0.00022208122 0.0069045452 -0.012843759
-0.028648477 -0.0064590909 -0.012843759
0.014435279 0.0046772729 -0.01682885
-0.031313453 0.0051227272 -0.012843759
-0.025095178 -0.0028954544 -0.012843759
0.0077728424 -0.0073500001 -0.0097442437
0.013991117 0.0073500001 -0.0075303046
0.043749999 0.0055681816 -0.0044307895
0.020653553 0.0073500001 -0.0048735775
0.037087563 0.00022272726 0.0044249669
-0.019765228 -0.00022272726 0.011066784
-0.013991117 0.0028954544 -0.016386062
-0.035310913 0.0073500001 -0.012843759
0.037531726 -0.00022272726 0.0053105429
-0.025983503 0.003340909 -0.00044569917
0.027760152 -0.0073500001 -0.0053163655
-0.037975889 0.00022272726 0.0044249669
-0.03486675 0.0073500001 -0.0066447291
0.0046637054 0.0064590909 -0.0022168504
0.031313453 0.0073500001 -0.003988002
-0.037087563 0.00022272726 0.011066784
0.018432742 0.0028954544 -2.9113392e-06
0.0082170051 -0.0073500001 -0.0031024262
0.029536802 -0.0073500001 -0.00044569917
0.042417511 -0.0015590909 -0.00044569917
-0.0042195432 -0.0064590909 -0.015057698
-0.0064403554 -0.0073500001 -0.003988002
-0.02553934 0.0073500001 -0.0044307895
0.020653553 -0.003340909 -2.9113392e-06
0.014435279 -0.0037863636 -0.01461491
-0.032645941 -0.0073500001 -0.0093014557
-0.022874365 -0.0073500001 -0.012843759
0.02909264 -0.0073500001 -0.0017740626
0.005107868 -0.0073500001 -0.0084158806
0.0099936547 -0.0064590909 -0.012843759
0.032201778 0.0055681816 -0.00044569917
0.023318527 0.00022272726 -0.012843759
-0.00066624366 0.00022272726 0.0013254521
0.041973349 0.0028954544 -0.011958183
0.023318527 -0.0060136365 -0.018157212
-0.036643401 0.0073500001 -0.0097442437
0.0042195432 0.0069045452 -0.011958183
0.012214467 -0.0073500001 -0.012843759
-0.017544417 0.00022272726 0.010623997
-0.023318527 -0.004231818 -0.018157212
0.035310913 0.00022272726 -0.00044569917
-0.02553934 0.0073500001 -0.0075303046
0.021097716 -0.0073500001 -0.0022168504
0.023318527 -0.0055681816 -0.015943274
0.014435279 -0.0069045452 -0.015057698
-0.033534262 0.003340909 -0.015943274
0.036643401 -0.00022272726 0.0013254521
-0.02376269 -0.0006681818 -0.014172122
0.02376269 -0.00245 -0.017714424
0.043749999 0.0055681816 -0.011515395
-0.0015545685 -0.0073500001 -0.0079730926
0.033534262 0.0046772729 -2.9113392e-06
-0.02909264 -0.0073500001 -0.005759153
0.028648477 0.00245 -2.9113392e-06
-0.0055520306 0.0015590909 -0.015943274
-0.024206853 0.0055681816 -0.016386062
0.027315989 0.0020045454 -2.9113392e-06
-0.023318527 0.0073500001 -0.0079730926
0.014879442 0.0064590909 -0.01461491
0.00022208122 -0.0006681818 -2.9113392e-06
0.030425128 -0.0073500001 -0.01062982
-0.03486675 0.0011136363 -0.011958183
-0.042417511 0.0064590909 -0.013286547
-0.0042195432 -0.0069045452 -0.01461491
0.013991117 -0.0073500001 -0.00088848703
-0.0046637054 -0.0069045452 -0.0022168504
-0.0055520306 0.0020045454 -0.017271636
-0.042417511 0.0055681816 -0.015500486
-0.0064403554 -0.003340909 -0.013286547
0.027760152 0.00022272726 0.0048677549
-0.036643401 -0.0073500001 -0.012400971
0.029536802 -0.004231818 -2.9113392e-06
-0.022874365 -0.0073500001 -0.0053163655
0.043305837 0.0073500001 -0.013286547
0.02376269 -0.0015590909 -0.01461491
-0.014435279 0.004231818 -2.9113392e-06
-0.043305837 0.0055681816 -0.00088848703
0.029536802 0.0060136365 -0.012843759
-0.014879442 0.0073500001 -0.011072607
0.024206853 -0.0046772729 -0.013729334
-0.0059961928 0.0011136363 -0.010187032
-0.032645941 0.0015590909 -0.00044569917
0.00066624366 -0.0073500001 -0.0026596384
-0.033534262 -0.0037863636 -0.013729334
0.043305837 -0.00245 -0.0070875166
-0.024206853 -0.0037863636 -0.012400971
0.021097716 0.0073500001 -0.011072607
-0.0330901 0.0037863636 -0.015500486
-0.028648477 0.0073500001 -0.0048735775
0.043305837 0.00022272726 -0.0066447291
0.029536802 -0.003340909 -2.9113392e-06
-0.027315989 -0.0064590909 -0.012843759
0.043749999 0.0060136365 -0.011958183
-0.032645941 0.0051227272 -0.014172122
-0.041085027 -0.0006681818 -0.011515395
0.01265863 -0.0037863636 -0.011072607
0.042417511 -0.0051227272 -0.01682885
-0.009549492 -0.0073500001 -0.0066447291
0.017988579 -0.00022272726 0.0057533304
-0.013546954 -0.0073500001 -0.012843759
0.042861674 0.0069045452 -0.0044307895
0.0055520306 0.0073500001 -0.011072607
-0.043305837 0.00245 -0.0079730926
0.041973349 0.0073500001 -0.00088848703
0.032201778 -0.00245 -0.00044569917
0.00066624366 0.00022272726 0.011509572
0.035310913 -0.0073500001 -0.00044569917
0.043749999 -0.0028954544 -0.0097442437
0.033978425 -0.0073500001 -0.0022168504
-0.0059961928 -0.0055681816 -0.011515395
0.015767766 -0.0037863636 -0.012843759
0.0042195432 0.003340909 -0.01461491
0.015767766 -0.0051227272 -0.00044569917
-0.0042195432 -0.0015590909 -0.011958183
0.043305837 -0.00022272726 -0.00044569917
0.013546954 -0.0046772729 -0.011072607
0.038864214 -0.0006681818 -0.013286547
-0.042417511 -0.0037863636 -0.013286547
0.023318527 0.0020045454 -0.013286547
0.032645941 -0.0051227272 -0.013729334
-0.029980965 -0.0046772729 -2.9113392e-06
-0.0073286803 -0.003340909 -0.00044569917
-0.017988579 0.00022272726 0.0026538158
0.043305837 0.0006681818 -0.013286547
0.013991117 -0.0046772729 -0.015500486
0.015767766 -0.0011136363 -0.012400971
0.010437817 0.0051227272 -0.013286547
-0.016211929 0.0069045452 -0.012400971
0.037087563 0.0073500001 -0.0075303046
-0.012214467 0.0073500001 -0.0053163655
-0.015767766 0.0073500001 -0.003545214
-0.01265863 0.0006681818 -0.011958183
0.0077728424 -0.0073500001 -0.011515395
-0.032201778 -0.0046772729 -0.012843759
0.01265863 -0.0015590909 -0.011515395
0.00022208122 0.0006681818 -0.013286547
-0.0330901 0.0051227272 -0.015500486
-0.033534262 -0.0015590909 -0.015057698
-0.039752539 0.0073500001 -0.003545214
-0.00066624366 0.0073500001 -0.0079730926
-0.043305837 0.0051227272 -0.0084158806
-0.024206853 0.0051227272 -0.014172122
-0.019321065 -0.00022272726 0.0039821793
0.041529186 0.0073500001 -0.0084158806
-0.040640865 -0.0037863636 -0.00044569917
-0.0068845176 0.0073500001 -0.0088586677
-0.013102792 -0.003340909 -0.011515395
-0.021541879 -0.0073500001 -0.0066447291
-0.037975889 -0.00022272726 0.0030966036
0.0082170051 0.0046772729 -2.9113392e-06
-0.021541879 0.0037863636 -0.012843759
0.0042195432 0.0055681816 -0.011515395
-0.032645941 -0.0073500001 -0.011515395
-0.037975889 -0.00022272726 0.007524482
0.021986041 -0.0028954544 -0.012843759
-0.014435279 0.0051227272 -0.01682885
-0.013991117 0.0020045454 -0.017271636
0.0055520306 0.0006681818 -0.012400971
0.0099936547 -0.0046772729 -2.9113392e-06
-0.041973349 -0.0051227272 -0.015057698
-0.016211929 -0.00245 -0.00044569917
0.010437817 0.00022272726 0.0030966036
0.0033312184 -0.0069045452 -0.011072607
0.043305837 0.004231818 -0.011958183
0.016211929 0.0006681818 -0.00044569917
0.00022208122 0.003340909 -2.9113392e-06
0.033534262 0.003340909 -0.015500486
0.024206853 0.0060136365 -0.014172122
-0.014879442 -0.004231818 -2.9113392e-06
0.033534262 -0.00245 -0.011072607
-0.033534262 -0.00245 -0.017271636
0.042417511 -0.0073500001 -0.0022168504
-0.010437817 -0.0073500001 -0.00088848703
-0.043305837 0.0006681818 -0.017714424
0.037975889 -0.0064590909 -0.012843759
-0.042861674 -0.0020045454 -0.018157212
0.026427666 0.0073500001 -0.011515395
-0.010437817 0.0073500001 -0.010187032
-0.0330901 -0.0015590909 -0.012400971
0.041973349 -0.0060136365 -0.012843759
-0.0042195432 0.0073500001 -0.005759153
-0.0330901 -0.0060136365 -0.017714424
-0.0042195432 -0.0060136365 -0.017271636
0.0091053303 -0.0073500001 -0.0097442437
0.0055520306 -0.0020045454 -0.01682885
0.020209391 -0.004231818 -2.9113392e-06
0.039752539 0.00022272726 0.00176824
0.025095178 0.0055681816 -0.012843759
0.0055520306 0.004231818 -0.012843759
-0.010437817 -0.00022272726 0.0022110278
0.011326143 -0.0073500001 -0.0097442437
0.017100254 0.0069045452 -0.012843759
-0.028204314 -0.00022272726 0.0057533304
0.033534262 0.0011136363 -0.017271636
0.013102792 0.00245 -2.9113392e-06
0.026427666 0.0060136365 -0.012843759
-0.00022208122 -0.00022272726 0.0013254521
0.025983503 0.004231818 -0.00044569917
-0.0059961928 -0.0060136365 -0.010187032
-0.005107868 -0.0015590909 -0.013286547
-0.028648477 -0.0051227272 -2.9113392e-06
0.0042195432 0.0011136363 -2.9113392e-06
0.042861674 -0.004231818 -0.018157212
-0.028648477 0.003340909 -0.013286547
0.0091053303 -0.004231818 -2.9113392e-06
0.039308377 0.003340909 -0.013286547
-0.024206853 -0.0064590909 -0.015057698
0.02376269 -0.0015590909 -0.013729334
-0.0042195432 0.0020045454 -0.013286547
-0.024206853 0.0046772729 -0.013729334
-0.038864214 0.0020045454 -0.013286547
0.017988579 0.00022272726 0.00088266435
-0.020209391 0.0073500001 -0.0088586677
0.043305837 -0.0011136363 -0.0075303046
0.019321065 -0.0073500001 -0.012400971
-0.013546954 -0.00022272726 -2.9113392e-06
0.023318527 0.004231818 -0.01682885
-0.013546954 -0.0028954544 -0.013286547
0.021097716 -0.0073500001 -0.00088848703
0.043305837 0.0011136363 -0.0017740626
-0.027760152 -0.0064590909 -2.9113392e-06
0.031313453 0.0073500001 -0.0062019411
0.043749999 -0.00245 -0.0062019411
-0.043749999 0.004231818 -0.015500486
0.043749999 -0.0020045454 -0.013286547
-0.013546954 -0.0046772729 -0.015057698
-0.037975889 -0.0073500001 -0.0093014557
-0.019321065 0.0051227272 -0.012843759
-0.042861674 -0.00022272726 -0.01461491
0.024651015 0.00022272726 -2.9113392e-06
-0.0077728424 0.00022272726 0.0061961184
0.021541879 0.0055681816 -0.00044569917
0.0033312184 -0.0037863636 -0.012400971
0.01265863 -0.0073500001 -0.012400971
0.02376269 -0.00245 -2.9113392e-06
0.0099936547 -0.0073500001 -2.9113392e-06
0.01088198 0.0073500001 -0.011072607
-0.030425128 0.0073500001 -0.0075303046
0.043749999 -0.00245 -0.017271636
-0.029980965 0.0073500001 -0.0084158806
-0.041085027 0.0073500001 -0.0022168504
0.014879442 0.0060136365 -0.017271636
-0.019321065 -0.0020045454 -0.013286547
0.01088198 0.00022272726 0.0088528451
-0.010437817 -0.0073500001 -0.0022168504
0.036199238 -0.0011136363 -0.013286547
0.0330901 -0.0051227272 -0.018157212
0.01265863 -0.0073500001 -0.003988002
-0.027315989 -0.00022272726 0.0013254521
0.037975889 -0.0060136365 -2.9113392e-06
-0.012214467 -0.0073500001 -0.003545214
-0.026871826 -0.0006681818 -2.9113392e-06
0.041085027 0.0020045454 -0.011072607
-0.033978425 0.0055681816 -0.00044569917
-0.0019987309 0.0073500001 -0.012400971
-0.03086929 0.0037863636 -0.012843759
-0.037531726 0.00022272726 0.0057533304
0.0064403554 0.0073500001 -0.0070875166
0.033534262 -0.003340909 -0.015943274
0.043305837 0.0051227272 -0.01682885
-0.033978425 -0.0037863636 -0.012400971
-0.009549492 0.0069045452 -2.9113392e-06
-0.0073286803 -0.0073500001 -2.9113392e-06
-0.042861674 -0.0006681818 -0.017714424
0.024206853 -0.0073500001 -0.00044569917
0.042861674 0.0006681818 -0.018157212
-0.014879442 -0.0069045452 -0.01682885
0.043305837 0.0051227272 -0.017271636
-0.031757616 -0.0055681816 -0.00044569917
0.0077728424 0.0011136363 -2.9113392e-06
-0.035310913 -0.0073500001 -0.0053163655
0.00066624366 -0.00022272726 0.0013254521
-0.016211929 -0.0020045454 -0.00044569917
-0.014435279 -0.0060136365 -0.015500486
0.031313453 0.0073500001 -0.011515395
-0.042417511 -0.0028954544 -0.017714424
-0.0059961928 -0.0055681816 -0.011072607
-0.0082170051 0.0060136365 -0.00044569917
-0.03086929 0.0073500001 -0.0088586677
0.022430204 0.0073500001 -0.00088848703
-0.036643401 0.0073500001 -0.0075303046
-0.032201778 0.0073500001 -0.01062982
0.0073286803 -0.0073500001 -0.005759153
-0.015767766 0.0073500001 -0.0097442437
-0.032645941 -0.00022272726 -0.011515395
0.017988579 0.0073500001 -0.0017740626
0.036199238 -0.0073500001 -0.0079730926
0.031313453 -0.0055681816 -0.00044569917
0.0042195432 -0.0055681816 -0.013286547
-0.022874365 -0.0051227272 -0.011958183
0.0086611677 -0.00022272726 0.00176824
-0.018876903 0.00022272726 0.0039821793
0.01265863 0.004231818 -0.012400971
-0.0330901 0.004231818 -0.016386062
-0.024206853 -0.0073500001 -0.005759153
-0.042417511 0.0037863636 -0.017714424
-0.0330901 0.0020045454 -0.017714424
0.013991117 0.003340909 -0.015943274
-0.036199238 -0.0011136363 -0.013286547
-0.034422588 -0.0028954544 -0.00044569917
-0.0042195432 -0.003340909 -0.014172122
-0.032645941 0.0073500001 -0.011072607
0.01265863 -0.0006681818 -0.011958183
0.02553934 -0.0051227272 -0.00044569917
-0.017100254 0.0073500001 -0.0022168504
0.011326143 -0.0006681818 -2.9113392e-06
-0.025983503 0.0073500001 -0.0093014557
-0.017988579 -0.00022272726 0.006638906
0.01265863 0.0073500001 -0.0097442437
0.013102792 -0.0073500001 -0.0075303046
0.034422588 0.0073500001 -0.01062982
-0.028648477 -0.0060136365 -2.9113392e-06
-0.036199238 0.0073500001 -0.010187032
-0.035755076 -0.004231818 -0.012843759
-0.02553934 -0.0073500001 -0.0022168504
-0.0091053303 -0.00245 -0.013286547
0.01088198 0.0073500001 -0.0070875166
-0.03486675 -0.0069045452 -0.012843759
0.023318527 0.0073500001 -0.0017740626
0.037531726 0.0069045452 -2.9113392e-06
-0.039752539 -0.0069045452 -0.00044569917
0.038864214 -0.00245 -2.9113392e-06
0.0059961928 -0.00245 -2.9113392e-06
-0.041085027 0.0015590909 -0.012400971
0.012214467 -0.0073500001 -0.0097442437
0.0082170051 -0.00022272726 0.011066784
-0.041973349 0.00022272726 -0.01062982
-0.017100254 0.0055681816 -0.00044569917
-0.028648477 -0.003340909 -2.9113392e-06
0.016211929 0.00022272726 -0.013286547
-0.041529186 0.0051227272 -0.010187032
-0.028648477 -0.0073500001 -0.012400971
0.0330901 -0.0069045452 -0.01461491
0.005107868 -0.0060136365 -0.015057698
-0.043305837 -0.0011136363 -0.0048735775
-0.013546954 -0.0073500001 -0.0026596384
-0.0330901 0.004231818 -0.01682885
0.0037753808 -0.0051227272 -0.010187032
0.041529186 0.0069045452 -0.011072607
-0.042861674 -0.0073500001 -0.011072607
-0.005107868 0.0073500001 -0.00044569917
0.036199238 -0.0073500001 -0.011515395
0.025983503 0.0020045454 -0.00044569917
-0.0073286803 -0.0073500001 -0.0053163655
-0.0086611677 -0.0037863636 -2.9113392e-06
-0.016211929 -0.00245 -0.012843759
-0.010437817 -0.0073500001 -0.0079730926
-0.005107868 0.0069045452 -0.0017740626
-0.019321065 -0.0073500001 -0.012843759
-0.019765228 0.00022272726 0.0039821793
-0.014435279 -0.004231818 -0.017714424
0.029980965 0.00022272726 0.010181209
-0.042417511 0.0055681816 -0.013729334
-0.014879442 0.0055681816 -0.015943274
-0.0028870557 -0.0064590909 -0.00044569917
-0.0330901 -0.0046772729 -0.017271636
-0.0011104061 -0.00022272726 0.00796727
0.013546954 0.0073500001 -0.011958183
-0.041085027 -0.0073500001 -0.0066447291
-0.042417511 -0.0073500001 -0.0044307895
-0.026427666 0.0073500001 -0.012843759
0.0330901 -0.0037863636 -0.017714424
-0.033534262 -0.0015590909 -0.014172122
-0.024206853 -0.0051227272 -0.012400971
-0.017988579 0.0073500001 -0.0088586677
0.0099936547 -0.00022272726 0.0057533304
-0.005107868 0.003340909 -2.9113392e-06
0.043305837 -0.0006681818 -0.0070875166
-0.013991117 0.0064590909 -0.014172122
0.014435279 -0.0073500001 -0.0062019411
-0.031757616 -0.004231818 -0.00044569917
0.033534262 -0.0011136363 -0.011515395
-0.0015545685 0.0028954544 -2.9113392e-06
-0.0064403554 -0.003340909 -0.012843759
-0.014879442 -0.0028954544 -0.012843759
0.0330901 0.0011136363 -0.015057698
0.027315989 0.00022272726 0.007524482
0.022874365 0.0073500001 -0.0084158806
-0.0042195432 0.0064590909 -0.017271636
0.0042195432 0.0006681818 -0.013729334
-0.0059961928 0.00022272726 -0.00044569917
0.0028870557 0.0069045452 -2.9113392e-06
0.014879442 -0.0073500001 -0.005759153
-0.015767766 -0.0060136365 -0.00044569917
0.024206853 -0.0037863636 -0.015500486
0.0033312184 0.00022272726 -0.010187032
0.0042195432 -0.00245 -0.011515395
-0.041085027 0.0073500001 -0.011072607
0.028648477 -0.00022272726 0.007524482
0.0042195432 0.0011136363 -0.01461491
0.0055520306 0.0037863636 -0.01062982
0.024651015 -0.0073500001 -0.0075303046
0.0091053303 0.0073500001 -0.0048735775
-0.032645941 -0.00245 -0.011958183
0.0033312184 0.0073500001 -0.010187032
-0.0086611677 0.00022272726 0.0044249669
0.038864214 0.0055681816 -2.9113392e-06
-0.013991117 0.0015590909 -0.01461491
-0.031757616 0.0015590909 -0.011958183
-0.041973349 0.0015590909 -0.011072607
-0.0086611677 -0.0073500001 -0.003545214
-0.039308377 0.0073500001 -0.0097442437
0.0055520306 0.0020045454 -0.014172122
0.017100254 0.0073500001 -0.003545214
-0.023318527 -0.0020045454 -0.01461491
0.029980965 -0.0073500001 -0.00044569917
0.041085027 -0.0069045452 -0.00044569917
-0.042417511 0.0037863636 -0.01682885
-0.0042195432 -0.004231818 -0.013729334
-0.043749999 0.0055681816 -0.011072607
-0.03086929 0.003340909 -0.00044569917
-0.00022208122 0.0055681816 -2.9113392e-06
-0.0086611677 0.0064590909 -2.9113392e-06
-0.031757616 0.0073500001 -0.0066447291
-0.027315989 0.00022272726 0.00796727
-0.02909264 0.0064590909 -2.9113392e-06
-0.009549492 0.0064590909 -2.9113392e-06
0.00022208122 -0.0015590909 -2.9113392e-06
-0.043749999 0.0060136365 -0.003988002
0.032645941 -0.0006681818 -0.00044569917
-0.00066624366 -0.0060136365 -2.9113392e-06
-0.039752539 0.00022272726 -0.0017740626
0.042417511 0.0064590909 -0.013729334
-0.0330901 -0.0015590909 -0.017714424
0.025095178 0.0073500001 -0.010187032
0.0082170051 0.003340909 -0.013286547
0.0330901 -0.0015590909 -0.013729334
0.037975889 -0.00022272726 0.0044249669
0.013991117 0.00245 -0.017714424
-0.017544417 -0.0073500001 -0.011958183
-0.018876903 0.0073500001 -0.0093014557
0.022430204 -0.0020045454 -0.012400971
-0.041973349 0.0073500001 -0.0022168504
-0.013991117 0.0020045454 -0.018157212
0.032645941 0.0055681816 -0.017714424
-0.0064403554 -0.0060136365 -0.01062982
-0.020653553 -0.0060136365 -0.00044569917
-0.013546954 -0.003340909 -0.012843759
0.033534262 0.0020045454 -0.015057698
-0.029536802 0.00022272726 0.007524482
0.031757616 -0.0073500001 -0.0048735775
0.009549492 0.004231818 -0.013286547
-0.03486675 -0.0073500001 -0.012843759
0.043749999 0.0069045452 -0.016386062
0.027315989 -0.0073500001 -0.0017740626
0.029980965 -0.0046772729 -0.012843759
