# .PCD v0.7 - Point Cloud Data file format
VERSION 0.7
FIELDS x y z
SIZE 4 4 4
TYPE F F F
COUNT 1 1 1
WIDTH 1171
HEIGHT 1
VIEWPOINT 0 0 0 1 0 0 0
POINTS 1171
DATA ascii
0.0049100704 0.0046701995 -0.0061306362
-0.0016366902 0.019006625 -0.0059112725
-0.0057829721 -0.012490069 -0.0061306362
0.0020731408 -0.015748346 -0.0061306362
-0.00054556341 0.015313909 -0.00042718177
-0.0073105493 0.00032582786 -0.0039369999
-0.00032733803 0.014010598 -0.0063499999
-0.0025095916 -0.019658281 -0.0039369999
-0.0040371693 -0.0042357622 -0.0061306362
0.0053465213 -0.011838413 -0.00042718177
-0.0062194229 -0.019223845 -0.0059112725
0.0057829721 -0.019006625 -0.0039369999
-0.0064376481 -0.0085801333 -0.00042718177
-0.0075287749 -0.0064079482 0.0026439091
0.0073105493 0.0087973522 -0.00020781814
0.0046918453 0.0014119208 -0.00042718177
-0.0018549155 0.0096662268 -0.00064654544
0.0057829721 -0.013141724 -0.00042718177
0.00054556341 -0.012490069 -0.00042718177
0.0025095916 0.012924505 -0.00042718177
0.0040371693 -0.0044529806 -0.00042718177
0.0066558733 -0.0061907293 -0.0039369999
-0.0062194229 -0.011403975 -0.00042718177
0.0014184648 0.0079284776 -0.00042718177
-0.0068740989 0.0027152321 -0.0061306362
0.00076378876 0.010317883 -0.0063499999
0.0031642676 -0.0024980137 -0.00042718177
-0.00010911268 -0.0014119208 -0.00042718177
0.0064376481 -0.014010598 -0.0043757274
0.0053465213 -0.0072768223 -0.0052531818
0.0018549155 0.0105351 -0.0061306362
-0.0075287749 0.0090145711 0.0026439091
0.00010911268 -0.0094490079 -0.00042718177
0.0077470001 -0.0024980137 -0.0028401818
0.0038189439 -0.018572189 -0.00064654544
0.0018549155 0.012924505 -0.0061306362
0.0046918453 -0.013358942 -0.00042718177
-0.0042553945 -0.018572189 -0.0050338181
-0.0073105493 0.0072768223 -0.00064654544
-0.0012002395 0.019223845 -0.0030595453
-0.00032733803 -0.0081456965 -0.0063499999
0.0053465213 -0.0024980137 -0.0061306362
-0.00076378876 0.011621194 -0.0063499999
-0.0022913662 -0.018789407 -0.0048144544
0.0060011973 -0.0014119208 -0.0061306362
0.0060011973 -0.019658281 -0.0026208181
-0.0046918453 -0.0011947021 -0.0056919088
-0.0038189439 0.01683444 -0.0061306362
0.0031642676 -0.019223845 -0.00064654544
0.0055647464 0.0085801333 -0.0052531818
-0.0066558733 -0.011186757 -0.0059112725
-0.0018549155 -0.0070596039 -0.00042718177
0.0018549155 -0.011838413 -0.0063499999
-0.0077470001 0.011838413 -0.00042718177
-0.0055647464 -0.0083629154 -0.00042718177
0.00032733803 -0.009231789 -0.00042718177
0.0018549155 -0.013576161 -0.0063499999
-0.0075287749 -0.0059735109 -0.00020781814
0.0044736196 0.018572189 -0.0059112725
0.0057829721 -0.0029324507 -0.00042718177
0.0077470001 -0.00076026504 -0.00020781814
0.0064376481 0.018354969 -0.00064654544
0.0060011973 0.00054304645 -0.00064654544
-0.0036007185 -0.0070596039 -0.0061306362
-0.0016366902 -0.019441063 -0.0030595453
-0.0053465213 -0.011403975 -0.00042718177
-0.0038189439 0.017920533 -0.00042718177
-0.0014184648 0.013141724 -0.00042718177
-0.0053465213 0.01379338 -0.00042718177
0.0075287749 -0.01379338 -0.00020781814
-0.003382493 0.016617222 -0.0061306362
-0.0020731408 -0.0083629154 -0.0061306362
0.0055647464 -0.014010598 -0.00042718177
0.0012002395 -0.019223845 -0.0061306362
0.0057829721 -0.0051046363 -0.0059112725
0.0051282961 -0.0059735109 -0.0052531818
0.0025095916 -0.015965566 -0.0061306362
-0.0070923241 0.0044529806 -0.00042718177
-0.0075287749 0.0096662268 -0.0037176362
0.0049100704 -0.010752319 -0.0061306362
0.0057829721 -0.0096662268 -0.0052531818
0.0018549155 0.0096662268 -0.00042718177
-0.0053465213 0.0087973522 -0.00042718177
0.0031642676 0.0031496694 -0.00042718177
-0.0012002395 0.0094490079 -0.0063499999
-0.0049100704 0.018572189 -0.00064654544
0.002727817 -0.014227817 -0.00042718177
0.0060011973 0.01379338 -0.00042718177
-0.0044736196 0.0072768223 -0.0061306362
-0.0060011973 -0.011838413 -0.0061306362
0.0075287749 0.017268877 -0.0026208181
0.0075287749 -0.011621194 -0.0037176362
0.0038189439 -0.019223845 -0.0061306362
-0.0062194229 -0.01683444 -0.0059112725
-0.0053465213 -0.0048874179 -0.0059112725
-0.0068740989 -0.011186757 -0.00064654544
-0.0077470001 -0.0064079482 -0.00064654544
-0.0018549155 -0.015531128 -0.0061306362
-0.0044736196 0.0090145711 -0.00064654544
-0.0022913662 0.0029324507 -0.00042718177
0.0064376481 0.010317883 -0.00064654544
0.0060011973 0.0087973522 -0.0061306362
0.0051282961 0.0046701995 -0.0043757274
-0.0077470001 0.015748346 -0.00086590904
0.0073105493 0.0011947021 -0.00042718177
0.0029460422 0.0031496694 -0.00042718177
0.0016366902 0.0040185438 -0.00042718177
0.0077470001 0.014879473 -0.0017433636
0.0046918453 -0.015313909 -0.00042718177
-0.0025095916 -0.015748346 -0.00042718177
-0.0075287749 0.017486095 -0.0019627272
0.0060011973 -0.0081456965 -0.0039369999
0.0012002395 -0.017051658 -0.0061306362
-0.0068740989 -0.018354969 -0.0010852726
0.0077470001 -0.013576161 -0.0021820909
0.0068740989 0.017703313 -0.0039369999
-0.0077470001 0.002280795 -0.0030595453
0.0057829721 -0.010100664 -0.0061306362
0.0064376481 -0.0057562925 -0.0039369999
-0.002727817 -0.0016291393 -0.00042718177
0.0073105493 -0.002280795 -0.00064654544
0.0012002395 -0.0074940408 -0.0063499999
0.0057829721 0.0053218552 -0.0061306362
-0.0077470001 0.0072768223 -0.003278909
-0.0016366902 0.014227817 -0.00042718177
-0.00032733803 -0.019441063 -0.0052531818
-0.00076378876 -0.0048874179 -0.0063499999
-0.0046918453 0.0090145711 -0.0061306362
0.00076378876 -0.017268877 -0.00064654544
0.0068740989 -0.014227817 -0.0039369999
-0.0049100704 0.0020635764 -0.0052531818
-0.0064376481 0.01379338 -0.00064654544
-0.0022913662 0.0040185438 -0.0061306362
0.0029460422 0.012055631 -0.00042718177
-0.0062194229 -0.0094490079 -0.0041563637
0.003382493 0.014662254 -0.00042718177
0.0073105493 0.016182784 -0.0034982727
-0.0070923241 -0.0072768223 -0.00086590904
-0.0055647464 -0.0098834448 -0.0061306362
0.00010911268 -0.019223845 -0.0041563637
0.0062194229 0.002280795 -0.0041563637
-0.0066558733 0.013141724 -0.0059112725
-0.0077470001 -0.0014119208 0.00088900002
0.0014184648 -0.012055631 -0.00042718177
0.0051282961 -0.0077112596 -0.00042718177
-0.0077470001 -0.01227285 -0.0010852726
-0.0036007185 -0.0040185438 -0.00042718177
-0.0051282961 0.0087973522 -0.0061306362
-0.002727817 0.014662254 -0.00042718177
-0.0038189439 0.0055390736 -0.0061306362
-0.003382493 0.019658281 -0.0039369999
0.0070923241 0.018354969 -0.001524
0.0077470001 -0.0040185438 -0.0028401818
-0.0064376481 -0.019006625 -0.00064654544
-0.0031642676 -0.00097748358 -0.00042718177
0.0077470001 -0.0057562925 -0.0024014544
-0.0049100704 -0.019658281 -0.0021820909
0.0077470001 -0.01227285 -0.0019627272
0.0068740989 -0.014010598 -0.00064654544
-0.0055647464 -0.002280795 -0.0061306362
-0.0040371693 -0.003366888 -0.0061306362
0.0075287749 -0.0087973522 0.0026439091
0.00098201411 0.0031496694 -0.00042718177
0.00054556341 -0.019223845 -0.0050338181
-0.003382493 0.0040185438 -0.00064654544
-0.0020731408 0.01683444 -0.0061306362
-0.0018549155 0.018572189 -0.0061306362
0.0057829721 -0.0053218552 -0.00042718177
0.0053465213 0.00097748358 -0.00042718177
0.0077470001 -0.0072768223 -0.0010852726
-0.0073105493 -0.016617222 -0.003278909
-0.0042553945 0.019658281 -0.0028401818
0.002727817 0.0077112596 -0.00042718177
-0.0031642676 -0.011621194 -0.00042718177
-0.0014184648 -0.0016291393 -0.00042718177
-0.0077470001 -0.0014119208 0.00023090912
0.0064376481 -0.018572189 -0.0041563637
0.0055647464 -0.014879473 -0.0061306362
-0.0036007185 0.019658281 -0.0037176362
0.0014184648 -0.0079284776 -0.00042718177
0.0025095916 -0.0064079482 -0.00042718177
0.0031642676 -0.018789407 -0.0045950906
0.0066558733 0.0085801333 -0.00042718177
-0.0077470001 0.0085801333 -0.00064654544
-0.0077470001 -0.0064079482 0.0017664545
-0.0036007185 0.014662254 -0.0061306362
-0.0060011973 -0.0051046363 -0.0059112725
-0.0062194229 -0.0066251666 -0.0041563637
0.00054556341 -0.0061907293 -0.00042718177
0.0077470001 -0.0081456965 -0.0013046364
-0.0077470001 -0.0061907293 -0.003278909
-0.0053465213 0.0040185438 -0.0050338181
0.00076378876 -0.0198755 -0.0052531818
0.0066558733 0.019441063 -0.0019627272
0.0077470001 -0.015313909 -0.0017433636
0.0077470001 -0.0029324507 -0.0017433636
-0.0062194229 -0.0079284776 -0.00042718177
0.00054556341 -0.0081456965 -0.0063499999
-0.0075287749 0.017268877 -0.00086590904
0.0075287749 0.0087973522 0.00088900002
0.0040371693 0.016400002 -0.0061306362
0.0055647464 0.0087973522 -0.0061306362
-0.0064376481 -0.019006625 -0.0056919088
0.002727817 -0.011838413 -0.0063499999
-0.0018549155 0.014227817 -0.00042718177
-0.0051282961 0.0040185438 -0.0043757274
0.0066558733 -0.016400002 -0.0043757274
0.0038189439 0.018354969 -0.0061306362
0.0016366902 0.011838413 -0.0061306362
0.0066558733 0.012707287 -0.00064654544
-0.0068740989 0.0085801333 -0.0039369999
-0.0064376481 -0.011403975 -0.0059112725
-0.0049100704 -0.018137751 -0.00064654544
0.0073105493 -0.017920533 -0.0024014544
-0.003382493 -0.015531128 -0.0061306362
-0.0057829721 0.0040185438 -0.0041563637
0.0057829721 0.015313909 -0.00042718177
-0.0070923241 -0.016617222 -0.0037176362
-0.0040371693 -0.00054304645 -0.0061306362
-0.0055647464 -0.011186757 -0.00042718177
-0.0022913662 0.0085801333 -0.00042718177
0.0018549155 0.018572189 -0.0061306362
-0.0020731408 0.012055631 -0.00042718177
-0.0020731408 0.0055390736 -0.00042718177
0.0029460422 0.016617222 -0.00042718177
-0.0038189439 0.0081456965 -0.00042718177
0.0077470001 -0.011838413 -0.0030595453
0.0057829721 0.0070596039 -0.0061306362
-0.0077470001 0.0094490079 -0.00086590904
0.0075287749 0.0072768223 -0.0037176362
0.0018549155 -0.0198755 -0.0059112725
0.0046918453 -0.018789407 -0.00064654544
0.0077470001 -0.00032582786 -0.00064654544
0.0068740989 0.011838413 -0.00042718177
0.0062194229 -0.010317883 -0.0054725455
0.0068740989 -0.0048874179 -0.00064654544
0.0077470001 -0.0048874179 -0.0013046364
0.0049100704 0.0042357622 -0.0050338181
0.0070923241 -0.0018463579 -0.0039369999
0.00010911268 0.013141724 -0.0061306362
-0.0036007185 0.0051046363 -0.0061306362
-0.0075287749 -0.011403975 0.0011083636
0.0068740989 -0.019223845 -0.0034982727
0.00010911268 -0.019441063 -0.0061306362
0.0055647464 0.013358942 -0.00042718177
-0.00010911268 0.0016291393 -0.0063499999
0.0062194229 -0.0105351 -0.0056919088
0.0077470001 0.013141724 -0.0037176362
-0.0018549155 -0.015096691 -0.0061306362
0.0064376481 0.014010598 -0.0048144544
0.00032733803 -0.011621194 -0.0063499999
-0.0055647464 -0.0070596039 -0.0043757274
0.00054556341 0.0061907293 -0.0063499999
0.0025095916 0.0077112596 -0.0061306362
-0.0077470001 -0.0094490079 -0.0034982727
0.0012002395 0.0070596039 -0.0063499999
0.0068740989 0.018354969 -0.0041563637
0.0042553945 0.019223845 -0.00064654544
0.0064376481 0.0038013251 -0.00042718177
0.0075287749 -0.0016291393 -0.00020781814
-0.0036007185 -0.010969538 -0.00042718177
-0.0014184648 -0.018789407 -0.0061306362
-0.0062194229 -0.0055390736 -0.0041563637
0.0077470001 0.0046701995 -0.0024014544
0.0057829721 0.0090145711 -0.00042718177
-0.0075287749 -0.013141724 -0.00042718177
-0.0066558733 -0.0072768223 -0.0059112725
-0.0018549155 0.00097748358 -0.0063499999
-0.0025095916 0.006842385 -0.00064654544
0.0064376481 0.019441063 -0.0010852726
-0.0077470001 0.0066251666 -0.0010852726
0.0057829721 -0.0198755 -0.0039369999
0.0060011973 -0.0074940408 -0.0059112725
-0.0068740989 -0.019223845 -0.0026208181
0.0014184648 0.019223845 -0.0043757274
-0.0020731408 -0.01227285 -0.00042718177
0.0075287749 0.00054304645 -0.00042718177
-0.0068740989 -0.0074940408 -0.0039369999
-0.0029460422 -0.0094490079 -0.00042718177
0.0077470001 -0.010317883 -0.0019627272
0.0038189439 -0.015096691 -0.0061306362
0.0044736196 -0.00010860929 -0.0061306362
-0.0044736196 0.016182784 -0.0061306362
-0.0077470001 0.0074940408 -0.0010852726
0.0073105493 -0.018137751 -0.0026208181
0.0077470001 -0.0031496694 -0.0019627272
0.0077470001 0.0027152321 -0.00086590904
0.00076378876 0.009231789 -0.0063499999
0.0077470001 -0.012924505 -0.003278909
-0.003382493 0.0044529806 -0.0061306362
-0.0055647464 0.002280795 -0.0041563637
-0.0073105493 -0.012924505 -0.00064654544
-0.0077470001 -0.010100664 -0.0024014544
0.0053465213 -0.0083629154 -0.00042718177
-0.002727817 -0.019441063 -0.0041563637
-0.0040371693 0.018789407 -0.0061306362
-0.0060011973 -0.011403975 -0.0059112725
0.0025095916 0.014662254 -0.0061306362
-0.0060011973 0.0031496694 -0.0061306362
0.002727817 0.003366888 -0.0061306362
-0.0022913662 0.00054304645 -0.0063499999
0.0020731408 0.018137751 -0.0061306362
-0.0029460422 0.0020635764 -0.0061306362
-0.0057829721 -0.0098834448 -0.0054725455
0.0077470001 -0.014445036 -0.0010852726
-0.0036007185 -0.00032582786 -0.00064654544
-0.0031642676 0.019223845 -0.00064654544
-0.0060011973 0.0014119208 -0.0041563637
0.00054556341 -0.018354969 -0.0061306362
-0.0077470001 0.015313909 -0.0028401818
-0.0046918453 0.0051046363 -0.00064654544
0.00098201411 -0.011186757 -0.00042718177
0.0042553945 0.0072768223 -0.0061306362
-0.0077470001 -0.0014119208 0.0019858181
0.0077470001 0.0051046363 -0.003278909
-0.0057829721 0.0090145711 -0.0048144544
0.0040371693 0.0072768223 -0.00042718177
0.00098201411 0.014227817 -0.0061306362
-0.00076378876 0.0094490079 -0.0063499999
-0.0064376481 -0.009231789 -0.00042718177
0.0031642676 0.017703313 -0.0061306362
0.0077470001 -0.0094490079 -0.0037176362
-0.0053465213 0.0029324507 -0.00042718177
-0.003382493 -0.0048874179 -0.00042718177
0.0064376481 -0.0085801333 -0.0059112725
0.0038189439 0.0061907293 -0.00042718177
-0.0064376481 -0.012490069 -0.0043757274
0.002727817 -0.019223845 -0.0024014544
0.0025095916 -0.002280795 -0.00042718177
-0.0073105493 0.018354969 -0.0024014544
0.0038189439 0.017268877 -0.00042718177
-0.0012002395 -0.019441063 -0.0039369999
-0.0055647464 -0.0079284776 -0.0059112725
-0.0073105493 -0.017920533 -0.0017433636
-0.00010911268 0.011186757 -0.00042718177
-0.0042553945 0.014227817 -0.0061306362
-0.0073105493 -0.017486095 -0.00086590904
-0.0077470001 -0.011621194 -0.001524
0.0062194229 0.0096662268 -0.0056919088
0.00010911268 0.010317883 -0.0063499999
0.0042553945 0.014662254 -0.0061306362
-0.0044736196 -0.0016291393 -0.00042718177
-0.0040371693 -0.015748346 -0.0061306362
-0.0049100704 -0.01683444 -0.00042718177
0.0046918453 -0.019006625 -0.0061306362
-0.0070923241 -0.0090145711 -0.0039369999
-0.0064376481 0.0011947021 -0.00042718177
0.0016366902 -0.0024980137 -0.00042718177
-0.0049100704 0.019658281 -0.0037176362
-0.0012002395 -0.0077112596 -0.00042718177
0.0066558733 0.0038013251 -0.0061306362
0.002727817 0.015313909 -0.0061306362
0.0014184648 0.018789407 -0.0048144544
0.0075287749 -0.0064079482 -0.0037176362
0.0040371693 -0.0087973522 -0.0061306362
0.0022913662 -0.014010598 -0.00042718177
0.0046918453 -0.0072768223 -0.00042718177
-0.0055647464 -0.0198755 -0.0030595453
0.0064376481 0.00076026504 -0.0039369999
0.0066558733 0.0077112596 -0.00064654544
0.0042553945 -0.010752319 -0.00042718177
0.0051282961 -0.011403975 -0.00042718177
-0.0077470001 -0.015531128 -0.0026208181
-0.0064376481 0.006842385 -0.0059112725
-0.0012002395 -0.01683444 -0.0061306362
-0.0077470001 -0.003366888 -0.001524
0.0077470001 0.013576161 -0.0034982727
-0.0040371693 0.010317883 -0.00042718177
0.0025095916 0.019006625 -0.0043757274
0.0066558733 -0.015748346 -0.0043757274
-0.0040371693 0.0081456965 -0.0061306362
-0.0057829721 0.013141724 -0.00042718177
-0.0053465213 -0.010317883 -0.00042718177
-0.0066558733 0.010752319 -0.0056919088
-0.0051282961 0.017920533 -0.00042718177
-0.003382493 -0.00010860929 -0.00042718177
-0.0053465213 0.010317883 -0.00042718177
0.0018549155 0.0070596039 -0.00042718177
-0.0064376481 0.00010860929 -0.0039369999
0.0077470001 -0.010752319 -0.0021820909
-0.0077470001 -0.0079284776 -0.0028401818
-0.00010911268 0.019223845 -0.0045950906
0.0012002395 0.0083629154 -0.00042718177
-0.0073105493 0.014010598 -0.0037176362
0.0044736196 -0.0059735109 -0.0061306362
-0.0077470001 -0.0081456965 -0.0030595453
0.00010911268 -0.0027152321 -0.0063499999
0.0066558733 -0.019006625 -0.00086590904
0.00054556341 -0.006842385 -0.0063499999
0.0014184648 -0.0061907293 -0.00042718177
-0.00032733803 0.0014119208 -0.00064654544
-0.0075287749 -0.0038013251 0.0022051819
-0.0046918453 -0.014227817 -0.0061306362
0.0070923241 0.0048874179 -0.00064654544
0.0042553945 -0.003366888 -0.00042718177
0.00010911268 -0.017703313 -0.0061306362
-0.00032733803 0.0016291393 -0.00042718177
0.0025095916 0.018572189 -0.0059112725
-0.0018549155 -0.019441063 -0.0024014544
-0.0038189439 0.011621194 -0.0061306362
-0.0051282961 -0.00097748358 -0.0061306362
0.0075287749 0.014662254 -0.0034982727
-0.0073105493 0.0011947021 -0.0039369999
0.0066558733 -0.016400002 -0.0050338181
-0.0060011973 -0.0057562925 -0.0059112725
0.0042553945 -0.0044529806 -0.0061306362
0.0014184648 -0.0085801333 -0.00042718177
-0.0062194229 -0.0031496694 -0.00042718177
0.0077470001 -0.0048874179 -0.0028401818
-0.0020731408 -0.018789407 -0.00064654544
-0.0062194229 -0.0057562925 -0.0041563637
0.0055647464 -0.0044529806 -0.00042718177
-0.0022913662 0.015748346 -0.0061306362
0.0016366902 0.0055390736 -0.0063499999
0.0077470001 -0.0048874179 -0.0037176362
-0.0062194229 -0.013358942 -0.0052531818
0.0064376481 -0.0044529806 -0.0061306362
-0.00098201411 0.0040185438 -0.00042718177
0.0016366902 0.011186757 -0.00042718177
-0.0068740989 0.0072768223 -0.0039369999
0.0062194229 0.0198755 -0.0034982727
-0.0060011973 0.0090145711 -0.0050338181
-0.002727817 0.015313909 -0.00042718177
-0.0022913662 -0.018137751 -0.00042718177
-0.0018549155 -0.011621194 -0.0061306362
-0.0051282961 0.0083629154 -0.0061306362
0.0077470001 -0.0061907293 -0.0021820909
0.0070923241 -0.015748346 -0.00064654544
0.0012002395 -0.0024980137 -0.0063499999
0.0053465213 0.012490069 -0.0061306362
-0.0075287749 -0.0027152321 -0.0037176362
-0.0062194229 -0.018572189 -0.0056919088
0.0022913662 0.010100664 -0.0061306362
-0.0022913662 -0.019006625 -0.0056919088
0.00098201411 0.019441063 -0.0056919088
0.00010911268 0.011838413 -0.00042718177
-0.0077470001 -0.010317883 -0.003278909
-0.003382493 -0.0066251666 -0.0061306362
-0.0060011973 0.00054304645 -0.0061306362
-0.00098201411 -0.018572189 -0.00064654544
0.0036007185 0.0059735109 -0.0061306362
-0.0068740989 0.019223845 -0.0019627272
0.0029460422 -0.011403975 -0.0063499999
-0.0051282961 -0.015965566 -0.00064654544
0.00054556341 -0.010969538 -0.0063499999
0.0040371693 -0.0074940408 -0.0061306362
-0.0025095916 0.0042357622 -0.0061306362
-0.0057829721 -0.0094490079 -0.00042718177
-0.0077470001 -0.003366888 -0.00064654544
-0.0055647464 -0.0087973522 -0.0052531818
-0.0057829721 0.0046701995 -0.0061306362
0.0077470001 -0.0011947021 -0.0021820909
-0.0073105493 0.0090145711 -0.0037176362
0.0044736196 -0.0085801333 -0.00042718177
-0.0031642676 0.0098834448 -0.0061306362
0.00010911268 0.00054304645 -0.0063499999
-0.00076378876 0.018137751 -0.00064654544
-0.00010911268 0.0035841065 -0.00042718177
-0.0077470001 -0.010969538 -0.001524
0.0062194229 0.014662254 -0.0061306362
-0.0025095916 -0.00010860929 -0.0061306362
-0.0066558733 -0.015748346 -0.0059112725
0.0062194229 -0.016617222 -0.00042718177
0.00054556341 0.0042357622 -0.00042718177
-0.0055647464 -0.0053218552 -0.0043757274
-0.0070923241 -0.018572189 -0.0024014544
0.0073105493 -0.012707287 -0.0037176362
-0.0053465213 -0.0061907293 -0.0045950906
-0.00010911268 0.019223845 -0.0041563637
0.0051282961 -0.0066251666 -0.0050338181
-0.0053465213 0.0105351 -0.00042718177
-0.0055647464 -0.0083629154 -0.0061306362
-0.0062194229 0.018572189 -0.0050338181
0.0077470001 -0.011186757 -0.0028401818
-0.00054556341 -0.014662254 -0.0061306362
0.0022913662 0.0055390736 -0.0061306362
-0.0020731408 0.0042357622 -0.00042718177
0.0064376481 0.017051658 -0.0056919088
0.0051282961 -0.010100664 -0.0061306362
-0.00054556341 -0.0061907293 -0.00042718177
0.0075287749 0.015313909 -0.00064654544
-0.0077470001 -0.0044529806 -0.00064654544
0.0022913662 0.0081456965 -0.0061306362
-0.0077470001 -0.0053218552 -0.0017433636
0.0077470001 -0.0040185438 -0.0017433636
0.0068740989 -0.015965566 -0.0039369999
0.0077470001 0.0040185438 -0.0026208181
-0.0020731408 0.0055390736 -0.0063499999
0.0066558733 -0.017051658 -0.00064654544
-0.0036007185 -0.0105351 -0.00042718177
0.0057829721 0.0044529806 -0.0059112725
-0.0029460422 0.013141724 -0.0063499999
-0.00054556341 -0.016617222 -0.0061306362
0.0077470001 -0.00076026504 -0.001524
-0.0053465213 -0.018354969 -0.0052531818
-0.0077470001 -0.011403975 -0.0024014544
-0.002727817 -0.0046701995 -0.00042718177
0.0049100704 0.012055631 -0.0061306362
0.0077470001 0.0048874179 -0.0013046364
-0.0077470001 0.009231789 -0.0024014544
-0.0055647464 -0.0011947021 -0.00042718177
-0.00098201411 0.012707287 -0.00042718177
0.0077470001 -0.0020635764 -0.0013046364
0.0040371693 0.0079284776 -0.0061306362
0.0066558733 0.016182784 -0.00064654544
-0.0055647464 -0.0059735109 -0.0061306362
0.0044736196 -0.019441063 -0.0041563637
0.0064376481 0.016617222 -0.0056919088
-0.0046918453 0.0070596039 -0.00042718177
0.0064376481 -0.014010598 -0.0061306362
0.0057829721 0.0098834448 -0.0059112725
-0.0053465213 0.00032582786 -0.0061306362
-0.0014184648 -0.019223845 -0.0048144544
0.003382493 -0.0055390736 -0.00042718177
0.0044736196 -0.0040185438 -0.0061306362
0.0040371693 -0.012055631 -0.00042718177
0.0051282961 0.017268877 -0.00042718177
0.0031642676 -0.014227817 -0.00042718177
0.0073105493 0.017920533 -0.003278909
0.0018549155 0.013358942 -0.0061306362
-0.0073105493 0.018572189 -0.0024014544
-0.00054556341 0.00076026504 -0.0063499999
0.0012002395 0.0090145711 -0.00042718177
0.0014184648 -0.015965566 -0.0061306362
-0.003382493 0.019006625 -0.0050338181
0.0064376481 -0.0087973522 -0.00042718177
-0.0066558733 0.018572189 -0.0045950906
-0.0040371693 0.016400002 -0.0061306362
0.0077470001 0.0014119208 -0.001524
0.0029460422 0.0072768223 -0.0061306362
-0.0075287749 -0.0064079482 0.00023090912
-0.0046918453 0.017268877 -0.00042718177
0.0051282961 -0.016400002 -0.0061306362
0.0022913662 0.00054304645 -0.00042718177
0.0025095916 -0.012490069 -0.00042718177
0.0066558733 0.013141724 -0.0059112725
-0.0051282961 0.00054304645 -0.0052531818
-0.0029460422 0.0105351 -0.00042718177
0.0077470001 -0.0066251666 -0.0010852726
-0.0036007185 0.0046701995 -0.00064654544
0.0077470001 0.0031496694 -0.0026208181
0.0031642676 -0.0096662268 -0.0061306362
-0.0051282961 0.0040185438 -0.0061306362
0.0075287749 -0.010969538 -0.00020781814
0.0042553945 -0.019441063 -0.0043757274
0.0014184648 -0.015748346 -0.00042718177
0.00032733803 0.010752319 -0.00042718177
-0.00032733803 0.013358942 -0.0063499999
-0.0053465213 -0.019223845 -0.0056919088
-0.00054556341 0.010100664 -0.00064654544
-0.00010911268 0.0053218552 -0.0063499999
0.0022913662 0.017268877 -0.0061306362
0.0055647464 -0.006842385 -0.0041563637
0.0077470001 -0.014010598 1.1545489e-05
0.0014184648 0.0014119208 -0.00042718177
-0.0020731408 -0.018572189 -0.00064654544
-0.00054556341 -0.010317883 -0.0061306362
0.00098201411 -0.0074940408 -0.0063499999
0.0070923241 -0.017703313 -0.0034982727
0.0051282961 0.0027152321 -0.00064654544
-0.0018549155 0.00076026504 -0.00042718177
0.0046918453 0.00097748358 -0.0043757274
-0.0046918453 -0.0020635764 -0.0056919088
0.0049100704 -0.003366888 -0.0054725455
0.003382493 -0.0096662268 -0.00042718177
-0.003382493 -0.019441063 -0.0054725455
-0.0060011973 -0.019006625 -0.00064654544
-0.00010911268 0.0018463579 -0.0063499999
-0.0068740989 -0.0051046363 -0.0039369999
0.0055647464 0.019223845 -0.00064654544
0.0014184648 0.0051046363 -0.0063499999
0.0066558733 0.012055631 -0.0059112725
-0.0014184648 0.0083629154 -0.00042718177
-0.0031642676 -0.010100664 -0.0061306362
-0.0049100704 0.012707287 -0.00042718177
-0.0077470001 0.010969538 -0.00020781814
0.0060011973 0.019441063 -0.00064654544
0.0046918453 -0.0038013251 -0.0045950906
-0.00076378876 0.0087973522 -0.0063499999
-0.0068740989 -0.0042357622 -0.0059112725
-0.00076378876 -0.017920533 -0.00064654544
-0.00098201411 -0.019223845 -0.0028401818
-0.00098201411 -0.019441063 -0.0052531818
-0.00054556341 -0.0044529806 -0.0063499999
-0.00076378876 0.01379338 -0.00042718177
-0.0066558733 -0.0042357622 -0.0061306362
0.0018549155 -0.0061907293 -0.00042718177
-0.0042553945 -0.018137751 -0.00064654544
-0.00032733803 -0.016617222 -0.00042718177
0.0046918453 0.018572189 -0.00064654544
-0.0055647464 0.012490069 -0.00042718177
-0.00032733803 -0.0011947021 -0.0063499999
-0.0040371693 -0.011186757 -0.0061306362
0.0053465213 0.0014119208 -0.00042718177
0.0038189439 -0.0024980137 -0.0061306362
0.0066558733 -0.0079284776 -0.00064654544
0.0064376481 -0.019223845 -0.0052531818
0.00098201411 -0.01379338 -0.0063499999
0.0060011973 0.016182784 -0.00042718177
-0.00054556341 -0.014879473 -0.0061306362
-0.0020731408 0.002280795 -0.00042718177
0.0077470001 -0.0074940408 -0.00042718177
-0.0046918453 0.0096662268 -0.0061306362
0.00010911268 -0.016617222 -0.00042718177
-0.0064376481 -0.019658281 -0.0021820909
-0.003382493 -0.018789407 -0.0056919088
-0.00054556341 0.01227285 -0.00042718177
0.0020731408 0.018354969 -0.0061306362
-0.0044736196 0.0031496694 -0.00042718177
-0.0077470001 0.012055631 -0.00042718177
-0.0060011973 -0.0061907293 -0.0041563637
-0.0025095916 -0.0014119208 -0.00042718177
0.0038189439 0.0057562925 -0.0061306362
0.0077470001 0.009231789 -0.0030595453
0.0062194229 -0.01227285 -0.00042718177
-0.0012002395 0.019223845 -0.0050338181
-0.0075287749 -0.015531128 -0.003278909
0.00098201411 -0.0029324507 -0.0063499999
-0.0068740989 0.002280795 -0.0061306362
-0.0070923241 -0.018137751 -0.0037176362
-0.00098201411 0.0098834448 -0.00042718177
0.0040371693 -0.012055631 -0.0061306362
-0.0053465213 0.0098834448 -0.00042718177
0.0046918453 0.0024980137 -0.0043757274
-0.0077470001 -0.0020635764 -0.0034982727
-0.0064376481 0.016182784 -0.0059112725
0.0060011973 -0.0027152321 -0.0061306362
-0.0036007185 0.0094490079 -0.00042718177
-0.0025095916 -0.011621194 -0.00042718177
0.0046918453 0.003366888 -0.0048144544
-0.00010911268 -0.00010860929 -0.0063499999
0.0057829721 0.00010860929 -0.0061306362
0.0064376481 -0.0011947021 -0.00042718177
-0.0064376481 -0.00010860929 -0.00064654544
0.0025095916 -0.0090145711 -0.0063499999
0.0062194229 0.017268877 -0.00064654544
0.003382493 0.006842385 -0.0061306362
-0.0036007185 -0.011838413 -0.00042718177
0.0062194229 -0.0090145711 -0.0059112725
-0.0022913662 -0.018572189 -0.0061306362
-0.0077470001 -0.010100664 -0.0019627272
-0.0073105493 0.017486095 -0.00064654544
0.0066558733 -0.013358942 -0.0054725455
-0.00032733803 0.019223845 -0.001524
-0.0077470001 0.0098834448 -0.0021820909
0.0025095916 -0.0085801333 -0.0063499999
-0.0064376481 0.00054304645 -0.0039369999
0.0018549155 -0.009231789 -0.0063499999
-0.0064376481 0.0066251666 -0.0039369999
0.0066558733 -0.010752319 -0.00064654544
-0.0055647464 0.003366888 -0.0061306362
-0.0077470001 0.015313909 -0.00086590904
-0.0077470001 -0.014879473 -0.0017433636
0.0044736196 -0.0018463579 -0.0061306362
0.0057829721 0.010100664 -0.0052531818
-0.0055647464 -0.0042357622 -0.0061306362
0.002727817 0.00054304645 -0.00042718177
0.0064376481 -0.0094490079 -0.0039369999
0.00010911268 -0.019223845 -0.0026208181
-0.0077470001 -0.011838413 -0.0028401818
0.0057829721 0.0081456965 -0.0043757274
0.00010911268 -0.010752319 -0.00042718177
-0.00076378876 -0.014227817 -0.00042718177
-0.0073105493 0.018137751 -0.0030595453
0.0014184648 0.0024980137 -0.00042718177
-0.0016366902 0.013141724 -0.0063499999
-0.00098201411 -0.01379338 -0.00042718177
0.0077470001 -0.003366888 -0.0034982727
0.0062194229 0.0061907293 -0.0041563637
-0.00098201411 -0.012707287 -0.0061306362
0.0031642676 0.012707287 -0.00042718177
-0.0051282961 -0.0064079482 -0.0052531818
-0.0029460422 -0.019223845 -0.0061306362
0.0060011973 -0.019658281 -0.0034982727
0.0073105493 -0.011186757 -0.00042718177
0.0029460422 0.003366888 -0.00064654544
-0.0029460422 0.009231789 -0.00042718177
0.0073105493 -0.018354969 -0.0026208181
0.0016366902 0.014662254 -0.0061306362
-0.0077470001 -0.014662254 -0.00042718177
0.0055647464 -0.019441063 -0.0054725455
0.0022913662 -0.0085801333 -0.00042718177
0.0049100704 0.0040185438 -0.0050338181
-0.0060011973 -0.0042357622 -0.00042718177
0.0057829721 0.0087973522 -0.0043757274
0.0042553945 -0.014879473 -0.00042718177
0.0066558733 0.017051658 -0.0054725455
-0.0077470001 -0.010969538 -0.00042718177
0.0077470001 -0.003366888 -0.001524
0.0077470001 -0.0048874179 -0.0026208181
0.0057829721 0.0059735109 -0.0059112725
-0.0064376481 -0.01683444 -0.00042718177
-0.0066558733 -0.0079284776 -0.0059112725
0.0064376481 -0.017268877 -0.0056919088
0.0016366902 0.018572189 -0.0061306362
0.0051282961 -0.011621194 -0.00042718177
0.0022913662 0.013141724 -0.0061306362
0.0053465213 0.011403975 -0.0061306362
0.0014184648 -0.01227285 -0.0063499999
0.0016366902 -0.0077112596 -0.00042718177
-0.003382493 0.00076026504 -0.00042718177
-0.0044736196 -0.0064079482 -0.0061306362
-0.0075287749 -0.017486095 -0.0013046364
0.0057829721 -0.0018463579 -0.0061306362
0.00032733803 -0.0081456965 -0.00042718177
-0.0077470001 -0.0059735109 -0.0026208181
-0.0044736196 -0.017703313 -0.00042718177
0.0046918453 0.00032582786 -0.00064654544
-0.0055647464 0.0040185438 -0.0041563637
0.0036007185 0.018572189 -0.0056919088
-0.00010911268 0.011838413 -0.0063499999
0.0077470001 0.0105351 -0.0013046364
-0.0066558733 0.0077112596 -0.0059112725
-0.0038189439 -0.015531128 -0.0061306362
0.0051282961 0.0038013251 -0.00042718177
-0.0066558733 0.015965566 -0.00064654544
0.0031642676 0.019658281 -0.0034982727
0.0018549155 -0.0031496694 -0.0061306362
0.0077470001 0.014445036 -0.0017433636
0.0066558733 0.013358942 -0.0056919088
0.0029460422 0.00097748358 -0.0061306362
0.0031642676 0.015531128 -0.0061306362
0.0018549155 -0.01379338 -0.0063499999
-0.0012002395 -0.014662254 -0.00042718177
-0.0073105493 0.018354969 -0.0017433636
0.002727817 0.0046701995 -0.0061306362
-0.0046918453 0.019441063 -0.0019627272
-0.0029460422 0.015531128 -0.0063499999
-0.0036007185 -0.014879473 -0.0061306362
-0.0018549155 0.0046701995 -0.0063499999
-0.00032733803 -0.00076026504 -0.0063499999
0.00054556341 0.0098834448 -0.0063499999
0.0049100704 0.0042357622 -0.0048144544
-0.00032733803 -0.019223845 -0.0024014544
0.0077470001 0.0040185438 -0.00042718177
0.0077470001 0.0064079482 -0.0019627272
0.0077470001 -0.0031496694 -0.0021820909
-0.0012002395 -0.019223845 -0.00086590904
0.0077470001 0.014010598 -0.00020781814
0.0057829721 -0.010752319 -0.00042718177
0.0055647464 0.015313909 -0.00042718177
-0.0068740989 -0.012055631 -0.00042718177
0.00076378876 -0.019006625 -0.00086590904
0.00032733803 0.0057562925 -0.00042718177
-0.00098201411 0.0011947021 -0.00042718177
-0.0077470001 0.015965566 -0.0013046364
-0.0066558733 0.010317883 -0.0039369999
-0.00098201411 -0.019223845 -0.0043757274
0.0051282961 -0.0011947021 -0.0041563637
0.0020731408 -0.018572189 -0.00064654544
-0.0062194229 0.0079284776 -0.0061306362
-0.0020731408 -0.0087973522 -0.0061306362
-0.0060011973 -0.0094490079 -0.0059112725
-0.0077470001 -0.013358942 -0.00064654544
-0.0075287749 0.01683444 -0.00064654544
-0.00032733803 0.014227817 -0.00042718177
0.0077470001 -0.014227817 -0.0026208181
0.00010911268 0.014227817 -0.00042718177
-0.0075287749 0.0016291393 -0.0037176362
0.0077470001 -0.010100664 -0.00042718177
0.0038189439 0.009231789 -0.00042718177
-0.0077470001 0.0035841065 -0.0026208181
0.0068740989 -0.018354969 -0.0034982727
0.0077470001 -0.0059735109 -0.0019627272
-0.0029460422 0.017268877 -0.00064654544
0.0038189439 -0.0094490079 -0.00042718177
-0.0042553945 -0.012490069 -0.0061306362
0.0036007185 -0.01379338 -0.00042718177
-0.0070923241 0.0074940408 -0.0039369999
0.0020731408 -0.019658281 -0.0061306362
-0.0012002395 -0.011186757 -0.00042718177
-0.0038189439 -0.019658281 -0.0039369999
-0.0046918453 -0.0018463579 -0.0056919088
-0.0077470001 0.0074940408 -0.0034982727
-0.00032733803 0.0064079482 -0.0063499999
-0.0049100704 0.0094490079 -0.0061306362
0.0068740989 -0.0018463579 -0.0061306362
-0.0025095916 0.016182784 -0.00042718177
-0.0031642676 -0.016617222 -0.00042718177
-0.0051282961 -0.018572189 -0.00064654544
0.003382493 -0.0072768223 -0.00042718177
0.0046918453 -0.0090145711 -0.00042718177
0.0012002395 -0.0014119208 -0.00042718177
0.0060011973 -0.00076026504 -0.0061306362
-0.003382493 0.0085801333 -0.0061306362
-0.0051282961 -0.0053218552 -0.0050338181
0.0055647464 0.01379338 -0.0061306362
-0.0073105493 -0.0016291393 -0.00042718177
-0.0055647464 0.018572189 -0.0054725455
-0.0012002395 0.019223845 -0.00064654544
0.0049100704 -0.017920533 -0.0061306362
-0.0077470001 0.0061907293 -0.0021820909
0.0042553945 0.00097748358 -0.0050338181
-0.0014184648 0.0094490079 -0.0063499999
-0.0012002395 0.012707287 -0.0063499999
0.0053465213 -0.018572189 -0.0061306362
0.0068740989 -0.011838413 -0.0039369999
-0.0022913662 -0.01683444 -0.00064654544
-0.0025095916 0.011403975 -0.0063499999
-0.00076378876 0.0070596039 -0.00042718177
-0.00010911268 -0.014662254 -0.00042718177
0.0077470001 0.013141724 -0.0030595453
0.0012002395 0.0053218552 -0.00042718177
0.002727817 -0.015748346 -0.00042718177
-0.0064376481 -0.00054304645 -0.0039369999
-0.0049100704 -0.0042357622 -0.0056919088
0.0062194229 -0.0085801333 -0.0061306362
0.0022913662 0.0011947021 -0.0061306362
0.0066558733 0.010317883 -0.0039369999
-0.0077470001 -0.00054304645 -0.0013046364
0.0062194229 -0.0059735109 -0.0061306362
-0.0064376481 0.0048874179 -0.0041563637
-0.0020731408 -0.011838413 -0.0061306362
0.0060011973 -0.0051046363 -0.00042718177
0.0020731408 -0.016182784 -0.00042718177
0.0053465213 0.0074940408 -0.0048144544
0.0077470001 0.0053218552 -0.0013046364
-0.0077470001 0.006842385 -0.001524
-0.0049100704 -0.009231789 -0.0061306362
-0.0057829721 0.01227285 -0.0061306362
-0.0077470001 0.0020635764 -0.0013046364
0.0073105493 0.017920533 -0.0010852726
-0.0068740989 0.0029324507 -0.0041563637
-0.00010911268 -0.0064079482 -0.00042718177
-0.0042553945 -0.019658281 -0.003278909
0.0055647464 -0.0046701995 -0.0061306362
0.002727817 0.00010860929 -0.00042718177
0.0055647464 0.006842385 -0.0061306362
0.0077470001 -0.00032582786 -0.0021820909
0.0042553945 0.0046701995 -0.00042718177
-0.0077470001 -0.00076026504 -0.0024014544
-0.00076378876 0.011621194 -0.00042718177
0.0049100704 -0.018572189 -0.0045950906
-0.0077470001 -0.016182784 -0.0021820909
0.0075287749 0.0011947021 0.0011083636
0.0046918453 0.0042357622 -0.00042718177
-0.0042553945 -0.01227285 -0.0061306362
0.0075287749 -0.014010598 0.00088900002
0.0046918453 0.0085801333 -0.0061306362
0.0014184648 -0.0098834448 -0.0063499999
0.0064376481 -0.010969538 -0.0054725455
0.0064376481 0.01379338 -0.00042718177
-0.002727817 0.018354969 -0.00064654544
0.00076378876 -0.002280795 -0.00064654544
-0.00054556341 0.0042357622 -0.00042718177
0.0014184648 -0.01683444 -0.0061306362
-0.0016366902 0.00076026504 -0.0063499999
0.0044736196 -0.0018463579 -0.00042718177
-0.0016366902 -0.0011947021 -0.00042718177
-0.002727817 0.0057562925 -0.00042718177
0.0040371693 -0.010969538 -0.00042718177
0.0064376481 0.018354969 -0.0045950906
0.0046918453 0.019223845 -0.0041563637
-0.0064376481 0.0059735109 -0.0059112725
-0.00076378876 0.019223845 -0.0030595453
0.003382493 0.019441063 -0.0043757274
0.0055647464 0.009231789 -0.00042718177
-0.0068740989 -0.0040185438 -0.0039369999
0.0062194229 0.002280795 -0.0061306362
0.0066558733 0.018354969 -0.00064654544
-0.0031642676 -0.003366888 -0.0061306362
-0.0077470001 0.011621194 -0.001524
0.003382493 -0.016182784 -0.00042718177
0.0049100704 -0.019441063 -0.0013046364
0.0064376481 0.012055631 -0.0043757274
0.0060011973 -0.011403975 -0.0045950906
-0.0044736196 0.019658281 -0.0026208181
-0.002727817 0.017486095 -0.00064654544
-0.00098201411 0.0079284776 -0.0063499999
0.0073105493 -0.012055631 -0.00042718177
0.0025095916 0.012490069 -0.00042718177
-0.0042553945 0.006842385 -0.00042718177
0.0036007185 -0.00032582786 -0.0061306362
0.0077470001 -0.014879473 -0.0026208181
0.0029460422 0.0057562925 -0.00042718177
-0.00098201411 0.003366888 -0.00042718177
-0.0053465213 -0.013358942 -0.00042718177
0.0036007185 -0.017486095 -0.0061306362
-0.0031642676 -0.014662254 -0.00042718177
0.0025095916 -0.0035841065 -0.0061306362
-0.0029460422 -0.0066251666 -0.0061306362
-0.0055647464 0.002280795 -0.0061306362
0.0064376481 0.015531128 -0.00064654544
-0.0064376481 0.0096662268 -0.0056919088
-0.0046918453 -0.0031496694 -0.0059112725
-0.0077470001 -0.0081456965 -0.00086590904
0.0055647464 0.017920533 -0.00064654544
-0.0077470001 -0.0064079482 -0.00020781814
0.002727817 -0.0083629154 -0.0063499999
0.0077470001 -0.011621194 -0.00086590904
0.0031642676 -0.010969538 -0.00042718177
-0.0055647464 -0.0083629154 -0.0054725455
0.00076378876 0.0057562925 -0.0063499999
-0.0068740989 -0.0079284776 -0.00064654544
0.0036007185 -0.0098834448 -0.0061306362
0.0070923241 0.0044529806 -0.00064654544
-0.00054556341 -0.0066251666 -0.00042718177
0.0055647464 -0.0079284776 -0.0061306362
-0.0060011973 -0.010752319 -0.0045950906
0.0066558733 -0.00054304645 -0.0039369999
-0.0066558733 -0.011403975 -0.00042718177
0.0018549155 0.0053218552 -0.0063499999
-0.0077470001 -0.0098834448 -0.0019627272
0.0051282961 0.00076026504 -0.0041563637
0.0057829721 -0.0090145711 -0.0061306362
0.0077470001 0.0090145711 -0.00042718177
0.00054556341 -0.009231789 -0.0063499999
-0.0070923241 0.0020635764 -0.00064654544
0.0066558733 0.013141724 -0.0041563637
0.0049100704 0.013576161 -0.00042718177
-0.0077470001 -0.014879473 -0.00064654544
0.002727817 -0.0053218552 -0.0061306362
0.0031642676 -0.019006625 -0.0061306362
0.0077470001 -0.015096691 -0.0024014544
-0.0064376481 0.018572189 -0.00064654544
-0.0025095916 0.014227817 -0.00064654544
0.00010911268 0.014227817 -0.0061306362
0.0046918453 0.01379338 -0.00042718177
0.0018549155 -0.019223845 -0.0021820909
-0.0055647464 0.017268877 -0.0061306362
-0.0060011973 -0.0048874179 -0.0041563637
0.00032733803 0.0020635764 -0.00042718177
-0.0068740989 0.017268877 -0.0037176362
-0.0016366902 0.010317883 -0.0063499999
0.0051282961 0.0085801333 -0.00042718177
-0.0012002395 0.0018463579 -0.00064654544
-0.0060011973 -0.0070596039 -0.00064654544
-0.0077470001 -0.00010860929 -0.0017433636
0.0077470001 0.0061907293 -0.0013046364
0.0077470001 -0.0029324507 -0.003278909
-0.00032733803 -0.019223845 -0.0017433636
-0.00054556341 -0.019658281 -0.0061306362
0.0062194229 0.0079284776 -0.0041563637
0.0077470001 -0.0096662268 -0.0034982727
0.0064376481 -0.0031496694 -0.0061306362
-0.0077470001 -0.0011947021 -0.0026208181
0.0062194229 -0.019223845 -0.00086590904
-0.0031642676 0.019441063 -0.00064654544
-0.0066558733 -0.012490069 -0.00064654544
0.0077470001 -0.01227285 -0.003278909
-0.0077470001 -0.0040185438 -0.0013046364
0.0055647464 -0.0029324507 -0.0061306362
0.00054556341 0.0044529806 -0.00042718177
-0.0053465213 0.0079284776 -0.0061306362
-0.0073105493 -0.0061907293 -0.0037176362
-0.0077470001 0.002280795 -0.001524
-0.0073105493 -0.006842385 -0.0037176362
0.0022913662 0.0083629154 -0.00042718177
0.0053465213 0.0053218552 -0.0061306362
-0.002727817 0.01379338 -0.0063499999
-0.0042553945 0.013358942 -0.0061306362
-0.0075287749 -0.0070596039 -0.00064654544
-0.0049100704 0.019441063 -0.001524
-0.00010911268 0.019223845 -0.00064654544
-0.0075287749 -0.016400002 -0.003278909
0.0025095916 0.0040185438 -0.0061306362
-0.0057829721 -0.0011947021 -0.00042718177
-0.0077470001 -0.013576161 -0.0037176362
0.0018549155 0.0057562925 -0.00042718177
0.003382493 -0.0090145711 -0.00042718177
-0.0055647464 0.0018463579 -0.0061306362
-0.0051282961 0.00054304645 -0.0041563637
0.0044736196 -0.0046701995 -0.00042718177
0.0077470001 0.010100664 -0.0030595453
0.0070923241 0.01227285 -0.0037176362
-0.0036007185 0.0020635764 -0.0061306362
0.0051282961 0.018354969 -0.0061306362
-0.0077470001 0.01379338 -0.0021820909
-0.00076378876 0.0046701995 -0.0063499999
0.0055647464 -0.0094490079 -0.0061306362
-0.0077470001 -0.0035841065 -0.00042718177
-0.003382493 0.014227817 -0.00042718177
0.0057829721 -0.0035841065 -0.0061306362
-0.0025095916 -0.002280795 -0.00042718177
-0.0062194229 0.015313909 -0.00064654544
-0.0012002395 0.010752319 -0.0063499999
0.0020731408 -0.0018463579 -0.00042718177
0.0038189439 0.019441063 -0.00064654544
0.00010911268 -0.019223845 -0.0017433636
0.0057829721 0.0011947021 -0.0061306362
-0.0077470001 0.009231789 -0.00064654544
-0.0053465213 -0.010100664 -0.00042718177
0.0040371693 -0.0066251666 -0.0061306362
0.0049100704 -0.0020635764 -0.0061306362
0.0064376481 0.0061907293 -0.0059112725
0.003382493 0.014879473 -0.0061306362
0.0049100704 0.0016291393 -0.0061306362
0.0051282961 -0.0044529806 -0.0041563637
-0.0025095916 -0.016182784 -0.00042718177
-0.0044736196 0.01227285 -0.00042718177
0.00054556341 0.0016291393 -0.0063499999
0.0042553945 0.0031496694 -0.00042718177
-0.002727817 -0.0051046363 -0.00042718177
0.0055647464 0.014010598 -0.00064654544
0.0018549155 -0.0035841065 -0.00042718177
0.0077470001 0.0038013251 -0.001524
0.0066558733 0.0016291393 -0.0041563637
-0.0077470001 -0.012490069 -0.0028401818
-0.00054556341 0.0055390736 -0.0063499999
-0.0070923241 -0.0051046363 -0.00064654544
-0.0070923241 -0.017051658 -0.00064654544
0.003382493 -0.0018463579 -0.00042718177
0.0070923241 0.0098834448 -0.00064654544
-0.0020731408 0.011403975 -0.00042718177
0.0077470001 0.0057562925 -0.003278909
0.0012002395 -0.016400002 -0.00042718177
0.0077470001 0.0018463579 -0.00020781814
0.0077470001 0.0040185438 -0.0034982727
-0.0049100704 0.0044529806 -0.0061306362
-0.0042553945 -0.013358942 -0.00042718177
0.0055647464 -0.0085801333 -0.0050338181
-0.0040371693 -0.016617222 -0.0061306362
-0.00098201411 -0.014010598 -0.00042718177
0.0014184648 -0.017703313 -0.0061306362
-0.00098201411 -0.0081456965 -0.0061306362
-0.00076378876 0.017051658 -0.00064654544
0.0060011973 -0.01379338 -0.00042718177
0.0012002395 0.014445036 -0.00042718177
0.0070923241 -0.01227285 -0.0037176362
0.0070923241 -0.017920533 -0.00064654544
0.0020731408 -0.0198755 -0.0059112725
0.0012002395 -0.019006625 -0.0013046364
-0.0062194229 0.011838413 -0.0045950906
0.0075287749 -0.013141724 -0.00064654544
0.0073105493 0.003366888 -0.0037176362
0.0077470001 -0.010969538 -0.00020781814
-0.0022913662 -0.0070596039 -0.0061306362
-0.0055647464 -0.018354969 -0.0043757274
0.0055647464 -0.0081456965 -0.0052531818
0.0062194229 0.0020635764 -0.00042718177
-0.00054556341 -0.019223845 -0.0021820909
0.0018549155 -0.0018463579 -0.00042718177
0.0073105493 -0.015965566 -0.00042718177
-0.0029460422 0.00076026504 -0.0063499999
0.0066558733 -0.0053218552 -0.00064654544
0.0075287749 0.017268877 -0.0021820909
-0.0077470001 -0.011621194 -0.0024014544
-0.0029460422 -0.0046701995 -0.0061306362
-0.0068740989 0.0055390736 -0.0059112725
0.0070923241 0.002280795 -0.0039369999
-0.0046918453 -0.011403975 -0.00042718177
-0.0029460422 0.018789407 -0.0059112725
-0.0057829721 0.0079284776 -0.0050338181
0.00054556341 0.019441063 -0.0019627272
0.003382493 -0.018572189 -0.0061306362
-0.0046918453 -0.0198755 -0.003278909
0.0073105493 -0.01683444 -0.003278909
0.00076378876 -0.0090145711 -0.0063499999
0.0053465213 -0.0074940408 -0.0052531818
-0.0038189439 -0.018572189 -0.0061306362
0.0042553945 -0.00097748358 -0.0054725455
0.0077470001 -0.0048874179 -0.0021820909
0.0062194229 0.012707287 -0.0059112725
0.0025095916 0.0081456965 -0.00042718177
-0.0012002395 0.014227817 -0.0063499999
0.0014184648 -0.017486095 -0.00064654544
0.0077470001 0.0077112596 -0.0030595453
-0.00032733803 -0.017703313 -0.0061306362
-0.0042553945 0.010100664 -0.0061306362
-0.0053465213 -0.0057562925 -0.00042718177
0.0068740989 -0.019223845 -0.0026208181
-0.0057829721 -0.011403975 -0.00042718177
-0.0077470001 0.0085801333 -0.0030595453
0.0031642676 -0.016182784 -0.0061306362
-0.00032733803 -0.019223845 -0.003278909
-0.0077470001 0.00010860929 -0.003278909
-0.0057829721 0.00097748358 -0.00042718177
0.0046918453 -0.0016291393 -0.0061306362
-0.0046918453 0.017486095 -0.00042718177
-0.0014184648 0.010317883 -0.00042718177
0.0077470001 -0.0096662268 -0.0026208181
0.0012002395 -0.018572189 -0.0061306362
-0.0068740989 0.0064079482 -0.0039369999
-0.0053465213 -0.0077112596 -0.0056919088
-0.0036007185 -0.017051658 -0.00042718177
0.0022913662 0.0024980137 -0.0061306362
0.0049100704 -0.0083629154 -0.00042718177
-0.0064376481 0.002280795 -0.0061306362
0.0062194229 -0.015965566 -0.00064654544
0.0077470001 0.010969538 -0.003278909
-0.0077470001 -0.015965566 -0.001524
-0.0057829721 -0.018572189 -0.0056919088
-0.0020731408 0.0077112596 -0.0063499999
-0.00010911268 -0.0051046363 -0.00064654544
0.0075287749 -0.0044529806 -0.00020781814
-0.0020731408 -0.0044529806 -0.0061306362
0.0053465213 -0.003366888 -0.0061306362
-0.0044736196 -0.0094490079 -0.00042718177
-0.0051282961 0.0040185438 -0.0045950906
-0.0077470001 0.0059735109 -0.0013046364
0.0064376481 -0.01227285 -0.0059112725
0.0066558733 -0.018572189 -0.0039369999
0.002727817 0.019658281 -0.0013046364
-0.0049100704 -0.0105351 -0.0061306362
0.0051282961 0.0031496694 -0.0059112725
-0.0062194229 0.0061907293 -0.00042718177
0.0029460422 0.0087973522 -0.00042718177
0.0018549155 0.019441063 -0.0030595453
-0.00032733803 0.019223845 -0.0021820909
-0.00032733803 0.0098834448 -0.0063499999
-0.0077470001 -0.0018463579 -0.001524
-0.0068740989 0.006842385 -0.0039369999
-0.0073105493 0.0020635764 -0.0039369999
0.0070923241 0.01379338 -0.0037176362
-0.0075287749 -0.011403975 0.0017664545
-0.0020731408 0.0024980137 -0.0061306362
0.0029460422 -0.015096691 -0.00042718177
0.0062194229 0.016182784 -0.0059112725
0.0051282961 -0.0027152321 -0.00042718177
0.0062194229 -0.0064079482 -0.0059112725
-0.0077470001 -0.012055631 -0.0026208181
-0.0068740989 -0.0018463579 -0.0039369999
-0.0057829721 0.019658281 -0.0024014544
-0.00054556341 0.0072768223 -0.00042718177
0.002727817 -0.017486095 -0.0061306362
-0.003382493 0.015965566 -0.0061306362
0.00054556341 0.0014119208 -0.00042718177
0.0036007185 0.016400002 -0.00042718177
0.0064376481 -0.0042357622 -0.00064654544
-0.0077470001 -0.0027152321 -0.0017433636
0.0057829721 -0.018137751 -0.0061306362
0.0042553945 0.0011947021 -0.0054725455
-0.0055647464 -0.015748346 -0.0061306362
-0.0077470001 0.011186757 -0.00020781814
-0.0038189439 -0.018137751 -0.00064654544
-0.0068740989 0.017268877 -0.00064654544
-0.0014184648 0.0027152321 -0.0061306362
0.0051282961 -0.00097748358 -0.0061306362
-0.0064376481 -0.0059735109 -0.0041563637
-0.0060011973 -0.011621194 -0.0052531818
0.0022913662 -0.0079284776 -0.0063499999
0.0012002395 -0.0053218552 -0.0063499999
-0.0057829721 -0.009231789 -0.0061306362
-0.002727817 -0.018354969 -0.00064654544
-0.0075287749 0.016617222 0.00066963641
-0.00098201411 0.00054304645 -0.0063499999
-0.00010911268 -0.0027152321 -0.00064654544
0.00032733803 0.00032582786 -0.00064654544
-0.00032733803 0.018354969 -0.0061306362
0.0060011973 -0.002280795 -0.0041563637
0.0062194229 0.019441063 -0.0059112725
-0.0051282961 0.0079284776 -0.0061306362
0.0077470001 0.015313909 -0.0026208181
-0.0029460422 -0.019658281 -0.0034982727
0.00010911268 -0.015531128 -0.00042718177
0.00054556341 -0.0072768223 -0.00042718177
0.0055647464 0.0059735109 -0.0061306362
-0.0044736196 0.0038013251 -0.00042718177
-0.0070923241 0.0011947021 -0.00064654544
-0.0025095916 0.014227817 -0.0063499999
0.0075287749 0.017268877 -0.00064654544
-0.0075287749 0.0090145711 1.1545489e-05
-0.0025095916 -0.006842385 -0.0061306362
-0.00098201411 -0.016617222 -0.00042718177
-0.0077470001 0.013358942 -0.0013046364
-0.00054556341 0.0090145711 -0.00042718177
0.0066558733 0.019658281 -0.0026208181
-0.0044736196 0.015748346 -0.0061306362
-0.0062194229 0.009231789 -0.00042718177
0.0051282961 -0.0011947021 -0.0061306362
0.0062194229 0.0077112596 -0.0059112725
0.0029460422 -0.0016291393 -0.00064654544
-0.0044736196 0.0081456965 -0.0061306362
0.0053465213 -0.019658281 -0.0028401818
-0.0055647464 0.0074940408 -0.00042718177
-0.0066558733 -0.0048874179 -0.0041563637
0.0038189439 0.017268877 -0.0061306362
-0.0046918453 0.0105351 -0.00042718177
-0.0066558733 0.014010598 -0.0056919088
0.0046918453 0.00076026504 -0.0059112725
0.0053465213 0.0079284776 -0.00064654544
