# .PCD v0.7 - Point Cloud Data file format
VERSION 0.7
FIELDS x y z
SIZE 4 4 4
TYPE F F F
COUNT 1 1 1
WIDTH 1183
HEIGHT 1
VIEWPOINT 0 0 0 1 0 0 0
POINTS 1183
DATA ascii
-0.0039369999 0.0051598288 -0.00062706246
-0.0022309667 0.0090786861 -0.00036512496
-0.0015748 0.0033310286 -0.0049490309
0.0039369999 0.0077724 -0.002460625
-0.0019685 0.011168743 -0.0042941873
-0.00052493333 -0.011168743 -0.0020677187
0.0035433001 0.0054210857 -0.0021986875
0.0035433001 -0.0081642857 -0.0012819062
-0.0039369999 0.0050292001 -0.0010199687
-0.0028871333 0.00084908574 -0.00062706246
0.0031496 0.0024166286 -0.0018057812
0.0034120667 -0.0051598288 -0.0023296562
-0.0030183666 -0.010907486 -0.0037703125
-0.0030183666 0.0064661144 -0.0015438437
-0.0015748 0.0016328571 -0.0049490309
-0.00026246667 0.0034616573 -0.00036512496
-0.0014435666 0.0105156 -0.0049490309
0.0022309667 -0.0051598288 -0.0049490309
-0.0013123333 0.0097318292 -0.0049490309
0.0038057666 0.0024166286 -0.0027225625
-0.00026246667 -0.0052904575 -0.00036512496
0.0031496 -0.0021553715 -0.0039012812
-0.00026246667 -0.011299372 -0.0044251559
-0.0018372666 0.011168743 -0.0046870937
0.0031496 -0.0081642857 -0.0016748124
-0.00026246667 -0.0051598288 -0.00036512496
0.0036745332 0.0063354857 0.0019923125
-0.0007874 -0.010254343 -0.0049490309
0.0009186333 0.0012409715 -0.0049490309
-0.0039369999 0.0062048575 -0.00062706246
0.0023622001 0.0092093144 -0.0048180623
-0.0032808334 -0.0016328571 -0.0032464375
-0.0009186333 0.0018941143 -0.0049490309
-0.00065616664 -0.0021553715 -0.00036512496
0.0013123333 0.0050292001 -0.00036512496
0.0035433001 -0.0084255431 -0.0015438437
0.00065616664 0.0047679432 -0.0049490309
-0.0035433001 -0.0047679432 -0.0020677187
-0.0010498667 0.0050292001 -0.00036512496
-0.0036745332 -0.002939143 -0.0012819062
0.0038057666 0.0097318292 0.0008135938
0.00013123333 0.0058129714 -0.0049490309
-0.0027558999 0.0081642857 -0.00036512496
-0.0036745332 0.0060742288 -0.0019367499
0.0026246666 0.011168743 -0.0044251559
-0.0030183666 -0.0056823432 -0.0015438437
0.0031496 -0.0105156 -0.0014128749
0.0003937 0.0067273718 -0.00036512496
-0.0036745332 0.0056823432 -0.00062706246
-0.0018372666 -0.0037229145 -0.0049490309
-0.0011811 0.0099930856 -0.0049490309
-0.0028871333 0.0054210857 -0.00062706246
0.0014435666 -0.0012409715 -0.0049490309
0.0010498667 0.0075111431 -0.0049490309
0.0039369999 0.0068580001 -0.0012819062
-0.0036745332 -0.00019594286 -0.0015438437
-0.0015748 0.0084255431 -0.0049490309
0.0036745332 -0.00097971433 0.00042068755
0.0039369999 0.0051598288 -0.00062706246
0.00052493333 -0.0047679432 -0.00036512496
0.0011811 -0.0012409715 -0.0049490309
-0.0038057666 -0.0077724 -0.00010318746
-0.0019685 -0.0037229145 -0.00036512496
0.0039369999 -0.0056823432 -0.0025915937
-0.00065616664 -0.01143 -0.0016748124
-0.0022309667 -0.01143 -0.0027225625
0.0028871333 0.00019594286 -0.0049490309
-0.0031496 -0.0032004002 -0.0036393437
-0.00026246667 0.0013716001 -0.00036512496
-0.0039369999 0.0084255431 -0.002460625
0.0014435666 0.0062048575 -0.0049490309
-0.0036745332 0.00071845716 -0.00088899996
-0.0039369999 0.0058129714 -0.00049609371
0.0019685 0.00071845716 -0.00036512496
-0.0038057666 -0.0096012 -0.00010318746
-0.0007874 0.0017634857 -0.0049490309
-0.0039369999 0.0026778858 -0.0027225625
0 -0.010907486 -0.0049490309
0.0019685 0.008948057 -0.00036512496
0.0018372666 0.002024743 -0.00036512496
-0.0038057666 -0.010123715 -0.0012819062
0.0031496 0.0035922858 -0.00403225
0.0032808334 0.0016328571 -0.0032464375
0.0031496 -0.0011103429 -0.00403225
-0.00052493333 0.0064661144 -0.0049490309
0.0039369999 -0.0067273718 -0.0010199687
0.0039369999 -0.0063354857 -0.0015438437
-0.0028871333 -0.0069886288 -0.00062706246
-0.0039369999 -0.0080336574 0.0026471564
-0.0030183666 -0.0094705718 -0.0037703125
0.0007874 -0.01143 -0.0012819062
0.0035433001 0.0097318292 -0.0010199687
-0.0030183666 -0.0084255431 -0.0041632187
0.0039369999 -0.00097971433 -0.00062706246
0.0028871333 -0.0060742288 -0.00088899996
0.0031496 -0.0025472571 -0.0016748124
0 0.0033310286 -0.00036512496
0.0031496 -0.0015022287 -0.0037703125
-0.0019685 0.002024743 -0.0049490309
-0.0036745332 0.0028085143 -0.00010318746
0.0023622001 0.011299372 -0.0029845
-0.0036745332 0.010254343 -0.0020677187
-0.0031496 -0.0088174287 -0.0032464375
-0.00013123333 0.010646229 -0.00036512496
-0.0039369999 0.0063354857 -0.002460625
-0.0026246666 0.0097318292 -0.00036512496
0.0035433001 0.0018941143 -0.0020677187
0.0035433001 -0.0018941143 -0.0018057812
0.0032808334 0.0012409715 -0.0031154687
0.0019685 -0.003853543 -0.00036512496
-0.0032808334 -0.00097971433 -0.0031154687
-0.00065616664 0.0069886288 -0.0049490309
-0.0039369999 -0.0096012 -0.00010318746
0.0031496 -0.0084255431 -0.0037703125
-0.0031496 -0.0084255431 -0.0018057812
0.0035433001 0.0097318292 -0.0019367499
0.0039369999 0.0084255431 -0.00049609371
0.0039369999 0.0080336574 -0.00010318746
-0.0030183666 0.0011103429 -0.0046870937
0.0039369999 0.0048985714 -0.0012819062
-0.0035433001 0.0098624574 -0.0016748124
0.0039369999 0.0081642857 -0.0011509374
-0.0038057666 -0.0099930856 -0.00062706246
-0.0028871333 -0.0097318292 -0.00403225
0.0031496 0.010384971 -0.0018057812
0.0024934334 -0.0086868005 -0.00036512496
-0.0007874 -0.0043760571 -0.00036512496
-0.0035433001 -0.0075111431 -0.0021986875
0.0030183666 -0.0017634857 -0.0014128749
0.0003937 -0.0022859999 -0.00036512496
0.0036745332 0.0064661144 -0.0011509374
0.00026246667 0.011168743 -0.00049609371
0.0007874 0.0039841714 -0.00036512496
0.00013123333 -0.0092093144 -0.0049490309
0.0013123333 0.01143 -0.0020677187
0.0039369999 -0.0021553715 -0.0025915937
0.0022309667 -0.0025472571 -0.0049490309
0.0013123333 -0.0048985714 -0.0049490309
0.00026246667 0.0039841714 -0.0049490309
0.0035433001 -0.002024743 -0.0011509374
-0.0036745332 -0.0045066858 0.00015875004
-0.0022309667 -0.0085561713 -0.00036512496
0.0036745332 -0.0028085143 0.00015875004
-0.0036745332 -0.0032004002 -0.0015438437
0.0039369999 -0.0098624574 -0.00036512496
0.0024934334 -0.0093399435 -0.00036512496
-0.0036745332 0.0071192575 -0.0019367499
-0.0032808334 -0.0024166286 -0.0033774062
-0.0031496 0.003853543 -0.0020677187
-0.0024934334 -0.0051598288 -0.0049490309
-0.0039369999 0.0097318292 0.00094456255
0.0039369999 -6.5314285e-05 -0.00062706246
0.0039369999 0.0032004002 -0.002460625
0.0039369999 -0.0098624574 -0.0016748124
0.0031496 -0.0085561713 -0.00403225
0.0035433001 -0.0068580001 -0.0014128749
-0.0039369999 -0.0077724 -0.0010199687
-0.0038057666 -0.0045066858 0.00225425
-0.0015748 0.00058782857 -0.00036512496
0.0023622001 0.01143 -0.0027225625
0.0010498667 0.01143 -0.0020677187
-0.0034120667 0.0033310286 -0.0023296562
-0.0039369999 -0.0045066858 -0.0015438437
0.0032808334 0.002939143 -0.0019367499
0.0035433001 -0.0043760571 -0.0010199687
0.0024934334 -0.0092093144 -0.00036512496
0.0019685 -0.0088174287 -0.0049490309
-0.0039369999 0.0047679432 -0.00049609371
-0.0003937 0.0058129714 -0.00036512496
0.0035433001 0.0075111431 -0.0010199687
-0.0039369999 -0.0079030292 -0.0015438437
0.0007874 0.0032004002 -0.0049490309
-0.0027558999 -0.0085561713 -0.0048180623
-0.0036745332 0.0015022287 -0.00088899996
0.0032808334 0.0011103429 -0.0031154687
-0.0030183666 -0.0042454288 -0.0014128749
-0.00065616664 0.0024166286 -0.0049490309
0.0039369999 0.0097318292 -0.00062706246
0.00052493333 0.011299372 -0.0048180623
0.0030183666 -0.00058782857 -0.0014128749
-0.0013123333 0.0096012 -0.00036512496
0.0027558999 0.010907486 -0.0033774062
-0.0038057666 -0.00084908574 -0.00010318746
0 -0.0098624574 -0.0049490309
0.0018372666 -0.011299372 -0.0021986875
-0.0038057666 -0.0046373145 0.0023852189
0.0027558999 -0.0035922858 -0.00036512496
-0.0009186333 -0.0030697715 -0.00036512496
-0.0030183666 -0.0075111431 -0.0014128749
0.0030183666 -0.0064661144 -0.0044251559
-0.0039369999 0.00019594286 -0.00062706246
0.0039369999 0.0012409715 -0.0014128749
-0.0036745332 -0.008948057 -0.0027225625
-0.0022309667 0.0051598288 -0.0049490309
0.0035433001 -0.0051598288 -0.0012819062
0 0.0062048575 -0.00036512496
0.0035433001 -0.0064661144 -0.00075803121
0.00013123333 0.0090786861 -0.0049490309
-0.0035433001 -0.0081642857 -0.00088899996
-0.0035433001 -0.0092093144 -0.00088899996
-0.0020997333 -0.0105156 -0.00036512496
-0.0017060334 0.0086868005 -0.00036512496
0.0024934334 0.0042454288 -0.0048180623
0.0011811 -0.0050292001 -0.00036512496
0.0014435666 0.010254343 -0.0049490309
0.00013123333 -0.0077724 -0.0049490309
-0.0030183666 -0.0065967431 -0.0046870937
0.0038057666 -0.0098624574 0.0005516563
-0.0034120667 -0.0042454288 -0.0023296562
0.0018372666 -0.0079030292 -0.00036512496
-0.0031496 0.0099930856 -0.0018057812
0.0031496 -6.5314285e-05 -0.0036393437
0.0038057666 -0.0028085143 0.00042068755
0.0014435666 -0.0069886288 -0.00036512496
-0.0035433001 0.0013716001 -0.0019367499
0.0028871333 0.0052904575 -0.00049609371
-0.00013123333 0.0081642857 -0.00036512496
0.0031496 0.010123715 -0.0029845
-0.00052493333 0.0017634857 -0.0049490309
0.0030183666 0.0080336574 -0.0046870937
0.00013123333 0.0013716001 -0.0049490309
-0.0031496 -0.00045720002 -0.0037703125
0.0018372666 -0.0011103429 -0.00036512496
-0.0036745332 0.0060742288 -0.0010199687
0.0036745332 -0.0022859999 -0.00010318746
0.0026246666 0.01143 -0.0025915937
-0.0031496 0.00032657143 -0.0036393437
-0.0019685 -0.0072498857 -0.0049490309
0.0039369999 -0.00084908574 -0.0025915937
0.0022309667 0.0075111431 -0.00036512496
0.0030183666 -0.0081642857 -0.0041632187
0.0036745332 0.0033310286 -0.0016748124
-0.0022309667 -0.0011103429 -0.00036512496
0.0034120667 -0.0096012 -0.0020677187
-0.0026246666 0.011299372 -0.0021986875
0.0039369999 -0.0086868005 -0.00075803121
-0.0036745332 0.002024743 -0.00075803121
-0.0022309667 -0.011299372 -0.0037703125
0.0009186333 0.011299372 -0.00088899996
-0.0039369999 -0.0098624574 0.00094456255
0.0022309667 -0.011299372 -0.002460625
0.00052493333 -0.010384971 -0.00036512496
-0.0039369999 -0.0045066858 -0.0019367499
-0.0028871333 0.0048985714 -0.0010199687
0.0031496 0.0064661144 -0.0015438437
0.0038057666 0.0028085143 0.0025161875
0.0034120667 -0.010776858 -0.002460625
-0.0026246666 -0.0045066858 -0.0048180623
-0.0031496 -0.00084908574 -0.0039012812
0.0022309667 -0.0037229145 -0.00036512496
-0.0032808334 -0.00071845716 -0.0032464375
0.00026246667 -0.0072498857 -0.0049490309
0.0015748 -0.0051598288 -0.0049490309
0.0039369999 -0.0082949148 -0.00075803121
-0.0038057666 -0.0025472571 0.0026471564
-0.0031496 0.0054210857 -0.0016748124
-0.0036745332 -0.0058129714 -0.00023415621
-0.0018372666 -0.011299372 -0.0046870937
0.0039369999 -0.002939143 -0.00010318746
-0.0038057666 0.002024743 -0.00036512496
-0.0023622001 -0.0026778858 -0.0048180623
-0.0036745332 0.0064661144 -0.00023415621
0.0038057666 0.0043760571 0.00068262505
0.0031496 -0.0032004002 -0.0018057812
-0.0020997333 -0.0092093144 -0.00036512496
-0.0027558999 -0.0098624574 -0.00049609371
-0.0038057666 0.00097971433 0.0025161875
0.0034120667 -0.0093399435 -0.00036512496
0.0019685 -0.0032004002 -0.0049490309
-0.0039369999 0.0073805144 -0.0012819062
-0.0022309667 0.011299372 -0.0033774062
-0.0039369999 0.0056823432 -0.0010199687
0.0035433001 0.0105156 -0.0023296562
-0.0031496 0.0055517145 -0.0020677187
0.0014435666 0.0054210857 -0.0049490309
0.0011811 -0.011299372 -0.0011509374
-0.0039369999 0.0060742288 -0.0018057812
-0.0030183666 -0.0097318292 -0.00049609371
0.0034120667 0.010384971 -0.0027225625
0.0039369999 -0.0081642857 -0.0019367499
-0.0039369999 -0.00032657143 -0.0012819062
-0.0039369999 -0.0018941143 -0.0015438437
-0.0039369999 -0.0079030292 -0.0018057812
-0.0039369999 0.0082949148 -0.0023296562
0.0036745332 0.0054210857 -0.00049609371
0.0028871333 0.0013716001 -0.0048180623
-0.0009186333 -0.010123715 -0.0049490309
-0.0026246666 -0.0042454288 -0.00036512496
0.0003937 0.0046373145 -0.00036512496
-0.0023622001 0.011299372 -0.002460625
-0.0022309667 0.0056823432 -0.00036512496
-0.0038057666 -0.0012409715 -0.00010318746
-0.0031496 0.0022859999 -0.0036393437
0.0035433001 -0.0060742288 -0.00088899996
-0.0035433001 -0.0096012 -0.0027225625
-0.0039369999 0.0025472571 -0.0020677187
-0.0032808334 0.0077724 -0.0021986875
-0.0038057666 -0.0026778858 0.00015875004
0.0039369999 0.00097971433 -0.00075803121
0.00052493333 0.00019594286 -0.00036512496
-0.0031496 -0.010776858 -0.0019367499
-0.0035433001 0.0096012 -0.0015438437
-0.00026246667 0.0063354857 -0.00036512496
-0.0024934334 -0.0011103429 -0.0048180623
0.0032808334 -0.0035922858 -0.0031154687
-0.0020997333 0.0013716001 -0.00036512496
-0.0027558999 -0.0086868005 -0.0048180623
0.0038057666 0.0063354857 0.002778125
-0.00026246667 0.0022859999 -0.00036512496
0.0035433001 0.0093399435 -0.0019367499
0.0039369999 0.0097318292 0.0002897188
0.0035433001 -0.0080336574 -0.00075803121
-0.0022309667 0.002939143 -0.00036512496
-0.0031496 0.0021553715 -0.0033774062
0.0020997333 -0.0017634857 -0.0049490309
0.0032808334 -0.0086868005 -0.0032464375
0.00065616664 0.00084908574 -0.00036512496
-0.0022309667 0.0098624574 -0.00036512496
-0.0009186333 -0.0035922858 -0.0049490309
-0.0032808334 -0.0054210857 -0.0032464375
-0.0038057666 -0.0011103429 2.7781289e-05
-0.0039369999 0.0033310286 -0.0011509374
0.0035433001 0.0085561713 -0.00088899996
-0.0038057666 -0.0098624574 0.0010755312
0.0038057666 -0.00097971433 0.0013374687
0.0039369999 -0.008948057 -0.002460625
0.0030183666 -0.0085561713 -0.004556125
0.0035433001 -0.0043760571 -0.00049609371
0.0039369999 0.008948057 -0.0020677187
0.0039369999 0.0028085143 -0.002460625
0.0032808334 -0.0015022287 -0.0021986875
-0.0027558999 -0.0033310286 -0.00049609371
0.0039369999 0.0092093144 -0.00088899996
-0.0035433001 0.0088174287 -0.0015438437
-0.0031496 -0.0105156 -0.0020677187
-0.0011811 0.011299372 -0.0033774062
-0.0007874 0.01143 -0.003508375
-0.0036745332 0.00084908574 0.0021232814
0.0030183666 0.0047679432 -0.0014128749
-0.0039369999 0.0021553715 -0.00088899996
0.0038057666 0.0099930856 -0.0021986875
0.0036745332 0.00097971433 0.00094456255
-0.0030183666 -0.0081642857 -0.0012819062
0.0039369999 -0.0054210857 -0.0020677187
-0.0036745332 0.0013716001 -0.0018057812
0.0007874 -0.00019594286 -0.0049490309
-0.0036745332 0.0067273718 -0.0016748124
-0.0036745332 -0.0047679432 -0.0018057812
-0.00052493333 0.01143 -0.0015438437
0.0034120667 -0.0079030292 -0.0023296562
-0.0036745332 0.0065967431 -0.00088899996
0.0038057666 -0.0099930856 -0.0019367499
0.0026246666 -0.0041148001 -0.00036512496
0.00026246667 -0.011299372 -0.0031154687
-0.0017060334 -0.0075111431 -0.0049490309
0.0026246666 0.0048985714 -0.00036512496
-0.0036745332 -0.0067273718 -0.0012819062
0.0022309667 0.0028085143 -0.0049490309
-0.0031496 0.0084255431 -0.0019367499
0.00052493333 -0.0045066858 -0.0049490309
0.0010498667 0.010384971 -0.0049490309
-0.0038057666 0.0081642857 2.7781289e-05
-0.0030183666 -0.002939143 -0.0042941873
-0.0030183666 -0.0047679432 -0.0042941873
0.0023622001 0.0090786861 -0.00036512496
0.0038057666 -0.0015022287 -0.00036512496
-0.0038057666 0.0077724 0.0030400625
-0.0030183666 -0.0017634857 -0.004556125
0.0039369999 0.0022859999 -0.0012819062
-0.0009186333 -0.0055517145 -0.00036512496
-0.0031496 0.0098624574 -0.0016748124
-0.0011811 0.0030697715 -0.00036512496
-0.00052493333 -0.0093399435 -0.00036512496
-0.0039369999 -0.0082949148 -0.0010199687
-0.00052493333 0.011299372 -0.0041632187
-0.0024934334 -0.0045066858 -0.00036512496
0.0020997333 0.0076417718 -0.00036512496
0.0039369999 0.0032004002 -0.0020677187
0.0026246666 -0.0097318292 -0.0049490309
-0.00026246667 0.0035922858 -0.0049490309
0.0038057666 -0.0025472571 0.0023852189
0.00052493333 0.0079030292 -0.00036512496
0.0039369999 -0.0025472571 -0.0018057812
0.0035433001 -0.0086868005 -0.0018057812
0.00013123333 -0.0054210857 -0.0049490309
-0.0007874 -0.011299372 -0.0011509374
0.0039369999 -0.0026778858 0.001730375
0.0009186333 0.010123715 -0.00036512496
0.0019685 0.00019594286 -0.00036512496
0.0031496 0.0098624574 -0.0031154687
0.0003937 -0.00071845716 -0.00036512496
-0.0039369999 0.0080336574 0.001730375
0.0039369999 0.0018941143 -0.0015438437
-0.0039369999 -0.0025472571 0.0023852189
-0.0036745332 -0.0016328571 -0.00088899996
-0.0007874 -0.0011103429 -0.0049490309
0.0031496 0.0030697715 -0.00403225
-0.0014435666 0.011299372 -0.0011509374
0.0030183666 -0.0068580001 -0.0044251559
0 0.0051598288 -0.0049490309
-0.0039369999 0.0016328571 -0.0019367499
0.0039369999 -0.0092093144 -0.00062706246
0.0030183666 -0.0080336574 -0.0042941873
0.0039369999 0.0028085143 0.00042068755
-0.0028871333 -0.0026778858 -0.00049609371
0.0031496 -0.0046373145 -0.0039012812
-0.0039369999 0.0081642857 -0.00036512496
-0.0034120667 -0.010123715 -0.0018057812
0.0038057666 -0.0097318292 0.0019923125
-0.0032808334 0.002024743 -0.0021986875
0.00013123333 -0.0072498857 -0.00036512496
0.0035433001 -0.0015022287 -0.00062706246
-0.0009186333 -0.0062048575 -0.0049490309
-0.0011811 0.0073805144 -0.0049490309
-0.0030183666 0.0022859999 -0.0014128749
0.0030183666 -0.0094705718 -0.0037703125
0.0039369999 -0.0032004002 -0.0012819062
0.0039369999 0.0046373145 -0.0010199687
0.0024934334 0.0094705718 -0.0048180623
0.0031496 -0.0034616573 -0.00403225
-0.00013123333 0.0090786861 -0.00049609371
-0.0039369999 0.0090786861 -0.0015438437
0.0030183666 -0.0015022287 -0.0046870937
-0.0028871333 -0.0026778858 -0.00062706246
-0.0026246666 -0.0094705718 -0.00049609371
0.0009186333 -0.0085561713 -0.00036512496
-0.0018372666 -0.01143 -0.0039012812
-0.0027558999 -0.011038114 -0.00062706246
-0.0039369999 0.0016328571 -0.0025915937
0.0039369999 0.0079030292 0.0013374687
0.0018372666 0.0048985714 -0.00036512496
-0.0018372666 -0.01143 -0.004556125
-0.0039369999 0.0098624574 0.0029090939
0.0039369999 0.0016328571 -0.00075803121
0.0039369999 0.0012409715 -0.0012819062
0.0024934334 -0.010123715 -0.00036512496
0.0028871333 -0.010254343 -0.004556125
0.0035433001 -0.0015022287 -0.0021986875
0.0039369999 0.0088174287 -0.0014128749
0.0023622001 -0.0080336574 -0.00036512496
0.0030183666 0.0076417718 -0.0011509374
-0.0030183666 -0.00019594286 -0.0012819062
0.0028871333 0.0093399435 -0.0046870937
0.0022309667 -0.0052904575 -0.0049490309
-0.0035433001 -0.0081642857 -0.0019367499
0.0003937 -0.00084908574 -0.0049490309
-0.0039369999 -0.00058782857 -0.0025915937
-0.0023622001 -0.011168743 -0.0010199687
0.0020997333 -0.0060742288 -0.00036512496
-0.0031496 0.00019594286 -0.0037703125
-0.0036745332 0.00071845716 0.0029090939
0.0036745332 -0.0099930856 -0.0025915937
0.0039369999 -0.0067273718 -0.0018057812
-0.0035433001 -0.00084908574 -0.0020677187
0.0030183666 0.0037229145 -0.0012819062
-0.0003937 -0.011299372 -0.0033774062
0.0035433001 -0.0056823432 -0.0021986875
-0.0035433001 0.0030697715 -0.0021986875
0.0026246666 0.0032004002 -0.0048180623
-0.0031496 -0.0048985714 -0.0018057812
0.0007874 -0.0056823432 -0.0049490309
0.0035433001 0.00097971433 -0.0016748124
0.0010498667 0.0059436001 -0.00036512496
0.0009186333 0.0071192575 -0.0049490309
0.0035433001 -0.00084908574 -0.00075803121
-0.0011811 -0.0064661144 -0.0049490309
-0.0030183666 0.0032004002 -0.0042941873
0.0017060334 -0.0085561713 -0.00036512496
0 -0.0052904575 -0.00036512496
-0.0009186333 -0.0017634857 -0.00036512496
0.0011811 -0.00058782857 -0.00036512496
0.00065616664 -0.00045720002 -0.00036512496
-0.0011811 0.010907486 -0.0049490309
0.0039369999 -0.0011103429 -0.00010318746
0 -0.0077724 -0.00036512496
-0.0038057666 0.00032657143 -0.00036512496
-0.0038057666 0.0077724 0.0025161875
-0.0036745332 0.0018941143 -0.00075803121
-0.0009186333 0.0030697715 -0.00036512496
-0.0028871333 0.0059436001 -0.00062706246
0.0035433001 0.0013716001 -0.0014128749
-0.0036745332 -0.00045720002 -0.00036512496
0.0009186333 -0.0098624574 -0.00036512496
-0.0036745332 0.0039841714 -0.0015438437
-0.00026246667 -0.0079030292 -0.00036512496
-0.0009186333 -0.0099930856 -0.0049490309
-0.0017060334 0.0071192575 -0.0049490309
0.0027558999 -0.0065967431 -0.00049609371
0.0039369999 -0.0039841714 -0.0018057812
0.0030183666 -0.0041148001 -0.0041632187
0.0034120667 -0.0065967431 -0.0023296562
0.00013123333 -0.00097971433 -0.00036512496
-0.0031496 -0.0021553715 -0.0018057812
0.0032808334 0.0016328571 -0.0029845
-0.0017060334 0.0051598288 -0.00036512496
-0.0038057666 0.0077724 0.0012065
0.0035433001 0.0096012 -0.0011509374
0.0020997333 -0.003853543 -0.0049490309
0.0020997333 -0.0041148001 -0.0049490309
-0.0017060334 0.0094705718 -0.0049490309
0.0013123333 0.0018941143 -0.0049490309
0.00013123333 0.0075111431 -0.00036512496
-0.0026246666 0.0069886288 -0.0048180623
0.0017060334 0.011299372 -0.0011509374
0.0036745332 0.0080336574 0.00094456255
-0.0038057666 -0.010123715 -0.0019367499
-0.0017060334 -0.0037229145 -0.00036512496
-0.0030183666 0.0073805144 -0.0015438437
-0.0010498667 -0.011038114 -0.00049609371
-0.0023622001 0.0025472571 -0.00036512496
-0.00026246667 0.0077724 -0.0049490309
-0.0011811 -0.0068580001 -0.0049490309
-0.0023622001 -0.002939143 -0.0048180623
-0.0010498667 0.01143 -0.0028535312
-0.0039369999 0.0043760571 -0.002460625
0.0035433001 0.0092093144 -0.0016748124
-0.0026246666 -0.010646229 -0.00049609371
-0.0030183666 -0.0032004002 -0.0041632187
0.00026246667 -0.0060742288 -0.00036512496
0.0036745332 0.0063354857 0.0014684375
-0.0007874 -0.008948057 -0.00036512496
-0.0038057666 -0.0081642857 0.0018613437
0.0030183666 0.0030697715 -0.0012819062
-0.0039369999 -6.5314285e-05 -0.0025915937
-0.0032808334 -0.0025472571 -0.0033774062
-0.0039369999 -0.00019594286 -0.00049609371
-0.0018372666 0.0051598288 -0.00036512496
0.0035433001 0.00071845716 -0.00075803121
-0.0026246666 -0.003853543 -0.0048180623
0.0036745332 0.00097971433 0.00015875004
-0.0030183666 -0.0092093144 -0.00049609371
0.0018372666 0.002024743 -0.0049490309
0.0014435666 -0.0050292001 -0.0049490309
0.0038057666 0.0098624574 -0.0011509374
-0.0034120667 -0.010123715 -0.0019367499
0.0014435666 -0.0105156 -0.0049490309
-0.0020997333 -0.0059436001 -0.0049490309
-0.0039369999 -0.0050292001 -0.0015438437
-0.0039369999 -0.0072498857 -0.0016748124
-0.00065616664 0.011299372 -0.00062706246
0.0014435666 0.010907486 -0.00049609371
-0.0027558999 -0.010384971 -0.00049609371
0.0028871333 0.002024743 -0.00062706246
-0.0017060334 -0.0037229145 -0.0049490309
0.0031496 -0.0017634857 -0.003508375
-0.0030183666 -0.003853543 -0.004556125
-0.00013123333 0.0093399435 -0.00036512496
0.0038057666 0.010123715 -0.0010199687
-0.0013123333 -0.00019594286 -0.0049490309
0.0007874 0.0017634857 -0.00036512496
-0.0020997333 -0.003853543 -0.0049490309
0.0035433001 0.0021553715 -0.00049609371
0.0039369999 0.0011103429 -0.00088899996
0.0039369999 -0.0028085143 -0.0021986875
0.0014435666 -0.010907486 -0.0049490309
-0.0014435666 -0.0037229145 -0.0049490309
0.0007874 0.0065967431 -0.0049490309
0.00026246667 -0.0026778858 -0.00036512496
0.0030183666 0.0041148001 -0.004556125
-0.0035433001 -0.0068580001 -0.0019367499
0.0038057666 -0.0028085143 0.0029090939
-0.0022309667 -0.00032657143 -0.00036512496
-0.0039369999 0.0098624574 0.0008135938
-0.0028871333 0.0047679432 -0.0010199687
0.0035433001 -0.0065967431 -0.00062706246
0.0035433001 0.00045720002 -0.0018057812
0.0031496 -0.0058129714 -0.00403225
-0.0039369999 0.0072498857 -0.00036512496
-0.0039369999 -0.0076417718 -0.0014128749
0.0030183666 0.0098624574 -0.0014128749
0.0039369999 -0.0030697715 -0.0021986875
-0.0030183666 0.0022859999 -0.0012819062
0.0020997333 0.011299372 -0.0018057812
-0.0020997333 0.0015022287 -0.0049490309
0.0035433001 -0.0075111431 -0.00088899996
0.0035433001 -0.0055517145 -0.0021986875
-0.0039369999 0.0016328571 -0.0018057812
-0.0023622001 -0.0085561713 -0.00036512496
0.0015748 -0.0105156 -0.00036512496
0.0027558999 -0.010384971 -0.00036512496
-0.00052493333 0.0030697715 -0.0049490309
0.0032808334 0.0026778858 -0.0019367499
0.0028871333 -0.00032657143 -0.00062706246
0.0024934334 0.0072498857 -0.00036512496
0.00026246667 -0.0082949148 -0.0049490309
0.0031496 0.0063354857 -0.003508375
-0.0013123333 0.0068580001 -0.00036512496
0.0022309667 -0.0030697715 -0.0049490309
0.0039369999 0.0032004002 -0.0014128749
-0.0009186333 -0.0028085143 -0.0049490309
-0.0036745332 -0.002024743 -0.0018057812
0.0030183666 0.0092093144 -0.0033774062
-0.0014435666 0.0059436001 -0.00036512496
0.0027558999 0.0026778858 -0.0048180623
0.0020997333 0.0039841714 -0.0049490309
-0.0038057666 -0.0093399435 -0.00023415621
0.0039369999 0.0094705718 -0.0023296562
-0.0036745332 0.0064661144 -0.0015438437
-0.0036745332 -0.0080336574 0.0014684375
-0.0038057666 -0.0050292001 -0.00036512496
-0.0024934334 -0.0015022287 -0.0048180623
-0.0028871333 -0.0068580001 -0.00062706246
0.0039369999 -6.5314285e-05 -0.0020677187
0.00052493333 0.0047679432 -0.0049490309
-0.0039369999 0.0062048575 0.0010755312
0.0039369999 0.0045066858 0.00094456255
-0.0010498667 -0.00019594286 -0.00036512496
0.0018372666 0.00058782857 -0.00036512496
-0.0018372666 -0.0097318292 -0.00036512496
-0.0035433001 -0.0060742288 -0.0021986875
0.0003937 -0.0055517145 -0.0049490309
0.0030183666 -0.0079030292 -0.0046870937
0.0030183666 0.0032004002 -0.0042941873
0.0030183666 -0.0092093144 -0.00403225
0.0022309667 0.0069886288 -0.00036512496
-0.0007874 -0.0093399435 -0.0049490309
0.0031496 0.0094705718 -0.0016748124
0 0.0081642857 -0.00036512496
-0.0028871333 -0.0030697715 -0.0048180623
0.0003937 -0.0094705718 -0.0049490309
-0.0036745332 0.0011103429 2.7781289e-05
-0.0011811 -0.01143 -0.0029845
0.0031496 0.0088174287 -0.0031154687
-0.0022309667 -0.0082949148 -0.0048180623
-0.0028871333 0.0043760571 -0.00088899996
-0.0039369999 -0.0039841714 -0.0010199687
0.0026246666 0.011168743 -0.00403225
0.0011811 -0.0021553715 -0.00036512496
0.0030183666 0.0096012 -0.0039012812
0.0018372666 0.0093399435 -0.0048180623
0.0003937 -0.0063354857 -0.0049490309
-0.0036745332 0.0071192575 -0.00062706246
-0.0030183666 -0.00084908574 -0.0012819062
-0.0036745332 -0.0059436001 -0.00075803121
0.0031496 0.0099930856 -0.0018057812
0.0019685 -0.011299372 -0.0042941873
0.0031496 -0.0064661144 -0.0018057812
-0.0010498667 -0.0051598288 -0.00036512496
0.0039369999 0.0022859999 -0.0014128749
-0.0011811 -0.0012409715 -0.0049490309
0.0039369999 -0.0050292001 -0.00062706246
-0.0031496 0.0039841714 -0.0016748124
0.0039369999 0.0073805144 -0.0023296562
-0.0031496 -0.0033310286 -0.0039012812
0.0027558999 -0.011038114 -0.00088899996
0.0030183666 0.0094705718 -0.0015438437
0.0034120667 0.0064661144 -0.0028535312
0.0030183666 -0.00019594286 -0.0014128749
-0.0026246666 -0.0067273718 -0.00036512496
-0.0014435666 -0.011299372 -0.00049609371
-0.0010498667 0.0013716001 -0.00036512496
0.0031496 -0.0056823432 -0.0019367499
-0.00013123333 0.0030697715 -0.00036512496
-0.0027558999 -0.0077724 -0.0048180623
-0.0039369999 0.0041148001 -0.00049609371
0.0038057666 0.0026778858 0.0021232814
0.0020997333 -0.0075111431 -0.00036512496
-0.0013123333 -0.0085561713 -0.00036512496
-0.0039369999 0.0025472571 0.0008135938
-0.0036745332 -0.0062048575 -0.00049609371
0.0036745332 -0.0028085143 -0.0028535312
-0.0035433001 0.00097971433 -0.0028535312
0.0039369999 0.00032657143 -0.00062706246
-0.00013123333 -0.0088174287 -0.00036512496
0.0039369999 -0.0080336574 -0.0020677187
0.0031496 -0.0079030292 -0.0018057812
0.0014435666 -0.0096012 -0.00036512496
-0.0026246666 0.0047679432 -0.0048180623
0.0038057666 0.0026778858 0.0030400625
0.0028871333 -0.0035922858 -0.00049609371
0.0011811 -6.5314285e-05 -0.00036512496
-0.0019685 -0.011299372 -0.0021986875
-0.0020997333 0.0060742288 -0.00036512496
0.0028871333 0.0022859999 -0.00088899996
-0.0038057666 0.00071845716 0.00068262505
-0.0022309667 0.011299372 -0.0014128749
-0.0031496 -0.008948057 -0.0018057812
0.0007874 -0.0067273718 -0.0049490309
-0.0039369999 0.0071192575 -0.0021986875
0.0036745332 -0.0030697715 -0.00010318746
0.0023622001 0.011168743 -0.0011509374
-0.0035433001 -0.0015022287 -0.0021986875
0.0034120667 -0.0016328571 -0.0029845
0.0039369999 0.0096012 -0.0019367499
0.00052493333 0.0092093144 -0.00036512496
-0.0003937 -0.010254343 -0.0049490309
-0.0035433001 0.0098624574 -0.00062706246
-0.0031496 6.5314285e-05 -0.0036393437
-0.0038057666 0.0059436001 0.0025161875
-0.0026246666 -0.010123715 -0.0048180623
0.0030183666 -0.002939143 -0.0046870937
-0.0030183666 0.0054210857 -0.0041632187
-0.0027558999 0.003853543 -0.0048180623
-0.0039369999 -0.0056823432 -0.0023296562
0.0028871333 -0.0050292001 -0.00049609371
-0.0030183666 0.0068580001 -0.0012819062
0.0036745332 0.0041148001 -0.00036512496
0.0018372666 0.0047679432 -0.0049490309
0.0015748 0.0084255431 -0.00036512496
0.0039369999 0.0073805144 -0.00062706246
0.0019685 0.0046373145 -0.00036512496
0.0039369999 0.0097318292 0.0010755312
0.0011811 -0.0063354857 -0.0049490309
-0.0035433001 0.008948057 -0.00075803121
-0.0039369999 0.002939143 -0.0020677187
0.0013123333 -0.0069886288 -0.0049490309
0.0028871333 0.0058129714 -0.00075803121
0.0039369999 0.0042454288 -0.00010318746
0.0018372666 0.0090786861 -0.00036512496
0.0028871333 -0.0032004002 -0.00075803121
0.0038057666 0.0016328571 -0.00036512496
-0.0039369999 -0.0090786861 -0.0011509374
-0.0032808334 -0.0094705718 -0.0021986875
-0.00026246667 0.0045066858 -0.0049490309
-0.0030183666 0.00097971433 -0.0041632187
-0.0031496 -0.0035922858 -0.0019367499
0.0039369999 0.0011103429 -0.00075803121
0.0036745332 0.0034616573 -0.0015438437
0.0015748 0.0016328571 -0.0049490309
0.0038057666 0.0063354857 0.0025161875
0.0036745332 0.0071192575 -0.0028535312
0.0015748 -0.002024743 -0.0049490309
-0.0038057666 -0.0013716001 -0.0027225625
-0.0030183666 -0.0069886288 -0.0010199687
-0.0024934334 -0.0013716001 -0.00036512496
0.0020997333 0.0064661144 -0.0049490309
-0.0018372666 -0.0071192575 -0.0049490309
-0.00013123333 0.010123715 -0.0049490309
-0.0030183666 -0.0058129714 -0.0010199687
0.0039369999 -0.0068580001 -0.0019367499
0.0038057666 0.0046373145 0.0030400625
-0.0031496 -0.0012409715 -0.0018057812
-0.0036745332 0.0081642857 -0.0028535312
-0.00013123333 0.0062048575 -0.00036512496
-0.0011811 0.0016328571 -0.00036512496
0.0030183666 0.0042454288 -0.0042941873
-0.0027558999 -0.0054210857 -0.00049609371
0.0035433001 0.0105156 -0.0021986875
-0.0035433001 -0.0082949148 -0.00075803121
0.0011811 0.011038114 -0.0048180623
-0.0030183666 -0.0018941143 -0.0042941873
0.0036745332 0.0051598288 -0.00036512496
0.0036745332 0.0068580001 -0.00049609371
-0.00065616664 0.0096012 -0.0049490309
-0.0038057666 0.0084255431 -0.00023415621
-0.0031496 0.0088174287 -0.0037703125
0.0031496 -0.010907486 -0.0019367499
-0.0039369999 0.0028085143 -0.0012819062
0.0031496 -0.0097318292 -0.0016748124
-0.0031496 0.011168743 -0.0027225625
0.00026246667 0.0099930856 -0.00036512496
-0.0018372666 -0.0028085143 -0.00036512496
0.0034120667 0.0073805144 -0.0023296562
-0.0011811 0.011168743 -0.0049490309
0.0036745332 -0.0062048575 -0.0028535312
0.0035433001 0.0024166286 -0.0012819062
-0.0003937 0.010907486 -0.0049490309
0.0010498667 0.0081642857 -0.0049490309
0.00013123333 0.01143 -0.0031154687
0.0013123333 -0.01143 -0.002460625
0.0039369999 -0.0094705718 -0.00062706246
-0.0022309667 0.0098624574 -0.0049490309
0.0031496 -0.0084255431 -0.0018057812
0.0031496 0.0097318292 -0.0029845
0.0014435666 0.011038114 -0.00049609371
0.0031496 0.0034616573 -0.0039012812
0.0010498667 -0.01143 -0.0028535312
0.00065616664 -0.0093399435 -0.0049490309
-0.0023622001 -0.0068580001 -0.0049490309
-0.0030183666 -0.010907486 -0.00075803121
0.0017060334 0.00071845716 -0.00036512496
0.0039369999 0.0043760571 -0.00036512496
0.0034120667 -0.0097318292 -0.0012819062
-0.0003937 0.0016328571 -0.0049490309
-0.0038057666 0.00084908574 0.0025161875
0.0011811 -0.01143 -0.0031154687
0.0031496 0.011038114 -0.0028535312
0.0039369999 0.008948057 -0.0018057812
-0.0030183666 0.0093399435 -0.0011509374
0.0028871333 -0.0045066858 -0.00088899996
-0.00065616664 -0.00045720002 -0.0049490309
-0.0031496 -0.010384971 -0.0031154687
-0.00065616664 0.0065967431 -0.00036512496
0.0031496 -0.003853543 -0.0039012812
0.0039369999 -0.0030697715 -0.00010318746
0.0007874 -0.0069886288 -0.0049490309
0.0036745332 0.0028085143 -0.0015438437
0.0035433001 0.0013716001 -0.0012819062
-0.0028871333 -0.0090786861 -0.00049609371
-0.00026246667 0.00071845716 -0.0049490309
-0.0032808334 -0.0042454288 -0.0031154687
-0.0024934334 0.0080336574 -0.00036512496
-0.0035433001 -0.0025472571 -0.0028535312
0.0022309667 -0.011299372 -0.0016748124
0.0038057666 -0.0079030292 0.0013374687
-0.0023622001 -0.0097318292 -0.0048180623
0.0010498667 -6.5314285e-05 -0.0049490309
0.0039369999 0.0094705718 -0.0016748124
-0.0031496 -0.0028085143 -0.0037703125
-0.0038057666 0.0062048575 0.00042068755
-0.00052493333 0.0084255431 -0.00036512496
-0.0014435666 0.010254343 -0.0049490309
0.0036745332 0.0080336574 0.001730375
-0.0030183666 -0.0098624574 -0.0014128749
-0.0018372666 0.0034616573 -0.0049490309
0.0015748 -0.010254343 -0.00036512496
-0.0013123333 0.0037229145 -0.0049490309
0.0039369999 0.0028085143 -0.00088899996
0.0031496 0.0015022287 -0.003508375
0.0031496 -0.00045720002 -0.0019367499
-0.0039369999 -0.0043760571 -0.0025915937
0.0039369999 0.0093399435 -0.002460625
0.0036745332 0.0043760571 -0.0019367499
0.0036745332 0.0081642857 -0.00062706246
-0.0018372666 -0.0030697715 -0.00036512496
-0.0007874 0.01143 -0.0019367499
-0.0031496 0.0021553715 -0.0020677187
0.0028871333 -0.0062048575 -0.00075803121
-0.0035433001 -0.0099930856 -0.00075803121
0.0027558999 -0.0052904575 -0.00036512496
0.0038057666 0.0077724 0.00068262505
0.0011811 -0.0051598288 -0.00036512496
-0.0030183666 -0.0098624574 -0.0015438437
-0.0038057666 -0.0098624574 0.0012065
0.0038057666 0.0056823432 -0.00036512496
-0.0039369999 0.0013716001 -0.00062706246
0.0039369999 0.0062048575 -0.00088899996
0.00026246667 0.0012409715 -0.0049490309
0.0035433001 -0.0011103429 -0.0012819062
-0.0034120667 -0.0060742288 -0.0023296562
0.0039369999 -0.0063354857 -0.0010199687
-0.0039369999 0.0081642857 0.0012065
0.0035433001 0.0076417718 -0.0014128749
0.0018372666 -0.0105156 -0.00036512496
0.0030183666 0.0105156 -0.00088899996
-0.0038057666 -0.0030697715 -0.0027225625
0.0030183666 -0.0092093144 -0.00049609371
-0.00065616664 0.010776858 -0.00036512496
0.0007874 -0.00045720002 -0.00036512496
-0.0014435666 0.010123715 -0.0049490309
0.0030183666 0.0016328571 -0.004556125
0.0035433001 0.0093399435 -0.0020677187
-0.0034120667 -0.008948057 -0.0018057812
-0.0039369999 0.0077724 -0.00049609371
0.0027558999 0.0071192575 -0.0048180623
-0.0032808334 0.008948057 -0.0033774062
0.0022309667 -0.0077724 -0.00036512496
-0.0035433001 -6.5314285e-05 -0.0028535312
0.0035433001 0.0096012 -0.0015438437
-0.0036745332 0.002024743 -0.0012819062
0.0028871333 0.0035922858 -0.00062706246
0.0007874 0.01143 -0.0039012812
0.0032808334 0.002024743 -0.0021986875
0.0038057666 -0.00058782857 -0.0027225625
-0.0039369999 0.0076417718 -0.0011509374
-0.0036745332 -0.0025472571 -0.00088899996
-0.0034120667 -0.0064661144 -0.0023296562
-0.0017060334 0.0093399435 -0.00036512496
-0.0039369999 0.0034616573 -0.00062706246
0.0030183666 -0.0043760571 -0.0044251559
0.0035433001 0.0081642857 -0.0016748124
0.0026246666 -0.0071192575 -0.0049490309
-0.0039369999 -0.0088174287 -0.002460625
0.0031496 -0.0032004002 -0.0036393437
0.0035433001 0.00019594286 -0.00062706246
-0.0028871333 -0.0054210857 -0.00062706246
-0.0020997333 0.0059436001 -0.00036512496
0.0013123333 0.011168743 -0.00049609371
-0.0023622001 0.0017634857 -0.00036512496
0.0038057666 -0.0068580001 -0.00036512496
0.0030183666 0.0060742288 -0.0012819062
-0.0003937 0.0092093144 -0.00036512496
0.00026246667 0.010384971 -0.00036512496
-0.0036745332 -0.0028085143 -0.00023415621
0.0024934334 0.0077724 -0.0048180623
0.0031496 -0.00071845716 -0.0016748124
-0.0022309667 -0.011299372 -0.0029845
-0.0030183666 -0.0042454288 -0.0041632187
-0.0035433001 0.0079030292 -0.00062706246
0.00052493333 0.0026778858 -0.00036512496
-0.0035433001 -0.0096012 -0.0010199687
0.0027558999 0.0034616573 -0.0048180623
0.0030183666 -0.0097318292 -0.0037703125
-0.0007874 -0.0085561713 -0.00036512496
0.0019685 0.003853543 -0.00036512496
0.00052493333 -0.011299372 -0.0025915937
0.0036745332 -0.0042454288 -0.00010318746
0.00065616664 0.01143 -0.00403225
-0.0039369999 0.0018941143 -0.0011509374
-0.0030183666 -0.010776858 -0.003508375
0.0015748 -0.0012409715 -0.0049490309
-0.0035433001 -0.0039841714 -0.0021986875
-0.0035433001 0.0085561713 -0.0018057812
0.0027558999 -0.0025472571 -0.00036512496
-0.0039369999 0.0051598288 -0.0011509374
0.0026246666 -0.0024166286 -0.00036512496
0.0030183666 -0.0058129714 -0.0044251559
0.0034120667 -0.0071192575 -0.0029845
0.0022309667 -0.0033310286 -0.0049490309
0.0009186333 -0.011038114 -0.00036512496
-0.0038057666 0.0039841714 -0.00023415621
-0.0039369999 -0.0097318292 -0.00088899996
0.0038057666 -0.00071845716 2.7781289e-05
-0.0020997333 -0.00019594286 -0.00036512496
-0.0036745332 0.0071192575 -0.00049609371
0.0031496 -0.0085561713 -0.0036393437
0.0032808334 -0.00097971433 -0.0032464375
0.0039369999 -0.0033310286 -0.0016748124
0.0031496 -0.0017634857 -0.0036393437
-0.0039369999 0.0022859999 -0.0020677187
-0.0035433001 -0.0080336574 -0.00075803121
-0.0013123333 -0.0084255431 -0.00036512496
-0.0031496 -0.0071192575 -0.0020677187
0.0030183666 -0.0018941143 -0.0014128749
-0.0039369999 0.0046373145 -0.0020677187
0.0022309667 0.010384971 -0.0048180623
0.0035433001 -0.0024166286 -0.0020677187
0.0032808334 -0.00058782857 -0.0029845
-0.0039369999 0.0024166286 -0.00036512496
0.0035433001 0.00019594286 -0.0019367499
-0.00013123333 -0.0098624574 -0.00036512496
0.0034120667 -0.0088174287 -0.0016748124
-0.0036745332 0.0037229145 -0.0015438437
-0.0027558999 -0.0015022287 -0.0048180623
-0.0039369999 0.0033310286 -0.00088899996
0.0003937 0.0068580001 -0.00036512496
-0.0035433001 -0.0073805144 -0.00062706246
0.0035433001 0.0097318292 -0.0015438437
-0.0018372666 -0.0076417718 -0.0049490309
-0.0039369999 0.0063354857 -0.0027225625
0.0015748 0.00071845716 -0.00036512496
-0.0032808334 -0.0093399435 -0.0021986875
-0.0039369999 -6.5314285e-05 -0.00049609371
-0.0039369999 -0.0042454288 -0.00088899996
-0.0036745332 0.00071845716 -0.0011509374
0.0030183666 -0.0024166286 -0.004556125
-0.0035433001 0.0084255431 -0.00062706246
-0.0038057666 -0.0028085143 0.00015875004
0.0024934334 -0.0024166286 -0.0049490309
-0.0038057666 -0.0063354857 0.00042068755
-0.0031496 0.0047679432 -0.0016748124
0.0031496 -0.008948057 -0.0020677187
0.0039369999 0.0026778858 0.0021232814
-0.0031496 -0.0062048575 -0.0039012812
-0.0019685 -0.0063354857 -0.00036512496
-0.0026246666 0.0046373145 -0.00036512496
0.0036745332 0.0041148001 -0.00049609371
-0.0027558999 -0.011299372 -0.0016748124
0.0030183666 -0.0065967431 -0.0011509374
0.0018372666 0.010123715 -0.00036512496
-0.0031496 0.002024743 -0.0018057812
-0.0039369999 0.0072498857 -0.00049609371
0.0039369999 0.0016328571 -0.00036512496
0.0031496 0.0034616573 -0.003508375
-0.0039369999 0.0084255431 -0.0011509374
0.0009186333 -0.0025472571 -0.0049490309
0.0039369999 -0.0073805144 -0.0023296562
-0.0015748 -0.00084908574 -0.0049490309
0.0018372666 0.010907486 -0.00049609371
-0.0039369999 -0.0054210857 -0.0014128749
-0.0039369999 0.0075111431 -0.00088899996
-0.0003937 -0.0011103429 -0.00036512496
0.0018372666 -0.0050292001 -0.00036512496
-0.0031496 0.0041148001 -0.0019367499
0.00013123333 -0.011299372 -0.0020677187
-0.0039369999 -0.0021553715 -0.0018057812
0.0039369999 0.0090786861 -0.0018057812
-0.0031496 0.00019594286 -0.0020677187
0.0023622001 0.011168743 -0.00062706246
0.0039369999 -6.5314285e-05 -0.0011509374
0.00026246667 -0.0096012 -0.00036512496
0.0010498667 -0.0042454288 -0.0049490309
0.0032808334 -0.0026778858 -0.0033774062
0.0015748 -0.00019594286 -0.0049490309
0.00026246667 -0.0013716001 -0.00036512496
0.0030183666 -0.0042454288 -0.0012819062
0.0003937 -0.0072498857 -0.00036512496
0.0039369999 0.0079030292 -0.00062706246
-0.0014435666 -0.0056823432 -0.0049490309
0.0020997333 -0.00097971433 -0.0049490309
0.0030183666 0.0024166286 -0.0012819062
0.0035433001 -0.0058129714 -0.0028535312
0.0024934334 -0.0081642857 -0.0049490309
0.0030183666 0.0024166286 -0.0014128749
-0.0039369999 -0.0028085143 -0.0020677187
0.0011811 0.008948057 -0.0049490309
0.0003937 -6.5314285e-05 -0.0049490309
0.0039369999 -0.00058782857 -0.0021986875
0.0031496 -0.010254343 -0.0031154687
-0.0011811 0.0094705718 -0.00036512496
0.0019685 -0.01143 -0.0025915937
0.0011811 0.0055517145 -0.0049490309
0.0035433001 -0.0033310286 -0.0020677187
-0.00026246667 -0.002939143 -0.0049490309
0.0014435666 -0.00097971433 -0.00036512496
-0.0030183666 -0.0060742288 -0.0042941873
-0.0038057666 -0.0097318292 -0.00049609371
-0.0003937 -0.01143 -0.0014128749
-0.0036745332 -0.0026778858 -0.00010318746
0.0027558999 0.010384971 -0.0046870937
-0.0031496 -0.0048985714 -0.0019367499
0.00052493333 -0.010646229 -0.00036512496
-0.0036745332 0.0069886288 -0.00062706246
-0.0015748 0.0011103429 -0.00036512496
0.00026246667 -0.0064661144 -0.00036512496
-0.0014435666 0.0062048575 -0.00036512496
-0.0034120667 0.010646229 -0.0027225625
-0.0031496 -0.008948057 -0.003508375
-0.0011811 6.5314285e-05 -0.00036512496
-0.0039369999 -0.0012409715 -0.0016748124
0.0039369999 -0.008948057 -0.00075803121
-0.0039369999 0.0018941143 -0.0025915937
0.0039369999 0.003853543 -0.0012819062
-0.0028871333 0.0088174287 -0.00088899996
-0.0039369999 0.0062048575 0.00094456255
-0.0039369999 -0.0043760571 -0.0021986875
-0.0024934334 -0.0077724 -0.0048180623
0.0036745332 0.0063354857 2.7781289e-05
0.0028871333 6.5314285e-05 -0.0048180623
0.0032808334 -0.0047679432 -0.0021986875
-0.00013123333 -0.011299372 -0.0027225625
-0.0036745332 0.0026778858 -0.00023415621
0.0007874 0.0068580001 -0.00036512496
0.0034120667 -0.0077724 -0.0029845
0.00013123333 -0.0025472571 -0.0049490309
-0.0039369999 0.0088174287 -0.00062706246
0.0035433001 0.00071845716 -0.0019367499
-0.0013123333 -0.0072498857 -0.00036512496
-0.0030183666 -0.0064661144 -0.0042941873
0.0020997333 0.00071845716 -0.00036512496
0.0003937 0.011299372 -0.004556125
-0.0039369999 -0.0097318292 0.00015875004
0.0011811 -0.0028085143 -0.00036512496
-0.0007874 0.0086868005 -0.0049490309
0.0024934334 0.011299372 -0.0028535312
-0.0018372666 0.011299372 -0.0012819062
0.00065616664 -0.0025472571 -0.0049490309
0.0019685 0.0015022287 -0.0049490309
0.0035433001 -0.00097971433 -0.0028535312
0.0039369999 -0.0076417718 -0.0025915937
-0.00052493333 -0.011299372 -0.0025915937
-0.0024934334 0.0017634857 -0.00036512496
0.0030183666 0.0093399435 -0.00075803121
-0.0039369999 0.0046373145 -0.0019367499
-0.0028871333 -6.5314285e-05 -0.00088899996
-0.0038057666 -0.0063354857 0.002778125
-0.00052493333 0.010254343 -0.00036512496
0.0019685 -0.01143 -0.002460625
0.0026246666 0.0021553715 -0.0048180623
-0.0035433001 0.0059436001 -0.0021986875
-0.0028871333 -0.0092093144 -0.00049609371
0.0030183666 0.0062048575 -0.004556125
0.0030183666 0.0085561713 -0.0042941873
0.0034120667 -0.010123715 -0.00049609371
-0.0003937 -0.0072498857 -0.0049490309
-0.00052493333 0.0035922858 -0.00036512496
0.0039369999 -0.0046373145 -0.0020677187
-0.0030183666 -0.0085561713 -0.0011509374
0.0013123333 -0.011299372 -0.00049609371
0.0023622001 -0.011299372 -0.0025915937
0.0039369999 -0.0075111431 -0.0010199687
-0.0036745332 0.0013716001 -0.0016748124
-0.0026246666 -0.0015022287 -0.00036512496
0.0038057666 -0.0060742288 0.0030400625
-0.0010498667 -0.0046373145 -0.0049490309
-0.0030183666 -0.0026778858 -0.0010199687
0.0010498667 0.0063354857 -0.0049490309
-0.0014435666 -0.0016328571 -0.00036512496
0.0011811 0.0076417718 -0.00036512496
-0.0030183666 0.003853543 -0.0011509374
0.0039369999 -0.0068580001 -0.0015438437
-0.0039369999 -0.00071845716 -0.0027225625
-0.0027558999 0.00097971433 -0.00049609371
0.00013123333 -0.0084255431 -0.0049490309
0.0010498667 -0.00058782857 -0.00036512496
-0.0013123333 -0.011299372 -0.0014128749
0.0030183666 -0.010384971 -0.0033774062
0.0027558999 -0.0084255431 -0.00036512496
-0.0039369999 -0.0072498857 -0.0018057812
-0.0028871333 -6.5314285e-05 -0.00075803121
0.0028871333 0.00032657143 -0.00088899996
-0.0018372666 0.0090786861 -0.0049490309
-0.0017060334 0.0016328571 -0.00036512496
-0.0020997333 0.010907486 -0.0049490309
-0.0010498667 -0.011299372 -0.00075803121
0.0036745332 0.0064661144 -0.00062706246
0.0003937 0.0059436001 -0.0049490309
-0.0026246666 0.011299372 -0.0019367499
0.0034120667 -0.0096012 -0.0018057812
-0.0038057666 0.00019594286 -0.00036512496
0.0017060334 -0.0090786861 -0.0049490309
0.00013123333 0.0035922858 -0.00036512496
0.0035433001 -0.0072498857 -0.00049609371
0.0039369999 -0.0088174287 -0.00062706246
0.0036745332 0.0035922858 -0.0014128749
0 0.0045066858 -0.00036512496
-0.0032808334 -0.0037229145 -0.0032464375
-0.0018372666 -0.0041148001 -0.00036512496
-0.0003937 -0.0039841714 -0.00036512496
0.0035433001 -6.5314285e-05 -0.00075803121
0.0014435666 -0.0069886288 -0.0049490309
-0.0039369999 0.0021553715 -0.0019367499
0.0039369999 0.0013716001 -0.00088899996
0.0035433001 -0.0048985714 -0.00088899996
-0.0039369999 -0.0059436001 -0.0011509374
0.00052493333 -0.0084255431 -0.00036512496
-0.0036745332 -0.0067273718 -0.0011509374
-0.0038057666 0.0011103429 0.0002897188
0.0027558999 -0.010776858 -0.0046870937
-0.0039369999 -0.00058782857 -0.0018057812
0.0036745332 0.010254343 -0.0015438437
0.0019685 -6.5314285e-05 -0.00036512496
0.0010498667 0.0013716001 -0.00036512496
-0.0036745332 -0.0062048575 0.0008135938
-0.0013123333 -0.0041148001 -0.00036512496
-0.0030183666 -0.0075111431 -0.00403225
-0.0020997333 -0.0062048575 -0.00036512496
0.0039369999 -0.0072498857 -0.00062706246
-0.0018372666 -0.0084255431 -0.0049490309
0.0032808334 -0.0018941143 -0.0031154687
0.00013123333 0.0033310286 -0.0049490309
0.0035433001 -0.0082949148 -0.00075803121
0.0011811 -0.0013716001 -0.0049490309
-0.0026246666 -0.011168743 -0.004556125
0.0030183666 -0.0045066858 -0.0011509374
0.0031496 0.0071192575 -0.003508375
0.0003937 0.0025472571 -0.00036512496
0.0027558999 -0.0039841714 -0.00036512496
-0.00052493333 -0.0072498857 -0.0049490309
0.00065616664 -0.0071192575 -0.0049490309
-0.0035433001 -0.00019594286 -0.0020677187
0.0022309667 -0.0090786861 -0.00036512496
-0.0039369999 0.0052904575 -0.0012819062
-0.0039369999 0.0046373145 -0.00062706246
-0.0017060334 0.0063354857 -0.00036512496
0.00065616664 -0.0067273718 -0.0049490309
0.00026246667 0.008948057 -0.00036512496
-0.0036745332 0.0051598288 -0.0014128749
0.0032808334 -0.0054210857 -0.0033774062
0.0035433001 0.0090786861 -0.00075803121
-0.0028871333 0.002024743 -0.0048180623
-0.0028871333 0.010254343 -0.0044251559
-0.0014435666 0.0018941143 -0.00036512496
0.0026246666 0.0098624574 -0.00049609371
0 -0.011299372 -0.0036393437
0.0038057666 0.0060742288 0.0014684375
-0.0015748 -0.011299372 -0.0044251559
0.0035433001 -0.0024166286 -0.0011509374
-0.0039369999 0.0015022287 -0.0027225625
-0.0031496 0.0098624574 -0.0033774062
-0.0023622001 -0.011299372 -0.0041632187
-0.0039369999 -0.0017634857 -0.00075803121
-0.0020997333 -0.0060742288 -0.00036512496
-0.0039369999 -0.00045720002 -0.00088899996
0.00065616664 0.0051598288 -0.00036512496
-0.00013123333 -0.010123715 -0.00036512496
0.0011811 0.0043760571 -0.00036512496
0.0030183666 0.010907486 -0.0019367499
-0.0038057666 0.0098624574 0.00225425
0.0039369999 -0.0025472571 0.0026471564
-0.0035433001 0.00071845716 -0.0021986875
-0.0013123333 0.011299372 -0.0018057812
0.0035433001 0.0075111431 -0.0019367499
0.0031496 -0.0051598288 -0.0019367499
-0.0035433001 -0.0069886288 -0.0019367499
0.0034120667 0.0090786861 -0.0021986875
-0.0023622001 -0.0084255431 -0.0048180623
-0.0003937 0.01143 -0.0021986875
0.0036745332 -0.010384971 -0.0023296562
-0.0038057666 -0.0079030292 0.0019923125
0.0027558999 0.011038114 -0.0033774062
-0.0023622001 0.00045720002 -0.0049490309
-0.0036745332 0.00084908574 -0.0012819062
-0.0039369999 0.0046373145 -0.00036512496
-0.0011811 -0.011299372 -0.00062706246
-0.0019685 0.011299372 -0.0031154687
0.0010498667 -0.011299372 -0.00075803121
-0.0038057666 -0.0097318292 0.0002897188
0.0032808334 -0.0092093144 -0.0031154687
0.0028871333 0.0025472571 -0.00049609371
-0.00026246667 0.011299372 -0.0041632187
0.0039369999 -0.0062048575 -0.00023415621
0.0036745332 0.0052904575 -0.0015438437
