# .PCD v0.7 - Point Cloud Data file format
VERSION 0.7
FIELDS x y z
SIZE 4 4 4
TYPE F F F
COUNT 1 1 1
WIDTH 1204
HEIGHT 1
VIEWPOINT 0 0 0 1 0 0 0
POINTS 1204
DATA ascii
0.001867647 -0.0036830001 3.10471e-05
0.0029882353 -0.0023608974 0.033672407
-0.0061632353 -0.0004721795 0.032557223
0.004295588 -0.00084992306 0.0089525133
0.00018676471 -0.0027386411 0.015457748
-0.004295588 -0.0036830001 0.0039341883
-0.0041088234 -0.0004721795 0.0018896859
0.0035485295 -0.0027386411 0.010067696
-0.0052294116 0.0033052564 0.0074656019
-0.00074705883 0.0012276666 0.017130524
-0.0033617646 -0.00084992306 0.013413246
-0.0041088234 -0.00028330769 0.010625288
-0.0024279412 0.0025497691 -0.00015481676
-0.0013073529 0.00084992306 0.033114817
-0.0052294116 0.0025497691 0.02270644
0 -0.0031163846 0.00077450258
0.003175 -0.0029275129 0.017130524
-0.00056029408 -0.0025497691 0.00077450258
0.005042647 0.0031163846 0.02995513
-0.0033617646 -0.0014165385 0.021219529
0.0035485295 -0.0033052564 0.030698586
0.0033617646 -0.00084992306 0.026795445
0.0013073529 -0.0029275129 -0.00034068065
0.0063499999 -0.001794282 0.0018896859
0.0033617646 -0.0010387949 0.030698586
0.0052294116 -0.0019831539 0.033858273
-0.0033617646 0.0021720256 -0.00015481676
-0.0044823526 -0.0036830001 0.027167173
0.00093382352 -0.0036830001 0.032928951
-0.0037352941 -0.00066105131 0.020847801
-0.0033617646 -0.001794282 0.019175027
-0.0054161763 -0.0004721795 0.028096491
-0.005042647 0.0012276666 0.0076514659
-0.0061632353 -0.0016054102 0.03088445
-0.005789706 0.00084992306 0.027538899
0.0048558824 -0.0016054102 -0.0010841361
0.0048558824 0.0034941281 0.024936806
0.0052294116 -0.0036830001 0.014528429
-0.0061632353 -0.0010387949 0.025680261
0.0044823526 -0.0036830001 3.10471e-05
0.0056029409 0.00066105131 0.024936806
0.0033617646 -0.0027386411 0.01508602
0.0056029409 -0.0034941281 0.011740471
0.0044823526 -0.0036830001 0.029769266
-0.0037352941 -0.0004721795 0.0072797383
0.0041088234 0.0016054102 0.027538899
-0.00074705883 -0.0023608974 -0.00015481676
0.0035485295 -0.0027386411 0.0017038219
-0.00074705883 -0.0027386411 0.031999633
-0.0061632353 -0.0033052564 0.015457748
-0.0052294116 0.0010387949 0.0098818326
-0.0033617646 -0.00084992306 0.030512722
0.0033617646 -0.00084992306 0.028839948
0.0013073529 -0.00066105131 0.00058863871
0.00056029408 -0.0012276666 0.031813771
-0.005789706 0.0004721795 -0.00015481676
0.0056029409 -0.0034941281 0.027910627
0.0035485295 -0.0029275129 0.029211676
0.0056029409 0.0004721795 0.02995513
0.0033617646 -0.0014165385 0.0096959686
0.0059764707 9.4435898e-05 0.012669791
-0.0054161763 0.0031163846 0.0024472775
-0.0024279412 -0.0036830001 0.016572932
0.0056029409 0.00028330769 0.0026331414
-0.0035485295 -0.0031163846 0.033672407
-0.0048558824 0.001794282 0.01750225
-0.0046691177 0.0025497691 0.02995513
0.0054161763 0.0016054102 0.0074656019
0.00093382352 -0.0031163846 0.033486545
-0.0011205882 0.0027386411 0.00021691098
0.0039220587 -0.0036830001 0.030140994
0.0037352941 0.0016054102 0.032557223
-0.0063499999 -0.0023608974 0.014714293
-0.0033617646 -0.00084992306 -0.0010841361
-0.0041088234 0.00028330769 0.02512267
0.0039220587 -0.0004721795 0.0093242405
0.0052294116 0.0023608974 0.027538899
-0.00018676471 0.00066105131 0.031999633
0.00056029408 -0.0012276666 0.00077450258
-0.0033617646 -0.0019831539 0.0048635076
-0.003175 -0.0036830001 3.10471e-05
-0.0048558824 -0.00084992306 0.00077450258
0.0063499999 -0.001794282 0.01508602
-0.0044823526 -0.00084992306 0.0091383765
0.0052294116 0.0025497691 0.017688114
-0.0033617646 -0.0025497691 0.025308535
-0.0033617646 -0.0025497691 0.0024472775
-0.0014941177 -0.0036830001 0.032928951
0.0035485295 0.0029275129 0.032557223
-0.0039220587 0.00084992306 0.01508602
0.0033617646 -0.00084992306 0.029769266
0.0052294116 -0.0034941281 0.031256177
-0.0054161763 0.00028330769 0.032743089
-0.00056029408 0.0012276666 0.00021691098
-0.0061632353 -0.0010387949 0.0022614135
0.0054161763 -0.00066105131 0.0082090572
-0.0016808823 0.0010387949 -0.00015481676
0.0063499999 -0.0014165385 0.02419335
0.0063499999 -0.0027386411 0.0015179581
-0.0061632353 -0.0014165385 0.0037483245
0.003175 0.0029275129 -0.00015481676
0.004295588 -9.4435898e-05 0.00058863871
0.0046691177 -0.0004721795 0.013970838
-0.005042647 0.0004721795 0.032743089
0.0044823526 0.0010387949 0.024936806
-0.0048558824 0.0027386411 0.022520576
0.00074705883 -0.0025497691 0.031999633
0.0033617646 -0.0016054102 0.030140994
0.0035485295 -0.0033052564 0.0018896859
-0.0033617646 -0.0023608974 0.0015179581
0.0052294116 -0.0004721795 0.010811152
0.0041088234 -0.0036830001 -0.00071240839
-0.0044823526 -9.4435898e-05 0.01025356
-0.0044823526 -0.0036830001 0.011368743
-0.0048558824 -0.0036830001 0.031627905
-0.00093382352 -0.0036830001 0.00077450258
0.0041088234 0.0019831539 0.01508602
-0.0033617646 -0.0014165385 0.011740471
-0.0054161763 0.0025497691 0.020104345
-0.0037352941 -0.00066105131 0.0054210993
-0.0028014705 -0.0016054102 0.00077450258
0.0033617646 -0.00084992306 0.024750942
0.005042647 0.0027386411 0.0026331414
-0.0035485295 -0.00084992306 0.011554607
-0.0011205882 -0.0014165385 0.015271884
-0.005042647 9.4435898e-05 0.029769266
0.0020544117 0.0033052564 0.00021691098
-0.0059764707 -0.0025497691 0.033672407
-0.0011205882 0.0021720256 -0.00015481676
0.0041088234 0.0004721795 0.0022614135
0.0033617646 -0.0023608974 0.0035624607
0.0052294116 -9.4435898e-05 0.00058863871
-0.005042647 -0.0036830001 0.01750225
-0.0056029409 0.0016054102 0.02512267
0.00093382352 0.0004721795 0.015643612
-0.0059764707 -0.0034941281 0.022148848
-0.00093382352 0.0019831539 3.10471e-05
0.00056029408 0.0025497691 3.10471e-05
-0.0061632353 -0.0033052564 0.014342565
0.0039220587 -0.0034941281 -0.00089827226
-0.0033617646 -0.0023608974 0.0020755497
-0.0048558824 0.0025497691 0.027538899
0.004295588 -0.0004721795 -0.00052654452
-0.0035485295 -0.00028330769 0.01750225
0.0056029409 -0.00028330769 0.018245706
0.00056029408 -0.0036830001 0.015829476
-0.005042647 0.00084992306 0.02270644
-0.005789706 0.0004721795 0.019918481
0.0063499999 -0.0029275129 0.017873978
-0.0033617646 -0.0019831539 0.011182879
-0.0063499999 -0.0016054102 0.0098818326
-0.0033617646 -0.0027386411 0.0017038219
0.0033617646 -0.0021720256 0.010439424
0.0013073529 -0.0014165385 -0.00071240839
0.0033617646 -0.0016054102 0.018989163
-0.00056029408 0.0029275129 0.00021691098
-0.0046691177 0.0016054102 0.012483926
-0.0061632353 -0.001794282 0.0035624607
0.0041088234 -0.0036830001 0.017873978
-0.0029882353 -0.0029275129 -0.0010841361
-0.0063499999 -0.0019831539 0.0020755497
0.0059764707 -0.00066105131 0.024379214
0.0033617646 -0.00066105131 0.01601534
0.0054161763 -0.00066105131 0.015829476
0.0020544117 -0.0025497691 -0.0010841361
-0.0013073529 9.4435898e-05 -0.00034068065
-0.0054161763 -0.0023608974 0.033672407
-0.0048558824 0.0027386411 0.01750225
-0.00056029408 -0.0023608974 0.00077450258
0.0033617646 -0.0019831539 0.010997016
-0.0020544117 -0.0004721795 0.015457748
0.0063499999 -0.0016054102 0.0015179581
0.0044823526 -0.0036830001 0.022148848
0.0048558824 -0.00028330769 0.024379214
0.0024279412 -0.0004721795 0.016572932
0.005042647 0.0010387949 0.0048635076
-0.0033617646 -0.0012276666 0.019360891
-0.0033617646 -0.0031163846 0.029397538
-0.0063499999 -0.0023608974 0.003004869
0.0063499999 -0.0021720256 0.017688114
0.0037352941 -0.00066105131 0.028282356
-0.0052294116 0.0023608974 0.012483926
0.00056029408 9.4435898e-05 0.015829476
0.0061632353 -0.00066105131 0.027724763
0.0061632353 -0.00028330769 0.0098818326
-0.00093382352 -0.00028330769 0.016572932
-0.0061632353 -0.00084992306 0.031442042
-0.0044823526 -0.0036830001 0.017688114
-0.0063499999 -0.0025497691 0.0013320942
-0.0037352941 -0.00066105131 0.026609581
-0.0039220587 -0.0004721795 0.01601534
-0.0054161763 0.0031163846 3.10471e-05
-0.0033617646 -0.0014165385 0.020104345
0.0046691177 0.00028330769 0.0096959686
-0.0041088234 -0.0036830001 0.0013320942
-0.0033617646 -0.0025497691 0.0089525133
-0.0061632353 -0.0016054102 0.01843157
0.0044823526 -0.0036830001 0.0054210993
0.0035485295 -0.0031163846 0.0018896859
0.00093382352 -0.0036830001 0.015643612
0.0063499999 -0.0021720256 0.0013320942
-0.0033617646 -0.0034941281 0.026795445
-0.0052294116 -0.0004721795 0.023635758
0.005042647 0.0027386411 0.012483926
0.0048558824 0.0029275129 0.022520576
0.003175 0.0025497691 0.00021691098
0.0022411763 0.00066105131 0.015643612
0.0059764707 -0.0034941281 0.019546753
0.0041088234 -0.0004721795 -0.00052654452
0.0063499999 -0.0027386411 0.012298062
-0.0016808823 -0.0021720256 0.031813771
0.00056029408 -0.0010387949 0.015271884
0.0063499999 -0.0016054102 0.020661937
0.0063499999 -0.0025497691 0.0074656019
0.00056029408 -0.0036830001 0.016201204
-0.0054161763 0.0004721795 0.0074656019
0.0052294116 0.0019831539 0.012483926
-0.0063499999 -0.0021720256 0.0026331414
0.0061632353 -0.0010387949 0.030140994
-0.0063499999 -0.0019831539 0.027538899
-0.0044823526 -0.0036830001 0.0018896859
-0.0044823526 -0.0021720256 -0.0010841361
-0.00037352942 0.00066105131 0.015457748
-0.005042647 0.0019831539 0.022520576
0.0056029409 0.00066105131 0.0024472775
-0.00056029408 -0.0031163846 0.017130524
-0.005789706 0.0012276666 0.027538899
0.003175 0.00066105131 0.032557223
-0.0054161763 -0.00066105131 0.023449894
-0.0052294116 -0.0036830001 0.0018896859
0.0035485295 -0.00084992306 0.0017038219
0.0048558824 -0.0036830001 0.026051989
0.0026147058 9.4435898e-05 0.01694466
-0.0054161763 0.0025497691 0.02512267
-0.0039220587 0.00028330769 0.032743089
0.0033617646 -0.0023608974 0.023821622
-0.0046691177 -0.0004721795 0.011926335
0.0056029409 0.00028330769 0.0076514659
-0.0022411763 -0.001794282 -0.0010841361
0.005042647 0.0033052564 0.02995513
-0.0056029409 -0.0036830001 0.011182879
0.0037352941 9.4435898e-05 0.030140994
-0.00018676471 -0.0027386411 0.033672407
-0.0013073529 0.0031163846 3.10471e-05
-0.00093382352 -9.4435898e-05 0.016572932
0.0054161763 0.0019831539 0.00021691098
-0.0063499999 -0.0025497691 0.021962984
0.0033617646 -0.00084992306 0.008023194
-0.0056029409 0.0014165385 0.0098818326
-0.0063499999 -0.0014165385 3.10471e-05
-0.0048558824 0.0025497691 0.010067696
-0.0063499999 -0.0019831539 0.0048635076
0.0033617646 -0.001794282 0.010439424
0.0054161763 -0.0034941281 0.01750225
-0.0063499999 -0.0021720256 0.013970838
0.00056029408 -0.0036830001 0.01694466
-0.0056029409 -0.0036830001 0.008023194
0.0061632353 -0.00084992306 0.0015179581
-0.005042647 -0.0036830001 0.022892304
-0.0041088234 0.0012276666 0.022520576
-0.0033617646 -0.0029275129 0.0093242405
0.0029882353 -0.0036830001 3.10471e-05
0.0046691177 -0.001794282 -0.0010841361
-0.0016808823 -0.0029275129 0.031999633
0.00018676471 -0.0004721795 3.10471e-05
-0.0054161763 -0.00084992306 0.019175027
0.0048558824 0.0027386411 0.01750225
-0.0046691177 -0.0036830001 0.021219529
-0.00074705883 0.0031163846 3.10471e-05
-0.0059764707 0.0004721795 0.019918481
-0.005042647 -0.0036830001 0.010067696
-0.003175 -0.0036830001 0.01694466
0.00093382352 -0.0019831539 0.00058863871
-0.0037352941 -0.00066105131 0.023449894
-0.005789706 -0.00084992306 0.02419335
0.0016808823 -0.00084992306 0.016201204
-0.0048558824 -0.0036830001 0.0015179581
0.0046691177 0.0004721795 0.032371361
0.005789706 -0.00066105131 0.0093242405
-0.0063499999 -0.0021720256 0.018803298
-0.0059764707 9.4435898e-05 0.027538899
-0.0046691177 0.0014165385 0.030140994
0.0041088234 -0.0036830001 0.0020755497
0.0052294116 -9.4435898e-05 0.0056069633
0.0037352941 0.00084992306 0.00021691098
0.0033617646 -0.001794282 0.0054210993
0.0056029409 -0.0004721795 0.018245706
0.0061632353 -0.0034941281 0.00783733
0.005042647 0.001794282 0.0074656019
0.0039220587 -0.0010387949 0.033672407
-0.00093382352 0.0012276666 3.10471e-05
-0.0033617646 -0.0010387949 0.021777119
-0.0052294116 -9.4435898e-05 0.027910627
0.0052294116 -0.0004721795 0.026237853
-0.0052294116 -9.4435898e-05 0.010625288
-0.005789706 -0.00084992306 0.023264032
-0.0056029409 0.00028330769 0.012669791
0.004295588 -9.4435898e-05 0.014714293
-0.005042647 -0.0036830001 0.0048635076
0.003175 -0.00066105131 0.00058863871
-0.0041088234 -0.0004721795 0.020847801
-0.0041088234 -0.00028330769 0.031813771
0.0035485295 -0.0031163846 0.0089525133
-0.0056029409 0.0014165385 0.0024472775
0.0033617646 -0.0016054102 0.025680261
0.0033617646 0.0033052564 0.00021691098
-0.0033617646 -0.0019831539 0.024007486
-0.0016808823 0.00028330769 0.017130524
-0.0063499999 -0.0021720256 0.0085807852
-0.0059764707 0.00084992306 0.010067696
0.004295588 -0.0004721795 0.0043059164
0.0061632353 -0.0004721795 0.025308535
-0.0041088234 -9.4435898e-05 0.00040277484
-0.005789706 -0.00084992306 0.031627905
-0.0033617646 -0.00084992306 0.025308535
0.004295588 0.0016054102 0.0098818326
-0.0052294116 0.00084992306 0.027724763
-0.0033617646 -0.0025497691 0.003004869
0.0035485295 -0.0031163846 0.026423717
-0.001867647 0.0010387949 0.033114817
-0.0014941177 -0.0023608974 0.015457748
-0.0029882353 0.0033052564 -0.00015481676
0.0054161763 0.00028330769 0.029769266
0.0052294116 0.0025497691 0.01508602
0.0063499999 -0.0019831539 0.0041200523
-0.00056029408 -0.00084992306 0.033672407
-0.0033617646 -0.0027386411 0.026423717
-0.0059764707 9.4435898e-05 0.024936806
0.0044823526 -0.0036830001 0.0018896859
-0.0061632353 -0.0033052564 0.031256177
0.0037352941 0.0010387949 0.01508602
-0.0024279412 0.00028330769 0.032743089
0.0063499999 -0.0031163846 0.015643612
-0.0028014705 -0.0019831539 0.031813771
-0.0033617646 -0.001794282 0.027353037
-0.0048558824 -0.00066105131 0.01601534
-0.0014941177 0.00066105131 0.00021691098
-0.005789706 -9.4435898e-05 0.0048635076
-0.0052294116 -0.00084992306 0.011740471
0.0033617646 -0.0014165385 0.00449178
0.0052294116 -0.00084992306 0.011368743
-0.0061632353 -0.0016054102 0.011182879
-0.0039220587 -0.0004721795 0.029397538
-0.0059764707 -9.4435898e-05 0.014900157
0.0061632353 -0.0010387949 0.019732617
-0.0033617646 -0.0025497691 0.028096491
-0.005042647 9.4435898e-05 0.010625288
0.0063499999 -0.0029275129 0.0035624607
0.005042647 0.0031163846 0.00021691098
0.0061632353 -0.0010387949 0.017130524
0.005042647 0.0004721795 0.02270644
-0.001867647 -0.0016054102 0.031813771
-0.00037352942 -0.0025497691 3.10471e-05
0.00018676471 -9.4435898e-05 0.031999633
-0.0059764707 0.00084992306 0.0024472775
-0.0061632353 -0.00084992306 0.0056069633
0.0063499999 -0.0029275129 0.015271884
0.0056029409 0.00028330769 0.022334712
0.005042647 0.00028330769 0.012855655
-0.0061632353 -0.0027386411 0.014156701
-0.0033617646 -0.0034941281 0.028839948
-0.0039220587 0.00028330769 0.010067696
-0.0054161763 -0.0029275129 0.033672407
-0.0033617646 -0.0031163846 0.0020755497
0.0024279412 -0.0031163846 0.031999633
-0.005789706 -0.00066105131 0.010625288
-0.005042647 -0.0004721795 0.00449178
-0.0054161763 0.00028330769 0.0048635076
-0.0039220587 -0.0004721795 0.030698586
-0.0054161763 0.0025497691 0.012669791
0.00037352942 -0.0027386411 0.017130524
0.0048558824 0.0033052564 0.020104345
-0.0046691177 0.00084992306 0.027538899
0.0035485295 -0.00066105131 0.028096491
-0.0033617646 -0.0010387949 0.023264032
-0.005789706 -0.00028330769 0.0070938743
-0.0061632353 -0.001794282 0.032371361
0.005042647 -0.00028330769 0.0018896859
0.0044823526 0.0027386411 0.0024472775
-0.005789706 -0.0034941281 0.029025812
0.0046691177 0.0014165385 0.02995513
0.005042647 -0.0036830001 0.0096959686
-0.00056029408 -0.0034941281 0.031999633
-0.0039220587 -0.0036830001 0.016387068
-0.0016808823 -0.0036830001 0.016758796
-0.0048558824 0.0027386411 0.0074656019
-0.0054161763 9.4435898e-05 0.029769266
-0.0061632353 -0.0012276666 0.00449178
-0.0048558824 0.0004721795 0.024936806
0.005789706 0.001794282 -0.00015481676
-0.0061632353 -0.00084992306 0.0096959686
-0.0048558824 -0.0004721795 0.029583402
0.00018676471 0.0031163846 0.00021691098
-0.0061632353 -0.0016054102 -0.00052654452
0.0056029409 0.001794282 0.027538899
-0.0052294116 0.00084992306 0.030140994
-0.0014941177 -0.0033052564 0.017130524
0.0020544117 -0.0027386411 0.033672407
-0.0054161763 0.00066105131 0.0024472775
0.0041088234 0.00066105131 0.022520576
-0.0059764707 -0.00084992306 0.0087666493
-0.0029882353 0.0031163846 -0.00015481676
-0.0061632353 -0.0010387949 0.032185499
0.0052294116 -0.00084992306 0.0011462304
0.004295588 -0.0036830001 0.027353037
0.0024279412 -9.4435898e-05 0.015457748
-0.0033617646 -0.00084992306 0.013227382
0.0046691177 0.001794282 0.017688114
0.0061632353 -0.0010387949 0.023078168
0.0044823526 9.4435898e-05 0.022892304
0.001867647 -0.0014165385 -0.0010841361
-0.005789706 -0.0034941281 0.013413246
0.0059764707 -0.00084992306 0.0013320942
-0.00018676471 -0.0016054102 0.017130524
0.0052294116 0.001794282 0.0050493716
-0.0052294116 9.4435898e-05 0.030326858
0.0037352941 -0.0004721795 0.024565078
-0.005042647 -0.00066105131 0.014342565
-0.003175 0.00066105131 0.032557223
-0.0035485295 -0.00084992306 0.018059842
-0.0061632353 -0.0033052564 0.0098818326
0.00018676471 0.0033052564 0.00021691098
-0.0061632353 -0.0027386411 0.0063504186
-0.0037352941 -0.00066105131 0.003190733
0.0024279412 -0.00084992306 -0.00089827226
0.0041088234 -0.0004721795 0.00058863871
0.0044823526 0.0019831539 0.012669791
0.0063499999 -0.0016054102 0.027538899
0.005042647 0.0025497691 0.027724763
0.0041088234 -0.0036830001 0.02846822
-0.00018676471 -0.0029275129 0.00077450258
-0.005789706 -0.0004721795 0.012112198
0.003175 -0.0036830001 3.10471e-05
0.0033617646 -0.0010387949 0.029211676
-0.0046691177 0.0016054102 0.02270644
0.0061632353 -0.0004721795 0.0072797383
0.0033617646 -0.001794282 0.0041200523
0.0048558824 9.4435898e-05 0.00058863871
0.005789706 -0.00084992306 0.013784974
-0.0059764707 -0.0025497691 -0.0010841361
0.0059764707 0.00066105131 0.0074656019
0.0035485295 -0.00084992306 0.02846822
0.0048558824 -9.4435898e-05 0.024379214
-0.00018676471 0.0016054102 0.015457748
0.0024279412 -0.0036830001 0.016387068
0.0033617646 -0.001794282 0.003190733
-0.0052294116 0.0021720256 0.0076514659
-0.0061632353 -0.0029275129 0.023264032
-0.0063499999 -0.0019831539 0.026981309
0.0052294116 0.0016054102 0.012669791
-0.0048558824 -0.00028330769 0.018245706
0.001867647 -0.0012276666 0.031999633
-0.00074705883 0.00084992306 0.015457748
-0.0048558824 -0.0036830001 0.022334712
0.005042647 -0.0036830001 0.02419335
0.00074705883 -0.0036830001 0.031999633
0.0048558824 0.00084992306 0.032743089
-0.0016808823 -0.0034941281 0.017130524
0.005789706 -0.00028330769 0.025494397
-0.0059764707 -0.0034941281 0.00449178
-0.0054161763 0.00066105131 0.02512267
0.0063499999 -0.0016054102 0.0059786909
-0.0048558824 0.0031163846 0.022520576
-0.0033617646 -0.0019831539 0.018989163
0.0063499999 -0.0012276666 0.021591255
-0.0035485295 -9.4435898e-05 0.0026331414
-0.0061632353 -0.0033052564 0.0089525133
-0.0044823526 0.00028330769 0.012483926
-0.0041088234 0.0014165385 0.0076514659
-0.0059764707 -0.0034941281 0.02270644
0.0026147058 0.0029275129 -0.00015481676
-0.0048558824 0.0012276666 0.017688114
-0.0063499999 -0.0021720256 0.0022614135
-0.0052294116 0.0031163846 0.027538899
-0.0063499999 -0.0023608974 0.021591255
-0.003175 -0.0004721795 0.016201204
0 0.001794282 0.033114817
-0.0061632353 -0.0016054102 0.008023194
-0.0046691177 0.0027386411 0.017688114
0.005789706 -0.00084992306 0.033672407
0.0035485295 -0.0027386411 0.019732617
-0.005042647 -0.0036830001 0.0022614135
-0.0063499999 -0.0025497691 0.026051989
0.0046691177 -0.0036830001 0.0059786909
0.0041088234 -0.0004721795 0.028282356
-0.0052294116 0.0012276666 0.02995513
0.0063499999 -0.0016054102 0.022520576
-0.0014941177 -0.0023608974 0.00058863871
-0.0024279412 -0.0014165385 0.00077450258
-0.0052294116 0.0025497691 0.010067696
-0.0044823526 0.00084992306 0.0024472775
0.0035485295 9.4435898e-05 0.0048635076
-0.0052294116 9.4435898e-05 0.02270644
0.0033617646 -0.0019831539 0.011926335
0.0037352941 -0.0004721795 -0.00052654452
0.0046691177 -0.00084992306 0.0039341883
-0.005789706 -0.0034941281 0.0069080102
-0.0024279412 -0.00084992306 0.015457748
0.0054161763 0.0019831539 0.0024472775
-0.00018676471 -0.0033052564 0.033300679
0.00056029408 -9.4435898e-05 0.031999633
-0.0059764707 -0.00084992306 0.018989163
-0.0061632353 -0.0029275129 0.00449178
-0.0061632353 -0.0010387949 0.026609581
-0.0044823526 -0.0010387949 0.033672407
0.0020544117 9.4435898e-05 -0.00052654452
0.0041088234 -0.0036830001 0.0017038219
0.0041088234 -0.00028330769 0.014342565
0.0061632353 -0.0034941281 0.032185499
0.0048558824 0.0023608974 -0.00015481676
-0.0029882353 -0.0036830001 0.031999633
-0.0059764707 -9.4435898e-05 0.02512267
0.005042647 0.0019831539 0.0050493716
0.0011205882 -0.00066105131 0.032185499
-0.0041088234 0.00084992306 0.00021691098
0.0028014705 -0.0036830001 0.032185499
0.005789706 -9.4435898e-05 0.0054210993
0.004295588 -0.0004721795 0.018989163
-0.0059764707 -0.0034941281 0.0041200523
0.00018676471 -0.0021720256 0.031813771
0.004295588 -0.00028330769 0.0069080102
-0.0054161763 -0.00084992306 0.0091383765
-0.004295588 0.0016054102 0.014900157
-0.0061632353 -0.0029275129 0.011368743
-0.0028014705 0.0023608974 0.00021691098
0.0052294116 -0.00028330769 0.028282356
-0.0063499999 -0.0025497691 0.028282356
-0.0046691177 -0.00066105131 0.01694466
-0.0061632353 -0.0019831539 -0.00089827226
-0.0052294116 -0.0012276666 -0.0010841361
0.0056029409 -0.0029275129 0.033672407
-0.0056029409 0.0014165385 -0.00015481676
0.0035485295 -0.0031163846 0.010439424
-0.005789706 -0.00084992306 0.010811152
-0.005042647 0.0023608974 0.027724763
-0.005042647 -0.0036830001 0.00449178
0.0052294116 0.0004721795 0.020290209
-0.00093382352 -0.0016054102 -0.00052654452
-0.0033617646 -0.0031163846 0.018059842
0.0033617646 -0.0012276666 0.0076514659
0.005042647 -0.0036830001 -0.00052654452
0.0046691177 0.0027386411 0.022520576
-0.0061632353 -0.0012276666 0.032557223
0.00056029408 -0.00028330769 0.01601534
0.0061632353 -0.0010387949 0.013413246
0.004295588 -0.0016054102 -0.0010841361
0 -0.0012276666 3.10471e-05
-0.0037352941 -0.0036830001 0.011182879
0.0063499999 -0.0027386411 0.026981309
-0.0026147058 -0.0019831539 0.033858273
-0.005789706 -0.0036830001 0.019546753
0.005789706 0.00066105131 0.01508602
-0.0061632353 -0.0012276666 0.0070938743
-0.003175 -0.0036830001 0.032557223
0.0035485295 -0.0029275129 0.0041200523
0.0063499999 -0.0021720256 0.015643612
-0.0024279412 -0.0004721795 0.017130524
0.0041088234 -0.0036830001 0.0054210993
0.0033617646 -0.00066105131 0.031813771
-0.0037352941 -0.0004721795 0.033300679
0.005042647 0.0023608974 0.0026331414
0.0033617646 -0.0016054102 0.0091383765
-0.0056029409 0.0004721795 0.027724763
-0.00093382352 0.0004721795 0.032185499
-0.0052294116 -0.0036830001 0.015457748
-0.0041088234 -0.0034941281 0.033672407
-0.005789706 -0.00028330769 0.015457748
-0.0054161763 -0.00084992306 -0.0010841361
-0.0033617646 -0.0010387949 0.022334712
-0.0048558824 9.4435898e-05 0.015457748
-0.0048558824 -0.0036830001 0.0020755497
0.0020544117 -0.00028330769 0.016572932
-0.005042647 0.0033052564 0.01508602
-0.0013073529 -0.00084992306 0.015457748
-0.0033617646 -0.0019831539 0.0082090572
0.0061632353 -0.00084992306 0.014900157
-0.0037352941 -0.00066105131 0.021033665
0.0063499999 -0.0029275129 0.0056069633
-0.0052294116 0.0023608974 0.030140994
-0.0052294116 -0.0036830001 0.024565078
0.0035485295 -0.0034941281 0.0076514659
-0.0046691177 0.001794282 0.0074656019
-0.0063499999 -0.0023608974 0.019732617
0.0059764707 -0.00066105131 0.026423717
-0.0033617646 -0.0034941281 0.02846822
0.004295588 -0.001794282 -0.0010841361
-0.0033617646 -0.0033052564 0.012298062
-0.0052294116 0.0021720256 0.01750225
-0.0048558824 0.00028330769 -0.00034068065
-0.0061632353 -0.0029275129 0.0011462304
0.0037352941 -0.00084992306 0.0065362826
0.0035485295 -0.0029275129 0.023821622
0.0037352941 -0.00066105131 0.013227382
0.003175 -0.0036830001 0.015829476
0.0044823526 0.00028330769 0.00040277484
-0.0026147058 0.00028330769 0.01694466
0.0013073529 -0.0014165385 0.015271884
-0.0039220587 -0.00028330769 0.027353037
0.0041088234 0.00066105131 0.017688114
0.0063499999 -0.0014165385 0.004677644
0.0054161763 0.00028330769 0.0022614135
-0.0033617646 -0.0016054102 0.022892304
-0.005042647 -0.0036830001 0.029769266
0.0033617646 -0.0019831539 0.0069080102
-0.0035485295 -0.00066105131 0.0054210993
0.001867647 -0.0012276666 0.017130524
-0.0056029409 0.0027386411 0.032557223
-0.0061632353 -9.4435898e-05 0.0076514659
0.0059764707 -0.00028330769 0.030326858
-0.0039220587 0.0004721795 0.027538899
-0.0061632353 -0.0014165385 0.015643612
0.0056029409 -0.0004721795 0.026051989
0.0046691177 -0.00084992306 0.0035624607
0.0063499999 -0.0021720256 0.018245706
-0.0056029409 0.00084992306 0.0048635076
-0.0061632353 -0.0016054102 -0.00089827226
-0.0059764707 -0.0034941281 0.0033765968
0.0052294116 -0.0036830001 0.019546753
-0.005042647 -9.4435898e-05 0.0070938743
-0.0061632353 -0.001794282 0.00096036645
0.005789706 0.00028330769 0.0026331414
0.0052294116 0.00084992306 -0.00015481676
0.0044823526 -0.0036830001 0.019918481
0.005789706 0.00028330769 0.0048635076
-0.0061632353 -0.0034941281 0.029769266
0.0033617646 -0.0029275129 0.031627905
0.0041088234 -0.0036830001 0.019546753
0.0033617646 0.0014165385 0.00021691098
0.0052294116 -0.0034941281 0.013227382
0.0056029409 -0.0034941281 0.0076514659
-0.0035485295 -0.00084992306 0.013041518
-0.0037352941 -0.00066105131 0.0057928273
-0.0048558824 -9.4435898e-05 0.0020755497
0.0037352941 -0.0036830001 0.0043059164
0.0041088234 0.0012276666 0.0074656019
-0.0054161763 -0.0036830001 0.0069080102
-0.0029882353 -0.0029275129 0.031813771
0.0046691177 0.0021720256 0.0048635076
-0.004295588 -0.00028330769 0.027910627
-0.004295588 -0.00066105131 0.0057928273
0.0022411763 -0.0023608974 0.033672407
0.004295588 -0.0036830001 0.00077450258
-0.003175 -0.0023608974 0.015271884
-0.005042647 0.0023608974 -0.00015481676
-0.0033617646 -0.0019831539 0.011740471
0.0039220587 -0.00028330769 0.030512722
-0.0035485295 -0.0036830001 0.0054210993
-0.0061632353 -0.0012276666 0.021777119
-0.005789706 0.00084992306 0.014900157
0.0037352941 9.4435898e-05 0.012483926
-0.0033617646 -0.0033052564 0.0070938743
-0.0059764707 -0.00066105131 0.029211676
-0.0033617646 -0.00084992306 0.0048635076
-0.0033617646 -0.001794282 0.02419335
-0.0056029409 -0.00084992306 0.0083949212
0.0048558824 -9.4435898e-05 0.014342565
-0.0033617646 -0.0029275129 0.0069080102
-0.0063499999 -0.0019831539 0.00040277484
0.0048558824 0.0012276666 0.02270644
0.00018676471 -0.0036830001 0.00077450258
-0.0035485295 0.0019831539 0.032557223
0.0052294116 0.001794282 0.0026331414
-0.0059764707 -0.0034941281 0.00058863871
-0.004295588 -0.00084992306 0.0035624607
-0.0024279412 0.0033052564 -0.00015481676
0.0037352941 -0.001794282 -0.0010841361
0 -0.0019831539 0.017316388
0.0035485295 -0.00066105131 0.031627905
0.00056029408 -0.0031163846 3.10471e-05
-0.0011205882 0.0027386411 -0.00015481676
0.0011205882 0.0019831539 -0.00015481676
-0.0028014705 -0.001794282 0.031813771
0.0052294116 0.00084992306 0.01508602
0.0020544117 0.0004721795 0.033114817
0.0059764707 -0.0034941281 0.017130524
-0.0054161763 0.00084992306 0.017688114
-0.0029882353 0.00028330769 0.032743089
-0.00074705883 -0.0031163846 0.00077450258
0.0048558824 0.0019831539 -0.00015481676
0.0063499999 -0.0014165385 0.02512267
0.00037352942 -0.0029275129 0.033672407
0.004295588 0.00028330769 0.0026331414
0.0035485295 -0.00066105131 0.018803298
0.0061632353 -0.00084992306 0.019732617
-0.0061632353 -0.0029275129 0.026981309
-0.0046691177 0.0004721795 0.020104345
0.0014941177 -0.00084992306 -0.0010841361
0.0035485295 -0.0033052564 0.030512722
-0.0059764707 -0.0034941281 0.0018896859
0.0056029409 -0.0034941281 0.0028190052
0.0063499999 -0.0016054102 0.022892304
-0.0033617646 -0.0014165385 0.022148848
0.0052294116 0.0019831539 0.01750225
-0.00056029408 -0.0019831539 0.031999633
0.0063499999 -0.0012276666 0.00096036645
-0.0033617646 -0.00066105131 0.010067696
-0.0022411763 -0.0031163846 0.031999633
-0.0061632353 -0.00084992306 0.029583402
-0.0056029409 9.4435898e-05 0.022334712
-0.0024279412 0.00028330769 0.00040277484
0.0037352941 -0.0004721795 0.021962984
-0.0044823526 -0.0036830001 0.024936806
-0.0056029409 -0.00028330769 0.010439424
-0.0046691177 -0.0036830001 0.02419335
-0.0059764707 -0.0034941281 0.011554607
-0.0044823526 -9.4435898e-05 0.019732617
-0.0039220587 -0.00066105131 0.021405393
-0.0033617646 -0.0025497691 0.024936806
0.0048558824 -0.0036830001 0.00021691098
0.0063499999 -0.0021720256 0.011740471
0.0033617646 -0.0019831539 0.0087666493
-0.005042647 -0.0004721795 0.020661937
0.003175 -0.0031163846 -0.0010841361
-0.0020544117 9.4435898e-05 0.00040277484
0.0035485295 -0.0036830001 0.0072797383
-0.0029882353 -0.00084992306 0.033672407
0.005789706 0.0016054102 0.0026331414
-0.00074705883 0.00084992306 0.017130524
0.0035485295 -0.0031163846 0.029211676
0.0033617646 -0.0014165385 0.020104345
-0.0016808823 -0.0019831539 0.017130524
-0.0063499999 -0.0019831539 0.031999633
-0.00037352942 -0.00028330769 0.01601534
0.0054161763 -0.0034941281 0.00449178
0.0063499999 -0.0025497691 0.017873978
0.0056029409 -0.0034941281 0.031070314
-0.0033617646 -0.0023608974 0.0048635076
-0.003175 0.00028330769 0.015457748
-0.004295588 -9.4435898e-05 0.015643612
0.0035485295 -0.0034941281 0.02995513
0.0044823526 0.0016054102 0.032557223
-0.0052294116 -0.0036830001 0.011182879
-0.0033617646 -0.00066105131 0.0024472775
-0.0044823526 0.0019831539 0.0048635076
-0.0039220587 0.00028330769 0.012669791
0.0033617646 -0.0025497691 0.019732617
0.0059764707 -0.0034941281 0.01694466
-0.0035485295 -0.00028330769 0.0074656019
-0.0039220587 0.00028330769 0.017130524
-0.0022411763 -0.0004721795 0.031999633
-0.004295588 0.0014165385 0.0076514659
-0.0048558824 0.0031163846 0.020104345
0.0033617646 -0.001794282 0.029583402
0.0061632353 -0.0010387949 0.012298062
0.0039220587 -0.00066105131 0.003190733
0.0039220587 0.00066105131 0.019918481
-0.0056029409 0.0016054102 0.027538899
0.0056029409 -0.0034941281 3.10471e-05
0.0056029409 -0.0034941281 0.021405393
0.0033617646 -0.00084992306 -0.0010841361
-0.0044823526 0.00084992306 0.027538899
0.0035485295 -0.0034941281 0.014900157
-0.0061632353 -0.0012276666 0.02995513
0.004295588 -0.0036830001 0.016201204
0.0054161763 -0.0004721795 -0.00052654452
-0.0061632353 -0.0016054102 0.032557223
0.0037352941 -0.0004721795 0.016387068
0.0061632353 -9.4435898e-05 0.024936806
-0.005789706 -0.0031163846 0.033672407
0.0029882353 -0.0036830001 -0.00034068065
-0.0063499999 -0.0019831539 0.011554607
-0.00056029408 -0.0036830001 0.01601534
0.0035485295 -0.0034941281 0.019732617
-0.00074705883 -0.0004721795 0.016572932
-0.0039220587 0.00084992306 0.032557223
0.0035485295 -0.0029275129 0.012298062
0.0048558824 9.4435898e-05 0.021962984
-0.00074705883 -0.0014165385 0.00077450258
0.0063499999 -0.0021720256 -0.00071240839
-0.0037352941 -0.0036830001 0.012669791
0.0044823526 0.0021720256 0.02270644
-0.0039220587 -0.0004721795 0.024750942
0.0035485295 -0.00084992306 0.0057928273
0.0059764707 -0.0004721795 0.032928951
0.0035485295 -0.0004721795 0.01601534
0.005042647 -0.00084992306 0.0041200523
-0.0033617646 -0.0025497691 0.0076514659
-0.0033617646 -0.001794282 0.027724763
-0.0013073529 -0.0036830001 0.032185499
-0.0059764707 -0.0034941281 0.013413246
0.0063499999 -0.0019831539 0.0011462304
-0.0061632353 -0.0034941281 0.0082090572
-0.0044823526 0.0010387949 0.0026331414
-0.0046691177 -0.00084992306 0.010997016
-0.005042647 0.0021720256 -0.00015481676
-0.0054161763 -0.0036830001 0.032743089
0.0061632353 -0.0004721795 0.019732617
0.0033617646 -0.0019831539 0.0022614135
-0.0041088234 -0.0036830001 0.012669791
-0.0037352941 0.0004721795 0.032743089
0.0037352941 -0.00084992306 0.0037483245
-0.0046691177 -0.00066105131 0.020847801
0 -0.0016054102 0.031813771
0.0044823526 0.0023608974 0.022520576
-0.0046691177 0.001794282 0.00021691098
-0.0035485295 -0.00084992306 0.018245706
0.005042647 -0.0036830001 0.018989163
0.00018676471 -0.0036830001 0.033300679
0.005789706 -0.0034941281 0.0069080102
-0.004295588 -0.00066105131 0.010811152
-0.0041088234 0.00066105131 0.012483926
0.005789706 -9.4435898e-05 0.025308535
0.0054161763 9.4435898e-05 0.028096491
0.0063499999 -0.001794282 0.0095101045
0.0041088234 -0.00084992306 0.006164555
-0.0054161763 -0.00084992306 0.013784974
0.005042647 -0.0036830001 -0.00071240839
0.0063499999 -0.0033052564 0.010067696
0.0063499999 -0.0027386411 0.01843157
0.0063499999 -0.0023608974 0.0035624607
0.0035485295 -0.0027386411 0.030512722
-0.0033617646 -0.0023608974 0.011368743
0.0035485295 -0.00084992306 0.0067221466
0.0054161763 0.0014165385 0.0076514659
0.0054161763 -0.00066105131 0.014156701
-0.0028014705 -0.00084992306 -0.00071240839
-0.0033617646 -0.0027386411 0.01750225
0.0052294116 0.0021720256 0.022520576
-0.0048558824 -0.0036830001 0.033114817
0.0063499999 -0.0019831539 0.027724763
0 0.00084992306 0.033300679
-0.0033617646 -0.0016054102 0.018803298
-0.0033617646 -0.001794282 0.026795445
0.0052294116 9.4435898e-05 0.015457748
-0.0024279412 -0.0023608974 0.017130524
-0.0059764707 -0.00028330769 0.015271884
0.0022411763 -0.0036830001 -0.00089827226
0.0059764707 0.00084992306 0.019918481
-0.0033617646 -0.0034941281 0.0020755497
-0.0048558824 -0.00084992306 0.0043059164
0.0063499999 -0.0021720256 0.026051989
-0.0048558824 -0.0036830001 0.032185499
-0.0054161763 0.001794282 0.0074656019
0.005042647 -0.0034941281 0.011368743
-0.0039220587 -0.0036830001 0.026051989
-0.00056029408 0.0010387949 0.032185499
-0.0041088234 0.0010387949 0.01750225
0.00037352942 0.0034941281 0.00021691098
-0.0054161763 -0.0010387949 0.033672407
0.0013073529 0.0036830001 0.00021691098
0.0028014705 -9.4435898e-05 -0.00052654452
0.005789706 9.4435898e-05 0.00783733
-0.00018676471 -0.0034941281 0.015457748
0.0054161763 -0.0034941281 0.027910627
0.0035485295 -0.00066105131 0.031442042
0.0035485295 -0.0029275129 0.0052352357
-0.0033617646 0.0016054102 0.00021691098
0.0037352941 9.4435898e-05 0.014900157
0.0054161763 0.0023608974 0.0024472775
-0.0028014705 -0.00028330769 0.015457748
-0.0020544117 0.0004721795 0.017130524
0.0054161763 0.0027386411 0.0098818326
-0.0054161763 0.0004721795 0.0052352357
0.0054161763 9.4435898e-05 0.022148848
-0.0061632353 -0.0034941281 0.021219529
-0.0033617646 -0.001794282 0.011926335
0.005789706 -0.0004721795 0.010625288
0.0046691177 -0.00066105131 0.013970838
0.00056029408 -0.00028330769 0.015271884
0.005789706 -0.0034941281 0.023449894
0.0061632353 -0.00066105131 0.032185499
0.0052294116 0.0023608974 0.020104345
-0.0054161763 -0.0036830001 0.00783733
-0.004295588 0.00028330769 0.00021691098
-0.0059764707 -9.4435898e-05 -0.00015481676
0.0044823526 -0.0010387949 0.033672407
0.0063499999 -0.0016054102 0.02419335
-0.003175 0.0027386411 0.00021691098
0.00074705883 9.4435898e-05 0.015457748
0.005042647 0.0034941281 0.030140994
0.0063499999 -0.0025497691 0.019546753
0.0059764707 -0.00028330769 0.00040277484
0.0020544117 -0.0010387949 0.033672407
0.0061632353 -0.0010387949 0.019918481
-0.0044823526 0.0025497691 0.030140994
-0.0054161763 -0.0004721795 0.00040277484
0.0063499999 -0.0029275129 0.032928951
0.0033617646 -0.0021720256 0.026423717
0.0024279412 9.4435898e-05 0.033486545
-0.0048558824 0.0029275129 0.01750225
0.0035485295 -0.0031163846 0.0039341883
0.004295588 -0.00028330769 0.0095101045
0.0046691177 0.0010387949 0.020104345
-0.0011205882 0.0010387949 3.10471e-05
-0.0016808823 -0.0023608974 0.00077450258
-0.004295588 -0.0036830001 0.01694466
0.0048558824 0.0031163846 0.027724763
-0.0039220587 -0.0036830001 0.026795445
-0.0033617646 -0.0029275129 0.026051989
0.0063499999 -0.0033052564 0.0083949212
-0.00093382352 -0.0033052564 0.033486545
0.0059764707 -0.0027386411 -0.0010841361
0.0016808823 -0.0012276666 0.031999633
-0.0061632353 -0.0031163846 0.018989163
-0.0048558824 0.00084992306 0.032743089
0.005042647 -0.0036830001 0.011740471
0.0063499999 -0.0021720256 0.023078168
0.0056029409 0.0021720256 0.01750225
-0.0039220587 -0.00066105131 0.016572932
0.0054161763 0.0029275129 0.020104345
0.0022411763 9.4435898e-05 0.032185499
0.0035485295 -0.0034941281 0.024565078
-0.0033617646 -0.0010387949 0.0091383765
0.0033617646 -0.0014165385 0.022148848
-0.0033617646 -0.0012276666 0.0082090572
0.0056029409 -0.0034941281 0.016572932
-0.005789706 -0.0034941281 0.00096036645
0.0054161763 -0.0034941281 0.0043059164
0.0039220587 0.00028330769 0.017688114
-0.0052294116 0.0012276666 0.0024472775
0.0016808823 -0.0036830001 0.00040277484
0.0046691177 0.0004721795 0.01025356
0.0024279412 0.00084992306 0.00021691098
-0.0011205882 -0.0033052564 0.00077450258
-0.0063499999 -0.0021720256 -0.00015481676
0.0048558824 0.001794282 0.00021691098
0.0056029409 0.00084992306 0.012483926
0.0033617646 -0.0010387949 0.029397538
-0.0061632353 -0.00084992306 0.021219529
-0.0054161763 0.0004721795 0.014900157
0.0046691177 0.0021720256 0.0098818326
0.0041088234 0.0027386411 0.032557223
-0.0048558824 0.0010387949 0.0024472775
0.0048558824 0.0033052564 0.0026331414
0.00056029408 0.0014165385 0.015457748
-0.0061632353 -0.0016054102 0.024007486
-0.004295588 -0.0036830001 0.028654084
-0.0033617646 -0.0010387949 0.017873978
-0.0061632353 -0.0034941281 0.013784974
-0.00037352942 0.0012276666 3.10471e-05
-0.0022411763 -0.0025497691 0.017130524
0.0048558824 0.0004721795 0.012298062
0.0052294116 -0.0033052564 -0.00089827226
0.001867647 -0.0029275129 -0.0010841361
0.0046691177 0.00084992306 0.012669791
0.004295588 0.0027386411 0.032743089
0.004295588 0.0027386411 0.032557223
-0.0054161763 -0.00084992306 0.016572932
0.0046691177 -9.4435898e-05 0.028282356
-0.0056029409 0.00066105131 0.017688114
0.0037352941 -0.00084992306 0.0085807852
0.0044823526 0.0021720256 0.020104345
0.0056029409 -0.0010387949 0.033672407
-0.0054161763 0.00066105131 0.0098818326
-0.0054161763 -0.0036830001 0.010439424
-0.0044823526 -0.0027386411 -0.0010841361
-0.0059764707 -0.0004721795 0.014714293
-0.005042647 0.0034941281 0.0050493716
-0.0035485295 -0.0025497691 -0.0010841361
-0.0033617646 -0.0031163846 0.021591255
-0.0054161763 -0.00066105131 0.0056069633
-0.0059764707 0.00084992306 0.0076514659
-0.0041088234 -9.4435898e-05 0.0076514659
-0.0061632353 -0.0031163846 0.022334712
-0.0020544117 -0.0034941281 0.015457748
-0.00037352942 0.0029275129 3.10471e-05
0.0063499999 -0.0031163846 -0.00052654452
-0.0039220587 -0.0036830001 0.021591255
-0.0014941177 0.0004721795 0.015457748
0.00093382352 0.00066105131 0.00021691098
-0.005789706 0.00066105131 0.0048635076
0.0061632353 -0.00084992306 0.025308535
0.0054161763 0.0016054102 0.00021691098
0.003175 -0.0031163846 0.017130524
0 -0.0033052564 0.033300679
-0.0061632353 -0.0033052564 0.012855655
-0.0054161763 -0.00066105131 0.021962984
0.0056029409 0.0012276666 0.0052352357
0.0035485295 -0.0034941281 0.011182879
-0.0037352941 -0.0036830001 0.014714293
0.0044823526 0.0012276666 0.017688114
-0.0039220587 -9.4435898e-05 0.012483926
-0.0052294116 0.0027386411 0.032743089
0.00018676471 -0.0004721795 0.017130524
0.0033617646 -0.0014165385 0.019546753
-0.0052294116 -0.0036830001 0.013227382
-0.0046691177 -0.0036830001 0.032371361
0.004295588 0.0016054102 0.00021691098
-0.0033617646 -0.0033052564 0.013784974
-0.0056029409 0.0021720256 0.0074656019
-0.0013073529 0.0021720256 3.10471e-05
-0.00037352942 -0.0036830001 0.032928951
0.0059764707 -9.4435898e-05 0.0074656019
-0.0061632353 -0.0012276666 0.014156701
0.0054161763 0.00028330769 -0.00034068065
-0.0054161763 -0.00028330769 0.0054210993
0.005042647 -0.0023608974 -0.0010841361
0.0061632353 -0.00084992306 0.027538899
0.005042647 0.0004721795 0.0098818326
0.00037352942 -0.0036830001 0.00040277484
0.0048558824 0.0016054102 0.012669791
0.0052294116 0.0019831539 0.027538899
-0.0056029409 0.0019831539 0.027724763
0.0063499999 -0.0029275129 0.00077450258
-0.004295588 0.0021720256 0.010067696
-0.005042647 0.0029275129 0.030140994
0.004295588 0.0021720256 0.00021691098
0.0048558824 -0.0004721795 -0.00052654452
0.005789706 0.001794282 0.0050493716
-0.0020544117 -0.0012276666 0.00077450258
0.0046691177 -0.00028330769 0.01694466
0.0041088234 -0.0036830001 0.0072797383
0.0035485295 -0.00066105131 0.03088445
-0.0033617646 -0.0016054102 0.0091383765
0.0039220587 -0.0036830001 0.033486545
0.00056029408 0.0027386411 3.10471e-05
0.004295588 -0.00028330769 0.028839948
0.0052294116 0.001794282 0.00021691098
-0.0016808823 0.0004721795 0.015457748
0.0048558824 -0.0004721795 0.024379214
0.005042647 0.0027386411 0.014900157
-0.0033617646 -0.0021720256 0.0082090572
-0.0063499999 -0.0014165385 0.019918481
0.0048558824 9.4435898e-05 0.020476073
-0.0033617646 -0.0016054102 0.013227382
0.00018676471 -0.0016054102 0.033858273
-0.0024279412 0.0004721795 0.032557223
-0.0061632353 -0.0029275129 0.026423717
0.0052294116 -0.0034941281 0.023449894
-0.0061632353 -0.0029275129 0.003190733
0.0052294116 -0.0034941281 0.029211676
0.0035485295 -0.0027386411 0.026795445
0.0059764707 0.00028330769 0.027538899
-0.0035485295 -0.0034941281 0.014156701
-0.0061632353 -0.00084992306 0.031813771
-0.0048558824 0.0010387949 0.017688114
0.0037352941 -0.0036830001 0.008023194
0 -0.0029275129 0.031999633
-0.0041088234 -0.0036830001 0.0041200523
-0.0063499999 -0.0021720256 0.0096959686
0.0063499999 -0.0027386411 0.029397538
-0.0033617646 -0.0012276666 0.018989163
-0.0054161763 -0.00066105131 0.029583402
0.005042647 -0.0036830001 0.024007486
-0.0037352941 -0.00066105131 0.02419335
0.0048558824 9.4435898e-05 0.031999633
-0.0033617646 -0.0027386411 0.0041200523
-0.0011205882 0.0004721795 0.015457748
-0.0033617646 -0.0014165385 0.026795445
-0.004295588 -9.4435898e-05 0.012298062
-0.0054161763 -0.0029275129 -0.0010841361
0.0061632353 -0.0034941281 0.010811152
0.0020544117 0.00066105131 -0.00034068065
0.0033617646 -0.0014165385 0.014714293
0.0052294116 0.0016054102 0.0098818326
-0.0059764707 -0.0034941281 0.014156701
0.0052294116 -0.00066105131 0.003190733
0.0052294116 0.0014165385 0.032743089
-0.0044823526 0.00028330769 0.0098818326
0.005042647 -0.0036830001 0.014528429
-0.005042647 -0.00084992306 0.02419335
-0.0035485295 0.0004721795 0.032743089
0.0020544117 -0.00084992306 0.016387068
-0.00037352942 -0.0010387949 0.015271884
0.0033617646 -0.00084992306 0.0028190052
-0.005042647 0.0012276666 0.012483926
-0.005789706 0.0004721795 0.0098818326
0.0063499999 -0.0014165385 0.0089525133
-0.005042647 -0.00066105131 0.029397538
-0.0044823526 -9.4435898e-05 0.027167173
-0.0041088234 -0.00066105131 0.023821622
0.0061632353 -0.00084992306 0.027724763
0.0037352941 -0.0004721795 0.01601534
-0.0048558824 -0.0036830001 0.0085807852
-0.0056029409 0.0014165385 0.0074656019
0.0052294116 -0.0034941281 0.021033665
0.0048558824 0.0012276666 -0.00015481676
-0.004295588 0.00084992306 0.032557223
0.004295588 0.00066105131 0.027724763
0.0063499999 -0.0014165385 0.00449178
0.0048558824 0.00084992306 0.022520576
0.0033617646 -0.00028330769 0.017130524
-0.0048558824 0.0016054102 0.00021691098
0.0041088234 -9.4435898e-05 0.0022614135
-0.0044823526 0.0014165385 0.01508602
0.0039220587 -0.00028330769 0.017873978
0.0061632353 -0.0034941281 0.0096959686
0.0048558824 -0.00066105131 0.01601534
0.004295588 -0.0004721795 0.0018896859
-0.005789706 -0.00084992306 0.0065362826
0.0037352941 -0.00066105131 0.031442042
-0.0063499999 -0.0021720256 0.02846822
0.0063499999 -0.0012276666 0.026609581
0.0033617646 -0.0029275129 0.017873978
-0.0033617646 -0.001794282 0.0082090572
0.0056029409 0.00066105131 0.030140994
-0.0013073529 9.4435898e-05 0.031999633
-0.0061632353 -0.0004721795 0.02512267
0.0063499999 -0.0023608974 0.017873978
-0.0039220587 -0.0004721795 0.003004869
-0.0037352941 -0.00066105131 0.008023194
-0.0039220587 -0.0004721795 0.0056069633
-0.0039220587 -0.0004721795 0.028096491
0.0033617646 -0.0012276666 0.027167173
0.0033617646 -0.0019831539 0.029769266
-0.0048558824 0.0010387949 0.0026331414
-0.0041088234 -0.0036830001 0.022892304
0.0013073529 -0.0021720256 0.015271884
-0.0033617646 -0.0016054102 0.021962984
-0.0061632353 -0.0034941281 0.023449894
-0.00018676471 -0.0031163846 0.033486545
0.0061632353 -0.00084992306 0.01359911
0.0063499999 -0.0033052564 0.0096959686
-0.0033617646 -0.0010387949 0.027167173
-0.0044823526 -0.00066105131 0.0069080102
0.0046691177 -0.0036830001 0.013041518
-0.0035485295 -0.0036830001 0.0093242405
-0.0054161763 -9.4435898e-05 0.027167173
0.0063499999 -0.0031163846 0.032557223
0.004295588 -0.00084992306 0.0015179581
-0.0046691177 0.0004721795 0.0076514659
-0.0061632353 -0.0029275129 0.024565078
0.0063499999 -0.001794282 0.010625288
0.0024279412 -0.0036830001 3.10471e-05
0.0052294116 0.0014165385 0.00021691098
0.00056029408 -0.0034941281 0.00077450258
-0.0013073529 0.0034941281 -0.00015481676
0.0033617646 -0.0023608974 0.013227382
-0.0061632353 -0.0010387949 0.0067221466
-0.0024279412 0.0016054102 -0.00015481676
0.0013073529 -0.0027386411 0.015457748
0.0059764707 0.0010387949 0.02512267
0.00056029408 0.0004721795 0.032928951
-0.0061632353 -0.0012276666 0.0091383765
0.0044823526 9.4435898e-05 0.027910627
0.005042647 0.0014165385 0.0098818326
-0.004295588 -0.00066105131 0.018803298
-0.0063499999 -0.0023608974 0.0035624607
-0.0033617646 -0.0029275129 0.018245706
0.0033617646 -0.001794282 0.030512722
0.0046691177 0.0021720256 0.032743089
0 -0.0036830001 0.032185499
-0.00037352942 -0.0016054102 0.033858273
-0.0061632353 -0.0014165385 0.022892304
-0.0056029409 -0.00084992306 0.0063504186
-0.0039220587 -0.0036830001 0.0093242405
0.0028014705 0.0029275129 -0.00015481676
-0.0063499999 -0.0019831539 0.019360891
-0.00018676471 0.001794282 0.032928951
0.005042647 -0.0036830001 0.013413246
-0.0039220587 -0.00066105131 0.021033665
-0.0037352941 -0.00066105131 0.011926335
-0.004295588 -0.00066105131 0.033486545
0.0039220587 -0.0036830001 0.03088445
0.0033617646 -0.0025497691 0.014342565
0.0059764707 -9.4435898e-05 0.0022614135
-0.0056029409 9.4435898e-05 0.012298062
-0.0061632353 -0.0033052564 0.016387068
0.0044823526 0.0019831539 0.01508602
0.0039220587 -0.0036830001 0.0069080102
0.0024279412 0.0027386411 -0.00015481676
-0.0041088234 -0.00028330769 0.014714293
-0.0041088234 -0.0036830001 0.0028190052
0.001867647 -0.0004721795 0.033672407
0.0029882353 -0.0019831539 0.00077450258
-0.0046691177 -0.00084992306 0.011554607
-0.0033617646 -0.0019831539 0.027538899
-0.0052294116 0.00028330769 0.014714293
-0.0035485295 -0.0036830001 0.011926335
0.0063499999 -0.0014165385 0.0026331414
-0.0048558824 -0.0004721795 0.011926335
-0.0061632353 -0.0010387949 0.0076514659
-0.0039220587 -0.0036830001 0.015643612
0.0063499999 -0.001794282 0.021033665
0.0044823526 0.0025497691 0.012483926
0.0033617646 -0.0025497691 0.0057928273
-0.00093382352 0.0014165385 3.10471e-05
0.0046691177 0.001794282 0.032743089
-0.0054161763 0.0025497691 0.00021691098
0.0046691177 0.0016054102 0.0050493716
0.0061632353 -0.00084992306 0.011554607
0.0054161763 0.0029275129 -0.00015481676
-0.0061632353 -0.00084992306 0.0082090572
-0.004295588 -0.0036830001 0.028096491
0.0063499999 -0.0014165385 0.015457748
-0.0061632353 -0.0029275129 0.012855655
0.0035485295 -0.0004721795 0.024936806
-0.0033617646 0.001794282 0.00021691098
0.0052294116 -9.4435898e-05 0.023078168
-0.00018676471 -0.0036830001 0.032928951
-0.0061632353 -0.00084992306 0.029397538
-0.0056029409 0.0004721795 0.02995513
-0.0052294116 -0.00084992306 0.013413246
0.0046691177 -0.0027386411 0.033672407
-0.0061632353 -0.0012276666 0.031813771
-0.0013073529 -0.0012276666 -0.0010841361
-0.0033617646 -0.0033052564 0.026981309
-0.0054161763 0.00084992306 0.0076514659
-0.0020544117 -0.0033052564 0.033486545
0.004295588 -0.0036830001 0.0037483245
0.004295588 -0.0004721795 0.021219529
0.00037352942 0.00066105131 0.017130524
0.0046691177 -0.00028330769 0.024007486
0.0061632353 -0.00084992306 0.024565078
0.0033617646 -0.0019831539 0.0091383765
-0.0011205882 -0.00028330769 0.016572932
0.0033617646 -0.0010387949 0.0089525133
-0.003175 -0.001794282 0.031627905
0.0063499999 -0.0016054102 0.00021691098
-0.0048558824 0.0010387949 0.00021691098
0.00074705883 -0.0036830001 0.032557223
-0.0046691177 0.0004721795 0.012483926
0.005042647 0.00084992306 0.019918481
0.0048558824 -0.00066105131 0.02419335
