# .PCD v0.7 - Point Cloud Data file format
VERSION 0.7
FIELDS x y z
SIZE 4 4 4
TYPE F F F
COUNT 1 1 1
WIDTH 1195
HEIGHT 1
VIEWPOINT 0 0 0 1 0 0 0
POINTS 1195
DATA ascii
0.00025743243 0.00025821428 -0.0037526828
-0.00017162162 0.00034428571 -0.0074373987
0.0037756758 0.00025821428 -0.002467317
-0.00034324324 0 -0.0034956099
-0.005577703 0.001205 -0.0017817885
0.0060925675 -0.00017214286 -6.7967419e-05
-0.004977027 0.001205 -0.000924878
0.0053202705 0.00017214286 -0.0033242276
0.0063499999 0.00077464286 -0.0003250406
0.0018020271 0.00043035715 -6.7967419e-05
-0.0015445946 -0.00060249999 -0.00015365848
0.0023168919 0 0.0014744716
-0.0050628381 -0.00034428571 -0.0064947968
-0.00042905405 -0.00060249999 -0.00015365848
-0.0015445946 0.0010328571 -0.002467317
0.0060067568 0.00077464286 -0.002467317
0.004462162 0.001205 -0.0013533334
0.0023168919 -8.6071428e-05 -0.0035813008
0.0036040542 0.001205 -0.0003250406
0.0051486488 0.00094678573 -6.7967419e-05
0.0006006757 0.0011189285 -6.7967419e-05
-0.0024027028 -0.00034428571 -0.0058092684
0.00077229732 0.00068857142 -0.002467317
0.002231081 0.00017214286 0.0011317075
-0.0054918919 0.00051642855 -0.0023816261
0.0048912163 0.00034428571 0.00078894314
-0.0050628381 -0.00034428571 -0.0059806504
0.0006006757 0.0008607143 -0.002467317
0.0030033784 0.001205 -0.0015247155
-0.0045479732 0 -0.002467317
-0.0054918919 -0.001205 -0.00041073165
0.0063499999 8.6071428e-05 -0.0016960975
-0.0048054056 -0.00025821428 -0.0040097563
-0.0056635137 0.0011189285 -0.0003250406
-0.0038614864 -0.001205 -0.0007534959
-0.0012871622 0.0008607143 -0.002467317
-0.0023168919 0.001205 -0.0011819511
-0.0040331082 -0.001205 -0.0010962602
-0.0029175675 -0.00077464286 -6.7967419e-05
-0.0052344594 0.00017214286 0.00027479682
-0.00042905405 0.001205 -0.00023934954
0.004462162 -0.001205 -0.0022102438
-0.0017162162 0.0011189285 -0.0022959348
0.0046337838 -0.0011189285 -0.0023816261
0.0051486488 -0.00025821428 -0.0044382112
-0.00025743243 -0.00017214286 0.0013030895
0.00017162162 0.00043035715 -0.00023934954
-0.0025743244 -0.001205 -0.000924878
-0.0027459459 -0.00025821428 -0.0070089432
0.00034324324 0 -0.0069232523
0.0032608109 0.001205 -0.0010962602
-0.0052344594 0.00017214286 -0.0046952846
0.00085810811 0.001205 -0.00058211375
0.0012871622 0.001205 -0.0022102438
0.0048054056 0.001205 -0.0016104064
0.0045479732 -0.001205 -0.0020388619
0.0061783786 0.00017214286 -6.7967419e-05
0.0052344594 0.00025821428 -0.0033242276
0.0027459459 -0.001205 -0.0018674796
0.0056635137 0.0010328571 -6.7967419e-05
0.00034324324 0.00034428571 -0.00015365848
0.0023168919 0 -0.0071803252
-0.004977027 -0.00025821428 0.00053187
-0.0032608109 0.00077464286 -0.0022959348
0.0052344594 0.00034428571 0.00027479682
0.0048912163 0.0008607143 -6.7967419e-05
0.0056635137 -0.00034428571 -0.00023934954
-0.00077229732 -8.6071428e-05 -6.7967419e-05
0.0020594595 -0.00094678573 -6.7967419e-05
0.0023168919 -0.00017214286 0.00044617892
0.0051486488 -0.0008607143 -0.0023816261
0.0029175675 0.001205 -0.00083918695
0.0053202705 0 0.00018910575
-0.0062641893 0.00077464286 -0.0019531706
-0.0053202705 -8.6071428e-05 0.0013030895
0.0048054056 8.6071428e-05 -0.0070946342
-0.0006006757 -0.001205 -0.0022959348
0.0053202705 0.001205 -0.0007534959
0.0052344594 -0.00094678573 -0.0023816261
-0.0052344594 8.6071428e-05 -0.0028100812
0.00094391895 -0.001205 -0.00058211375
-0.0032608109 -0.001205 -0.0011819511
-8.5810811e-05 0 0.0019886179
-0.0029175675 -0.001205 -0.0016104064
0.0048054056 8.6071428e-05 0.00018910575
-0.0057493243 -0.00094678573 -0.002467317
-0.0024027028 0 0.0019029269
-0.003175 0 -6.7967419e-05
0.0062641893 -8.6071428e-05 -0.0007534959
0.0024885135 0.00034428571 0.0013887805
0.00068648648 -0.00017214286 -0.002467317
-0.0053202705 0.001205 -0.0021245528
0.0052344594 0.00025821428 -0.0068375613
-0.00085810811 0.001205 -0.0018674796
-0.0024885135 -0.00034428571 -0.005466504
0.0035182433 -0.001205 -0.0021245528
0.0048054056 -8.6071428e-05 -0.0029814634
-0.0035182433 0.0011189285 -0.002467317
-0.00025743243 0.00034428571 -0.0076087806
-0.00068648648 -0.00043035715 -6.7967419e-05
0.00034324324 0 -0.0050380486
0.0027459459 -0.00025821428 -0.0070946342
0.0054060812 -0.00060249999 -0.00023934954
-0.0036040542 0.001205 -0.0017817885
0.00051486486 0.00034428571 -0.00015365848
-0.002231081 -0.00068857142 -0.002467317
0.0024027028 -0.00025821428 -0.0067518698
-0.0048054056 -0.00025821428 -0.0026386993
-0.0030033784 0.00077464286 -0.0023816261
-0.0052344594 8.6071428e-05 -0.0064091058
-0.0048054056 -0.001205 -0.0022102438
0.0062641893 0.00034428571 -0.001010569
-0.0026601353 -0.001205 -0.0022102438
0.0025743244 0.00034428571 -0.0052094311
-0.0048912163 0.00017214286 0.00053187
0.0012871622 -0.0008607143 -0.002467317
-0.0062641893 -0.00043035715 -0.000924878
0.00094391895 -0.00077464286 -0.002467317
0.0014587838 -0.001205 -0.0021245528
-0.00051486486 -0.00025821428 -6.7967419e-05
-0.0032608109 -0.001205 -0.000924878
0.0028317568 8.6071428e-05 -0.0033242276
-0.0012013514 0.001205 -0.0007534959
0.0050628381 0.001205 -0.00015365848
0.0061783786 0.00094678573 -0.0004964227
0.0051486488 -0.00043035715 -0.0023816261
-0.0024027028 0.00025821428 -0.0040954472
-0.00094391895 -0.00043035715 -0.002467317
0.004462162 -0.001205 -0.0014390243
0.0050628381 -0.00025821428 -0.0039240653
0.00068648648 0.00077464286 -6.7967419e-05
0.0006006757 0.00051642855 -0.00023934954
-0.00034324324 0 0.00036048787
0.0062641893 -0.00017214286 -0.001010569
-0.0062641893 0.00025821428 -0.0012676422
0.0018878379 -0.00051642855 -0.002467317
0.0048912163 -0.00025821428 -0.0071803252
0.00025743243 0.00025821428 -0.0028957725
0.0032608109 0 -6.7967419e-05
0.0052344594 0 -0.0077801626
0.0053202705 -0.00017214286 0.0012173984
-0.0023168919 -0.00025821428 0.00078894314
0.0062641893 -0.00043035715 -0.0016960975
0 0.00034428571 -0.0075230896
-0.00025743243 -0.00017214286 -0.0077801626
-0.0030033784 -0.001205 -0.0023816261
0.0012871622 -0.0008607143 -6.7967419e-05
-0.0016304054 -0.00051642855 -0.002467317
0.0053202705 8.6071428e-05 -0.0059806504
-0.00017162162 -0.0008607143 -6.7967419e-05
-0.0012013514 -0.001205 -0.0023816261
-0.0053202705 0.00077464286 -0.0023816261
0.004462162 0.001205 -0.0022959348
-0.004977027 0.00025821428 0.0013887805
0.0052344594 -0.0010328571 -0.00023934954
0.00025743243 8.6071428e-05 -0.0059806504
-0.00025743243 -0.001205 -0.00058211375
0.0034324324 0.00025821428 -0.002467317
8.5810811e-05 0.00034428571 0.00087463425
0.0050628381 -0.00025821428 -0.0062377239
0.0062641893 0.00051642855 -0.0016104064
0.0030891893 -0.00051642855 -0.00023934954
0.004977027 0.00034428571 0.00018910575
0.0046337838 0.001205 -0.00066780485
0.0032608109 0.001205 -0.0022102438
0.0025743244 0.001205 -0.0022959348
-0.0026601353 -0.00094678573 -6.7967419e-05
-0.00085810811 -0.00043035715 -0.00015365848
0.0026601353 -0.00034428571 -0.0058092684
0.0056635137 -8.6071428e-05 -0.0023816261
-0.0045479732 0.0008607143 -0.0023816261
0.0062641893 0.0008607143 -0.00023934954
0.0038614864 -0.001205 -0.0022959348
0.00025743243 0.00025821428 0.00018910575
-0.00017162162 0.00034428571 -0.0042668292
-0.004462162 0.00025821428 -0.002467317
-0.00025743243 -0.001205 -0.0020388619
-0.00034324324 0 0.00044617892
-0.0048912163 0.00017214286 -0.0060663414
0.004977027 0.001205 -0.0018674796
-0.00025743243 -0.00025821428 -0.0068375613
-0.0051486488 -0.00034428571 -0.0030671544
0.00034324324 -0.00025821428 -0.0026386993
0.001372973 0.00094678573 -0.002467317
-0.0053202705 -0.00025821428 -0.0063234149
-0.0030891893 0.0011189285 -0.0023816261
0.004977027 -0.001205 -0.0020388619
0.0045479732 -0.001205 -0.0012676422
0.004462162 -0.001205 -0.0011819511
-0.0027459459 -0.00034428571 -0.0076087806
-0.0048912163 0.001205 -0.0003250406
0.0043763514 0.001205 -0.0016104064
-0.0057493243 -0.001205 -0.0010962602
-0.0054060812 0.001205 -0.0013533334
0.00034324324 0.00034428571 -0.002467317
-0.005835135 -0.0008607143 -6.7967419e-05
0.0045479732 -0.00034428571 -6.7967419e-05
8.5810811e-05 0.00034428571 -0.0030671544
0.0024885135 -0.00034428571 -0.0034956099
0.0023168919 0.00060249999 -0.00023934954
-0.0062641893 0.00017214286 -0.0016960975
-0.004977027 -0.00034428571 -0.0040097563
0.00077229732 0.00025821428 -0.002467317
-0.00042905405 0.00043035715 -0.00023934954
0.00068648648 -0.001205 -0.0022959348
0.0036898649 -0.00060249999 -0.00015365848
-0.0027459459 0.001205 -0.00058211375
0.0023168919 0.00043035715 -0.00023934954
-0.0019736488 0.00043035715 -6.7967419e-05
-0.004977027 -0.00034428571 -0.0026386993
-0.0011155405 -0.00094678573 -6.7967419e-05
-0.0048912163 -0.00034428571 -0.0058949594
0.0037756758 0.00060249999 -0.002467317
0.0012013514 -0.0008607143 -6.7967419e-05
0.0024027028 -0.00025821428 0.00036048787
0.0053202705 0.001205 -0.0010962602
0.002231081 0.00025821428 -0.0065804878
-0.0050628381 0.00025821428 0.00010341469
-0.0051486488 0.00025821428 -0.0046952846
-0.0010297297 -0.00017214286 -0.002467317
-0.0027459459 -0.001205 -0.0004964227
0.00051486486 -0.001205 -0.0011819511
0.0018878379 -0.00017214286 -0.002467317
-0.002231081 -0.00017214286 0.0014744716
-0.0024027028 -0.00034428571 -0.0046095937
-0.0024885135 0.00034428571 -0.0052094311
-0.0059209461 -0.0011189285 -0.001010569
-0.0012013514 0.00094678573 -6.7967419e-05
0.0037756758 -0.00034428571 -0.0023816261
0.0056635137 0.00043035715 -0.002467317
0.003175 0.001205 -0.0010962602
0.0023168919 0.00051642855 -0.002467317
-0.0041189189 -0.001205 -0.00015365848
0.0026601353 0.00034428571 -0.0064091058
-0.0023168919 -0.00017214286 -0.0070089432
-0.00085810811 0.001205 -0.0020388619
0.00042905405 8.6071428e-05 -6.7967419e-05
-0.0062641893 0.00034428571 -0.00066780485
0.0062641893 0.00060249999 -0.0012676422
-0.0032608109 0.00043035715 -0.002467317
0.0048054056 0 -0.0052094311
0.0062641893 0.00060249999 -0.0004964227
0.0023168919 -0.00017214286 0.00027479682
-0.00085810811 -0.001205 -6.7967419e-05
0.0036040542 -0.001205 -0.0013533334
0.0048054056 -8.6071428e-05 -0.0068375613
0 0.00034428571 -0.0052094311
0.0029175675 0.001205 -0.00023934954
-0.0038614864 -0.001205 -0.002467317
0.00017162162 0.00034428571 -0.0068375613
0.00025743243 0.00025821428 1.7723636e-05
0.005835135 0.0011189285 -0.00023934954
0.0012871622 -0.00017214286 -6.7967419e-05
-0.00025743243 -0.00025821428 -0.0058949594
-0.0006006757 -0.001205 -0.0007534959
0.0048912163 0.00034428571 -0.0039240653
0.0052344594 -0.0011189285 -0.0012676422
-0.0036898649 -0.001205 -0.0007534959
-0.00077229732 -0.00034428571 -6.7967419e-05
0.0045479732 0.001205 -0.0023816261
-0.0027459459 8.6071428e-05 -0.0035813008
8.5810811e-05 0.00034428571 0.0015601626
-0.0027459459 0.0011189285 -0.0022959348
0.0048912163 -0.00025821428 -0.0058092684
0.0053202705 0.00017214286 -0.0047809756
0.004977027 -0.00025821428 -0.0026386993
-0.0062641893 -0.00043035715 -0.0012676422
0.00068648648 0.00068857142 -0.002467317
0.0010297297 -0.00051642855 -0.00023934954
0.0018020271 0.001205 -0.0014390243
-0.0023168919 0.00017214286 -0.0040097563
-0.0047195945 -0.00077464286 -6.7967419e-05
0.0048054056 8.6071428e-05 -0.0039240653
0.0023168919 8.6071428e-05 0.0015601626
0.0052344594 -0.00017214286 -0.0058092684
-0.0023168919 -0.001205 -0.0017817885
-0.0032608109 8.6071428e-05 -6.7967419e-05
0.0023168919 0.00034428571 -0.0043525202
0.0025743244 0.00034428571 -0.0035813008
-0.00034324324 0 -0.0059806504
-0.0025743244 0.00034428571 -0.0068375613
0.0043763514 -0.001205 -0.00083918695
-0.005577703 -8.6071428e-05 -6.7967419e-05
0.00077229732 -0.00025821428 -6.7967419e-05
-0.0025743244 -0.00094678573 -0.002467317
-0.0019736488 -0.001205 -0.0015247155
-0.00042905405 0.00025821428 -0.002467317
-0.0051486488 0.00025821428 -0.0035813008
-0.00017162162 -0.001205 -0.0019531706
-0.0012013514 -0.00043035715 -6.7967419e-05
-0.0025743244 0.00077464286 -0.002467317
-0.0024885135 0.00077464286 -0.00015365848
-0.00025743243 -0.001205 -0.0007534959
-0.0035182433 -0.001205 -0.0016104064
-0.0017162162 -0.00068857142 -0.00015365848
0.002231081 8.6071428e-05 -0.0031528454
-0.00085810811 0.00034428571 -6.7967419e-05
0.0028317568 0 -0.005637886
-0.0025743244 0.00025821428 0.0015601626
-0.0027459459 -0.001205 -0.0022959348
0.004977027 -0.001205 -0.00066780485
-0.00094391895 -0.001205 -0.001010569
-0.0052344594 -0.00034428571 -0.0075230896
-0.0024027028 -0.0010328571 -6.7967419e-05
-0.0026601353 0.00034428571 -0.005552195
-8.5810811e-05 -0.00034428571 0.00053187
0.0012013514 0.001205 -0.0007534959
-0.0021452704 -0.001205 -0.0019531706
-0.00025743243 -0.001205 -0.0023816261
0.0014587838 -0.00043035715 -0.002467317
0.0011155405 0.001205 -0.00041073165
0.0054918919 0.001205 -0.00041073165
0.0057493243 -0.0010328571 -0.0010962602
-0.0051486488 -0.0008607143 -6.7967419e-05
-0.0048054056 0.00051642855 -0.00023934954
0.0024885135 8.6071428e-05 -0.0079515446
-0.0054060812 0.00043035715 -0.00023934954
0.0052344594 -0.00017214286 -0.0067518698
0.0048054056 8.6071428e-05 0.00036048787
-0.002231081 -0.00017214286 -0.0058092684
-0.0025743244 -0.00077464286 -0.002467317
-0.0020594595 0 -0.002467317
-0.00034324324 0.00043035715 -0.002467317
0.0029175675 0.00017214286 -0.002467317
-0.0047195945 0.00051642855 -0.00023934954
0.0024027028 -0.00025821428 -0.0049523576
-0.0029175675 0.001205 -0.0011819511
-0.0025743244 -0.001205 -0.0013533334
-0.0061783786 0.00077464286 -0.0022959348
-0.0050628381 -0.00017214286 -0.0078658536
-0.00068648648 -0.001205 -0.0022102438
-0.0028317568 0.001205 -0.0022102438
-0.0053202705 -8.6071428e-05 -0.0039240653
-0.0035182433 0.001205 -0.0011819511
0.0025743244 0.00034428571 -0.0039240653
0.0014587838 -0.00025821428 -0.002467317
-0.001372973 -0.001205 -0.00066780485
-0.0047195945 -0.001205 -0.0020388619
-0.0017162162 0.001205 -0.0017817885
-0.0023168919 0.00017214286 -0.0068375613
-0.0052344594 8.6071428e-05 -0.0041811382
0.0023168919 0.001205 -0.0015247155
-0.0018020271 -0.001205 -0.0016960975
0.004462162 0.001205 -0.0023816261
0.001372973 -0.00094678573 -0.002467317
-0.0023168919 8.6071428e-05 -0.0050380486
-0.0048912163 -8.6071428e-05 0.0014744716
0.0032608109 -0.001205 -0.00083918695
0.0042047296 0.001205 -0.0023816261
-0.0059209461 0.00017214286 -6.7967419e-05
0.0026601353 0.001205 -0.001010569
0.0033466218 0.00034428571 -0.002467317
0.0054060812 -0.00034428571 -0.0023816261
-0.0050628381 0.00025821428 -0.0046095937
-0.00068648648 -0.00094678573 -0.002467317
-0.0021452704 0.00034428571 -0.00015365848
0.00077229732 -0.001205 -0.0018674796
0.0062641893 0.00025821428 -0.0023816261
0.00034324324 8.6071428e-05 -6.7967419e-05
0.0040331082 0.001205 -0.001010569
-0.0062641893 0.00043035715 -0.00041073165
0.004977027 0.001205 -0.0023816261
0.0023168919 0 -0.0066661788
-0.0011155405 -0.001205 -0.0012676422
0.00068648648 0.0011189285 -6.7967419e-05
-0.003175 0.0010328571 -0.0023816261
0.0040331082 -0.001205 -0.0016104064
0.0028317568 0 0.0014744716
0.00042905405 0.00060249999 -0.002467317
-0.0040331082 0.001205 -0.0003250406
-0.0062641893 0.0008607143 -0.0019531706
-0.00094391895 0.0011189285 -6.7967419e-05
-0.0048054056 -0.0008607143 -0.0023816261
0.002231081 0.00094678573 -0.002467317
0.0050628381 -0.00025821428 -0.0058949594
-0.0053202705 -8.6071428e-05 -0.0028100812
0.0061783786 0.0008607143 -0.0017817885
-0.0029175675 0.00034428571 -0.002467317
-0.0062641893 -0.00043035715 -0.0013533334
0.0024027028 0.00034428571 -0.0047809756
-0.00025743243 0.00034428571 0.00061756105
-0.0039472976 0.00068857142 -0.00023934954
-0.004977027 0.00025821428 -0.0066661788
0.00085810811 -0.0011189285 -0.002467317
-0.0048912163 -8.6071428e-05 0.00018910575
-0.0028317568 0.001205 -0.0020388619
0.0027459459 -0.00043035715 -0.002467317
0.0020594595 -0.001205 -0.0010962602
-0.0050628381 0.00034428571 -0.002553008
-0.0024885135 -0.00094678573 -0.002467317
-0.0050628381 0.001205 -0.0016960975
-0.0046337838 -0.00043035715 -0.00015365848
0.0053202705 0.001205 -0.0014390243
-0.0038614864 0.00077464286 -0.0023816261
-0.0060067568 -0.0010328571 -0.0019531706
0.00017162162 -0.00025821428 0.0017315448
0.005835135 -0.0010328571 -0.0020388619
-0.0006006757 -0.001205 -0.00041073165
0.0028317568 8.6071428e-05 -0.0052094311
0.0024885135 -0.001205 -0.0003250406
0.0019736488 0.00017214286 -6.7967419e-05
-0.0048912163 0.00025821428 -0.002553008
0.0051486488 0.001205 -0.0021245528
-0.0026601353 -0.00025821428 0.0016458537
-0.0053202705 0.001205 -0.00066780485
-0.0015445946 -0.001205 -0.0016104064
0.0018020271 -0.001205 -0.0003250406
-0.0062641893 0.00025821428 -0.0017817885
-8.5810811e-05 -0.00034428571 -0.0032385367
0.0050628381 -0.001205 -0.0011819511
0.0051486488 -0.00025821428 -0.0071803252
-0.0012871622 0.001205 -0.001010569
-0.0027459459 -0.00025821428 -0.0051237401
0.0045479732 0.00068857142 -0.00023934954
0.0020594595 -0.001205 -0.0016960975
8.5810811e-05 -0.00017214286 0.0018172358
-0.004977027 0.00017214286 0.00044617892
0.00017162162 0.00034428571 -0.0070946342
0.0056635137 0.00017214286 -6.7967419e-05
0.0048912163 -0.00025821428 -0.005466504
0.0010297297 0.00034428571 -6.7967419e-05
0.0053202705 0 -0.0039240653
0.0024027028 0.00034428571 -0.0058949594
0.0033466218 0 -6.7967419e-05
-0.0032608109 -0.0010328571 -0.002467317
-0.0051486488 -0.00034428571 -0.0042668292
-0.00025743243 0.00025821428 -0.0076944716
0.0062641893 -0.00077464286 -0.0011819511
0.0018020271 0.001205 -0.0010962602
8.5810811e-05 0.00034428571 -0.0068375613
-0.0052344594 8.6071428e-05 0.0015601626
0.0054918919 0 -6.7967419e-05
0.0018020271 0.00051642855 -0.002467317
-0.0045479732 0.00051642855 -0.002467317
-0.0040331082 0.00060249999 -0.00023934954
-0.0057493243 0.0011189285 -0.0016104064
-0.0018878379 0.001205 -0.0021245528
0.0036040542 -0.00068857142 -0.00023934954
-0.0047195945 0.00025821428 -0.002467317
0.00051486486 0.0008607143 -6.7967419e-05
-0.00025743243 -8.6071428e-05 0.00061756105
0.00085810811 -0.00051642855 -0.00023934954
0.0054918919 0.001205 -0.0014390243
0.0024027028 0.00051642855 -0.002467317
-0.0028317568 0.0011189285 -0.0023816261
0.0052344594 0.00077464286 -6.7967419e-05
0.0028317568 0.001205 -0.0012676422
0.0056635137 0.0011189285 -0.001010569
-0.0053202705 -8.6071428e-05 -0.005552195
-0.0028317568 0.001205 -0.0016960975
0.0047195945 0.001205 -0.00058211375
-0.0026601353 0.00034428571 -0.0066661788
0.00017162162 0.001205 -0.0003250406
-0.0027459459 0.00017214286 -0.0070089432
-0.0024027028 -8.6071428e-05 -0.0080372356
0.0023168919 -0.00017214286 -0.0033242276
0.0041189189 -0.00043035715 -6.7967419e-05
-0.00025743243 -0.00017214286 -0.0063234149
-0.0062641893 -0.00051642855 -0.0007534959
-0.003175 0.00017214286 -0.002467317
-0.0032608109 -0.001205 -0.0013533334
-0.0048054056 -0.00017214286 -0.0064947968
0.0018878379 0.001205 -0.0012676422
-0.0030033784 8.6071428e-05 -6.7967419e-05
0.00017162162 0.00034428571 -0.005380813
0.00034324324 -0.00051642855 -0.002467317
0.0026601353 -0.00034428571 0.0011317075
0.0024885135 0.00034428571 0.0015601626
0.0024885135 0.00060249999 -0.00023934954
-0.0010297297 -0.00043035715 -0.00015365848
-0.0063499999 -8.6071428e-05 -0.0003250406
0.0052344594 0.00025821428 -0.0057235775
0.002231081 0.00025821428 -0.0050380486
0.0038614864 0.00077464286 -6.7967419e-05
0.0036040542 -0.001205 -0.0017817885
-0.0041189189 0.00017214286 -0.002467317
0.0048054056 -0.0010328571 -0.0023816261
-0.0027459459 -0.00034428571 0.0010460163
-0.0061783786 0.00094678573 -0.0012676422
0.0024885135 -0.001205 -0.0020388619
-0.0023168919 0.00025821428 -6.7967419e-05
0.00068648648 0.001205 -0.0017817885
0.0040331082 0.0008607143 -6.7967419e-05
-0.0018020271 0.001205 -0.0013533334
-0.00068648648 -0.0010328571 -6.7967419e-05
0.00085810811 0.001205 -0.0003250406
0.0027459459 0.00034428571 0.00036048787
0.0012013514 -0.001205 -0.0021245528
-0.0040331082 0.00077464286 -0.0023816261
-0.0029175675 0.001205 -0.0020388619
0.00017162162 -8.6071428e-05 0.0016458537
-0.0025743244 -0.00034428571 0.0007032521
0.00017162162 -0.00034428571 0.00078894314
0.0050628381 0.00034428571 -0.0070089432
-0.0026601353 0.00034428571 -0.0075230896
-0.0028317568 -0.00017214286 -0.0074373987
0.0021452704 0.00094678573 -0.002467317
-0.0050628381 -0.00034428571 -0.0047809756
0.0010297297 0.001205 -0.0012676422
0.0047195945 -0.001205 -0.0022102438
0.0050628381 0.00034428571 -0.0034099186
-0.00017162162 -0.00034428571 -0.0041811382
-0.0027459459 8.6071428e-05 -0.0060663414
0.0018878379 0.00017214286 -0.002467317
0.0053202705 -0.00034428571 -0.00015365848
0.0032608109 -0.00051642855 -0.00023934954
-0.0050628381 -0.00034428571 -0.0070089432
0.0025743244 -0.00034428571 -0.0069232523
0.0048054056 -0.00043035715 -6.7967419e-05
-0.0018020271 -0.00025821428 -6.7967419e-05
0.0017162162 -0.001205 -0.001010569
0.003175 0.00077464286 -6.7967419e-05
-0.0042905407 -0.001205 -0.002467317
-0.0028317568 0 -0.0028100812
-0.00034324324 0.00017214286 -0.0076087806
0.00017162162 0.00034428571 -0.0058092684
0.0063499999 -0.00051642855 -0.0003250406
0.0060067568 0.0011189285 -0.0016104064
-0.0048912163 -8.6071428e-05 -0.0058949594
0.0051486488 -0.00025821428 -0.0047809756
-0.0048912163 -0.00034428571 -0.0058092684
0.0039472976 0.00025821428 -0.0023816261
-8.5810811e-05 -8.6071428e-05 -0.0080372356
-0.0020594595 -0.001205 -0.0016960975
0.0035182433 -0.00043035715 -0.002467317
0.0027459459 -8.6071428e-05 -0.0043525202
-0.0054918919 0.001205 -0.0015247155
-0.0062641893 0.00077464286 -0.0010962602
0.0053202705 0.00025821428 -0.0034956099
-0.0039472976 0.001205 -0.0016104064
0.00034324324 -8.6071428e-05 -0.0029814634
-0.00034324324 8.6071428e-05 0.00053187
-0.0010297297 -0.001205 -0.0012676422
-0.00025743243 -0.00034428571 0.00010341469
0.0050628381 0.00034428571 0.00087463425
0.0051486488 -0.00017214286 0.0012173984
-0.0027459459 -0.001205 -0.00041073165
0.0053202705 -0.00017214286 -0.005637886
0.0036040542 0.001205 -0.0007534959
0.0057493243 0.001205 -0.0022959348
0.0041189189 0.001205 -0.0012676422
0.0053202705 0 -0.0067518698
-0.0062641893 0.00017214286 -0.00015365848
-0.0040331082 -0.00051642855 -0.002467317
0.0024027028 -0.00025821428 -0.0071803252
0.0010297297 -0.00068857142 -0.002467317
0.0062641893 0.00060249999 -0.0016960975
-0.0048054056 -0.00017214286 -0.0076087806
-0.0024027028 0.00025821428 -0.0052094311
-0.004977027 -0.001205 -0.0010962602
-0.005577703 -0.001205 -0.001010569
0.0018020271 0.001205 -0.000924878
0.0043763514 -0.00051642855 -0.002467317
-0.00017162162 -0.00034428571 -0.0066661788
-0.0023168919 -0.001205 -0.0015247155
0.0028317568 8.6071428e-05 -0.0061520324
0.0045479732 -0.00051642855 -0.0023816261
-0.003175 0.0011189285 -0.00023934954
-0.00034324324 0.001205 -0.0021245528
0.00025743243 0.0010328571 -6.7967419e-05
-0.0052344594 0.00094678573 -0.0023816261
-0.00017162162 -0.00034428571 -0.0065804878
-0.0010297297 -0.001205 -0.0013533334
-0.0048054056 8.6071428e-05 -0.0074373987
-0.0051486488 -0.00077464286 -6.7967419e-05
-0.0061783786 -0.0008607143 -0.0013533334
-0.004977027 -0.001205 -0.0016960975
0.0051486488 0.00017214286 0.0018172358
0.0048054056 0.00025821428 -0.0059806504
-0.0046337838 0.00034428571 -0.002467317
-0.0050628381 -0.0008607143 -6.7967419e-05
-0.0054060812 0.001205 -0.0015247155
-0.0036898649 -0.001205 -0.0017817885
-0.0048054056 8.6071428e-05 -0.0047809756
-0.0010297297 -0.001205 -0.00066780485
0.0028317568 0 0.00027479682
-0.0025743244 -0.00034428571 -0.0065804878
-0.0042905407 0.001205 -0.0017817885
0.0026601353 -0.00034428571 -0.0049523576
0.0050628381 0.00034428571 -0.0040097563
-8.5810811e-05 -0.00017214286 -0.0079515446
-0.0027459459 -0.00034428571 -0.005380813
0.00017162162 -0.00043035715 -6.7967419e-05
-0.0011155405 -0.0011189285 -6.7967419e-05
-0.0020594595 -0.001205 -0.0015247155
0.0030033784 -0.00060249999 -0.0023816261
-0.00034324324 0 -0.002553008
0.0023168919 -8.6071428e-05 -0.0039240653
-0.0024027028 0.00025821428 -0.0047809756
-8.5810811e-05 -0.00034428571 -0.0049523576
-0.0051486488 -0.00034428571 -0.0035813008
0.0025743244 -0.00034428571 0.00087463425
-0.0030891893 0.001205 -0.0015247155
-0.0034324324 -0.001205 -0.0004964227
-0.0029175675 0.001205 -0.0004964227
0.0052344594 0.00051642855 -0.00023934954
0.0050628381 -0.001205 -0.00023934954
-0.0048054056 -0.00017214286 -0.002553008
-0.0016304054 0.00034428571 -6.7967419e-05
-0.0020594595 0.00034428571 -0.002467317
-0.0050628381 0.00025821428 0.00087463425
0.0057493243 0 -6.7967419e-05
-0.0036898649 -0.001205 -0.002467317
-0.0024885135 -0.00034428571 -0.0036669918
0 0.001205 -0.0018674796
-0.0024885135 0.0008607143 -0.00015365848
0.0028317568 0.00025821428 0.0013887805
0.0052344594 -8.6071428e-05 -0.0076087806
-0.0052344594 8.6071428e-05 -0.0062377239
0.003175 0.0011189285 -6.7967419e-05
-0.0046337838 0 -0.002467317
-8.5810811e-05 0.00094678573 -6.7967419e-05
0.0062641893 0.00051642855 -0.0004964227
0.0036040542 8.6071428e-05 -0.002467317
0.0027459459 0.00034428571 -0.0026386993
-0.0060067568 0.00094678573 -0.0023816261
0.0047195945 -0.001205 -0.0013533334
-0.001372973 0.001205 -0.0004964227
-0.0050628381 -0.00034428571 1.7723636e-05
-0.0033466218 -0.001205 -0.00058211375
-0.0034324324 0.001205 -0.0016104064
0.0025743244 -0.00051642855 -0.00023934954
0.0048054056 8.6071428e-05 -0.0037526828
-0.0062641893 0.00060249999 -0.0004964227
-0.0060067568 0.00068857142 -0.00023934954
0.0051486488 -0.00017214286 -0.0030671544
0.0034324324 -0.001205 -0.0023816261
-0.0017162162 0.001205 -0.0016104064
0.0010297297 0.001205 -0.00083918695
0.00051486486 0.001205 -0.00066780485
0.0039472976 0.0008607143 -6.7967419e-05
0.00042905405 -0.00043035715 -0.002467317
0.0043763514 -0.001205 -0.0010962602
-0.0034324324 -0.001205 -0.0017817885
0.0034324324 -0.001205 -0.0015247155
0.00051486486 -0.00051642855 -0.002467317
0.0018878379 -0.001205 -0.00041073165
0.004977027 -8.6071428e-05 0.0016458537
-0.0048912163 -0.00034428571 -0.0041811382
0.0048054056 0.00025821428 0.0009603253
-0.00034324324 -0.00034428571 -0.002467317
0.0024885135 0.001205 -0.0023816261
0 -0.00034428571 0.0009603253
-0.0029175675 0.001205 -0.000924878
0.0023168919 0.00034428571 -0.0063234149
-0.00085810811 -0.0010328571 -6.7967419e-05
-0.0062641893 0.00051642855 -0.00058211375
-0.0062641893 0.00017214286 -0.00041073165
-0.0010297297 -0.00017214286 -6.7967419e-05
-0.0052344594 0.00017214286 0.00061756105
-0.0024027028 -0.00034428571 -0.0034099186
-0.0053202705 0 -0.0037526828
0.0030891893 0.001205 -0.00066780485
-0.0048912163 -0.00034428571 -0.0074373987
-0.0023168919 8.6071428e-05 -0.0029814634
-0.0048912163 -0.00034428571 -0.0040097563
0.0053202705 0.00025821428 0.0014744716
0.0054060812 0.00094678573 -0.002467317
0.0019736488 0.00077464286 -0.002467317
-0.0023168919 0 0.0012173984
0.0023168919 0.00034428571 -0.0066661788
0.005577703 -0.0011189285 -0.00041073165
-0.004462162 0.00017214286 -0.002467317
0.00017162162 -0.00034428571 -0.0030671544
0.0048912163 0.00034428571 -0.0063234149
0.0053202705 0 -0.0048666666
0.0012013514 0.00043035715 -0.002467317
0.0025743244 0.00034428571 0.0013030895
-0.0042047296 0.00051642855 -0.002467317
-0.005835135 0.0011189285 -0.0012676422
0.0025743244 -0.00034428571 1.7723636e-05
0.0056635137 -0.0010328571 -0.000924878
-0.0060925675 -0.00051642855 -0.00023934954
-0.0025743244 -0.00034428571 -0.0063234149
0.0027459459 -0.001205 -0.0011819511
0.0030033784 -0.00043035715 -0.00015365848
0.005577703 -0.00017214286 -0.0023816261
0.0033466218 -0.001205 -0.0016960975
-0.0048054056 -0.00025821428 -0.005380813
8.5810811e-05 -0.00034428571 0.00044617892
0.0052344594 -0.0011189285 -0.0022959348
-0.002231081 -0.00017214286 -0.0074373987
0.0053202705 0 0.0014744716
-0.00068648648 -0.00034428571 -0.002467317
-0.0062641893 -0.00034428571 -0.0016960975
-0.0024027028 0.00025821428 -0.0045239027
-0.0054918919 -0.0010328571 -0.002467317
-0.0027459459 0.00025821428 -0.0032385367
-0.0054060812 -0.001205 -0.0012676422
0.0023168919 -0.00017214286 0.0012173984
0.0039472976 -0.00094678573 -0.00023934954
-0.0012871622 -0.00025821428 -0.002467317
0.0033466218 -0.00025821428 -6.7967419e-05
-0.0053202705 -0.00017214286 -0.0064091058
0.0042047296 0.001205 -0.0007534959
0 0.00034428571 -0.0051237401
0.0024885135 0.00034428571 -0.0066661788
0.0050628381 -0.001205 -0.0023816261
0.0043763514 -0.00077464286 -0.00023934954
0.0017162162 -0.00094678573 -0.00015365848
-0.0033466218 -0.00051642855 -0.00023934954
-0.0053202705 8.6071428e-05 0.0010460163
-0.00034324324 0 -0.0069232523
-0.0027459459 8.6071428e-05 0.0012173984
0.00025743243 0.00025821428 -0.0043525202
0.0023168919 0.00034428571 -0.0028100812
-0.00034324324 0.00017214286 0.00010341469
0.00034324324 -0.00068857142 -0.002467317
-0.0053202705 0 -0.0057235775
-0.0051486488 -0.00034428571 -0.0063234149
0.0043763514 0 -0.002467317
0.0024885135 -0.001205 -0.0011819511
0.0012013514 -0.00017214286 -0.002467317
-0.0061783786 -0.00094678573 -0.001010569
-0.0026601353 0.00034428571 0.00010341469
-0.0053202705 -0.00017214286 1.7723636e-05
-0.00034324324 0.001205 -0.00015365848
0.0041189189 0.00068857142 -0.0023816261
-0.00034324324 0 -0.0029814634
-0.0042047296 0.00025821428 -6.7967419e-05
-0.00034324324 0.00017214286 -0.0048666666
-0.002231081 -0.00017214286 0.00053187
0.002231081 0.00025821428 -0.0073517072
-0.0028317568 -0.00017214286 -0.0063234149
-0.0029175675 0.00051642855 -0.002467317
-0.0023168919 0.00017214286 -0.0075230896
0.002231081 0.00025821428 -0.0036669918
0.00068648648 0.001205 -0.00023934954
0.0006006757 0.001205 -0.0010962602
-0.00034324324 0.001205 -0.0022959348
0.0015445946 0.00068857142 -0.00023934954
-0.00025743243 -0.00025821428 -0.0069232523
0.0051486488 -0.00034428571 -0.002467317
-0.0024027028 0.00017214286 0.0017315448
-0.00085810811 -0.001205 -0.0017817885
-0.0027459459 -0.00034428571 0.00087463425
-0.0062641893 -0.00034428571 -0.0004964227
0.0041189189 0.00025821428 -0.0023816261
0.0036040542 -0.00043035715 -0.00015365848
0.0062641893 -0.00068857142 -0.0012676422
0.0054918919 0.00043035715 -0.00023934954
-0.0048054056 -0.001205 -0.0007534959
0.001372973 -0.001205 -0.0022102438
0.00042905405 -0.0011189285 -6.7967419e-05
0.0048912163 -0.00025821428 -0.0042668292
-0.0039472976 -0.001205 -0.00023934954
-0.0036040542 0.00034428571 -0.00015365848
0.0011155405 0.001205 -0.0017817885
-0.0048912163 -8.6071428e-05 -0.0079515446
0.005577703 0.0011189285 -0.0010962602
0.0037756758 -0.001205 -0.00066780485
-0.0026601353 0.001205 -0.0011819511
-0.0045479732 -0.0011189285 -0.0023816261
0 0.00034428571 -0.0076087806
0.0021452704 -0.001205 -0.0004964227
-0.0018878379 0.00043035715 -0.00023934954
0.0062641893 0.00034428571 -0.0014390243
0.0048912163 0.00094678573 -6.7967419e-05
0.00034324324 0 -0.0052094311
-0.0050628381 0.001205 -0.0004964227
-0.00077229732 -0.001205 -0.0016960975
0.003175 0.001205 -0.00015365848
-0.0018878379 0.00077464286 -0.002467317
0.0024885135 0.00043035715 -0.00023934954
-8.5810811e-05 -0.00034428571 -0.003838374
0.003175 -0.0010328571 -0.0023816261
-0.0023168919 8.6071428e-05 -0.0065804878
-0.00025743243 -8.6071428e-05 -0.0041811382
-0.0018020271 -0.0011189285 -6.7967419e-05
0 -0.00060249999 -0.00015365848
0 0.00025821428 0.0017315448
-0.0053202705 -0.00025821428 0.0010460163
-0.0048912163 0.001205 -0.0015247155
0.0052344594 -0.0010328571 -0.0023816261
-0.0032608109 0.001205 -0.0018674796
-0.0026601353 -0.001205 -0.0014390243
0.0056635137 0.001205 -0.0019531706
0.0012013514 8.6071428e-05 -0.002467317
-0.0053202705 -0.00017214286 0.0011317075
-0.0027459459 -0.00034428571 -0.0033242276
0.0025743244 0.00034428571 -0.0062377239
-0.0048912163 0.00017214286 -0.0046952846
0.0014587838 -0.0011189285 -0.0023816261
0.0024885135 -0.00034428571 -0.0075230896
-0.0027459459 8.6071428e-05 0.0015601626
0.0033466218 0.00077464286 -6.7967419e-05
-0.0012013514 -0.0008607143 -0.002467317
-0.0032608109 -0.00034428571 -0.002467317
-0.0029175675 -0.00068857142 -0.00015365848
0.0054918919 -0.00060249999 -0.0023816261
0.005835135 -0.0010328571 -0.0011819511
0.0054918919 0.001205 -0.000924878
-0.0037756758 0.00034428571 -0.00015365848
-0.0059209461 -0.0011189285 -0.0016960975
0.0016304054 0.00068857142 -0.002467317
-0.00025743243 -8.6071428e-05 -0.0062377239
0 0.00068857142 -0.00023934954
0.0036898649 0.001205 -0.0013533334
0.0053202705 0 -0.0028100812
-0.00025743243 0.00034428571 -0.0037526828
-0.0020594595 0.0008607143 -0.002467317
-0.0011155405 0.00051642855 -0.00023934954
-0.0035182433 -0.00068857142 -0.00015365848
0.0030891893 -0.0008607143 -0.0023816261
-0.0017162162 -0.00077464286 -0.002467317
0.0023168919 -0.00017214286 -0.0041811382
-0.0052344594 0.00017214286 -0.0066661788
0.0036898649 0.001205 -0.0003250406
-0.0053202705 0 -0.0064947968
-0.0048912163 0.00017214286 -0.0064947968
-0.0062641893 -8.6071428e-05 -0.0016104064
-0.0063499999 -0.00017214286 -0.00023934954
0.0048912163 0.00034428571 -0.0071803252
0.00034324324 -0.00017214286 0.00018910575
0.0050628381 0.00034428571 -0.005552195
-0.0024027028 0.00034428571 -0.00015365848
-0.0057493243 -0.00060249999 -0.00015365848
-0.0019736488 -0.00043035715 -0.002467317
0.0018878379 -0.001205 -0.0012676422
0.00051486486 -0.00043035715 -0.00015365848
0.0053202705 -0.00017214286 -0.0066661788
0.0012013514 0.001205 -0.0003250406
0.0018878379 -0.00025821428 -0.002467317
-0.0015445946 -0.001205 -0.0007534959
0.0023168919 -0.00017214286 -0.005637886
0.00051486486 0.001205 -0.0004964227
-0.0048912163 0 -0.0028957725
-0.0033466218 -0.00077464286 -0.002467317
-0.005577703 -0.00094678573 -0.002467317
-0.0024885135 0.001205 -0.0019531706
-0.004977027 0.00034428571 -0.002553008
-0.0047195945 8.6071428e-05 -0.002467317
0.002231081 0.00017214286 -0.0057235775
0.0052344594 -8.6071428e-05 -0.0040097563
-0.00034324324 0.00025821428 -0.0051237401
0.0027459459 -0.00017214286 -0.0058092684
0.0042047296 -0.0011189285 -0.0023816261
0.0056635137 0.001205 -0.00041073165
0.0034324324 -8.6071428e-05 -0.002467317
0.0032608109 0 -0.0023816261
0.0023168919 -8.6071428e-05 -0.0046952846
-0.00068648648 0.001205 -0.0020388619
-8.5810811e-05 0.00034428571 -0.0035813008
-0.0025743244 -0.00034428571 0.00078894314
-0.0018020271 -0.0008607143 -0.002467317
0.0056635137 0.001205 -0.0021245528
-0.00034324324 8.6071428e-05 -0.0041811382
0.0029175675 0.00017214286 -6.7967419e-05
0.00025743243 0.00025821428 -0.0028100812
-0.002231081 0.00017214286 -0.002467317
-0.0041189189 8.6071428e-05 -6.7967419e-05
0.00077229732 0.001205 -0.0014390243
0.0017162162 -0.00094678573 -6.7967419e-05
0.0026601353 -0.00017214286 0.0017315448
-0.0036040542 -0.001205 -0.0012676422
0.0026601353 0.00034428571 -0.005637886
0.0050628381 0.00034428571 0.00053187
0 -0.00034428571 -0.003838374
-0.00077229732 0.00034428571 -0.00015365848
-0.0048912163 -0.0010328571 -6.7967419e-05
-0.0033466218 0.001205 -0.0016104064
-0.0023168919 8.6071428e-05 0.00078894314
-0.0020594595 0.00094678573 -0.0023816261
-0.0017162162 0.00034428571 -6.7967419e-05
0.00025743243 -0.00034428571 0.00078894314
-0.0042905407 -0.001205 -0.0010962602
0.0023168919 -0.0008607143 -0.00015365848
0 0.00034428571 -0.005466504
0.00051486486 -0.001205 -0.0004964227
0.00094391895 0.001205 -0.0011819511
0.0039472976 0.00077464286 -0.0023816261
0.0025743244 0.00034428571 -0.0034099186
-0.0025743244 0.00025821428 0.0016458537
-8.5810811e-05 -0.00034428571 -0.0067518698
0.0036040542 0.00068857142 -0.00023934954
-0.0062641893 0.00068857142 -0.0011819511
0.00017162162 -0.00034428571 -0.0049523576
0.005835135 0.0010328571 -6.7967419e-05
0.00034324324 -0.00017214286 0.00027479682
0.0012871622 0.00034428571 -0.002467317
0.0023168919 0.00034428571 0.0007032521
-0.0028317568 0 -0.0033242276
-0.0018020271 0.00043035715 -0.00023934954
0.0034324324 -0.001205 -0.0012676422
0.0045479732 0.00060249999 -0.0023816261
-0.0054060812 0.001205 -0.0020388619
-0.0045479732 -0.001205 -0.0018674796
0.0048054056 8.6071428e-05 -0.0049523576
-0.0027459459 0.001205 -0.0021245528
-0.004977027 -0.00060249999 -0.002467317
-0.0052344594 0.00017214286 -0.0057235775
0.0041189189 -0.001205 -0.0018674796
-0.0024885135 0.001205 -0.00041073165
0.0050628381 0.0008607143 -0.0023816261
-0.0062641893 0.00025821428 -0.0022959348
0.0051486488 -0.00017214286 0.0018172358
0.0060067568 0.0011189285 -0.0007534959
0.0016304054 -0.00051642855 -0.002467317
-0.0061783786 0.00094678573 -0.0017817885
8.5810811e-05 0.00034428571 -0.0062377239
-0.0051486488 0.0010328571 -0.0023816261
0.0011155405 -0.001205 -0.0012676422
0.0036898649 0.00094678573 -6.7967419e-05
-0.00025743243 0.00034428571 -0.0059806504
-0.0032608109 -0.00025821428 -6.7967419e-05
0.0045479732 0.00077464286 -0.0023816261
0.0024027028 -0.00017214286 -0.0076944716
0.003175 0.001205 -0.0013533334
-0.00017162162 0.00034428571 -0.0068375613
0.004977027 -0.00025821428 -0.0069232523
0.0029175675 -0.001205 -0.0016960975
-0.0030033784 -0.0011189285 -0.002467317
-0.0039472976 -0.0011189285 -0.002467317
0.0024027028 0.00034428571 -0.00015365848
-0.0027459459 0.00025821428 -0.0044382112
-0.0023168919 -0.00017214286 -0.003838374
-0.0010297297 0.0010328571 -0.002467317
-0.001372973 0.001205 -0.0019531706
0.0040331082 -0.001205 -0.0021245528
0.0010297297 0.0011189285 -0.002467317
-0.0026601353 -0.00034428571 0.00018910575
-0.0048912163 -0.00094678573 -6.7967419e-05
-0.0062641893 0.00043035715 -0.0022102438
0.0062641893 -0.00077464286 -0.0003250406
-0.0061783786 0.00094678573 -0.0020388619
-0.00085810811 -0.00043035715 -0.002467317
-0.0050628381 -0.00034428571 -0.0066661788
-0.00042905405 0.001205 -0.0007534959
-0.0063499999 -0.00017214286 -0.00015365848
0.00017162162 0.00034428571 -0.0062377239
-0.0048912163 -0.00017214286 0.0011317075
0.0028317568 8.6071428e-05 -0.0075230896
0.0040331082 0.001205 -0.0014390243
0.0028317568 0.00017214286 -0.0042668292
8.5810811e-05 -0.001205 -0.0013533334
0.0060925675 -0.00094678573 -0.0003250406
-0.0050628381 -0.00034428571 -0.0064091058
-0.002231081 0.0008607143 -6.7967419e-05
-0.00025743243 -8.6071428e-05 -0.0029814634
-0.0051486488 -0.00034428571 -0.005466504
0.0027459459 -0.00025821428 -0.0065804878
0.00034324324 0.00051642855 -0.00023934954
0.0028317568 0.001205 -0.0017817885
-0.0047195945 -0.001205 -0.0012676422
0.0021452704 0.001205 -0.0013533334
-0.0052344594 0.0011189285 -0.0022959348
-0.00094391895 -0.0011189285 -0.002467317
-0.0054060812 -0.001205 -0.0018674796
-0.0026601353 -0.00034428571 -0.0077801626
-0.00025743243 -8.6071428e-05 -0.0040954472
-8.5810811e-05 -0.00034428571 -0.0028100812
-0.00025743243 0.00034428571 -0.0051237401
-0.0059209461 0.0011189285 -0.001010569
0.0062641893 0.00051642855 -0.0011819511
0.0042047296 0.001205 -0.00066780485
-0.0048912163 8.6071428e-05 -0.0076944716
-0.0018878379 0.00017214286 -6.7967419e-05
0.002231081 -0.00017214286 -0.002467317
-0.0012013514 -0.001205 -0.00015365848
0.0052344594 0.00025821428 0.0015601626
0.0062641893 -0.00068857142 -0.0016104064
8.5810811e-05 -0.00034428571 -0.0071803252
-0.001372973 0.0010328571 -0.002467317
0.0014587838 0.00025821428 -0.002467317
0.0038614864 -0.001205 -0.001010569
0.00025743243 0.00025821428 -0.0035813008
0.0028317568 0.0008607143 -6.7967419e-05
-0.0052344594 0.00017214286 -0.0050380486
0.0048054056 0.00025821428 -0.0061520324
-0.0041189189 0.001205 -0.00083918695
0.0018020271 -0.00068857142 -0.00015365848
0.0033466218 -0.001205 -0.00058211375
-0.0048912163 -0.00017214286 -0.0028957725
-0.0036898649 0.00034428571 -0.002467317
-0.0015445946 0.001205 -0.001010569
-0.0028317568 0 -0.0037526828
-8.5810811e-05 -0.00043035715 -0.00015365848
0.0061783786 -0.00068857142 -0.00023934954
0.005835135 0.00060249999 -0.002467317
-0.0030033784 0.001205 -0.00041073165
-0.0060067568 0.00060249999 -0.0023816261
0.0026601353 0.00034428571 -0.0032385367
0.00085810811 0.001205 -0.0017817885
-0.004977027 0.0010328571 -0.0023816261
0 -0.00043035715 -0.00015365848
-0.00025743243 -0.00025821428 -0.0043525202
0.0018020271 0 -0.002467317
-0.00051486486 0.00068857142 -0.002467317
-0.00017162162 -0.0008607143 -0.002467317
0 0.00034428571 0.00087463425
-0.004462162 -0.0008607143 -0.0023816261
0.00025743243 -0.00025821428 0.0013030895
0.0057493243 -0.0010328571 -0.0003250406
-0.0038614864 -0.001205 -0.0022959348
-0.0048054056 8.6071428e-05 0.00087463425
0.0027459459 -8.6071428e-05 -0.0063234149
0.0043763514 0.00017214286 -0.0023816261
-0.0026601353 0.00034428571 -0.0059806504
-0.0026601353 0.00034428571 -0.0040954472
-0.0023168919 0 -0.0042668292
-0.0040331082 0.00068857142 -0.0022959348
0.0027459459 0.00025821428 -0.0044382112
-0.003175 -0.00017214286 -6.7967419e-05
-0.0036040542 -0.001205 -0.0011819511
0.0052344594 0.00025821428 0.0013030895
-0.0024885135 0.001205 -0.0007534959
-0.0053202705 -0.00025821428 -0.0064947968
-0.005577703 -0.00034428571 -6.7967419e-05
0.0018878379 0.00077464286 -0.002467317
0.0036898649 -0.001205 -0.0022102438
0.0012871622 -0.001205 -0.0017817885
0.0062641893 -0.00077464286 -0.00023934954
-0.0023168919 8.6071428e-05 -0.0060663414
-0.00034324324 0.00017214286 -0.0071803252
-0.00068648648 0.001205 -0.0022102438
0.0027459459 -0.00034428571 -0.0040097563
0.004977027 -0.001205 -0.0010962602
0.0027459459 0.00025821428 -0.0046095937
-0.0012871622 0.0010328571 -0.00015365848
0.00068648648 0.00068857142 -0.00023934954
-8.5810811e-05 0.00077464286 -0.00015365848
-0.0052344594 -0.001205 -6.7967419e-05
0.0048054056 0.00025821428 -0.0073517072
0.005577703 -0.0011189285 -0.000924878
0.0029175675 -0.001205 -0.00023934954
0.0053202705 0.00017214286 0.00053187
-0.0053202705 0.001205 -0.0022102438
0.0012871622 0.001205 -0.00023934954
-0.0053202705 -0.0011189285 -6.7967419e-05
-0.0032608109 -0.001205 -0.0007534959
-0.0061783786 -0.0008607143 -0.00066780485
-0.0048054056 -8.6071428e-05 0.0009603253
0.0027459459 0.0010328571 -0.0023816261
8.5810811e-05 0.00034428571 -0.005380813
0.00025743243 0.001205 -0.0014390243
-0.004977027 -0.001205 -0.0016104064
-0.004977027 0.001205 -0.0020388619
-0.00017162162 0.00034428571 0.00010341469
0.0024885135 -0.00034428571 -0.0059806504
-0.004977027 -8.6071428e-05 0.0018172358
0.0047195945 -0.0010328571 -0.0023816261
-0.001372973 0.00017214286 -0.002467317
-0.00094391895 0.001205 -0.00058211375
-0.0053202705 0.001205 -0.0014390243
-0.00034324324 0.00034428571 -6.7967419e-05
0.00034324324 -0.00017214286 -0.0065804878
-0.00077229732 -0.001205 -0.00041073165
0.0016304054 -0.001205 -0.0021245528
0.0027459459 0.00025821428 -0.0057235775
-0.0027459459 -0.00025821428 -0.0039240653
0.0025743244 -0.00034428571 -0.0060663414
0.0023168919 -8.6071428e-05 -0.0064091058
-0.0025743244 0.0010328571 -0.00023934954
-0.0027459459 0.001205 -0.0017817885
0.0033466218 -0.00094678573 -0.0023816261
-0.0021452704 -0.0008607143 -0.002467317
-0.0025743244 0.00034428571 0.0013030895
-0.0023168919 -0.00017214286 -0.0046952846
0.0051486488 0.00034428571 -0.0040954472
-0.0048054056 8.6071428e-05 -0.0040954472
0.00025743243 -0.00034428571 -0.0073517072
-0.0062641893 0.00077464286 -0.00058211375
-0.00034324324 8.6071428e-05 -0.0046952846
-0.0006006757 0.001205 -0.0012676422
-0.0030891893 -0.001205 -0.0013533334
0.0023168919 -0.00017214286 0.00010341469
-0.00034324324 0.00025821428 -0.0058949594
0.0046337838 0.001205 -0.0016960975
-0.0017162162 0.001205 -0.0022959348
0.0062641893 -8.6071428e-05 -0.0023816261
-0.0024885135 0.00025821428 0.00036048787
-0.0020594595 -0.001205 -0.0019531706
0.00068648648 0.001205 -0.0013533334
-0.0024885135 -0.001205 -0.00023934954
0.005577703 -0.0011189285 -0.0012676422
-0.0010297297 -0.00094678573 -0.002467317
0.0048912163 -8.6071428e-05 -0.0076087806
-0.0011155405 0.00025821428 -6.7967419e-05
-0.0017162162 0.0008607143 -6.7967419e-05
0.0047195945 0.0010328571 -0.0023816261
0.0048054056 0 -0.0042668292
0.0032608109 0.001205 -0.0015247155
-0.002231081 0.001205 -0.0019531706
0.0018878379 0.001205 -0.0004964227
-0.0029175675 -0.00017214286 -6.7967419e-05
0.0053202705 0 0.00010341469
8.5810811e-05 0.00034428571 0.0013030895
-0.0023168919 -0.001205 -0.000924878
0.0062641893 0.00068857142 -0.0015247155
0.0006006757 0.00068857142 -0.00023934954
0.0057493243 0.0011189285 -0.0011819511
-0.00017162162 0.001205 -0.0010962602
0.00094391895 -0.001205 -0.000924878
0 -0.001205 -0.0020388619
0.0054918919 -0.00094678573 -0.0023816261
0.00017162162 -0.00034428571 -0.0034956099
0.0028317568 0.00017214286 -0.0071803252
0.0027459459 0.00025821428 -0.0067518698
-0.0047195945 0.00043035715 -0.002467317
-0.0035182433 -0.001205 -0.0020388619
0.004977027 -0.00025821428 0.0007032521
-0.0033466218 -0.001205 -0.0004964227
0.0015445946 -0.00051642855 -0.00023934954
0 0.001205 -0.00023934954
0.0050628381 0.001205 -0.00041073165
-0.0036040542 -0.00025821428 -0.002467317
0.00034324324 -0.00017214286 -0.0072660162
0.0057493243 -0.0008607143 -0.00023934954
-0.0062641893 0.00034428571 -0.0012676422
0.00068648648 -0.00025821428 -6.7967419e-05
-0.00017162162 -0.001205 -0.0023816261
0.0052344594 -0.00017214286 1.7723636e-05
0.0036898649 0.001205 -0.00041073165
-0.0048054056 -0.001205 -0.0019531706
0.0027459459 -0.00034428571 -0.0067518698
-0.0011155405 0.00060249999 -0.00023934954
-0.0023168919 -0.00068857142 -0.002467317
-0.00025743243 0.001205 -0.0021245528
0.00025743243 -0.00034428571 -0.0058092684
-0.0039472976 -0.001205 -6.7967419e-05
-0.0048054056 -0.00017214286 -0.0042668292
0.0028317568 0 -0.0039240653
-0.0033466218 -0.001205 -0.0011819511
0.00017162162 -0.001205 -0.002467317
-0.0048912163 -8.6071428e-05 -0.0027243902
-0.0048054056 0.001205 -0.0012676422
-0.0054060812 0.001205 -0.0017817885
-0.0024027028 0.00025821428 0.00010341469
0.0025743244 -0.00034428571 -0.0057235775
0.0027459459 -0.00025821428 -0.0027243902
0.0048912163 -0.00017214286 -0.002553008
0.0057493243 0.0011189285 -0.00083918695
-0.0037756758 -0.001205 -0.0023816261
0.0027459459 -0.00017214286 -0.0032385367
-0.0042047296 0.00094678573 -0.002467317
-0.0024027028 -0.00034428571 -0.0064091058
-0.0039472976 0.00043035715 -0.002467317
-0.0027459459 -0.00025821428 -0.002553008
0.0016304054 0.00051642855 -0.002467317
-0.0062641893 0.00034428571 -0.0013533334
0.0050628381 -0.001205 -0.0004964227
0.0025743244 0.00017214286 -0.0080372356
0.0017162162 -0.001205 -0.0022959348
-0.0060925675 8.6071428e-05 -0.0023816261
0.0027459459 0.00025821428 -0.0034956099
-0.0036040542 -0.00043035715 -0.002467317
-0.0048054056 -0.00017214286 -0.0040097563
-0.0017162162 -0.00034428571 -0.002467317
0.0023168919 0.00034428571 -0.0029814634
-0.0024027028 0.00025821428 -0.0071803252
-0.00025743243 -0.00017214286 -0.0058949594
-0.0060925675 0.00094678573 -0.00041073165
-0.0062641893 -0.00051642855 -0.0017817885
0.0015445946 -0.00043035715 -6.7967419e-05
-0.00068648648 -0.00034428571 -6.7967419e-05
-0.0051486488 -0.00034428571 0.00018910575
-0.0006006757 0 -0.002467317
0.0036040542 -0.0010328571 -0.0023816261
0.00051486486 0.00034428571 -6.7967419e-05
0.0032608109 0.00077464286 -6.7967419e-05
-0.0010297297 0.001205 -0.0011819511
0.0015445946 -0.001205 -0.00023934954
-0.0040331082 -8.6071428e-05 -6.7967419e-05
0.005577703 0.001205 -0.0020388619
0.002231081 0.00017214286 -0.003838374
-0.0042905407 0.001205 -0.0003250406
0.0052344594 0.00025821428 -0.0070946342
0.004977027 -0.00025821428 -0.0034956099
-0.0040331082 0.0008607143 -0.0023816261
0.0006006757 -0.00051642855 -0.00023934954
0.005577703 0.0011189285 -0.0003250406
-0.0063499999 -0.00034428571 -0.00015365848
-8.5810811e-05 -0.00034428571 -0.0071803252
0.0012871622 0.001205 -0.0022959348
-0.0026601353 -0.00034428571 -0.0073517072
-0.00034324324 0.00025821428 -0.0033242276
0.0038614864 -0.001205 -0.0023816261
-0.0026601353 -0.00034428571 -0.0058092684
-0.0062641893 0.00025821428 -0.001010569
0.0030891893 0.001205 -0.0013533334
0.00077229732 -0.0010328571 -0.002467317
-8.5810811e-05 -0.00034428571 -0.0058949594
0.0063499999 -0.00043035715 -0.00023934954
0.004462162 0.0008607143 -0.0023816261
0.0030033784 -0.0010328571 -0.0023816261
0.0050628381 -0.00025821428 0.00044617892
0.0052344594 0.00034428571 -0.0027243902
-0.0042905407 0.001205 -0.00083918695
-0.0061783786 -0.00034428571 -0.0023816261
-0.0040331082 -0.001205 -0.00023934954
0.00085810811 0.0010328571 -6.7967419e-05
-0.002231081 0.001205 -0.0021245528
-0.0026601353 -0.00034428571 -0.0061520324
0.0010297297 0.00025821428 -6.7967419e-05
-0.0014587838 -0.00025821428 -6.7967419e-05
