# .PCD v0.7 - Point Cloud Data file format
VERSION 0.7
FIELDS x y z
SIZE 4 4 4
TYPE F F F
COUNT 1 1 1
WIDTH 1194
HEIGHT 1
VIEWPOINT 0 0 0 1 0 0 0
POINTS 1194
DATA ascii
0.018008204 -0.00127 -0.0019885716
-0.039290626 -0.00018142856 -0.00099085725
0.033724453 0.00090714288 -0.0013234287
0.010150079 0.00018142856 -0.0063120001
0.027176017 -0.00090714288 -0.00099085725
0.033724453 -0.00018142856 -0.00099085725
0.038635783 0.00018142856 -0.0013234287
0.011459766 -0.00054428569 -0.0016560002
-0.0075307032 0.00018142856 0.0020022858
-0.020627579 -0.00018142856 -0.0016560002
0.021282423 -0.00054428569 -0.0023211429
0.039945472 -0.00090714288 -0.00032571438
0.0068758596 0.00090714288 -0.0019885716
-0.030777657 0.00127 -0.0006582858
0.025538906 0.00090714288 -0.00032571438
0.00065484375 0.00054428569 -0.0019885716
0.010804922 -0.00090714288 -0.0006582858
-0.014079141 -0.00054428569 -0.0019885716
-0.020955 -0.00018142856 -0.0019885716
0.0068758596 0.00090714288 -0.00032571438
0.012769453 0.00054428569 -0.0013234287
-0.039945472 -0.00090714288 -0.0016560002
-0.035361562 -0.00018142856 -0.00032571438
0.035361562 0.00018142856 0.0010045713
0.0032742189 0.00090714288 -0.00099085725
-0.013751719 0.00054428569 -0.0019885716
0.037326094 -0.00054428569 -0.0016560002
-0.025538906 0.00018142856 0.00067199994
-0.014406563 0.00090714288 -0.0019885716
0.03830836 0.00054428569 -0.00032571438
-0.035034142 0.00018142856 -0.0023211429
0.018663047 0.00127 -0.00099085725
-0.0062210159 -0.00018142856 -0.0016560002
0.009495235 0.00127 -0.0006582858
-0.014079141 0.00054428569 -0.0016560002
-0.02946797 0.00127 -0.0019885716
0.00032742188 -0.00018142856 -0.0006582858
0.027176017 -0.00054428569 -0.0006582858
-0.018008204 -0.00090714288 -0.00099085725
-0.009495235 0.00090714288 -0.0016560002
-0.0091678128 0.00127 -0.0016560002
0.015716251 -0.00127 -0.0016560002
-0.0036016407 0.00090714288 -0.0013234287
-0.020955 0.00054428569 -0.0019885716
-0.013751719 -0.00127 -0.00032571438
0.029140549 -0.00090714288 -0.00099085725
-0.032087345 0.00127 -0.0019885716
0.0049113282 0.00054428569 -0.0006582858
-0.022264689 0.00090714288 -0.0019885716
-0.0049113282 0.00018142856 -0.0033188574
-0.0042564846 0.00054428569 -0.00099085725
-0.0058935941 -0.00018142856 -0.0019885716
-0.020955 0.00090714288 -0.0006582858
-0.011787188 -0.00018142856 -0.00032571438
0.02946797 0.00018142856 -0.0013234287
-0.0088403905 -0.00127 -0.0013234287
0.028813126 -0.00018142856 -0.0013234287
-0.011132345 0.00127 -0.00099085725
-0.011787188 0.00018142856 -0.0006582858
-0.026848596 -0.00127 -0.0019885716
-0.025211485 -0.00018142856 -0.0033188574
-0.016698517 0.00090714288 -0.00032571438
0.0058935941 0.00018142856 -0.00099085725
0.01211461 0.00127 -0.00099085725
-0.010150079 -0.00018142856 0.00033942852
-0.015388829 0.00018142856 -0.0079748575
0.035361562 0.00018142856 -0.0063120001
-0.022919532 -0.00054428569 -0.00032571438
0.028485704 0.00054428569 -0.00099085725
-0.01735336 0.00090714288 -0.0019885716
-0.00523875 -0.00090714288 -0.00032571438
0.0036016407 -0.00018142856 -0.0023211429
-0.012442032 -0.00018142856 -0.0069771432
-0.00032742188 0.00054428569 -0.0016560002
0.028813126 0.00127 -0.0019885716
0.0055661723 0.00090714288 -0.00099085725
-0.002619375 -0.00018142856 -0.0066445717
-0.002619375 0.00090714288 -0.0019885716
-0.01735336 0.00054428569 -0.0006582858
-0.041582581 0.00018142856 -0.0019885716
0.0049113282 -0.00090714288 -0.00099085725
-0.014406563 -0.00054428569 -0.0019885716
-0.020300157 -0.00018142856 -0.0049817143
-0.027176017 -0.00090714288 -0.0013234287
-0.0088403905 0.00054428569 -0.0006582858
0.0032742189 0.00054428569 -0.0019885716
0.025538906 -0.00018142856 -0.0019885716
-0.0072032814 -0.00054428569 -0.0019885716
-0.0075307032 -0.00018142856 -0.00032571438
-0.0088403905 -0.00054428569 -0.0016560002
0.018008204 0.00127 -0.00032571438
0.0029467971 0.00090714288 -0.0013234287
0.0075307032 0.00018142856 0.0020022858
0.0042564846 -0.00127 -0.0023211429
-0.0078581255 -0.00054428569 -0.0019885716
0.026848596 -0.00090714288 -0.0016560002
0.02586633 0.00054428569 -0.0023211429
0.0081855468 0.00127 -0.0023211429
0.028158283 0.00018142856 -0.0063120001
-0.0036016407 0.00090714288 -0.0023211429
0.015061406 -0.00018142856 0.00033942852
0.02586633 -0.00127 -0.0006582858
-0.0075307032 0.00018142856 0.0016697142
0.022592111 0.00127 -0.0013234287
0.0065484378 -0.00127 -0.0013234287
-0.030122813 0.00018142856 -0.0013234287
0.033069611 -0.00018142856 -0.0066445717
0.010804922 -0.00054428569 -0.0019885716
-0.033069611 -0.00018142856 -0.0023211429
-0.0072032814 0.00054428569 -0.0023211429
0.039618049 -0.00018142856 -0.0023211429
0.0088403905 -0.00018142856 -0.0006582858
-0.033397034 0.00127 -0.0006582858
-0.002619375 -0.00018142856 -0.0079748575
0.040927734 0.00018142856 -0.0013234287
0.031432502 -0.00127 -0.0019885716
-0.024229219 0.00090714288 -0.00099085725
-0.0062210159 0.00018142856 -0.0006582858
0.032742187 0.00018142856 6.8570657e-06
0.030450236 0.00018142856 -0.0076422859
0.020627579 0.00054428569 -0.0016560002
-0.027176017 0.00090714288 -0.00032571438
0.0039290627 -0.00018142856 -0.0006582858
-0.028158283 -0.00054428569 -0.0023211429
0.017680781 -0.00018142856 -0.0016560002
-0.00523875 -0.00018142856 -0.0049817143
-0.0039290627 -0.00090714288 -0.00032571438
-0.013424298 -0.00090714288 -0.0023211429
-0.024229219 -0.00090714288 -0.0023211429
-0.027503438 0.00054428569 -0.0006582858
0.014733985 0.00127 -0.0006582858
-0.0085129691 -0.00018142856 -0.0023211429
-0.036998674 -0.00090714288 -0.00099085725
0.035688985 -0.00018142856 0.0023348571
-0.011787188 -0.00054428569 -0.0019885716
-0.023574376 -0.00018142856 -0.0016560002
-0.040600315 0.00054428569 -0.0019885716
0.002619375 0.00127 -0.0013234287
0.022919532 0.00018142856 -0.0013234287
-0.018335626 -0.00018142856 -0.0016560002
0.026848596 -0.00090714288 -0.0006582858
-0.015388829 -0.00018142856 -0.0073097143
0.040927734 -0.00090714288 -0.0006582858
-0.029140549 -0.00090714288 -0.00099085725
-0.00065484375 0.00090714288 -0.0016560002
0.036671251 -0.00054428569 -0.0006582858
-0.015716251 -0.00090714288 -0.0023211429
0.017680781 -0.00018142856 -0.0056468574
0.023246953 0.00018142856 -0.0013234287
-0.0055661723 0.00018142856 -0.0016560002
0.0045839064 -0.00090714288 -0.00099085725
0.0045839064 0.00090714288 -0.0023211429
0.002619375 0.00018142856 -0.0063120001
0.016698517 -0.00127 -0.00099085725
-0.033724453 0.00018142856 -0.0006582858
0.0081855468 -0.00127 -0.0006582858
0.014079141 -0.00054428569 -0.00032571438
-0.020300157 -0.00054428569 -0.0019885716
0.024229219 0.00127 -0.0006582858
0.038963206 -0.00054428569 -0.0019885716
-0.0062210159 -0.00018142856 -0.0013234287
-0.018008204 0.00018142856 0.00033942852
-0.016043672 0.00090714288 -0.0023211429
0.030450236 0.00018142856 -0.0026537145
-0.0065484378 0.00054428569 -0.00032571438
0.035361562 -0.00054428569 -0.00099085725
0.011132345 -0.00054428569 -0.0019885716
-0.0091678128 0.00090714288 -0.0019885716
-0.025538906 -0.00018142856 -0.0069771432
-0.0081855468 -0.00018142856 -0.0013234287
0.022264689 -0.00090714288 -0.0016560002
0.016371094 0.00127 -0.0006582858
0.025211485 -0.00090714288 -0.00032571438
0.018008204 0.00090714288 -0.00032571438
0.032742187 0.00018142856 0.0016697142
-0.034051877 0.00054428569 -0.0019885716
-0.015061406 -0.00018142856 0.0023348571
-0.0065484378 -0.00018142856 -0.0006582858
-0.032087345 -0.00054428569 -0.00099085725
0.033069611 -0.00018142856 -0.0063120001
0.00098226569 -0.00090714288 -0.0019885716
0.0032742189 -0.00018142856 -0.0013234287
0.030777657 0.00090714288 -0.00032571438
-0.026193751 -0.00090714288 -0.00032571438
0.028485704 0.00127 -0.0023211429
-0.035688985 0.00127 -0.0006582858
0.038963206 0.00054428569 -0.0013234287
-0.035034142 0.00054428569 -0.0019885716
-0.030777657 0.00127 -0.00032571438
-0.022592111 0.00054428569 -0.00099085725
0.012769453 0.00018142856 -0.00032571438
-0.023901798 0.00018142856 -0.0006582858
-0.0042564846 -0.00127 -0.0019885716
0.03830836 0.00018142856 -0.0069771432
0.030122813 0.00127 -0.00032571438
0.031759921 -0.00127 -0.0023211429
0.0075307032 0.00090714288 -0.0006582858
-0.0049113282 0.00018142856 -0.0013234287
-0.01899047 0.00090714288 -0.00099085725
0.011132345 0.00127 -0.0023211429
0.034051877 0.00127 -0.0019885716
-0.025538906 -0.00090714288 -0.00032571438
-0.04191 -0.00054428569 -0.0013234287
0.030122813 -0.00054428569 -0.00032571438
-0.037326094 -0.00018142856 -0.00099085725
-0.012769453 -0.00018142856 -0.005979429
0.021937266 0.00018142856 -0.0019885716
0.032087345 -0.00018142856 -0.0019885716
0.0075307032 0.00018142856 -0.0069771432
0.020300157 -0.00018142856 -0.0066445717
-0.024884064 -0.00054428569 -0.00032571438
-0.030450236 -0.00054428569 -0.00099085725
0.039945472 -0.00054428569 -0.0019885716
0.026193751 0.00127 -0.00099085725
0.026521172 -0.00090714288 -0.0016560002
0.019645313 -0.00127 -0.00099085725
0.037653517 -0.00018142856 -0.00099085725
-0.030450236 0.00018142856 -0.0019885716
0.028813126 -0.00018142856 -0.00032571438
-0.0045839064 -0.00127 -0.0016560002
-0.002619375 -0.00018142856 0.0020022858
-0.028813126 0.00090714288 -0.0006582858
-0.0088403905 -0.00090714288 -0.00099085725
-0.03798094 -0.00054428569 -0.0013234287
-0.011787188 0.00054428569 -0.00032571438
0.00032742188 -0.00018142856 -0.0056468574
-0.0062210159 -0.00018142856 -0.0006582858
0.016698517 -0.00127 -0.0019885716
0.01735336 -0.00127 -0.00032571438
-0.03798094 -0.00054428569 -0.0016560002
-0.03798094 0.00127 -0.00032571438
-0.0062210159 0.00054428569 -0.0023211429
-0.010150079 0.00018142856 -0.0069771432
0.014406563 0.00090714288 -0.0023211429
0.00523875 0.00018142856 -0.0066445717
0.0049113282 0.00127 -0.0013234287
0.022919532 -0.00018142856 0.0026674285
0.0022919532 0.00054428569 -0.00099085725
0.027503438 0.00127 -0.00099085725
0.040600315 0.00127 -0.0023211429
0.0062210159 -0.00127 -0.0006582858
0.037326094 0.00054428569 -0.0013234287
-0.020300157 0.00018142856 -0.0033188574
0.0058935941 0.00127 -0.00032571438
0.0049113282 0.00018142856 -0.0023211429
0.0049113282 0.00054428569 -0.0019885716
0.035688985 0.00018142856 -0.0076422859
-0.00098226569 0.00127 -0.00032571438
-0.0078581255 -0.00018142856 -0.0016560002
0.023574376 0.00090714288 -0.0023211429
0.03830836 -0.00090714288 -0.0016560002
0.015061406 0.00054428569 -0.0013234287
-0.030450236 -0.00018142856 0.00033942852
0 -0.00018142856 -0.0013234287
-0.041255157 0.00090714288 -0.00032571438
0.040272892 -0.00018142856 -0.0023211429
0 -0.00127 -0.0006582858
0.02783086 0.00054428569 -0.0023211429
-0.020627579 -0.00090714288 -0.0019885716
-0.021609845 0.00054428569 -0.0016560002
0.0062210159 0.00018142856 -0.0019885716
0.00065484375 -0.00054428569 -0.0023211429
-0.038635783 -0.00090714288 -0.00099085725
0.0075307032 0.00018142856 -0.0073097143
0.014079141 -0.00127 -0.00032571438
0.020955 -0.00018142856 -0.0019885716
-0.025538906 -0.00018142856 -0.0063120001
-0.020955 0.00054428569 -0.00099085725
0.0022919532 -0.00018142856 -0.00099085725
0.022919532 0.00018142856 0.0010045713
-0.0062210159 0.00127 -0.00099085725
0.0068758596 -0.00127 -0.0013234287
0.02783086 -0.00018142856 -0.0019885716
-0.027176017 -0.00127 -0.0006582858
-0.0039290627 -0.00054428569 -0.0016560002
0.0022919532 0.00090714288 -0.0019885716
-0.0049113282 -0.00054428569 -0.0013234287
-0.0098226564 -0.00090714288 -0.0006582858
0.035034142 -0.00127 -0.00099085725
0.015061406 0.00018142856 -0.0006582858
0.031759921 0.00054428569 -0.0019885716
0.0343793 -0.00090714288 -0.0006582858
0.0058935941 -0.00054428569 -0.0006582858
0.022264689 0.00127 -0.00099085725
0.021937266 -0.00018142856 -0.0019885716
0.01899047 0.00018142856 -0.0023211429
0.026521172 0.00127 -0.0019885716
0.030122813 0.00127 -0.0023211429
0.027176017 -0.00127 -0.0023211429
0.0104775 0.00090714288 -0.0019885716
0.0088403905 0.00127 -0.0006582858
-0.013751719 -0.00018142856 -0.0023211429
0.0085129691 0.00127 -0.0023211429
-0.017025938 0.00054428569 -0.0023211429
0.002619375 -0.00018142856 -0.0053142859
-0.015388829 -0.00018142856 -0.00032571438
-0.038963206 0.00127 -0.0013234287
0.0075307032 0.00054428569 -0.0013234287
0.011132345 0.00090714288 -0.0023211429
0.0081855468 -0.00054428569 -0.0016560002
0.019972736 0.00054428569 -0.0013234287
0.00523875 0.00018142856 0.00067199994
-0.034051877 -0.00018142856 -0.00032571438
-0.023901798 -0.00054428569 -0.0023211429
0.02783086 -0.00090714288 -0.00099085725
-0.0088403905 0.00054428569 -0.0013234287
-0.0078581255 -0.00018142856 0.00033942852
-0.037326094 0.00018142856 -0.0023211429
0.022592111 0.00018142856 -0.0016560002
-0.016043672 -0.00090714288 -0.0016560002
-0.041582581 0.00090714288 -0.0019885716
0.016698517 -0.00090714288 -0.0023211429
-0.011459766 0.00054428569 -0.0013234287
-0.026848596 0.00127 -0.0016560002
0.0081855468 0.00090714288 -0.00099085725
0.030450236 -0.00018142856 -0.0076422859
0.02586633 0.00090714288 -0.0013234287
-0.011459766 -0.00018142856 -0.0023211429
-0.022592111 -0.00127 -0.0013234287
-0.026848596 0.00054428569 -0.0006582858
-0.015716251 0.00054428569 -0.0013234287
-0.039945472 0.00090714288 -0.0013234287
-0.035034142 -0.00054428569 -0.0023211429
0.012769453 0.00127 -0.0016560002
-0.00523875 0.00090714288 -0.0006582858
0.015061406 0.00127 -0.0019885716
-0.0078581255 0.00090714288 -0.0016560002
-0.022919532 0.00018142856 -0.00099085725
0.025211485 -0.00018142856 -0.0006582858
-0.015061406 -0.00018142856 0.00033942852
0.0085129691 -0.00054428569 -0.00032571438
-0.011132345 -0.00127 -0.0016560002
-0.011459766 0.00090714288 -0.0013234287
0.032742187 0.00090714288 -0.0016560002
0.0343793 0.00127 -0.0016560002
-0.029795391 -0.00018142856 -0.0023211429
0.0343793 0.00054428569 -0.0016560002
-0.021282423 0.00127 -0.00099085725
0.040927734 0.00090714288 -0.0013234287
-0.039290626 0.00090714288 -0.0016560002
-0.033724453 0.00090714288 -0.00099085725
-0.030450236 0.00090714288 -0.0013234287
0.028158283 -0.00018142856 -0.0069771432
-0.0078581255 0.00054428569 -0.0019885716
-0.023246953 0.00090714288 -0.0023211429
0.035688985 -0.00018142856 -0.00032571438
0.023574376 -0.00090714288 -0.0016560002
0.02783086 0.00018142856 -0.0013234287
-0.028485704 0.00018142856 -0.0023211429
0.020300157 0.00018142856 -0.0036514287
-0.0072032814 -0.00127 -0.00099085725
-0.029795391 0.00127 -0.0016560002
-0.030450236 -0.00018142856 -0.0073097143
0.030777657 -0.00127 -0.00099085725
-0.014733985 -0.00090714288 -0.0023211429
-0.03798094 -0.00018142856 -0.0019885716
0.037653517 0.00127 -0.0013234287
0.0343793 0.00127 -0.0013234287
-0.022919532 0.00018142856 -0.0026537145
-0.0088403905 -0.00127 -0.0016560002
-0.029795391 -0.00090714288 -0.00099085725
0.039945472 0.00127 -0.0023211429
0.025211485 -0.00018142856 -0.0053142859
-0.015061406 -0.00018142856 6.8570657e-06
-0.0032742189 0.00018142856 -0.00032571438
-0.020300157 0.00018142856 6.8570657e-06
0.028158283 0.00090714288 -0.0013234287
0.0078581255 -0.00127 -0.0019885716
-0.035361562 -0.00090714288 -0.0019885716
-0.022264689 0.00018142856 -0.00032571438
-0.015061406 0.00090714288 -0.00099085725
-0.033069611 -0.00018142856 0.0026674285
0.022919532 -0.00018142856 0.0023348571
-0.028485704 0.00090714288 -0.00099085725
-0.035361562 -0.00018142856 0.0023348571
-0.021282423 0.00054428569 -0.00099085725
-0.010150079 -0.00018142856 6.8570657e-06
-0.0045839064 -0.00018142856 -0.0013234287
-0.017680781 0.00054428569 -0.0019885716
0.024229219 -0.00018142856 -0.0013234287
0.027503438 -0.00018142856 -0.0006582858
0.03830836 -0.00127 -0.00032571438
-0.0039290627 -0.00018142856 -0.0006582858
-0.022919532 -0.00054428569 -0.0006582858
-0.035034142 -0.00090714288 -0.00032571438
0 0.00018142856 -0.0006582858
0.00098226569 -0.00127 -0.0006582858
0.0032742189 -0.00018142856 -0.0023211429
0.015388829 0.00127 -0.0019885716
-0.026848596 -0.00018142856 -0.00099085725
0.0088403905 -0.00127 -0.0019885716
0.028158283 0.00018142856 -0.0056468574
0.032742187 -0.00018142856 -0.0016560002
0.011787188 0.00054428569 -0.00099085725
-0.024884064 0.00018142856 -0.0019885716
0.022919532 0.00127 -0.0013234287
0.020300157 0.00018142856 -0.0016560002
-0.038963206 0.00018142856 -0.0016560002
-0.027176017 0.00054428569 -0.0006582858
0.026848596 -0.00054428569 -0.0016560002
-0.025538906 0.00054428569 -0.0016560002
-0.0065484378 -0.00054428569 -0.0006582858
0.041582581 -0.00018142856 -0.0006582858
0.019972736 -0.00018142856 -0.0006582858
0.025538906 0.00018142856 -0.0056468574
-0.028158283 0.00018142856 -0.0016560002
0.02783086 0.00090714288 -0.0019885716
0.037653517 -0.00127 -0.0019885716
-0.002619375 -0.00018142856 0.0026674285
0.018008204 0.00018142856 -0.0073097143
-0.030450236 0.00018142856 -0.005979429
0.035034142 0.00127 -0.0023211429
-0.022264689 -0.00127 -0.00099085725
0.0343793 -0.00018142856 -0.0019885716
-0.024884064 0.00127 -0.00099085725
0.015388829 0.00018142856 0.0016697142
-0.028813126 0.00127 -0.0006582858
-0.0088403905 0.00090714288 -0.00032571438
-0.040600315 -0.00018142856 -0.00032571438
-0.040272892 0.00090714288 -0.0023211429
-0.017025938 0.00090714288 -0.0023211429
0.033069611 -0.00018142856 0.0010045713
0.038963206 -0.00127 -0.00032571438
0.032414768 0.00018142856 -0.0019885716
-0.03830836 -0.00018142856 -0.0016560002
0.018663047 0.00018142856 -0.0013234287
-0.037653517 0.00018142856 -0.00099085725
-0.032414768 -0.00018142856 -0.00099085725
0.020627579 -0.00054428569 -0.0013234287
-0.023901798 0.00054428569 -0.00032571438
0.018663047 -0.00127 -0.0013234287
0.031105079 0.00090714288 -0.0023211429
-0.03830836 -0.00054428569 -0.0016560002
0.015388829 -0.00090714288 -0.00099085725
-0.0013096875 -0.00054428569 -0.0006582858
0.0098226564 0.00090714288 -0.00099085725
0.014733985 -0.00054428569 -0.0006582858
0.012769453 0.00090714288 -0.0023211429
-0.0088403905 0.00018142856 -0.0013234287
-0.030122813 0.00090714288 -0.0013234287
0.028485704 0.00018142856 -0.00099085725
-0.028158283 -0.00090714288 -0.0023211429
-0.011132345 0.00127 -0.0013234287
0.036998674 0.00090714288 -0.0006582858
0.032414768 0.00090714288 -0.0013234287
0.024884064 0.00090714288 -0.0023211429
-0.034706719 -0.00054428569 -0.0019885716
0.002619375 0.00090714288 -0.00032571438
0.012769453 -0.00018142856 -0.0053142859
0.009495235 -0.00018142856 -0.0013234287
0.013751719 0.00054428569 -0.0013234287
0.023246953 0.00127 -0.0016560002
0 0.00018142856 -0.0013234287
0.03798094 -0.00018142856 0.00067199994
-0.022264689 0.00054428569 -0.0019885716
0.00098226569 -0.00127 -0.0016560002
-0.0022919532 -0.00018142856 0.0020022858
0.031759921 -0.00127 -0.00099085725
0.031759921 -0.00090714288 -0.0006582858
-0.030777657 0.00127 -0.0019885716
-0.019972736 0.00054428569 -0.0019885716
-0.018335626 -0.00054428569 -0.0019885716
0.033069611 -0.00018142856 -0.0046491432
-0.012769453 -0.00127 -0.0006582858
-0.00032742188 0.00054428569 -0.0019885716
0.019972736 0.00018142856 -0.0023211429
-0.0091678128 -0.00127 -0.0006582858
0.032414768 -0.00018142856 -0.0016560002
-0.022264689 -0.00090714288 -0.00099085725
-0.021937266 0.00090714288 -0.0016560002
-0.0032742189 -0.00127 -0.0023211429
0.013751719 -0.00127 -0.0019885716
-0.010150079 -0.00018142856 0.0010045713
0.00523875 0.00018142856 -0.0069771432
0.018663047 -0.00127 -0.0006582858
-0.035688985 -0.00018142856 -0.0046491432
0.0078581255 0.00127 -0.00099085725
0.030450236 0.00090714288 -0.00032571438
0.0098226564 -0.00127 -0.00099085725
-0.021282423 0.00054428569 -0.0013234287
0.0032742189 0.00090714288 -0.0016560002
0.0036016407 0.00018142856 -0.0006582858
0.0078581255 -0.00054428569 -0.0019885716
0.025211485 -0.00018142856 -0.00099085725
-0.019645313 -0.00090714288 -0.00032571438
0.021937266 -0.00090714288 -0.0006582858
-0.027176017 0.00054428569 -0.0016560002
0.017025938 0.00127 -0.00099085725
-0.015061406 -0.00018142856 -0.0049817143
-0.030450236 -0.00127 -0.0006582858
-0.039618049 -0.00127 -0.0016560002
0.015716251 0.00018142856 -0.0023211429
-0.033069611 0.00054428569 -0.0016560002
-0.00523875 0.00127 -0.0013234287
0.014733985 0.00054428569 -0.0006582858
0.036671251 -0.00018142856 -0.00032571438
0.035361562 0.00054428569 -0.0019885716
-0.0032742189 0.00054428569 -0.00032571438
0.02586633 0.00054428569 -0.0016560002
-0.022919532 -0.00090714288 -0.0019885716
0.024229219 0.00090714288 -0.0013234287
0.0078581255 -0.00018142856 -0.0069771432
0.040600315 0.00054428569 -0.0016560002
-0.0029467971 -0.00127 -0.0019885716
0.002619375 0.00054428569 -0.0006582858
0.028158283 -0.00018142856 -0.0053142859
0.035688985 -0.00127 -0.0023211429
-0.0042564846 0.00090714288 -0.00099085725
-0.023901798 0.00018142856 -0.0013234287
-0.00065484375 0.00018142856 -0.0013234287
-0.033069611 -0.00127 -0.0013234287
-0.02783086 -0.00018142856 -0.0069771432
0.025538906 0.00018142856 -0.0026537145
-0.0081855468 -0.00054428569 -0.0016560002
0.034706719 -0.00127 -0.00099085725
-0.0078581255 0.00018142856 -0.0023211429
-0.032087345 -0.00127 -0.0016560002
-0.015388829 -0.00018142856 -0.0063120001
0.0029467971 0.00054428569 -0.0019885716
0.0029467971 -0.00127 -0.0013234287
-0.020627579 0.00090714288 -0.00032571438
0.0088403905 0.00054428569 -0.0016560002
-0.021937266 -0.00018142856 -0.00099085725
0.028813126 -0.00018142856 -0.0023211429
-0.010804922 -0.00018142856 -0.0019885716
-0.002619375 0.00018142856 -0.0073097143
-0.025538906 -0.00018142856 0.0016697142
0.0104775 -0.00018142856 -0.0006582858
-0.017680781 0.00127 -0.0006582858
0.034051877 -0.00018142856 -0.0013234287
0.035361562 -0.00018142856 -0.0053142859
0.018663047 0.00127 -0.00032571438
0.025538906 0.00018142856 0.0023348571
0.038635783 -0.00090714288 -0.00099085725
-0.028158283 -0.00018142856 -0.0026537145
-0.020627579 0.00090714288 -0.0019885716
-0.01899047 -0.00018142856 -0.0016560002
0.0049113282 -0.00018142856 -0.0066445717
-0.0068758596 -0.00018142856 -0.0023211429
0 -0.00090714288 -0.00032571438
0.031432502 -0.00054428569 -0.00099085725
0.018663047 -0.00090714288 -0.00032571438
-0.023246953 -0.00090714288 -0.0016560002
0.030450236 -0.00090714288 -0.0006582858
0.00065484375 -0.00127 -0.00099085725
-0.03798094 0.00018142856 -0.0049817143
-0.032414768 -0.00054428569 -0.0013234287
0.0039290627 -0.00054428569 -0.0016560002
-0.012769453 -0.00054428569 -0.0016560002
0.022592111 -0.00018142856 -0.0019885716
0.012442032 0.00054428569 -0.0013234287
0.035688985 -0.00018142856 0.0010045713
0.00523875 -0.00054428569 -0.0019885716
-0.0065484378 0.00090714288 -0.00032571438
-0.018008204 0.00018142856 -0.0053142859
0.032742187 0.00090714288 -0.0013234287
-0.0091678128 -0.00054428569 -0.0013234287
-0.01735336 0.00018142856 -0.00032571438
-0.0072032814 -0.00127 -0.0013234287
0.036671251 -0.00090714288 -0.0016560002
-0.0039290627 -0.00127 -0.0016560002
0.028813126 0.00054428569 -0.00099085725
-0.026521172 -0.00018142856 -0.00032571438
0.020627579 0.00127 -0.00032571438
-0.010150079 -0.00018142856 0.0026674285
0.032742187 0.00054428569 -0.0019885716
-0.010804922 -0.00127 -0.00099085725
-0.018008204 0.00018142856 0.0020022858
0.036671251 0.00018142856 -0.00032571438
-0.036671251 -0.00090714288 -0.0023211429
0.035361562 -0.00127 -0.00099085725
-0.031759921 0.00090714288 -0.00032571438
-0.012442032 0.00018142856 -0.0076422859
-0.040600315 0.00054428569 -0.0006582858
0.013096876 0.00127 -0.00099085725
-0.016698517 -0.00018142856 -0.00099085725
-0.0049113282 0.00018142856 -0.0073097143
0.036998674 0.00090714288 -0.0019885716
-0.036016408 0.00054428569 -0.0013234287
-0.0045839064 0.00054428569 -0.0023211429
0.034706719 0.00054428569 -0.00099085725
0.030450236 0.00054428569 -0.00099085725
0.015388829 0.00054428569 -0.0016560002
-0.010150079 -0.00090714288 -0.0013234287
0.032414768 -0.00054428569 -0.0013234287
0.034706719 0.00018142856 -0.0016560002
0.040927734 0.00018142856 -0.0019885716
-0.019645313 0.00090714288 -0.0023211429
-0.011459766 -0.00018142856 -0.0013234287
-0.038635783 0.00018142856 -0.0013234287
0.0104775 0.00090714288 -0.0013234287
0.015061406 0.00018142856 -0.0073097143
0.0085129691 -0.00018142856 -0.00099085725
0.0042564846 0.00018142856 -0.0016560002
0.030777657 0.00127 -0.0013234287
-0.015061406 -0.00090714288 -0.0016560002
0.0075307032 -0.00127 -0.0013234287
-0.0075307032 -0.00018142856 0.00067199994
-0.039945472 0.00054428569 -0.0023211429
0.020300157 -0.00018142856 -0.0049817143
-0.0098226564 -0.00127 -0.0016560002
0.002619375 -0.00127 -0.0019885716
-0.040600315 -0.00018142856 0.0023348571
-0.023246953 -0.00090714288 -0.0023211429
0.0022919532 -0.00018142856 6.8570657e-06
-0.0062210159 -0.00054428569 -0.0023211429
0.0055661723 0.00127 -0.0006582858
-0.032742187 0.00127 -0.0019885716
-0.028485704 -0.00090714288 -0.0013234287
0.036016408 -0.00090714288 -0.0019885716
0.033724453 0.00054428569 -0.0013234287
0.028485704 0.00090714288 -0.00032571438
-0.00032742188 -0.00090714288 -0.0019885716
0.01735336 -0.00018142856 -0.0016560002
-0.028485704 -0.00054428569 -0.00099085725
-0.033069611 0.00054428569 -0.00099085725
0.040600315 -0.00018142856 -0.0049817143
0.010804922 -0.00018142856 -0.0013234287
-0.02586633 -0.00090714288 -0.00032571438
0.009495235 -0.00090714288 -0.0019885716
0.021937266 0.00090714288 -0.00099085725
0.01899047 -0.00127 -0.0016560002
0.012442032 -0.00127 -0.0006582858
-0.0072032814 0.00127 -0.0006582858
0.0078581255 -0.00090714288 -0.00099085725
0.035361562 -0.00127 -0.0006582858
0.025211485 0.00018142856 -0.0033188574
0.031759921 0.00018142856 -0.0006582858
0.033724453 0.00127 -0.0006582858
0.00065484375 0.00090714288 -0.0006582858
0.00098226569 -0.00018142856 -0.00099085725
0.020300157 -0.00127 -0.0019885716
-0.018335626 0.00127 -0.0019885716
0.012769453 -0.00018142856 0.0013371428
0.02946797 0.00127 -0.0016560002
0.0013096875 0.00090714288 -0.0023211429
0.0036016407 -0.00127 -0.0006582858
-0.0022919532 0.00054428569 -0.0016560002
0.0343793 -0.00018142856 -0.0023211429
-0.024556642 -0.00090714288 -0.0013234287
0.0013096875 -0.00127 -0.0023211429
-0.018335626 0.00127 -0.00099085725
-0.009495235 0.00127 -0.0013234287
-0.014079141 -0.00054428569 -0.00032571438
-0.017680781 0.00054428569 -0.0013234287
0.016043672 -0.00090714288 -0.00032571438
0.0098226564 -0.00054428569 -0.0023211429
-0.011459766 -0.00018142856 -0.0019885716
-0.040600315 -0.00054428569 -0.0023211429
-0.039290626 -0.00127 -0.0006582858
0.0055661723 0.00018142856 -0.00032571438
-0.012769453 0.00090714288 -0.0019885716
0.0058935941 -0.00054428569 -0.0023211429
-0.015061406 -0.00054428569 -0.0019885716
0.0013096875 -0.00054428569 -0.0016560002
0.039945472 -0.00127 -0.0019885716
0.00065484375 0.00090714288 -0.0013234287
-0.023901798 -0.00018142856 -0.0013234287
-0.002619375 0.00018142856 -0.0036514287
-0.023574376 -0.00054428569 -0.00099085725
0.022919532 0.00090714288 -0.0013234287
0.039945472 0.00090714288 -0.00099085725
0.0022919532 -0.00090714288 -0.0006582858
0.033724453 0.00090714288 -0.0023211429
-0.013424298 -0.00018142856 -0.0006582858
-0.040272892 -0.00018142856 -0.0023211429
-0.030122813 -0.00090714288 -0.0006582858
-0.024556642 -0.00127 -0.0006582858
0.029795391 -0.00018142856 -0.00099085725
-0.035361562 -0.00018142856 -0.005979429
-0.00032742188 -0.00018142856 -0.0019885716
-0.0091678128 -0.00090714288 -0.0013234287
-0.014079141 -0.00090714288 -0.0013234287
0.0091678128 -0.00018142856 -0.0006582858
0.0042564846 -0.00018142856 -0.00032571438
-0.020300157 0.00018142856 -0.0006582858
0.020300157 0.00054428569 -0.0023211429
0.0075307032 0.00018142856 -0.0076422859
0.030450236 0.00018142856 0.0023348571
-0.035361562 -0.00018142856 -0.00099085725
0.0049113282 -0.00018142856 -0.0016560002
0.017680781 0.00090714288 -0.0023211429
-0.031759921 -0.00054428569 -0.0006582858
0.026521172 0.00127 -0.0013234287
-0.0032742189 0.00090714288 -0.00099085725
0.023901798 -0.00127 -0.0019885716
0.002619375 0.00054428569 -0.00032571438
-0.01899047 0.00127 -0.0016560002
0.017680781 0.00018142856 -0.0079748575
-0.030122813 -0.00127 -0.00032571438
0.020627579 0.00018142856 -0.0016560002
0.0075307032 -0.00127 -0.0006582858
0.0062210159 -0.00090714288 -0.00032571438
0.019317891 0.00054428569 -0.00099085725
0.031105079 -0.00127 -0.0013234287
-0.0049113282 -0.00018142856 0.0020022858
0.020627579 -0.00054428569 -0.00099085725
0.018008204 -0.00018142856 -0.00032571438
-0.038635783 -0.00018142856 -0.0023211429
0.019645313 0.00127 -0.0016560002
-0.037653517 0.00054428569 -0.0019885716
0.035034142 -0.00018142856 -0.0023211429
0.033069611 0.00054428569 -0.0016560002
0.038635783 0.00127 -0.0023211429
-0.0065484378 0.00018142856 -0.0016560002
-0.030122813 0.00127 -0.0016560002
-0.034051877 0.00090714288 -0.0013234287
0.026848596 0.00090714288 -0.00032571438
0.01211461 -0.00090714288 -0.0006582858
-0.040600315 -0.00018142856 -0.0006582858
0.033724453 -0.00054428569 -0.00032571438
0.031759921 -0.00090714288 -0.0016560002
-0.030450236 -0.00018142856 0.0010045713
0.030450236 0.00018142856 -0.0016560002
0.02946797 -0.00127 -0.00099085725
-0.01211461 0.00054428569 -0.0019885716
-0.00098226569 0.00054428569 -0.00099085725
0.0075307032 0.00018142856 -0.0056468574
-0.023246953 0.00054428569 -0.00032571438
-0.014733985 0.00054428569 -0.0006582858
-0.00098226569 -0.00127 -0.0016560002
0.00032742188 -0.00018142856 -0.0029862858
-0.039945472 -0.00018142856 -0.0016560002
0.015388829 0.00054428569 -0.00032571438
-0.002619375 0.00090714288 -0.0006582858
-0.020300157 0.00054428569 -0.0013234287
0.00523875 0.00018142856 0.00033942852
0.0019645314 0.00090714288 -0.00032571438
0.028485704 -0.00054428569 -0.0006582858
0.0343793 -0.00127 -0.0023211429
0.012442032 -0.00054428569 -0.00099085725
0.028158283 -0.00018142856 -0.0066445717
-0.0072032814 -0.00127 -0.0023211429
0.040600315 0.00018142856 -0.0019885716
-0.015388829 0.00018142856 -0.0016560002
0.0068758596 -0.00127 -0.00032571438
-0.020300157 0.00018142856 -0.0069771432
0.024556642 -0.00018142856 -0.00099085725
0.0085129691 0.00054428569 -0.00032571438
0.029140549 -0.00054428569 -0.0019885716
0.024556642 0.00127 -0.0013234287
-0.0072032814 0.00127 -0.0023211429
0.026521172 -0.00127 -0.0016560002
-0.002619375 0.00018142856 -0.0013234287
0.03830836 -0.00127 -0.0023211429
-0.011459766 0.00090714288 -0.0016560002
-0.0075307032 0.00018142856 -0.0073097143
0.030777657 0.00054428569 -0.0016560002
-0.016698517 -0.00054428569 -0.00099085725
0.012769453 0.00054428569 -0.00032571438
0.0065484378 0.00127 -0.00099085725
-0.010150079 0.00018142856 -0.008307429
-0.012769453 0.00127 -0.00099085725
-0.023574376 -0.00054428569 -0.00032571438
-0.023246953 0.00127 -0.0019885716
0.032742187 0.00018142856 -0.0029862858
0.019972736 0.00090714288 -0.00032571438
0.0019645314 0.00054428569 -0.0019885716
0.029140549 -0.00090714288 -0.0016560002
0.0081855468 0.00090714288 -0.0006582858
0.002619375 0.00018142856 -0.0053142859
-0.009495235 0.00054428569 -0.0013234287
-0.019317891 0.00054428569 -0.0006582858
-0.030777657 0.00018142856 -0.0043165716
0.018008204 0.00054428569 -0.00032571438
-0.012442032 -0.00018142856 -0.0049817143
-0.031759921 -0.00090714288 -0.0023211429
-0.017680781 0.00018142856 -0.0026537145
-0.022919532 0.00090714288 -0.00099085725
0.025211485 0.00018142856 -0.0053142859
0.0343793 0.00127 -0.00032571438
-0.015388829 0.00127 -0.00032571438
0.031105079 0.00127 -0.00099085725
-0.032087345 0.00127 -0.0013234287
0.02783086 0.00054428569 -0.0013234287
-0.016043672 0.00018142856 -0.0006582858
-0.025211485 0.00018142856 -0.0036514287
-0.024556642 0.00090714288 -0.0019885716
0.040600315 0.00018142856 0.0013371428
0.0085129691 -0.00018142856 -0.0006582858
-0.0016371094 -0.00127 -0.00099085725
-0.0081855468 -0.00018142856 -0.00099085725
0.036343828 -0.00127 -0.0019885716
-0.012769453 0.00018142856 -0.0029862858
-0.035034142 -0.00127 -0.0006582858
0.028813126 0.00054428569 -0.0019885716
-0.02586633 -0.00127 -0.00032571438
0.0343793 0.00090714288 -0.0023211429
0.035361562 -0.00018142856 -0.0019885716
0.014079141 -0.00018142856 -0.0006582858
0.028158283 -0.00018142856 -0.0046491432
-0.035688985 -0.00090714288 -0.0006582858
0.025538906 -0.00018142856 -0.0023211429
-0.01211461 0.00018142856 -0.0013234287
0.024884064 -0.00090714288 -0.0013234287
-0.031759921 -0.00127 -0.0016560002
-0.00523875 0.00018142856 0.0010045713
-0.02586633 0.00054428569 -0.0023211429
0.028485704 -0.00090714288 -0.00032571438
-0.0049113282 -0.00018142856 -0.0079748575
-0.0032742189 -0.00090714288 -0.00032571438
0.035361562 -0.00018142856 -0.0049817143
-0.0029467971 -0.00054428569 -0.0013234287
-0.026521172 0.00127 -0.0016560002
0.027503438 -0.00090714288 -0.00099085725
0.039290626 -0.00090714288 -0.00099085725
-0.016698517 -0.00054428569 -0.00032571438
0.0091678128 -0.00054428569 -0.0016560002
-0.02586633 0.00054428569 -0.0006582858
-0.010804922 -0.00090714288 -0.0019885716
0.017680781 -0.00018142856 -0.0049817143
-0.020627579 0.00018142856 -0.0056468574
-0.0098226564 0.00054428569 -0.0016560002
0.017680781 0.00018142856 6.8570657e-06
-0.015388829 -0.00018142856 -0.0066445717
-0.015061406 -0.00018142856 -0.0053142859
0.036016408 -0.00018142856 -0.00099085725
-0.0098226564 -0.00054428569 -0.00099085725
0.0022919532 -0.00018142856 -0.0019885716
-0.024229219 0.00054428569 -0.00099085725
-0.009495235 -0.00054428569 -0.00032571438
0.0065484378 0.00127 -0.0023211429
0.0049113282 0.00018142856 -0.0056468574
0.019645313 0.00018142856 -0.0006582858
-0.033069611 0.00018142856 -0.0069771432
-0.024229219 0.00127 -0.0016560002
0.032087345 -0.00090714288 -0.0016560002
-0.013751719 0.00090714288 -0.0023211429
-0.0036016407 0.00090714288 -0.0016560002
-0.012442032 0.00018142856 0.00067199994
0.032414768 -0.00018142856 -0.0019885716
-0.0078581255 0.00018142856 -0.0053142859
0.040600315 0.00018142856 -0.0033188574
-0.030777657 0.00018142856 -0.0056468574
-0.035688985 0.00018142856 0.00033942852
-0.038963206 0.00127 -0.0006582858
-0.017025938 -0.00127 -0.00032571438
-0.035361562 0.00127 -0.0013234287
-0.002619375 0.00018142856 0.0016697142
0.011459766 0.00090714288 -0.00099085725
-0.020300157 -0.00018142856 -0.0016560002
0.021609845 -0.00090714288 -0.00099085725
-0.0029467971 0.00127 -0.00032571438
0.036016408 -0.00018142856 -0.0019885716
-0.012442032 -0.00090714288 -0.0023211429
-0.034051877 -0.00090714288 -0.0013234287
0.038963206 -0.00054428569 -0.00099085725
0.028813126 -0.00090714288 -0.0023211429
0.0078581255 -0.00018142856 -0.0063120001
0.002619375 0.00018142856 -0.00099085725
-0.01899047 0.00054428569 -0.0023211429
-0.030450236 -0.00018142856 -0.0079748575
0.021937266 -0.00090714288 -0.0013234287
-0.002619375 -0.00018142856 -0.0046491432
-0.0055661723 -0.00054428569 -0.0006582858
-0.036343828 0.00127 -0.0016560002
0.02586633 -0.00127 -0.0023211429
0.038635783 0.00090714288 -0.0006582858
-0.0068758596 -0.00090714288 -0.0013234287
-0.0088403905 0.00018142856 -0.0019885716
-0.027503438 0.00127 -0.0013234287
-0.025538906 0.00018142856 -0.0026537145
0.01735336 0.00054428569 -0.0016560002
0.0088403905 -0.00090714288 -0.00099085725
-0.00032742188 0.00018142856 -0.0006582858
0.0036016407 -0.00018142856 -0.0013234287
0.002619375 0.00018142856 -0.005979429
-0.015061406 0.00018142856 -0.0073097143
0.019317891 -0.00090714288 -0.0019885716
0.033069611 -0.00054428569 -0.00099085725
0.040600315 -0.00018142856 -0.00099085725
0.011132345 0.00127 -0.0013234287
0.026193751 -0.00127 -0.0006582858
-0.0078581255 0.00018142856 -0.0063120001
0.002619375 0.00018142856 -0.0023211429
0.0058935941 -0.00018142856 -0.00099085725
0.01211461 0.00054428569 -0.0006582858
-0.018008204 -0.00090714288 -0.0016560002
-0.0104775 0.00090714288 -0.0019885716
0.022264689 -0.00127 -0.0016560002
0.036343828 -0.00054428569 -0.0013234287
0.035361562 -0.00054428569 -0.0016560002
0.021282423 0.00054428569 -0.0016560002
-0.019317891 -0.00127 -0.0016560002
0.024229219 0.00018142856 -0.00099085725
-0.030450236 -0.00018142856 0.0020022858
-0.022264689 -0.00127 -0.0019885716
0.037326094 0.00018142856 -0.0013234287
0.028158283 0.00090714288 -0.0006582858
-0.0058935941 -0.00090714288 -0.0019885716
-0.015388829 0.00018142856 -0.0063120001
-0.016371094 0.00127 -0.0013234287
0.01211461 0.00054428569 -0.0013234287
0.032742187 -0.00018142856 -0.0033188574
0.024884064 0.00127 -0.00032571438
0.010150079 -0.00090714288 -0.00032571438
-0.014406563 0.00127 -0.00099085725
-0.012769453 0.00090714288 -0.0006582858
-0.039618049 0.00018142856 -0.00032571438
0.0016371094 0.00090714288 -0.0013234287
0.028158283 -0.00054428569 -0.0016560002
0.027176017 0.00090714288 -0.0013234287
0.0036016407 -0.00054428569 -0.0016560002
-0.021937266 -0.00054428569 -0.00099085725
0.013751719 -0.00054428569 -0.00099085725
0.031432502 -0.00018142856 -0.0013234287
-0.024884064 -0.00054428569 -0.0019885716
-0.0016371094 -0.00018142856 -0.00032571438
0.020300157 0.00018142856 -0.0006582858
0 0.00018142856 -0.0029862858
0.041582581 0.00054428569 -0.0023211429
0.012442032 -0.00018142856 -0.0023211429
-0.013751719 0.00127 -0.0023211429
0.025211485 0.00018142856 -0.0079748575
-0.010150079 0.00018142856 -0.0043165716
0.03798094 -0.00018142856 -0.005979429
0.00523875 0.00018142856 0.0013371428
0.00065484375 -0.00090714288 -0.0016560002
0.033397034 0.00090714288 -0.0019885716
-0.040600315 -0.00054428569 -0.0006582858
-0.024556642 -0.00090714288 -0.0006582858
-0.013751719 -0.00090714288 -0.0019885716
-0.016043672 0.00018142856 -0.00099085725
-0.010804922 0.00054428569 -0.0016560002
0.0078581255 0.00018142856 -0.0016560002
-0.025211485 0.00018142856 -0.0076422859
-0.040272892 -0.00090714288 -0.00032571438
-0.02783086 -0.00018142856 -0.0026537145
0.013096876 0.00054428569 -0.00032571438
0.020300157 0.00018142856 -0.00099085725
-0.038963206 0.00054428569 -0.0019885716
-0.039618049 -0.00018142856 -0.0016560002
-0.014733985 -0.00090714288 -0.0006582858
0.010804922 -0.00090714288 -0.00032571438
0.009495235 -0.00127 -0.00032571438
-0.032087345 0.00018142856 -0.0006582858
0.015388829 -0.00090714288 -0.00032571438
-0.029140549 0.00090714288 -0.0023211429
0.012769453 -0.00090714288 -0.00099085725
0.026848596 -0.00054428569 -0.0019885716
-0.012769453 0.00018142856 -0.0066445717
0.026521172 -0.00127 -0.00099085725
-0.0042564846 0.00018142856 -0.0016560002
-0.01899047 0.00054428569 -0.00099085725
-0.015061406 -0.00054428569 -0.00099085725
-0.0085129691 0.00127 -0.0019885716
0.010150079 -0.00090714288 -0.0013234287
0.0104775 -0.00054428569 -0.0006582858
-0.029140549 -0.00127 -0.00032571438
0.027503438 0.00090714288 -0.00032571438
-0.021937266 0.00090714288 -0.0023211429
-0.032087345 -0.00054428569 -0.0013234287
0 -0.00018142856 0.0013371428
-0.02946797 -0.00054428569 -0.0019885716
0.039290626 -0.00127 -0.0019885716
-0.0016371094 0.00018142856 -0.0013234287
-0.032742187 0.00054428569 -0.0006582858
-0.026848596 0.00090714288 -0.0019885716
0.026193751 -0.00090714288 -0.0006582858
-0.040600315 0.00018142856 6.8570657e-06
-0.030450236 -0.00018142856 -0.00099085725
-0.02783086 -0.00090714288 -0.0006582858
0.017680781 0.00018142856 0.0020022858
0.035688985 0.00018142856 -0.0013234287
-0.02783086 -0.00018142856 0.0020022858
-0.0042564846 -0.00054428569 -0.0013234287
-0.010804922 0.00054428569 -0.00032571438
0.034706719 -0.00054428569 -0.0013234287
-0.0032742189 -0.00018142856 -0.0006582858
0.013096876 0.00127 -0.0013234287
-0.038635783 0.00018142856 -0.0023211429
0.020300157 0.00018142856 -0.0049817143
-0.021282423 0.00127 -0.0006582858
-0.002619375 0.00018142856 0.0020022858
0.023574376 0.00127 -0.00032571438
-0.0016371094 0.00054428569 -0.0013234287
-0.012769453 -0.00018142856 0.0013371428
0.027503438 -0.00127 -0.0019885716
-0.021282423 0.00018142856 -0.00099085725
0.036016408 -0.00054428569 -0.00032571438
-0.025211485 -0.00018142856 -0.0019885716
-0.024556642 0.00090714288 -0.0023211429
-0.010804922 0.00127 -0.0016560002
-0.019972736 -0.00054428569 -0.0023211429
-0.033069611 -0.00090714288 -0.00099085725
-0.040600315 -0.00090714288 -0.0013234287
0.025538906 0.00018142856 -0.0029862858
-0.0343793 0.00018142856 -0.00099085725
0.03798094 -0.00127 -0.00099085725
0.018008204 0.00054428569 -0.0013234287
-0.021282423 -0.00127 -0.00032571438
-0.0013096875 0.00090714288 -0.0016560002
-0.0075307032 0.00127 -0.0006582858
0.030777657 0.00018142856 -0.0043165716
0.013096876 0.00090714288 -0.0006582858
0.011132345 0.00054428569 -0.00099085725
0.017025938 -0.00090714288 -0.0016560002
0.0098226564 -0.00018142856 -0.00032571438
-0.019972736 0.00054428569 -0.0006582858
0.0049113282 -0.00018142856 0.0016697142
-0.036998674 -0.00018142856 -0.0006582858
-0.039618049 0.00054428569 -0.0006582858
0.035688985 0.00127 -0.0016560002
0.039290626 0.00127 -0.00099085725
0.010150079 -0.00018142856 -0.0056468574
-0.018008204 -0.00127 -0.0013234287
0.020955 -0.00018142856 -0.0023211429
0.0068758596 -0.00054428569 -0.0023211429
-0.012442032 0.00054428569 -0.0006582858
0.022264689 0.00090714288 -0.00032571438
-0.023246953 0.00127 -0.0013234287
-0.00032742188 0.00054428569 -0.0023211429
-0.025211485 0.00018142856 -0.00099085725
-0.012769453 -0.00018142856 -0.0063120001
0.028158283 0.00054428569 -0.0019885716
0.030450236 0.00090714288 -0.0013234287
-0.023574376 0.00127 -0.0013234287
0.036016408 0.00127 -0.0019885716
0.014079141 -0.00090714288 -0.0023211429
0.022919532 -0.00018142856 -0.0026537145
0.016698517 -0.00018142856 -0.0019885716
0.020300157 -0.00018142856 0.00033942852
0.040600315 -0.00018142856 -0.0066445717
0.033069611 -0.00018142856 -0.0023211429
-0.025538906 -0.00018142856 0.0013371428
0.0016371094 -0.00018142856 -0.0019885716
0.038963206 -0.00127 -0.0006582858
0.019972736 -0.00127 -0.0013234287
-0.01735336 -0.00018142856 -0.0023211429
-0.024229219 0.00090714288 -0.0016560002
-0.011787188 -0.00127 -0.00032571438
0.022919532 -0.00018142856 -0.005979429
-0.030777657 0.00127 -0.0023211429
0.017680781 -0.00018142856 -0.0019885716
0.036671251 0.00090714288 -0.0019885716
-0.036671251 0.00127 -0.0006582858
0.026848596 -0.00018142856 -0.0006582858
-0.035034142 0.00090714288 -0.0006582858
-0.0032742189 -0.00090714288 -0.00099085725
0.022919532 0.00054428569 -0.0016560002
-0.014079141 -0.00127 -0.0016560002
-0.020955 0.00054428569 -0.0013234287
0.031759921 0.00090714288 -0.0013234287
-0.014733985 0.00018142856 -0.0019885716
0.02946797 -0.00127 -0.0023211429
-0.00523875 -0.00018142856 -0.0006582858
-0.036016408 0.00018142856 -0.0013234287
-0.017680781 -0.00018142856 0.0016697142
0.0019645314 0.00018142856 -0.0023211429
-0.015388829 -0.00090714288 -0.0016560002
0.022919532 -0.00018142856 -0.0046491432
0.016043672 -0.00054428569 -0.00099085725
-0.002619375 0.00018142856 -0.0069771432
-0.025538906 0.00090714288 -0.0006582858
0.020627579 -0.00127 -0.0023211429
0.016698517 0.00090714288 -0.0016560002
-0.0049113282 0.00018142856 6.8570657e-06
0.033397034 -0.00127 -0.0013234287
0.02783086 -0.00090714288 -0.0013234287
-0.039290626 0.00018142856 -0.0006582858
0.018008204 0.00090714288 -0.0023211429
0.0049113282 -0.00054428569 -0.00099085725
-0.016043672 -0.00054428569 -0.0016560002
-0.023246953 -0.00127 -0.00032571438
-0.026848596 -0.00090714288 -0.0013234287
0.027176017 -0.00090714288 -0.00032571438
-0.034051877 0.00018142856 -0.0013234287
0.022919532 -0.00018142856 0.0020022858
0.035688985 0.00127 -0.00099085725
-0.0039290627 -0.00090714288 -0.00099085725
0.01899047 0.00127 -0.0013234287
0.031432502 0.00018142856 -0.0023211429
0.03830836 -0.00090714288 -0.00032571438
0.01735336 0.00127 -0.0006582858
0.025538906 0.00127 -0.0006582858
-0.036016408 -0.00018142856 -0.0019885716
-0.033724453 -0.00090714288 -0.0006582858
0.033069611 -0.00054428569 -0.00032571438
0.025211485 -0.00018142856 -0.00032571438
-0.0013096875 0.00127 -0.00099085725
-0.0049113282 -0.00018142856 -0.0046491432
-0.030777657 0.00018142856 -0.0039840001
0.002619375 -0.00018142856 0.0016697142
0.035361562 -0.00090714288 -0.0016560002
-0.02946797 -0.00054428569 -0.0013234287
-0.0343793 -0.00018142856 -0.0006582858
0.032414768 -0.00018142856 -0.00032571438
-0.030450236 -0.00018142856 6.8570657e-06
0.039290626 -0.00054428569 -0.0006582858
-0.0029467971 0.00054428569 -0.00099085725
0.0058935941 -0.00018142856 -0.0006582858
0.0075307032 0.00018142856 -0.0066445717
0.035361562 0.00054428569 -0.0016560002
0.030450236 -0.00018142856 -0.0073097143
-0.019317891 -0.00054428569 -0.0023211429
-0.030122813 -0.00054428569 -0.0023211429
0.036343828 0.00090714288 -0.0019885716
-0.0062210159 0.00018142856 -0.0016560002
-0.01211461 -0.00054428569 -0.0016560002
0.022919532 -0.00018142856 -0.0039840001
0.023901798 -0.00090714288 -0.00032571438
-0.014079141 0.00090714288 -0.0023211429
0.036998674 0.00054428569 -0.00099085725
0.018663047 -0.00090714288 -0.0019885716
-0.0019645314 -0.00054428569 -0.0023211429
0.027503438 -0.00018142856 -0.0013234287
-0.024556642 0.00054428569 -0.0006582858
-0.013424298 -0.00090714288 -0.00032571438
0.0039290627 -0.00090714288 -0.0006582858
-0.015061406 -0.00090714288 -0.00032571438
-0.0029467971 0.00090714288 -0.00099085725
-0.033069611 -0.00018142856 0.0023348571
-0.01899047 -0.00127 -0.0013234287
-0.028158283 0.00090714288 -0.0023211429
-0.040600315 -0.00018142856 -0.0016560002
-0.014733985 -0.00054428569 -0.0006582858
0.038963206 0.00054428569 -0.00032571438
-0.036671251 -0.00054428569 -0.0019885716
0.002619375 -0.00054428569 -0.0019885716
-0.035361562 -0.00018142856 6.8570657e-06
-0.00032742188 0.00127 -0.00032571438
-0.02946797 -0.00018142856 -0.0016560002
0.039618049 -0.00018142856 -0.00032571438
-0.017680781 0.00018142856 -0.0063120001
0.0075307032 -0.00127 -0.00099085725
0.032087345 0.00090714288 -0.0016560002
-0.033069611 -0.00018142856 -0.0079748575
-0.013751719 0.00127 -0.0013234287
-0.0091678128 -0.00018142856 -0.0013234287
-0.00032742188 0.00018142856 -0.0036514287
0.035688985 0.00018142856 -0.005979429
0.018008204 -0.00090714288 -0.0023211429
-0.031759921 0.00018142856 -0.0023211429
-0.040600315 0.00090714288 -0.0006582858
0.0081855468 0.00090714288 -0.0023211429
0.0058935941 0.00090714288 -0.00099085725
0.026521172 0.00018142856 -0.0023211429
0.030777657 -0.00018142856 -0.00032571438
0.002619375 0.00018142856 -0.0049817143
0.020300157 -0.00018142856 -0.0006582858
0.028158283 -0.00127 -0.0023211429
-0.0029467971 -0.00127 -0.00032571438
-0.015388829 0.00018142856 -0.0026537145
0.015388829 0.00018142856 0.0013371428
0.032087345 0.00018142856 -0.0016560002
0.027176017 0.00127 -0.0013234287
-0.040927734 -0.00090714288 -0.0023211429
-0.002619375 -0.00018142856 -0.0069771432
0.0075307032 0.00090714288 -0.00099085725
-0.01211461 0.00018142856 -0.0019885716
0.023246953 -0.00090714288 -0.0013234287
-0.030450236 0.00018142856 -0.0073097143
0.00523875 -0.00054428569 -0.00099085725
-0.010150079 0.00090714288 -0.0019885716
-0.022919532 0.00090714288 -0.0013234287
-0.025211485 0.00018142856 -0.0063120001
0.00098226569 -0.00018142856 -0.00032571438
0.010150079 -0.00127 -0.00099085725
-0.036998674 0.00054428569 -0.0023211429
0.017680781 0.00018142856 -0.0069771432
0.029140549 -0.00054428569 -0.0023211429
0 0.00018142856 -0.008307429
0.027503438 0.00090714288 -0.0019885716
-0.024229219 0.00090714288 -0.0013234287
0.015388829 -0.00018142856 0.0023348571
0.0019645314 0.00018142856 -0.0006582858
-0.019317891 0.00090714288 -0.0023211429
0.028158283 -0.00018142856 -0.005979429
-0.0039290627 -0.00054428569 -0.00099085725
0.025538906 -0.00018142856 -0.0079748575
-0.015388829 0.00018142856 0.0020022858
0.0013096875 0.00018142856 -0.0019885716
-0.0042564846 0.00090714288 -0.0013234287
-0.036671251 0.00090714288 -0.0016560002
0.034051877 -0.00018142856 -0.0023211429
-0.010150079 0.00018142856 -0.0039840001
0.021609845 0.00090714288 -0.0019885716
-0.012769453 0.00090714288 -0.00032571438
0.01211461 0.00054428569 -0.0023211429
0.017025938 0.00127 -0.0019885716
-0.0098226564 -0.00090714288 -0.0019885716
-0.025538906 0.00018142856 -0.005979429
0.01735336 -0.00054428569 -0.0013234287
0.031759921 0.00127 -0.00099085725
-0.032414768 0.00018142856 -0.0016560002
0.0072032814 0.00054428569 -0.00099085725
0.022592111 -0.00018142856 0.0013371428
-0.039945472 0.00054428569 -0.0013234287
0.002619375 0.00018142856 -0.0039840001
0.039945472 0.00018142856 -0.0013234287
-0.021282423 -0.00090714288 -0.0023211429
-0.00523875 -0.00018142856 -0.0056468574
-0.031105079 0.00054428569 -0.0013234287
-0.020300157 -0.00018142856 -0.0063120001
