# .PCD v0.7 - Point Cloud Data file format
VERSION 0.7
FIELDS x y z
SIZE 4 4 4
TYPE F F F
COUNT 1 1 1
WIDTH 1182
HEIGHT 1
VIEWPOINT 0 0 0 1 0 0 0
POINTS 1182
DATA ascii
3.3866665e-05 0.00078945945 -0.0025283871
0.0015917333 0.00017162162 -0.007652258
0.0015917333 -3.4324323e-05 0.00070774194
-3.3866665e-05 0.00127 -0.0019216129
0.0017949333 0.00127 -0.0021912903
-0.0015917333 -0.00017162162 -0.0025958065
-0.00254 3.4324323e-05 -0.0015170968
-0.0013208 -0.00030891891 -0.0046183872
-0.0022690666 0.00024027027 -0.00023612904
-0.0011176 -0.00030891891 -0.0083264513
-0.001524 -0.00085810811 -0.00016870968
-0.0013208 -0.00030891891 -0.0048206453
-0.0013208 0.00024027027 -0.0085287094
-0.0015917333 -0.00017162162 0.0010448387
0.00064346666 0.00127 -0.001382258
-0.0014562666 -0.00030891891 0.0019212903
-0.00064346666 -0.00127 -0.0010451613
-0.00091439998 3.4324323e-05 -0.00327
-0.0013208 0.00037756757 -0.00023612904
-0.00091439998 -0.00010297298 -0.0036745162
0.00050800003 -0.00092675677 -3.3870969e-05
-0.00091439998 0.00072081079 -0.0025283871
-0.00098213332 -0.00127 -0.00050580647
0.0015917333 0.00017162162 0.0022583872
-0.0023368001 -0.0011327027 -0.0023935484
-0.0013208 -0.00030891891 0.0013145162
-0.0011176 -0.0010640541 -3.3870969e-05
-0.0013885334 -0.00058351352 -0.00023612904
0.0001016 0.00127 -0.0012474194
0.0001016 -0.00127 -0.0017867741
-0.0011853334 -0.00030891891 -0.0054948386
-0.0015917333 -0.00024027027 -0.0029329031
0.00064346666 -0.00127 -0.0004383871
0.0024045333 0.00099540537 -0.0012474194
0.001524 3.4324323e-05 -0.0088658063
0.0014562666 0.00030891891 0.00010096774
-0.0011853334 0.00024027027 0.0013145162
-0.00091439998 -0.00024027027 -0.0077870968
-0.00091439998 -0.00024027027 -0.006843226
0.00050800003 -0.00024027027 -0.0025283871
-0.0014562666 -0.00024027027 0.0023932259
-0.00098213332 -3.4324323e-05 -0.0071129031
-0.00091439998 -0.00030891891 0.0003032258
-0.00098213332 3.4324323e-05 -0.0059667742
0.00098213332 0.00017162162 -0.0033374194
-0.0018626667 -0.0004462162 -0.00023612904
0.0022690666 -0.00065216218 -0.0024609677
-3.3866665e-05 -0.00078945945 -0.0023935484
-0.00254 -0.00017162162 -0.0015845161
-0.00098213332 3.4324323e-05 -0.0072477418
-0.0018626667 0.0011327027 -0.00037096775
-0.001524 0.00017162162 -0.007652258
0.00254 0.00017162162 -3.3870969e-05
0.0012530667 0.00030891891 0.00043806451
-0.0011176 -3.4324323e-05 -0.0091354838
0.0013885334 -0.00010297298 -0.007652258
-0.001524 0.00017162162 -0.0048206453
-0.0001016 0.00127 -0.002326129
-0.00254 0.00030891891 -0.0012474194
-0.00254 0.00017162162 -0.0019216129
-0.0001016 -0.00127 -0.00064064516
0.00050800003 0.00127 -0.0018541935
0.00254 0.00024027027 -0.0015845161
0.0024722666 0.00072081079 -0.00030354838
0.00098213332 0.00017162162 -0.0027306452
0.0013885334 0.00127 -0.00023612904
-0.0001016 -0.00127 -0.00091032259
-0.00098213332 -0.00024027027 0.0025280644
-3.3866665e-05 3.4324323e-05 -0.0025283871
-0.00037253334 -0.00099540537 -3.3870969e-05
-0.0011176 0.00024027027 -0.0038093547
0.0024722666 0.0004462162 -0.00023612904
-0.0023368001 -0.0004462162 -0.0023935484
-0.0001016 -0.00127 -0.0020564515
-0.0015917333 3.4324323e-05 -0.0062364517
-0.0017272 -0.00092675677 -0.0023935484
0.0010498667 0.00127 -0.0021238709
-0.001524 0.00010297298 -0.0047532259
-0.0012530667 0.00024027027 -0.0048880647
-0.0013208 -0.00127 -0.0018541935
0.0014562666 -0.0010640541 -0.00010129032
-0.0024722666 0.00078945945 -0.0023935484
0.0011176 -0.00010297298 -0.0074499999
0.00254 3.4324323e-05 -0.00023612904
0.0013885334 -0.0011327027 -0.0010451613
0.00050800003 -0.00065216218 -0.0025283871
0.00098213332 0.00024027027 0.0015841936
0.0022690666 -0.00099540537 -0.00037096775
-0.00091439998 -3.4324323e-05 -0.0038093547
-0.0022690666 -0.00058351352 -0.00023612904
-0.0019304 0.00024027027 -0.00023612904
-0.00057573331 -0.00127 -0.001382258
0.00098213332 0.00127 -0.00050580647
0.0001016 0.0012013514 -3.3870969e-05
0.00098213332 -0.00010297298 -0.0077196774
-0.0012530667 -0.00030891891 -0.0025958065
-0.0012530667 0.00065216218 -0.0023935484
-0.0011853334 0.00024027027 -0.0058319354
-0.0010498667 0.0011327027 -0.0022587096
0.0011853334 0.00030891891 -0.0057645161
-0.0017949333 0.0010640541 -0.0022587096
0.0023368001 0.0011327027 -0.0022587096
-0.0018626667 0.0004462162 -0.00023612904
-0.0013208 0.00024027027 -0.0048880647
-0.00098213332 -0.00030891891 -0.0038767741
0.0011176 -0.00010297298 -0.0050229034
0.0013208 -0.00010297298 0.0023258065
-0.0011853334 -0.0012013514 -0.0023935484
-0.00098213332 -0.00030891891 0.0011796774
-0.00254 0.00010297298 -0.0004383871
-0.00098213332 -0.00030891891 0.002056129
0.001524 0.00072081079 -0.00023612904
0.0019304 -0.0010640541 -0.0011125806
0.0013208 0.00030891891 -0.0042812903
0.0024722666 0.00051486486 -0.0018541935
-0.0012530667 0.00024027027 0.0013819354
0.00023706666 0.00010297298 -0.0025283871
0.00254 -0.00024027027 -0.00023612904
0.0017949333 -0.00085810811 -0.00010129032
0.0017272 -0.00030891891 -0.00016870968
0.0011853334 0.00037756757 -0.0025283871
-0.0016594667 -0.00058351352 -0.0023935484
-0.0011176 0.00024027027 0.002056129
-0.0017949333 -0.00058351352 -0.00023612904
-0.0019304 0.0011327027 -0.0014496774
0.0010498667 -0.0012013514 -0.0021238709
0.00254 3.4324323e-05 -0.00050580647
0.00091439998 0.00051486486 -0.0025283871
-0.001524 0.00017162162 -0.0085961288
0.0013885334 0.00030891891 -0.0088658063
0.0007112 0.00127 -0.0016519355
0.0023368001 -0.0004462162 -0.00023612904
0.0014562666 -0.00099540537 -3.3870969e-05
0.00064346666 0.00127 -0.0020564515
-0.00091439998 0.00078945945 -0.00023612904
0.0023368001 -0.0004462162 -0.0024609677
0.0022690666 0.0011327027 -0.00050580647
-0.001524 -0.0010640541 -0.0023935484
-0.00254 0.00058351352 -0.0009777419
-0.0012530667 0.0010640541 -0.002326129
0.0017272 -0.0004462162 -0.0025283871
0.0015917333 0.00010297298 -0.0065061292
0.00091439998 0.00024027027 -0.0061016129
0.0007112 -0.00127 -0.0004383871
0.0024722666 0.00058351352 -0.0015845161
-0.0012530667 -0.00030891891 -0.0064387098
-0.0013208 0.00030891891 -0.00023612904
-0.00254 -0.00010297298 -0.0023935484
0.0015917333 0.00010297298 -0.0041464516
0.0019981333 -0.0010640541 -0.00037096775
0.0010498667 0.00030891891 -0.0059667742
-0.0024045333 0.00058351352 -0.00023612904
-0.0015917333 -0.00010297298 0.0010448387
-0.0013885334 0.00078945945 -0.00023612904
-0.0015917333 -0.00024027027 -0.0070454837
-0.0014562666 -0.00030891891 -0.0043487097
0.00044026665 -0.00099540537 -3.3870969e-05
0.0024722666 0.00051486486 -0.00030354838
0.0015917333 0.00017162162 -0.0080567738
-0.0013208 -0.00030891891 0.00043806451
0.00254 -3.4324323e-05 -0.00016870968
0.00098213332 -0.00010297298 0.002056129
-0.0010498667 0.00010297298 -0.0069780643
0.0014562666 -0.00092675677 -0.0023935484
-0.0014562666 3.4324323e-05 0.0023932259
-0.00023706666 -0.00065216218 -0.00037096775
0.00254 -0.0004462162 -0.00023612904
0.0011176 0.00127 -0.0023935484
0.0013885334 0.00030891891 -0.0089332256
-0.0012530667 -0.00030891891 -0.0041464516
-0.0016594667 0.0012013514 -0.0017193549
-0.0018626667 -0.00078945945 -0.0023935484
-0.0020658667 -0.0012013514 -0.0013148388
0.0015917333 3.4324323e-05 0.00050548388
-0.0011176 -0.00030891891 0.0023258065
0.00037253334 0.00030891891 -0.0025283871
-0.00098213332 0.00030891891 -0.00023612904
0.00050800003 0.00017162162 -0.0025283871
-0.0011176 -0.00030891891 -0.0067758067
-0.0022690666 -0.00030891891 -3.3870969e-05
0.0014562666 0.00127 -0.00023612904
0.0007112 0.00072081079 -0.00030354838
0.00254 -0.00072081079 -0.00064064516
-0.0013208 -0.00017162162 0.0027303225
0.0015917333 0.00010297298 -0.0032025806
0.00098213332 0.00017162162 -0.0032025806
0.00254 -0.00072081079 -0.0015845161
-0.00044026665 0.00127 -0.0011125806
-0.0021335999 0.00051486486 -0.00023612904
-0.0013885334 0.00017162162 -0.0044835485
0.0015917333 0.00127 -0.00023612904
0.0022013334 0.00099540537 -0.0023935484
0.0015917333 0.00017162162 -0.0085961288
-0.0015917333 3.4324323e-05 -0.0079219351
0.00254 -0.00072081079 -0.0011125806
-0.0015917333 0.0012013514 -0.0021912903
0.0015917333 3.4324323e-05 -0.0027980646
-0.00084666669 -0.00127 -0.001382258
0.0012530667 0.00030891891 -0.0081241932
-0.0011176 -0.00030891891 -0.0074499999
0.0017272 0.00085810811 -0.00023612904
-0.0024722666 -0.00051486486 -0.0019890321
0.0015917333 3.4324323e-05 0.0017190323
-0.0020658667 -0.0012013514 -0.00037096775
-0.0011176 -0.00030891891 -0.0032025806
-0.0013208 -0.00127 -0.0011125806
-0.001524 0.00017162162 -0.0027980646
0.00098213332 -3.4324323e-05 -0.0034048387
0.00064346666 -0.00085810811 -3.3870969e-05
-0.0015917333 -0.00024027027 -0.0052251611
0.00254 -0.00058351352 -0.0014496774
0.00098213332 -0.00010297298 -0.0030003225
-0.0011176 -0.00030891891 0.0021235484
-0.0019981333 -0.0012013514 -0.0020564515
-0.0010498667 -0.00030891891 -0.0078545157
0.0011176 0.00030891891 0.0005729032
-0.00254 0.00072081079 -0.0010451613
0.00091439998 0.00024027027 -0.0046183872
-0.0011853334 0.00024027027 3.3548386e-05
-0.0013208 0.00024027027 -0.0027980646
0.0015917333 3.4324323e-05 -0.0083938707
-0.00064346666 -0.00127 -0.0004383871
0.0024722666 -0.00085810811 -0.0021912903
-0.0012530667 0.00024027027 -0.0061016129
0.0024045333 0.00085810811 -0.00118
0.0013208 -0.00010297298 0.00037064517
0.0013208 -0.0011327027 -0.002326129
-0.0024045333 -0.00099540537 -0.00064064516
0.00098213332 0.00010297298 -0.007652258
0.0022690666 0.00024027027 -0.0023935484
0.00091439998 0.00127 -0.00084290322
-0.00098213332 0.00127 -0.0021912903
0.00050800003 0.00127 -0.00084290322
-0.00254 -0.00030891891 -0.00070806453
0.0021335999 0.0012013514 -0.00070806453
-0.0013208 -0.00030891891 -0.0038767741
-0.0001016 -0.00127 -0.00070806453
0.0015917333 0.0004462162 -0.00023612904
-0.00091439998 0.00010297298 -0.0039441935
0.00064346666 0.00030891891 -0.00016870968
-0.0015917333 -0.00127 -0.0023935484
0.0007112 0.00017162162 -0.0025283871
-0.00091439998 -0.00030891891 -0.0035396775
0.0001016 -0.0012013514 -3.3870969e-05
-0.0014562666 -0.00037756757 -0.0025283871
0.0010498667 -0.0012013514 -0.001382258
-0.00091439998 0.00127 -0.00050580647
-0.001524 -0.00030891891 -0.0081916125
-0.00091439998 -0.00030891891 -0.0051577417
-0.001524 0.00010297298 0.0005729032
0.0013885334 -0.00010297298 -0.0033374194
3.3866665e-05 3.4324323e-05 -0.0025283871
-0.0023368001 -0.0010640541 -0.0009777419
0.0017272 0.0012013514 -0.00010129032
0.00091439998 -0.00010297298 -0.0079219351
-0.00037253334 0.0004462162 -0.00023612904
-0.0019981333 0.00072081079 -0.00023612904
0.0011853334 0.00030891891 -0.007652258
-0.0012530667 -0.00024027027 -0.0089332256
-0.0012530667 -0.00030891891 0.00064032257
-0.0024045333 -0.00092675677 -0.0017867741
-0.00254 -0.00030891891 -0.00030354838
-0.00077893335 0.00058351352 -0.00037096775
0.0015917333 3.4324323e-05 -0.0077870968
0.00091439998 3.4324323e-05 0.0005729032
0.00023706666 -0.00085810811 -0.0023935484
0.0010498667 -0.00017162162 -0.0075848387
0.0019304 -0.00099540537 -0.0023935484
0.0011176 -0.00010297298 0.0013145162
0.0024722666 -0.00085810811 -0.00030354838
-0.00098213332 -0.00010297298 -0.0058319354
-0.0011176 0.00024027027 -0.0080567738
-0.0024045333 -0.0010640541 -0.0004383871
-0.0024045333 0.00078945945 -0.0023935484
-0.00084666669 0.00127 -0.00118
-0.0012530667 -0.00030891891 -0.0050229034
-0.00091439998 3.4324323e-05 0.00043806451
-0.00037253334 0.00024027027 -3.3870969e-05
0.001524 -3.4324323e-05 -0.0061690323
0.0014562666 0.00017162162 0.0025954838
0.0012530667 -0.00010297298 -0.0065061292
-0.00091439998 0.00010297298 -0.00846129
-0.0011853334 -0.00030891891 -0.0033374194
0.00091439998 0.00030891891 -0.0034048387
0.0015917333 0.00010297298 -0.00327
-0.0010498667 -0.00024027027 0.002460645
0.00254 -0.00037756757 -0.0021912903
0.0014562666 -3.4324323e-05 0.0013145162
-0.00254 0.00058351352 -0.00118
0.00098213332 -0.00017162162 0.0016516129
-0.00098213332 -0.00010297298 0.002460645
0.0016594667 -0.0011327027 -0.00050580647
-0.0024045333 -0.00085810811 -0.001382258
0.0013208 -0.00085810811 -0.00030354838
-0.0015917333 -0.00017162162 -0.0048206453
-0.0018626667 -0.00017162162 -3.3870969e-05
0.0013208 -0.00010297298 -0.0031351612
0.0019304 0.00099540537 -0.0023935484
-0.00023706666 -0.00127 -0.00091032259
0.001524 -0.00030891891 -0.00016870968
-0.0001016 0.00030891891 -0.0025283871
0.0010498667 -0.00017162162 -0.0037419356
-0.0011853334 -0.00017162162 0.0027303225
0.0013208 -0.00010297298 -0.005562258
-0.0024045333 -0.0010640541 -0.0023935484
0.001524 0.00030891891 -0.0069780643
-0.0015917333 -0.00024027027 -0.0032025806
0.0019304 -0.0010640541 -0.0021238709
-0.00098213332 -0.00017162162 -0.0051577417
-0.00098213332 0.00010297298 -0.0069106449
0.0014562666 0.00030891891 -0.0087983869
0.0013208 -0.00065216218 -0.00037096775
0.0010498667 0.00030891891 -0.0085961288
-0.00098213332 0.00017162162 -0.0029329031
0.0018626667 -0.00092675677 -0.0023935484
0.0014562666 0.00030891891 -0.0027306452
0.0015917333 0.00085810811 -0.0023935484
-0.0011853334 -0.00030891891 0.00050548388
-0.001524 0.00010297298 -0.0037419356
-0.0015917333 -0.00024027027 -0.0062364517
0.0012530667 -0.0004462162 -0.00023612904
-0.0011176 0.00024027027 0.0017190323
0.0010498667 0.00127 -0.0019216129
0.00016933333 -0.00085810811 -0.00030354838
0.0015917333 3.4324323e-05 -0.0040116129
-0.00254 -0.00017162162 -0.00030354838
-0.00030479999 -0.00065216218 -0.0025283871
0.00064346666 -0.00092675677 -3.3870969e-05
-0.0017272 -0.00092675677 -0.00016870968
0.0001016 -0.00127 -0.0023935484
-0.0022690666 0.00099540537 -0.00091032259
0.00254 0.00037756757 -0.00037096775
0.0012530667 0.0011327027 -0.0025283871
-0.0024045333 0.00085810811 -0.0023935484
-0.0018626667 -0.00127 -0.001382258
0.00091439998 -0.0012013514 -0.0021238709
-0.0013885334 0.00017162162 -0.0061690323
-0.00098213332 -0.00127 -0.0020564515
-0.001524 0.00010297298 -0.0086635482
-0.00084666669 -0.00010297298 0.00037064517
0.0024045333 0.00085810811 -0.00016870968
0.0024045333 0.00092675677 -0.0009777419
0.0020658667 -0.0010640541 -0.0018541935
-0.0015917333 -0.00024027027 -0.006843226
-0.0001016 0.00127 -0.00023612904
-0.0019304 -0.0010640541 -0.0023935484
0.0024045333 -0.00092675677 -0.0015845161
0.0011853334 0.00030891891 0.0019212903
0.0011853334 -0.00085810811 -0.00030354838
0.0019981333 -0.00099540537 -3.3870969e-05
-0.001524 -0.00030891891 -0.0027980646
0.0010498667 -0.00065216218 -0.0025283871
-0.0014562666 0.00017162162 -0.0058319354
0.0011176 0.00030891891 0.0013819354
-0.0010498667 -3.4324323e-05 0.0025954838
0.0023368001 0.0011327027 -0.00030354838
-0.0022013334 0.0011327027 -0.00050580647
0.00254 -3.4324323e-05 -0.00091032259
-0.0021335999 -0.0012013514 -0.0020564515
-0.00098213332 -0.00030891891 -0.0072477418
0.0011176 -0.00058351352 -0.0025283871
0.00077893335 -0.00127 -0.00030354838
0.0015917333 0.00010297298 -0.0046858066
-0.0024045333 0.00065216218 -0.00037096775
0.00064346666 -0.00127 -0.0014496774
-0.0022013334 -3.4324323e-05 -0.0024609677
-0.0022690666 0.00099540537 -0.00064064516
-0.0012530667 -0.00030891891 -0.0036745162
0.0017272 0.00127 -0.0018541935
-0.00098213332 -3.4324323e-05 -0.0025958065
-0.0013208 0.00072081079 -0.00023612904
0.0011853334 3.4324323e-05 0.0026629032
-0.00077893335 0.0012013514 -0.0022587096
-0.00057573331 0.00099540537 -3.3870969e-05
0.0007112 -0.00085810811 -0.00016870968
0.001524 0.00030891891 -0.0063038711
-0.0014562666 0.00017162162 -0.0059667742
-0.0021335999 0.0011327027 -0.0012474194
-0.00091439998 -0.00010297298 -0.0081241932
-0.00098213332 -0.00092675677 -0.0023935484
0.00023706666 -0.00127 -0.00064064516
-0.00091439998 3.4324323e-05 -0.0081241932
-0.00016933333 -0.00017162162 -3.3870969e-05
0.0011176 0.00030891891 -0.0056970967
-0.00037253334 0.00085810811 -0.00010129032
0.00098213332 0.0004462162 -0.00023612904
0.00057573331 0.00127 -0.0018541935
0.0001016 0.00127 -0.00070806453
0.001524 -3.4324323e-05 -0.0049554841
-0.00077893335 0.00065216218 -0.00037096775
0.0023368001 0.00010297298 -0.0024609677
-0.00098213332 3.4324323e-05 -0.0066409679
0.00091439998 -0.0012013514 -0.00084290322
-0.00091439998 0.00010297298 -0.0027980646
-0.0017949333 -0.00078945945 -0.00037096775
0.0020658667 -0.00051486486 -0.0024609677
-0.00254 0.00010297298 -0.0013148388
-0.00037253334 -0.00127 -0.0016519355
0.0012530667 -0.00010297298 0.0015841936
0.00091439998 0.00030891891 -0.0046858066
-0.0014562666 -0.00030891891 0.0011796774
-0.0001016 0.00017162162 -3.3870969e-05
-0.0017272 0.0010640541 -0.00016870968
0.00091439998 -0.0012013514 -0.0023935484
0.0017949333 -0.0010640541 -0.0019890321
0.0016594667 0.00092675677 -0.0023935484
-0.0011176 -0.00127 -0.00010129032
0.00091439998 0.00017162162 -0.0060341936
0.0012530667 3.4324323e-05 -0.0091354838
-0.0011176 0.00024027027 -0.0081916125
0.0024722666 0.00058351352 -0.00064064516
-0.00057573331 0.00127 -0.0021238709
0.00098213332 3.4324323e-05 -0.0027306452
-0.00254 -0.00037756757 -0.00091032259
0.0021335999 -0.00051486486 -0.00023612904
-0.0012530667 -0.00127 -0.0010451613
0.00098213332 0.00030891891 -0.0065061292
0.0012530667 0.00017162162 0.0026629032
-0.0014562666 -0.00030891891 0.0023932259
-0.0010498667 0.00024027027 -0.0025283871
0.00091439998 3.4324323e-05 -0.0025283871
0.0013208 0.00127 -0.00118
0.00057573331 0.00030891891 -3.3870969e-05
0.0013208 0.00085810811 -0.0023935484
-3.3866665e-05 0.00127 -0.0017867741
0.00098213332 -3.4324323e-05 -0.0049554841
-0.0020658667 -0.00092675677 -0.0023935484
0.00098213332 -0.00017162162 0.00091
-0.00254 0.00065216218 -0.00037096775
-0.0015917333 -3.4324323e-05 -0.0061690323
0.00030479999 0.00017162162 -3.3870969e-05
-0.0014562666 -0.00092675677 -0.00016870968
-0.0011176 -0.0011327027 -3.3870969e-05
0.00044026665 0.00127 -0.0009777419
0.00050800003 -0.00037756757 -0.0025283871
-0.0011853334 -0.00127 -0.00023612904
-0.0013208 0.00024027027 -0.0083264513
0.0014562666 0.00030891891 -0.0044161291
-0.0022690666 -0.0011327027 -0.00091032259
3.3866665e-05 0.00099540537 -3.3870969e-05
0.0013885334 0.00030891891 -0.0087983869
-0.0023368001 -0.0011327027 -0.0021912903
-0.00091439998 -3.4324323e-05 0.00050548388
-0.001524 -0.00030891891 0.00070774194
0.00084666669 0.00037756757 -0.00023612904
-0.0012530667 -0.00127 -0.0022587096
-0.0007112 -0.00037756757 -0.00023612904
0.00098213332 0.00127 -0.0014496774
0.0017272 0.0011327027 -0.00016870968
-0.0010498667 0.00017162162 -0.0073825805
-0.0024722666 -0.00065216218 -0.002326129
0.0011853334 -0.00010297298 -0.0088658063
0.0024722666 0.00065216218 -0.0019890321
0.0020658667 0.00127 -0.0021238709
-0.0013885334 -0.00085810811 -0.0023935484
-0.0015917333 3.4324323e-05 -0.0044835485
-0.0020658667 0.0010640541 -0.0014496774
0.001524 -3.4324323e-05 0.0017190323
0.001524 -0.0011327027 -0.0009777419
-0.0015917333 -0.00010297298 -0.0087983869
-0.0013208 0.00127 -0.0019890321
-0.0018626667 -0.00030891891 -3.3870969e-05
-0.00254 0.00030891891 -0.002326129
-0.00064346666 0.00085810811 -0.0023935484
0.00098213332 -0.00010297298 -0.0069106449
-0.0013208 -0.0010640541 -0.0024609677
0.00077893335 0.00030891891 -0.0025283871
-0.0010498667 -0.00030891891 -0.00016870968
0.0010498667 -0.00017162162 -0.0039441935
0.0012530667 0.00030891891 -0.007652258
0.0021335999 -0.00037756757 -0.00023612904
-0.00077893335 -0.00058351352 -0.00023612904
0.00044026665 -0.00010297298 -3.3870969e-05
-0.0013885334 0.00017162162 -0.0032025806
0.0011853334 0.00030891891 -0.0025958065
0.00084666669 0.00127 -0.00030354838
-0.00091439998 -0.00010297298 -0.0081916125
-0.00098213332 -0.00017162162 -0.0071803224
-0.001524 -0.00030891891 -0.0075848387
-0.0011853334 -0.00030891891 -0.0040116129
0.00057573331 0.00127 -0.0021912903
-0.00057573331 -0.00099540537 -0.0023935484
0.0022690666 0.0011327027 -0.0024609677
0.00044026665 -0.00072081079 -0.00037096775
0.00098213332 -0.00085810811 -3.3870969e-05
0.00254 -0.0004462162 -0.0019216129
0.0024045333 0.00092675677 -0.0010451613
-0.00091439998 -0.00030891891 3.3548386e-05
-0.0013885334 0.00017162162 -0.0074499999
0.00091439998 -3.4324323e-05 -0.0038093547
-0.0015917333 3.4324323e-05 -0.0067758067
0.0001016 -0.00127 -0.00064064516
-0.0015917333 -0.00127 -0.00118
0.0011176 0.00030891891 -0.0032025806
0.0010498667 -0.00017162162 0.0022583872
0.00064346666 -0.00099540537 -0.0023935484
0.0012530667 0.00024027027 -0.009000645
-0.0011853334 -0.00030891891 -0.005562258
-0.0013885334 0.00017162162 -0.0080567738
-0.0012530667 0.00010297298 -0.0089332256
-0.0011176 -0.00030891891 -0.0063038711
-0.00023706666 -0.00099540537 -0.0023935484
-0.0017949333 0.0004462162 -0.0023935484
-0.00091439998 -0.00030891891 0.00010096774
-0.0024045333 -0.00092675677 -0.00057322579
0.00023706666 0.0011327027 -0.0023935484
0.00254 -0.00030891891 -0.0020564515
0.0012530667 -0.00010297298 0.0023932259
-0.0011853334 -0.00127 -0.0022587096
-0.0015917333 -3.4324323e-05 -0.0083938707
-0.0010498667 0.0004462162 -0.00023612904
-0.0019981333 -0.00065216218 -0.0023935484
0.0007112 -0.00127 -0.0014496774
0.0019981333 -0.00010297298 -0.0024609677
-0.0019304 -0.0012013514 -0.0023935484
0.00030479999 -0.00078945945 -0.00037096775
-0.00254 0.00024027027 -0.0009777419
0.0015917333 0.00024027027 -0.0067758067
0.0011853334 -0.00010297298 -0.0070454837
0.00023706666 -0.00127 -0.00030354838
-0.0024722666 -0.00058351352 -0.0011125806
-0.00057573331 -0.00127 -3.3870969e-05
-0.0024045333 0.00051486486 -0.0023935484
-0.00023706666 0.00127 -0.0023935484
-0.0001016 -0.00127 -0.0017867741
-0.0011853334 -0.0010640541 -0.0024609677
0.00023706666 -0.00127 -0.0017193549
-0.00098213332 -0.00030891891 -0.0058319354
-0.0013885334 0.00127 -0.00016870968
-0.00254 -0.00017162162 -0.0013148388
-0.00091439998 0.00127 -0.0017193549
-0.0011853334 0.00127 -0.0022587096
0.0013208 0.00030891891 -0.0078545157
-0.00091439998 -0.00017162162 0.0021909678
0.0019304 0.00072081079 -0.00030354838
-0.0011176 0.0010640541 -0.0023935484
0.00254 -0.00051486486 -0.00070806453
-0.00254 0.00030891891 -0.00037096775
-0.0011176 -0.00127 -0.0014496774
0.00050800003 -0.00127 -0.00016870968
0.00016933333 -0.00127 -0.00070806453
0.0015917333 0.00017162162 -0.0033374194
-0.0010498667 0.00010297298 -0.0063712904
0.0011176 -0.00051486486 -0.00023612904
-0.00091439998 -0.00127 -0.00030354838
-0.0015917333 -0.00010297298 -0.0051577417
0.00091439998 0.00017162162 -0.0056970967
0.0015917333 0.0010640541 -0.00016870968
-0.00254 -3.4324323e-05 -0.00064064516
-0.0014562666 -0.00127 -0.0023935484
0.00091439998 -0.00010297298 -0.0075174193
0.0014562666 0.00030891891 -0.0052251611
-0.0013208 -0.00030891891 -0.0038093547
0.0011853334 0.00030891891 -0.0067758067
-0.001524 0.00127 -0.0004383871
0.0011853334 -0.00010297298 -0.006843226
-0.001524 0.00010297298 -0.0032025806
-0.00098213332 -0.00030891891 -0.0038093547
-0.0010498667 0.00024027027 0.0019212903
0.00098213332 0.00024027027 -0.0031351612
-0.0015917333 3.4324323e-05 -0.0057645161
-0.00098213332 3.4324323e-05 -0.0052925805
0.0019304 -0.0010640541 -0.00030354838
0.0015917333 0.00010297298 0.0013145162
0.00098213332 -3.4324323e-05 -0.0036070968
-0.0019981333 0.0011327027 -0.00016870968
-0.00077893335 0.00017162162 -3.3870969e-05
0.0024045333 -0.00092675677 -0.00057322579
-0.0024045333 -0.0010640541 -0.0017867741
0.0017949333 -0.00051486486 -0.0024609677
-0.0007112 -0.0010640541 -0.0025283871
0.0011853334 0.00127 -0.00077548384
-0.00030479999 -0.00092675677 -0.0023935484
-3.3866665e-05 -0.00127 -0.0023935484
0.0015917333 0.00024027027 -0.0071803224
0.00254 0.00030891891 -0.0020564515
0.0020658667 -0.00085810811 -0.00010129032
0.0007112 -0.00085810811 -0.00030354838
0.0010498667 0.00037756757 -0.00023612904
0.0011176 -0.00010297298 -0.0081241932
-0.0024722666 -0.00037756757 -0.0023935484
-0.00254 0.00058351352 -0.00057322579
-0.0022690666 0.00085810811 -0.00016870968
0.0016594667 -0.00037756757 -0.00023612904
-0.0011176 0.00024027027 -0.0030677419
-0.0024045333 -0.00099540537 -0.0012474194
-0.00098213332 0.00017162162 -0.0085961288
-0.0024722666 -0.00078945945 -0.0017193549
0.00098213332 3.4324323e-05 -0.0088658063
-0.0017949333 0.00024027027 -0.0025283871
-0.0015917333 -0.00099540537 -0.00016870968
-0.0010498667 0.00017162162 -0.0080567738
-0.00044026665 -0.00058351352 -0.00023612904
-0.0021335999 0.00017162162 -0.0023935484
-0.00098213332 -3.4324323e-05 -0.0063712904
0.00254 0.00017162162 -0.00077548384
-0.0020658667 0.0010640541 -0.002326129
-0.00064346666 0.00030891891 -3.3870969e-05
3.3866665e-05 0.0004462162 -0.00030354838
0.0019304 0.0004462162 -0.00023612904
0.0020658667 0.00127 -0.0017193549
-0.0012530667 0.00024027027 -0.0052925805
0.00077893335 0.00024027027 -3.3870969e-05
3.3866665e-05 -0.00092675677 -0.0023935484
0.001524 -3.4324323e-05 -0.0056970967
-0.0011176 0.00024027027 -0.0034722581
0.0007112 0.00127 -0.0017193549
-0.0010498667 0.00010297298 -0.0059667742
-0.0015917333 -3.4324323e-05 -0.0033374194
0.00254 0.00010297298 -0.00030354838
0.0017949333 0.0012013514 -3.3870969e-05
0.0012530667 0.00030891891 0.00023580645
-0.0015917333 -3.4324323e-05 0.0013145162
-0.0010498667 0.00078945945 -0.0023935484
-0.00044026665 3.4324323e-05 -3.3870969e-05
-0.00044026665 0.00078945945 -0.00023612904
0.0016594667 -0.0011327027 -0.00084290322
0.0012530667 -0.00010297298 0.00023580645
0.00091439998 3.4324323e-05 0.0022583872
0.00057573331 -0.00127 -0.0022587096
-0.00098213332 0.00127 -0.00037096775
0.0012530667 0.00030891891 -0.0083264513
-0.00098213332 -0.00010297298 -0.0064387098
-0.00037253334 -0.00127 -0.00057322579
-0.0001016 0.00127 -0.0021912903
-0.00030479999 -0.00078945945 -0.0023935484
-0.001524 0.00099540537 -0.0023935484
0.001524 0.00127 -0.00037096775
-0.00091439998 0.00010297298 0.0011796774
-0.0012530667 -0.00127 -0.0015845161
-0.00084666669 0.00127 -0.0022587096
-0.001524 0.00017162162 -0.0043487097
-0.00030479999 -0.00037756757 -0.00023612904
0.0016594667 -0.0010640541 -0.0023935484
-0.00254 0.00010297298 -0.0012474194
0.00254 0.00037756757 -0.00077548384
0.00098213332 0.00010297298 -0.0056296773
-0.0012530667 -0.00030891891 -0.0031351612
-0.0016594667 -0.00010297298 -0.0025283871
0.0015917333 -0.00037756757 -0.00023612904
0.0021335999 0.00092675677 -0.00023612904
-0.00091439998 -0.00030891891 -0.0057645161
-0.0013208 0.00024027027 -0.0064387098
-0.0022690666 0.00099540537 -0.0009777419
-0.00084666669 -0.00017162162 0.0010448387
-0.0012530667 -0.00030891891 0.0017190323
-0.0014562666 0.00017162162 0.0013819354
-0.0007112 0.00127 -0.00023612904
-0.0019304 0.00030891891 -0.00023612904
0.0012530667 0.00030891891 -0.0061016129
0.0024045333 3.4324323e-05 -0.0024609677
-0.0022013334 -0.00030891891 -0.00010129032
-0.0021335999 0.0010640541 -0.0021238709
0.0018626667 -0.0010640541 -0.0014496774
0.00050800003 0.00127 -0.0019890321
-0.0012530667 -0.00030891891 -0.0053599998
-0.00084666669 -0.00010297298 -0.0025283871
0.0011853334 0.00127 -0.0012474194
-0.0019304 -0.00085810811 -0.00023612904
0.0015917333 0.00010297298 0.0017864517
-0.0014562666 -0.00030891891 -0.0089332256
-3.3866665e-05 -0.00051486486 -0.00023612904
-0.0024045333 -0.00085810811 -0.00050580647
-0.00050800003 0.00078945945 -0.00023612904
-0.0018626667 -0.00037756757 -0.0024609677
0.001524 -3.4324323e-05 -0.0054274192
-0.0024045333 -0.00099540537 -0.00050580647
0.00254 -0.0004462162 -0.0015170968
-0.0020658667 -0.00078945945 -0.00037096775
-0.0023368001 -0.00099540537 -0.00016870968
0.0015917333 0.00010297298 -0.0086635482
0.00098213332 0.00099540537 -0.0023935484
-0.00098213332 0.00017162162 -0.0081916125
0.00077893335 0.00092675677 -0.0023935484
-0.00057573331 -0.00127 -0.0013148388
-0.00057573331 -0.00127 -0.002326129
0.0010498667 -0.00051486486 -0.00023612904
-0.0012530667 0.00024027027 -0.006843226
-0.0011853334 -0.00030891891 0.0016516129
0.0011176 -0.00010297298 0.0013819354
-0.00098213332 3.4324323e-05 -0.0048880647
-0.0015917333 3.4324323e-05 -0.0075848387
0.00091439998 0.00030891891 -0.0048206453
0.00023706666 0.00127 -0.0020564515
-0.00098213332 -0.00058351352 -0.0025283871
-0.0013208 -0.00030891891 3.3548386e-05
0.001524 3.4324323e-05 0.0023932259
-0.0022690666 0.00099540537 -0.0022587096
0.0007112 0.0011327027 -3.3870969e-05
-0.0013885334 -0.00030891891 0.00064032257
0.00023706666 0.00127 -0.0012474194
0.0017272 0.00127 -0.0015170968
0.0022690666 -0.00037756757 -0.0023935484
0.0015917333 3.4324323e-05 -0.0078545157
0.00037253334 -0.00127 -0.00084290322
0.0019304 -0.0010640541 -0.0022587096
-0.0024045333 -0.00092675677 -0.00050580647
0.0013208 -0.00085810811 -0.00010129032
-0.0001016 -0.00127 -0.001382258
-0.0007112 -0.0012013514 -3.3870969e-05
-0.0010498667 -0.00127 -0.0015845161
0.0010498667 0.00030891891 -0.0034048387
0.001524 -0.0011327027 -0.0004383871
0.0001016 0.00072081079 -0.00030354838
0.0011176 0.00030891891 0.00023580645
0.00254 0.0004462162 -0.001382258
-0.00023706666 -0.00127 -0.0022587096
0.0024045333 -0.00092675677 -0.0004383871
0.0010498667 0.00127 -0.0019890321
-0.0023368001 0.00030891891 -0.00016870968
-0.0017272 0.0012013514 -0.00064064516
-0.0019304 -0.00017162162 -3.3870969e-05
-0.0010498667 0.00017162162 -0.0027980646
0.00030479999 0.00127 -0.00118
0.00057573331 0.00065216218 -0.00037096775
-0.0024045333 0.00085810811 -0.0009777419
-0.0015917333 -0.00024027027 -0.0079219351
0.0015917333 0.00010297298 -0.0067758067
0.00044026665 -0.00092675677 -3.3870969e-05
0.00091439998 0.00024027027 -0.0054274192
-0.0013885334 -0.00127 -0.0017193549
-0.00037253334 -0.00127 -0.0017193549
-0.0011853334 -0.00030891891 -0.002865484
-0.00091439998 3.4324323e-05 0.0017864517
0.0013885334 0.00030891891 0.0017190323
-0.0012530667 0.00127 -0.0009777419
0.00098213332 -3.4324323e-05 0.00070774194
-0.0011176 0.00017162162 -0.0042812903
-0.0015917333 -0.00078945945 -0.00037096775
-0.00064346666 0.00078945945 -0.0023935484
-0.0024722666 0.00085810811 -3.3870969e-05
0.0001016 0.00127 -0.0014496774
0.00098213332 0.00030891891 -3.3870969e-05
-0.00254 0.00058351352 -0.0013148388
0.0015917333 0.00017162162 -0.006843226
-0.0015917333 -0.00010297298 0.00023580645
-0.00091439998 -3.4324323e-05 -0.0083938707
0.0014562666 0.00127 -0.001382258
-0.0010498667 -0.00030891891 0.0021909678
-0.0014562666 -0.00030891891 -0.0069780643
0.0024045333 0.00092675677 -0.0018541935
-0.0012530667 0.00024027027 -0.0033374194
-0.0011853334 -0.00030891891 -0.0046858066
0.0023368001 0.0010640541 -0.00050580647
0.0007112 -0.00078945945 -0.00037096775
-0.0015917333 -0.00017162162 -0.0040116129
-0.00030479999 -0.0012013514 -3.3870969e-05
0.00037253334 -0.00127 -0.0020564515
-0.00091439998 -0.00024027027 -0.004213871
-0.00057573331 0.00085810811 -0.00010129032
-0.0022013334 0.00099540537 -0.0021238709
0.0013885334 0.00127 -0.0022587096
-0.0001016 -0.00127 -0.00118
0.0015917333 0.00010297298 -0.0051577417
-0.00098213332 -0.00017162162 -0.0069780643
0.00037253334 -0.00127 -0.0022587096
-0.00098213332 -0.00037756757 -0.00023612904
-0.0013208 0.0010640541 -0.002326129
-0.0014562666 0.00017162162 -0.0036070968
0.0018626667 0.00037756757 -0.00023612904
0.00098213332 0.00017162162 -0.0052251611
0.0024722666 0.00058351352 -0.0019890321
-0.001524 -0.00078945945 -0.0023935484
-0.0020658667 -0.0012013514 -0.0022587096
0.00077893335 0.00127 -0.0013148388
0.00077893335 -0.00099540537 -3.3870969e-05
0.0011176 0.00030891891 0.0010448387
0.00016933333 -0.00024027027 -0.0025283871
-0.00098213332 -0.00030891891 -0.0041464516
-0.0011853334 0.0004462162 -0.0025283871
0.0015917333 -0.0004462162 -0.00023612904
0.0010498667 -0.00017162162 -0.0044161291
-0.00254 0.0004462162 -0.0004383871
0.0015917333 0.00078945945 -0.00023612904
0.001524 -0.00024027027 -0.00016870968
0.00023706666 0.00127 -0.0018541935
0.0011853334 -0.0010640541 -0.00010129032
-0.0011853334 -0.00127 -0.00064064516
0.00254 0.00017162162 -0.0012474194
-0.0007112 -0.00127 -0.00016870968
0.00077893335 0.00127 -0.0012474194
0.0011176 -0.0012013514 -0.00070806453
0.0011176 0.00030891891 -0.0052251611
0.001524 0.00030891891 3.3548386e-05
0.0015917333 0.00024027027 0.0011122581
-0.0011176 -0.00030891891 0.0013145162
0.0014562666 0.00030891891 -0.0061690323
0.0017272 -0.00051486486 -0.0025283871
-0.0015917333 -3.4324323e-05 -0.0082590319
0.0015917333 0.00010297298 -0.0073151612
0.0015917333 3.4324323e-05 -0.0048206453
-0.0023368001 0.00010297298 -0.00023612904
-0.00098213332 0.00017162162 -0.007652258
-0.0012530667 -0.00017162162 0.0027303225
0.0023368001 -0.00085810811 -0.00030354838
0.0015917333 0.00024027027 -0.0060341936
-0.0016594667 0.00072081079 -0.00030354838
0.0013885334 0.0004462162 -0.00023612904
-0.00254 0.00037756757 -0.002326129
-0.0022690666 0.00037756757 -0.0023935484
-0.0019304 0.0012013514 -0.0011125806
-0.00091439998 -3.4324323e-05 -0.0083264513
0.0011176 -0.00010297298 0.0016516129
0.0024045333 0.00099540537 -0.0023935484
0.0018626667 0.00127 -0.0013148388
0.001524 0.00017162162 -0.0087983869
-0.00057573331 0.0012013514 -0.00010129032
0.00023706666 0.00127 -0.00064064516
0.00030479999 -0.00099540537 -0.0023935484
0.00091439998 -0.0012013514 -0.00057322579
0.0012530667 0.00127 -0.0017193549
-0.00077893335 -0.00127 -0.00064064516
0.00098213332 -0.00010297298 -0.0052925805
-0.0015917333 3.4324323e-05 -0.0081241932
0.0011853334 0.00030891891 -3.3870969e-05
-0.00254 0.00065216218 -0.0017193549
0.0011176 0.00030891891 0.0017864517
-0.00044026665 -0.0004462162 -0.00023612904
0.0015917333 3.4324323e-05 0.002056129
0.00084666669 0.00127 -0.0009777419
-0.00091439998 3.4324323e-05 0.002056129
-0.0023368001 0.00085810811 -3.3870969e-05
-0.0015917333 -0.00010297298 -0.0049554841
3.3866665e-05 0.00127 -0.0019890321
-0.00254 -0.00010297298 -0.0012474194
-0.0013885334 -0.00030891891 -0.002865484
0.00254 0.0004462162 -0.0023935484
0.00091439998 -0.00010297298 -0.0061690323
-0.0016594667 0.0012013514 -0.00016870968
0.00057573331 -0.00127 -0.00030354838
0.0022690666 0.00099540537 -0.0023935484
-0.0022013334 -0.0011327027 -0.0009777419
0.00098213332 0.00058351352 -0.0025283871
-0.0013208 -0.00030891891 0.0017864517
-0.00098213332 0.00010297298 -0.0046858066
-0.0015917333 -0.0012013514 -0.0023935484
0.0014562666 -3.4324323e-05 -0.0062364517
-0.00254 0.00078945945 -0.0004383871
-0.00091439998 -0.00030891891 0.00091
0.0015917333 3.4324323e-05 -0.0045509678
-0.00254 0.00024027027 -0.0004383871
-0.0017272 -0.00127 -0.00016870968
-0.0015917333 3.4324323e-05 0.00077516132
-0.00084666669 -0.00010297298 0.00043806451
-0.0019304 0.00051486486 -0.0023935484
-0.0024045333 -0.00085810811 -0.0020564515
0.0017949333 0.00127 -0.0022587096
-0.0015917333 -0.00024027027 0.0012470968
-0.00037253334 -0.00058351352 -0.00023612904
0.0015917333 -3.4324323e-05 0.0015167742
-0.00254 0.00065216218 -0.0021912903
-0.0011853334 -0.00030891891 0.00043806451
0.0011176 0.00030891891 -0.005562258
0.00254 -0.0004462162 -0.0023935484
-0.0016594667 0.0012013514 -0.0015845161
0.0019304 -0.00051486486 -0.0024609677
0.0019304 -0.00085810811 -0.00030354838
-0.0015917333 3.4324323e-05 0.0014493548
-0.0015917333 -0.00024027027 0.0016516129
0.00077893335 0.00127 -0.001382258
0.00091439998 0.00010297298 0.00050548388
-0.0013208 -0.00030891891 -0.0085961288
0.00091439998 -3.4324323e-05 0.00084258063
0.0021335999 -0.00017162162 -0.00016870968
-0.0011853334 -0.00127 -0.0015845161
-0.0023368001 -0.0010640541 -0.0010451613
0.00016933333 -0.00010297298 -0.0025283871
0.0019304 -0.0010640541 -0.0012474194
0.0011853334 0.00127 -0.0013148388
-0.0022690666 0.00099540537 -0.00016870968
0.001524 -3.4324323e-05 0.0023932259
-0.00037253334 -0.00127 -0.0023935484
0.0019304 0.00010297298 -3.3870969e-05
0.00044026665 -0.0010640541 -0.0023935484
-0.00091439998 0.00010297298 -0.0033374194
-0.0022013334 0.00078945945 -0.00023612904
0.00064346666 -0.0004462162 -0.00023612904
0.0015917333 0.00017162162 -0.0077870968
-0.00254 0.00010297298 -0.0018541935
-0.0011853334 0.00024027027 -0.0051577417
-0.00050800003 0.00127 -0.00084290322
0.0013885334 0.00127 -0.0010451613
0.00084666669 0.00127 -3.3870969e-05
-0.001524 -0.00099540537 -0.0024609677
0.00084666669 0.00030891891 -0.00010129032
-0.0014562666 3.4324323e-05 0.0025954838
0.0011853334 -0.0012013514 -0.0009777419
0.0013208 0.00030891891 -0.0048880647
-0.00254 0.00072081079 -0.0020564515
0.00030479999 -0.0012013514 -0.00010129032
0.0007112 0.0004462162 -0.00023612904
0.00064346666 -0.00065216218 -0.00037096775
-0.00091439998 -0.00024027027 -0.0039441935
-0.00091439998 -0.00024027027 0.0023258065
3.3866665e-05 -0.00085810811 -3.3870969e-05
0.0015917333 -0.0011327027 -0.0019890321
-0.0011176 0.00024027027 -0.0083938707
0.00254 -0.00037756757 -0.0009777419
-0.0017949333 0.0012013514 -0.0021238709
0.0013208 0.00127 -0.00077548384
0.0024722666 -0.00085810811 -0.00091032259
0.0010498667 0.00127 -0.0017193549
-0.0022690666 -0.0011327027 -0.0023935484
0.0013208 -0.00010297298 0.0011796774
0.00057573331 -0.00127 -0.00091032259
-0.0007112 0.00065216218 -0.0024609677
-0.0011853334 0.00024027027 0.00016838709
-0.00091439998 -0.00030891891 0.00037064517
-0.0014562666 -0.00072081079 -0.00037096775
-0.0010498667 -0.0010640541 -0.00010129032
-0.00091439998 -0.00030891891 -0.0063038711
-0.0024722666 -0.00058351352 -0.00084290322
0.00098213332 -3.4324323e-05 -0.0026632259
0.0024045333 -3.4324323e-05 -0.0024609677
0.0020658667 0.00030891891 -0.00010129032
0.00023706666 0.00127 -0.0021912903
0.00091439998 0.00030891891 0.00023580645
0.0013208 0.00099540537 -0.00016870968
-0.001524 0.00010297298 -0.0077196774
0.0012530667 0.00030891891 -0.0059667742
0.0010498667 -0.00017162162 -0.002865484
-0.00098213332 3.4324323e-05 -0.0052251611
-0.00098213332 -0.00017162162 -0.0065061292
0.00098213332 -3.4324323e-05 0.00077516132
-0.0013208 -0.00030891891 0.00064032257
0.0010498667 -0.00058351352 -0.0025283871
0.0015917333 0.00024027027 0.00084258063
0.0014562666 -0.0011327027 -0.0023935484
-0.0019981333 -0.0012013514 -0.0019890321
0.0011853334 0.00030891891 -0.0052925805
0.0022013334 -0.00099540537 -0.00057322579
-0.00254 0.00058351352 -0.00084290322
0.00037253334 -0.00051486486 -0.00023612904
0.001524 0.00030891891 -0.0048206453
-0.00091439998 -0.00024027027 0.00070774194
-0.00098213332 0.00017162162 0.0015841936
0.0016594667 -0.00058351352 -0.00037096775
0.0024045333 -0.00092675677 -0.0020564515
0.0023368001 -0.00010297298 -0.0024609677
-0.00084666669 0.00017162162 -0.0025283871
-0.0019304 0.0011327027 -0.00030354838
-0.00091439998 -0.00024027027 -0.0082590319
-0.00084666669 -0.00017162162 0.00097741932
-0.00050800003 -0.00127 -0.00057322579
0.0019981333 -0.0010640541 -0.0010451613
-0.0013885334 -0.00030891891 -0.0071803224
-0.00098213332 -3.4324323e-05 -0.0056970967
0.0015917333 0.00017162162 0.0013145162
-0.0022690666 -0.00085810811 -0.0023935484
-0.0019304 -0.00127 -0.00091032259
-0.00098213332 -0.00017162162 -0.0070454837
0.0017949333 -0.00058351352 -0.0024609677
-0.0020658667 0.00065216218 -0.0023935484
-0.0011176 -0.00127 -0.002326129
0.00050800003 0.00092675677 -0.00016870968
0.00030479999 -0.00024027027 -3.3870969e-05
-0.0023368001 0.00085810811 -0.00016870968
-0.0019981333 0.00078945945 -0.0023935484
0.0017272 0.0012013514 -3.3870969e-05
-0.0010498667 0.00017162162 -0.0086635482
0.0017272 -0.00099540537 -3.3870969e-05
0.0011176 0.00030891891 -0.0038093547
0.00091439998 -3.4324323e-05 0.0015841936
-0.0015917333 -0.00017162162 -0.0053599998
0.0001016 0.00099540537 -3.3870969e-05
-0.0010498667 -0.00127 -0.0020564515
0.00098213332 0.00010297298 -0.0087983869
0.0024722666 0.00058351352 -0.0023935484
0.00091439998 0.00078945945 -0.0025283871
-0.0011176 0.00024027027 -0.0063038711
-0.0019304 0.0012013514 -0.00057322579
-0.001524 0.00017162162 -0.0025958065
-0.00037253334 -0.00030891891 -0.00016870968
0.00254 -0.00037756757 -0.0015170968
-0.0024722666 -0.00065216218 -0.001382258
0.0020658667 -3.4324323e-05 -0.0024609677
-0.00254 -0.00024027027 -0.0011125806
0.0007112 -0.00127 -0.00037096775
0.0011176 0.00017162162 0.0025954838
-0.0018626667 -0.00085810811 -0.00030354838
-0.00084666669 -0.00127 -0.0012474194
0.00030479999 0.0012013514 -3.3870969e-05
0.00254 0.00017162162 -0.0017193549
0.00091439998 3.4324323e-05 -0.0069106449
0.00077893335 0.00127 -0.00057322579
0.0016594667 -0.0011327027 -0.00016870968
0.0019981333 0.00127 -0.00064064516
0.00030479999 -0.00065216218 -0.0025283871
0.00091439998 3.4324323e-05 -0.0082590319
-0.0010498667 -0.00127 -0.00030354838
-0.0017272 -0.0010640541 -0.00016870968
-0.0018626667 -0.00058351352 -0.0023935484
0.00254 -0.00010297298 -0.002326129
-0.00098213332 -3.4324323e-05 -0.0054274192
-0.0020658667 0.0011327027 -0.00084290322
0.0011176 0.00030891891 -0.0045509678
-0.00098213332 -0.00030891891 -0.0044835485
0.001524 -0.00078945945 -0.0023935484
0.0024722666 0.00051486486 -0.00037096775
-0.00064346666 -3.4324323e-05 -0.0025283871
-0.0019304 -0.00072081079 -0.00037096775
0.0019981333 -0.00085810811 -0.00016870968
0.0011176 0.00127 -0.0020564515
0.0010498667 0.00030891891 -0.00016870968
-0.00098213332 0.00017162162 0.0021909678
-0.00254 -0.00010297298 -0.0021912903
0.0011853334 0.00127 -0.00118
0.0013885334 0.00030891891 0.00077516132
0.00098213332 0.00127 -0.0009777419
0.0011176 -0.00010297298 -0.0062364517
-0.0011853334 0.00024027027 0.0021909678
-0.0013885334 0.00037756757 -0.00023612904
0.0015917333 0.00010297298 -0.0039441935
0.00044026665 0.00072081079 -0.0025283871
-0.00084666669 -0.00017162162 0.00077516132
0.0013885334 0.00030891891 -0.0052925805
0.00254 -0.00051486486 -0.0018541935
-0.00254 0.00024027027 -0.00057322579
-0.0021335999 0.0010640541 -0.00070806453
0.0012530667 -0.00085810811 -0.00030354838
-0.0013208 0.00024027027 -0.0050903228
0.0024045333 0.00085810811 -0.0021912903
-0.0013885334 -0.00127 -0.00084290322
0.0022013334 -0.00099540537 -0.001382258
0.0011853334 -0.00010297298 -0.0034048387
0.00037253334 -0.00127 -0.002326129
0.0021335999 0.0012013514 -0.00057322579
-0.0011176 0.00017162162 -0.0058993548
0.0015917333 0.00017162162 -0.0038767741
0.00254 0.00010297298 -0.00084290322
-0.0015917333 -3.4324323e-05 -0.0051577417
0.00091439998 0.00017162162 -0.0043487097
0.00098213332 -3.4324323e-05 -0.0046183872
-0.0018626667 0.0012013514 -0.00030354838
0.0014562666 0.00030891891 -0.0069780643
0.0017949333 -0.00092675677 -3.3870969e-05
0.0013885334 0.00058351352 -0.0025283871
-0.0016594667 -0.00030891891 -0.00016870968
-0.00098213332 -3.4324323e-05 -0.0078545157
-0.00064346666 -0.00051486486 -0.0025283871
-0.00254 -0.00030891891 -0.00023612904
0.0013208 -0.00010297298 -0.0082590319
-0.0015917333 -0.00010297298 -0.0069106449
-0.0022690666 0.00010297298 -0.00023612904
0.0014562666 -3.4324323e-05 0.0019212903
-0.0011853334 -0.00030891891 -0.0049554841
-0.0012530667 -0.00085810811 -0.00030354838
0.00254 0.00024027027 -0.00023612904
0.0013885334 -0.00030891891 -0.0025283871
0.0024722666 0.00051486486 -0.00118
-0.00091439998 -0.00065216218 -0.0024609677
0.0012530667 0.00030891891 -0.0031351612
0.00254 0.00024027027 -0.0004383871
0.00037253334 0.00127 -0.0020564515
-0.00057573331 -3.4324323e-05 -3.3870969e-05
0.0013885334 0.00030891891 -0.0029329031
-0.0024722666 0.00085810811 -0.0015170968
-0.00254 3.4324323e-05 -0.0017193549
-0.00091439998 -3.4324323e-05 -0.0034048387
0.0018626667 -0.0010640541 -0.00037096775
0.00057573331 -0.00099540537 -3.3870969e-05
0.00098213332 0.00051486486 -0.00023612904
-0.00091439998 -3.4324323e-05 0.00010096774
-0.001524 0.00017162162 0.0017190323
0.0021335999 0.00099540537 -0.0023935484
-0.0015917333 3.4324323e-05 0.0003032258
0.0019981333 -0.00099540537 -0.0023935484
0.0014562666 -3.4324323e-05 0.0025280644
-0.0015917333 -3.4324323e-05 -0.0034048387
0.0014562666 -3.4324323e-05 -0.0082590319
0.0010498667 0.00030891891 0.0011122581
0.00254 -0.00065216218 -0.0004383871
0.0015917333 -3.4324323e-05 -0.0032025806
-0.0022013334 -0.00078945945 -0.0023935484
0.00091439998 3.4324323e-05 -0.0067758067
0.0011853334 0.00030891891 0.0022583872
-0.001524 0.00017162162 -0.006843226
-0.0010498667 -0.00127 -0.00023612904
0.00016933333 -0.00092675677 -3.3870969e-05
-0.0019981333 0.00085810811 -0.00016870968
0.00254 0.00024027027 -0.0010451613
0.0013885334 0.00030891891 -0.0064387098
-0.0019304 0.00092675677 -3.3870969e-05
0.0013885334 3.4324323e-05 -0.0090680644
-0.001524 0.00010297298 -0.0040790322
-0.001524 0.00010297298 -0.0073825805
-0.0011176 0.0010640541 -0.00010129032
0.0015917333 -0.0011327027 -0.0015845161
0.0014562666 0.00127 -0.0021912903
-0.0015917333 -0.00010297298 -0.0079219351
-0.0014562666 0.00017162162 -0.0042812903
-0.0010498667 -0.00030891891 0.00050548388
0.0013885334 0.00024027027 -0.0089332256
-0.001524 0.00010297298 -0.0080567738
0.0019981333 -0.00072081079 -0.0023935484
-0.00037253334 0.00127 -0.0021238709
0.0013885334 -0.00010297298 -0.0064387098
0.0015917333 0.00017162162 -0.0037419356
-0.0011853334 -0.00085810811 -0.00023612904
0.00084666669 0.00127 -0.00077548384
-0.0022013334 0.0010640541 -0.00077548384
-0.0015917333 -3.4324323e-05 -0.0035396775
0.0001016 0.00058351352 -0.00037096775
-0.00077893335 0.00024027027 -0.0025283871
0.0011176 0.00051486486 -0.00023612904
0.0022013334 -0.00099540537 -0.0013148388
-0.0007112 -0.0004462162 -0.0025283871
-0.00057573331 -0.00127 -0.0017193549
-0.0018626667 -0.00037756757 -0.00023612904
0.0011176 -0.00010297298 -0.0056970967
0.0022013334 -0.00051486486 -0.0023935484
-0.0015917333 -0.00024027027 -0.0069106449
-0.0013208 0.00024027027 -0.0051577417
0.00091439998 0.00010297298 -0.0040790322
-0.00064346666 -0.00037756757 -0.00023612904
-0.00091439998 0.00037756757 -0.00023612904
-0.0015917333 3.4324323e-05 -0.0069780643
-0.0024722666 -0.00058351352 -0.002326129
0.0012530667 0.00030891891 -0.0056970967
-0.0013208 0.00024027027 0.0003032258
-0.00030479999 0.00127 -0.00091032259
0.00254 -0.00065216218 -0.0015845161
0.0011176 -0.00010297298 -0.0053599998
0.0017949333 0.00030891891 -0.0025283871
0.0020658667 -0.00085810811 -0.00016870968
-0.0013208 -0.00030891891 -0.0085287094
0.0019304 0.0011327027 -0.0024609677
-0.00098213332 -0.00030891891 -0.0067083873
0.00098213332 0.00030891891 -0.0048206453
-0.0012530667 -0.00072081079 -0.0023935484
0.0012530667 0.00030891891 -0.004213871
0.00254 -0.0004462162 -0.00064064516
-0.0022013334 -0.0011327027 -0.00064064516
0.0012530667 -0.00010297298 0.0017864517
3.3866665e-05 -0.0012013514 -0.0023935484
-0.00023706666 0.00127 -0.0020564515
0.0015917333 0.00010297298 0.0015167742
-0.0012530667 -0.00037756757 -0.00023612904
-0.0016594667 -0.00085810811 -0.00016870968
-0.0011176 0.00024027027 -0.0052251611
-0.0012530667 -0.00085810811 -0.00016870968
0.0011853334 -0.00010297298 -0.0040116129
0.0012530667 -0.00051486486 -0.00030354838
-0.0017949333 0.00065216218 -0.0023935484
-0.00254 -0.0004462162 -0.00050580647
0.0024045333 0.00099540537 -0.00070806453
-0.0010498667 -0.00030891891 -0.0030003225
0.0007112 0.00078945945 -0.0024609677
0.0001016 -0.00030891891 -0.0025283871
-0.0020658667 -0.0010640541 -0.0023935484
0.00098213332 -0.00010297298 0.0019887097
-0.00050800003 3.4324323e-05 -3.3870969e-05
-0.00064346666 -0.00127 -0.00023612904
-0.0014562666 -0.00030891891 0.00043806451
0.0024045333 0.0010640541 -0.0019216129
-0.00016933333 -0.00017162162 -0.0025283871
-0.0024722666 -0.0004462162 -0.00030354838
0.0024045333 -0.00092675677 -0.0009777419
-0.0015917333 3.4324323e-05 -0.0031351612
0.0012530667 -0.00010297298 0.0022583872
-0.0013208 -0.00030891891 -0.0077196774
0.0001016 -0.00127 -0.0019890321
-0.0015917333 -0.00085810811 -0.00023612904
0.00064346666 -0.00078945945 -0.0023935484
0.00016933333 0.00127 -0.0013148388
0.0022013334 -0.00099540537 -0.00084290322
0.0019304 -0.00065216218 -0.0024609677
-0.00091439998 -3.4324323e-05 -0.0030677419
0.0017272 -0.00092675677 -3.3870969e-05
-0.0010498667 -0.00030891891 -0.0038767741
0.0014562666 0.00030891891 0.0014493548
-0.0010498667 0.00024027027 3.3548386e-05
-0.0013885334 0.00017162162 -0.0039441935
0.00016933333 0.00127 -0.0017193549
0.0011853334 0.00030891891 -0.00016870968
-0.00254 -0.00037756757 -0.0009777419
0.0010498667 0.00030891891 -0.0052925805
0.00091439998 0.00024027027 -0.0026632259
-0.0022690666 -0.00085810811 -0.00016870968
-0.001524 0.00058351352 -0.00023612904
-0.0011853334 -0.00030891891 -0.0083938707
0.0015917333 0.0011327027 -3.3870969e-05
