# .PCD v0.7 - Point Cloud Data file format
VERSION 0.7
FIELDS x y z
SIZE 4 4 4
TYPE F F F
COUNT 1 1 1
WIDTH 1216
HEIGHT 1
VIEWPOINT 0 0 0 1 0 0 0
POINTS 1216
DATA ascii
0.018472727 0.00054428569 -0.001823077
0.001124427 -0.00054428569 -0.0021446154
-0.011404902 0.00018142856 -0.0056815385
-0.011404902 0.00090714288 -0.001823077
0.0085135177 0.00127 -0.0024661538
0.025540555 -0.00090714288 -0.00118
-0.016223874 0.00018142856 -0.0024661538
-0.031965852 0.00054428569 -0.00085846154
0.026504349 -0.00127 -0.0021446154
-0.034535971 -0.00090714288 -0.00118
0.0030520158 0.00127 -0.00053692306
0.038069881 0.00018142856 -0.00053692306
-0.020400317 0.00018142856 -0.00118
0.031965852 0.00018142856 0.0023569232
0.035178497 -0.00127 -0.0015015384
0.020721581 -0.00018142856 -0.00021538461
0.0091560474 -0.00090714288 -0.0024661538
0.035499763 0.00054428569 -0.00085846154
0.0027307512 0.00054428569 -0.001823077
-0.023612965 0.00054428569 -0.0021446154
0.014296285 -0.00127 -0.00021538461
-0.011404902 -0.00054428569 -0.00085846154
0.0065859291 -0.00018142856 -0.006646154
-0.029395731 0.00054428569 -0.0024661538
-0.034214705 0.00127 -0.0021446154
-0.036142293 -0.00018142856 -0.00053692306
0.019115258 0.00127 -0.001823077
0.008834783 -0.00127 -0.00118
0.034535971 -0.00090714288 -0.00118
0.018151462 -0.00054428569 -0.00118
0.0036945455 -0.00127 -0.0015015384
-0.034857236 -0.00018142856 -0.001823077
0.0059433994 -0.00018142856 -0.0021446154
0.034214705 -0.00018142856 -0.0024661538
0.00080316205 -0.00054428569 -0.0021446154
-0.032608379 -0.00018142856 -0.001823077
0.0014456917 -0.00018142856 -0.006646154
0.0030520158 0.00018142856 -0.00085846154
0.037427355 -0.00090714288 -0.001823077
0.018793993 -0.00018142856 -0.0043953848
-0.021364111 0.00018142856 -0.007610769
-0.02200664 -0.00127 -0.0015015384
-0.034214705 -0.00127 -0.001823077
-0.037106089 0.00127 -0.0021446154
0.022649171 -0.00127 -0.00053692306
0.019115258 0.00018142856 0.00010615385
0.02521929 0.00090714288 -0.00053692306
-0.008834783 -0.00018142856 -0.0034307693
-0.00465834 -0.00090714288 -0.00021538461
-0.019115258 -0.00018142856 -0.0037523077
0.01526008 -0.00018142856 -0.00085846154
0.0232917 -0.00054428569 -0.0024661538
-0.024576759 0.00018142856 -0.0024661538
-0.030359527 0.00054428569 -0.0021446154
-0.029716996 -0.00090714288 -0.0015015384
0.031644586 -0.00018142856 -0.0024661538
-0.016545139 0.00018142856 -0.0072892308
-0.03999747 -0.00127 -0.00085846154
0.0036945455 -0.00018142856 -0.0082538463
-0.022970436 -0.00054428569 -0.00118
0.021685377 0.00018142856 -0.0015015384
-0.0097985771 -0.00090714288 -0.0021446154
0.039354943 -0.00090714288 -0.0021446154
-0.01397502 0.00018142856 -0.0024661538
0.02521929 -0.00054428569 -0.001823077
0.0049796049 -0.00090714288 -0.00021538461
-0.0017669565 0.00090714288 -0.00118
-0.0059433994 0.00127 -0.0021446154
0.0043370752 -0.00090714288 -0.00053692306
0.011726166 -0.00127 -0.00021538461
-0.011083636 -0.00127 -0.00118
0.033572175 -0.00018142856 -0.00085846154
-0.010762372 0.00018142856 -0.00053692306
0.038712412 0.00054428569 -0.00053692306
0.013011225 0.00054428569 -0.00118
0.036784824 -0.00018142856 -0.0053599998
-0.0053008697 -0.00090714288 -0.001823077
0.0036945455 0.00018142856 -0.0053599998
0.0040158103 0.00090714288 -0.00118
0.034535971 0.00127 -0.0015015384
0.034535971 -0.00018142856 -0.0037523077
-0.0094773127 0.00054428569 -0.001823077
0.019436521 -0.00018142856 -0.0024661538
-0.016223874 -0.00018142856 -0.00021538461
0.019115258 0.00018142856 0.00042769231
0.02521929 -0.00018142856 -0.00085846154
0.028110672 -0.00054428569 -0.0015015384
0.021364111 0.00127 -0.0021446154
0.021364111 0.00054428569 -0.0024661538
0.036463559 -0.00018142856 -0.00085846154
-0.033572175 -0.00090714288 -0.0015015384
-0.037748616 0.00018142856 -0.0015015384
-0.029716996 0.00127 -0.00085846154
0.0030520158 -0.00090714288 -0.0015015384
-0.020721581 -0.00127 -0.0024661538
-0.0014456917 0.00018142856 -0.0021446154
-0.0036945455 0.00018142856 -0.004716923
0.014938815 0.00090714288 -0.001823077
0.018793993 -0.00018142856 -0.006646154
-0.0053008697 0.00054428569 -0.0015015384
-0.03999747 0.00054428569 -0.00118
0.0043370752 -0.00018142856 -0.00021538461
-0.029074468 0.00018142856 -0.00085846154
-0.0069071939 0.00018142856 -0.001823077
-0.0053008697 0.00018142856 -0.00021538461
0.031644586 -0.00018142856 0.0020353845
-0.0091560474 0.00090714288 -0.00053692306
-0.021042846 0.00127 -0.001823077
-0.021042846 0.00127 -0.00085846154
-0.014938815 -0.00127 -0.00053692306
-0.0081922533 -0.00090714288 -0.0024661538
0.01526008 0.00054428569 -0.0015015384
0.0072284588 -0.00127 -0.0015015384
-0.018472727 -0.00018142856 -0.00118
-0.033250909 -0.00127 -0.00118
-0.033250909 0.00090714288 -0.0015015384
0.029074468 0.00018142856 0.0017138461
-0.007870988 0.00090714288 -0.00085846154
0.035178497 -0.00090714288 -0.001823077
0.0020882215 0.00090714288 -0.00053692306
0.019115258 -0.00018142856 -0.004716923
0.021364111 0.00018142856 -0.00021538461
-0.0059433994 -0.00127 -0.00118
-0.007870988 0.00018142856 -0.0021446154
0.034214705 -0.00127 -0.00118
0.036784824 0.00127 -0.001823077
-0.02521929 0.00090714288 -0.0024661538
-0.022327906 -0.00054428569 -0.00053692306
0.037106089 0.00018142856 -0.00021538461
-0.0036945455 0.00018142856 0.0013923077
-0.011726166 0.00127 -0.0024661538
0.008834783 0.00018142856 -0.0050384616
0.037106089 -0.00090714288 -0.0021446154
-0.022970436 0.00127 -0.001823077
-0.029074468 -0.00018142856 -0.0063246153
-0.027146878 0.00127 -0.001823077
-0.034214705 0.00018142856 -0.00085846154
-0.037427355 -0.00054428569 -0.0021446154
0.036463559 -0.00127 -0.0021446154
-0.020079052 -0.00018142856 -0.001823077
0.038069881 0.00054428569 -0.00053692306
-0.029716996 -0.00018142856 -0.0021446154
0.00465834 -0.00090714288 -0.00053692306
-0.036784824 0.00018142856 0.00042769231
-0.027789408 -0.00090714288 -0.0015015384
0.037427355 -0.00127 -0.0021446154
0.023612965 0.00090714288 -0.0021446154
0.028110672 0.00127 -0.00053692306
-0.019115258 -0.00018142856 -0.0085753845
-0.0033732806 0.00018142856 -0.0015015384
0.031644586 -0.00018142856 -0.0027876922
0.0053008697 0.00054428569 -0.00053692306
0.0094773127 0.00018142856 -0.00085846154
-0.026825614 -0.00127 -0.00053692306
-0.027789408 -0.00090714288 -0.001823077
-0.029074468 -0.00018142856 0.0013923077
0.00048189724 0.00018142856 -0.0021446154
0.0036945455 0.00127 -0.00021538461
-0.021685377 -0.00018142856 -0.0085753845
-0.038069881 0.00127 -0.001823077
-0.026825614 0.00018142856 -0.006646154
-0.040318735 0.00054428569 -0.00053692306
0.00080316205 -0.00018142856 -0.00021538461
-0.0065859291 0.00018142856 0.00042769231
0.029716996 -0.00054428569 -0.00021538461
0.018151462 -0.00018142856 -0.00053692306
0.014296285 0.00054428569 -0.0015015384
-0.032608379 0.00090714288 -0.00053692306
0.0053008697 -0.00018142856 -0.00085846154
-0.024576759 -0.00127 -0.00118
0.037748616 0.00090714288 -0.00021538461
-0.0030520158 0.00090714288 -0.0021446154
0.016866403 -0.00090714288 -0.0015015384
0.0075497236 -0.00090714288 -0.0021446154
-0.013011225 0.00090714288 -0.0024661538
-0.0040158103 0.00054428569 -0.0024661538
-0.0014456917 0.00018142856 0.0013923077
-0.024255496 0.00054428569 -0.00053692306
0.028110672 -0.00018142856 -0.0021446154
0.024255496 0.00090714288 -0.00085846154
0.0036945455 0.00054428569 -0.00053692306
-0.026825614 -0.00018142856 -0.006646154
0.015581344 -0.00090714288 -0.0021446154
0.001124427 0.00018142856 0.00074923079
0.029395731 -0.00018142856 -0.001823077
-0.03999747 0.00018142856 -0.0021446154
-0.0081922533 0.00127 -0.001823077
-0.016545139 -0.00018142856 -0.0060030771
0.033250909 -0.00127 -0.00118
-0.016866403 -0.00127 -0.0024661538
-0.033250909 -0.00018142856 -0.00021538461
-0.00080316205 0.00054428569 -0.00118
-0.001124427 -0.00018142856 -0.0063246153
0.0040158103 0.00127 -0.001823077
-0.024898024 0.00018142856 -0.0015015384
0.0097985771 0.00090714288 -0.00118
-0.011404902 -0.00054428569 -0.001823077
-0.040318735 0.00018142856 -0.0015015384
0.011083636 -0.00127 -0.001823077
-0.019115258 -0.00018142856 0.0023569232
-0.0014456917 -0.00090714288 -0.0015015384
-0.0091560474 -0.00018142856 -0.0085753845
-0.016866403 -0.00054428569 -0.0015015384
-0.0040158103 0.00018142856 -0.00085846154
-0.027468143 0.00127 -0.001823077
0.016545139 0.00018142856 0.0017138461
0.017187668 -0.00054428569 -0.00053692306
-0.0030520158 -0.00054428569 -0.0021446154
0.027789408 0.00054428569 -0.0015015384
0.0043370752 -0.00127 -0.0015015384
-0.036784824 -0.00090714288 -0.0015015384
-0.001124427 0.00054428569 -0.001823077
-0.026504349 0.00018142856 0.0013923077
0.018151462 0.00054428569 -0.0021446154
-0.0062646642 0.00090714288 -0.0015015384
0.021364111 0.00090714288 -0.00085846154
0.019115258 0.00018142856 -0.0085753845
0.007870988 -0.00127 -0.00053692306
-0.035499763 0.00090714288 -0.00118
-0.011726166 0.00054428569 -0.0024661538
0.032929644 -0.00127 -0.00021538461
-0.036463559 0.00018142856 -0.001823077
-0.00048189724 -0.00090714288 -0.00053692306
-0.020400317 0.00127 -0.0015015384
0.0027307512 0.00127 -0.00053692306
0.0024094863 -0.00127 -0.001823077
0.034535971 0.00090714288 -0.0021446154
-0.0069071939 -0.00054428569 -0.001823077
-0.031644586 0.00054428569 -0.0024661538
0.024576759 -0.00054428569 -0.0021446154
0.0043370752 0.00127 -0.00118
0.0081922533 0.00054428569 -0.0015015384
-0.029074468 0.00018142856 -0.00021538461
0.025540555 0.00054428569 -0.001823077
-0.031965852 -0.00018142856 0.0020353845
-0.036142293 -0.00018142856 -0.0021446154
0.012047431 0.00090714288 -0.0015015384
0.038391147 0.00018142856 -0.00021538461
-0.024255496 -0.00018142856 -0.0085753845
-0.012689961 -0.00090714288 -0.00085846154
0.026183084 -0.00054428569 -0.0021446154
-0.026183084 -0.00090714288 -0.00053692306
-0.039354943 -0.00054428569 -0.00118
-0.012368696 0.00054428569 -0.0015015384
-0.0017669565 0.00090714288 -0.0015015384
-0.0027307512 0.00127 -0.001823077
0.0014456917 -0.00018142856 -0.0085753845
0.030359527 -0.00054428569 -0.00085846154
0.016866403 -0.00018142856 -0.00053692306
-0.017830199 0.00127 -0.00118
0.0075497236 0.00127 -0.00118
-0.0059433994 -0.00018142856 -0.0021446154
-0.017830199 -0.00018142856 -0.00053692306
-0.015581344 -0.00054428569 -0.00053692306
0.027468143 0.00127 -0.0021446154
0.016545139 0.00018142856 -0.0053599998
-0.007870988 0.00127 -0.00118
-0.016223874 -0.00018142856 -0.0021446154
-0.011083636 0.00018142856 -0.0024661538
0.038712412 -0.00054428569 -0.00053692306
-0.0049796049 0.00127 -0.0021446154
-0.0097985771 -0.00018142856 -0.0024661538
0.021364111 -0.00018142856 -0.0024661538
0.039033677 0.00018142856 -0.001823077
-0.036463559 -0.00127 -0.0021446154
-0.010762372 -0.00090714288 -0.0024661538
0.030359527 -0.00018142856 -0.001823077
0.011083636 -0.00090714288 -0.00053692306
-0.03999747 0.00090714288 -0.00053692306
0.018151462 0.00018142856 -0.0021446154
-0.034857236 -0.00054428569 -0.0021446154
-0.030680791 0.00127 -0.00118
-0.026825614 0.00018142856 -0.0037523077
-0.010441107 0.00054428569 -0.0021446154
-0.021685377 0.00018142856 -0.0060030771
-0.029074468 -0.00018142856 -0.0085753845
-0.0036945455 0.00018142856 -0.00118
0.02393423 0.00054428569 -0.00085846154
-0.02521929 0.00018142856 -0.0015015384
0.016223874 0.00054428569 -0.00085846154
0.029395731 0.00018142856 -0.00053692306
-0.0075497236 0.00054428569 -0.0015015384
0.021042846 -0.00018142856 -0.00118
-0.011404902 0.00018142856 -0.00118
-0.032929644 -0.00090714288 -0.00118
-0.019757787 -0.00018142856 -0.00085846154
0.0075497236 -0.00090714288 -0.00053692306
0.012047431 -0.00127 -0.00021538461
-0.0024094863 -0.00090714288 -0.0015015384
-0.024576759 -0.00090714288 -0.00021538461
0.038069881 0.00018142856 -0.00118
-0.0014456917 0.00018142856 0.00010615385
0.0069071939 0.00054428569 -0.0021446154
0.024898024 -0.00127 -0.001823077
-0.03999747 0.00018142856 -0.00053692306
0.021364111 -0.00018142856 -0.004716923
-0.011083636 -0.00090714288 -0.00085846154
0.02200664 0.00090714288 -0.00021538461
-0.029395731 -0.00018142856 -0.0069676922
0.007870988 -0.00127 -0.00118
0.031323321 0.00090714288 -0.00021538461
-0.016866403 -0.00018142856 -0.0015015384
-0.010119842 0.00054428569 -0.00053692306
-0.008834783 0.00018142856 -0.0079323081
0.038069881 0.00054428569 -0.00118
-0.018793993 0.00054428569 -0.00053692306
0.011726166 0.00018142856 -0.00021538461
0.039354943 -0.00127 -0.00021538461
-0.015581344 0.00090714288 -0.0021446154
0.012368696 -0.00127 -0.0021446154
-0.013653755 -0.00090714288 -0.00118
-0.037106089 0.00090714288 -0.00053692306
-0.0014456917 -0.00018142856 -0.0040738462
0.0040158103 0.00018142856 0.0017138461
-0.029395731 0.00054428569 -0.0015015384
0.024255496 0.00018142856 0.0013923077
0.026825614 0.00018142856 -0.0031092307
-0.011083636 0.00054428569 -0.00118
-0.0091560474 -0.00018142856 -0.0082538463
0.0069071939 0.00090714288 -0.0021446154
0.028110672 -0.00018142856 -0.0015015384
-0.0091560474 -0.00018142856 -0.0024661538
0.021685377 -0.00018142856 -0.0085753845
-0.001124427 -0.00018142856 -0.0034307693
0.022327906 -0.00127 -0.00085846154
-0.019436521 -0.00054428569 -0.00053692306
0.0065859291 -0.00127 -0.00085846154
-0.035821028 -0.00127 -0.0015015384
-0.035499763 -0.00127 -0.00021538461
0.019115258 0.00127 -0.00021538461
0.013653755 -0.00018142856 -0.0024661538
0.0069071939 -0.00090714288 -0.00021538461
0.028431937 -0.00018142856 -0.0021446154
-0.0097985771 0.00090714288 -0.0021446154
0.03389344 0.00018142856 -0.00053692306
0.030359527 -0.00054428569 -0.0021446154
0.020079052 -0.00054428569 -0.0015015384
-0.011083636 0.00018142856 -0.00053692306
0.026183084 0.00054428569 -0.00118
0.001124427 -0.00127 -0.00085846154
0.026504349 0.00018142856 -0.0024661538
0.012368696 0.00127 -0.0024661538
0.021364111 0.00054428569 -0.0021446154
-0.0030520158 0.00127 -0.00118
-0.014296285 0.00054428569 -0.00118
0.028431937 0.00127 -0.00053692306
-0.034535971 0.00018142856 -0.00053692306
0.015581344 -0.00127 -0.0021446154
0.0069071939 0.00018142856 -0.00053692306
0.025861818 -0.00090714288 -0.00118
0.029395731 0.00127 -0.00021538461
0.032287117 0.00054428569 -0.001823077
-0.032929644 -0.00054428569 -0.001823077
0.0075497236 -0.00127 -0.00021538461
-0.0033732806 0.00090714288 -0.001823077
-0.011083636 -0.00090714288 -0.0021446154
-0.026504349 0.00054428569 -0.0024661538
-0.017187668 -0.00127 -0.00085846154
0.037106089 -0.00054428569 -0.00053692306
-0.017187668 -0.00090714288 -0.00021538461
0.028110672 -0.00090714288 -0.00118
-0.021685377 -0.00018142856 0.0010707693
-0.016545139 -0.00018142856 -0.0072892308
-0.037748616 0.00018142856 -0.00021538461
0.012689961 -0.00090714288 -0.00118
-0.025540555 0.00127 -0.0021446154
-0.019436521 -0.00090714288 -0.0015015384
0.033250909 0.00090714288 -0.0021446154
-0.032929644 0.00127 -0.0021446154
0.00465834 0.00090714288 -0.00021538461
0.016223874 -0.00018142856 -0.0037523077
-0.0062646642 0.00090714288 -0.00021538461
0.037106089 -0.00018142856 0.00010615385
0.033250909 0.00054428569 -0.001823077
-0.01397502 -0.00127 -0.0015015384
-0.034214705 -0.00018142856 -0.00118
0.00080316205 -0.00018142856 -0.0021446154
-0.031323321 0.00127 -0.00053692306
-0.014296285 0.00090714288 -0.00053692306
-0.0036945455 -0.00018142856 -0.004716923
-0.0056221345 0.00054428569 -0.00053692306
0.026504349 0.00018142856 -0.007610769
-0.031644586 0.00127 -0.001823077
-0.0033732806 -0.00090714288 -0.001823077
0.027789408 0.00090714288 -0.001823077
0.019115258 0.00018142856 -0.007610769
-0.022649171 0.00090714288 -0.00118
0.026504349 -0.00018142856 0.00074923079
0.012368696 -0.00127 -0.00118
0.0075497236 0.00054428569 -0.0015015384
0.026825614 0.00018142856 0.00010615385
0.040318735 0.00054428569 -0.00118
-0.029395731 -0.00018142856 0.00042769231
0.021685377 -0.00018142856 0.0013923077
-0.032929644 -0.00054428569 -0.0015015384
0.012047431 -0.00090714288 -0.0015015384
0.01397502 0.00018142856 -0.0027876922
-0.031002056 -0.00127 -0.001823077
0.011083636 0.00090714288 -0.00021538461
-0.0075497236 -0.00127 -0.00021538461
0.031965852 -0.00127 -0.0021446154
0.035178497 0.00127 -0.001823077
0.022327906 0.00018142856 -0.00085846154
-0.040318735 -0.00090714288 -0.00118
0.036784824 -0.00018142856 -0.0056815385
0.033250909 -0.00127 -0.00085846154
0.0097985771 0.00018142856 -0.001823077
-0.034535971 -0.00054428569 -0.001823077
0.001124427 0.00018142856 -0.0027876922
-0.02393423 0.00018142856 -0.0040738462
-0.020079052 0.00090714288 -0.00021538461
0.036142293 -0.00090714288 -0.00053692306
0.00465834 -0.00127 -0.00118
0.029716996 -0.00054428569 -0.0021446154
-0.021685377 0.00090714288 -0.0024661538
-0.019115258 0.00127 -0.0021446154
-0.022649171 0.00090714288 -0.0015015384
-0.010119842 0.00018142856 -0.0015015384
0.001124427 0.00054428569 -0.00118
0.0072284588 0.00127 -0.00118
0.021685377 0.00018142856 -0.0060030771
0.019757787 0.00090714288 -0.0021446154
0.024898024 -0.00054428569 -0.0015015384
-0.012689961 0.00054428569 -0.00053692306
0.0062646642 -0.00018142856 -0.00118
0.027146878 0.00090714288 -0.00053692306
-0.008834783 0.00018142856 -0.0034307693
-0.0030520158 0.00018142856 -0.0021446154
0.038069881 0.00018142856 -0.00021538461
-0.026825614 0.00127 -0.0021446154
-0.026183084 0.00018142856 -0.00053692306
-0.010119842 -0.00018142856 -0.00021538461
-0.01397502 0.00018142856 -0.0031092307
0.020079052 -0.00090714288 -0.00053692306
0.010441107 -0.00090714288 -0.0015015384
-0.0072284588 0.00090714288 -0.00021538461
-0.02393423 -0.00127 -0.00053692306
-0.035178497 -0.00090714288 -0.00021538461
0.007870988 0.00127 -0.0015015384
-0.0014456917 0.00018142856 0.0020353845
0.0036945455 0.00018142856 -0.0088969227
0.021042846 0.00127 -0.00021538461
0.031965852 -0.00090714288 -0.00053692306
-0.028110672 -0.00127 -0.0024661538
-0.001124427 -0.00018142856 -0.0069676922
0.017187668 -0.00018142856 -0.0021446154
0.031323321 -0.00018142856 -0.00053692306
0.038391147 0.00090714288 -0.0015015384
-0.0020882215 0.00127 -0.00053692306
0.0072284588 0.00127 -0.0015015384
0.020721581 0.00090714288 -0.00053692306
-0.0091560474 -0.00018142856 -0.00021538461
-0.02393423 0.00054428569 -0.00118
0.023612965 -0.00127 -0.00021538461
-0.024898024 0.00090714288 -0.00021538461
0.023612965 -0.00090714288 -0.00085846154
0.019436521 0.00018142856 -0.00021538461
0.0014456917 -0.00018142856 0.00010615385
-0.0027307512 0.00127 -0.0024661538
-0.01461755 0.00054428569 -0.0024661538
-0.008834783 -0.00127 -0.001823077
0.0065859291 -0.00018142856 -0.0088969227
-0.030680791 0.00127 -0.00053692306
0.0043370752 -0.00127 -0.00053692306
0.031965852 -0.00018142856 -0.0082538463
-0.038069881 0.00054428569 -0.00085846154
0.0075497236 0.00127 -0.0021446154
-0.011404902 -0.00018142856 -0.0037523077
-0.030359527 -0.00018142856 -0.00053692306
-0.0065859291 -0.00018142856 -0.0088969227
0.021364111 0.00018142856 -0.0031092307
0.020079052 -0.00090714288 -0.00085846154
-0.036784824 0.00018142856 -0.0063246153
-0.0027307512 -0.00127 -0.00053692306
0.012689961 0.00054428569 -0.0015015384
-0.007870988 -0.00090714288 -0.00085846154
0.012689961 -0.00127 -0.0021446154
0.019115258 0.00018142856 0.0017138461
-0.029074468 0.00018142856 -0.0085753845
0.020721581 -0.00054428569 -0.001823077
0.017830199 0.00127 -0.00085846154
0.021042846 0.00054428569 -0.00118
-0.039033677 0.00090714288 -0.00053692306
0.00016063242 -0.00054428569 -0.00053692306
-0.016545139 0.00090714288 -0.001823077
-0.037748616 -0.00018142856 -0.0021446154
0.0014456917 0.00018142856 -0.0069676922
-0.034535971 -0.00090714288 -0.00053692306
-0.029716996 0.00018142856 -0.001823077
0.039354943 0.00127 -0.00085846154
-0.0065859291 -0.00090714288 -0.00118
-0.016866403 -0.00127 -0.00118
0.024255496 0.00018142856 -0.0088969227
0.020400317 -0.00090714288 -0.00021538461
0.03389344 -0.00090714288 -0.00053692306
-0.008834783 0.00018142856 -0.0031092307
0.0072284588 0.00090714288 -0.0024661538
0.017508933 0.00090714288 -0.00118
-0.035178497 -0.00018142856 -0.00053692306
-0.0040158103 0.00054428569 -0.001823077
0.035821028 0.00127 -0.00085846154
0.028753202 0.00018142856 -0.0015015384
-0.0081922533 -0.00018142856 -0.00021538461
0.02393423 -0.00054428569 -0.00085846154
0.01526008 0.00054428569 -0.0024661538
0.039033677 0.00127 -0.00053692306
0.034214705 -0.00018142856 0.0010707693
0.01461755 -0.00018142856 -0.0021446154
-0.019115258 0.00018142856 0.0023569232
-0.0081922533 -0.00018142856 -0.0015015384
-0.036784824 -0.00054428569 -0.00085846154
-0.019757787 -0.00127 -0.00118
0.028753202 0.00127 -0.0015015384
-0.025540555 -0.00127 -0.00021538461
-0.00048189724 0.00090714288 -0.00021538461
0.028110672 0.00127 -0.0024661538
0.024255496 0.00018142856 0.0010707693
-0.012368696 0.00090714288 -0.0024661538
-0.013653755 -0.00018142856 -0.00021538461
-0.021685377 -0.00054428569 -0.0015015384
0.039354943 -0.00054428569 -0.0015015384
-0.0072284588 0.00018142856 -0.0024661538
-0.03999747 -0.00054428569 -0.0015015384
0.00016063242 0.00018142856 -0.0024661538
0.017508933 0.00018142856 -0.00053692306
-0.024576759 -0.00054428569 -0.00053692306
0.019115258 -0.00018142856 -0.0037523077
0.032287117 -0.00127 -0.001823077
0.0053008697 -0.00054428569 -0.001823077
0.032608379 0.00127 -0.0024661538
0.031644586 0.00018142856 -0.00118
-0.001124427 0.00018142856 -0.0063246153
-0.034214705 -0.00018142856 -0.0031092307
0.021042846 -0.00054428569 -0.00021538461
0.021685377 0.00127 -0.0015015384
-0.031002056 -0.00127 -0.00118
0.026825614 -0.00018142856 0.0013923077
0.020721581 0.00090714288 -0.00021538461
-0.0062646642 0.00090714288 -0.00118
-0.028431937 -0.00018142856 -0.0015015384
0.013011225 -0.00018142856 -0.001823077
0.0062646642 -0.00018142856 0.0023569232
0.010762372 -0.00127 -0.00085846154
0.0056221345 0.00054428569 -0.00085846154
0.0056221345 0.00127 -0.00021538461
0.0059433994 0.00018142856 -0.00118
0.031644586 0.00054428569 -0.0024661538
-0.012047431 -0.00018142856 -0.001823077
-0.032929644 0.00018142856 -0.0015015384
0.019115258 0.00018142856 -0.00085846154
-0.031644586 0.00018142856 0.00074923079
0.031965852 0.00018142856 -0.00085846154
0.011404902 -0.00054428569 -0.0024661538
-0.017508933 -0.00090714288 -0.0024661538
-0.036142293 -0.00127 -0.00021538461
-0.0065859291 0.00127 -0.00053692306
0.00048189724 -0.00127 -0.00118
-0.01397502 0.00018142856 -0.007610769
-0.019115258 0.00018142856 -0.00053692306
0.022649171 -0.00090714288 -0.001823077
0.010762372 -0.00054428569 -0.00085846154
-0.033250909 -0.00090714288 -0.0024661538
-0.0040158103 -0.00018142856 -0.0050384616
0.0027307512 0.00127 -0.0015015384
0.020721581 0.00054428569 -0.00053692306
0.030680791 -0.00054428569 -0.001823077
-0.029716996 -0.00127 -0.0021446154
-0.014296285 -0.00018142856 -0.0015015384
0.016545139 -0.00127 -0.001823077
-0.0056221345 0.00127 -0.001823077
-0.034214705 -0.00127 -0.0021446154
-0.0069071939 -0.00127 -0.0021446154
-0.011726166 0.00090714288 -0.0021446154
0.0020882215 0.00018142856 -0.00085846154
-0.0040158103 -0.00018142856 0.00010615385
-0.031644586 -0.00090714288 -0.0015015384
-0.038069881 0.00127 -0.00021538461
-0.0056221345 -0.00127 -0.001823077
-0.0091560474 -0.00127 -0.0024661538
0.0020882215 -0.00090714288 -0.0024661538
-0.001124427 0.00018142856 -0.0015015384
-0.038069881 -0.00018142856 -0.001823077
-0.0056221345 0.00090714288 -0.001823077
-0.021685377 -0.00018142856 -0.006646154
0.020721581 0.00127 -0.001823077
-0.011726166 -0.00018142856 -0.00053692306
0.0056221345 -0.00127 -0.00021538461
-0.021685377 -0.00018142856 0.0023569232
0.026183084 0.00054428569 -0.00085846154
-0.012689961 0.00127 -0.0024661538
-0.01461755 0.00127 -0.00118
-0.0062646642 0.00018142856 -0.0040738462
-0.031965852 -0.00018142856 -0.001823077
-0.0024094863 0.00054428569 -0.001823077
0.0014456917 -0.00090714288 -0.0021446154
0.029716996 0.00090714288 -0.00053692306
-0.029395731 0.00127 -0.001823077
0.032929644 0.00127 -0.00118
0.008834783 0.00018142856 -0.0088969227
0.03389344 0.00054428569 -0.00118
0.00080316205 0.00018142856 -0.001823077
-0.021042846 0.00018142856 -0.00053692306
0.016223874 -0.00018142856 -0.0053599998
-0.0056221345 -0.00054428569 -0.00085846154
0.026504349 -0.00090714288 -0.00053692306
-0.022327906 -0.00054428569 -0.001823077
0.034857236 0.00090714288 -0.00053692306
-0.020400317 -0.00127 -0.001823077
-0.019757787 0.00127 -0.00118
0.029395731 0.00018142856 0.0020353845
-0.0085135177 0.00054428569 -0.0021446154
0.031965852 0.00127 -0.00021538461
-0.02521929 0.00127 -0.001823077
-0.015581344 0.00127 -0.00021538461
-0.025540555 -0.00127 -0.0015015384
-0.026504349 -0.00018142856 -0.0050384616
0.025540555 -0.00018142856 -0.0015015384
-0.033572175 -0.00018142856 -0.00053692306
-0.015581344 0.00054428569 -0.0021446154
0.039033677 0.00127 -0.00118
0.034535971 -0.00018142856 -0.0021446154
0.023612965 0.00127 -0.00118
0.0081922533 -0.00018142856 -0.0021446154
0.026504349 0.00127 -0.00118
-0.016545139 -0.00018142856 0.0020353845
-0.026504349 0.00127 -0.00118
0.03389344 -0.00054428569 -0.00021538461
-0.025861818 -0.00054428569 -0.001823077
0.0024094863 -0.00127 -0.0021446154
0.0232917 -0.00054428569 -0.00021538461
0.013011225 -0.00127 -0.0024661538
-0.0036945455 0.00018142856 -0.0088969227
0.037106089 -0.00054428569 -0.00085846154
-0.019757787 -0.00018142856 -0.0024661538
0.016223874 0.00018142856 -0.00021538461
-0.033572175 0.00090714288 -0.00118
-0.013332491 0.00127 -0.00053692306
0.0033732806 -0.00054428569 -0.0015015384
0.016545139 0.00127 -0.0021446154
0.027789408 -0.00090714288 -0.0021446154
0.011726166 -0.00054428569 -0.001823077
-0.0049796049 0.00090714288 -0.0021446154
0.00465834 -0.00127 -0.00021538461
0.020721581 -0.00054428569 -0.00053692306
0.0085135177 -0.00127 -0.00053692306
-0.024898024 0.00054428569 -0.00085846154
-0.013011225 0.00127 -0.0024661538
0.010119842 -0.00090714288 -0.00085846154
0.019757787 -0.00127 -0.0015015384
0.024576759 0.00018142856 -0.00021538461
0.03999747 0.00054428569 -0.00021538461
-0.022649171 -0.00054428569 -0.00085846154
0.0024094863 0.00090714288 -0.0024661538
-0.026825614 0.00018142856 -0.0069676922
-0.0056221345 0.00018142856 -0.00053692306
0.018151462 0.00090714288 -0.00053692306
0.023612965 0.00090714288 -0.00021538461
0.001124427 -0.00018142856 -0.00053692306
0.01526008 0.00018142856 -0.00085846154
-0.037427355 -0.00018142856 -0.00085846154
0.037106089 -0.00018142856 -0.006646154
-0.033572175 -0.00054428569 -0.00021538461
-0.035178497 -0.00090714288 -0.0024661538
-0.0091560474 0.00054428569 -0.00053692306
0.0069071939 0.00018142856 -0.0021446154
-0.00016063242 -0.00018142856 -0.00053692306
0.028110672 0.00090714288 -0.0021446154
-0.032929644 0.00054428569 -0.00053692306
-0.0081922533 0.00018142856 -0.00118
-0.017508933 0.00127 -0.0021446154
-0.011404902 0.00018142856 -0.0082538463
-0.027146878 -0.00054428569 -0.0024661538
-0.026825614 0.00018142856 -0.0015015384
0.03999747 -0.00018142856 -0.0021446154
-0.0036945455 -0.00018142856 0.0020353845
0.019115258 -0.00018142856 0.0020353845
-0.024898024 -0.00127 -0.00053692306
0.022649171 -0.00127 -0.0024661538
-0.025861818 -0.00090714288 -0.0024661538
0.022970436 -0.00018142856 -0.001823077
0.037748616 -0.00127 -0.00021538461
-0.027789408 0.00090714288 -0.00053692306
0.010762372 0.00090714288 -0.00118
0.02521929 0.00127 -0.0015015384
-0.007870988 -0.00127 -0.00118
-0.030038262 -0.00054428569 -0.00021538461
0.014296285 -0.00127 -0.0024661538
0.019436521 -0.00018142856 -0.00053692306
0.0014456917 -0.00054428569 -0.0024661538
-0.029074468 0.00018142856 -0.0072892308
-0.032929644 0.00018142856 -0.00118
-0.030038262 0.00054428569 -0.001823077
-0.036784824 0.00018142856 -0.00053692306
-0.021364111 -0.00018142856 -0.0072892308
0.018472727 -0.00090714288 -0.001823077
-0.007870988 -0.00018142856 -0.001823077
0.023612965 0.00127 -0.00021538461
0.027789408 -0.00127 -0.0015015384
-0.032929644 0.00018142856 -0.001823077
-0.020400317 -0.00018142856 -0.001823077
-0.0033732806 0.00127 -0.001823077
-0.022970436 -0.00018142856 -0.00118
-0.024255496 0.00018142856 -0.0079323081
0.028753202 0.00054428569 -0.00085846154
0.039354943 0.00018142856 -0.001823077
-0.0040158103 0.00090714288 -0.001823077
0.029074468 -0.00090714288 -0.00053692306
0.0027307512 -0.00018142856 -0.00021538461
-0.031644586 0.00018142856 -0.0079323081
0.016545139 0.00018142856 -0.0040738462
0.021364111 -0.00054428569 -0.00053692306
0.008834783 0.00018142856 -0.00021538461
0.019115258 -0.00054428569 -0.0021446154
0.013653755 -0.00090714288 -0.0021446154
0.036784824 -0.00054428569 -0.00053692306
0.014938815 0.00127 -0.0024661538
-0.028431937 0.00054428569 -0.001823077
0.031323321 -0.00127 -0.0021446154
-0.03389344 0.00054428569 -0.00085846154
0.035178497 -0.00090714288 -0.00118
0.008834783 0.00018142856 -0.0021446154
-0.01526008 -0.00018142856 -0.0015015384
0.034214705 0.00054428569 -0.00118
0.017830199 -0.00018142856 -0.00118
0.021364111 0.00090714288 -0.0024661538
-0.027468143 0.00018142856 -0.001823077
-0.026825614 0.00127 -0.00053692306
-0.0062646642 0.00018142856 -0.0043953848
0.034535971 0.00018142856 -0.0021446154
-0.0232917 -0.00018142856 -0.00118
-0.019757787 -0.00054428569 -0.00118
-0.037106089 -0.00090714288 -0.0015015384
0.015902609 -0.00018142856 -0.00021538461
0.013011225 -0.00127 -0.0021446154
0.01526008 0.00127 -0.001823077
0.032287117 0.00127 -0.00118
-0.0036945455 0.00127 -0.00053692306
0.0017669565 -0.00018142856 -0.0021446154
0.034214705 -0.00018142856 -0.00085846154
0.012047431 0.00018142856 -0.0015015384
-0.0014456917 -0.00090714288 -0.00053692306
0.0062646642 0.00018142856 -0.0056815385
-0.039676208 -0.00127 -0.00085846154
-0.01461755 0.00127 -0.00053692306
0.0014456917 -0.00018142856 -0.0060030771
-0.035499763 -0.00127 -0.001823077
-0.00465834 0.00127 -0.0024661538
-0.029074468 0.00127 -0.00021538461
0.0030520158 0.00127 -0.0024661538
-0.0056221345 0.00018142856 -0.0024661538
-0.0020882215 -0.00054428569 -0.00053692306
0.0036945455 0.00090714288 -0.001823077
-0.013332491 0.00090714288 -0.0021446154
0.0232917 0.00090714288 -0.00053692306
-0.011404902 0.00127 -0.0015015384
-0.030359527 0.00127 -0.0024661538
-0.017508933 0.00018142856 -0.0021446154
0.0020882215 -0.00127 -0.00085846154
0.034214705 0.00018142856 -0.00085846154
-0.0036945455 0.00018142856 0.00074923079
0.00048189724 0.00127 -0.001823077
-0.025861818 -0.00127 -0.00021538461
-0.02200664 -0.00018142856 -0.0024661538
0.029716996 -0.00127 -0.00053692306
0.036784824 0.00127 -0.00021538461
0.015581344 -0.00127 -0.0015015384
0.0049796049 -0.00090714288 -0.001823077
-0.011404902 -0.00054428569 -0.0024661538
0.0043370752 0.00054428569 -0.0024661538
-0.021364111 -0.00090714288 -0.00021538461
0.0043370752 0.00090714288 -0.0021446154
0.025861818 0.00054428569 -0.00118
-0.012689961 0.00090714288 -0.00085846154
0.016545139 0.00018142856 0.00074923079
-0.011726166 -0.00090714288 -0.00021538461
0.037106089 0.00127 -0.0021446154
-0.0059433994 -0.00090714288 -0.00085846154
0.011404902 -0.00018142856 0.0017138461
-0.02393423 0.00018142856 -0.0063246153
-0.034857236 0.00090714288 -0.00021538461
0.014938815 -0.00054428569 -0.0024661538
-0.0049796049 0.00018142856 -0.00085846154
-0.02200664 0.00127 -0.0021446154
0.030359527 0.00054428569 -0.0015015384
0.029716996 0.00018142856 -0.0021446154
-0.010119842 -0.00018142856 -0.00085846154
0.029395731 0.00018142856 -0.006646154
-0.024255496 -0.00018142856 -0.00118
-0.025861818 -0.00127 -0.0015015384
-0.010762372 -0.00054428569 -0.0021446154
0.032608379 -0.00018142856 -0.00118
-0.033572175 -0.00090714288 -0.0024661538
-0.032608379 -0.00090714288 -0.00118
0.0017669565 0.00127 -0.00118
0.04064 0.00018142856 -0.001823077
0.013332491 -0.00090714288 -0.00118
-0.007870988 0.00054428569 -0.00085846154
-0.0049796049 -0.00018142856 -0.00053692306
-0.024576759 -0.00127 -0.00085846154
0.0085135177 -0.00018142856 -0.00118
0.019115258 -0.00127 -0.00118
0.034857236 0.00054428569 -0.00085846154
-0.00080316205 0.00090714288 -0.00118
-0.0043370752 -0.00054428569 -0.00085846154
-0.0033732806 0.00054428569 -0.00118
-0.028753202 -0.00127 -0.00053692306
0.026825614 0.00018142856 0.00042769231
0.0081922533 0.00090714288 -0.00021538461
0.012047431 -0.00018142856 -0.00021538461
0.021685377 0.00018142856 -0.0085753845
-0.031644586 0.00054428569 -0.00053692306
-0.008834783 -0.00018142856 0.0013923077
0.0040158103 -0.00018142856 -0.0024661538
0.031002056 -0.00090714288 -0.0021446154
0.01461755 -0.00054428569 -0.0021446154
0.015581344 -0.00018142856 -0.001823077
0.039033677 -0.00090714288 -0.0015015384
0.026825614 0.00018142856 -0.0088969227
-0.016223874 0.00018142856 -0.00118
0.0014456917 -0.00127 -0.001823077
0.0036945455 -0.00127 -0.00021538461
0.01397502 0.00018142856 -0.0060030771
-0.037106089 -0.00054428569 -0.00053692306
0.036784824 0.00018142856 -0.00118
0.012368696 0.00127 -0.00053692306
0.0030520158 0.00127 -0.0021446154
0.0065859291 -0.00018142856 -0.00021538461
-0.017187668 -0.00054428569 -0.0021446154
0.039676208 0.00018142856 -0.00021538461
-0.012368696 0.00090714288 -0.00021538461
0.012368696 -0.00127 -0.0015015384
0.026825614 -0.00127 -0.00085846154
-0.024255496 -0.00018142856 -0.0015015384
0.024576759 0.00054428569 -0.00118
0.038069881 0.00127 -0.00053692306
-0.0069071939 -0.00090714288 -0.0015015384
0.022327906 -0.00127 -0.0024661538
-0.0017669565 -0.00018142856 -0.00085846154
-0.0232917 0.00127 -0.00085846154
-0.021685377 -0.00018142856 -0.0056815385
-0.024576759 -0.00054428569 -0.001823077
0.001124427 0.00018142856 -0.006646154
-0.04064 0.00018142856 -0.00021538461
-0.0020882215 -0.00054428569 -0.0021446154
-0.026504349 -0.00054428569 -0.00085846154
-0.0014456917 0.00018142856 -0.00021538461
0.030038262 -0.00127 -0.00053692306
-0.0014456917 0.00018142856 -0.00085846154
0.026183084 -0.00127 -0.00021538461
-0.019115258 0.00090714288 -0.001823077
-0.0049796049 -0.00090714288 -0.00085846154
-0.010441107 0.00127 -0.00053692306
0.0081922533 -0.00127 -0.00053692306
0.018793993 0.00018142856 -0.0021446154
0.029074468 0.00018142856 -0.0034307693
0.03999747 -0.00090714288 -0.00085846154
-0.0017669565 -0.00127 -0.0024661538
-0.031644586 0.00127 -0.0021446154
-0.0072284588 0.00054428569 -0.0024661538
0.030359527 0.00090714288 -0.0021446154
0.036784824 0.00018142856 0.00074923079
-0.039033677 0.00018142856 -0.00085846154
0.019436521 -0.00018142856 -0.00118
0.01526008 0.00054428569 -0.00085846154
-0.03999747 -0.00090714288 -0.001823077
0.0027307512 -0.00054428569 -0.0024661538
-0.029395731 0.00090714288 -0.0024661538
-0.0014456917 -0.00090714288 -0.0024661538
-0.033250909 -0.00018142856 -0.0015015384
0.015581344 0.00018142856 -0.0015015384
-0.00048189724 -0.00090714288 -0.0021446154
0.023612965 -0.00090714288 -0.00053692306
0.039354943 -0.00054428569 -0.00021538461
0.026825614 -0.00127 -0.00021538461
0.018793993 -0.00018142856 -0.00118
-0.040318735 -0.00054428569 -0.0021446154
-0.014938815 0.00054428569 -0.00085846154
-0.026183084 -0.00090714288 -0.00085846154
0.018793993 -0.00054428569 -0.001823077
-0.037427355 0.00090714288 -0.0021446154
-0.011404902 0.00018142856 -0.0085753845
0.028110672 -0.00090714288 -0.0015015384
0.031002056 -0.00054428569 -0.00085846154
0.014296285 -0.00090714288 -0.00118
0.013011225 -0.00127 -0.0015015384
-0.021364111 -0.00090714288 -0.00053692306
-0.018472727 -0.00127 -0.00085846154
-0.0097985771 -0.00090714288 -0.00053692306
-0.0072284588 -0.00090714288 -0.0021446154
0.035178497 0.00127 -0.00118
0.018793993 0.00127 -0.00118
-0.026504349 0.00090714288 -0.001823077
-0.0020882215 -0.00018142856 -0.00021538461
0.016545139 -0.00018142856 -0.0060030771
-0.01397502 -0.00090714288 -0.0024661538
-0.01397502 0.00018142856 -0.0088969227
-0.036784824 0.00054428569 -0.001823077
-0.01461755 -0.00127 -0.00021538461
-0.0036945455 0.00127 -0.0024661538
0.034214705 0.00090714288 -0.00118
-0.017508933 -0.00018142856 -0.00053692306
0.024255496 -0.00127 -0.00118
0.019757787 -0.00018142856 -0.00053692306
-0.01461755 0.00090714288 -0.0024661538
0.015581344 -0.00018142856 -0.00021538461
0.029074468 0.00054428569 -0.001823077
-0.0094773127 -0.00018142856 -0.00118
-0.033572175 0.00090714288 -0.0024661538
0.010762372 0.00018142856 -0.0024661538
0.039676208 -0.00090714288 -0.00118
-0.021685377 0.00054428569 -0.00118
-0.039676208 -0.00127 -0.001823077
-0.0065859291 0.00127 -0.00021538461
-0.013332491 -0.00127 -0.0024661538
0.029074468 -0.00018142856 -0.0037523077
0.031002056 -0.00090714288 -0.00085846154
-0.014296285 -0.00018142856 -0.0021446154
0.0036945455 0.00127 -0.00118
0.030680791 0.00090714288 -0.00085846154
-0.023612965 0.00090714288 -0.0015015384
0.0072284588 -0.00090714288 -0.0024661538
-0.00465834 0.00127 -0.00021538461
0.0232917 0.00127 -0.001823077
0.010762372 -0.00127 -0.00118
0.028753202 -0.00054428569 -0.00118
0.0049796049 -0.00127 -0.0015015384
0.037748616 -0.00018142856 -0.0021446154
0.018151462 0.00127 -0.001823077
-0.033572175 0.00127 -0.0015015384
0.0053008697 -0.00090714288 -0.0015015384
0.022327906 0.00090714288 -0.00021538461
-0.025861818 0.00090714288 -0.0024661538
-0.028753202 -0.00127 -0.001823077
-0.0091560474 -0.00090714288 -0.001823077
0.020079052 0.00054428569 -0.0015015384
0.022649171 0.00054428569 -0.00085846154
-0.039354943 -0.00018142856 0.00042769231
-0.038391147 0.00090714288 -0.00118
-0.0030520158 0.00127 -0.0024661538
-0.0091560474 0.00127 -0.00118
-0.038069881 -0.00054428569 -0.00053692306
-0.021364111 0.00054428569 -0.0024661538
0.031644586 -0.00018142856 -0.0040738462
0.028110672 0.00018142856 -0.00053692306
0.010119842 0.00127 -0.0021446154
0.016545139 -0.00018142856 -0.0085753845
0.021685377 -0.00018142856 -0.00118
0.019757787 -0.00018142856 -0.00085846154
0.037748616 0.00090714288 -0.0015015384
-0.012689961 -0.00054428569 -0.0021446154
-0.037106089 -0.00018142856 -0.0015015384
0.021685377 0.00018142856 -0.0040738462
-0.031965852 0.00018142856 -0.00021538461
-0.015581344 -0.00090714288 -0.00085846154
-0.011083636 -0.00018142856 -0.0021446154
-0.0040158103 -0.00018142856 0.00042769231
-0.0069071939 0.00127 -0.0021446154
-0.024898024 0.00054428569 -0.0021446154
0.014938815 0.00127 -0.00118
-0.0075497236 -0.00090714288 -0.0024661538
-0.030038262 0.00018142856 -0.00085846154
-0.019115258 -0.00018142856 -0.0031092307
-0.026183084 -0.00090714288 -0.0021446154
-0.022649171 -0.00054428569 -0.001823077
0.031002056 0.00054428569 -0.001823077
0.031644586 -0.00018142856 -0.0056815385
-0.015581344 0.00054428569 -0.00085846154
0.0036945455 -0.00127 -0.0024661538
0.019436521 0.00054428569 -0.00053692306
0.039676208 -0.00127 -0.00118
0.020721581 -0.00090714288 -0.00053692306
-0.01526008 0.00018142856 -0.00118
0.013011225 0.00018142856 -0.0024661538
0.01461755 -0.00018142856 -0.00085846154
-0.037106089 0.00090714288 -0.001823077
-0.026504349 -0.00018142856 -0.0069676922
0.021042846 -0.00018142856 -0.001823077
-0.030038262 -0.00054428569 -0.0015015384
0.010119842 -0.00127 -0.0021446154
-0.019757787 -0.00090714288 -0.001823077
0.016223874 -0.00054428569 -0.00085846154
-0.01397502 -0.00054428569 -0.00053692306
-0.036142293 -0.00127 -0.0021446154
-0.036142293 -0.00018142856 -0.0015015384
-0.018793993 -0.00090714288 -0.00053692306
0.040318735 -0.00018142856 -0.00021538461
0.016223874 -0.00054428569 -0.001823077
0.022327906 -0.00018142856 -0.0021446154
0.021364111 0.00018142856 -0.007610769
0.036142293 0.00054428569 -0.00085846154
-0.0232917 0.00018142856 -0.0024661538
0.031002056 -0.00018142856 -0.00021538461
-0.03389344 0.00018142856 -0.00053692306
0.038069881 0.00054428569 -0.0021446154
-0.026825614 -0.00018142856 -0.0072892308
0.035178497 -0.00127 -0.001823077
-0.02521929 0.00018142856 -0.00021538461
-0.0059433994 -0.00090714288 -0.0021446154
0.029074468 -0.00018142856 0.0023569232
-0.037106089 -0.00018142856 0.00010615385
-0.01461755 -0.00127 -0.0021446154
-0.030680791 0.00127 -0.0024661538
-0.034214705 -0.00018142856 0.0020353845
0.036463559 0.00054428569 -0.00085846154
-0.027789408 -0.00054428569 -0.0024661538
-0.0062646642 0.00018142856 -0.001823077
-0.021685377 -0.00018142856 -0.007610769
0.0065859291 -0.00127 -0.0015015384
0.020079052 0.00127 -0.0015015384
-0.0232917 -0.00090714288 -0.0024661538
-0.022327906 0.00018142856 -0.0024661538
0.0027307512 -0.00054428569 -0.00085846154
0.0014456917 0.00018142856 0.00074923079
-0.01526008 0.00127 -0.00085846154
0.031965852 -0.00127 -0.00021538461
0.032929644 0.00054428569 -0.0021446154
-0.010762372 -0.00127 -0.00118
-0.02200664 -0.00090714288 -0.00053692306
0.034857236 0.00090714288 -0.0015015384
0.013332491 -0.00054428569 -0.00085846154
-0.014296285 0.00090714288 -0.00118
-0.027146878 0.00127 -0.00053692306
-0.0065859291 0.00018142856 -0.004716923
-0.011404902 0.00127 -0.00085846154
-0.027146878 0.00090714288 -0.0021446154
0.0033732806 0.00127 -0.0024661538
0.0097985771 -0.00127 -0.0021446154
0.016545139 -0.00054428569 -0.0021446154
0.013011225 0.00127 -0.0021446154
0.017830199 0.00054428569 -0.00085846154
-0.037748616 -0.00090714288 -0.00021538461
0.035821028 -0.00054428569 -0.00085846154
0.02200664 0.00127 -0.0021446154
0.018793993 -0.00018142856 -0.004716923
0.020721581 -0.00054428569 -0.00118
0.0065859291 -0.00018142856 -0.0085753845
0.008834783 -0.00018142856 -0.006646154
-0.017508933 -0.00090714288 -0.00118
0.037748616 0.00090714288 -0.00118
-0.0040158103 -0.00018142856 -0.00085846154
-0.0056221345 0.00127 -0.0015015384
-0.032608379 0.00018142856 -0.00021538461
0.02393423 -0.00018142856 -0.001823077
0.019115258 -0.00090714288 -0.00118
-0.032608379 -0.00054428569 -0.0024661538
-0.012047431 0.00018142856 -0.0021446154
0.039676208 -0.00054428569 -0.00053692306
0.030680791 -0.00018142856 -0.00053692306
0.015581344 -0.00018142856 -0.0015015384
0.01397502 -0.00090714288 -0.00053692306
0.027468143 -0.00090714288 -0.00021538461
-0.026504349 0.00054428569 -0.0021446154
-0.022970436 -0.00054428569 -0.0021446154
-0.031965852 0.00018142856 -0.006646154
-0.0069071939 0.00054428569 -0.0021446154
0.018472727 0.00018142856 -0.001823077
-0.0072284588 0.00127 -0.0024661538
-0.0232917 0.00018142856 -0.00118
-0.026504349 0.00018142856 -0.0031092307
-0.010441107 -0.00090714288 -0.00021538461
-0.037748616 0.00090714288 -0.001823077
-0.0017669565 0.00090714288 -0.00021538461
-0.0056221345 0.00054428569 -0.00085846154
0.0036945455 0.00018142856 -0.00118
0.0069071939 0.00090714288 -0.00021538461
0.031323321 -0.00054428569 -0.0015015384
0.029395731 0.00018142856 -0.0088969227
-0.012689961 -0.00018142856 -0.00021538461
-0.010441107 -0.00054428569 -0.001823077
0.012368696 0.00127 -0.00085846154
-0.01397502 0.00018142856 -0.0043953848
0.011404902 0.00018142856 -0.00085846154
-0.017508933 0.00090714288 -0.001823077
-0.0069071939 0.00127 -0.00021538461
0.031965852 0.00090714288 -0.0021446154
0.034535971 0.00054428569 -0.0015015384
-0.029395731 -0.00018142856 -0.0021446154
0.00080316205 -0.00054428569 -0.00085846154
0.0097985771 -0.00127 -0.00118
-0.012368696 -0.00018142856 -0.001823077
-0.032929644 -0.00054428569 -0.00085846154
0.039676208 0.00090714288 -0.0021446154
-0.035821028 -0.00018142856 -0.00021538461
-0.018793993 -0.00018142856 -0.0024661538
0.0072284588 0.00054428569 -0.0015015384
-0.0014456917 0.00018142856 -0.0056815385
-0.011083636 -0.00127 -0.00021538461
0.039676208 0.00127 -0.00021538461
-0.029716996 -0.00090714288 -0.00085846154
0.0062646642 0.00054428569 -0.00053692306
-0.020079052 -0.00018142856 -0.0021446154
-0.027468143 -0.00127 -0.0021446154
0.010762372 -0.00018142856 -0.00085846154
-0.013332491 0.00090714288 -0.001823077
0.001124427 -0.00018142856 -0.0034307693
-0.037748616 0.00090714288 -0.0021446154
-0.007870988 -0.00054428569 -0.00118
0.02393423 0.00018142856 -0.00021538461
-0.036463559 0.00054428569 -0.00053692306
-0.0030520158 0.00054428569 -0.00053692306
-0.014296285 -0.00018142856 -0.00053692306
0.039676208 -0.00090714288 -0.0015015384
0.021685377 -0.00018142856 0.00074923079
0.023612965 -0.00127 -0.001823077
0.039676208 0.00054428569 -0.00053692306
0.020400317 0.00054428569 -0.00085846154
-0.022970436 0.00090714288 -0.00053692306
-0.0091560474 -0.00054428569 -0.00053692306
0.019436521 -0.00127 -0.0021446154
-0.026825614 -0.00127 -0.0015015384
0.018151462 0.00127 -0.0021446154
0.0036945455 0.00018142856 -0.0037523077
0.0014456917 -0.00018142856 -0.0031092307
-0.030038262 0.00090714288 -0.0021446154
0.022649171 -0.00054428569 -0.00085846154
0.021685377 0.00018142856 -0.0088969227
-0.0033732806 0.00090714288 -0.00118
-0.016866403 0.00054428569 -0.00053692306
-0.017187668 -0.00090714288 -0.0015015384
0.036784824 -0.00127 -0.0021446154
0.011404902 -0.00090714288 -0.001823077
0.026825614 0.00018142856 -0.0060030771
0.035821028 0.00127 -0.00021538461
-0.03389344 -0.00127 -0.00085846154
0.028431937 0.00054428569 -0.0015015384
-0.016545139 -0.00054428569 -0.0024661538
0.024255496 -0.00018142856 0.0020353845
0.018151462 0.00127 -0.0024661538
0.0024094863 -0.00018142856 -0.00021538461
0.01397502 0.00018142856 -0.0082538463
0.013653755 0.00127 -0.00118
-0.0094773127 -0.00090714288 -0.00021538461
0.034535971 -0.00018142856 -0.007610769
0.03389344 -0.00018142856 -0.0024661538
0.025861818 -0.00127 -0.00021538461
0.008834783 -0.00018142856 -0.007610769
0.031644586 -0.00054428569 -0.00085846154
-0.010119842 0.00054428569 -0.00118
-0.030359527 -0.00127 -0.0021446154
-0.03389344 -0.00018142856 -0.00118
0.039354943 0.00018142856 -0.0040738462
-0.024255496 0.00018142856 -0.0031092307
-0.024576759 0.00018142856 -0.00085846154
0.036784824 0.00018142856 -0.0040738462
-0.010441107 -0.00054428569 -0.00118
-0.03999747 -0.00090714288 -0.0015015384
0.018151462 0.00054428569 -0.00118
0.040318735 -0.00018142856 -0.001823077
0.027146878 -0.00054428569 -0.00021538461
0.027468143 0.00090714288 -0.00021538461
0.00048189724 0.00054428569 -0.0024661538
0.018793993 -0.00018142856 -0.0053599998
-0.011726166 0.00054428569 -0.0015015384
-0.01526008 -0.00018142856 -0.00021538461
0.011404902 0.00018142856 -0.0034307693
0.016866403 0.00090714288 -0.00118
-0.031002056 0.00018142856 -0.00118
-0.036142293 0.00127 -0.00085846154
-0.029395731 -0.00054428569 -0.0024661538
0.019115258 0.00018142856 -0.0027876922
0.019115258 -0.00090714288 -0.00053692306
0.02393423 0.00090714288 -0.0021446154
0.001124427 0.00018142856 -0.0079323081
-0.029395731 -0.00018142856 -0.007610769
-0.027468143 0.00127 -0.00053692306
0.034535971 -0.00018142856 -0.0024661538
-0.036463559 0.00054428569 -0.00118
0.0091560474 -0.00127 -0.00118
0.011726166 -0.00018142856 -0.00021538461
-0.0062646642 -0.00018142856 -0.00085846154
0.016545139 0.00127 -0.0015015384
0.0040158103 -0.00018142856 -0.0082538463
-0.029074468 0.00018142856 -0.0063246153
-0.0065859291 0.00018142856 0.00010615385
-0.026183084 -0.00018142856 -0.0021446154
0.032608379 -0.00018142856 -0.001823077
0.034214705 0.00127 -0.001823077
-0.032608379 0.00054428569 -0.00053692306
0.019757787 0.00018142856 -0.00053692306
0.033572175 0.00127 -0.0015015384
-0.0040158103 -0.00018142856 -0.0072892308
0.0069071939 0.00054428569 -0.00085846154
0.031644586 -0.00127 -0.00085846154
-0.031965852 0.00018142856 -0.0015015384
-0.023612965 -0.00090714288 -0.00053692306
0.011404902 -0.00018142856 0.00042769231
-0.012368696 -0.00127 -0.0021446154
0.024576759 -0.00018142856 -0.00118
0.011404902 -0.00018142856 0.0026784616
0.036142293 -0.00090714288 -0.0015015384
-0.017187668 -0.00127 -0.0015015384
0.01397502 -0.00018142856 -0.0034307693
-0.031644586 -0.00018142856 0.00042769231
-0.0075497236 -0.00127 -0.00085846154
-0.035178497 0.00018142856 -0.0021446154
0.0062646642 0.00127 -0.00085846154
0.032608379 0.00054428569 -0.001823077
0.040318735 -0.00018142856 -0.0015015384
-0.021685377 0.00018142856 -0.0085753845
0.0062646642 -0.00018142856 -0.004716923
-0.037748616 0.00018142856 -0.001823077
-0.02200664 -0.00090714288 -0.0021446154
-0.031002056 -0.00018142856 -0.00053692306
0.031644586 0.00018142856 -0.0040738462
-0.012368696 -0.00018142856 -0.00085846154
0.0036945455 -0.00090714288 -0.00085846154
-0.039354943 0.00127 -0.00118
0.021685377 -0.00127 -0.0021446154
-0.026183084 -0.00090714288 -0.001823077
-0.00016063242 0.00018142856 -0.0024661538
-0.0030520158 0.00018142856 -0.00053692306
0.020079052 0.00054428569 -0.00118
-0.0081922533 -0.00054428569 -0.0021446154
0.024898024 0.00054428569 -0.00085846154
0.017508933 0.00127 -0.001823077
-0.019436521 0.00090714288 -0.001823077
