# .PCD v0.7 - Point Cloud Data file format
VERSION 0.7
FIELDS x y z
SIZE 4 4 4
TYPE F F F
COUNT 1 1 1
WIDTH 1248
HEIGHT 1
VIEWPOINT 0 0 0 1 0 0 0
POINTS 1248
DATA ascii
0.011492459 -2.1684043e-19 0.002748
-0.0079947542 -0.00127 -0.00078000006
0.014240655 -2.1684043e-19 0.0022440001
0.027481966 -0.00127 -0.0012840001
-0.021485901 -2.1684043e-19 -0.0033000002
0.01648918 0.00025400001 -0.0030480002
0.028980983 -0.00025400001 -0.0060720001
0.00049967214 -0.00127 -0.00052800006
0.026482623 -0.00127 -0.0020400002
0.012241967 0.00127 -0.0010320001
0.0014990163 -0.00025400001 -0.0038040001
0.019487213 -0.00127 -2.4000054e-05
-0.01648918 -2.1684043e-19 0.00073199999
-0.020236721 -0.00076199998 -2.4000054e-05
0.012991475 0.00076199998 -0.002292
0.011492459 -2.1684043e-19 0.00022799995
0.021985574 0.00127 -0.00078000006
-0.016988853 -0.00127 -0.00078000006
0.024483934 0.00025400001 -2.4000054e-05
-0.016988853 0.00127 -0.0010320001
-0.011242623 -0.00025400001 0.001236
-0.030230163 0.00076199998 -0.00078000006
-0.02348459 -0.00127 -0.0017880001
0.028980983 0.00025400001 -0.0065760002
-0.0032478687 -0.00050800003 -0.00027600006
-0.015739672 0.00127 -0.0020400002
-0.021485901 0.00127 -0.0020400002
0.0029980326 -0.00127 -0.00052800006
-0.0059960652 -0.00127 -0.00078000006
0.025733113 0.00127 -0.0020400002
-0.012491803 -0.0010160001 -2.4000054e-05
-0.0014990163 0.00025400001 -0.0043080002
0.010243278 0.00076199998 -0.002292
0.00049967214 -0.00127 -0.00027600006
0.026732458 -0.00127 -0.002292
-0.026482623 -0.00025400001 0.00174
-0.0012491803 -0.00127 -0.0017880001
-0.016739016 -0.00127 -0.00078000006
0.0057462296 -0.00025400001 -2.4000054e-05
-0.023984261 -0.00127 -0.0010320001
-0.021485901 0.00025400001 -0.007584
-0.013241312 -0.00127 -2.4000054e-05
0.029980328 0.00025400001 -0.002292
-0.02348459 0.00025400001 -0.002292
0.028980983 -2.1684043e-19 -0.0030480002
-0.016239343 0.00127 -0.0010320001
0.0099934423 0.00127 -0.0012840001
-0.029480655 0.0010160001 -0.00027600006
0.021735737 0.00025400001 -0.0030480002
0.017488524 -0.00025400001 -0.002292
-0.0064957375 -2.1684043e-19 -0.0058200001
0.021485901 0.00025400001 -0.0027960001
0.019986885 0.00127 -0.00027600006
0.0012491803 -0.00025400001 -0.007332
-0.010493115 0.00076199998 -0.002292
0.0089940978 0.00076199998 -0.002292
0.0064957375 -0.00025400001 -0.0063240002
0.003747541 -0.00025400001 0.00073199999
-0.010243278 0.00050800003 -0.002292
-0.007495082 -0.00127 -0.002292
0.011242623 0.00025400001 0.001236
-0.0012491803 -0.00025400001 -0.0043080002
-0.025483279 -0.00127 -0.00078000006
-0.029230818 -2.1684043e-19 -0.005568
-0.022235408 0.00127 -0.0017880001
0.025483279 -0.00025400001 -2.4000054e-05
0.017238688 -0.00025400001 -2.4000054e-05
-0.0024983606 0.00127 -0.00078000006
-0.003747541 0.00025400001 -0.0063240002
-0.0077449176 0.00076199998 -0.002292
-0.023234753 0.00025400001 -0.002292
-0.0089940978 -2.1684043e-19 0.00098399993
0.0027481967 -0.00127 -0.0020400002
0.029480655 0.0010160001 -0.0017880001
-0.0044970489 -0.00025400001 -2.4000054e-05
0.0079947542 0.0010160001 -2.4000054e-05
0.00099934428 -0.00025400001 -2.4000054e-05
0.018737704 0.00127 -0.0015360001
0.011492459 0.00076199998 -0.002292
-0.011242623 -0.0010160001 -2.4000054e-05
-0.0077449176 -0.0010160001 -2.4000054e-05
-0.014990164 -0.00127 -0.0010320001
-0.028980983 -0.00076199998 -0.00027600006
0.011242623 0.00025400001 0.00047999996
-0.028980983 -0.00025400001 -0.0058200001
-0.012491803 0.00127 -0.0017880001
0.0022485245 0.00127 -0.00078000006
0.017988196 0.00127 -0.0020400002
0.01648918 0.00025400001 0.00073199999
-0.024983605 0.00076199998 -0.002292
0.014240655 0.00025400001 -0.0050639999
0.015489835 -0.0010160001 -2.4000054e-05
-0.019237377 0.00025400001 0.00073199999
-0.019237377 -2.1684043e-19 -0.0040560002
-0.023984261 -2.1684043e-19 -0.0030480002
-0.010493115 0.00127 -0.00078000006
-0.0044970489 0.00127 -2.4000054e-05
0.0034977049 0.00127 -0.00052800006
-0.014240655 -2.1684043e-19 -0.005568
0.015739672 0.0010160001 -2.4000054e-05
-0.026482623 -0.00127 -0.0020400002
-0.017738361 -0.00025400001 -0.002292
0.01648918 0.00025400001 -0.007332
0.014990164 -0.00127 -0.0012840001
0.017238688 0.00127 -2.4000054e-05
0.0092439344 -0.00025400001 -0.002292
-0.0094937701 -0.00050800003 -0.002292
0.0082445899 0.00076199998 -0.002292
0.0064957375 0.00127 -0.0017880001
0.0049967212 0.00050800003 -0.002292
0.0062459013 -2.1684043e-19 -0.0040560002
-0.020486556 -0.00127 -0.00078000006
-0.027481966 -2.1684043e-19 -0.002292
0.029230818 0.00025400001 0.00047999996
0.010992787 0.0010160001 -2.4000054e-05
-0.021735737 0.00025400001 0.00174
0.022485245 0.00127 -0.0012840001
0.015989508 0.00127 -2.4000054e-05
0.028980983 0.00025400001 0.00098399993
-0.010992787 0.00127 -0.0012840001
-0.013491147 0.00127 -0.002292
-0.011742295 0.00127 -0.0010320001
0.024234097 0.00025400001 -0.0050639999
0.00074950815 0.0010160001 -0.002292
0.0087442622 0.00025400001 0.0024959999
0.02598295 -0.00050800003 -0.00027600006
0.01524 -0.0010160001 -0.002292
0.004746885 -2.1684043e-19 -0.002292
0.025233442 0.00127 -0.0015360001
0.0039973771 -0.00025400001 0.00174
0.014240655 -2.1684043e-19 0.00174
-0.015989508 -0.00127 -0.0017880001
0.0034977049 -0.00076199998 -2.4000054e-05
0.018238032 0.00025400001 -2.4000054e-05
-0.017488524 0.00127 -0.00027600006
0.025733113 0.00127 -0.0015360001
0.021485901 0.00050800003 -0.00027600006
-0.013241312 -0.00025400001 -2.4000054e-05
0.025483279 -0.0010160001 -2.4000054e-05
-0.029730491 -0.00127 -0.0017880001
0.028980983 -0.00025400001 -0.0027960001
0.0012491803 0.00076199998 -0.002292
-0.0077449176 0.00050800003 -0.002292
0.0044970489 -0.00076199998 -0.002292
0.0034977049 0.00025400001 -0.0050639999
0.00024983607 0.00127 -0.0012840001
0.0064957375 0.00050800003 -0.002544
-0.02598295 -0.00050800003 -0.00027600006
-0.022735082 0.00127 -0.0012840001
0.007495082 0.00025400001 -2.4000054e-05
-0.01898754 -0.00127 -0.00052800006
-0.0087442622 0.00025400001 -0.0050639999
0.030479999 -2.1684043e-19 -0.002292
-0.012491803 -0.00127 -2.4000054e-05
-0.030479999 -0.00076199998 -0.00052800006
0.01898754 -0.00025400001 -0.005568
-0.01074295 -0.00127 -0.0020400002
0.019237377 -2.1684043e-19 -0.0043080002
0.01648918 0.00025400001 -0.005568
0.0089940978 -0.00025400001 0.00047999996
0.021236066 -0.00127 -0.0020400002
0.0064957375 0.00025400001 -0.0060720001
0.018737704 -2.1684043e-19 -0.002544
-0.011242623 -0.00127 -2.4000054e-05
-0.0099934423 -0.00127 -0.00027600006
-0.0089940978 0.00076199998 -0.00027600006
-0.028231476 -0.00127 -0.002292
0.0072452459 -0.00025400001 -0.002292
0.023234753 -0.00127 -0.0015360001
-0.01524 0.00127 -2.4000054e-05
-0.010992787 -0.00127 -2.4000054e-05
0.0029980326 0.00076199998 -0.002292
-0.0077449176 0.00127 -0.002292
-0.0039973771 -0.00025400001 0.00022799995
-0.012991475 -0.00127 -0.00052800006
-0.010493115 -0.00127 -2.4000054e-05
0.0089940978 -2.1684043e-19 -0.0048120003
0.0039973771 -0.00025400001 -0.0027960001
-0.0014990163 0.00050800003 -0.002292
-0.0087442622 0.00025400001 -0.0058200001
-0.027232131 0.00127 -0.0020400002
0.00024983607 -0.00127 -0.0017880001
-0.0014990163 -2.1684043e-19 -0.0045600003
0.017238688 0.00127 -0.0012840001
-0.0049967212 -0.00127 -0.0010320001
-0.0087442622 -2.1684043e-19 -0.003552
0.028980983 0.00050800003 -0.002292
-0.021485901 -0.00025400001 -0.0050639999
0.026482623 -2.1684043e-19 -0.0030480002
-0.0057462296 0.00076199998 -0.002292
0.029230818 -0.00025400001 0.001236
0.0087442622 -0.00025400001 -0.0063240002
-0.022984918 0.00127 -2.4000054e-05
-0.023734426 0.00127 -0.0015360001
-0.013990819 0.00127 -0.0017880001
0.029230818 0.00025400001 -0.0030480002
-0.011242623 0.00025400001 0.0014879999
0.016239343 0.00025400001 -0.0045600003
0.0077449176 0.00050800003 -0.002292
0.017738361 -0.00127 -0.0020400002
-0.00024983607 -0.0010160001 -2.4000054e-05
0.0012491803 -0.00025400001 0.00047999996
-0.01898754 -2.1684043e-19 0.00073199999
-0.0034977049 -2.1684043e-19 -0.0045600003
0.013990819 -0.00076199998 -0.002292
-0.026732458 -2.1684043e-19 -0.0078360001
0.0019986886 -0.00127 -0.00027600006
-0.023734426 -2.1684043e-19 -2.4000054e-05
0.024234097 -0.0010160001 -0.002292
0.024234097 -0.00025400001 0.00022799995
0.0012491803 -0.00025400001 -2.4000054e-05
-0.0064957375 -2.1684043e-19 -0.0033000002
0.024983605 -0.0010160001 -2.4000054e-05
0.021485901 -2.1684043e-19 -0.007332
0.0054963934 0.00127 -0.00052800006
0.021735737 0.00025400001 -0.0048120003
-0.014490492 0.00076199998 -0.002292
0.025733113 -0.00050800003 -0.002292
0.014990164 -0.00050800003 -0.002292
-0.011492459 0.00025400001 -0.0063240002
0.024733771 -0.0010160001 -2.4000054e-05
0.01898754 -2.1684043e-19 -0.0060720001
-0.01898754 -2.1684043e-19 0.001992
-0.0094937701 -2.1684043e-19 -0.002292
0.0012491803 0.00025400001 -0.0043080002
0.0022485245 0.0010160001 -2.4000054e-05
-0.022984918 -0.00127 -0.0020400002
0.0089940978 -0.00050800003 -0.00027600006
0.01898754 0.00025400001 -0.0040560002
-0.021735737 -0.00025400001 -2.4000054e-05
0.023234753 -0.00025400001 -0.002292
-0.0014990163 0.00127 -0.002292
0.029980328 0.0010160001 -0.0010320001
0.012241967 0.00127 -0.0020400002
0.011242623 -2.1684043e-19 -0.0043080002
0.01524 -0.00127 -0.0015360001
-0.003747541 0.00025400001 0.0022440001
-0.003747541 -0.00025400001 0.001992
0.023734426 -0.00050800003 -0.002292
-0.0019986886 0.00127 -0.00027600006
0.023984261 0.00025400001 -0.0038040001
-0.0064957375 -0.00025400001 -0.0058200001
0.00099934428 0.00127 -0.00027600006
0.026732458 -0.00025400001 -0.007332
0.011492459 0.00025400001 -0.0040560002
0.024983605 -0.00127 -0.0020400002
-0.0027481967 -0.00127 -0.0015360001
-0.0064957375 -2.1684043e-19 -0.005568
-0.029480655 -2.1684043e-19 -0.0060720001
0.00024983607 0.00025400001 -2.4000054e-05
-0.029230818 0.00050800003 -0.002292
-0.0027481967 0.00127 -2.4000054e-05
-0.030479999 -0.00050800003 -0.002292
0.0077449176 0.00127 -0.0012840001
-0.01648918 0.00025400001 0.00022799995
-0.015989508 -0.00025400001 -0.002292
0.0057462296 -0.00127 -0.0012840001
-0.012741639 0.00127 -0.00052800006
-0.0099934423 -0.00025400001 -2.4000054e-05
-0.017738361 0.00076199998 -0.002292
0.0052465573 -2.1684043e-19 -0.002292
0.00024983607 -0.00025400001 -0.002292
0.016739016 -0.00127 -2.4000054e-05
-0.020486556 0.00127 -0.0012840001
-0.011742295 0.00025400001 -2.4000054e-05
-0.0077449176 -0.00050800003 -0.002292
0.010243278 0.00025400001 -2.4000054e-05
0.016739016 0.00127 -0.0012840001
-0.028231476 -0.00050800003 -0.002292
0.0019986886 -0.00076199998 -2.4000054e-05
-0.020986229 0.00127 -0.00078000006
0.0082445899 0.00050800003 -0.00027600006
-0.0062459013 -0.00127 -0.00078000006
-0.026732458 0.00025400001 0.001992
-0.0012491803 0.00025400001 -0.0033000002
0.011242623 0.00025400001 -0.007584
-0.0062459013 -0.00025400001 -0.0045600003
-0.014740327 0.00127 -0.0012840001
0.0064957375 -2.1684043e-19 -0.0068280003
-0.021735737 0.00025400001 -0.0030480002
0.0017488524 -0.00127 -2.4000054e-05
-0.016988853 -0.00127 -0.0012840001
-0.01074295 -0.00127 -0.00027600006
0.028980983 -2.1684043e-19 -0.0038040001
0.026232786 0.00025400001 -2.4000054e-05
-0.019986885 -0.00127 -0.0017880001
0.019986885 0.00050800003 -0.002292
-0.02598295 -0.00127 -0.0012840001
-0.0077449176 -0.00127 -0.0017880001
0.0054963934 -0.00127 -2.4000054e-05
0.022735082 -0.00025400001 -0.002292
-0.025733113 -0.00025400001 -0.00027600006
0.029230818 -0.00025400001 -0.0070800004
0.00074950815 -2.1684043e-19 -2.4000054e-05
0.021485901 -2.1684043e-19 -0.003552
-0.003747541 0.00025400001 -0.0068280003
0.0014990163 -0.00025400001 -0.005568
-0.022984918 -0.00127 -0.00078000006
0.027481966 -0.0010160001 -0.00027600006
0.0059960652 0.00127 -0.00078000006
-0.0062459013 -2.1684043e-19 0.002748
0.01074295 0.0010160001 -2.4000054e-05
0.0034977049 0.00025400001 0.001992
-0.0044970489 0.00127 -0.0015360001
0.00074950815 -0.00127 -0.00027600006
-0.003747541 0.00050800003 -0.002292
0.013740983 -2.1684043e-19 -0.0060720001
-0.025733113 0.00127 -0.0010320001
-0.016739016 -0.00025400001 -0.007584
-0.016739016 -0.00025400001 -0.0048120003
0.019237377 0.00025400001 -0.0070800004
-0.024234097 -0.00025400001 -0.007332
-0.016739016 0.00025400001 -0.0027960001
-0.027981639 -0.00050800003 -0.00027600006
-0.024234097 -2.1684043e-19 -0.0048120003
0.0012491803 -0.00127 -0.00052800006
3.469447e-18 -0.00127 -0.002292
-0.022984918 0.0010160001 -2.4000054e-05
0.0089940978 0.00025400001 0.0014879999
-0.013990819 -2.1684043e-19 0.0024959999
-0.021485901 -0.00025400001 -0.0033000002
-0.019237377 0.00025400001 -0.0068280003
0.013740983 -2.1684043e-19 -0.0038040001
0.00074950815 0.00127 -0.0020400002
0.0067455736 -0.00076199998 -2.4000054e-05
0.004746885 -0.00127 -0.0015360001
-0.026982294 -0.00127 -0.00027600006
0.0014990163 0.00025400001 0.0024959999
0.0069954097 -0.00050800003 -0.00027600006
0.016239343 0.00076199998 -0.00027600006
-0.011492459 0.00025400001 -0.007332
0.024234097 -2.1684043e-19 0.00098399993
-0.022984918 -0.00076199998 -2.4000054e-05
0.0012491803 0.00025400001 -0.003552
0.014990164 0.00127 -0.0010320001
0.011492459 -2.1684043e-19 -0.0043080002
0.024234097 -0.00025400001 0.00174
-0.013990819 -0.00025400001 0.0014879999
-0.01898754 0.00025400001 0.00073199999
0.016739016 -2.1684043e-19 0.00174
-0.01074295 0.00127 -0.0012840001
-0.01898754 -0.00025400001 -0.0038040001
0.0039973771 -2.1684043e-19 0.0024959999
0.011492459 -0.00127 -0.002292
-0.027981639 0.00050800003 -0.00027600006
-0.0034977049 -0.0010160001 -0.002292
-0.029230818 -0.00127 -0.00078000006
0.0089940978 -2.1684043e-19 -0.0038040001
-0.0014990163 -2.1684043e-19 0.0014879999
-0.0097436067 -0.00025400001 -2.4000054e-05
-0.017738361 0.00076199998 -0.00027600006
0.011492459 -0.00025400001 -0.0030480002
0.018487869 -0.00025400001 -0.002292
-0.0044970489 0.00127 -0.0017880001
-0.0092439344 -0.00127 -0.00078000006
0.0077449176 0.00050800003 -0.00027600006
0.017988196 0.00127 -2.4000054e-05
-0.023984261 -2.1684043e-19 -0.0038040001
0.022984918 -0.00025400001 -2.4000054e-05
0.0092439344 0.00127 -0.00027600006
0.029480655 -0.0010160001 -0.0012840001
0.021735737 -0.00025400001 -0.0027960001
-0.0029980326 -0.00127 -0.0012840001
-0.019487213 -0.00050800003 -0.002292
-0.0062459013 -0.00025400001 -0.005316
0.0089940978 -0.00025400001 0.00022799995
-0.0062459013 -0.00076199998 -2.4000054e-05
-0.0092439344 0.00127 -0.0010320001
-0.023234753 -0.00025400001 -0.002292
-0.0064957375 -0.00025400001 0.001992
-0.0099934423 0.00127 -0.00052800006
0.01524 -0.00025400001 -2.4000054e-05
0.014740327 0.00025400001 -0.002292
-0.0064957375 -0.00127 -0.00027600006
0.024234097 -0.00025400001 -0.0043080002
-0.0019986886 0.00076199998 -0.002292
-0.02848131 0.00127 -0.00078000006
-0.00074950815 -0.0010160001 -2.4000054e-05
0.0034977049 0.00025400001 -0.003552
0.022735082 0.00127 -0.00078000006
0.010493115 -0.00050800003 -0.002292
0.0039973771 0.00025400001 0.00174
0.024234097 -0.00025400001 -0.0030480002
-0.0059960652 -0.00127 -0.0015360001
-0.013740983 -0.00025400001 0.00073199999
0.021735737 -2.1684043e-19 -0.0078360001
0.0087442622 -2.1684043e-19 -0.0058200001
-0.025483279 -0.00076199998 -0.002292
0.023984261 -0.00025400001 -0.0038040001
0.0064957375 -0.00025400001 -0.0048120003
0.024483934 0.00050800003 -0.002292
0.013990819 0.00025400001 -0.005316
-0.021735737 -0.00025400001 -0.0040560002
0.0062459013 -0.0010160001 -0.002292
0.011742295 0.00127 -0.0010320001
0.020486556 -0.00076199998 -0.002292
-0.013990819 0.00127 -0.0012840001
-0.0034977049 -0.00025400001 0.0022440001
-0.01074295 -0.00127 -0.00052800006
0.011242623 -0.00025400001 -2.4000054e-05
-0.0012491803 0.00025400001 -0.005316
0.01648918 -0.00025400001 -0.007332
0.022735082 -0.0010160001 -2.4000054e-05
0.0024983606 0.00127 -0.00027600006
0.012741639 -0.00127 -0.0010320001
-0.0064957375 -2.1684043e-19 -0.0063240002
-0.011242623 -2.1684043e-19 -0.0050639999
0.0022485245 -0.0010160001 -2.4000054e-05
0.0039973771 0.00025400001 -0.007332
0.0069954097 -2.1684043e-19 -0.002292
-0.0052465573 -0.00050800003 -0.002292
0.010992787 0.0010160001 -0.002292
-0.012491803 0.00127 -0.00027600006
3.469447e-18 -0.00076199998 -2.4000054e-05
0.0079947542 -0.00050800003 -0.002292
0.003747541 -0.00025400001 -0.0058200001
0.017988196 0.00127 -0.00027600006
0.023234753 0.00025400001 -2.4000054e-05
0.00099934428 0.00025400001 0.00098399993
-0.016988853 -0.00025400001 -2.4000054e-05
0.011492459 -2.1684043e-19 -0.0033000002
0.015739672 0.00127 -0.00078000006
0.011242623 -2.1684043e-19 -0.003552
-0.0089940978 -0.00025400001 -0.0033000002
0.020236721 0.00127 -0.00078000006
-0.026482623 0.00127 -0.00027600006
-0.011242623 -2.1684043e-19 0.00174
-0.0034977049 -2.1684043e-19 -0.0065760002
-0.023984261 -0.00025400001 -0.0058200001
-0.025733113 0.00050800003 -0.002292
0.022984918 -0.00076199998 -2.4000054e-05
0.019237377 0.00025400001 0.00047999996
0.024234097 -0.00127 -0.0020400002
-0.0029980326 0.00025400001 -2.4000054e-05
-0.003747541 -0.00127 -0.00027600006
0.0062459013 -0.00025400001 0.00098399993
-0.014240655 -0.00025400001 -0.0040560002
-0.027981639 -0.00127 -0.0017880001
-0.01524 -0.00127 -0.00052800006
0.019737048 -2.1684043e-19 -0.002292
0.019986885 -0.00127 -0.0010320001
0.0079947542 0.00127 -0.0012840001
-0.013990819 0.00025400001 -0.005568
0.0014990163 -0.0010160001 -2.4000054e-05
-0.0082445899 -0.00050800003 -0.00027600006
0.0084944265 -0.00050800003 -0.00027600006
-0.0039973771 0.00025400001 -0.0065760002
-0.024983605 -0.00127 -2.4000054e-05
-0.026232786 0.00076199998 -0.00027600006
0.026482623 -0.00025400001 0.00047999996
-0.024234097 0.00025400001 -0.0027960001
-0.0092439344 0.00127 -0.00078000006
0.027731802 -0.00127 -0.0010320001
-0.012741639 -0.00050800003 -0.002292
-0.026732458 0.00025400001 -0.0063240002
-0.01648918 -0.00127 -0.00027600006
0.017238688 0.0010160001 -2.4000054e-05
-0.020986229 -2.1684043e-19 -0.002292
0.022984918 -0.00025400001 -0.002292
0.01898754 -0.00025400001 -2.4000054e-05
-0.017488524 0.00025400001 -2.4000054e-05
0.0089940978 0.00025400001 -0.0058200001
0.013740983 0.00127 -0.00027600006
0.019487213 -0.00127 -0.002292
0.0082445899 0.0010160001 -0.002292
0.01199213 -0.00025400001 -2.4000054e-05
-0.004746885 0.00127 -0.00027600006
0.0052465573 0.00127 -0.0015360001
0.016739016 0.00025400001 -0.003552
0.013241312 -0.00127 -0.00027600006
0.0097436067 -0.00127 -0.00078000006
0.026982294 -0.00127 -0.0012840001
-0.0039973771 -0.00025400001 -0.0063240002
0.01898754 0.00127 -0.00052800006
-0.024983605 -0.00127 -0.00078000006
0.028980983 -2.1684043e-19 0.00047999996
0.0062459013 0.00025400001 -0.007584
-0.0014990163 -0.00025400001 -0.0027960001
-0.0087442622 -2.1684043e-19 -0.0030480002
-0.0049967212 -0.00127 -0.00078000006
-0.011492459 0.00025400001 0.00098399993
0.029230818 -0.00025400001 -0.0050639999
0.0014990163 0.00025400001 0.001236
0.016739016 0.00127 -0.002292
0.01524 -2.1684043e-19 -0.002292
0.027981639 0.0010160001 -2.4000054e-05
0.016239343 0.00025400001 -0.0043080002
-0.0012491803 -0.00025400001 -0.0045600003
-0.029230818 -0.00025400001 -0.0060720001
-0.0064957375 0.00025400001 0.00098399993
-0.026732458 0.00025400001 -0.0043080002
-0.0087442622 0.00025400001 -0.0030480002
-0.0052465573 -0.00127 -0.0010320001
-0.025733113 0.00127 -0.0012840001
0.010493115 -0.00025400001 -2.4000054e-05
-0.0067455736 -0.00127 -0.0015360001
0.0027481967 -0.00076199998 -0.002292
-0.019986885 -0.0010160001 -2.4000054e-05
-0.00024983607 0.0010160001 -2.4000054e-05
3.469447e-18 0.00076199998 -0.00027600006
0.027731802 -0.0010160001 -0.00027600006
-0.024234097 -2.1684043e-19 -0.007332
-0.021735737 0.0010160001 -2.4000054e-05
0.0024983606 -0.00127 -0.0010320001
-0.0032478687 -0.00127 -0.00052800006
-0.007495082 0.00127 -0.0010320001
0.0079947542 -0.00127 -0.0010320001
-0.0034977049 -0.00025400001 -0.005568
0.014240655 -0.00127 -0.0015360001
0.012991475 -0.00127 -0.00052800006
-0.0067455736 -0.00127 -2.4000054e-05
-0.0064957375 -0.00025400001 0.0024959999
0.017738361 -0.00127 -2.4000054e-05
0.0057462296 -2.1684043e-19 -2.4000054e-05
0.023234753 -0.00127 -0.00027600006
0.0094937701 -0.00127 -0.0012840001
0.012741639 0.00127 -0.00078000006
-0.016739016 0.00025400001 -0.007584
-0.010992787 -0.00127 -0.00027600006
0.00024983607 -0.00127 -0.0010320001
-0.029230818 -0.00025400001 -0.0063240002
0.0087442622 0.0010160001 -2.4000054e-05
0.029230818 -2.1684043e-19 -0.005568
0.024983605 0.00076199998 -2.4000054e-05
0.0077449176 0.00127 -0.0015360001
-0.026482623 -0.00025400001 0.0022440001
-0.022235408 0.00050800003 -0.002292
0.0069954097 0.00050800003 -0.002292
0.013740983 0.00025400001 -0.0043080002
-0.026482623 -0.00025400001 -0.0058200001
-0.020736393 -0.00127 -0.0010320001
-0.011242623 -2.1684043e-19 -0.0070800004
0.028731147 0.00076199998 -0.002292
0.030479999 0.00025400001 -0.0012840001
-0.0032478687 0.00127 -0.00078000006
0.0092439344 -0.00127 -0.00052800006
0.0054963934 0.00076199998 -0.00027600006
-0.015489835 -2.1684043e-19 -2.4000054e-05
0.010243278 0.0010160001 -2.4000054e-05
-0.011242623 -0.00076199998 -0.002292
-0.0054963934 -0.00050800003 -0.00027600006
0.004746885 0.00076199998 -0.002292
0.026482623 -0.00050800003 -0.00027600006
-0.016739016 -0.00127 -0.0010320001
0.016239343 -2.1684043e-19 -0.007332
-0.028231476 0.0010160001 -0.002292
-0.01898754 -0.00025400001 -0.005316
0.0057462296 0.0010160001 -0.002292
-0.023734426 -0.00076199998 -0.002292
-0.023984261 -2.1684043e-19 -0.0045600003
-0.021735737 -2.1684043e-19 -0.0045600003
-0.0082445899 0.00050800003 -0.002292
0.028731147 -0.0010160001 -0.002292
-0.0079947542 0.00127 -0.00052800006
0.004746885 -0.00025400001 -2.4000054e-05
0.00099934428 0.00025400001 -0.0063240002
-0.021485901 -0.00127 -0.0015360001
-0.014240655 -0.00025400001 -0.0027960001
-0.0062459013 -0.00025400001 0.001236
-0.0072452459 0.0010160001 -2.4000054e-05
-0.0039973771 0.00025400001 -0.0033000002
0.01898754 -2.1684043e-19 0.00098399993
-0.024733771 -0.00127 -0.0017880001
0.0027481967 0.00127 -0.0020400002
-0.0042472132 -0.00127 -0.00052800006
-0.023984261 -0.00127 -0.0017880001
-0.003747541 0.00127 -0.00052800006
0.026232786 -0.00127 -0.00078000006
-0.021485901 0.00025400001 -0.003552
0.027981639 -0.00127 -0.002292
0.017738361 0.00127 -0.002292
0.021735737 -2.1684043e-19 0.0014879999
0.0069954097 -0.00127 -0.00078000006
0.025483279 -0.00127 -0.00078000006
-0.0039973771 -0.00025400001 -0.0065760002
-0.011492459 0.00127 -0.00052800006
-0.016239343 -2.1684043e-19 0.00022799995
-0.0062459013 -0.00025400001 0.00174
0.0062459013 -0.00025400001 -0.0040560002
0.021485901 -0.00127 -0.0020400002
-0.0089940978 -0.00025400001 -0.0040560002
-0.0087442622 -0.00025400001 -0.0063240002
-0.0087442622 -2.1684043e-19 0.0014879999
0.0057462296 0.00127 -0.0015360001
-0.0082445899 -0.0010160001 -0.002292
-0.021735737 -0.00025400001 -0.0027960001
0.011492459 -0.00050800003 -0.002544
0.013990819 0.00025400001 -0.0070800004
0.00074950815 -0.00127 -0.0012840001
0.017238688 0.00127 -0.00027600006
-0.013491147 0.00127 -2.4000054e-05
0.003747541 -0.00025400001 -0.003552
0.016739016 -2.1684043e-19 -0.002544
0.014240655 -2.1684043e-19 -0.007332
-0.0022485245 0.0010160001 -2.4000054e-05
-0.012991475 0.00127 -0.00027600006
-0.0014990163 -2.1684043e-19 -0.0060720001
0.0099934423 0.00127 -0.0015360001
-0.019237377 0.00025400001 0.00098399993
0.016739016 -0.00025400001 0.00174
-0.013740983 -0.00025400001 -0.0030480002
-0.025483279 0.00050800003 -0.00027600006
-0.023234753 -0.00050800003 -0.00027600006
0.0069954097 -0.00127 -0.0012840001
-0.0012491803 0.00025400001 0.00047999996
0.023984261 -2.1684043e-19 -0.007584
0.021236066 0.00050800003 -0.002292
0.024983605 0.00076199998 -0.002292
0.015989508 -0.00127 -2.4000054e-05
-0.0089940978 0.00025400001 -0.0045600003
0.02598295 0.00127 -0.00027600006
0.0097436067 -0.00127 -0.002292
-0.022235408 0.00127 -0.00027600006
-0.024733771 -0.00076199998 -0.002292
0.011742295 -0.00050800003 -0.00027600006
-0.021735737 0.00025400001 -0.0058200001
0.013990819 -0.00025400001 -0.0065760002
-0.011742295 0.00127 -0.00027600006
0.013990819 -0.00127 -0.0015360001
-0.013491147 -0.00050800003 -0.00027600006
0.01648918 -2.1684043e-19 -0.0050639999
0.0062459013 -0.00025400001 0.001236
0.0087442622 -2.1684043e-19 -0.007332
0.024983605 0.0010160001 -2.4000054e-05
-0.011492459 -2.1684043e-19 0.0024959999
0.013990819 -0.00025400001 0.00174
-0.021735737 -0.0010160001 -2.4000054e-05
-0.012741639 0.00076199998 -0.002292
0.0039973771 -2.1684043e-19 0.00022799995
0.021735737 -0.00127 -0.002292
0.024234097 0.00025400001 -0.0063240002
-0.00099934428 0.00025400001 -2.4000054e-05
0.020486556 0.00076199998 -0.002292
-0.027731802 0.00050800003 -0.002292
0.021985574 -0.00127 -0.0020400002
0.0097436067 -0.00127 -0.0012840001
-0.0087442622 -0.00025400001 0.001236
0.020736393 -0.0010160001 -2.4000054e-05
-0.019487213 0.00127 -0.0015360001
-0.011242623 -0.00025400001 0.00174
0.028980983 0.00025400001 -0.0027960001
-0.015739672 0.00127 -0.00027600006
-0.016988853 -0.0010160001 -2.4000054e-05
-0.021735737 0.00025400001 -0.0043080002
0.026732458 0.00127 -0.0015360001
0.026482623 -2.1684043e-19 -0.005316
0.021485901 -0.00127 -0.00052800006
0.0089940978 -2.1684043e-19 -0.0078360001
-0.0039973771 0.00076199998 -0.00027600006
-0.026232786 0.0010160001 -0.002292
-0.0064957375 0.00025400001 -0.003552
0.018487869 -0.00127 -0.002292
-0.030479999 -0.00076199998 -0.0020400002
0.021236066 -2.1684043e-19 -2.4000054e-05
0.027481966 -0.00050800003 -0.002292
0.029230818 -2.1684043e-19 0.00098399993
-0.022735082 -2.1684043e-19 -2.4000054e-05
-0.023234753 -0.0010160001 -0.002292
-0.0039973771 -2.1684043e-19 0.00073199999
0.018487869 -0.00127 -0.00027600006
0.014240655 0.00025400001 -0.0043080002
0.021735737 0.00025400001 0.00174
0.013740983 -2.1684043e-19 -0.002544
-0.026482623 -0.00025400001 -0.0030480002
-0.028980983 -0.00025400001 -0.0065760002
0.029730491 -0.0010160001 -0.0010320001
0.025483279 -0.00127 -0.00052800006
-0.01074295 0.00127 -0.0017880001
0.0082445899 0.00127 -0.0015360001
-0.012991475 -0.00127 -0.00027600006
0.0094937701 -0.00050800003 -0.00027600006
-0.024733771 0.00127 -0.0012840001
-0.019237377 0.00025400001 -0.0060720001
0.021485901 -0.0010160001 -2.4000054e-05
0.021985574 0.00127 -0.002292
0.0044970489 0.00050800003 -0.00027600006
-0.026482623 -2.1684043e-19 -0.0040560002
-0.016739016 -0.00127 -0.0012840001
0.029230818 -0.00025400001 0.00098399993
-0.0057462296 -0.00127 -0.0017880001
-0.0019986886 -0.00076199998 -0.002292
-0.011492459 0.00025400001 -0.0070800004
-0.0014990163 0.00127 -0.00078000006
-0.015489835 -0.00076199998 -0.002292
0.012991475 -0.00127 -0.0017880001
0.0029980326 -2.1684043e-19 -2.4000054e-05
-0.0097436067 -0.00127 -0.0017880001
0.015489835 -0.00127 -0.00078000006
-0.0017488524 -0.00050800003 -0.002292
-0.017488524 0.00127 -0.0012840001
0.007495082 0.00050800003 -0.002292
-0.00049967214 -0.00127 -0.00078000006
0.00099934428 -2.1684043e-19 0.0022440001
0.014240655 0.00127 -0.0012840001
-0.021735737 -2.1684043e-19 -0.0058200001
0.028231476 -0.00025400001 -0.002292
-0.0094937701 -0.00025400001 -2.4000054e-05
0.016239343 -0.00076199998 -2.4000054e-05
0.029730491 -0.0010160001 -0.00052800006
-0.016739016 -2.1684043e-19 -0.0068280003
0.023734426 -0.00127 -0.0010320001
-0.0079947542 -0.00076199998 -2.4000054e-05
0.0012491803 0.0010160001 -0.002292
0.016988853 0.00127 -0.002292
-0.019237377 0.00050800003 -0.00027600006
0.0042472132 -0.00127 -0.0015360001
0.003747541 -0.00025400001 -0.0038040001
-0.0044970489 -0.00050800003 -0.002292
-0.0062459013 -0.00076199998 -0.002292
-0.024483934 0.00050800003 -0.002292
-0.012991475 -0.00050800003 -0.00027600006
-0.0062459013 -0.00025400001 -0.0063240002
0.0017488524 -0.00127 -0.0012840001
0.0052465573 -0.0010160001 -0.002292
0.0049967212 -0.00076199998 -2.4000054e-05
0.0087442622 -0.00025400001 0.00022799995
-0.028980983 -2.1684043e-19 0.001992
0.0089940978 0.00025400001 -0.0070800004
-0.0072452459 0.00127 -0.00027600006
0.016739016 -0.00076199998 -0.002292
-0.01898754 0.00025400001 -0.0045600003
-0.0089940978 0.00025400001 -2.4000054e-05
-0.0014990163 0.00127 -0.0015360001
0.013740983 0.00025400001 -2.4000054e-05
-0.022485245 -0.00127 -0.00027600006
0.0072452459 0.00127 -0.002292
0.0024983606 -2.1684043e-19 -0.002292
-0.01199213 -0.00127 -0.0017880001
-0.028980983 0.00127 -0.0015360001
0.015989508 -0.00076199998 -0.002292
0.015489835 -0.0010160001 -0.002292
0.0014990163 -0.00025400001 0.00098399993
-0.0014990163 0.00025400001 0.00047999996
-0.0044970489 0.00127 -0.0010320001
-0.017488524 -0.00076199998 -0.002292
0.0022485245 -0.00127 -0.002292
-0.00099934428 -2.1684043e-19 -0.005316
-0.0022485245 -0.00127 -0.0010320001
-0.026732458 -0.00025400001 0.00098399993
-0.01898754 0.00025400001 0.001236
0.0034977049 -0.00127 -0.00027600006
0.020736393 -0.00127 -0.0017880001
-0.029480655 -2.1684043e-19 -0.0030480002
0.011742295 -0.00050800003 -0.002292
-0.0089940978 -0.00025400001 -0.0027960001
0.010243278 -0.00127 -0.0017880001
-0.024234097 -0.0010160001 -2.4000054e-05
-0.0019986886 0.00127 -0.00078000006
-0.018238032 -0.0010160001 -2.4000054e-05
-0.016739016 -2.1684043e-19 -0.007584
-0.010243278 0.00127 -0.002292
0.0064957375 0.00025400001 -0.0038040001
0.010243278 0.00127 -0.00078000006
-0.016239343 -2.1684043e-19 -0.0030480002
-0.012741639 -0.00127 -0.00027600006
0.011492459 -0.00025400001 0.0022440001
0.0062459013 -0.00025400001 -0.0060720001
-0.021485901 0.00025400001 -0.0058200001
0.003747541 -0.00025400001 -0.0027960001
0.0042472132 0.00050800003 -0.002292
0.022735082 0.00127 -0.00052800006
0.023984261 -2.1684043e-19 0.0024959999
-0.013740983 -0.00025400001 -0.0048120003
-0.020236721 -0.00050800003 -0.002292
0.028731147 0.00050800003 -0.00027600006
-0.00049967214 0.0010160001 -2.4000054e-05
0.020236721 0.00050800003 -0.00027600006
-0.02848131 -0.00127 -0.00027600006
0.018737704 0.0010160001 -0.002292
0.019487213 -2.1684043e-19 -0.002292
-0.011242623 -2.1684043e-19 -0.0027960001
-0.0042472132 0.00025400001 -2.4000054e-05
0.0089940978 -2.1684043e-19 0.0022440001
0.022735082 -0.00127 -2.4000054e-05
0.024234097 -0.00127 -0.002292
0.00099934428 0.00127 -0.00078000006
0.01524 -0.00050800003 -0.002292
0.024234097 -0.00025400001 -0.0040560002
-0.0084944265 0.00076199998 -0.00027600006
0.00099934428 0.00025400001 -0.0058200001
-0.0062459013 0.00025400001 0.001236
0.029730491 0.0010160001 -0.00052800006
-0.00024983607 0.0010160001 -0.002292
0.029980328 -0.0010160001 -0.0015360001
0.023984261 0.00025400001 -0.0060720001
-0.021735737 -2.1684043e-19 0.00073199999
0.013491147 0.0010160001 -2.4000054e-05
0.020236721 -0.00127 -0.0010320001
0.023984261 -0.00025400001 -0.007584
0.012741639 -0.00127 -0.00027600006
0.00099934428 -2.1684043e-19 -0.0050639999
0.004746885 0.00127 -0.0010320001
0.0087442622 -2.1684043e-19 0.00174
-0.018737704 0.00050800003 -0.002292
0.011242623 0.00127 -0.0012840001
-0.0064957375 -0.00025400001 -0.0065760002
0.014240655 0.00025400001 -0.0058200001
0.0052465573 0.00025400001 -2.4000054e-05
0.0089940978 -2.1684043e-19 -0.0063240002
0.027232131 -0.00025400001 -0.002292
0.00024983607 -0.00025400001 -2.4000054e-05
0.026482623 0.00127 -2.4000054e-05
0.026482623 0.00025400001 -0.0060720001
-0.01648918 -0.00025400001 -0.0065760002
0.013740983 0.00025400001 -0.0070800004
-0.0087442622 -2.1684043e-19 -0.0058200001
-0.0067455736 -0.0010160001 -0.002292
0.021485901 -0.00025400001 -0.002544
-0.021485901 0.00025400001 -0.0038040001
0.00074950815 -0.00127 -2.4000054e-05
0.016239343 -2.1684043e-19 -0.0027960001
-0.01648918 0.00025400001 -0.003552
0.026482623 0.00127 -0.00027600006
-0.028980983 -0.00076199998 -0.002292
0.0084944265 0.00127 -0.00078000006
0.0077449176 -0.00076199998 -2.4000054e-05
0.029230818 -0.00050800003 -0.002292
0.021485901 0.00076199998 -2.4000054e-05
-0.026482623 0.00127 -0.0012840001
0.02598295 -0.00127 -0.0012840001
-0.00099934428 -0.00025400001 0.001236
0.0014990163 -0.00025400001 -0.0033000002
-0.017988196 0.00025400001 -0.002292
-0.014240655 -2.1684043e-19 0.0014879999
-0.013740983 -0.00025400001 0.00047999996
-0.026732458 -0.00025400001 0.0022440001
-0.0049967212 -0.00050800003 -0.00027600006
-0.023734426 0.00127 -0.0012840001
0.017738361 0.00076199998 -0.00027600006
0.0082445899 -0.00025400001 -0.002292
-0.019737048 0.00127 -0.0020400002
-0.01898754 0.00025400001 0.00174
-0.021735737 -0.00025400001 -0.0063240002
0.018737704 0.00127 -0.002292
0.028980983 0.00127 -0.00078000006
-0.00099934428 -0.00025400001 -0.0065760002
-0.018737704 0.00127 -0.002292
-0.016739016 0.00127 -0.002292
0.020736393 0.00076199998 -0.002292
-0.00049967214 0.00050800003 -0.00027600006
-0.013491147 -0.00127 -0.00052800006
0.02848131 -0.00050800003 -0.002292
-0.024234097 -0.00025400001 -0.0060720001
0.02848131 -0.00127 -0.0017880001
-0.0042472132 -0.00127 -0.0010320001
-0.00049967214 0.00127 -0.0017880001
-0.00099934428 -2.1684043e-19 0.001992
-0.00074950815 0.00127 -0.0012840001
-0.026482623 -0.00025400001 -0.005568
-0.0054963934 -2.1684043e-19 -0.002292
-0.018487869 0.0010160001 -0.002292
0.023734426 -0.00127 -0.00078000006
-0.016239343 -2.1684043e-19 -0.007332
-0.017988196 -0.00127 -0.0015360001
-0.0069954097 -2.1684043e-19 -0.002292
-0.0062459013 -0.00127 -0.0010320001
-0.0014990163 0.00025400001 -0.007584
-0.0089940978 0.00025400001 -0.0048120003
0.024234097 -0.00025400001 -0.0065760002
0.0022485245 -0.00127 -2.4000054e-05
-0.0044970489 0.00127 -0.00052800006
0.020486556 0.00127 -2.4000054e-05
0.027481966 0.00025400001 -2.4000054e-05
0.023984261 -0.00127 -0.0015360001
0.022485245 0.0010160001 -0.002292
-0.024733771 -0.00127 -0.0010320001
-0.018238032 -0.00127 -0.002292
0.0087442622 0.00025400001 -0.0045600003
-0.028231476 0.00127 -0.0015360001
0.011742295 -0.00127 -2.4000054e-05
0.013740983 -0.00025400001 -0.0030480002
-0.025233442 0.00076199998 -0.002292
-0.022984918 -0.00127 -0.0015360001
-0.013990819 -0.00127 -0.0012840001
-0.00099934428 -2.1684043e-19 -0.0033000002
-0.011742295 -0.0010160001 -0.002292
0.011242623 0.00025400001 -0.0058200001
-0.023984261 -2.1684043e-19 0.0014879999
0.0039973771 0.00025400001 -0.0048120003
0.029980328 0.00050800003 -0.002292
0.0034977049 0.00025400001 0.0022440001
0.0062459013 -2.1684043e-19 0.00098399993
0.013740983 -2.1684043e-19 0.001992
0.0052465573 -0.00127 -0.00052800006
0.0077449176 -0.0010160001 -0.002292
-0.0012491803 0.00025400001 -0.003552
-0.00099934428 -0.00127 -0.002292
0.024983605 -0.00127 -0.0010320001
-0.027731802 -0.00127 -0.002292
0.0092439344 0.00127 -0.0012840001
-0.0072452459 0.00127 -0.002292
-0.01898754 0.00025400001 0.0022440001
-0.015739672 -0.00127 -0.0010320001
0.012741639 0.00127 -0.0010320001
0.028980983 -2.1684043e-19 -0.0033000002
-0.011492459 0.00025400001 -0.0068280003
0.020986229 -0.00076199998 -0.002292
-0.014740327 -0.00127 -0.00027600006
0.014490492 0.00127 -0.0010320001
0.0087442622 -2.1684043e-19 0.00073199999
-0.0014990163 -0.00025400001 -0.002544
-0.0084944265 0.00127 -0.0020400002
0.011492459 -2.1684043e-19 -0.0045600003
0.024234097 -0.00025400001 -0.0033000002
-0.012491803 -0.00025400001 -2.4000054e-05
-0.012491803 -0.00127 -0.00052800006
-0.0034977049 -0.00076199998 -0.002292
0.021985574 -0.00050800003 -0.002292
-0.01648918 -0.00025400001 0.001992
-0.0097436067 -0.00076199998 -0.002292
-0.0064957375 0.00050800003 -0.00027600006
0.011492459 0.00025400001 -0.007332
-0.026732458 -0.00127 -0.00078000006
-0.0027481967 0.00127 -0.0010320001
0.029230818 -0.0010160001 -0.0010320001
-0.029230818 0.0010160001 -0.002292
-0.0092439344 -0.00025400001 -2.4000054e-05
0.019487213 0.00050800003 -0.00027600006
0.0024983606 0.00076199998 -0.002292
0.0034977049 -0.00127 -0.0015360001
0.029230818 -0.00025400001 -0.0068280003
-0.0024983606 0.00076199998 -0.00027600006
-0.00049967214 0.00127 -0.0010320001
0.0057462296 0.00127 -0.00027600006
-0.0022485245 0.0010160001 -0.002292
0.021485901 -2.1684043e-19 0.00174
-0.019487213 0.00127 -0.0010320001
-0.011492459 -0.00025400001 -0.0060720001
0.020236721 -0.00127 -0.00052800006
0.018238032 0.00127 -0.00052800006
-0.00024983607 -0.00127 -0.0017880001
0.024983605 0.00127 -0.0015360001
-0.00049967214 0.00025400001 -0.002292
0.0014990163 0.00025400001 -0.007332
-0.020486556 -0.00127 -0.0012840001
0.016739016 -2.1684043e-19 0.00022799995
0.012991475 0.00127 -0.00052800006
0.021985574 0.00127 -0.0010320001
0.0079947542 -2.1684043e-19 -2.4000054e-05
-0.01898754 -2.1684043e-19 0.00174
-0.0077449176 0.00076199998 -0.00027600006
0.013990819 0.00050800003 -0.002544
0.026732458 -2.1684043e-19 0.00098399993
0.028980983 0.00025400001 -0.0063240002
-0.0039973771 0.00025400001 0.00174
-0.0022485245 0.00127 -0.002292
-0.0062459013 -0.00025400001 0.00098399993
-0.013990819 -0.00025400001 -0.007332
-0.0069954097 0.00127 -0.002292
0.028231476 0.00127 -0.0012840001
-0.013740983 -2.1684043e-19 0.001236
0.026732458 0.00127 -0.0012840001
0.0062459013 -2.1684043e-19 0.002748
-0.0039973771 -0.00127 -0.00027600006
-0.011242623 0.00025400001 0.001236
-0.011242623 -2.1684043e-19 0.00098399993
-0.0062459013 -0.00050800003 -0.002544
-0.024234097 -0.00127 -0.002292
-0.0017488524 0.00127 -0.0015360001
-0.029480655 0.0010160001 -0.0017880001
-0.011242623 -2.1684043e-19 -0.0068280003
-0.0012491803 0.00127 -0.0012840001
0.0062459013 0.00025400001 -0.0058200001
-0.014240655 -0.00025400001 -0.002544
-0.028731147 0.00025400001 -0.002292
-0.00099934428 -0.00025400001 -0.0060720001
0.022485245 0.00025400001 -0.002292
-0.016988853 0.00127 -2.4000054e-05
0.0094937701 -0.00127 -0.002292
-0.028980983 0.00050800003 -0.00027600006
-0.0087442622 0.00076199998 -0.00027600006
0.014990164 -0.00127 -0.0017880001
-0.013990819 -0.00025400001 -0.0078360001
-0.017238688 0.00127 -0.00052800006
0.01648918 -0.00127 -0.0017880001
-0.0067455736 0.00076199998 -0.002292
0.016739016 -2.1684043e-19 -0.007332
0.011242623 -0.00025400001 0.001236
0.00024983607 -0.00127 -0.002292
-0.012241967 -0.00127 -0.00027600006
-0.029230818 -2.1684043e-19 -0.0043080002
-0.0034977049 -0.00025400001 -0.0048120003
0.029980328 -0.0010160001 -0.0017880001
0.004746885 0.00127 -0.00052800006
-0.0089940978 -2.1684043e-19 -0.005568
0.023984261 -0.00127 -0.00078000006
-0.00099934428 -2.1684043e-19 -0.0058200001
-0.024234097 0.0010160001 -2.4000054e-05
0.015739672 -0.00025400001 -0.002292
-0.026732458 -0.00025400001 -0.0068280003
0.014990164 0.00127 -0.00078000006
0.017238688 -0.00050800003 -0.00027600006
-0.021485901 -0.00025400001 -0.0027960001
0.02848131 0.0010160001 -0.002292
-0.0067455736 -0.00025400001 -0.002292
-0.027481966 0.00076199998 -0.002292
-0.013990819 -0.00025400001 -0.005316
-0.003747541 -0.00025400001 -0.003552
0.01898754 0.00025400001 0.00047999996
-0.015739672 -2.1684043e-19 -2.4000054e-05
-0.0044970489 -0.00127 -0.0012840001
-0.011492459 0.00025400001 0.0022440001
0.025233442 -0.00127 -0.002292
0.023234753 0.00127 -0.0015360001
-0.020486556 -0.00076199998 -0.002292
0.013990819 -0.00025400001 0.0022440001
0.013241312 0.00127 -0.0017880001
-0.026732458 0.00025400001 -0.005568
-0.011492459 -2.1684043e-19 0.0014879999
0.013491147 0.00127 -0.002292
0.026982294 -0.00025400001 -2.4000054e-05
0.017488524 0.00076199998 -0.00027600006
-0.023734426 -0.00127 -0.0017880001
0.015739672 0.00127 -0.0010320001
0.012241967 0.00076199998 -0.00027600006
0.0062459013 -2.1684043e-19 -0.0063240002
0.014990164 0.00050800003 -0.002292
-0.0089940978 0.00025400001 -0.007584
0.019986885 0.00127 -0.002292
-0.0054963934 0.00127 -0.0020400002
-0.019237377 -0.00025400001 -0.0045600003
0.016739016 -0.00025400001 0.001992
0.007495082 -0.00127 -0.002292
-0.01648918 0.00025400001 -0.0068280003
0.0072452459 0.0010160001 -2.4000054e-05
-0.0084944265 0.0010160001 -0.002292
0.026982294 -0.0010160001 -0.002292
-0.011242623 -0.00050800003 -0.00027600006
-0.010992787 0.00025400001 -0.002292
0.019737048 -0.00050800003 -0.002292
-0.019237377 0.00025400001 -0.0063240002
0.0062459013 -2.1684043e-19 -0.0070800004
-0.0064957375 0.00127 -0.0020400002
-0.010992787 0.00076199998 -0.002292
-0.017238688 -0.00076199998 -2.4000054e-05
-0.019986885 0.00025400001 -2.4000054e-05
-0.01524 0.0010160001 -2.4000054e-05
0.014240655 -0.00127 -0.0020400002
0.026482623 0.00025400001 -0.0027960001
-0.026482623 0.00127 -0.0020400002
-0.01074295 0.00025400001 -2.4000054e-05
-0.0019986886 -0.00127 -2.4000054e-05
0.0079947542 -2.1684043e-19 -0.002292
0.0032478687 0.00025400001 -0.002292
-0.0042472132 0.00127 -0.00052800006
-0.024733771 -0.00050800003 -0.00027600006
-0.011242623 0.00025400001 -0.0070800004
-0.022485245 -2.1684043e-19 -0.002292
0.00099934428 -2.1684043e-19 0.00073199999
-0.015739672 -0.00050800003 -0.002292
0.021485901 -2.1684043e-19 -0.007584
0.028980983 -0.00025400001 -0.0063240002
0.0094937701 -0.00025400001 -2.4000054e-05
0.0059960652 -0.00025400001 -2.4000054e-05
0.0087442622 -0.00025400001 0.00174
-0.021735737 0.00025400001 0.00022799995
-0.0097436067 0.00127 -0.0015360001
0.015739672 0.00025400001 -0.002292
0.030230163 -0.00050800003 -0.0010320001
-0.026482623 0.00025400001 -0.007332
0.029230818 -0.00025400001 0.0022440001
0.020736393 0.00127 -0.0010320001
-0.013990819 0.00127 -2.4000054e-05
0.029730491 0.0010160001 -0.002292
0.00099934428 -2.1684043e-19 0.00174
-0.0087442622 0.00025400001 0.001236
-0.0034977049 -2.1684043e-19 0.001236
-0.0064957375 -0.00025400001 -0.0048120003
0.014240655 0.00025400001 -0.0038040001
-0.0064957375 -0.00025400001 -0.0027960001
-0.013740983 0.00127 -0.00027600006
-0.029730491 -0.0010160001 -0.002292
0.0044970489 -0.00127 -0.0015360001
3.469447e-18 0.00050800003 -0.00027600006
0.023234753 0.00127 -2.4000054e-05
0.0012491803 0.00025400001 0.002748
0.019737048 0.00127 -0.0020400002
-0.019737048 0.0010160001 -2.4000054e-05
0.01898754 -0.00076199998 -0.002292
-0.025733113 -0.00127 -0.0012840001
0.021485901 -2.1684043e-19 0.00022799995
0.019237377 0.0010160001 -0.002292
0.029730491 0.00050800003 -0.002292
-0.019737048 -0.00127 -0.0012840001
-0.028980983 0.00076199998 -0.002292
-0.010493115 -0.00127 -0.0017880001
0.011242623 -2.1684043e-19 -0.0058200001
-0.029480655 -0.00025400001 0.00047999996
-0.0064957375 -2.1684043e-19 -0.0068280003
0.0034977049 -2.1684043e-19 -0.002544
-0.0099934423 -0.00127 -0.0012840001
-0.0022485245 0.00025400001 -0.002292
-0.020486556 -2.1684043e-19 -2.4000054e-05
-0.014990164 -0.00127 -0.0012840001
0.029230818 0.00025400001 -0.0040560002
-0.0012491803 0.00127 -0.0015360001
-0.015489835 -0.00127 -0.00027600006
0.0029980326 -0.00127 -0.00078000006
-0.0054963934 0.00127 -0.0017880001
-0.030479999 0.00050800003 -0.00052800006
0.022984918 0.00076199998 -2.4000054e-05
0.01524 -0.00127 -0.0020400002
0.01524 0.00050800003 -0.002292
-0.0024983606 -0.00025400001 -0.002292
-0.026732458 -2.1684043e-19 -0.0060720001
-0.021485901 0.00127 -2.4000054e-05
0.0014990163 0.00127 -0.0020400002
-0.0014990163 -2.1684043e-19 -0.0048120003
-0.0059960652 -0.00050800003 -0.00027600006
-0.030230163 0.00076199998 -0.00027600006
-0.014240655 -2.1684043e-19 -0.0045600003
-0.019237377 0.00127 -0.0020400002
-0.02348459 -0.00127 -2.4000054e-05
0.01199213 0.00127 -0.00052800006
-0.0027481967 -0.00025400001 -0.002292
-0.029980328 0.0010160001 -0.00078000006
0.026732458 -0.00050800003 -0.00027600006
-0.016739016 0.00127 -0.00052800006
0.025483279 0.00127 -0.00027600006
0.0097436067 0.00127 -0.0010320001
0.0014990163 -2.1684043e-19 -0.0033000002
-0.011242623 -2.1684043e-19 -0.0030480002
-0.014990164 0.00127 -0.00078000006
0.011742295 -0.00127 -0.00027600006
0.019487213 0.00025400001 -2.4000054e-05
0.0039973771 0.00025400001 0.001236
-0.013241312 0.00127 -0.002292
-0.019237377 -2.1684043e-19 -0.005316
-0.00024983607 -0.00127 -0.002292
-0.0064957375 -0.00025400001 -0.0030480002
-0.021485901 0.00127 -0.0010320001
0.011742295 0.00127 -2.4000054e-05
-0.0049967212 -0.00127 -0.0015360001
0.01898754 0.00025400001 0.0022440001
-0.01898754 0.00025400001 -0.0070800004
-0.0062459013 0.00025400001 -0.0038040001
0.026482623 0.00025400001 -0.0050639999
0.026232786 -0.0010160001 -0.002292
0.016739016 -0.00025400001 -0.0060720001
-0.00049967214 0.00127 -0.0020400002
-0.025233442 0.00127 -0.0017880001
0.010493115 0.0010160001 -2.4000054e-05
0.012741639 0.00025400001 -0.002292
-0.0034977049 -0.00025400001 -0.007584
-0.00099934428 -0.00025400001 -0.0033000002
-0.016988853 -0.00127 -0.00052800006
-0.028980983 -0.0010160001 -2.4000054e-05
0.0039973771 0.00025400001 -0.0040560002
0.029480655 -2.1684043e-19 0.001992
0.011242623 -0.00127 -0.0012840001
0.017488524 0.00076199998 -0.002292
0.017238688 0.00127 -0.0010320001
0.0062459013 0.00127 -0.0020400002
0.011492459 -0.00025400001 -0.0063240002
-0.00049967214 0.00127 -0.0015360001
-0.021735737 -2.1684043e-19 -0.0078360001
-0.012991475 -0.0010160001 -0.002292
0.0039973771 -0.0010160001 -0.002292
-0.023984261 0.00025400001 0.0014879999
0.024234097 -2.1684043e-19 -0.0060720001
0.01648918 -2.1684043e-19 -0.005568
0.004746885 -0.00025400001 -0.002292
0.016239343 -2.1684043e-19 -0.0030480002
0.0039973771 -2.1684043e-19 -0.005568
0.013990819 0.00025400001 0.00022799995
0.0097436067 -0.00127 -0.00027600006
0.0064957375 0.0010160001 -2.4000054e-05
-0.026732458 0.00025400001 -0.0030480002
0.016739016 0.00025400001 0.0022440001
0.0087442622 0.00025400001 -0.005316
0.024234097 0.00127 -0.0010320001
-0.012241967 0.00127 -0.00078000006
0.026232786 -0.00025400001 -0.002292
0.0079947542 -0.0010160001 -2.4000054e-05
0.021735737 -0.00025400001 -2.4000054e-05
0.022735082 0.00127 -2.4000054e-05
-0.015739672 -0.00076199998 -0.002292
-0.011242623 0.00025400001 -2.4000054e-05
-0.029230818 -0.00025400001 -0.0070800004
-0.0044970489 -0.00025400001 -0.002292
-0.0062459013 0.00025400001 0.0024959999
-0.011492459 -0.00025400001 0.0024959999
0.025483279 0.00127 -0.002292
-0.01898754 0.00025400001 -0.0058200001
0.0069954097 0.00127 -0.00052800006
-0.0084944265 -0.00127 -0.0017880001
0.030479999 0.00025400001 -0.002292
0.014240655 -2.1684043e-19 -0.0043080002
-0.0084944265 0.00127 -2.4000054e-05
-0.02848131 0.00076199998 -0.002292
-0.026482623 -0.00025400001 -0.0043080002
0.020486556 0.0010160001 -0.002292
0.00024983607 0.00127 -0.002292
0.022735082 0.00127 -0.0012840001
-0.014740327 0.00127 -0.0017880001
0.028980983 -0.00025400001 -0.0043080002
0.029980328 -0.00050800003 -0.00027600006
0.0087442622 -0.00127 -0.002292
-0.010992787 -0.00050800003 -0.002292
-0.020486556 0.00025400001 -2.4000054e-05
-0.011242623 0.00025400001 -0.0030480002
0.028731147 -0.00127 -0.0020400002
0.013740983 -0.00025400001 0.00073199999
-0.004746885 -0.00050800003 -0.002292
0.022485245 -0.00127 -0.00052800006
0.015989508 0.00076199998 -0.00027600006
0.014490492 0.00127 -0.00078000006
0.026732458 0.00025400001 -0.0043080002
0.022235408 0.00076199998 -2.4000054e-05
0.014490492 0.00127 -2.4000054e-05
-0.018737704 -0.00050800003 -0.002292
-0.030479999 -2.1684043e-19 -0.0020400002
0.015989508 -0.00127 -0.00078000006
0.011492459 -0.00127 -0.0020400002
0.0064957375 -2.1684043e-19 0.00098399993
-0.025483279 0.00127 -0.002292
-0.0032478687 0.00025400001 -2.4000054e-05
-0.021485901 0.00025400001 -0.0040560002
-0.0089940978 0.00025400001 -0.003552
-0.0034977049 -0.00025400001 -0.0070800004
0.019487213 -0.00127 -0.00027600006
0.026732458 -0.00050800003 -0.002292
0.017988196 0.00025400001 -0.002292
-0.013740983 0.00025400001 -0.0058200001
-0.023234753 -0.00127 -0.0010320001
0.024733771 0.0010160001 -2.4000054e-05
0.01648918 -0.00127 -0.002292
0.0089940978 -0.00025400001 -0.0058200001
0.014990164 0.00127 -0.0017880001
0.013241312 0.00127 -0.002292
0.023984261 -0.00025400001 -0.0048120003
0.01898754 -0.00127 -2.4000054e-05
0.026982294 0.00127 -0.00027600006
-0.029230818 0.0010160001 -0.00052800006
0.0067455736 0.00127 -0.0015360001
0.017238688 -0.00076199998 -2.4000054e-05
-0.0032478687 0.00050800003 -0.002292
0.01648918 -0.00025400001 0.001236
-0.01648918 -2.1684043e-19 -0.0060720001
0.01898754 0.00025400001 0.00022799995
-0.021485901 0.00025400001 -0.0060720001
-0.014490492 -0.00127 -2.4000054e-05
-0.0089940978 -2.1684043e-19 0.001236
-0.01898754 -2.1684043e-19 0.0024959999
0.0072452459 0.00076199998 -0.00027600006
0.02598295 -0.00050800003 -0.002292
0.0097436067 -0.00127 -0.0015360001
0.0094937701 -2.1684043e-19 -0.002292
