# .PCD v0.7 - Point Cloud Data file format
VERSION 0.7
FIELDS x y z
SIZE 4 4 4
TYPE F F F
COUNT 1 1 1
WIDTH 1259
HEIGHT 1
VIEWPOINT 0 0 0 1 0 0 0
POINTS 1259
DATA ascii
0.016603462 -0.00057727273 -0.0024999999
0.008906493 0.00034636364 -0.0060200002
0.018802596 -0.00057727273 -0.0022799999
-0.016603462 0.00034636364 -0.0057999999
0.0036285713 -0.00011545455 -0.0057999999
0.024960173 -0.0010390909 -0.00118
0.00098961033 -0.0010390909 -7.9999998e-05
-0.002968831 -0.00127 -0.00118
-0.012645021 0.00127 -0.00052
-0.022321211 -0.00011545455 -0.0022799999
-0.016603462 -0.00011545455 -0.0068999999
-0.012645021 -0.00034636364 -7.9999998e-05
0.016383549 0.00034636364 -0.0060200002
-0.0073670992 0.00034636364 -7.9999998e-05
0.0097861467 0.00127 -0.00052
-0.023200866 0.00127 -0.00118
-0.0020891775 0.00127 -0.00052
-0.016383549 0.00034636364 -0.00272
0.00098961033 0.00011545455 -0.0064599998
-0.011545454 0.00127 -0.00162
-0.0064874459 -0.00011545455 -0.0086599998
-0.024960173 0.00057727273 -0.00030000001
0.014624242 0.00127 -0.00184
0.002968831 0.0010390909 -0.0024999999
-0.013744588 -0.00011545455 -0.0053599998
0.0064874459 0.00011545455 -0.00514
-0.021661472 0.00034636364 -0.0044800001
0.0034086579 0.00127 -0.0024999999
-0.010006061 0.00127 -0.0024999999
0.019242425 0.00011545455 -0.00294
0.0036285713 0.00034636364 0.0023399999
-0.010225974 -0.00127 -0.00052
0.002968831 0.00057727273 -0.0024999999
0.0016493506 -0.0010390909 -7.9999998e-05
0.0053878785 0.00127 -0.00030000001
0.021881385 0.00127 -0.00162
0.022321211 -0.00127 -0.0022799999
0.013964502 -0.00127 -0.0014
0.0020891775 -0.00080818182 -0.00030000001
-0.022980953 0.00127 -0.00052
0.0027489178 -0.00057727273 -0.00030000001
0.01770303 -0.00127 -0.0020600001
0.011325541 -0.00011545455 -0.0046999999
-0.0062675322 0.00011545455 -0.0031600001
-0.011545454 -0.00127 -0.00030000001
-0.00010995671 0.00034636364 -0.0024999999
-0.025180086 -0.00011545455 -7.9999998e-05
0.022980953 0.0010390909 -7.9999998e-05
0.0023090909 0.00127 -7.9999998e-05
0.014184415 -0.00011545455 -0.0088799996
0.015283982 0.00080818182 -0.0022799999
0.010885714 0.00127 -0.00052
0.0086865798 0.00011545455 -0.0046999999
-0.022980953 -0.00127 -0.00162
-0.0040683984 -0.00034636364 0.00124
-0.024520345 -0.00127 -0.00095999998
-0.014624242 -0.00127 -0.0020600001
0.014184415 0.00011545455 -0.00404
-0.00098961033 -0.00011545455 -0.0031600001
0.021221645 0.0010390909 -7.9999998e-05
0.011545454 -0.00080818182 -0.0022799999
-0.0049480516 -0.00127 -0.00162
0.015283982 0.00127 -0.00118
0.015283982 -0.00080818182 -0.0022799999
0.0012095238 -0.00034636364 -0.0042599998
0.0082467534 0.0010390909 -0.0022799999
0.021001732 0.00127 -0.00184
0.0056077922 -0.00057727273 -0.00030000001
0.013964502 -0.00034636364 -0.0082200002
-0.014844156 0.00127 -0.00073999999
-0.0036285713 0.00011545455 -0.0088799996
0.0064874459 0.00034636364 0.00036000001
0.0014294372 0.00011545455 -0.0049200002
-0.023860605 0.00011545455 0.00014
-0.0091264071 -0.00057727273 -0.0022799999
-0.021441558 0.00011545455 -0.0053599998
-0.012205195 0.00127 -0.00184
-0.0064874459 -0.00011545455 -0.0044800001
0.0014294372 0.00034636364 -0.00844
-0.00098961033 -0.00034636364 -0.0024999999
-0.0036285713 -0.00034636364 -0.0044800001
-0.0042883116 0.00057727273 -0.00030000001
-0.0051679653 0.0010390909 -7.9999998e-05
0.023860605 0.00011545455 0.00102
-0.00010995671 -0.00127 -0.0020600001
-0.0086865798 -0.00011545455 -0.0077800001
0.019462338 0.00034636364 -7.9999998e-05
-0.007806926 -0.0010390909 -7.9999998e-05
0.019902164 0.00057727273 -0.0022799999
0.0075870128 0.00127 -0.0020600001
-0.019022509 -0.00011545455 -0.0049200002
0.011325541 -0.00011545455 -0.0064599998
-0.00032987012 0.00080818182 -0.0024999999
-0.0040683984 -0.00034636364 -0.0077800001
0.012205195 -0.00127 -0.00118
-0.013964502 -0.00034636364 -0.0068999999
-0.0025290044 -0.00080818182 -0.00030000001
-0.011105628 -0.00127 -0.00184
-0.016383549 0.00034636364 -0.0077800001
0.007147186 -0.00127 -0.0020600001
0.019022509 -0.00034636364 0.0023399999
-0.0051679653 -0.00127 -0.00052
-0.0095662335 -0.00127 -7.9999998e-05
0.0018692641 0.00127 -0.00184
-0.024080519 -0.00127 -0.00030000001
-0.0064874459 0.00034636364 0.00124
-0.011985281 -0.00127 -0.0024999999
0.011105628 0.00034636364 -0.0024999999
-0.016603462 0.00011545455 0.0023399999
0.018802596 -0.00057727273 -0.00030000001
0.0020891775 -0.00127 -0.0014
-0.008906493 -0.00034636364 0.00014
0.011985281 -0.00127 -0.00162
-0.015503895 -0.00127 -0.00052
-0.013304762 0.00080818182 -0.0022799999
0.0091264071 0.00011545455 -0.00294
-0.021001732 -0.00057727273 -0.00030000001
-0.022321211 -0.00127 -0.0014
0.0067073591 -0.00011545455 -0.0024999999
-0.0058277054 -0.0010390909 -0.0022799999
0.0084666666 -0.00127 -0.00162
-0.013964502 -0.00034636364 0.00102
0.0038484847 0.00127 -0.00162
-0.011545454 0.0010390909 -0.0022799999
-0.0040683984 0.00011545455 -0.00844
-0.013304762 -0.00080818182 -0.0022799999
0.011545454 0.00011545455 -0.00734
-0.0073670992 -0.00034636364 -7.9999998e-05
0.0086865798 -0.00011545455 -0.0088799996
-0.0091264071 0.00127 -0.0014
-0.01836277 -0.00057727273 -0.00030000001
0.023200866 -0.00011545455 -7.9999998e-05
0.018802596 -0.00011545455 -0.0077800001
0.021441558 -0.00011545455 0.0014600001
0.008906493 -0.00127 -0.0014
-0.0025290044 0.00127 -0.00095999998
0.013744588 0.00011545455 -0.0035999999
-0.013964502 -0.00127 -0.00052
0.016603462 -0.0010390909 -0.0024999999
-0.023640692 -0.00034636364 -0.0022799999
0.0067073591 -0.00127 -0.0020600001
0.021441558 -0.00011545455 -0.0055800001
0.0064874459 0.00034636364 -0.00294
-0.016383549 0.00034636364 -0.00382
-0.016383549 0.00011545455 -0.0064599998
-0.021441558 0.00011545455 0.00102
-0.011765367 0.00127 -0.00184
0.0093463203 -0.00057727273 -0.00030000001
0.018802596 0.00011545455 0.0019
0.011545454 0.00034636364 -0.0049200002
0.025180086 0.0010390909 -0.00030000001
0.0040683984 -0.00011545455 -0.0080000004
-0.013964502 -0.00034636364 0.00014
-0.019902164 0.00127 -0.00030000001
0.013744588 -0.00127 -0.00095999998
-0.021661472 -0.00011545455 -0.0042599998
-0.016383549 0.00034636364 -0.00514
0.019022509 -0.00127 -0.00052
-0.011545454 -0.00011545455 0.0019
0.0053878785 -0.00127 -0.00118
-0.013744588 -0.00127 -0.00030000001
0.016823376 0.00057727273 -0.00030000001
-0.0080268392 0.00127 -0.00052
-0.013964502 0.00011545455 -0.0077800001
0.0064874459 -0.00011545455 -0.00514
-0.021441558 0.00034636364 0.0021200001
0.013744588 0.00011545455 0.00079999998
-0.0014294372 -0.00011545455 -0.0071200002
-0.017263204 0.00127 -0.00118
-0.0014294372 -0.00011545455 -0.0053599998
0.011325541 -0.00011545455 -0.0071200002
-0.01572381 -0.00034636364 -0.0022799999
-0.0038484847 0.00034636364 0.00124
0.015064069 0.00034636364 -0.0022799999
-0.011325541 0.00034636364 0.00057999999
0.0086865798 -0.00011545455 -0.0053599998
-0.016603462 -0.00011545455 -0.00382
0.00098961033 -0.00011545455 0.00079999998
0.020781817 -0.00057727273 -0.00030000001
-0.017483117 0.00127 -0.0022799999
0.010885714 -0.00057727273 -0.0024999999
-0.0045082248 0.00127 -0.00073999999
-0.00098961033 0.00011545455 -0.00844
0.0027489178 -0.00127 -0.00073999999
0.024300432 0.00127 -0.0014
-0.023640692 -0.00127 -0.00118
-0.015503895 -0.00127 -0.00095999998
0.0073670992 0.00127 -0.00073999999
0.022761038 -0.00011545455 -0.0022799999
0.0034086579 0.00127 -0.0022799999
0.018582683 0.00127 -0.0020600001
-0.017043289 -0.00011545455 -7.9999998e-05
0.0023090909 -0.00127 -0.00162
0.0012095238 -0.00080818182 -0.0024999999
0.016163636 0.0010390909 -7.9999998e-05
0.025180086 -0.00034636364 -0.0022799999
-0.0014294372 -0.00127 -0.0022799999
-0.018802596 0.00011545455 -0.00514
0.0095662335 -0.00034636364 -7.9999998e-05
-0.0064874459 0.00011545455 -0.0057999999
-0.023860605 0.00011545455 -0.0071200002
-0.0058277054 -0.00127 -0.00073999999
0.019682251 0.00034636364 -7.9999998e-05
-0.0082467534 -0.00080818182 -0.0022799999
-0.016163636 0.00080818182 -7.9999998e-05
0.0040683984 -0.00011545455 -0.00272
0.015283982 0.00127 -0.0014
0.0080268392 0.00080818182 -7.9999998e-05
0.014404329 0.00034636364 -0.0024999999
0.0051679653 0.00080818182 -7.9999998e-05
-0.0053878785 -0.00127 -0.00073999999
-0.019902164 0.00057727273 -0.00030000001
-0.010445887 0.0010390909 -0.0022799999
-0.011545454 0.00034636364 -0.0064599998
-0.018802596 -0.00011545455 -0.00294
-0.016603462 -0.00034636364 -0.00514
-0.023860605 0.00057727273 -0.00030000001
0.011325541 -0.00011545455 -0.00734
0.0106658 0.00127 -7.9999998e-05
-0.0095662335 -0.00127 -0.00030000001
0.023860605 -0.00080818182 -0.00030000001
0.0027489178 -0.00034636364 -0.0024999999
-0.0012095238 -0.00034636364 0.0023399999
0.015943723 0.0010390909 -7.9999998e-05
0.011985281 -0.00034636364 -7.9999998e-05
-0.011105628 0.00057727273 -0.00030000001
-0.007806926 -0.0010390909 -0.0024999999
0.006047619 -0.00127 -0.0022799999
0.019022509 0.00127 -0.00073999999
0.0086865798 -0.00011545455 -0.00514
0.0064874459 -0.00034636364 0.00168
0.011765367 0.00127 -0.00184
-0.011545454 -0.00011545455 -0.0044800001
0.019242425 -0.00011545455 -0.0064599998
-0.0069272728 -0.00057727273 -0.00030000001
-0.011545454 0.00011545455 0.0023399999
-0.0093463203 -0.00127 -0.00095999998
0.0014294372 0.00034636364 0.0014600001
-0.020561904 0.00127 -0.00030000001
0.016823376 -0.00127 -0.00118
-0.0058277054 -0.00127 -0.0022799999
-0.0064874459 0.00011545455 -0.0086599998
-0.0084666666 0.00034636364 -7.9999998e-05
0.019022509 -0.00034636364 -0.00382
-0.0012095238 -0.00034636364 -0.0033799999
-0.021661472 -0.00034636364 -0.0024999999
0.0093463203 0.00127 -0.00184
-0.0064874459 0.00034636364 -0.0044800001
0.019022509 0.0010390909 -0.0022799999
0.0045082248 0.00034636364 -7.9999998e-05
-0.016603462 0.00011545455 -0.0035999999
-0.021221645 -0.00127 -7.9999998e-05
-0.016823376 -0.00127 -0.00073999999
0.021661472 -0.00127 -0.00073999999
-0.00032987012 -0.00034636364 -7.9999998e-05
0.021001732 0.00127 -0.0020600001
0.0062675322 -0.00011545455 0.00124
-0.021661472 -0.00011545455 -0.0077800001
-0.0093463203 -0.00057727273 -0.00030000001
0.019462338 0.00127 -0.00095999998
-0.016603462 -0.00011545455 0.0025599999
0.024300432 -0.00127 -0.0014
-0.019022509 0.00034636364 -0.0053599998
0.0075870128 0.00127 -0.00184
0.0014294372 -0.00034636364 -0.00272
-0.0091264071 -0.00011545455 -0.0080000004
0.006047619 -0.0010390909 -0.0022799999
-0.021441558 0.00034636364 -0.00624
0.017922943 0.00034636364 -7.9999998e-05
-0.016383549 0.00034636364 -0.0033799999
0.008906493 -0.00034636364 0.00057999999
0.0047281384 0.00127 -0.0020600001
-0.0012095238 -0.00034636364 -0.0064599998
0.0047281384 -0.0010390909 -7.9999998e-05
0.0040683984 -0.00127 -0.00052
0.011325541 0.00034636364 -0.0057999999
0.0082467534 0.00127 -0.0022799999
-0.015943723 0.00011545455 -7.9999998e-05
0.024300432 0.0010390909 -0.0022799999
-0.021881385 -0.00011545455 -0.00404
0.023200866 0.00127 -7.9999998e-05
-0.016823376 0.00034636364 -0.0022799999
0.019242425 -0.00011545455 -0.0066800001
0.0069272728 -0.00080818182 -7.9999998e-05
-0.002968831 -0.0010390909 -7.9999998e-05
-0.021441558 -0.00011545455 0.00036000001
-0.0036285713 -0.00034636364 -0.00382
-0.019022509 -0.00011545455 0.0025599999
0.0036285713 0.00034636364 -0.0031600001
0.0014294372 0.00034636364 0.00036000001
-0.011325541 0.00011545455 -0.0049200002
-0.0016493506 -0.0010390909 -7.9999998e-05
0.008906493 0.00034636364 -0.0064599998
-0.0014294372 -0.00011545455 0.00168
0.0084666666 -0.00127 -0.0014
0.018582683 0.00034636364 -7.9999998e-05
-0.0014294372 -0.00011545455 0.00124
0.016383549 0.00011545455 -0.0088799996
0.00098961033 -0.00057727273 -0.0024999999
0.00076969696 0.00127 -0.0024999999
-0.013964502 -0.00011545455 -0.0046999999
0.016383549 0.00034636364 -0.0066800001
-0.0014294372 0.00011545455 0.0019
0.007806926 0.00080818182 -7.9999998e-05
0.0012095238 0.00034636364 0.0021200001
-0.016823376 0.00011545455 -0.0066800001
0.021221645 0.00127 -7.9999998e-05
-0.022761038 -0.00011545455 -0.0022799999
0.015283982 0.00127 -0.00073999999
0.024300432 -0.00127 -0.0020600001
0.0051679653 -0.00127 -0.0024999999
-0.024300432 0.00011545455 -0.00382
0.024080519 0.00127 -0.00073999999
-0.010006061 0.00127 -0.0022799999
0.013524675 -0.00127 -0.00095999998
0.025180086 0.00011545455 -0.00030000001
-0.0069272728 -0.00127 -7.9999998e-05
-0.020781817 0.00057727273 -0.0022799999
0.022321211 -0.00034636364 -0.00030000001
-0.0023090909 -0.00127 -0.00162
0.018582683 0.00127 -0.00073999999
0.023860605 -0.00127 -0.00184
0.024080519 0.00034636364 0.00014
0.013084848 -0.00034636364 -7.9999998e-05
0.024740258 0.00127 -0.00052
-0.014404329 0.00127 -0.00052
0.018582683 0.00011545455 -0.0024999999
-0.019682251 -0.00011545455 -0.0022799999
0.023420779 -0.00034636364 -7.9999998e-05
0.017483117 0.0010390909 -7.9999998e-05
0.011325541 0.00011545455 -0.0049200002
0.0086865798 -0.00011545455 0.00014
0.011325541 -0.00011545455 -0.00294
0.021661472 0.00034636364 -0.0046999999
0.0012095238 0.00127 -0.00052
0.011545454 -0.00011545455 -0.00734
-0.016163636 -0.00127 -0.00073999999
0.014184415 0.00127 -0.0022799999
-0.017263204 0.00080818182 -0.0022799999
0.012425108 0.00080818182 -7.9999998e-05
-0.013524675 0.00057727273 -0.00030000001
-0.011325541 -0.00034636364 -0.00272
-0.0056077922 0.00127 -0.0024999999
-0.0036285713 0.00034636364 -0.00404
-0.023640692 -0.00080818182 -7.9999998e-05
-0.024080519 -0.00034636364 0.00124
-0.012425108 -0.00011545455 -7.9999998e-05
-0.0091264071 0.00011545455 -0.00404
-0.015064069 -0.00011545455 -0.0022799999
0.010445887 -0.00127 -7.9999998e-05
0.019902164 0.00127 -0.0014
-0.020781817 0.00127 -0.00073999999
-0.022761038 0.0010390909 -0.0022799999
-0.0014294372 -0.00011545455 -0.0077800001
-0.011545454 0.00127 -0.00118
0.0097861467 -0.00057727273 -0.00030000001
0.0091264071 -0.00011545455 0.00079999998
-0.0069272728 0.00127 -0.00095999998
-0.00010995671 -0.00127 -7.9999998e-05
0.0062675322 0.00034636364 -0.0077800001
0.014184415 -0.00057727273 -0.00030000001
0.022101298 0.0010390909 -0.0022799999
-0.017483117 0.00127 -0.00073999999
0.013304762 -0.00057727273 -0.0022799999
-0.012645021 -0.0010390909 -0.0022799999
-0.0073670992 0.00127 -0.00162
-0.0049480516 0.00127 -0.0020600001
0.011325541 -0.00011545455 -0.0082200002
-0.025180086 0.00057727273 -0.0014
0.016383549 -0.00127 -0.00118
0.016823376 -0.00127 -0.00052
-0.012425108 0.00127 -0.00073999999
-0.0014294372 -0.00034636364 -0.0088799996
-0.017483117 -0.00127 -0.0022799999
-0.0047281384 0.00127 -0.00184
-0.015503895 0.00127 -7.9999998e-05
0.012645021 -0.0010390909 -7.9999998e-05
0.013964502 0.00034636364 -0.0055800001
-0.002968831 0.00127 -0.0014
-0.0045082248 -0.00127 -0.00052
0.018142857 0.00011545455 -7.9999998e-05
0.0091264071 0.00011545455 -0.0071200002
-0.0082467534 -0.00127 -0.00052
-0.0091264071 -0.00127 -0.00030000001
0.0023090909 -0.0010390909 -0.0024999999
0.017043289 0.0010390909 -0.0024999999
0.0067073591 -0.00127 -7.9999998e-05
-0.020781817 -0.00127 -0.00095999998
-0.019462338 -0.00127 -0.00030000001
0.0014294372 -0.00034636364 0.00102
-0.0038484847 0.00034636364 -0.0075599998
0.0051679653 -0.00127 -0.00162
-0.016383549 0.00034636364 0.00102
0.0014294372 0.00034636364 -0.00734
0.018142857 0.00127 -0.00030000001
0.0014294372 0.00127 -7.9999998e-05
0.0064874459 -0.00034636364 -0.0024999999
0.0016493506 0.00011545455 -0.0024999999
-0.019242425 -0.00011545455 0.00102
-0.019022509 0.00034636364 -0.0088799996
0.011545454 -0.00034636364 -0.00272
0.021001732 0.00127 -0.00052
-0.0062675322 -0.00011545455 -0.0053599998
-0.0036285713 0.00034636364 -0.00294
-0.0051679653 -0.00127 -7.9999998e-05
0.024080519 0.00127 -0.00162
0.011325541 0.00011545455 -0.0071200002
0.012425108 -0.00127 -0.00030000001
-0.010225974 0.00011545455 -7.9999998e-05
-0.014624242 0.00127 -0.00052
-0.016603462 0.00011545455 -0.00382
-0.025180086 -0.00057727273 -0.00052
0.0040683984 0.00034636364 -0.0066800001
0.020122077 -0.00057727273 -0.00030000001
-0.016383549 -0.00011545455 -0.0057999999
-0.021881385 0.00011545455 -0.0057999999
0.00098961033 0.00011545455 0.00079999998
-0.018802596 -0.00011545455 0.0021200001
-0.0091264071 0.00034636364 -0.0044800001
-0.025180086 0.0010390909 -0.00073999999
0.021881385 0.00057727273 -0.0022799999
-0.016163636 0.00057727273 -0.0022799999
0.0075870128 -0.00127 -0.0024999999
-0.022761038 0.00127 -0.00184
0.0018692641 -0.00127 -0.0014
-0.017043289 0.00127 -0.00052
-0.016383549 -0.00034636364 0.00036000001
-0.0093463203 0.00127 -0.00162
-0.017263204 0.00127 -0.00030000001
-0.0062675322 0.00127 -0.00184
-0.017043289 0.00127 -0.00162
0.0040683984 0.00127 -0.00118
0.00098961033 0.00034636364 0.00079999998
0.021661472 0.00011545455 0.00036000001
-0.015943723 -0.00127 -0.00184
0.019022509 -0.00034636364 -0.00734
-0.018802596 -0.00034636364 -7.9999998e-05
-0.017922943 0.00127 -0.00073999999
0.0016493506 0.00127 -0.00030000001
-0.0062675322 -0.00034636364 -0.0066800001
0.011325541 -0.00011545455 0.00079999998
-0.021221645 -0.00034636364 -7.9999998e-05
0.016603462 0.00011545455 -0.00404
-0.019242425 0.00011545455 -0.0053599998
0.0086865798 -0.00011545455 0.0019
-0.0036285713 -0.00034636364 0.0019
-0.022321211 0.00057727273 -0.00030000001
0.016603462 0.00011545455 0.0021200001
0.0080268392 0.00127 -7.9999998e-05
0.011105628 -0.00011545455 -0.0024999999
-0.023200866 0.0010390909 -0.00030000001
0.019022509 0.00011545455 0.00124
0.0064874459 0.00034636364 -0.00404
0.0016493506 0.00127 -0.0014
0.021441558 -0.00011545455 0.0025599999
0.011325541 0.00034636364 -0.00404
-0.011325541 -0.00034636364 0.00124
0.0012095238 -0.00127 -0.0020600001
0.024080519 0.00011545455 -0.0033799999
-0.021881385 0.00080818182 -0.00030000001
-0.0027489178 0.00127 -0.00162
-0.012205195 -0.00127 -0.00052
0.0082467534 -0.00127 -0.00030000001
0.011545454 -0.00034636364 -0.0042599998
0.019022509 0.00034636364 -0.0066800001
0.0036285713 0.00127 -0.00095999998
0.018142857 -0.00080818182 -0.0022799999
-0.016383549 -0.00011545455 0.0019
-0.00054978352 0.00127 -0.00118
-0.012425108 0.00034636364 -7.9999998e-05
0.014184415 0.00011545455 -0.0066800001
0.0053878785 0.00127 -0.00095999998
0.008906493 -0.00034636364 -0.0077800001
-0.0097861467 -0.00127 -0.0022799999
0.0069272728 -0.00011545455 -0.0022799999
0.008906493 -0.00034636364 0.00168
0.0042883116 0.00127 -0.00118
0.0036285713 0.00034636364 -0.00844
-0.0031887444 0.00127 -0.0024999999
0.016383549 0.00034636364 0.00079999998
-0.00054978352 0.0010390909 -0.0024999999
0.0086865798 -0.00127 -0.00052
0.0045082248 0.00127 -0.00095999998
0.0062675322 0.00127 -0.0022799999
0.011325541 -0.00011545455 -0.0035999999
0.0040683984 0.00011545455 -0.00404
0.006047619 0.00011545455 -0.00844
0.0091264071 0.00011545455 -0.00272
0.0091264071 -0.00034636364 -0.0046999999
0.021881385 -0.00011545455 0.0014600001
0.0027489178 0.00034636364 -7.9999998e-05
0.011545454 0.00034636364 0.0019
0.0025290044 0.00011545455 -0.0024999999
-0.011325541 -0.00011545455 -0.00844
0.007806926 0.00127 -0.00073999999
-0.024300432 -0.00011545455 -0.0046999999
-0.014184415 -0.00057727273 -0.0024999999
0.0086865798 0.00011545455 -0.0075599998
0.024960173 -0.00011545455 -0.00030000001
0.0106658 0.00057727273 -0.00030000001
-0.020122077 -0.00127 -0.00052
-0.019902164 0.00011545455 -7.9999998e-05
0.021001732 0.0010390909 -7.9999998e-05
-0.013524675 -0.00127 -0.00030000001
0.0038484847 0.00034636364 0.0014600001
-0.015283982 0.00127 -0.0022799999
-0.022321211 0.00127 -0.0020600001
0.021881385 -0.00011545455 -0.0042599998
0.0025290044 0.00011545455 -7.9999998e-05
-0.011325541 0.00011545455 -0.0080000004
-0.0093463203 0.00080818182 -0.0022799999
0.010225974 0.00057727273 -0.00030000001
0.024080519 0.00011545455 -0.0082200002
-0.017922943 -0.00127 -0.00162
-0.021001732 -0.00127 -0.00095999998
-0.019242425 -0.00011545455 -0.0077800001
-0.021441558 -0.00011545455 -0.0080000004
-0.008906493 -0.00080818182 -0.0022799999
-0.013964502 -0.00034636364 -0.00272
-0.011325541 0.00011545455 -0.0044800001
0.0025290044 0.00127 -0.00118
-0.013084848 -0.00127 -0.0014
0.019462338 0.00080818182 -7.9999998e-05
0.021441558 0.00011545455 0.00079999998
-0.0064874459 -0.00011545455 -0.00624
0.014624242 -0.00127 -0.00095999998
0.0018692641 0.00011545455 -0.0024999999
0.012425108 -0.00127 -0.00184
-0.021441558 -0.00011545455 -0.0064599998
0.010445887 -0.00127 -0.00095999998
-0.014624242 0.00127 -0.00184
-0.0064874459 0.00011545455 -0.0080000004
0.0073670992 -0.00127 -0.00052
0.022541124 0.00011545455 -7.9999998e-05
0.019022509 -0.00127 -0.0014
0.014184415 -0.00011545455 -0.0031600001
-0.002968831 -0.00057727273 -0.00030000001
-0.022101298 0.00127 -0.0020600001
0.015064069 0.00127 -0.00118
0.0062675322 -0.00127 -7.9999998e-05
-0.021881385 0.00011545455 -0.00514
-0.0062675322 0.00011545455 -0.0071200002
-0.0080268392 -0.00011545455 -7.9999998e-05
0.0064874459 0.00034636364 -0.0044800001
-0.011325541 0.00011545455 -0.0075599998
-0.011985281 0.00034636364 -7.9999998e-05
-0.019682251 -0.00127 -0.0014
-0.024080519 -0.00034636364 -0.0057999999
0.017043289 0.00127 -0.00073999999
0.020561904 -0.00127 -0.0022799999
0.0012095238 -0.00057727273 -0.0024999999
0.0062675322 0.00034636364 -0.0066800001
-0.013964502 0.00034636364 -0.00844
-0.0014294372 0.00034636364 -0.00734
0.00098961033 0.00011545455 -0.00382
-0.024300432 0.00127 -0.00118
-0.0064874459 -0.00080818182 -7.9999998e-05
0.011545454 0.00034636364 -0.00514
-0.017922943 0.00127 -0.00118
0.024520345 0.00080818182 -0.00030000001
-0.0086865798 -0.00011545455 -0.00294
0.0067073591 0.00080818182 -0.0024999999
0.00076969696 -0.00127 -0.0022799999
0.025180086 -0.00080818182 -0.00073999999
0.024300432 -0.00011545455 0.0019
0.021441558 0.00127 -7.9999998e-05
0.016383549 0.00034636364 -7.9999998e-05
-0.019022509 0.00034636364 -0.0060200002
-0.023420779 -0.00127 -0.00073999999
0.023640692 -0.00127 -0.00118
-0.024080519 -0.00034636364 -0.00624
0.014404329 0.00127 -0.0024999999
-0.024960173 0.0010390909 -0.00095999998
-0.023640692 -0.0010390909 -0.0022799999
-0.00098961033 -0.00011545455 -0.0033799999
-0.00098961033 0.00127 -0.00162
0.020781817 -0.00011545455 -7.9999998e-05
-0.0012095238 -0.00034636364 0.00036000001
0.0091264071 -0.00011545455 -0.00624
-0.024080519 0.00011545455 -0.0088799996
0.008906493 0.00034636364 -0.0057999999
-0.013964502 -0.00034636364 -0.0033799999
-0.015283982 0.00034636364 -0.0022799999
-0.011105628 0.00127 -0.00052
-0.022980953 0.00011545455 -0.00030000001
0.011105628 -0.00057727273 -0.00030000001
-0.01836277 0.00127 -0.00118
-0.0031887444 0.00127 -0.00162
0.011325541 0.00034636364 -0.0075599998
0.0075870128 -0.00080818182 -0.0024999999
-0.01836277 0.00127 -0.0022799999
0.00076969696 -0.00080818182 -0.0024999999
0.0067073591 -0.00057727273 -0.00030000001
0.0045082248 -0.00127 -0.00118
-0.021661472 -0.00011545455 0.0021200001
0.0012095238 -0.00034636364 -0.00382
0.011985281 -0.00080818182 -0.0022799999
-0.008906493 -0.00034636364 -0.0033799999
0.022101298 0.00080818182 -0.0022799999
0.002968831 -0.00034636364 -0.0024999999
0.024300432 0.00011545455 -0.00844
-0.021001732 0.00127 -0.0022799999
-0.011325541 -0.00011545455 -0.0035999999
0.01770303 0.0010390909 -7.9999998e-05
-0.021221645 0.00127 -0.00052
-0.0036285713 0.00011545455 -0.0055800001
-0.021881385 -0.00011545455 -0.0042599998
-0.0086865798 -0.00011545455 -0.00272
-0.0038484847 -0.00034636364 -0.0080000004
-0.0075870128 0.00034636364 -0.0022799999
-0.0062675322 -0.00034636364 -0.0044800001
0.0080268392 -0.00127 -0.0020600001
0.008906493 -0.00034636364 0.00102
0.0014294372 0.00034636364 -0.0057999999
0.0012095238 -0.00127 -0.0022799999
0.0069272728 0.00127 -0.0022799999
0.024080519 0.00011545455 -0.0042599998
0.0062675322 -0.00011545455 -0.0075599998
-0.024960173 -0.0010390909 -0.00162
0.015943723 0.00011545455 -7.9999998e-05
0.0036285713 -0.00011545455 -0.0086599998
0.014184415 -0.00011545455 0.00168
0.015943723 -0.00127 -0.00162
0.024520345 -0.00127 -0.00030000001
-0.013744588 0.00127 -7.9999998e-05
0.010225974 0.00011545455 -7.9999998e-05
-0.0042883116 0.00127 -0.0020600001
0.00098961033 0.00011545455 -0.0060200002
-0.012645021 -0.00080818182 -7.9999998e-05
0.0064874459 -0.00034636364 -0.0068999999
-0.012425108 0.00127 -0.0022799999
0.00032987012 -0.00127 -0.0024999999
0.014184415 0.00011545455 -0.0031600001
-0.022321211 -0.00127 -0.00030000001
-0.014184415 -0.00127 -0.00162
0.022761038 -0.00034636364 -0.0022799999
-0.011985281 -0.00127 -0.0014
0.008906493 -0.00034636364 -0.0060200002
0.0016493506 -0.00127 -0.0024999999
0.013964502 -0.00034636364 -0.0031600001
0.0027489178 -0.00127 -0.0014
-0.0093463203 0.00127 -0.00052
0.024960173 0.0010390909 -0.00052
0.021661472 0.00034636364 0.00079999998
0.0031887444 0.00034636364 -7.9999998e-05
-0.0014294372 0.00034636364 -0.0033799999
-0.013524675 0.00127 -0.0022799999
0.012205195 0.00011545455 -0.0022799999
0.010006061 0.00127 -0.0024999999
-0.0036285713 0.00034636364 -0.0075599998
-0.023640692 0.00057727273 -0.0022799999
-0.01572381 0.00034636364 -0.0022799999
0.019902164 -0.00127 -0.00118
0.0034086579 -0.00127 -0.00118
-0.020341991 -0.00011545455 -7.9999998e-05
-0.0014294372 -0.00011545455 -0.0086599998
0.013744588 -0.00011545455 0.00102
0.0025290044 0.00127 -0.00162
0.011545454 0.00011545455 0.0025599999
0.011325541 -0.00011545455 -0.0066800001
-0.0056077922 -0.00127 -7.9999998e-05
-0.0084666666 0.00127 -0.00030000001
0.011105628 0.00127 -0.00184
0.0012095238 0.00034636364 -0.0064599998
0.024740258 0.00034636364 -0.0022799999
0.0023090909 -0.00057727273 -0.0024999999
0.019022509 -0.00034636364 -0.0049200002
-0.0040683984 -0.00034636364 -0.0055800001
0.015503895 0.00011545455 -0.0022799999
0.008906493 0.00127 -0.0022799999
-0.024080519 0.00057727273 -0.00030000001
0.024960173 -0.00080818182 -0.00030000001
-0.021881385 0.00011545455 -0.00734
-0.0069272728 -0.00127 -0.00162
-0.0106658 -0.0010390909 -0.0022799999
-0.0064874459 0.00127 -7.9999998e-05
0.0038484847 -0.00034636364 0.00102
0.014844156 -0.00080818182 -0.0022799999
0.01572381 0.00127 -0.0020600001
-0.0027489178 -0.00127 -0.00184
0.013964502 -0.00057727273 -0.00030000001
0.021661472 0.0010390909 -7.9999998e-05
-0.011325541 -0.00011545455 -0.00404
0.007806926 0.00127 -0.00030000001
0.019682251 0.00127 -0.00073999999
0.0040683984 0.00011545455 -0.0044800001
0.0064874459 0.00011545455 -0.0077800001
0.021661472 -0.00034636364 -0.00404
-0.019242425 -0.0010390909 -7.9999998e-05
-0.0014294372 -0.00034636364 -0.0071200002
-0.021661472 -0.00011545455 0.00124
-0.016603462 0.00034636364 -7.9999998e-05
0.017263204 0.00127 -0.0022799999
-0.0084666666 -0.00127 -0.00095999998
0.0053878785 0.00011545455 -0.0022799999
0.024300432 0.00127 -7.9999998e-05
0.0084666666 0.00127 -0.0014
-0.0034086579 -0.00127 -0.00095999998
0.0036285713 0.00011545455 -0.0035999999
-0.020122077 -0.00080818182 -7.9999998e-05
0.017922943 -0.00057727273 -0.00030000001
0.022321211 0.00034636364 -0.0022799999
-0.014624242 -0.00127 -0.00073999999
-0.021001732 0.00057727273 -0.00030000001
-0.011765367 0.00057727273 -0.00030000001
0.024080519 -0.00127 -0.00030000001
0.019682251 0.00127 -0.00184
-0.020561904 -0.00127 -0.00052
-0.023860605 -0.00127 -0.00118
0.010445887 -0.00127 -0.00073999999
-0.0254 0.00011545455 -0.0014
0.0040683984 -0.00011545455 -0.0066800001
-0.0012095238 -0.00034636364 -0.0044800001
-0.0036285713 -0.00034636364 0.00124
-0.011545454 -0.00034636364 0.00079999998
0.011325541 0.00034636364 -0.0068999999
0.011765367 -0.0010390909 -0.0022799999
0.0082467534 0.00080818182 -0.0022799999
0.008906493 -0.00034636364 -0.0064599998
0.00032987012 0.00127 -0.00184
-0.021881385 0.00127 -0.00118
0.0082467534 0.00011545455 -7.9999998e-05
-0.0012095238 0.00034636364 -0.00404
0.0036285713 -0.00080818182 -0.0024999999
-0.0051679653 0.00080818182 -0.0024999999
-0.013964502 0.00034636364 -0.00272
-0.023860605 0.00127 -0.00073999999
0.0064874459 -0.00011545455 -0.0066800001
-0.0014294372 -0.00011545455 -0.0060200002
-0.023200866 0.00127 -0.0014
-0.016823376 0.00127 -0.00073999999
-0.014844156 0.00127 -0.0022799999
-0.011105628 0.00127 -0.00162
0.025180086 -0.00034636364 -0.00095999998
-0.016383549 -0.00011545455 -0.0075599998
0.011325541 0.00034636364 -0.0042599998
-0.0047281384 -0.00127 -0.00073999999
0.0023090909 0.0010390909 -0.0024999999
-0.013304762 0.00127 -0.00118
-0.0064874459 0.00034636364 -0.0046999999
-0.019022509 0.00034636364 -0.0042599998
0.015503895 -0.00080818182 -0.0022799999
-0.006047619 -0.00127 -0.0022799999
0.0051679653 0.00011545455 -0.0022799999
-0.015503895 0.00127 -0.00095999998
-0.016383549 -0.00011545455 0.00014
0.0014294372 0.00011545455 -0.0088799996
0.00032987012 -0.00127 -0.00030000001
0.0093463203 0.00034636364 -7.9999998e-05
-0.011545454 0.00034636364 -0.0031600001
0.021441558 0.00011545455 0.00102
0.018142857 -0.00127 -0.00162
-0.0084666666 0.0010390909 -0.0022799999
0.025180086 0.0010390909 -0.00162
0.0051679653 -0.00080818182 -0.0024999999
0.025180086 -0.00011545455 -0.0022799999
-0.019242425 0.00127 -0.00184
-0.0053878785 0.00127 -0.00118
-0.0062675322 0.00011545455 -0.00294
0.0047281384 -0.00011545455 -7.9999998e-05
-0.0062675322 0.00011545455 -0.0091000004
-0.0047281384 -0.0010390909 -0.0024999999
0.018802596 -0.00011545455 0.00079999998
0.014184415 0.00011545455 -0.0088799996
-0.014624242 -0.00057727273 -0.00030000001
0.021441558 -0.00011545455 0.00124
0.019902164 -0.00127 -0.00052
-0.0031887444 0.00034636364 -0.0024999999
0.016383549 0.00034636364 0.0021200001
0.0025290044 0.00034636364 -0.0024999999
0.01770303 0.00057727273 -0.00030000001
0.015064069 -0.00057727273 -0.0022799999
0.0097861467 -0.0010390909 -0.0022799999
0.022321211 0.00127 -0.00184
-0.0031887444 -0.00127 -0.0024999999
-0.011765367 0.00011545455 -0.0024999999
0.018802596 -0.00011545455 -0.0080000004
-0.012425108 -0.00127 -0.00030000001
0.0040683984 0.00011545455 -0.00844
0.022321211 -0.00127 -0.0020600001
-0.0042883116 -0.00034636364 -0.0024999999
-0.017922943 -0.00080818182 -7.9999998e-05
0.016383549 0.00127 -7.9999998e-05
0.020122077 0.00127 -0.00073999999
0.01770303 0.00034636364 -0.0022799999
0.008906493 0.0010390909 -7.9999998e-05
0.0062675322 -0.00034636364 0.0021200001
-0.0040683984 -0.00034636364 -0.0035999999
0.007806926 -0.00011545455 -0.0022799999
-0.019022509 0.00034636364 -0.0077800001
-0.016383549 -0.00011545455 -0.0053599998
-0.019022509 0.00034636364 0.00014
-0.022980953 -0.00127 -0.00030000001
0.0018692641 0.00127 -0.0024999999
0.0106658 0.00011545455 -7.9999998e-05
0.0018692641 0.00034636364 -0.0024999999
-0.020122077 -0.00011545455 -7.9999998e-05
-0.0040683984 0.0010390909 -7.9999998e-05
-0.019022509 -0.00127 -0.00052
0.0014294372 0.00011545455 -0.00514
-0.020341991 0.00127 -0.00052
0.00076969696 0.00127 -0.00162
0.008906493 0.00034636364 -0.00294
0.014404329 -0.0010390909 -0.0022799999
-0.014404329 0.00034636364 -0.0022799999
-0.019462338 0.00127 -0.0020600001
-0.013964502 0.00011545455 -0.00382
-0.014184415 0.00127 -0.00184
0.016603462 -0.00011545455 -0.00514
0.0086865798 0.00127 -0.00073999999
0.0062675322 -0.00034636364 -0.0060200002
-0.0045082248 -0.00127 -0.0014
-0.017263204 -0.00057727273 -0.0022799999
0.011105628 0.00011545455 -0.0031600001
0.021001732 0.00034636364 -0.0022799999
0.0042883116 0.00011545455 -7.9999998e-05
-0.0062675322 0.00011545455 -0.0075599998
-0.021441558 0.00034636364 0.00079999998
0.01836277 -0.00034636364 -7.9999998e-05
0.0045082248 -0.00034636364 -7.9999998e-05
0.007806926 0.00011545455 -0.0022799999
0.0014294372 0.00011545455 -0.0077800001
-0.0034086579 -0.00127 -0.00184
-0.0042883116 0.00127 -0.00095999998
-0.016823376 -0.00127 -0.00184
-0.0062675322 -0.00127 -0.00095999998
-0.0038484847 -0.0010390909 -7.9999998e-05
0.013964502 0.00034636364 0.0019
-0.0036285713 0.00057727273 -0.0024999999
0.00010995671 -0.00127 -0.0022799999
0.01836277 0.00127 -7.9999998e-05
-0.021001732 -0.00127 -7.9999998e-05
-0.021441558 -0.00011545455 -0.0066800001
0.008906493 -0.00127 -0.00184
-0.024520345 -0.00034636364 -7.9999998e-05
0.018142857 0.00127 -0.00073999999
0.014844156 0.00127 -0.0014
-0.024300432 0.00011545455 0.0021200001
-0.022980953 -0.00127 -0.00095999998
0.012425108 0.00127 -0.0020600001
0.0062675322 -0.00127 -0.00095999998
-0.016603462 0.00011545455 -0.0046999999
0.010885714 0.00080818182 -0.0022799999
-0.0042883116 -0.00080818182 -0.00030000001
0.021441558 -0.00011545455 0.00014
0.0056077922 0.00127 -0.0022799999
-0.018802596 -0.00011545455 0.00168
0.016603462 -0.00011545455 -0.0046999999
-0.020781817 0.0010390909 -0.0022799999
0.0091264071 -0.00011545455 -0.00404
0.0027489178 -0.00127 -0.00162
0.0012095238 -0.00034636364 0.0021200001
-0.0045082248 0.00034636364 -0.0022799999
-0.018802596 -0.00011545455 -0.0031600001
0.0023090909 -0.00127 -0.0014
-0.00098961033 -0.00011545455 -0.0075599998
-0.00010995671 0.00127 -0.0022799999
-0.011325541 -0.00011545455 -0.0049200002
0.021661472 -0.00011545455 -0.0066800001
-0.014624242 -0.00127 -0.0022799999
0.0036285713 -0.00011545455 -0.0033799999
-0.022101298 0.00127 -0.00184
0.00054978352 -0.00011545455 -0.0024999999
0.0014294372 0.00127 -0.00162
-0.019242425 -0.00011545455 0.00079999998
-0.018802596 0.00011545455 -0.0064599998
0.012205195 0.0010390909 -7.9999998e-05
-0.013964502 -0.00080818182 -7.9999998e-05
0.017483117 -0.0010390909 -0.0022799999
0.011325541 -0.00011545455 0.0021200001
0.0014294372 -0.00011545455 -0.0049200002
0.013084848 0.00127 -0.00073999999
0.019242425 -0.00011545455 -0.00272
0.0053878785 -0.0010390909 -7.9999998e-05
0.00098961033 -0.00011545455 0.0014600001
-0.012425108 -0.0010390909 -0.0022799999
-0.0058277054 0.00011545455 -7.9999998e-05
0.015503895 -0.00034636364 -0.0022799999
0.021221645 -0.0010390909 -0.00030000001
-0.0106658 0.00127 -0.00184
-0.0045082248 -0.00057727273 -0.00030000001
-0.012425108 -0.00057727273 -0.0022799999
-0.0018692641 -0.0010390909 -7.9999998e-05
0.0014294372 -0.00011545455 -0.0033799999
0.0064874459 0.00034636364 -0.0057999999
-0.0040683984 -0.00034636364 -7.9999998e-05
-0.002968831 0.00127 -0.00184
0.013964502 -0.00034636364 0.00102
-0.011765367 -0.0010390909 -7.9999998e-05
0.0036285713 -0.00011545455 -0.0071200002
0.024080519 0.00034636364 0.00124
-0.016603462 -0.00127 -7.9999998e-05
0.0069272728 -0.00080818182 -0.0022799999
-0.0051679653 -0.00127 -0.00095999998
0.0012095238 -0.00011545455 -0.0091000004
0.006047619 0.00011545455 0.00102
0.0025290044 -0.00127 -0.00162
0.008906493 0.00034636364 -0.0071200002
0.010225974 -0.00080818182 -7.9999998e-05
0.0038484847 0.00034636364 -0.0086599998
0.016383549 0.00034636364 -0.0082200002
-0.010445887 -0.00034636364 -7.9999998e-05
-0.0091264071 0.00011545455 -0.0064599998
0.006047619 -0.00127 -0.00073999999
-0.012205195 -0.00057727273 -0.00030000001
-0.024080519 -0.00057727273 -0.00030000001
-0.0062675322 -0.00011545455 -0.0068999999
-0.0012095238 0.00034636364 -0.0086599998
-0.0086865798 0.00080818182 -0.0022799999
-0.025180086 0.00057727273 -0.00052
0.022761038 0.00011545455 -0.00030000001
0.0058277054 0.00127 -0.00052
-0.013964502 -0.00034636364 -0.0088799996
0.024960173 -0.00057727273 -0.00030000001
0.013744588 -0.00011545455 -0.0066800001
-0.016383549 -0.00034636364 -7.9999998e-05
-0.022101298 0.00127 -0.00118
0.016603462 0.00034636364 -7.9999998e-05
-0.019902164 0.0010390909 -0.0022799999
0.011325541 -0.00080818182 -7.9999998e-05
-0.014844156 0.00034636364 -0.0022799999
-0.00098961033 0.00011545455 0.00079999998
-0.0086865798 0.00011545455 0.00079999998
-0.008906493 0.00034636364 0.00014
-0.00054978352 0.00034636364 -7.9999998e-05
-0.0084666666 -0.00127 -0.0014
0.0036285713 -0.00011545455 0.00168
-0.015283982 0.0010390909 -0.0022799999
-0.014624242 0.00127 -7.9999998e-05
0.0012095238 0.00127 -0.0014
0.0040683984 -0.00011545455 -0.0044800001
0.021661472 -0.00127 -0.0022799999
-0.019242425 0.00011545455 -0.0080000004
0.012864935 0.00127 -0.00052
-0.024080519 0.00011545455 0.0019
-0.016383549 -0.00011545455 -0.0031600001
-0.024520345 -0.00127 -0.00184
0.023420779 -0.00011545455 -0.0022799999
-0.025180086 -0.00011545455 -0.0022799999
-0.008906493 -0.00034636364 -0.0049200002
-0.022761038 -0.0010390909 -7.9999998e-05
-0.018582683 -0.00127 -7.9999998e-05
-0.0014294372 0.00011545455 0.00036000001
0.013744588 -0.00127 -7.9999998e-05
0.0080268392 0.00011545455 -0.0022799999
0.014844156 0.00127 -0.00073999999
-0.01770303 -0.00127 -7.9999998e-05
-0.021661472 0.00034636364 0.00014
-0.015943723 -0.00127 -0.0022799999
-0.013524675 0.00127 -0.00095999998
-0.021661472 -0.00011545455 0.00079999998
0.0020891775 0.00127 -7.9999998e-05
0.014404329 0.00127 -0.00162
-0.01770303 0.00127 -0.0020600001
0.0012095238 0.00127 -7.9999998e-05
0.011545454 -0.00011545455 -0.0042599998
0.0014294372 0.00011545455 -0.0046999999
0.025180086 0.00057727273 -0.0022799999
0.01770303 0.00127 -7.9999998e-05
0.0040683984 0.00127 -0.00162
0.013744588 -0.00127 -0.00118
0.0027489178 -0.00011545455 -7.9999998e-05
-0.0086865798 -0.00011545455 -0.0042599998
0.0062675322 0.00127 -0.00162
-0.013304762 -0.00127 -0.00118
-0.0045082248 -0.00127 -0.00030000001
0.0073670992 -0.00080818182 -0.0022799999
-0.0036285713 0.00011545455 -0.0042599998
-0.0056077922 0.00127 -0.0022799999
0.023640692 -0.0010390909 -0.00030000001
0.0062675322 -0.00034636364 -0.00734
0.012205195 0.00127 -0.00184
0.024960173 -0.0010390909 -0.0022799999
0.011985281 0.00127 -0.00030000001
0.014844156 0.00034636364 -7.9999998e-05
0.00098961033 -0.00011545455 -0.0060200002
-0.011545454 0.00011545455 -0.0088799996
-0.021441558 -0.00011545455 -0.00382
0.015503895 0.00080818182 -7.9999998e-05
0.0042883116 -0.00127 -0.0020600001
0.0067073591 0.00127 -0.00052
-0.00076969696 0.00127 -0.00184
-0.0062675322 -0.00011545455 -0.00404
-0.016383549 -0.00011545455 -0.00404
0.0080268392 0.00127 -0.00162
-0.008906493 0.00034636364 0.00102
-0.022980953 0.00127 -0.00095999998
0.014184415 0.00011545455 -0.0049200002
-0.015064069 -0.00127 -0.0020600001
-0.013964502 -0.00011545455 -0.0060200002
0.00098961033 -0.00011545455 0.00168
-0.0058277054 0.00080818182 -0.0024999999
0.0038484847 0.00034636364 0.0023399999
0.024300432 -0.00127 -0.00030000001
-0.0014294372 0.00127 -0.00052
0.017263204 0.00057727273 -0.0022799999
0.0049480516 -0.00127 -0.00030000001
-0.002968831 -0.00127 -0.00184
0.010885714 -0.00127 -0.00030000001
0.0034086579 -0.00127 -0.0020600001
0.021221645 -0.00034636364 -7.9999998e-05
-0.023860605 -0.00127 -0.0014
-0.0106658 -0.00127 -0.00162
-0.015503895 0.00127 -0.00030000001
0.011545454 -0.00011545455 0.00079999998
-0.024300432 -0.00034636364 -7.9999998e-05
-0.0075870128 -0.00127 -0.00073999999
-0.0062675322 -0.00034636364 -0.00404
0.012205195 -0.00127 -0.00095999998
-0.01836277 0.00127 -0.00095999998
-0.015064069 -0.00057727273 -0.00030000001
0.0014294372 -0.00011545455 0.0019
0.012205195 -0.00011545455 -7.9999998e-05
-0.0064874459 0.00034636364 -0.0064599998
0.023420779 0.00034636364 -0.0022799999
0.01836277 0.00057727273 -0.0024999999
-0.022761038 -0.00034636364 -7.9999998e-05
0.0056077922 -0.00127 -7.9999998e-05
0.0025290044 -0.00127 -0.00030000001
-0.021881385 -0.00011545455 0.00057999999
-0.024740258 0.0010390909 -0.00162
0.014184415 -0.00011545455 -0.0060200002
0.016603462 0.00011545455 -0.00844
0.016163636 -0.00034636364 -7.9999998e-05
-0.024080519 0.00034636364 0.00124
-0.019022509 0.00034636364 -0.00844
0.014184415 -0.0010390909 -0.0022799999
0.021441558 0.00011545455 -0.00514
0.007806926 -0.00127 -0.0020600001
-0.015064069 -0.0010390909 -0.0022799999
0.017043289 -0.00127 -0.00030000001
0.011325541 -0.00011545455 -0.0086599998
-0.013744588 0.00011545455 -0.00404
0.021221645 -0.00080818182 -0.0022799999
0.014844156 -0.00127 -0.0014
0.021661472 -0.00011545455 -0.0068999999
-0.020122077 -0.00127 -0.00184
0.00098961033 0.00011545455 0.00057999999
0.006047619 0.00011545455 -0.0068999999
0.024080519 -0.00011545455 -0.0071200002
-0.0086865798 0.00011545455 -0.00624
-0.019242425 0.00011545455 0.00057999999
0.0084666666 -0.00080818182 -0.0024999999
-0.0045082248 -0.00127 -0.00095999998
-0.021001732 -0.00127 -0.00030000001
-0.021661472 -0.00011545455 -0.00404
0.020122077 -0.00080818182 -7.9999998e-05
0.011545454 -0.00127 -0.00162
0.023420779 -0.00127 -0.00073999999
-0.0075870128 0.00127 -0.00073999999
0.0106658 -0.00127 -0.00184
0.014184415 -0.00011545455 -0.0066800001
0.0064874459 -0.00011545455 -0.0055800001
0.0027489178 0.00127 -0.0020600001
-0.021441558 -0.00011545455 0.0025599999
-0.011325541 0.00011545455 -0.00514
-0.014844156 -0.00080818182 -0.0022799999
-0.0106658 0.00127 -0.00095999998
-0.010885714 -0.00127 -0.00184
-0.022321211 -0.00011545455 -7.9999998e-05
-0.0040683984 0.00127 -0.00184
-0.012864935 -0.0010390909 -7.9999998e-05
-0.0058277054 0.00127 -0.00184
-0.0049480516 0.00080818182 -0.0024999999
-0.017263204 0.00127 -0.00095999998
0.0014294372 -0.00034636364 -0.00624
0.016383549 -0.00011545455 -0.00734
0.013524675 -0.00057727273 -0.00030000001
-0.014624242 0.00057727273 -0.00030000001
0.011325541 -0.00011545455 -0.0057999999
-0.0014294372 -0.00034636364 -7.9999998e-05
0.016383549 -0.00011545455 -0.0049200002
0.0106658 0.00080818182 -0.0022799999
-0.0064874459 -0.00011545455 0.00014
0.0058277054 0.00080818182 -7.9999998e-05
0.022761038 0.00127 -0.0020600001
-0.0014294372 -0.00011545455 0.0023399999
-0.016603462 0.00011545455 0.0019
-0.0014294372 -0.00127 -0.00095999998
0.0069272728 0.00127 -0.00030000001
-0.01770303 0.00127 -0.00052
-0.011325541 -0.00011545455 -0.0031600001
0.0036285713 -0.00011545455 0.0021200001
-0.021441558 0.00011545455 0.0014600001
-0.020781817 -0.0010390909 -0.0022799999
-0.015283982 -0.0010390909 -0.0022799999
-0.012205195 -0.00127 -0.00030000001
-0.0040683984 0.00034636364 -0.0024999999
0.012645021 0.00080818182 -7.9999998e-05
-0.010006061 -0.00127 -0.0022799999
0.024960173 0.00057727273 -0.00030000001
0.018582683 0.00127 -0.00052
-0.0064874459 -0.00011545455 -0.0060200002
-0.0040683984 -0.00127 -0.00118
0.0064874459 0.00080818182 -7.9999998e-05
0.020781817 0.00127 -0.0022799999
0.01836277 -0.00127 -0.00030000001
-0.023200866 -0.00127 -0.0020600001
0.0084666666 -0.00127 -7.9999998e-05
0.011545454 -0.00011545455 -0.0068999999
0.015064069 -0.00034636364 -7.9999998e-05
-0.017922943 -0.00034636364 -7.9999998e-05
0.0069272728 0.0010390909 -0.0022799999
0.0091264071 0.00011545455 -0.0049200002
-0.014184415 0.00080818182 -7.9999998e-05
0.012205195 -0.00011545455 -0.0022799999
-0.020561904 0.00011545455 -7.9999998e-05
-0.0036285713 0.00011545455 0.00014
-0.00098961033 -0.00011545455 -0.0035999999
-0.0045082248 -0.00057727273 -0.0024999999
-0.0067073591 0.00127 -0.0022799999
0.015283982 0.00057727273 -0.0022799999
-0.022101298 -0.00011545455 -0.0022799999
-0.016383549 -0.00034636364 -0.00624
0.021661472 0.00011545455 -0.0075599998
0.024300432 -0.00057727273 -0.00030000001
-0.014184415 -0.00127 -0.00184
-0.012205195 -0.00127 -0.00184
0.017043289 -0.00127 -0.00184
-0.022101298 0.00080818182 -0.00030000001
-0.0062675322 0.00011545455 -0.0068999999
0.013744588 0.00011545455 0.00102
-0.013744588 0.00057727273 -0.0022799999
-0.0069272728 -0.0010390909 -7.9999998e-05
0.011545454 0.00011545455 -0.00272
-0.021661472 0.00034636364 -0.0035999999
0.0012095238 -0.00127 -0.00095999998
-0.012425108 -0.00011545455 -0.0022799999
-0.0040683984 -0.00011545455 -0.0033799999
-0.021441558 -0.00127 -0.00030000001
0.01836277 -0.00080818182 -0.0022799999
-0.013084848 -0.0010390909 -0.0022799999
0.011325541 -0.00080818182 -0.0024999999
-0.019682251 0.00127 -0.00073999999
0.019682251 -0.00011545455 -0.0022799999
-0.0018692641 0.00080818182 -0.0024999999
0.021001732 0.00080818182 -7.9999998e-05
0.00032987012 -0.00127 -0.0020600001
-0.0097861467 0.00127 -0.00184
0.024080519 0.00011545455 -0.00624
-0.015283982 0.00127 -0.0014
0.0036285713 -0.00127 -0.00030000001
0.022541124 0.00057727273 -0.0024999999
0.012425108 -0.00080818182 -7.9999998e-05
0.0049480516 0.00127 -0.00162
-0.011325541 0.00011545455 -0.0082200002
-0.023860605 0.00011545455 -0.0060200002
-0.0036285713 -0.00034636364 -0.0064599998
0.017483117 -0.00034636364 -7.9999998e-05
-0.006047619 -0.00057727273 -0.00030000001
0.012645021 0.00011545455 -7.9999998e-05
0.019682251 0.00011545455 -7.9999998e-05
-0.0036285713 -0.00127 -0.00073999999
0.017263204 0.00127 -0.00162
-0.0095662335 0.00034636364 -7.9999998e-05
0.0064874459 -0.00034636364 -0.00382
0.016603462 0.00057727273 -0.00030000001
-0.0031887444 -0.00080818182 -0.0022799999
-0.0031887444 -0.00127 -0.00118
0.0086865798 0.00011545455 0.00057999999
-0.011985281 0.00127 -0.0022799999
0.0075870128 0.00127 -0.00095999998
-0.0036285713 0.00011545455 0.0023399999
-0.0020891775 -0.00127 -0.00162
0.014184415 -0.00011545455 0.0021200001
-0.007806926 -0.00127 -0.00052
0.021441558 -0.00127 -0.00095999998
0.017483117 -0.00057727273 -0.00030000001
-0.012864935 -0.00057727273 -0.00030000001
-0.015503895 -0.0010390909 -7.9999998e-05
-0.024080519 -0.00011545455 -0.0088799996
0.019242425 -0.00011545455 -0.0068999999
0.013964502 -0.00034636364 -0.0033799999
-0.019022509 0.00034636364 -0.0055800001
0.0047281384 -0.00034636364 -7.9999998e-05
-0.0020891775 0.00127 -0.00073999999
0.007806926 0.00034636364 -0.0022799999
0.018802596 0.00080818182 -0.0024999999
-0.016603462 0.00011545455 -0.0091000004
0.01836277 0.00127 -0.00162
0.0014294372 -0.00011545455 -0.0088799996
-0.0069272728 0.00127 -0.00073999999
0.01572381 0.0010390909 -7.9999998e-05
-0.021661472 0.00127 -0.00030000001
-0.018582683 0.00127 -0.00073999999
0.013744588 0.00011545455 0.00168
0.008906493 -0.00034636364 0.00036000001
-0.024960173 -0.00080818182 -0.00030000001
0.00032987012 -0.00011545455 -0.0024999999
-0.0064874459 -0.00127 -0.00095999998
-0.017483117 -0.00080818182 -7.9999998e-05
-0.023640692 0.00127 -0.00030000001
-0.011325541 -0.00034636364 -0.0053599998
-0.024080519 -0.00034636364 -0.0053599998
-0.00098961033 0.00011545455 0.0021200001
-0.0062675322 -0.00034636364 0.0019
0.018582683 0.00127 -0.00162
0.019682251 -0.00080818182 -0.0024999999
-0.014184415 -0.00011545455 0.0019
-0.012645021 0.00127 -0.00118
-0.022980953 0.00127 -0.00184
-0.018142857 0.00127 -0.00052
-0.0012095238 -0.00034636364 -0.0035999999
-0.021881385 0.00011545455 -0.0071200002
0.0018692641 -0.00127 -0.0024999999
0.013304762 0.00127 -0.00073999999
-0.017263204 -0.00080818182 -0.0022799999
-0.020122077 -0.0010390909 -0.0022799999
0.013524675 -0.00127 -0.00052
-0.016163636 0.00034636364 -7.9999998e-05
0.020781817 -0.0010390909 -0.0022799999
-0.013084848 -0.00127 -0.00184
-0.0045082248 0.00127 -0.00162
-0.0064874459 0.00034636364 -0.0086599998
0.010445887 0.00080818182 -0.0022799999
0.00098961033 0.00034636364 -0.00382
-0.0091264071 -0.00011545455 0.00124
0.017043289 0.00011545455 -0.0022799999
0.021661472 0.00011545455 -0.0088799996
-0.015064069 -0.00127 -0.0022799999
-0.0080268392 0.0010390909 -7.9999998e-05
-0.011765367 -0.00127 -0.00095999998
-0.008906493 0.00034636364 0.0023399999
-0.014624242 -0.00127 -7.9999998e-05
0.011545454 0.00011545455 0.0014600001
-0.011105628 0.00080818182 -0.0022799999
-0.00054978352 0.00127 -0.00095999998
-0.012645021 -0.0010390909 -7.9999998e-05
0.011765367 0.00127 -0.00052
-0.020122077 0.00127 -0.00030000001
0.0064874459 -0.00011545455 0.00014
-0.014404329 -0.00127 -7.9999998e-05
-0.011105628 0.00127 -0.00095999998
-0.00054978352 0.00127 -0.00162
-0.0086865798 -0.00011545455 -0.00624
0.021441558 0.00057727273 -0.0022799999
0.024520345 -0.00127 -0.00184
-0.019462338 0.00127 -0.00095999998
-0.013304762 0.00127 -0.00073999999
-0.0038484847 0.00034636364 -0.0086599998
0.014184415 0.00011545455 -0.0068999999
-0.0062675322 -0.00011545455 -0.0075599998
0.0067073591 0.00127 -0.00030000001
-0.013964502 -0.00034636364 0.0023399999
-0.010885714 0.00127 -0.00052
0.024960173 -0.0010390909 -0.00052
0.017922943 -0.00127 -0.00095999998
-0.0062675322 -0.00034636364 0.0021200001
0.010445887 -0.00127 -0.00030000001
-0.015283982 -0.00127 -0.0020600001
-0.016383549 0.00011545455 -0.0071200002
0.021441558 -0.0010390909 -0.0022799999
0.016823376 0.00127 -0.00052
0.014184415 -0.00127 -7.9999998e-05
0.0064874459 -0.00011545455 -0.0082200002
-0.013304762 -0.00127 -0.00052
-0.023200866 -0.00127 -0.00118
-0.010006061 0.00057727273 -0.00030000001
-0.0086865798 0.00011545455 -0.0053599998
