# .PCD v0.7 - Point Cloud Data file format
VERSION 0.7
FIELDS x y z
SIZE 4 4 4
TYPE F F F
COUNT 1 1 1
WIDTH 1317
HEIGHT 1
VIEWPOINT 0 0 0 1 0 0 0
POINTS 1317
DATA ascii
0.0108204 0.0003175 -0.0023524391
0.0053339996 0.0003175 -0.0023524391
-0.0013716 0.0003175 0.0023882927
0.0115824 0.00015875 -0.0073990244
0.0115824 -0.0003175 -0.0086224386
0.0115824 0.00047624999 -0.00036439023
-0.0010668 -0.0003175 -0.0040346342
-0.0019812 -0.00127 -0.00036439023
-0.0062483996 -0.0003175 -0.0047992682
-0.0073151998 0.00127 -0.0012819512
0.011277599 0.00095249998 -5.8536585e-05
0.001524 -0.00015875 -0.0078578051
-0.0013716 -0.0003175 -0.0041875611
0.011125199 0.00015875 -0.008010732
-0.0092963995 0.00127 -0.00021146341
0.013715999 0 0.0017765854
0.0059435996 -0.00127 -0.00067024393
0.008382 -0.00127 -0.0023524391
-0.0039623999 0.00015875 -0.0038817073
-0.0088391993 0.0003175 0.00024731708
0.00091439998 0.00079374999 -0.0025053658
0.0010668 0.00015875 -0.00327
-0.0067055998 0.00079374999 -0.0023524391
0.0038099999 0.0003175 -0.0055639027
0.0032003999 -0.00127 -0.00021146341
-0.00045719999 -0.0003175 -0.0025053658
0.011734799 0.00111125 -5.8536585e-05
0.0038099999 0.0003175 -0.0089282924
-0.014478 -0.00047624999 -0.0023524391
0.012192 0.00015875 -5.8536585e-05
-0.0010668 -0.0003175 0.0022353658
0.0086867996 -0.00015875 -0.0086224386
-0.0138684 0.00111125 -0.0023524391
0.00076199998 -0.00127 -0.0012819512
-0.0059435996 -0.00047624999 -0.00036439023
0.011277599 -0.00015875 -0.0055639027
0.0059435996 -0.00127 -0.0015878049
-0.0013716 -0.0003175 0.0014707317
-0.0138684 -0.0003175 -0.0064814636
0.0086867996 -0.0003175 -0.0083165858
0.0065531996 -0.00015875 -0.0035758538
0.0044195997 -0.00127 -0.0017407318
-0.0064007998 0.0003175 0.001164878
-0.0089916 -0.00127 -0.0012819512
0.0018288 -0.00127 -0.0023524391
0.013106399 0.00127 -0.00097609754
-0.0132588 -0.00047624999 -0.0023524391
-0.0057911999 -0.00095249998 -0.0023524391
-0.0035051999 -0.0003175 -0.0069402438
-0.014173199 -0.00015875 0.0014707317
-0.0064007998 0.00127 -0.0012819512
0.0140208 0.0003175 -0.0072460975
0.0010668 0.0003175 -0.0061756098
-0.011277599 0.0003175 -0.0066343904
0.0089916 0.0003175 -0.0046463413
0.00076199998 -0.000635 -0.0025053658
0.0016764 0.00127 -0.0008231707
0.0035051999 0.00015875 -0.0077048782
-0.0039623999 -0.0003175 0.0016236586
0.0033527999 0.00127 -0.00051731709
0.0088391993 0.0003175 -0.0037287804
0.010667999 -0.00127 -0.00051731709
0.0070103998 -0.00095249998 -5.8536585e-05
-0.0028955999 -0.00127 -0.00097609754
0.00030479999 -0.0003175 -0.0025053658
-0.0088391993 0.0003175 -0.0049521951
0.0050291996 0.00015875 -0.0023524391
-0.0039623999 -0.0003175 0.00085902441
0.0060959999 -0.00127 -0.0021995122
-0.013715999 0.00015875 -0.0064814636
0.0035051999 -0.00015875 -0.0077048782
-0.0086867996 -0.00015875 0.0023882927
0.012344399 0.00127 -0.00036439023
-0.0086867996 0 -0.0061756098
-0.0013716 0.0003175 -0.0029641464
-0.0054863999 -0.000635 -0.00036439023
0.0115824 0.00015875 0.0020824391
-0.0126492 -0.00079374999 -0.00021146341
0.013563599 0.00127 -0.0017407318
0.0150876 0.00095249998 -0.0011290244
0.0025907999 -0.00047624999 -0.00036439023
0.010667999 0 -5.8536585e-05
0.0150876 0.000635 -0.0011290244
-0.001524 0.00127 -0.0020465853
-0.0048767999 -0.00127 -0.0018936585
-0.0060959999 -0.00095249998 -0.0023524391
-0.0054863999 -0.00127 -0.0023524391
0.0019812 -0.00095249998 -0.0025053658
-0.0032003999 0.000635 -0.00036439023
0.0039623999 0.00095249998 -5.8536585e-05
-0.0022859999 0.00127 -0.00097609754
-0.0060959999 -0.00015875 -0.0047992682
0.014173199 0 -0.0054109758
-0.008382 -0.000635 -0.0023524391
0.0024383999 -0.00127 -0.0014348781
0.0128016 0.00127 -0.00021146341
-0.0089916 0.0003175 -0.0063285367
-0.0099059995 -0.00095249998 -0.0025053658
0.0038099999 -0.00127 -0.0020465853
0.0097535998 -0.00079374999 -0.0023524391
0.014782799 -0.00111125 -0.0017407318
-0.0096012 -0.00127 -0.0021995122
-0.0150876 0.000635 -0.0014348781
0.011277599 0.0003175 -0.0081636589
0.0001524 0.00127 -0.0021995122
0.013715999 0 0.00085902441
-0.013563599 0.00047624999 -0.00036439023
0.013563599 -0.00079374999 -0.0023524391
0.0062483996 -0.00127 -0.0018936585
-0.0140208 -0.0003175 -0.0046463413
0.0080771996 0.00079374999 -0.00021146341
-0.013106399 -0.00095249998 -0.0023524391
-0.0039623999 0.0003175 -0.0087753655
-0.0035051999 0 0.00040024391
0.0086867996 0.00127 -0.00051731709
-0.0105156 0.00111125 -5.8536585e-05
0.0019812 0.00127 -0.00067024393
-0.0019812 0.00127 -0.0017407318
0.0038099999 0.0003175 -0.0044934144
0.0047243997 0 -5.8536585e-05
0.0109728 -0.0003175 -5.8536585e-05
-0.0019812 0.00127 -0.0015878049
0.01143 0.0003175 -0.0078578051
-0.01143 0.0003175 0.0019295122
0.0044195997 -0.000635 -0.00036439023
-0.01143 -0.0003175 9.4390241e-05
-0.0089916 -0.00015875 -0.0037287804
-0.0086867996 -0.00127 -0.0014348781
-0.0140208 0.00015875 -0.0072460975
-0.014325599 0.00111125 -0.00021146341
0.0080771996 -0.00095249998 -0.0023524391
0.0036575999 -0.0003175 0.0016236586
0.0051815999 0.00127 -0.0015878049
-0.014173199 -0.00015875 0.0023882927
0.0120396 0.00079374999 -0.00021146341
-0.0010668 0.00127 -0.0011290244
-0.008382 -0.00127 -0.0021995122
0.001524 0 -0.0037287804
-0.010667999 0.00095249998 -5.8536585e-05
0.001524 0.00015875 -0.0086224386
0.0088391993 0.00079374999 -0.00021146341
-0.014935199 -0.00111125 -0.00097609754
0.0150876 0.00111125 -0.00051731709
-0.0036575999 -0.00127 -0.0020465853
-0.0132588 -0.00079374999 -5.8536585e-05
-0.012192 -0.00095249998 -5.8536585e-05
-0.0027431999 0.000635 -0.0025053658
-0.0047243997 -0.00127 -0.00067024393
0.0092963995 -0.0003175 -5.8536585e-05
0.0013716 -0.0003175 -0.008010732
0.001524 0.00015875 -0.00327
0.0036575999 0.0003175 0.0014707317
-0.0108204 0.00079374999 -0.0023524391
0 0.00127 -0.0015878049
0.0070103998 -0.00079374999 -0.00021146341
-0.011277599 -0.00095249998 -5.8536585e-05
-0.014173199 0.00127 -0.00036439023
-0.0018288 -0.00127 -0.0012819512
-0.0013716 -0.00127 -0.0020465853
-0.0036575999 0.00079374999 -0.00021146341
-0.014782799 0.0003175 -0.00021146341
0.0115824 -0.00015875 -0.0069402438
0.0065531996 -0.00015875 -0.0029641464
-0.0050291996 0.00127 -0.00051731709
0.0064007998 0.0003175 -0.0073990244
-0.0064007998 0.0003175 -0.0057168291
0.0010668 0 -0.0073990244
-0.013715999 0.00015875 -0.0049521951
-0.0013716 -0.00127 -0.0025053658
0.0065531996 0.00015875 0.0013178049
-0.0092963995 0.00047624999 -0.0023524391
-0.0094487993 -0.00127 -0.00097609754
0.0091439998 -0.00127 -0.0020465853
0.0138684 0.0003175 -0.0057168291
-0.0018288 -0.00127 -0.0011290244
0.0019812 0.00095249998 -0.0025053658
-0.00045719999 0.00095249998 -0.0025053658
-0.011277599 -0.00015875 0.00055317074
-0.0039623999 0.0003175 0.0017765854
-0.0013716 0.00079374999 -0.0025053658
0.0138684 -0.0003175 -0.0026582927
0.0022859999 0.00127 -0.00067024393
-0.012192 -0.00015875 -5.8536585e-05
-0.014782799 -0.00111125 -0.0020465853
0.0016764 0.00111125 -0.0023524391
0.001524 0.0003175 -0.0061756098
-0.011125199 -0.00015875 -0.0077048782
0.0086867996 0 0.0025412196
0.0103632 0.00127 -5.8536585e-05
0.001524 0.00015875 -0.0077048782
-0.012953999 0.00127 -0.00036439023
0.0115824 0 -0.0087753655
-0.0128016 0.00127 -0.00021146341
-0.0033527999 0.00127 -0.0012819512
-0.0001524 -0.00127 -0.0012819512
-0.0012192 0.0003175 9.4390241e-05
-0.0068579996 0.0003175 -0.00021146341
0.0060959999 0.00015875 -0.0061756098
-0.0060959999 0.00127 -0.0015878049
-0.0045719999 0 -5.8536585e-05
0.0022859999 0.00127 -0.0012819512
-0.0044195997 0.00127 -0.00097609754
-0.014173199 -0.00047624999 -0.00036439023
0.00030479999 -0.00015875 -5.8536585e-05
-0.0060959999 -0.00015875 -0.0063285367
-0.0134112 -0.00127 -0.00097609754
0.0010668 0.0003175 -0.0078578051
-0.0115824 0 -0.0075519513
-0.0086867996 0.00015875 -0.0081636589
-0.0150876 0.0003175 -0.00067024393
0.0039623999 -0.0003175 0.001164878
0.011125199 0.00015875 0.001164878
0.01143 0.00127 -0.0011290244
-0.0079247998 -0.00127 -0.00097609754
-0.0089916 -0.0003175 -0.0031170731
0.014173199 0.00015875 -0.0041875611
0.00076199998 -0.00079374999 -0.00021146341
0.013715999 0 -0.0063285367
0.0073151998 0.00047624999 -0.0023524391
-0.0016764 0.00127 -0.0020465853
-0.01143 -0.0003175 -0.0067873169
0.0048767999 0.0003175 -0.0023524391
0.014478 0.00047624999 -0.00036439023
-0.00091439998 -0.00127 -0.00067024393
-0.011125199 0 -0.0026582927
0.0035051999 -0.00127 -0.00067024393
0.0115824 0 0.0013178049
-0.0128016 -0.00127 -0.0023524391
-0.0041147997 0.00079374999 -0.0023524391
-0.0089916 0.00015875 -0.0057168291
0 0.00047624999 -0.0025053658
0.0035051999 0 0.00040024391
-0.0022859999 0.00127 -0.0023524391
0.011125199 -0.00127 -0.0011290244
-0.0088391993 0.0003175 -0.005869756
0.0060959999 -0.000635 -0.00036439023
0.0053339996 0 -0.0023524391
0.0050291996 0.00079374999 -0.0023524391
0.014478 0.0003175 -5.8536585e-05
0.0071627996 0.00127 -0.00051731709
0.0103632 0.0003175 -0.00021146341
-0.0062483996 0.0003175 -0.0084695118
0.0086867996 0 -0.0031170731
0.0115824 0 -0.0066343904
-0.0099059995 0.00111125 -5.8536585e-05
0.0120396 0.00127 -0.00036439023
-0.0001524 0.0003175 -0.00021146341
-0.0035051999 -0.00047624999 -0.00036439023
0.011277599 0.0003175 -0.0028112195
-0.0138684 -0.00127 -0.0018936585
0.0089916 -0.0003175 0.00040024391
-0.0089916 -0.0003175 -0.0046463413
0.014478 -0.00111125 -0.0015878049
-0.0073151998 0.00095249998 -0.0023524391
-0.0085343998 0.00047624999 -0.00036439023
-0.010667999 -0.00095249998 -0.0023524391
-0.0027431999 0.00127 -0.00097609754
-0.0091439998 0.0003175 -0.0038817073
0.0010668 0.00015875 0.00040024391
0.010667999 0.000635 -0.0023524391
0.01143 0.0003175 0.00024731708
-0.0064007998 -0.00111125 -0.0023524391
0.011887199 -0.00095249998 -0.00021146341
-0.0054863999 -0.00127 -0.0015878049
-0.0012192 -0.0003175 -0.0044934144
-0.0012192 -0.0003175 -0.0073990244
0.0035051999 -0.00015875 -0.005869756
-0.0013716 -0.00127 -0.00051731709
-0.0062483996 -0.0003175 -0.0067873169
-0.01143 -0.00095249998 -0.0023524391
-0.014478 0 -0.0023524391
-0.013715999 0.00095249998 -0.0023524391
0.0035051999 -0.0003175 -0.0025053658
0.0041147997 0.00111125 -0.0023524391
0.001524 0.00047624999 -0.0025053658
0.0140208 0.000635 -0.00036439023
0.00076199998 0.00127 -0.0025053658
0.01143 -0.0003175 0.001164878
0.0024383999 0.00111125 -5.8536585e-05
0.0064007998 0.00047624999 -0.0025053658
0.0097535998 0.000635 -0.00036439023
0.0051815999 -0.00127 -0.0014348781
0.0042671999 -0.00127 -0.0014348781
0.0115824 -0.0003175 0.0014707317
0.0092963995 0.00127 -0.0020465853
-0.0140208 0.0003175 -0.0077048782
-0.0079247998 0.00127 -5.8536585e-05
0.0088391993 -0.0003175 -0.0038817073
0.0102108 0.00047624999 -0.0023524391
-0.0053339996 0.00079374999 -0.00021146341
-0.0041147997 -0.00111125 -5.8536585e-05
-0.0089916 -0.00015875 -0.0063285367
-0.0105156 0.00127 -0.00067024393
0.0150876 -0.000635 -0.0018936585
0.0035051999 0.00127 -0.00051731709
0.0036575999 0.0003175 -0.0041875611
-0.0115824 -0.0003175 -0.0072460975
0.0071627996 0.00127 -0.00036439023
0.0091439998 0.0003175 -5.8536585e-05
0.0140208 -0.00079374999 -0.0023524391
-0.0150876 0.00079374999 -0.0020465853
0.01143 -0.00127 -0.0014348781
0.0016764 0.00127 -0.0023524391
-0.0036575999 0.00015875 -0.0035758538
0.012344399 0.00127 -0.0021995122
0.0038099999 -0.0003175 0.0017765854
0.011125199 0.00015875 -0.0035758538
-0.0025907999 0.00015875 -0.0025053658
-0.0065531996 0 -0.0063285367
0.013563599 0.00015875 -5.8536585e-05
-0.0048767999 0.00127 -0.0020465853
-0.0048767999 -0.00127 -0.00021146341
-0.0126492 -0.00015875 -0.0023524391
0.0102108 -0.00047624999 -0.0023524391
-0.0039623999 -0.0003175 -0.0028112195
-0.0126492 0.00095249998 -0.0023524391
-0.0062483996 0.0003175 0.0019295122
0.0138684 -0.00015875 -0.0089282924
-0.0051815999 0.00127 -5.8536585e-05
-0.0041147997 0 -0.0044934144
0.0010668 -0.00015875 9.4390241e-05
-0.0039623999 -0.0003175 -0.0072460975
0.013715999 -0.00015875 -0.0047992682
-0.0109728 -0.00127 -0.0011290244
0.0060959999 0.00127 -0.00021146341
0.012496799 0.00047624999 -0.0023524391
0.0018288 -0.00127 -0.0015878049
-0.0039623999 -0.00015875 -0.0070931707
0.0010668 0.00127 -0.00067024393
0.0045719999 -0.00127 -0.0012819512
0.0092963995 0.00095249998 -0.0023524391
-0.0056387996 0.00127 -0.0015878049
-0.0042671999 -0.00127 -0.0012819512
0.0146304 -0.00047624999 -0.00036439023
-0.0115824 0.0003175 -0.0038817073
-0.01143 -0.0003175 -0.0049521951
-0.0089916 0.00015875 -0.0034229269
0.0088391993 0.0003175 -0.0038817073
-0.0036575999 -0.0003175 -0.00021146341
-0.0086867996 -0.00015875 0.0017765854
-0.0022859999 0.00095249998 -0.0025053658
0.0062483996 0.0003175 9.4390241e-05
0.012496799 0.00127 -0.0008231707
0.0013716 0.00127 -0.0017407318
-0.0025907999 -0.00127 -0.0021995122
0.0092963995 0.00015875 -5.8536585e-05
-0.0080771996 0.00095249998 -0.0025053658
-0.0045719999 -0.00127 -0.0025053658
0.013715999 0.00015875 0.0019295122
0.011734799 0.00127 -0.00097609754
0.0140208 0.0003175 -0.0052580489
-0.011887199 0.0003175 -0.00021146341
-0.0050291996 0.000635 -0.00036439023
-0.013106399 -0.00127 -0.0023524391
-0.014173199 0.00127 -0.0014348781
0.0065531996 0 -0.0026582927
0.0065531996 -0.0003175 -0.0084695118
0.0030479999 0.00127 -0.0011290244
-0.001524 -0.0003175 -0.0044934144
0.0105156 0.00127 -0.0017407318
0.0010668 0 0.0019295122
0.0065531996 0.0003175 0.0014707317
-0.01524 -0.00047624999 -0.0008231707
-0.0010668 0.00015875 -0.004340488
-0.0109728 -0.00095249998 -5.8536585e-05
0.0013716 0.0003175 -0.004340488
-0.0001524 -0.00127 -0.0015878049
-0.0088391993 0.00095249998 -5.8536585e-05
0.012344399 -0.00079374999 -0.0023524391
0.0030479999 0.00111125 -5.8536585e-05
0.0062483996 0.0003175 -0.0070931707
-0.0001524 -0.00111125 -5.8536585e-05
0.013106399 -0.00015875 -0.0023524391
0.0019812 -0.00127 -0.0008231707
-0.0070103998 -0.00079374999 -0.0025053658
0.014173199 -0.00015875 -0.004340488
-0.0039623999 0.00015875 -0.0067873169
-0.0128016 0.00111125 -0.0023524391
0.011277599 0.0003175 -0.005869756
0.0086867996 -0.00111125 -0.0023524391
0.0036575999 -0.0003175 -0.0031170731
0.0050291996 0.00127 -0.00067024393
0.011277599 0.00127 -5.8536585e-05
0.0071627996 0.00127 -0.0012819512
0.0013716 0.0003175 -0.0075519513
-0.0126492 -0.00079374999 -0.0023524391
0.0032003999 0.00127 -0.0011290244
0.0048767999 0.00127 -0.00067024393
0.0024383999 0.00127 -0.00036439023
-0.013563599 -0.00127 -0.0023524391
0.0027431999 0.00127 -0.0011290244
-0.0048767999 0.00111125 -0.0023524391
0.011125199 -0.00127 -0.0014348781
0.0010668 0 -0.005869756
0.0038099999 0.0003175 0.0023882927
0.0138684 0.00111125 -0.0023524391
0.013563599 0.00127 -0.0011290244
0.00076199998 -0.00015875 -0.0025053658
0.0053339996 0.00127 -0.0018936585
0.0088391993 -0.0003175 -0.0064814636
-0.01524 -0.0003175 -0.00097609754
0.0039623999 -0.00015875 -0.0046463413
-0.0044195997 -0.00095249998 -0.0025053658
-0.0091439998 0.00127 -0.00036439023
-0.001524 -0.00127 -0.00021146341
0.0010668 0.0003175 -0.0031170731
0.011277599 0.00127 -0.0011290244
0.012496799 0.00127 -0.00051731709
-0.0108204 0.00127 -0.0011290244
-0.0071627996 -0.00127 -0.0020465853
0.011125199 0.00015875 -0.0060226829
-0.0010668 0 0.0023882927
0.011277599 -0.0003175 0.001164878
-0.0028955999 0.00127 -0.0025053658
0.0012192 0.0003175 0.00055317074
0.0064007998 0.0003175 -0.0037287804
-0.0080771996 0.00095249998 -5.8536585e-05
-0.0115824 0.00015875 -0.005105122
-0.0150876 0.00079374999 -0.0008231707
0.0115824 -0.0003175 -0.0057168291
-0.0060959999 0 -0.0028112195
-0.0035051999 -0.00015875 0.00070609758
-0.0036575999 -0.0003175 0.0014707317
0.0089916 0.0003175 -0.008010732
0.0150876 -0.00079374999 -0.00051731709
-0.0086867996 0 -0.0047992682
-0.0086867996 -0.0003175 -0.0037287804
0.0064007998 0.00127 -0.0018936585
0.011125199 0.00015875 -0.0061756098
-0.0085343998 -0.00127 -0.00021146341
0.0038099999 0.0003175 -0.0064814636
0.014782799 0.00111125 -0.00021146341
0.0050291996 0.00127 -0.00051731709
-0.0094487993 0.00015875 -0.0023524391
0.0089916 -0.0003175 0.0013178049
0.0115824 0.00015875 0.0023882927
0.0089916 0 0.0023882927
0.008382 0.0003175 -0.00021146341
0.0132588 0.00047624999 -0.00036439023
-0.0065531996 0.00127 -0.00036439023
-0.0089916 0.00015875 -0.0049521951
0.011125199 0 -0.005105122
-0.012953999 -0.00127 -0.00097609754
0.0082295993 0.00127 -0.0021995122
0.0036575999 0.0003175 -0.0087753655
0.01524 0.0003175 -0.0018936585
0.0036575999 0.00127 -0.0011290244
-0.0039623999 0.00127 -0.0012819512
0.0010668 0.00015875 -0.0067873169
-0.0089916 0.00127 -0.00067024393
-0.0032003999 0.00127 -0.00051731709
0.0094487993 0.00127 -0.0020465853
0.0060959999 0 -0.0041875611
-0.0146304 -0.00127 -0.0018936585
-0.0042671999 -0.00127 -0.0014348781
-0.013563599 -0.00079374999 -0.00021146341
0.0025907999 0.00127 -0.0025053658
0.010667999 0.00111125 -5.8536585e-05
-0.0064007998 -0.00047624999 -0.0025053658
-0.0065531996 0.0003175 0.0013178049
0.0051815999 0.00127 -0.0008231707
0.0138684 0.0003175 -0.0060226829
0.0060959999 -0.00079374999 -0.0023524391
-0.0045719999 0.00015875 -5.8536585e-05
-0.014325599 -0.00127 -0.0021995122
-0.0060959999 0.00015875 -0.0035758538
-0.0013716 -0.00047624999 -0.0025053658
-0.00030479999 0.00127 -0.00051731709
-0.0086867996 0.00015875 -0.0034229269
-0.0140208 -0.0003175 -0.0031170731
0.0045719999 -0.000635 -0.0023524391
-0.0019812 -0.00047624999 -0.0025053658
0.0051815999 -0.00127 -0.0021995122
-0.0053339996 0.0003175 -0.0025053658
0.00060959999 -0.00127 -0.0020465853
0.011887199 -0.00127 -0.0014348781
-0.0088391993 -0.0003175 -0.0060226829
0.013715999 -0.00127 -0.0012819512
0.0150876 0.00111125 -0.0011290244
0.0010668 0.0003175 -0.0041875611
-0.0064007998 0.0003175 -0.0046463413
0.0032003999 0.0003175 -0.0023524391
0.0065531996 0.0003175 -0.008010732
0.0051815999 -0.00127 -0.0008231707
-0.00091439998 -0.00127 -0.0021995122
-0.0039623999 -0.00015875 -0.0057168291
-0.0089916 0.0003175 -0.0055639027
0.0068579996 0.00111125 -0.0023524391
0.014173199 -0.00095249998 -0.00021146341
-0.0035051999 0 0.0013178049
0.0033527999 -0.00127 -0.0011290244
-0.0039623999 0.00015875 -0.0061756098
-0.0010668 0 -0.005105122
0.0064007998 -0.0003175 -0.0089282924
0.0073151998 -0.00111125 -0.0023524391
-0.0025907999 -0.00111125 -5.8536585e-05
-0.0097535998 0.00047624999 -0.00036439023
0.0041147997 0.00079374999 -0.00021146341
0.0140208 -0.0003175 -5.8536585e-05
0.0033527999 0.00047624999 -0.00036439023
0.0012192 -0.0003175 0.0022353658
0.0068579996 -0.00095249998 -0.0023524391
-0.0086867996 -0.0003175 -0.00327
0.0062483996 0.00015875 -0.0090812193
-0.0050291996 0.00047624999 -0.0025053658
0.0039623999 0 -0.0044934144
0.00045719999 0.00127 -0.00051731709
0.0094487993 0.00127 -0.00097609754
0.0050291996 0.00127 -5.8536585e-05
-0.0079247998 -0.00015875 -5.8536585e-05
-0.0044195997 0.000635 -0.00036439023
0.0012192 0.0003175 -0.0061756098
-0.0140208 -0.0003175 9.4390241e-05
-0.0013716 -0.0003175 9.4390241e-05
0.0065531996 0 -0.0073990244
-0.0010668 -0.0003175 -0.0073990244
-0.0091439998 0.00127 -0.0014348781
-0.0088391993 -0.0003175 -0.0078578051
0.011734799 -0.00047624999 -0.00036439023
0.0102108 0.00127 -0.0018936585
-0.0077723996 0.00047624999 -0.0023524391
-0.0050291996 -0.00015875 -0.0023524391
-0.0089916 -0.0003175 -0.0075519513
0.012344399 0.00111125 -5.8536585e-05
-0.0064007998 0.0003175 -0.0029641464
0.0140208 -0.00015875 -0.0038817073
-0.0039623999 -0.00015875 -0.0075519513
-0.0019812 -0.00111125 -0.0025053658
0.0038099999 0.00127 -0.0020465853
-0.013715999 0 -0.0060226829
-0.0021335999 0.00111125 -5.8536585e-05
-0.0033527999 -0.00095249998 -5.8536585e-05
-0.0039623999 -0.00127 -0.0011290244
0.0108204 -0.00127 -0.00036439023
0.0138684 -0.00015875 -0.0081636589
-0.0062483996 0.0003175 -0.0061756098
0.0089916 -0.0003175 -0.0069402438
-0.0096012 0.00127 -5.8536585e-05
-0.0016764 0.00095249998 -0.0025053658
-0.0065531996 -0.0003175 -0.0084695118
-0.01143 0.00127 -0.0023524391
-0.0086867996 0.00127 -0.0015878049
0.014173199 0.00127 -5.8536585e-05
-0.0086867996 -0.00015875 -0.0054109758
0.0068579996 0.00015875 -5.8536585e-05
-0.0065531996 -0.00015875 -0.0083165858
0.0010668 0.00127 -0.00051731709
0.0074675996 0.0003175 -0.00021146341
0.0089916 0.00015875 -0.0035758538
0.0105156 -0.00127 -0.0015878049
-0.0105156 0.00127 -0.00097609754
-0.011277599 0.00015875 -0.0073990244
-0.0065531996 0.0003175 -0.0034229269
-0.0076199998 0.00095249998 -0.0025053658
-0.0138684 -0.0003175 -0.0078578051
-0.0088391993 -0.00127 -0.0014348781
0.0091439998 0.00015875 9.4390241e-05
-0.0010668 -0.00015875 -0.0037287804
0.0128016 -0.00111125 -0.00021146341
0.0080771996 0.00127 -0.0021995122
-0.0065531996 -0.0003175 -0.0026582927
-0.0065531996 -0.00015875 -0.0086224386
-0.0099059995 -0.00127 -0.0012819512
-0.0010668 -0.0003175 -0.0041875611
0.0115824 0 -0.00327
0.0045719999 0.00127 -0.0020465853
-0.0065531996 0 -0.0052580489
-0.011734799 0.00127 -0.00036439023
-0.0065531996 0.00015875 0.00085902441
0.0062483996 -0.0003175 -0.0060226829
0.0089916 0 0.0019295122
0.01143 0.0003175 0.0019295122
-0.014782799 0.00111125 -0.0014348781
0.0062483996 -0.0003175 -0.0046463413
0.0027431999 0.00111125 -0.0025053658
0.0088391993 0.00127 -0.0017407318
0.0065531996 0.00015875 -0.0081636589
-0.0047243997 0.0003175 -0.0023524391
-0.0128016 0.000635 -0.0023524391
0.0065531996 -0.00111125 -0.0023524391
0.0039623999 0.00015875 -0.0052580489
0.0047243997 -0.0003175 -0.0023524391
0.0033527999 -0.00127 -0.0015878049
0.0150876 0.00111125 -0.0008231707
0.0010668 -0.0003175 -0.0083165858
0.0016764 0.00127 -5.8536585e-05
-0.00060959999 -0.00127 -5.8536585e-05
0.0089916 0.00015875 -0.0040346342
-0.0059435996 -0.0003175 -0.00021146341
0.01143 0.0003175 -0.004340488
0.0089916 0.00127 -0.0023524391
-0.0103632 -0.0003175 -0.0023524391
0.0089916 0.0003175 -0.0035758538
-0.0092963995 0.00095249998 -5.8536585e-05
0.0094487993 -0.00015875 -5.8536585e-05
-0.0065531996 0.00015875 -0.0063285367
0.0001524 -0.0003175 -0.0025053658
0.0060959999 0.0003175 -0.00021146341
-0.01143 -0.0003175 -0.005869756
0.014173199 -0.00015875 -0.0029641464
-0.0138684 -0.00015875 -0.0047992682
-0.0038099999 -0.0003175 0.0020824391
-0.0103632 -0.00127 -5.8536585e-05
-0.0086867996 0 -0.0040346342
0.00045719999 0.00127 -0.0017407318
0.0080771996 0.00047624999 -0.00036439023
0.0088391993 0.0003175 -0.0066343904
0.0140208 -0.00015875 -0.0081636589
0.01143 -0.0003175 -5.8536585e-05
0.0086867996 -0.00015875 -0.0078578051
-0.0077723996 0.00095249998 -0.0025053658
0.0064007998 0.0003175 0.0020824391
-0.0073151998 -0.0003175 -0.0023524391
0.011887199 0.00015875 -0.0025053658
0.0039623999 0.0003175 -0.0040346342
-0.0086867996 0.00015875 0.0022353658
-0.0082295993 0.000635 -0.00036439023
0.0097535998 0.00111125 -5.8536585e-05
0.0013716 -0.00127 -5.8536585e-05
0.0088391993 0.0003175 0.0010119512
0.0012192 0.0003175 -0.005869756
0.00045719999 -0.00127 -0.0011290244
0.011125199 -0.00095249998 -0.00021146341
0.0070103998 -0.00127 -0.00036439023
-0.013106399 0 -5.8536585e-05
0.012192 0.00127 -0.0023524391
0.0067055998 0.00047624999 -0.00036439023
0.0010668 0.0003175 0.0022353658
-0.0091439998 0.0003175 0.0014707317
-0.0053339996 -0.00127 -5.8536585e-05
0.0064007998 -0.0003175 -0.0077048782
-0.0016764 -0.00015875 -0.0025053658
-0.0036575999 0.00015875 -0.0089282924
-0.0138684 -0.00015875 -0.005105122
0.0035051999 0.00015875 -0.0075519513
0.0010668 0.0003175 -0.004340488
-0.0115824 0.00111125 -5.8536585e-05
-0.0065531996 0 -0.005105122
0.0108204 -0.00095249998 -0.00021146341
0.012496799 -0.0003175 -0.0023524391
-0.0036575999 -0.00127 -0.0014348781
0.0150876 -0.00015875 -0.0011290244
0.01524 0.00047624999 -0.00067024393
-0.0050291996 0.00127 -0.0017407318
0.0010668 -0.00015875 -0.005105122
-0.0038099999 0.0003175 -0.0031170731
-0.011277599 -0.0003175 -0.004340488
0.0013716 -0.0003175 0.0022353658
0.014173199 -0.00015875 -0.0063285367
-0.0108204 0.00095249998 -5.8536585e-05
0.011125199 0.00015875 -0.0046463413
0.0062483996 -0.00127 -0.0014348781
-0.0109728 0.00127 -0.0012819512
-0.0089916 0.0003175 0.00040024391
0.0041147997 -0.0003175 -5.8536585e-05
-0.001524 0 -0.0084695118
-0.0024383999 -0.00127 -0.0017407318
-0.0001524 0.00047624999 -0.00036439023
-0.0140208 -0.0003175 0.0019295122
-0.0065531996 0.00127 -0.00097609754
-0.0059435996 0.00127 -0.00097609754
-0.0048767999 0.00127 -0.0012819512
0.0065531996 -0.00015875 0.0016236586
-0.0064007998 -0.00127 -0.0015878049
0.0024383999 0.00127 -0.0017407318
-0.0115824 -0.0003175 -0.0060226829
-0.0068579996 0.00111125 -5.8536585e-05
-0.0094487993 0.00127 -0.00097609754
0.0088391993 0.00127 -0.00097609754
-0.0086867996 -0.0003175 -0.0067873169
-0.014325599 0.00127 -0.0015878049
0.0074675996 -0.00127 -0.00067024393
-0.0065531996 0 -0.0057168291
0.00076199998 -0.00127 -0.00021146341
0.0030479999 0.00127 -0.0025053658
-0.0054863999 0.000635 -0.00036439023
0.0039623999 -0.00015875 -0.0078578051
0.012344399 0.00127 -0.0014348781
-0.0032003999 0.00095249998 -5.8536585e-05
-0.0038099999 0.00127 -0.0015878049
-0.0089916 -0.00127 -0.0021995122
0.011277599 0.00111125 -5.8536585e-05
0.012953999 0.00127 -0.0008231707
0.0091439998 -0.00095249998 -5.8536585e-05
-0.0038099999 -0.0003175 -0.0087753655
-0.0060959999 -0.00015875 -0.0052580489
0.0036575999 0.00111125 -0.0023524391
-0.0138684 -0.0003175 -0.004340488
-0.0102108 0.00127 -0.00067024393
-0.0054863999 -0.00127 -5.8536585e-05
0.0134112 0.00127 -0.0021995122
-0.0001524 0.00111125 -5.8536585e-05
0.008382 -0.00111125 -0.0023524391
0.013715999 0 -0.0073990244
0.0010668 0 -0.0066343904
0.0150876 -0.000635 -0.00097609754
0.0042671999 -0.00127 -0.0025053658
0.001524 0.0003175 -0.00327
0.0138684 0.00127 -0.0008231707
-0.0050291996 0.00127 -0.0020465853
0.0140208 -0.00015875 -0.0037287804
0.0140208 0.0003175 -0.0077048782
0.0070103998 0.00127 -0.00097609754
0.0042671999 -0.00111125 -5.8536585e-05
0.0024383999 0.000635 -0.0025053658
-0.0138684 -0.0003175 -0.0041875611
0.0128016 -0.00095249998 -5.8536585e-05
0.0035051999 0.00127 -0.0015878049
-0.014173199 0 -0.0066343904
0.0060959999 0.00015875 -0.0073990244
0.0076199998 -0.00095249998 -5.8536585e-05
0.0039623999 0 0.00055317074
0.0013716 -0.0003175 0.0020824391
0.0077723996 -0.00015875 -0.0023524391
-0.0138684 0.0003175 -0.0037287804
-0.0010668 0 -0.0052580489
0.001524 0.00015875 -0.0081636589
0.012344399 0.00127 -0.00067024393
0.012953999 0.00127 -0.0014348781
0.0028955999 0.00127 -0.0021995122
0.011277599 -0.0003175 -0.0064814636
-0.0060959999 0 -0.0054109758
-0.0065531996 -0.00015875 -0.0075519513
0.0016764 0.0003175 -5.8536585e-05
-0.0073151998 0.00111125 -5.8536585e-05
-0.0073151998 0.00047624999 -0.00036439023
0.0115824 0.00015875 -0.0070931707
0.0140208 0.0003175 -0.005105122
0.0013716 -0.0003175 -0.0067873169
0.001524 -0.00015875 -0.0084695118
0.0080771996 0.00111125 -5.8536585e-05
0.0115824 0.0003175 -0.0037287804
-0.011125199 -0.00015875 -0.0044934144
-0.0086867996 0.00015875 -0.0075519513
-0.0115824 -0.00015875 0.0022353658
-0.014173199 0 -0.0029641464
-0.01524 -0.0003175 -0.00051731709
-0.0019812 -0.00127 -0.0008231707
0.0018288 0.00127 -5.8536585e-05
0.0051815999 -0.00127 -0.00036439023
-0.0065531996 -0.00015875 -0.0041875611
0.0132588 -0.00015875 -0.0023524391
-0.0012192 -0.0003175 -0.0040346342
0.0010668 -0.00127 -0.0017407318
0.0062483996 -0.0003175 -0.0026582927
0.0041147997 -0.00127 -5.8536585e-05
-0.0039623999 0 -0.0049521951
-0.0036575999 -0.00127 -0.00051731709
-0.01143 -0.0003175 0.0022353658
-0.0080771996 -0.00127 -0.00097609754
0.0060959999 0 -0.0038817073
-0.012344399 0.00127 -0.0020465853
-0.0109728 -0.00127 -0.0012819512
-0.0146304 -0.00127 -0.0021995122
-0.012496799 0 -5.8536585e-05
-0.012496799 -0.00015875 -0.0023524391
-0.0048767999 -0.00127 -0.00067024393
0.0089916 0.0003175 -0.0037287804
0.0039623999 0.0003175 -0.0083165858
0.0039623999 0.00015875 -0.00327
0.0115824 0.00111125 -0.0023524391
-0.0039623999 0.00127 -0.0017407318
-0.0150876 0.00015875 -0.00036439023
-0.00076199998 -0.00127 -0.0018936585
0.0036575999 -0.00127 -0.0020465853
0.012344399 0.00079374999 -0.00021146341
-0.0019812 0.00127 -5.8536585e-05
-0.0028955999 -0.00095249998 -5.8536585e-05
0.0039623999 -0.00015875 -0.0041875611
0.0056387996 0.00111125 -5.8536585e-05
-0.013715999 0.00079374999 -0.00021146341
0.012192 0.00127 -0.00036439023
-0.0053339996 -0.00127 -0.0020465853
0.0039623999 0.0003175 -0.005869756
0.0132588 0.00127 -0.0012819512
0.0074675996 -0.00127 -0.0023524391
-0.0001524 -0.00111125 -0.0025053658
-0.00076199998 0.00127 -0.0025053658
-0.008382 0.00095249998 -5.8536585e-05
-0.0062483996 -0.0003175 -0.0077048782
-0.0115824 0.00095249998 -5.8536585e-05
-0.0035051999 -0.00015875 0.00055317074
0.0010668 0 0.0023882927
0.0035051999 0 -0.0029641464
0.0038099999 0.0003175 -0.0081636589
-0.0071627996 -0.00127 -0.0021995122
0.0062483996 -0.00127 -0.0020465853
0.0064007998 -0.0003175 -0.0064814636
-0.0057911999 0.00127 -0.0017407318
0.0126492 -0.00127 -0.0018936585
0.0019812 0.00127 -0.00097609754
0.0010668 0 -0.0064814636
-0.0036575999 -0.00079374999 -0.00021146341
-0.0036575999 0.00015875 -0.0081636589
0.0060959999 0.00015875 0.0019295122
0.01524 0.0003175 -0.0011290244
-0.008382 0.00111125 -5.8536585e-05
0.0062483996 0.0003175 -0.0035758538
0.014173199 0.00015875 -0.0026582927
0.0074675996 -0.00127 -0.0008231707
-0.0035051999 -0.00015875 -0.0031170731
-0.0080771996 -0.00047624999 -0.00036439023
0.0062483996 -0.00127 -0.00097609754
0.0035051999 0 0.00055317074
-0.0039623999 -0.00015875 -0.005869756
-0.0033527999 -0.00127 -0.0018936585
-0.001524 0 -0.0061756098
-0.0086867996 0.00127 -0.0011290244
0.0064007998 0.0003175 0.00085902441
0.011277599 -0.0003175 -0.0052580489
-0.0134112 -0.00015875 -0.0023524391
-0.0086867996 -0.0003175 0.0019295122
-0.011277599 -0.00127 -0.00036439023
-0.0062483996 0.00127 -0.0018936585
-0.0115824 -0.0003175 -0.0061756098
0.01524 0.0003175 -0.0015878049
0.0086867996 -0.0003175 -0.0054109758
-0.013715999 0.00015875 0.00055317074
0.014173199 -0.00015875 0.00055317074
0.0096012 0.0003175 -0.00021146341
-0.0103632 0.00127 -0.00097609754
0.011887199 0.00047624999 -0.00036439023
0.0036575999 -0.0003175 -0.0075519513
-0.0103632 0.00095249998 -5.8536585e-05
-0.0064007998 -0.00127 -0.0012819512
-0.01143 0.00111125 -0.0023524391
-0.0060959999 0.00015875 -0.0052580489
-0.014325599 -0.00127 -0.00097609754
0.0013716 -0.00127 -0.0023524391
0.00076199998 -0.00095249998 -0.0025053658
-0.0140208 -0.0003175 -0.0066343904
0.0086867996 -0.000635 -0.00036439023
0.013715999 0.00079374999 -0.00021146341
-0.00076199998 0.00127 -0.0017407318
0.0012192 -0.0003175 0.001164878
0.0056387996 -0.00127 -0.0020465853
-0.0060959999 0 0.00085902441
0.013715999 0.0003175 -0.0025053658
-0.0089916 0.00015875 -0.0070931707
-0.0079247998 0.0003175 -0.00021146341
0.0013716 -0.0003175 -0.0083165858
-0.0039623999 0.0003175 0.001164878
-0.0089916 0 -0.0034229269
0.0027431999 0.00047624999 -0.0025053658
0.010058399 0.00095249998 -5.8536585e-05
-0.0074675996 0.00015875 -0.0023524391
0.00060959999 0.00127 -0.0012819512
0.0132588 0.00047624999 -0.0023524391
0.0016764 -0.00127 -0.00067024393
-0.0086867996 0 -0.0070931707
-0.0012192 -0.0003175 -0.00327
-0.0039623999 -0.00015875 -0.0040346342
0.0073151998 0.00127 -0.0023524391
0.0018288 -0.00047624999 -0.00036439023
0.0010668 -0.00047624999 -0.0025053658
-0.0089916 0.00127 -0.0018936585
-0.0146304 -0.00127 -0.00021146341
0.0105156 -0.0003175 -5.8536585e-05
-0.0073151998 -0.00015875 -5.8536585e-05
-0.0097535998 -0.00095249998 -0.0025053658
0.0028955999 0.00127 -0.0020465853
0.011277599 0.00015875 -0.0034229269
-0.0079247998 0.00015875 -0.0023524391
-0.0115824 -0.00015875 -0.0077048782
-0.0102108 0.00079374999 -0.00021146341
-0.0039623999 -0.0003175 -0.004340488
0.0027431999 -0.00079374999 -0.0025053658
-0.0085343998 -0.00127 -0.0021995122
0.0092963995 -0.00127 -0.0014348781
-0.012496799 -0.00047624999 -0.0023524391
0.0086867996 0.00015875 -0.0089282924
0.0120396 0.00095249998 -0.0023524391
-0.0024383999 0.00047624999 -0.00036439023
0.0085343998 0.00047624999 -0.0023524391
0.001524 -0.00127 -0.0014348781
0.0068579996 -0.00015875 -5.8536585e-05
0.0088391993 0.0003175 -0.0026582927
-0.011277599 0.0003175 -0.0063285367
-0.0030479999 0.00127 -0.0014348781
-0.0132588 0.00127 -0.0021995122
-0.012496799 0.00015875 -5.8536585e-05
-0.0039623999 0.0003175 -5.8536585e-05
-0.0065531996 0 0.0019295122
0.012953999 -0.0003175 -0.00021146341
-0.0096012 0.00047624999 -0.00036439023
-0.0065531996 0.00015875 -0.0084695118
0.0065531996 0 -0.0029641464
0.0128016 0.00127 -0.0011290244
0.0099059995 -0.00079374999 -5.8536585e-05
-0.01143 0.0003175 -0.0061756098
0.0056387996 0.0003175 -5.8536585e-05
0.01143 -0.0003175 0.00070609758
0.0065531996 -0.0003175 -5.8536585e-05
-0.0064007998 -0.0003175 0.00040024391
-0.00030479999 0.00127 -0.00067024393
0.0126492 0.00127 -0.00067024393
0.00091439998 -0.00127 -0.0008231707
-0.0115824 0 0.0013178049
0.011887199 0.00095249998 -5.8536585e-05
-0.0086867996 0.00015875 -0.0072460975
-0.0115824 0.00127 -0.00067024393
0.0086867996 0 -0.005105122
-0.0012192 0.0003175 0.0010119512
0.0010668 -0.00127 -0.0023524391
-0.011277599 -0.00127 -5.8536585e-05
-0.014173199 0 -0.0054109758
-0.0138684 -0.0003175 9.4390241e-05
0.0065531996 -0.00015875 -0.0055639027
-0.0076199998 -0.0003175 -0.0023524391
0.0077723996 0.00127 -5.8536585e-05
0.00030479999 0.00079374999 -0.0025053658
-0.008382 -0.0003175 -5.8536585e-05
-0.0039623999 0.00015875 -0.0063285367
-0.011734799 0.00047624999 -0.0023524391
0.014173199 -0.00111125 -0.00097609754
-0.0060959999 0 -0.0026582927
0.0038099999 -0.0003175 -0.0029641464
-0.0089916 -0.00015875 -0.0070931707
0.0045719999 -0.00111125 -5.8536585e-05
-0.0089916 0 -0.0026582927
0.0138684 0.0003175 -0.0069402438
-0.0012192 0.00127 -0.00021146341
-0.0039623999 0.00127 -0.0020465853
-0.0045719999 0.00127 -0.0012819512
0.0115824 0 0.00085902441
-0.0132588 0.00015875 -0.0023524391
0.0088391993 0.0003175 -0.0067873169
-0.0115824 -0.00015875 0.00055317074
-0.0115824 0.0003175 -0.0078578051
-0.0065531996 0 -0.0034229269
-0.012953999 -0.00079374999 -0.0023524391
0.0019812 -0.00047624999 -0.0025053658
0.0073151998 0.00127 -0.00036439023
0.0060959999 0.00015875 0.0016236586
0.01143 -0.0003175 -0.0078578051
0.0150876 0.00015875 -0.00036439023
0.0039623999 -0.0003175 -0.0078578051
0.0038099999 -0.0003175 -0.0081636589
-0.0033527999 0.00127 -5.8536585e-05
0.0089916 0 -0.005105122
0.0126492 0.00015875 -5.8536585e-05
-0.0041147997 0.00015875 9.4390241e-05
0.0036575999 -0.0003175 -0.0077048782
-0.0074675996 0.00127 -0.00097609754
-0.0030479999 0.00127 -0.00051731709
0.0051815999 0.00079374999 -0.0023524391
0.0086867996 -0.0003175 -0.005869756
-0.0033527999 -0.00127 -0.0011290244
0.0024383999 0.0003175 -0.0025053658
-0.0060959999 -0.00127 -0.0018936585
-0.0105156 0.00079374999 -0.0025053658
0.0088391993 0.00127 -0.00021146341
0.0077723996 -0.00127 -0.0011290244
-0.0103632 0 -5.8536585e-05
0.0103632 0.00079374999 -0.00021146341
-0.0059435996 -0.00015875 -5.8536585e-05
-0.0062483996 -0.0003175 -0.0029641464
-0.0060959999 0.00127 -0.0018936585
0.014173199 0 -0.0037287804
0.00076199998 -0.00111125 -5.8536585e-05
-0.00045719999 -0.00079374999 -0.0025053658
0.0120396 -0.00095249998 -0.00021146341
0.0048767999 0.00079374999 -0.0023524391
-0.013715999 0.00015875 0.0020824391
-0.0150876 -0.000635 -0.0014348781
0.0103632 -0.00127 -0.0023524391
-0.011277599 0.00015875 0.0023882927
0.0077723996 -0.00127 -0.00051731709
0.0001524 -0.00127 -0.0015878049
-0.0064007998 -0.0003175 -0.0035758538
-0.0094487993 0.00127 -0.00021146341
-0.0132588 0.00127 -0.0015878049
-0.0086867996 -0.0003175 -5.8536585e-05
0.0039623999 0 -0.0029641464
0.0073151998 0.0003175 -0.00021146341
-0.0050291996 -0.00111125 -5.8536585e-05
-0.0115824 -0.00015875 0.0023882927
-0.0047243997 0.00127 -0.0015878049
0.0048767999 -0.0003175 -0.00021146341
-0.0054863999 0.00127 -0.0018936585
-0.0060959999 -0.00047624999 -0.00036439023
0.0039623999 -0.0003175 -0.0041875611
0.014478 -0.000635 -0.0023524391
0.012192 -0.00127 -0.0023524391
0.001524 -0.00015875 -0.0064814636
0.0089916 0.0003175 -0.0047992682
0.011734799 0.00015875 -0.0025053658
-0.0038099999 0.00127 -0.00097609754
-0.0115824 0.0003175 -0.0073990244
-0.0065531996 0 -0.0035758538
-0.0099059995 0.00127 -0.0023524391
-0.0010668 -0.00015875 0.0013178049
0.0048767999 0.00127 -0.0017407318
0.0048767999 0.00047624999 -0.00036439023
0.0039623999 -0.00015875 -0.0072460975
0.012344399 -0.00127 -0.0018936585
-0.0132588 -0.000635 -0.0023524391
0.0051815999 -0.00015875 -5.8536585e-05
0.0065531996 0.0003175 9.4390241e-05
-0.0120396 -0.0003175 -5.8536585e-05
0.013715999 0 -0.0038817073
0.0062483996 -0.0003175 -0.0028112195
-0.0138684 -0.0003175 -0.0063285367
-0.0035051999 -0.00015875 0.00085902441
-0.011277599 -0.0003175 -0.0054109758
-0.0082295993 0.00127 -0.00097609754
-0.0019812 0.00127 -0.0021995122
-0.00091439998 0.00127 -0.0020465853
0.0033527999 -0.00047624999 -0.00036439023
0.0012192 0.0003175 -0.0063285367
-0.0138684 0.0003175 0.00085902441
-0.001524 -0.0003175 -0.0037287804
0.0010668 0.00111125 -5.8536585e-05
0.0140208 0.00111125 -5.8536585e-05
-0.0089916 0.00047624999 -0.0025053658
-0.0065531996 -0.0003175 -0.0086224386
-0.0024383999 -0.00127 -0.0015878049
-0.0086867996 0.00015875 -0.0055639027
0.0057911999 -0.00127 -5.8536585e-05
-0.014173199 -0.00015875 -0.00327
-0.0128016 0.00095249998 -0.0023524391
0.0016764 0.0003175 -0.00021146341
-0.011125199 0.00127 -0.00067024393
-0.0036575999 -0.00127 -0.0025053658
0.0077723996 0.000635 -0.0023524391
0.0140208 -0.00015875 -0.0069402438
-0.0074675996 0.00111125 -5.8536585e-05
0.0012192 0.00127 -0.0023524391
-0.0038099999 -0.00127 -0.0011290244
0.0115824 0.0003175 -0.0060226829
-0.0044195997 -0.00127 -0.0023524391
-0.0082295993 -0.00127 -0.0017407318
-0.0134112 -0.00047624999 -0.00036439023
0.014478 0.00127 -0.00051731709
-0.0065531996 0 -0.0078578051
0.011125199 0.00015875 -0.0078578051
-0.0096012 -0.00127 -0.00051731709
-0.0035051999 -0.00015875 -0.0073990244
-0.013563599 0.00127 -0.0020465853
0.0085343998 0.00127 -0.00051731709
-0.0010668 -0.00015875 -0.0075519513
0.008382 -0.00079374999 -0.00021146341
0.001524 0.00127 -0.00021146341
-0.0150876 0.0003175 -0.0014348781
0.001524 0.00015875 -0.0075519513
-0.0115824 0.0003175 -0.0049521951
-0.0132588 0.00127 -0.00036439023
0.0044195997 -0.00127 -0.0014348781
-0.0041147997 -0.00047624999 -0.00036439023
-0.0088391993 -0.0003175 -0.005869756
0.012344399 -0.000635 -0.00036439023
0.011277599 0.0003175 -0.0046463413
-0.0096012 0.00095249998 -5.8536585e-05
-0.012344399 -0.00127 -0.0011290244
-0.0060959999 0.00127 -0.0020465853
-0.0115824 0.00015875 -0.0075519513
-0.012496799 -0.00127 -0.0014348781
-0.0089916 -0.00015875 -0.0077048782
0.010667999 0.00095249998 -5.8536585e-05
0.0115824 0 -0.0055639027
0.0057911999 -0.00127 -0.0014348781
0.0010668 0 0.0014707317
-0.0036575999 0.00015875 -0.00327
-0.0115824 -0.0003175 -0.0067873169
0.0018288 -0.00127 -0.00067024393
-0.0036575999 0.00127 -0.0021995122
0.0089916 -0.0003175 -0.004340488
0.0045719999 -0.00127 -5.8536585e-05
0.0089916 0 0.0017765854
-0.001524 -0.00015875 -0.0081636589
0.0082295993 0.000635 -0.0023524391
-0.0140208 -0.0003175 0.00085902441
0 0.00127 -0.0023524391
0.0089916 0.0003175 -0.0087753655
0.0059435996 -0.00127 -0.0008231707
0.0039623999 0.00015875 0.0023882927
-0.0039623999 -0.00111125 -5.8536585e-05
0.012953999 0.00127 -0.0021995122
-0.0060959999 -0.00015875 0.0013178049
-0.014173199 0.00127 -0.0015878049
0.0060959999 0 -0.0066343904
-0.0036575999 -0.0003175 -0.0078578051
-0.00091439998 -0.00015875 -0.0025053658
-0.0050291996 -0.00095249998 -5.8536585e-05
-0.0126492 0.00127 -5.8536585e-05
-0.0013716 -0.00015875 0.0025412196
0.0033527999 0.000635 -0.00036439023
0.0051815999 0.00127 -0.0020465853
-0.0001524 -0.0003175 -5.8536585e-05
0.0097535998 0.00079374999 -0.0023524391
-0.0012192 0.0003175 -5.8536585e-05
-0.0086867996 -0.0003175 -0.0078578051
0.0096012 0.00127 -0.00021146341
0.0039623999 -0.00015875 -0.0029641464
0.013563599 -0.00127 -0.00097609754
0.0036575999 0.0003175 -0.0052580489
-0.012953999 -0.00127 -0.0014348781
-0.00045719999 -0.00127 -0.0018936585
0.010058399 -0.00127 -0.0015878049
-0.0032003999 0.00015875 -5.8536585e-05
0.01143 -0.0003175 -0.0063285367
0.001524 -0.00111125 -0.0025053658
0.0048767999 0.00127 -0.0018936585
0.012192 -0.00015875 -5.8536585e-05
0.0050291996 0.00127 -0.00021146341
-0.0138684 -0.0003175 0.0022353658
0.0018288 0.00127 -0.00036439023
-0.0071627996 0.000635 -0.00036439023
-0.001524 -0.0003175 0.0016236586
0.0041147997 -0.0003175 -0.0025053658
0.0115824 -0.0003175 -0.0044934144
-0.014935199 0.00095249998 -0.0014348781
0.0036575999 0.0003175 -0.00327
0.0086867996 -0.0003175 -0.0073990244
-0.001524 0.00095249998 -0.0023524391
0.014478 0.00127 -0.0015878049
-0.0039623999 -0.00015875 0.0010119512
-0.0128016 -0.00127 -0.00097609754
-0.001524 0 -0.0086224386
0.0138684 0.0003175 -0.0066343904
-0.0115824 0 -0.0070931707
0.0039623999 -0.00015875 -0.004340488
0.0032003999 -0.00127 -0.0018936585
-0.0035051999 -0.0003175 -0.0026582927
-0.011277599 -0.00015875 0.0020824391
-0.0067055998 -0.00127 -0.0015878049
0.00045719999 0.00127 -0.0008231707
0.011277599 -0.0003175 -0.0061756098
-0.011125199 -0.00015875 -0.0028112195
0.0064007998 -0.00015875 0.0025412196
-0.0077723996 -0.00015875 -0.0023524391
-0.0025907999 -0.00127 -0.00021146341
-0.01143 -0.00127 -0.0015878049
0.001524 0.0003175 -0.0040346342
-0.0060959999 0 -0.0064814636
0.0025907999 -0.00111125 -0.0023524391
-0.0039623999 -0.000635 -0.00036439023
0.014173199 0.00015875 -0.0040346342
-0.0140208 -0.000635 -0.0023524391
0.0021335999 -0.00127 -0.0012819512
0.0060959999 0.00127 -0.0021995122
-0.0038099999 0.00095249998 -5.8536585e-05
-0.0019812 0.00015875 -5.8536585e-05
0.0025907999 -0.00127 -0.0015878049
-0.012192 0.00095249998 -5.8536585e-05
0.0115824 -0.00015875 -0.005105122
0.0022859999 -0.00079374999 -0.00021146341
0.0071627996 0.00127 -0.0008231707
0.0074675996 -0.00127 -0.00097609754
0.0042671999 0.00127 -0.0011290244
-0.0070103998 -0.00127 -0.0021995122
0.014478 -0.00079374999 -0.0023524391
-0.013106399 -0.00127 -0.0014348781
0.0097535998 0.0003175 -0.0023524391
-0.0099059995 0.00127 -0.0020465853
-0.0028955999 0.00015875 -5.8536585e-05
-0.0035051999 0 -0.0040346342
0.011734799 0.00127 -0.0021995122
0.0021335999 -0.00079374999 -0.0025053658
-0.0022859999 0.00127 -0.0020465853
-0.0039623999 0.0003175 0.0014707317
0.001524 -0.00015875 0.0019295122
-0.011125199 0 -0.0069402438
0.0085343998 0.0003175 -0.0025053658
-0.001524 0 -0.0069402438
0.0085343998 -0.00127 -5.8536585e-05
-0.0077723996 -0.00127 -0.0011290244
0.0013716 0.0003175 -0.0037287804
0.0150876 0.00095249998 -0.0020465853
-0.0085343998 0.00095249998 -0.0023524391
0.0035051999 0.00015875 -0.0072460975
-0.0097535998 -0.00127 -0.0017407318
-0.0027431999 0.00127 -0.00036439023
0.0022859999 -0.00127 -0.0012819512
-0.0012192 -0.0003175 -5.8536585e-05
-0.0089916 0 0.0022353658
0.00030479999 0.00127 -0.0023524391
0.0013716 -0.0003175 0.0017765854
-0.0054863999 0.00127 -0.00036439023
-0.0103632 0.00127 -0.0012819512
0.013106399 0.00079374999 -5.8536585e-05
-0.0030479999 -0.00127 -0.00021146341
-0.0010668 0.00015875 -0.0086224386
-0.01143 -0.0003175 -0.0060226829
-0.0019812 -0.0003175 -5.8536585e-05
0.0059435996 0.00127 -0.0020465853
-0.00091439998 0.000635 -0.0025053658
-0.0013716 -0.0003175 -0.008010732
0.01524 0.00047624999 -0.00097609754
0.0001524 0.0003175 -0.00021146341
0.0064007998 -0.0003175 -0.0086224386
0.0042671999 0.00047624999 -0.00036439023
-0.0035051999 -0.0003175 -0.0067873169
0.0035051999 0 -0.0035758538
0.0070103998 0 -0.0023524391
0.0001524 0.00127 -0.0011290244
0.0096012 -0.00127 -5.8536585e-05
-0.013715999 0 -0.0078578051
0.0086867996 0.0003175 -0.0037287804
0.0010668 0.00015875 -0.0044934144
0.0062483996 -0.00015875 0.00085902441
0.0036575999 -0.0003175 -0.0086224386
0.0128016 -0.00127 -0.0012819512
0.0089916 0.00095249998 -5.8536585e-05
0.0019812 0.00127 -0.00021146341
-0.011734799 -0.00047624999 -0.00036439023
0.0027431999 -0.00127 -0.0017407318
-0.0050291996 0.00015875 -0.0023524391
-0.0039623999 0.00015875 0.00085902441
0.0012192 -0.0003175 0.0013178049
-0.0056387996 0.00111125 -0.0025053658
0.0013716 -0.0003175 -0.0069402438
-0.0080771996 -0.00127 -0.0008231707
-0.0138684 -0.00015875 -0.0044934144
0.0086867996 -0.0003175 -0.0035758538
-0.0065531996 -0.00015875 0.001164878
0.0099059995 0.000635 -0.00036439023
0.0115824 0 -0.0089282924
-0.0134112 0.00127 -0.0020465853
0.0048767999 -0.00047624999 -0.00036439023
-0.0086867996 -0.00127 -0.0012819512
-0.0082295993 -0.0003175 -0.0023524391
-0.0079247998 0.00127 -0.0020465853
0.0035051999 0.0003175 9.4390241e-05
-0.0035051999 -0.00015875 -0.0066343904
-0.0033527999 -0.0003175 -5.8536585e-05
-0.012344399 0.00127 -0.0014348781
-0.0039623999 -0.00127 -0.00036439023
0.013715999 -0.00111125 -0.00021146341
0.001524 0.0003175 -0.004340488
-0.0010668 0.0003175 -0.0061756098
-0.0044195997 0.00079374999 -0.00021146341
-0.0128016 0.0003175 -0.0023524391
0.0010668 -0.00015875 0.0010119512
-0.0140208 0.00015875 -0.0041875611
0.0039623999 -0.0003175 -0.0061756098
-0.0150876 0.000635 -0.00051731709
0.0115824 -0.00127 -0.00067024393
-0.0115824 0.00015875 -0.0087753655
-0.0038099999 0.00047624999 -0.00036439023
-0.0036575999 0.00111125 -5.8536585e-05
-0.0035051999 0 -0.0070931707
-0.00091439998 -0.00127 -0.0015878049
0.0047243997 0.00095249998 -5.8536585e-05
-0.0138684 -0.0003175 -0.005869756
0.0038099999 -0.0003175 0.0010119512
-0.0086867996 -0.0003175 -0.0077048782
-0.0036575999 -0.0003175 0.00040024391
0.012953999 -0.00095249998 -0.0023524391
0.0038099999 -0.00127 -0.0017407318
-0.014935199 -0.00111125 -0.0023524391
0.0138684 0.0003175 -0.004340488
0.0089916 -0.00015875 -0.0086224386
-0.013715999 0.00015875 -0.0041875611
-0.0045719999 -0.00127 -0.0014348781
-0.011277599 -0.00015875 0.00024731708
0.011277599 -0.00127 -0.00036439023
-0.011125199 0 0.001164878
-0.0036575999 0.0003175 0.00055317074
-0.0057911999 -0.00127 -0.00097609754
-0.008382 -0.00127 -0.0014348781
0.0060959999 0.00047624999 -0.00036439023
0.0094487993 0.00127 -0.0018936585
-0.0108204 -0.00127 -0.0014348781
-0.011125199 0.00015875 -0.0025053658
-0.001524 0 -0.0081636589
0.0096012 -0.00079374999 -0.0023524391
0.00045719999 0.00079374999 -0.0025053658
-0.0038099999 -0.00111125 -5.8536585e-05
-0.0064007998 0.00127 -0.00021146341
0.0086867996 0 -0.0087753655
-0.0053339996 -0.00127 -0.00097609754
0.0103632 0.00047624999 -0.0023524391
0.00091439998 0.00095249998 -0.0025053658
-0.0032003999 0.00127 -0.0015878049
-0.0025907999 -0.00047624999 -0.00036439023
-0.0079247998 -0.00127 -0.0020465853
0.0085343998 0.00127 -0.0020465853
-0.0108204 0.00095249998 -0.0023524391
-0.0039623999 0.00015875 -0.0031170731
0.0086867996 0.00015875 -0.0049521951
0.0062483996 0.0003175 -0.0072460975
0.012192 -0.00127 -0.00036439023
0.0138684 -0.00015875 -0.0075519513
-0.01143 -0.0003175 -0.0083165858
0.0089916 -0.0003175 -0.008010732
-0.0115824 -0.00079374999 -0.0023524391
-0.0146304 -0.00111125 -0.0023524391
0.0088391993 -0.0003175 0.00055317074
0.00060959999 -0.00127 -0.0021995122
-0.0033527999 0.000635 -0.0025053658
-0.0060959999 -0.00015875 -0.0083165858
-0.0138684 -0.00015875 -0.0081636589
0.012496799 -0.00127 -0.0023524391
-0.0056387996 0.00127 -0.00021146341
-0.0016764 0.0003175 -0.0025053658
0.010058399 -0.000635 -0.0023524391
0.0056387996 -0.000635 -0.00036439023
0.008382 -0.00127 -0.00021146341
-0.0056387996 -0.000635 -0.00036439023
-0.0077723996 -0.00127 -0.0023524391
-0.0086867996 0.00127 -0.00036439023
-0.0089916 -0.00015875 0.0019295122
-0.0039623999 0.0003175 -0.0066343904
-0.0062483996 0.00127 -0.0014348781
0.0033527999 -0.00079374999 -0.0025053658
0.0025907999 -0.00127 -0.0017407318
0.0102108 0.00127 -0.0011290244
-0.001524 -0.00015875 -0.0026582927
0.0038099999 0.0003175 0.0010119512
0.0091439998 0 0.0016236586
0.0091439998 -0.00127 -0.0015878049
-0.0042671999 -0.00015875 -5.8536585e-05
-0.0012192 0.0003175 -0.005105122
-0.0035051999 -0.00015875 9.4390241e-05
0.0010668 -0.00015875 -0.0083165858
0.0086867996 -0.00015875 -0.0087753655
