# .PCD v0.7 - Point Cloud Data file format
VERSION 0.7
FIELDS x y z
SIZE 4 4 4
TYPE F F F
COUNT 1 1 1
WIDTH 1211
HEIGHT 1
VIEWPOINT 0 0 0 1 0 0 0
POINTS 1211
DATA ascii
0.0055937078 0.00127 -0.00032181825
-0.0013698876 0.00069272728 -0.00032181825
-0.0093608983 -0.00127 -0.0018109091
0.006164494 0.00092363637 -0.0023836365
0.0035388763 0.00023090909 -0.0031854548
-0.0077626961 -0.00127 -0.0023836365
0.0021689886 -0.0011545455 -0.002498182
-0.008904269 0.00127 -0.00032181825
0.0043379772 0.00127 -0.0018109091
-0.0035388763 -0.00011545455 -0.0062781819
-0.0066211233 0 -0.0058200001
0.0039955056 0.00011545455 -0.0047890912
-0.0038813481 -0.00034636364 -0.0070800004
0.0058220224 0.00127 -9.2727329e-05
-0.0082193259 -0.0010390909 -0.0023836365
-0.008904269 0.00023090909 -0.0061636367
-0.0039955056 -0.00034636364 -0.0028418184
0.0023973032 -0.00069272728 -0.00032181825
0.0015982022 0.00023090909 0.00082363631
-0.0090184268 -0.00023090909 0.0011672727
0.0055937078 -0.00011545455 -9.2727329e-05
-0.0018265168 -0.00127 -0.0014672728
-0.0044521345 -0.00092363637 -0.002498182
-0.0010274157 -0.00011545455 -0.0036436366
0.0090184268 0.00034636364 -0.0045600003
-0.0060503366 -0.00023090909 -0.0065072728
0.0093608983 0.00127 -0.00055090914
-0.0075343819 0.00092363637 -9.2727329e-05
0.0033105616 -0.0010390909 -9.2727329e-05
0.0017123595 0.00127 -0.00078000006
-0.0046804491 0.00127 -0.0018109091
-0.006164494 0.00011545455 -0.0050181821
-0.0039955056 -0.00034636364 -0.0074236365
0.0045662918 0.0011545455 -9.2727329e-05
0.0076485388 -0.00127 -0.00078000006
0.0087901121 0.00127 -0.0011236364
0.003082247 0.00127 -0.0011236364
-0.003424719 -0.0011545455 -0.002498182
-0.0038813481 -0.00034636364 -0.0063927276
-0.003424719 0.00034636364 -0.002498182
0.0091325836 -0.0011545455 -0.001009091
0.0038813481 -0.00127 -0.00032181825
0.0087901121 0.00023090909 -0.0057054549
0.0076485388 0 -0.0023836365
-0.0014840448 0.00011545455 -0.0029563638
0.006164494 -0.00023090909 -0.0041018184
0.0066211233 0.00057727273 -0.002498182
0.0042238203 -0.00127 -0.00055090914
0.00057078648 0.00127 -0.0006654546
0.0039955056 0.00034636364 -0.0041018184
-0.0091325836 0.00011545455 -0.0069654547
-0.001141573 -0.00069272728 -0.002498182
-0.0055937078 -0.00127 -0.00032181825
0.001141573 -0.00046181818 -0.002498182
-0.0014840448 -0.00127 -0.0016963637
-0.0010274157 -0.00034636364 -0.0067363637
-0.0015982022 -0.00127 -0.00055090914
-0.0042238203 -0.00127 -0.0023836365
-0.0098175276 0.00011545455 -0.0023836365
-0.006849438 -0.00057727273 -0.0023836365
0.001141573 0.00034636364 0.00093818177
0.0091325836 0.00011545455 0.0011672727
0.0066211233 0.00023090909 -0.0043309093
0.0010274157 -0.00023090909 -0.0067363637
-0.0071919099 0.00127 -0.00055090914
0.01016 0.00034636364 -0.00089454552
-0.008904269 -0.00069272728 -0.00020727278
-0.0010274157 0.00011545455 -0.0027272729
0.0025114606 -0.00127 -0.0021545456
0.0035388763 0.00034636364 -0.0070800004
0.0060503366 0.00127 -9.2727329e-05
-0.006164494 -0.00127 -0.00078000006
-0.00079910108 -0.00127 -0.0006654546
-0.0017123595 -0.00057727273 -0.00032181825
-0.003424719 -0.00023090909 -0.0026127275
-0.0084476406 -0.00127 -0.0011236364
-0.0036530336 -0.00034636364 -0.0039872727
-0.0071919099 0.00127 -0.0020400002
0.0035388763 0 0.0018545454
-0.003767191 0.00069272728 -0.00032181825
-0.0070777526 0.0011545455 -0.0023836365
-0.001141573 -0.00034636364 0.0025418182
0.0094750561 -0.00011545455 -0.0023836365
0.0055937078 0.00127 -0.0018109091
-0.0038813481 -0.00034636364 0.0015109091
-0.0046804491 -0.00046181818 -0.00032181825
-0.006506966 -0.00127 -0.0021545456
0.0097033707 0.0010390909 -9.2727329e-05
0.0023973032 0.00034636364 -9.2727329e-05
-0.00091325841 0.00127 -0.0014672728
0.0091325836 0.00011545455 -0.0041018184
-0.0035388763 0 -0.0041018184
0.0022831459 0.00127 -0.0016963637
-0.0086759543 -0.00023090909 -0.0035290911
0.0049087638 -0.00127 -0.001009091
0.0091325836 -0.00011545455 -0.0047890912
-0.0027397752 -0.00069272728 -0.002498182
0.0084476406 0.00023090909 -0.0023836365
-0.0060503366 0.00127 -0.00043636368
0.006849438 -0.0011545455 -0.00020727278
0.0039955056 -0.00023090909 -0.0073090913
0.0087901121 -0.00080818182 -0.0022690911
0.0027397752 -0.00069272728 -0.002498182
0.0015982022 0.00023090909 -0.0049036364
0 -0.0011545455 -0.002498182
-0.0085617974 0.00127 -0.0021545456
-0.0015982022 0.00069272728 -0.002498182
-0.0010274157 -0.00023090909 -0.0035290911
0.003767191 -0.00034636364 -0.0062781819
-0.0087901121 0.00023090909 0.00174
0.0051370785 0.00046181818 -0.00020727278
0.006164494 0.00080818182 -0.0023836365
-0.0013698876 -0.00034636364 -0.0039872727
0.0010274157 0.00011545455 -0.0042163637
0.0039955056 -0.00034636364 -0.0030709093
-0.0036530336 0.00127 -0.0006654546
0.006164494 -0.00023090909 0.0021981818
-0.0026256179 0.00046181818 -0.002498182
0.0099316854 0.00092363637 -9.2727329e-05
0.0035388763 0.00011545455 -0.0074236365
0.0083334828 -0.00011545455 -0.002498182
0.0087901121 -0.00046181818 -0.0022690911
0.006164494 0.00011545455 -0.0041018184
-0.0010274157 -0.00023090909 -0.0075381822
0.0033105616 -0.00069272728 -0.002498182
0.0087901121 -0.00011545455 0.0025418182
0.008904269 0.00034636364 0.00059454539
0.0070777526 -0.00127 -0.0016963637
0.0036530336 -0.00034636364 -0.0069654547
0.008904269 0.00023090909 -0.0077672731
0.001141573 -0.00034636364 -0.0075381822
0.00091325841 0.00127 -0.0020400002
-0.0087901121 -0.00034636364 -0.00020727278
0.0074202246 -0.00127 -0.0006654546
0.0027397752 -0.00127 -0.0018109091
0.006506966 -0.00023090909 -0.0059345458
-0.006164494 -0.00034636364 -0.0030709093
-0.006506966 0.0010390909 -0.00032181825
-0.006849438 -0.00127 -0.0014672728
-0.0033105616 -0.00011545455 -9.2727329e-05
0.0035388763 0.00011545455 -0.0046745455
0.00091325841 -0.00127 -0.00078000006
-0.0046804491 0.00069272728 -0.00020727278
-0.0025114606 0.00080818182 -0.002498182
0.0018265168 0.00057727273 -0.00032181825
-0.0063928086 -0.00127 -0.0015818182
0.0035388763 0.00011545455 -0.0070800004
-0.0084476406 0.00080818182 -0.0022690911
-0.01016 0 -0.0018109091
0.0028539326 0.00127 -0.001009091
-0.006506966 0.00034636364 -0.0049036364
0.0038813481 0.00034636364 -0.0070800004
-0.0035388763 -0.00011545455 -0.0036436366
-0.0092467414 -0.00127 -0.00020727278
0.0067352806 0.00127 -0.0011236364
0.001141573 -0.00034636364 0.00047999996
0.0013698876 -0.00127 -0.0023836365
0.0055937078 -0.0011545455 -0.0023836365
-0.0074202246 -0.00023090909 -0.0023836365
-0.0015982022 0 0.00174
0.0003424719 -0.00023090909 -9.2727329e-05
0.0010274157 0.00034636364 -0.0076527274
0.0091325836 0 0.0012818181
0.0022831459 -0.00023090909 -9.2727329e-05
-0.0067352806 -0.00127 -0.0012381818
-0.0010274157 -0.00011545455 -0.0041018184
-0.0027397752 -0.00046181818 -0.00020727278
0.0043379772 -0.00127 -0.0016963637
0.0015982022 0.00023090909 -0.0054763639
0.0029680897 -0.00127 -9.2727329e-05
-0.0028539326 0.00127 -0.00078000006
-0.0063928086 0.00092363637 -0.0022690911
-0.0086759543 -0.00011545455 -0.006049091
-0.0063928086 -0.00034636364 -0.0059345458
0.0035388763 -0.00011545455 -0.0029563638
0.0051370785 -0.00034636364 -0.002498182
-0.0090184268 0.00127 -0.0013527273
-0.0046804491 0.00127 -0.0021545456
-0.00091325841 0.00057727273 -0.00032181825
-0.0012557303 -0.00034636364 -0.0062781819
0.0074202246 0.00011545455 -9.2727329e-05
-0.0013698876 -0.00127 -0.001009091
-0.0057078651 -0.00011545455 -9.2727329e-05
-0.0043379772 -0.00069272728 -0.00032181825
0.0036530336 -0.00034636364 -0.0039872727
0.0079910113 0.00127 -0.00089454552
0.0014840448 -0.00011545455 0.0025418182
0.0059361793 -0.00069272728 -0.002498182
-0.0098175276 0.0010390909 -0.0020400002
-0.0085617974 -0.00127 -0.0006654546
0.0033105616 -0.00127 -0.0011236364
-0.0099316854 -0.00080818182 -0.0023836365
-0.0039955056 -0.00011545455 0.00059454539
0.0071919099 0.0010390909 -9.2727329e-05
0.0083334828 -0.00092363637 -0.0022690911
-0.0033105616 0 -9.2727329e-05
0.0014840448 -0.00011545455 -0.0050181821
-0.0083334828 0.00127 -0.0021545456
0.0017123595 0.00069272728 -0.002498182
0.001141573 -0.00034636364 -0.0030709093
0.0001141573 0.00023090909 -9.2727329e-05
-0.0010274157 0 -0.0077672731
0.0047946065 0.00127 -0.002498182
-0.0012557303 -0.00092363637 -9.2727329e-05
-0.0063928086 -0.0011545455 -0.0023836365
0.0014840448 0.00127 -9.2727329e-05
-0.0014840448 0.00034636364 -0.0034145457
-0.0014840448 0.00011545455 -0.0030709093
-0.0028539326 0.00127 -0.0016963637
0.0045662918 0.00034636364 -9.2727329e-05
-0.0082193259 -0.00127 -0.0013527273
0.0015982022 0.00023090909 -0.0045600003
-0.008904269 0.00023090909 -0.0065072728
-0.0047946065 -0.00092363637 -0.002498182
-0.0057078651 0.0011545455 -0.00032181825
-0.001141573 -0.00034636364 -0.0038727275
-0.0086759543 0.00023090909 -0.0067363637
0.001141573 -0.00034636364 -0.0058200001
-0.0049087638 0.00092363637 -0.00020727278
-0.0071919099 -0.00127 -0.0022690911
0.0062786513 -0.00034636364 -0.002498182
0.0038813481 0.00034636364 -0.0030709093
-0.0053653931 0.00127 -0.00089454552
0.0012557303 -0.00080818182 -0.00020727278
0.0038813481 0.00034636364 0.0021981818
-0.0023973032 -0.0011545455 -9.2727329e-05
0.0028539326 -0.00127 -0.00020727278
0.0077626961 -0.00011545455 -9.2727329e-05
-0.0086759543 0.00023090909 0.00082363631
-0.0015982022 -0.00023090909 -0.0057054549
0.0063928086 0.00127 -9.2727329e-05
0.0081051681 -0.00011545455 -9.2727329e-05
-0.0017123595 -0.0011545455 -9.2727329e-05
-0.0012557303 -0.00127 -0.0022690911
-0.0062786513 -0.00034636364 -0.0047890912
0.01016 -0.00034636364 -0.001009091
-0.0010274157 -0.00127 -0.0006654546
-0.0075343819 -0.00080818182 -0.0023836365
-0.006506966 -0.00034636364 0.00047999996
-0.003767191 0.00034636364 0.00013636358
-0.0062786513 -0.00046181818 -0.00032181825
-0.0057078651 0.00080818182 -0.00032181825
0.0020548315 0.00034636364 -0.002498182
-0.0039955056 -0.00034636364 -0.0034145457
-0.0039955056 -0.00011545455 -0.0071945456
0.003767191 0.00034636364 -0.0061636367
0.003767191 -0.00034636364 -0.0034145457
-0.0015982022 0.00011545455 -0.002498182
-0.0035388763 0 -0.0043309093
-0.0063928086 0.00034636364 0.0016254545
-0.0039955056 0.00023090909 -0.0035290911
0.00091325841 -0.00127 -0.00032181825
-0.0094750561 -0.0011545455 -0.00020727278
0.006164494 0.00034636364 -0.0030709093
-0.0090184268 0 0.0026563636
0.00091325841 -0.0010390909 -0.002498182
0.0045662918 0.00127 -0.0013527273
-0.0095892129 -0.00034636364 -0.0023836365
0.0066211233 0 -0.0071945456
-0.0087901121 0.00023090909 0.0015109091
-0.003424719 -0.00127 -0.0023836365
0.0062786513 0.00034636364 -0.0034145457
0.0039955056 -0.00023090909 -0.0077672731
0.0020548315 0.00127 -0.0021545456
0.0046804491 -0.00127 -0.0012381818
0.0010274157 -0.00023090909 -0.0070800004
0.0081051681 -0.00127 -0.0022690911
-0.001141573 -0.00034636364 -0.0054763639
-0.0025114606 -0.00127 -0.00020727278
-0.0010274157 0.00023090909 0.0013963636
-0.0052512358 -0.00127 -0.00089454552
-0.006506966 0.00034636364 -0.0043309093
-0.0022831459 -0.00092363637 -0.002498182
-0.0010274157 -0.00034636364 -0.0070800004
-0.0066211233 0.00011545455 -0.0068509094
0.0091325836 -0.00011545455 0.0020836364
-0.0039955056 0 -0.0031854548
-0.0060503366 -0.00023090909 -0.0066218185
-0.0039955056 0.00011545455 -0.0031854548
0.0043379772 -0.00023090909 -0.002498182
0.0066211233 -0.00046181818 -0.00020727278
-0.0084476406 0.00127 -0.0020400002
0.0031964043 -0.00127 -0.0021545456
-0.0066211233 0 -0.0050181821
0.0045662918 0.00080818182 -0.00020727278
0 -0.00092363637 -0.002498182
0.0060503366 0 -0.0075381822
-0.0062786513 -0.00034636364 -0.0071945456
0.0015982022 0 -0.0033000002
0.0087901121 0.00023090909 -0.0059345458
-0.0022831459 -0.00127 -0.00078000006
-0.0075343819 0.00127 -0.0015818182
-0.00079910108 -0.00127 -0.0019254546
-0.0026256179 -0.00023090909 -0.002498182
0.0010274157 0 -0.0053618182
-0.0094750561 -0.0011545455 -0.0021545456
0.006164494 0.00011545455 0.00070909085
0.0054795505 -0.00057727273 -0.00032181825
-0.0067352806 -0.00034636364 -9.2727329e-05
-0.006506966 -0.00034636364 -0.0028418184
0.0039955056 0.00034636364 -0.0075381822
-0.006849438 -0.00011545455 -0.002498182
0.0029680897 0.00127 -0.00020727278
0.003424719 0.00023090909 2.1818129e-05
0.0062786513 -0.00034636364 -0.0026127275
-0.0076485388 -0.00127 -0.0020400002
-0.0066211233 0 -0.0043309093
0.0043379772 0.00092363637 -0.002498182
0.0060503366 0.00023090909 -0.0046745455
-0.0090184268 0.00023090909 -0.0027272729
0.0095892129 0.00057727273 -0.0023836365
0.0093608983 -0.00034636364 -0.00032181825
-0.0039955056 -0.00023090909 -0.0047890912
0.0010274157 0.00127 -0.0015818182
-0.0012557303 -0.00034636364 -0.0042163637
0.0087901121 -0.00023090909 -0.0055909092
0.0010274157 0.00023090909 0.0003654545
-0.0085617974 -0.00127 -0.00043636368
-0.006164494 -0.00034636364 -0.0076527274
0.0076485388 0.00080818182 -0.00020727278
-0.0042238203 -0.00127 -0.0021545456
0.0017123595 -0.00011545455 -9.2727329e-05
0.0062786513 -0.00127 -0.00032181825
0.0039955056 0.00127 -9.2727329e-05
-0.0010274157 0.00011545455 -0.0065072728
0.008904269 -0.00023090909 -0.0042163637
-0.008904269 -0.00034636364 -0.0063927276
0.001141573 0.00127 -0.00089454552
-0.0025114606 0 -0.002498182
0.003767191 0.00034636364 -0.006049091
0.0010274157 -0.00023090909 -0.0051327273
0.00079910108 0.00127 -0.00043636368
-0.0036530336 -0.00034636364 -0.0061636367
0.0017123595 -0.0010390909 -0.002498182
0.0085617974 0 0.0012818181
-0.010045842 -0.0010390909 -0.0020400002
0.0017123595 0.00080818182 -0.00020727278
0.003424719 -0.0010390909 -0.002498182
-0.00079910108 -0.00127 -0.0018109091
-0.0090184268 0.00023090909 -0.0074236365
-0.0036530336 0.00023090909 -0.0037581821
0.0052512358 0.00127 -0.0016963637
-0.0012557303 0.00034636364 -0.0043309093
0.0060503366 0.00011545455 0.00025090904
-0.0055937078 -0.00127 -0.0015818182
-0.0020548315 0.00057727273 -0.002498182
-0.0083334828 -0.00069272728 -0.00020727278
0.003424719 -0.0011545455 -0.002498182
0.00068494381 -0.00057727273 -0.002498182
0.0035388763 -0.00023090909 -0.0051327273
0.0039955056 -0.00011545455 -0.0069654547
-0.006849438 0.00127 -0.0015818182
-0.0031964043 0.0010390909 -9.2727329e-05
-0.0010274157 -0.00127 -0.0016963637
0.0010274157 -0.00023090909 0.00093818177
0.001141573 -0.00080818182 -0.002498182
0.0013698876 0.00034636364 -0.0049036364
-0.0017123595 0.00092363637 -0.002498182
-0.0022831459 -0.00127 -0.0016963637
-0.0035388763 -0.00011545455 0.0018545454
-0.0078768535 0.00127 -0.0022690911
0.0039955056 -0.00034636364 0.00047999996
0.0010274157 0 0.0021981818
0.0095892129 -0.00011545455 -0.0023836365
0.0003424719 -0.00127 -0.0006654546
0.0012557303 0.00034636364 -0.0039872727
0.008904269 -0.00023090909 0.0018545454
0.0014840448 -0.00023090909 0.0019690909
-0.0086759543 -0.00011545455 0.0010527272
0.0014840448 -0.00034636364 2.1818129e-05
-0.0079910113 0 -0.0023836365
0.0051370785 -0.00127 -0.0015818182
-0.006164494 -0.00034636364 -0.005247273
0.003424719 0.0011545455 -0.002498182
-0.001141573 0.00034636364 0.00059454539
0.0090184268 0.00023090909 -0.0055909092
0.0078768535 0.00057727273 -0.00032181825
-0.010045842 0.00080818182 -0.00078000006
0.0070777526 -0.00127 -0.0018109091
0.0070777526 0.00092363637 -9.2727329e-05
-0.0078768535 0.00127 -0.00089454552
-0.0060503366 -0.00023090909 -0.0063927276
0.0070777526 0.00127 -0.001009091
0.0091325836 0.00011545455 -0.0047890912
0.0087901121 0.0011545455 -9.2727329e-05
-0.0026256179 0.00127 -0.0022690911
0.0090184268 -0.00023090909 -0.0026127275
-0.0070777526 -0.00057727273 -0.00032181825
0.0035388763 0 -0.0063927276
0.0004566292 0.00127 -0.0016963637
-0.003082247 -0.00127 -0.0016963637
0.003767191 -0.00046181818 -0.00020727278
0.0069635953 0.00080818182 -0.00020727278
0.0044521345 0.00127 -0.00089454552
0.0091325836 0.00011545455 0.0015109091
-0.0001141573 -0.00127 -0.0018109091
-0.0091325836 -0.00023090909 -0.0042163637
-0.0063928086 -0.00034636364 -0.0049036364
0.0042238203 0 -9.2727329e-05
-0.0015982022 -0.00023090909 -0.0042163637
-0.001940674 -0.00127 -0.0013527273
-0.0012557303 -0.00034636364 -0.0071945456
0.0081051681 -0.00080818182 -0.0022690911
-0.0029680897 0.00127 -0.0018109091
-0.0029680897 -0.00127 -0.0015818182
-0.0066211233 0 -0.0075381822
0.0066211233 0.00011545455 -0.0030709093
-0.0039955056 -0.00023090909 -0.0057054549
0.0066211233 0.00127 -0.0023836365
0.0091325836 0.00127 -0.0015818182
0.001141573 -0.00034636364 0.00013636358
-0.001141573 -0.00034636364 -0.0071945456
0.0091325836 0 -0.0055909092
0.0077626961 -0.00034636364 -9.2727329e-05
0.0028539326 0.00011545455 -9.2727329e-05
-0.0014840448 0.00011545455 -0.0033000002
0.0098175276 0.00057727273 -0.00032181825
-0.0010274157 0.00023090909 0.0015109091
0.0042238203 0.00011545455 -9.2727329e-05
-0.001141573 0.00034636364 -0.0033000002
0.0015982022 -0.00023090909 2.1818129e-05
-0.0069635953 -0.00127 -0.00055090914
0.0079910113 0.00127 -0.001009091
-0.0066211233 0.00011545455 -0.0046745455
-0.0086759543 0.00023090909 -0.0042163637
0.0035388763 0.00023090909 -0.0047890912
0.0097033707 0.0011545455 -0.0015818182
0.0035388763 0.00011545455 -0.0031854548
0.0045662918 -0.00127 -0.0014672728
-0.0060503366 -0.00011545455 -0.0026127275
-0.0066211233 -0.0011545455 -0.002498182
-0.0083334828 0.00023090909 -0.002498182
0.0057078651 0.00069272728 -0.0023836365
-0.001141573 0.00034636364 -0.0067363637
-0.003767191 0.00034636364 -0.0071945456
0.0044521345 -0.00046181818 -0.002498182
-0.006849438 0.00092363637 -0.00032181825
-0.00068494381 0.00069272728 -0.00032181825
0.0085617974 0.00011545455 -0.0029563638
-0.0044521345 0.00023090909 -9.2727329e-05
0.0012557303 -0.00127 -0.0020400002
-0.0060503366 0 -0.0031854548
-0.010045842 -0.00057727273 -0.0023836365
0.0055937078 -0.00127 -0.00043636368
-0.0035388763 -0.00023090909 -0.0075381822
0.003767191 -0.00057727273 -0.002498182
0.0092467414 0.00011545455 -9.2727329e-05
-0.006849438 -0.00069272728 -0.002498182
-0.0021689886 0.00080818182 -0.002498182
0.0074202246 -0.00127 -0.0020400002
0.0076485388 0.00127 -0.00055090914
-0.0075343819 0.00023090909 -0.0023836365
-0.006506966 0.00023090909 -0.0077672731
-0.0069635953 0.00057727273 -0.00032181825
0.0039955056 0.00034636364 -0.0074236365
0.0092467414 -0.00069272728 -0.00032181825
-0.0086759543 -0.0010390909 -0.0023836365
0.0027397752 0.00127 -0.0022690911
-0.0097033707 0.0011545455 -0.0011236364
-0.0025114606 -0.00046181818 -0.002498182
-0.0035388763 -0.00023090909 -0.0053618182
0.0098175276 -0.00092363637 -0.00020727278
0.0012557303 -0.00034636364 -0.0069654547
-0.0012557303 0.00034636364 -0.005247273
0.0003424719 0.00127 -0.00020727278
0.0035388763 -0.00127 -0.00032181825
-0.006164494 0.00011545455 -0.0071945456
-0.0090184268 0.00127 -0.0022690911
-0.0027397752 0.00011545455 -0.002498182
-0.0002283146 -0.00127 -0.00055090914
0.0012557303 0.00034636364 -0.0075381822
0.006849438 0.00127 -0.00055090914
0.0095892129 -0.00057727273 -0.0022690911
-0.01016 -0.00011545455 -0.00055090914
0.0015982022 0.00023090909 0.0016254545
-0.0039955056 0.00011545455 -0.0026127275
-0.0086759543 -0.00023090909 -0.0055909092
-0.0046804491 0.00127 -0.0011236364
-0.0062786513 0.00011545455 -0.0078818183
0.0029680897 -0.00057727273 -0.002498182
-0.0001141573 -0.00127 -0.0020400002
0.0063928086 -0.00023090909 -0.0046745455
-0.0010274157 0.00023090909 0.00013636358
-0.0012557303 0.00011545455 0.0026563636
0.0060503366 0 0.0023127273
-0.0012557303 -0.00034636364 -0.0058200001
-0.0058220224 0.00127 -0.0014672728
-0.0036530336 0.00023090909 0.00082363631
-0.008904269 -0.00034636364 -0.0069654547
0.0017123595 0.00127 -0.0006654546
0.0090184268 -0.00023090909 -0.0039872727
-0.0047946065 0.00011545455 -9.2727329e-05
-0.0035388763 0.00023090909 -0.0033000002
-0.0073060673 0.00127 -0.0022690911
-0.0039955056 -0.00011545455 -0.0075381822
0.0015982022 0.00127 -0.0019254546
0.0087901121 -0.00023090909 -0.0038727275
-0.006506966 -0.00034636364 -0.0043309093
0.008904269 0.00034636364 -0.0066218185
-0.0076485388 0.0011545455 -0.00032181825
-0.0052512358 -0.00092363637 -0.002498182
0.0035388763 0.00127 -0.00043636368
-0.0092467414 0 -0.002498182
-0.0094750561 0 -9.2727329e-05
0.0050229211 0.00057727273 -0.00032181825
-0.0059361793 0.00127 -0.0012381818
0.0015982022 0.00023090909 -0.0027272729
0.0003424719 -0.00127 -0.001009091
-0.01016 0.00011545455 -0.00032181825
0.0083334828 -0.00034636364 -0.0023836365
-0.0093608983 0.00011545455 -0.00020727278
0.0014840448 -0.00034636364 0.00070909085
-0.001940674 0.00127 -0.0012381818
0.0039955056 -0.00127 -0.00020727278
0.0038813481 0.00069272728 -0.00032181825
0.0039955056 0.00023090909 0.00093818177
0.0091325836 0.00011545455 -0.0068509094
-0.0015982022 0.00127 -0.001009091
-0.0082193259 0.0010390909 -0.00032181825
0.0063928086 0.00023090909 -0.0026127275
0.0039955056 -0.00011545455 -0.0043309093
-0.006849438 0.00127 -0.0006654546
-0.0010274157 -0.00127 -0.00078000006
0.0049087638 0.00023090909 -0.002498182
-0.001141573 0.00034636364 -0.0069654547
0.0013698876 -0.0011545455 -9.2727329e-05
0.0039955056 -0.00034636364 0.0023127273
-0.0092467414 -0.00127 -0.0011236364
-0.0067352806 -0.00127 -0.0014672728
0.0073060673 0.00127 -0.00089454552
-0.006164494 0.00011545455 -0.0037581821
-0.001940674 0.00127 -0.00055090914
0.008904269 -0.00023090909 0.0013963636
0.01016 -0.00023090909 -0.0013527273
-0.0035388763 0.00011545455 0.0021981818
0.0025114606 0.00127 -0.0016963637
0.0094750561 0.00127 -0.00043636368
0.003767191 -0.00034636364 -0.0055909092
0.001940674 -0.0010390909 -0.002498182
0.0021689886 0.0011545455 -9.2727329e-05
-0.0039955056 -0.00023090909 -0.0035290911
0.0077626961 0.00127 -0.00043636368
-0.0090184268 0.00080818182 -0.00032181825
-0.0015982022 0 -0.0059345458
0.0086759543 -0.00069272728 -0.0022690911
0.0083334828 0.00011545455 -0.0023836365
-0.0036530336 0.00023090909 -0.0028418184
-0.0023973032 0.0010390909 -9.2727329e-05
0.0078768535 0.00046181818 -9.2727329e-05
-0.0086759543 -0.00023090909 -0.0057054549
0.0091325836 0.00046181818 -0.0023836365
0.0038813481 0.00034636364 -0.0076527274
0.0063928086 0.00023090909 -0.0053618182
0.006506966 0.00023090909 -0.0057054549
-0.0025114606 0.00127 -0.0006654546
0.0066211233 0.00011545455 -0.0071945456
-0.006164494 0.00023090909 0.0018545454
0.0014840448 -0.00011545455 -0.0028418184
0.003082247 0.00127 -0.0006654546
-0.0069635953 -0.00057727273 -0.00032181825
0.0086759543 -0.00011545455 -0.0074236365
-0.0076485388 0.00127 -0.00055090914
-0.006506966 -0.00092363637 -0.0023836365
0.0028539326 0.00127 -0.0020400002
0.0018265168 -0.00127 -0.0023836365
0.008904269 0.00034636364 -0.0067363637
0.0067352806 0.0011545455 -9.2727329e-05
-0.0025114606 0.00127 -0.0011236364
0.001940674 -0.00127 -0.0020400002
-0.00068494381 -0.00127 -9.2727329e-05
-0.006849438 -0.00023090909 -9.2727329e-05
-0.0026256179 0.00127 -0.0023836365
-0.006506966 0.0010390909 -0.0022690911
-0.0028539326 -0.0011545455 -9.2727329e-05
-0.0070777526 0.0010390909 -0.00032181825
-0.0010274157 0 -0.0033000002
-0.0066211233 -0.00023090909 2.1818129e-05
0.00091325841 0 0.0010527272
0.0036530336 0 0.0025418182
0.0010274157 0.00069272728 -0.00032181825
-0.0063928086 -0.00092363637 -9.2727329e-05
0.0023973032 0 -0.002498182
0.0036530336 0.00034636364 -0.0077672731
0.0044521345 -0.00080818182 -9.2727329e-05
0.0002283146 -0.00127 -0.0006654546
0.0063928086 -0.00023090909 -0.0067363637
-0.0038813481 0.00011545455 0.0026563636
-0.0010274157 0.00127 -9.2727329e-05
-0.001940674 -0.00127 -0.00043636368
-0.0010274157 -0.00127 -0.0021545456
0.0035388763 -0.00011545455 0.0011672727
0.0003424719 -0.00127 -0.0016963637
0.0025114606 0.00069272728 -0.00032181825
0.0052512358 -0.00023090909 -0.002498182
-0.0066211233 0.0010390909 -9.2727329e-05
0.0086759543 -0.00011545455 -0.0059345458
0.003424719 0.00127 -0.0014672728
-0.01016 -0.00023090909 -0.0019254546
-0.008904269 -0.00034636364 -0.0067363637
0.0099316854 -0.00046181818 -0.0022690911
-0.006849438 -0.00057727273 -0.00032181825
0.0023973032 -0.0011545455 -0.002498182
0.0038813481 0.00034636364 0.0020836364
-0.006164494 0.00023090909 0.0020836364
0.0039955056 0.00034636364 0.0023127273
0.0039955056 0.00011545455 -0.0050181821
-0.0075343819 0.00092363637 -0.00032181825
0.001940674 0.00127 -0.00043636368
-0.006506966 0.00127 -0.0021545456
0.0085617974 0.00011545455 -0.0063927276
-0.0036530336 0.00023090909 -0.0071945456
0.0029680897 0.00011545455 -0.002498182
-0.008904269 -0.00127 -0.00089454552
-0.0027397752 0.00080818182 -0.00020727278
0.0029680897 -0.00127 -0.001009091
0.0091325836 0.00023090909 -0.0069654547
-0.0014840448 0.00127 -0.0015818182
-0.0091325836 0.00069272728 -0.0022690911
-0.0070777526 -0.00127 -0.0013527273
-0.0067352806 0.00057727273 -0.0023836365
-0.0081051681 0.00011545455 -9.2727329e-05
-0.0004566292 -0.00127 -0.0014672728
0.0086759543 0.00011545455 0.0015109091
-0.0002283146 0.00127 -0.001009091
0.010045842 -0.00034636364 -0.0022690911
0.0013698876 0.00034636364 0.0019690909
0.0052512358 0.00057727273 -0.002498182
0.001940674 0.00011545455 -0.002498182
-0.0026256179 0.00127 -0.0021545456
0.0066211233 0.00011545455 -0.0053618182
0.0082193259 -0.00127 -0.0016963637
-0.0014840448 0.00011545455 -0.0045600003
0.006164494 -0.00011545455 -0.0039872727
0.0035388763 0.00034636364 0.0012818181
0.0086759543 0.00023090909 0.0024272727
0.0055937078 -0.00069272728 -0.002498182
-0.008904269 -0.00034636364 2.1818129e-05
-0.0004566292 0.00023090909 -9.2727329e-05
0.0055937078 0.00127 -0.0019254546
-0.001141573 -0.00034636364 0.00013636358
-0.0028539326 0.00057727273 -0.002498182
0.0010274157 0.00023090909 -0.0058200001
0.0090184268 0.00023090909 -0.0077672731
0.0039955056 0.00034636364 0.0019690909
0.0014840448 -0.00011545455 0.0010527272
-0.0090184268 0.00023090909 -0.0029563638
-0.0045662918 0.0010390909 -0.00020727278
0.0049087638 -0.00127 -0.00055090914
-0.0085617974 0.00011545455 -0.002498182
-0.010045842 -0.00034636364 -0.00020727278
-0.0062786513 -0.00127 -0.0013527273
-0.0028539326 0.00127 -0.00032181825
-0.0021689886 0.00127 -0.0014672728
0.006164494 -0.00127 -0.00089454552
0.008904269 0 -0.0079963636
0.0060503366 0.0010390909 -0.0023836365
0.0046804491 0.00127 -0.002498182
0.0039955056 0.00023090909 -0.0038727275
-0.0010274157 -0.00023090909 -0.0034145457
-0.0099316854 0.00092363637 -0.0019254546
0.006164494 -0.00023090909 0.0012818181
-0.0090184268 -0.00057727273 -0.0023836365
0.00091325841 -0.00127 -0.0012381818
-0.003767191 -0.00034636364 -0.0054763639
0.0001141573 -0.00127 -0.00078000006
0.0014840448 -0.00023090909 -0.0037581821
-0.008904269 0.0010390909 -0.00020727278
0.0082193259 0.00127 -0.00032181825
0.00057078648 0.00127 -0.0014672728
0.003424719 -0.00057727273 -0.002498182
-0.0036530336 0.00127 -0.0018109091
0.0074202246 0.00080818182 -9.2727329e-05
-0.00057078648 0.00023090909 -0.002498182
-0.003424719 0.00057727273 -0.00032181825
0.0004566292 0.00127 -0.00055090914
-0.0075343819 0.00057727273 -0.00032181825
-0.00068494381 0.00057727273 -0.00032181825
0.0004566292 0.0011545455 -9.2727329e-05
-0.0012557303 -0.00034636364 0.00013636358
-0.0036530336 0.00092363637 -9.2727329e-05
0.0053653931 0.00127 -0.0019254546
-0.0025114606 0.00069272728 -0.00032181825
-0.0098175276 -0.0011545455 -0.00078000006
0.0028539326 -0.00127 -0.0015818182
-0.0090184268 0.00127 -0.0006654546
0.0063928086 0.00023090909 0.0018545454
-0.0087901121 0.00023090909 0.0021981818
0.0053653931 0.00057727273 -0.0023836365
-0.0045662918 0.00023090909 -0.0023836365
0.0097033707 0.00080818182 -0.0023836365
0.0083334828 0.00127 -0.0015818182
-0.0062786513 -0.00127 -0.00055090914
-0.0077626961 0 -0.0023836365
0.0010274157 -0.00011545455 -0.0055909092
0.00057078648 -0.0011545455 -0.002498182
0.006849438 -0.00127 -0.0018109091
-0.0017123595 0.00127 -0.00055090914
-0.0021689886 0.00023090909 -9.2727329e-05
0.0039955056 -0.00127 -0.0014672728
-0.0014840448 -0.00034636364 2.1818129e-05
-0.0010274157 0.00023090909 -0.0038727275
-0.0017123595 -0.00127 -0.00020727278
0.0077626961 0.00092363637 -0.0023836365
0.006164494 0.00127 -0.0014672728
0.0045662918 0.00092363637 -9.2727329e-05
-0.0091325836 0 -0.0062781819
0.0071919099 0.00127 -0.0011236364
0.0033105616 0.00127 -0.00020727278
-0.003424719 -0.00127 -0.002498182
0.0025114606 0.00127 -0.0021545456
-0.0063928086 -0.00034636364 0.0020836364
-0.0035388763 -0.00023090909 0.00013636358
-0.0014840448 0.00034636364 0.0010527272
-0.0059361793 -0.00127 -0.00078000006
-0.0047946065 0.0010390909 -0.0023836365
0.01016 -0.00011545455 -0.0022690911
0.0035388763 0.00011545455 -0.0026127275
0.006164494 -0.00023090909 -0.0026127275
0.0098175276 0.0011545455 -0.0016963637
-0.0091325836 0.00011545455 -0.0059345458
0.0062786513 0.00092363637 -0.0023836365
0.0097033707 0.00046181818 -0.0023836365
-0.0058220224 0.00023090909 -0.002498182
-0.0078768535 0.00023090909 -0.0023836365
-0.006164494 -0.00034636364 -0.0063927276
0.01016 0.00034636364 -0.0014672728
-0.0049087638 0.00057727273 -0.002498182
0.006164494 -0.00011545455 -0.0033000002
0.0015982022 0 -0.0049036364
0.0036530336 0.00034636364 -0.0057054549
-0.0035388763 -0.00023090909 -0.0062781819
-0.0059361793 0 -0.002498182
-0.0035388763 0.00011545455 -0.0051327273
-0.008904269 -0.00023090909 0.00070909085
-0.0060503366 0.00011545455 0.0020836364
0.0045662918 0.0010390909 -0.002498182
0.0054795505 -0.00057727273 -0.002498182
0.0053653931 -0.00034636364 -0.002498182
0.0077626961 -0.00092363637 -0.00020727278
-0.0066211233 0.00127 -0.0021545456
-0.0055937078 -0.00127 -0.0022690911
0.0039955056 -0.00023090909 -0.0054763639
-0.00057078648 0.00069272728 -0.002498182
-0.0097033707 0.00069272728 -0.0023836365
0.006506966 -0.00127 -0.00089454552
-0.00057078648 -0.00127 -0.0012381818
-0.0071919099 -0.00057727273 -0.002498182
0 -0.00127 -0.00055090914
0.0013698876 -0.00034636364 -0.0053618182
0.00091325841 -0.00127 -0.0023836365
0.0052512358 0.00127 -0.002498182
-0.0058220224 0.00127 -0.0013527273
0.0074202246 0.00127 -0.00032181825
-0.0075343819 0.00011545455 -0.0023836365
-0.008904269 0.00023090909 -0.0070800004
-0.0062786513 -0.00127 -0.0020400002
-0.00091325841 0.0010390909 -9.2727329e-05
-0.0094750561 -0.0011545455 -0.0020400002
0.0022831459 -0.00127 -0.002498182
0.0051370785 -0.00057727273 -0.002498182
0.0051370785 0.00046181818 -9.2727329e-05
-0.0046804491 0.00057727273 -0.00032181825
-0.0054795505 0.00057727273 -0.00032181825
0.0079910113 0.00127 -0.0006654546
-0.006164494 -0.00034636364 -0.0026127275
-0.0036530336 0.00023090909 0.00025090904
-0.0014840448 -0.00127 -0.0018109091
-0.003767191 -0.00034636364 -0.0030709093
0.006164494 -0.00023090909 -0.0035290911
-0.0095892129 0.00057727273 -0.0022690911
0.0043379772 0.00011545455 -0.002498182
0.004109663 0.00127 -0.00078000006
-0.0082193259 0.00080818182 -0.0022690911
-0.0022831459 0.00046181818 -0.00020727278
-0.003767191 -0.00034636364 -0.0031854548
-0.0050229211 -0.00127 -0.0020400002
0.0086759543 0.0011545455 -0.0023836365
0.0002283146 -0.00127 -0.0012381818
-0.0081051681 0.00127 -0.00055090914
-0.0022831459 -0.00127 -0.0023836365
-0.0033105616 0.00127 -0.0021545456
-0.0090184268 0.00023090909 0.00093818177
0.004109663 0.00127 -0.00055090914
0.0029680897 -0.0011545455 -0.002498182
0.0039955056 0.00023090909 -0.0058200001
-0.0026256179 0.00127 -0.0013527273
-0.0015982022 0.00080818182 -0.002498182
0.0038813481 0.00127 -0.001009091
-0.0002283146 -0.00127 -0.00043636368
0.0039955056 0.00023090909 -0.0055909092
-0.0086759543 0.00011545455 -0.0063927276
-0.0078768535 0.00127 -0.0016963637
-0.0054795505 -0.00023090909 -0.002498182
0.0069635953 -0.00127 -0.00078000006
0.0085617974 0.00011545455 0.0003654545
0.0099316854 -0.00057727273 -0.00032181825
0.0091325836 -0.00011545455 -0.0026127275
0.0067352806 -0.00023090909 -9.2727329e-05
-0.006849438 -0.00127 -0.0016963637
0.0055937078 -0.0011545455 -0.00020727278
0.00079910108 0.00127 -0.00055090914
0.0094750561 -0.0010390909 -0.00020727278
0.0062786513 -0.00034636364 -0.0045600003
-0.0017123595 -0.0010390909 -9.2727329e-05
0.0069635953 -0.00057727273 -0.00032181825
-0.0036530336 -0.00034636364 -0.0043309093
-0.0063928086 0.00034636364 -9.2727329e-05
-0.0086759543 -0.00023090909 -0.0037581821
0.0074202246 -0.00127 -0.0021545456
0.006506966 0.00023090909 -0.005247273
0.0079910113 -0.0010390909 -0.0022690911
0.0039955056 0.00127 -0.00078000006
0.0015982022 -0.00034636364 -0.002498182
0.0036530336 -0.00127 -0.0012381818
0.0044521345 -0.00034636364 -0.002498182
-0.0015982022 -0.00034636364 -9.2727329e-05
0.0076485388 -0.00057727273 -0.0023836365
-0.0098175276 0 -0.0022690911
-0.0077626961 -0.00046181818 -0.00032181825
-0.0029680897 -0.00127 -0.0006654546
-0.0086759543 0.00023090909 -0.0065072728
-0.003424719 -0.00023090909 2.1818129e-05
-0.0038813481 0 -0.0078818183
0.0066211233 -0.00023090909 -0.0075381822
0.006506966 -0.00023090909 -0.0044454546
-0.0044521345 -0.00127 -0.0016963637
0.008904269 -0.0010390909 -9.2727329e-05
0.0026256179 0.00011545455 -9.2727329e-05
0.0014840448 0.00127 -0.002498182
-0.0052512358 -0.00127 -0.001009091
0.0015982022 0.00011545455 -0.0069654547
0.0093608983 0.00046181818 -0.00020727278
-0.0033105616 -0.00127 -0.00020727278
-0.008904269 0.00011545455 -0.0078818183
-0.0020548315 -0.00011545455 -0.002498182
0.001141573 -0.00034636364 -0.0045600003
0.0044521345 -0.00011545455 -9.2727329e-05
-0.0079910113 0.00023090909 -0.0023836365
0.0086759543 0.00023090909 0.00174
-0.0028539326 -0.0011545455 -0.002498182
-0.0014840448 0.00034636364 -0.0058200001
0.003767191 -0.00011545455 -0.0078818183
0.0038813481 -0.00127 -0.0014672728
0.0090184268 -0.00069272728 -0.0022690911
0.006506966 -0.00034636364 0.00093818177
-0.0049087638 0.0011545455 -0.0023836365
0.0046804491 -0.00127 -0.0021545456
0.003767191 -0.00034636364 -0.0043309093
0.0015982022 0.00011545455 0.0011672727
-0.001141573 0.00034636364 -0.0026127275
0.0039955056 -0.00023090909 0.0020836364
-0.0071919099 -0.00127 -0.0023836365
-0.0014840448 -0.00034636364 -0.0061636367
0.0099316854 0.0010390909 -0.00078000006
0.0015982022 -0.00092363637 -0.002498182
-0.0029680897 -0.00011545455 -0.002498182
0.001141573 -0.00023090909 -0.0076527274
0.0038813481 -0.00069272728 -0.002498182
0.0062786513 -0.00127 -0.0015818182
-0.0010274157 0.00069272728 -0.002498182
0.003424719 -0.00127 -0.0011236364
0.01016 -0.00034636364 -0.00078000006
-0.0039955056 0.00023090909 0.0016254545
-0.0063928086 0.00069272728 -0.0023836365
0.0039955056 0.00023090909 -0.0046745455
-0.0057078651 -0.00080818182 -9.2727329e-05
0.0051370785 -0.00127 -0.00032181825
-0.0010274157 0.00057727273 -0.002498182
0.0020548315 0.00127 -0.0022690911
-0.0075343819 0.00127 -0.0018109091
0.0090184268 0.00034636364 0.00025090904
-0.006164494 -0.00034636364 -0.0051327273
0.0010274157 -0.00011545455 -0.0065072728
0.0062786513 -0.00011545455 0.0026563636
0.0036530336 0.00127 -0.002498182
-0.0038813481 -0.00034636364 -0.0033000002
-0.0094750561 -0.0011545455 -0.0015818182
0.0039955056 0.00011545455 0.00059454539
-0.0098175276 -0.0010390909 -9.2727329e-05
-0.0013698876 -0.00034636364 0.0011672727
0.0012557303 -0.00127 -0.001009091
0.0075343819 -0.00046181818 -0.00032181825
-0.008904269 0.00023090909 0.0019690909
-0.01016 0.00023090909 -0.0006654546
-0.0075343819 0.00127 -0.00020727278
0.0035388763 0 -0.0055909092
-0.0091325836 0 -0.0026127275
-0.00091325841 0.00023090909 -9.2727329e-05
0.0015982022 0.00023090909 0.00093818177
-0.006506966 0.00127 -0.00032181825
-0.0010274157 -0.00011545455 -0.0027272729
0.0078768535 0 -0.0023836365
-0.0078768535 -0.00127 -0.00020727278
-0.0095892129 0.00046181818 -0.00032181825
-0.0066211233 -0.00023090909 -0.0034145457
0.004109663 -0.00127 -0.0015818182
0.0066211233 0.00023090909 -0.0041018184
0.0035388763 0.00127 -0.0006654546
-0.0027397752 -0.00127 -0.0015818182
-0.0010274157 0.00023090909 -0.0036436366
0.0025114606 0.00092363637 -0.002498182
-0.0020548315 -0.00046181818 -0.002498182
0.006164494 0.00127 -0.0012381818
-0.0063928086 -0.00127 -0.0013527273
0.0055937078 -0.00127 -0.0021545456
-0.006506966 0.00034636364 -0.0069654547
-0.0035388763 0.00023090909 0.00093818177
0.0062786513 0.00034636364 -0.0049036364
0.0049087638 0.00127 -9.2727329e-05
-0.0058220224 0.00127 -0.00089454552
-0.0084476406 0.00034636364 -0.0023836365
0.0039955056 0.00011545455 -0.0030709093
0.0076485388 -0.00127 -0.0012381818
-0.006506966 0.0011545455 -0.00032181825
-0.0001141573 -0.00127 -0.0022690911
-0.0029680897 -0.00127 -0.0019254546
-0.003767191 -0.00034636364 0.0020836364
0.0035388763 -0.00011545455 -0.0036436366
0.0086759543 -0.00011545455 -0.0075381822
-0.0044521345 -0.00127 -0.0011236364
-0.0070777526 0.00023090909 -9.2727329e-05
0.01016 -0.00046181818 -0.0012381818
0.0081051681 -0.00023090909 -0.002498182
-0.003767191 -0.00034636364 -0.005247273
-0.0049087638 0.00127 -0.00089454552
0.0077626961 -0.00127 -0.00078000006
0.0063928086 -0.00034636364 0.0010527272
0.0035388763 0.00023090909 0.0016254545
0.003767191 -0.00034636364 -0.0047890912
-0.0073060673 -0.0011545455 -9.2727329e-05
0.0043379772 -0.00127 -0.00020727278
-0.0092467414 -0.0011545455 -0.0023836365
-0.0015982022 -0.00011545455 -0.0044454546
0.008904269 0.00046181818 -0.00020727278
0.0085617974 0 -0.0045600003
-0.0013698876 0.00034636364 0.00047999996
0.0098175276 -0.00023090909 -0.00020727278
-0.0038813481 0.00092363637 -9.2727329e-05
0.0036530336 0.00034636364 -0.0066218185
0.0035388763 0.00023090909 0.0024272727
0.003767191 -0.00127 -0.00055090914
0.0083334828 0.00057727273 -0.00032181825
-0.0014840448 0.00127 -0.00055090914
0.0091325836 0.00023090909 -0.0043309093
0.0046804491 -0.00080818182 -9.2727329e-05
-0.01016 0.00023090909 -0.0019254546
0.0036530336 -0.00034636364 -0.0043309093
-0.006506966 -0.00034636364 -0.0027272729
-0.0066211233 -0.00011545455 -0.0063927276
-0.0070777526 -0.00011545455 -9.2727329e-05
0.00068494381 -0.0011545455 -0.002498182
0.006164494 0.00011545455 0.0015109091
-0.0086759543 -0.00023090909 0.00025090904
0.0060503366 0 -0.0030709093
0.0099316854 -0.00092363637 -0.0014672728
-0.003767191 0.00034636364 -0.0070800004
-0.0014840448 0.00023090909 -0.0070800004
0.0060503366 0.00023090909 0.00047999996
-0.0010274157 -0.00011545455 0.0018545454
0.003767191 -0.00023090909 0.0025418182
-0.0051370785 0.00034636364 -0.00020727278
0.0091325836 -0.00023090909 -0.002498182
-0.0083334828 -0.00011545455 -9.2727329e-05
-0.0047946065 0.00127 -0.001009091
0.0010274157 -0.00069272728 -0.002498182
-0.0060503366 -0.00023090909 -0.0051327273
0.0094750561 0.00069272728 -0.0023836365
-0.003767191 -0.00034636364 -0.0036436366
-0.003424719 0.00057727273 -0.002498182
0.006506966 -0.00011545455 -0.0050181821
-0.0094750561 -0.00092363637 -0.0023836365
-0.006506966 -0.00127 -0.0012381818
0.0002283146 -0.00127 -0.0018109091
0.0062786513 0.00127 -0.0012381818
0.0014840448 -0.00034636364 0.0010527272
-0.0015982022 -0.00011545455 -0.0067363637
0.0063928086 -0.00034636364 -0.0028418184
0.00068494381 0.00127 -0.0019254546
-0.0093608983 0.0011545455 -0.00078000006
-0.0010274157 0.00023090909 -0.0068509094
-0.001141573 -0.00011545455 0.0026563636
0.0057078651 -0.00046181818 -0.00020727278
0.0036530336 -0.00034636364 2.1818129e-05
0.0071919099 0.00023090909 -0.002498182
0.0014840448 -0.00023090909 -0.0057054549
0.0054795505 0.00127 -0.0012381818
-0.0085617974 -0.00092363637 -0.0023836365
0.0062786513 0.00034636364 -0.006049091
-0.006506966 0.00023090909 0.0023127273
-0.0079910113 -0.00023090909 -9.2727329e-05
0.006506966 0.00023090909 0.00047999996
-0.0071919099 -0.00127 -0.0019254546
0.0039955056 -0.00011545455 -0.0062781819
-0.0087901121 -0.00023090909 0.00047999996
-0.0062786513 -0.00127 -0.0012381818
-0.0049087638 0.0010390909 -9.2727329e-05
0.006164494 -0.00011545455 -0.0035290911
-0.00068494381 -0.00127 -0.0018109091
-0.0010274157 0.00011545455 -0.0037581821
0.0033105616 -0.00011545455 -0.002498182
0.001141573 0.00034636364 0.0013963636
0.01016 0.00023090909 -0.0011236364
-0.0029680897 0.00127 -0.0023836365
-0.0020548315 -0.00080818182 -0.002498182
0.0014840448 -0.00034636364 0.0013963636
-0.0067352806 0 -9.2727329e-05
0.0015982022 0 -0.0047890912
0.0087901121 -0.0011545455 -0.0011236364
0.0035388763 0.00023090909 -0.005247273
-0.0018265168 -0.00127 -0.001009091
0.0060503366 0.00023090909 -0.0050181821
0.0059361793 0.00023090909 -0.002498182
0.0079910113 -0.0011545455 -0.00020727278
0.0029680897 0.00127 -0.0020400002
0.0054795505 -0.00046181818 -0.00020727278
0.0075343819 0.00127 -0.0021545456
0.0012557303 0.00034636364 -0.0059345458
0.0052512358 -0.00011545455 -0.002498182
-0.01016 0.00034636364 -0.0014672728
-0.0059361793 -0.00080818182 -9.2727329e-05
0.0015982022 0 0.0015109091
-0.003767191 -0.00069272728 -0.002498182
-0.0015982022 -0.0010390909 -0.002498182
0.01016 -0.00023090909 -0.00032181825
0.003767191 -0.00034636364 -0.0074236365
-0.0014840448 -0.00034636364 0.0019690909
0.0082193259 -0.00092363637 -0.00020727278
-0.0060503366 -0.00023090909 -0.0029563638
0.004109663 0.00046181818 -9.2727329e-05
0.0086759543 0.00127 -0.0021545456
0.0050229211 0.00046181818 -0.002498182
0.0067352806 0.00080818182 -0.00020727278
-0.0014840448 -0.00127 -0.0022690911
0.0013698876 -0.00034636364 -0.0066218185
0.0039955056 0.00023090909 -0.0027272729
-0.0083334828 -0.0010390909 -9.2727329e-05
0.0035388763 -0.00011545455 -0.0041018184
0.0081051681 0.00127 -0.001009091
-0.0014840448 0.00011545455 -0.0069654547
-0.0066211233 -0.00023090909 -0.0070800004
0.0092467414 -0.0011545455 -0.0016963637
0.003767191 0.00034636364 0.00070909085
-0.0039955056 0.00023090909 -0.0057054549
-0.0083334828 0.00069272728 -0.00032181825
-0.01016 -0.00034636364 -0.00078000006
-0.0082193259 0.0010390909 -9.2727329e-05
0.0060503366 0.00023090909 -0.0027272729
0.003424719 0.00069272728 -0.00032181825
-0.006506966 0.00023090909 -0.0065072728
-0.003082247 -0.00127 -0.0019254546
0.0076485388 0.00080818182 -9.2727329e-05
0.008904269 -0.00023090909 -0.0055909092
-0.006164494 -0.00069272728 -0.002498182
-0.0044521345 0.00011545455 -9.2727329e-05
0.0063928086 0.00023090909 -0.0077672731
0.001940674 0.00127 -0.0023836365
-0.00068494381 0.00092363637 -9.2727329e-05
0.0063928086 0.00023090909 -0.0071945456
-0.0055937078 -0.00127 -0.0023836365
0.010045842 0.00069272728 -0.0023836365
-0.0013698876 -0.00034636364 -0.0069654547
-0.0039955056 0.00023090909 -0.0068509094
0.0087901121 -0.00023090909 -0.0066218185
-0.0093608983 -0.00034636364 -0.00020727278
-0.0010274157 0 -0.0039872727
-0.0043379772 -0.00127 -0.001009091
0.0035388763 0 2.1818129e-05
0.0039955056 -0.00023090909 -0.0030709093
-0.0028539326 -0.0010390909 -9.2727329e-05
0.01016 0.00057727273 -0.0019254546
-0.0023973032 0.00092363637 -0.002498182
-0.001940674 0.00127 -0.00032181825
0.0066211233 0.00069272728 -0.0023836365
0.0066211233 0.00127 -0.0013527273
0.0062786513 -0.00034636364 -0.0033000002
-0.0066211233 -0.00011545455 -0.0028418184
0.0017123595 0.00127 -0.0014672728
-0.0066211233 0.00023090909 0.0019690909
-0.0025114606 0.0010390909 -0.002498182
0.003082247 0.00127 -0.0016963637
0.0013698876 0.00046181818 -9.2727329e-05
0.0027397752 -0.00127 -9.2727329e-05
0.0023973032 -0.00034636364 -0.002498182
-0.0010274157 0.00011545455 -0.0026127275
-0.0071919099 0.00127 -0.0014672728
0.003767191 0 0.0027709091
0.0004566292 -0.00127 -0.0012381818
-0.0015982022 -0.00023090909 -0.0053618182
-0.0071919099 0.00080818182 -0.0022690911
0.0039955056 0.00023090909 0.00070909085
0.0035388763 -0.00034636364 -9.2727329e-05
-0.006164494 0.00023090909 -0.0059345458
0.0010274157 0.00023090909 -0.0026127275
0.0097033707 -0.0010390909 -0.0011236364
-0.0090184268 0.00023090909 0.0010527272
0.0063928086 -0.0010390909 -0.00020727278
0.0066211233 0.00011545455 -0.0038727275
0.0033105616 0.00023090909 -0.002498182
-0.0013698876 0.00034636364 -0.0034145457
0.0045662918 0.0011545455 -0.002498182
0.0017123595 -0.00127 -0.0014672728
-0.0062786513 -0.00034636364 -0.0043309093
0.0014840448 -0.00034636364 -0.0062781819
-0.0036530336 0.00023090909 -0.0038727275
-0.0047946065 0.00127 -0.0013527273
-0.0066211233 -0.00023090909 -0.0061636367
0.008904269 -0.00092363637 -0.0022690911
0.0012557303 -0.00034636364 -0.0061636367
-0.0042238203 -0.00127 -0.0019254546
0.0014840448 -0.0011545455 -0.002498182
0.0039955056 0.00023090909 0.0003654545
0.0012557303 0.00127 -0.00089454552
-0.0087901121 0.00023090909 0.0012818181
0.0085617974 0 -0.0038727275
0.0027397752 0.00127 -0.0015818182
0.0075343819 -0.00011545455 -9.2727329e-05
-0.0035388763 0 -0.0070800004
-0.003767191 -0.00034636364 -0.0037581821
0.0039955056 0.00023090909 0.00174
0.0074202246 -0.0011545455 -0.00020727278
0.0058220224 0.00127 -0.001009091
-0.0023973032 0.00057727273 -0.002498182
0.01016 0.00080818182 -0.00089454552
-0.0010274157 -0.00011545455 -0.0077672731
-0.0050229211 0.00127 -0.0013527273
-0.0090184268 0.00011545455 0.0025418182
0.0057078651 -0.00023090909 -9.2727329e-05
0.0093608983 0.00127 -0.0006654546
0.0010274157 -0.00023090909 -0.0059345458
0.0039955056 -0.00023090909 -0.0050181821
-0.0039955056 -0.00011545455 0.0011672727
-0.0083334828 0.00127 -0.0014672728
0.0022831459 0.0010390909 -0.002498182
-0.0038813481 0.00034636364 -0.0046745455
0.0010274157 -0.00011545455 -0.0033000002
-0.00091325841 0.00034636364 -0.002498182
-0.0078768535 -0.0010390909 -9.2727329e-05
0.0036530336 -0.00034636364 -0.0028418184
0.0003424719 -0.00127 -0.002498182
0.0039955056 -0.00127 -0.00089454552
-0.0039955056 0 -0.0066218185
-0.0069635953 -0.0010390909 -0.0023836365
-0.0059361793 0.00127 -0.00043636368
-0.0075343819 -0.00046181818 -0.00032181825
-0.0060503366 -0.00023090909 -0.0042163637
-0.00079910108 0.00127 -0.0014672728
0.0087901121 0.00023090909 -0.0054763639
-0.0091325836 -0.00011545455 0.00093818177
0.0058220224 -0.00127 -0.00055090914
0.0021689886 0.00046181818 -9.2727329e-05
-0.0062786513 0.00034636364 0.0012818181
-0.0062786513 0.00034636364 0.0023127273
-0.0002283146 -0.00127 -0.0021545456
-0.01016 -0.00080818182 -0.0014672728
0.0073060673 -0.00127 -0.0013527273
-0.0077626961 -0.00092363637 -9.2727329e-05
0.0086759543 0.0010390909 -0.0023836365
0.0001141573 0.00127 -0.0011236364
0.0066211233 0.00127 -0.0018109091
0.0091325836 0.00011545455 -0.0028418184
-0.0060503366 0 -0.0029563638
0.0043379772 0.0010390909 -0.002498182
0.001141573 -0.00034636364 0.0011672727
-0.001141573 -0.00034636364 0.00070909085
-0.0060503366 0 0.0003654545
-0.0010274157 -0.00046181818 -0.002498182
-0.01016 -0.00023090909 -0.0015818182
0.01016 0.00034636364 -0.0016963637
-0.0039955056 0.00011545455 -0.0057054549
-0.0092467414 0.00127 -0.0019254546
-0.0036530336 -0.00069272728 -0.002498182
0.0086759543 -0.0011545455 -0.0018109091
-0.0054795505 -0.00046181818 -0.00032181825
0.0093608983 -0.00046181818 -0.0022690911
-0.0086759543 0 0.00174
-0.003082247 -0.00127 -0.0022690911
-0.00079910108 0.0011545455 -9.2727329e-05
-0.0098175276 -0.00069272728 -0.00020727278
-0.0052512358 -0.00127 -0.0014672728
-0.0023973032 0.00127 -0.0011236364
-0.0060503366 0.0010390909 -0.0022690911
-0.003424719 -0.00080818182 -0.00020727278
-0.0075343819 -0.00127 -0.0020400002
-0.0082193259 -0.00046181818 -0.0023836365
-0.0063928086 0.00034636364 -0.0054763639
0.0023973032 -0.00092363637 -0.002498182
-0.0038813481 0.00034636364 0.0019690909
-0.0039955056 0.00023090909 -0.005247273
0.00068494381 0.00127 -0.00089454552
0.001940674 -0.00127 -0.0022690911
-0.0062786513 -0.00127 -0.0018109091
0.0060503366 -0.00127 -0.0020400002
-0.0062786513 0.00034636364 -0.0074236365
-0.0054795505 0.00034636364 -0.00020727278
-0.00068494381 0.00127 -0.0020400002
-0.0015982022 -0.00034636364 0.00059454539
-0.0085617974 0.00127 -0.00032181825
-0.0091325836 -0.00023090909 -0.0038727275
0.0039955056 0.0011545455 -0.0023836365
0.0004566292 0.00023090909 -9.2727329e-05
-0.0038813481 -0.00034636364 0.00047999996
0.0087901121 -0.00023090909 -0.0063927276
-0.0075343819 0.00127 -0.00032181825
-0.0045662918 -0.00034636364 -0.00020727278
0.01016 0 -0.0013527273
-0.0014840448 0.00011545455 -0.0074236365
-0.0087901121 0.00023090909 0.0016254545
-0.00079910108 0.00034636364 -0.002498182
-0.0023973032 0.00127 -0.00078000006
-0.0020548315 0.00127 -0.00032181825
-0.0012557303 0.00057727273 -0.002498182
