# .PCD v0.7 - Point Cloud Data file format
VERSION 0.7
FIELDS x y z
SIZE 4 4 4
TYPE F F F
COUNT 1 1 1
WIDTH 1304
HEIGHT 1
VIEWPOINT 0 0 0 1 0 0 0
POINTS 1304
DATA ascii
0.012749225 0 -0.0065894118
0.028048294 -0.00127 -0.0021635294
-0.038247675 0.00042333335 -0.0025323529
-0.0091065895 0.00127 -0.0010570588
0.013113488 0.00042333335 -0.0014258823
-0.022948604 0 -0.0029011765
0.027684031 0 0.0018935294
0.032055192 0.00127 -0.0014258823
-0.004371163 0 -0.0010570588
-0.017484652 0.00042333335 -0.0017947059
0.016027596 0.00042333335 -0.00031941177
-0.01639186 -0.00127 -0.0017947059
0.033876512 0.00127 -0.00031941177
-0.033147983 -0.00084666669 -0.0014258823
0.032055192 -0.00127 -0.0014258823
-0.045532946 0.00084666669 -0.00031941177
-0.044440154 -0.00042333335 -0.00031941177
0.0018213178 -0.00042333335 -0.0010570588
0.04079752 0.00084666669 -0.0014258823
0.021855814 -0.00127 -0.0017947059
-0.044804417 -0.00084666669 -0.00031941177
0.024041396 0.00127 -0.00068823528
0.012020698 0 -0.0014258823
-0.021127287 0.00042333335 -0.0010570588
0.01529907 0.00084666669 -0.0021635294
-0.0032783721 0.00042333335 -0.0017947059
0.013113488 0.00084666669 -0.0021635294
-0.002549845 0 -0.0076958826
-0.0021855815 0.00042333335 -0.0017947059
0.02039876 0.00042333335 -0.00068823528
-0.020763023 0 -0.0010570588
0.022220077 -0.00084666669 -0.0017947059
-0.037519146 -0.00084666669 -0.0010570588
-0.023312869 -0.00127 -0.0021635294
-0.022948604 0.00042333335 -0.0025323529
-0.017484652 0 -0.0010570588
-0.021127287 0 -0.00068823528
-0.024405658 -0.00042333335 -0.00068823528
0.01019938 0.00127 -0.00031941177
0.019670233 0 -0.0021635294
0.029869612 -0.00084666669 -0.0010570588
-0.002549845 0.00042333335 -0.00068823528
-0.002549845 0 -0.0025323529
0.045897208 0 -0.0084335292
0.035697829 0 -0.0051141176
0.002549845 -0.00084666669 -0.00031941177
-0.0429831 0 -0.0051141176
-0.042618837 -0.00042333335 -0.0010570588
0.028412558 0.00042333335 -0.00031941177
-0.004371163 0.00084666669 -0.0010570588
-0.025862712 0.00084666669 -0.0017947059
0.035697829 -0.00127 -0.0021635294
0.022948604 0 0.00078705885
-0.0014570543 0 -0.00031941177
0.045532946 -0.00127 -0.0010570588
0.017848914 -0.00042333335 0.0015247059
0.030598139 0 -0.0054829414
-0.030598139 0 -0.00031941177
0.02549845 -0.00127 -0.0010570588
0.015663333 0 -0.0014258823
0.004006899 -0.00042333335 -0.0021635294
-0.018941706 0.00042333335 -0.00068823528
0.0087423259 0 -0.0010570588
0.0050996901 0 -0.0091711767
0.012749225 -0.00042333335 -0.00031941177
0.042254575 0.00127 -0.00031941177
-0.030233875 0 0.002262353
0.034240775 -0.00042333335 -0.0017947059
0.016027596 0.00084666669 -0.00068823528
-0.041161783 -0.00084666669 -0.00068823528
-0.0091065895 -0.00042333335 -0.0017947059
0.031326666 0.00127 -0.00068823528
-0.0018213178 0.00084666669 -0.00031941177
-0.012749225 0.00127 -0.00031941177
0.028412558 0.00084666669 -0.0017947059
-0.012749225 0.00042333335 -0.00031941177
-0.04079752 -0.00042333335 -0.0025323529
-0.031326666 0.00084666669 -0.0014258823
-0.026955504 0.00084666669 -0.0014258823
-0.034969304 0.00084666669 -0.0010570588
-0.01529907 0.00084666669 -0.00031941177
-0.033876512 0.00042333335 -0.0014258823
-0.044804417 0.00042333335 -0.0017947059
0.018941706 -0.00127 -0.0014258823
-0.0058282171 -0.00084666669 -0.0014258823
-0.024405658 0.00084666669 -0.0010570588
-0.011292171 -0.00127 -0.0014258823
0.02149155 -0.00084666669 -0.0014258823
0.045532946 0 -0.0014258823
0.038247675 -0.00042333335 -0.00068823528
0 0.00042333335 0.00041823529
-0.044440154 -0.00084666669 -0.0014258823
-0.012020698 0.00084666669 -0.0010570588
0 0.00127 -0.0021635294
0.010563644 -0.00084666669 -0.0010570588
-0.002549845 0 0.0015247059
0.020034496 0 -0.0065894118
0.019670233 0.00084666669 -0.00068823528
0.037154883 0.00127 -0.0014258823
-0.01019938 0.00042333335 4.9411763e-05
-0.0076495348 0 -0.0076958826
-0.0054639536 0.00042333335 -0.00031941177
0.028412558 -0.00084666669 -0.00031941177
-0.00036426357 0.00084666669 -0.0014258823
-0.024041396 -0.00042333335 -0.0021635294
-0.033876512 0.00127 -0.0017947059
0.0014570543 0.00084666669 -0.00068823528
-0.0014570543 0.00042333335 -0.00031941177
0.045168683 -0.00042333335 -0.0017947059
0.026226977 0.00084666669 -0.0017947059
0.018213179 0.00084666669 -0.0017947059
0.02549845 0 4.9411763e-05
-0.0098351166 0 -0.0010570588
0.0083780615 -0.00084666669 -0.00031941177
0.027684031 -0.00042333335 -0.0021635294
-0.035333566 -0.00084666669 -0.00031941177
-0.037883412 0 -0.00068823528
-0.027319767 0.00084666669 -0.00068823528
-0.041890308 -0.00042333335 -0.0021635294
-0.024769923 0.00084666669 -0.0021635294
-0.031690929 -0.00084666669 -0.0010570588
0.030598139 -0.00042333335 -0.00031941177
0.00036426357 0.00042333335 -0.00031941177
0.018577442 -0.00042333335 -0.00068823528
-0.012020698 -0.00127 -0.00068823528
0.011292171 0.00127 -0.0010570588
0.02039876 -0.00042333335 -0.0084335292
-0.045532946 0.00084666669 -0.0021635294
0.041890308 0 -0.0010570588
0.0029141086 0.00042333335 -0.00031941177
0.017484652 0 -0.0051141176
-0.035333566 0 0.0011558824
-0.00036426357 0.00042333335 -0.0014258823
0.044075891 -0.00084666669 -0.0010570588
0.022584341 0.00127 -0.0017947059
0.0058282171 0.00127 -0.0014258823
-0.028048294 -0.00042333335 -0.0017947059
0.0091065895 0.00042333335 -0.0010570588
-0.02549845 0.00042333335 -0.0069582355
-0.045168683 -0.00127 -0.0021635294
0.037519146 0.00127 -0.00031941177
-0.034240775 0.00042333335 -0.0010570588
0.002549845 0 -0.0021635294
-0.040068991 0.00042333335 -0.0021635294
-0.002549845 0 -0.0065894118
-0.013113488 -0.00084666669 -0.00068823528
-0.045532946 0.00127 -0.0014258823
0.017848914 0 -0.0065894118
-0.0050996901 -0.00042333335 -0.0088023534
-0.011292171 0.00042333335 -0.0017947059
0.012749225 0 -0.0014258823
0.002549845 0 0.002262353
-0.02039876 0 -0.0021635294
-0.0036426357 0 -0.00031941177
0.029141085 0.00127 -0.0021635294
-0.040068991 -0.00127 -0.0010570588
-0.0065567442 -0.00084666669 -0.0010570588
-0.026591239 -0.00127 -0.00068823528
-0.040433254 0 0.0015247059
-0.014570543 0 -0.00031941177
-0.034969304 -0.00127 -0.0021635294
-0.037883412 -0.00042333335 -0.0010570588
0.0087423259 -0.00042333335 -0.0014258823
0.032419458 0.00084666669 -0.0017947059
0.002549845 0 -0.0065894118
0.02039876 0 0.0011558824
-0.013477752 -0.00127 -0.0021635294
0.002549845 0 0.0011558824
0.031326666 0 -0.0014258823
-0.029141085 -0.00127 -0.00068823528
-0.032055192 -0.00127 -0.0010570588
0.030233875 0 -0.0051141176
-0.015663333 0.00127 -0.00068823528
0.027319767 0.00042333335 -0.0014258823
-0.012384961 0.00084666669 -0.00068823528
0.018577442 0.00084666669 -0.0021635294
0.041526046 -0.00127 -0.0010570588
-0.032783721 0.00084666669 -0.00031941177
0.043711629 -0.00127 -0.0010570588
0.0076495348 0.00042333335 0.00041823529
0.029869612 0.00127 -0.00031941177
0.012384961 0.00084666669 -0.00068823528
0.024769923 -0.00042333335 -0.0010570588
0.028048294 0 0.00041823529
0.010927907 0.00042333335 -0.00068823528
0.014206279 0.00042333335 -0.00068823528
0.021855814 -0.00127 -0.00031941177
-0.041890308 0.00042333335 -0.00068823528
0.022948604 0 0.00041823529
0.02149155 -0.00127 -0.0021635294
-0.042254575 0 -0.0010570588
0.045168683 0.00042333335 -0.00031941177
0.0018213178 0.00127 -0.00031941177
-0.028048294 0.00042333335 -0.0025323529
-0.034240775 0.00127 -0.0010570588
-0.037883412 0.00084666669 -0.00068823528
0.022948604 0 -0.0029011765
-0.0087423259 -0.00084666669 -0.00031941177
-0.035333566 0 -0.0010570588
0.02549845 -0.00042333335 4.9411763e-05
0.0087423259 0.00084666669 -0.0010570588
-0.025134185 -0.00042333335 -0.00031941177
0.025134185 0.00084666669 -0.0021635294
-0.021855814 0.00127 -0.0021635294
0.009470853 -0.00127 -0.0014258823
0.0036426357 0.00042333335 -0.00068823528
-0.0036426357 0.00084666669 -0.00068823528
-0.017484652 -0.00127 -0.0017947059
-0.012749225 0 -0.0021635294
0.033512246 -0.00084666669 -0.0010570588
0.037154883 0.00042333335 -0.00068823528
-0.019305969 0.00042333335 -0.0010570588
0.034969304 0 -0.0010570588
-0.019305969 -0.00042333335 -0.00031941177
-0.026591239 0.00042333335 -0.0017947059
-0.019305969 0.00127 -0.00068823528
0.009470853 0 -0.0017947059
0.030962402 -0.00127 -0.00068823528
-0.0429831 0 -0.0017947059
-0.027684031 0.00084666669 -0.0017947059
0.017120387 0.00042333335 -0.00031941177
0.021855814 -0.00127 -0.0010570588
-0.024405658 -0.00084666669 -0.0017947059
-0.020763023 0.00042333335 -0.0010570588
0.022584341 0 -0.0029011765
-0.0036426357 -0.00084666669 -0.0010570588
0.00072852714 -0.00127 -0.00068823528
0.026955504 0.00042333335 -0.00068823528
0.035697829 -0.00042333335 -0.00068823528
-0.014570543 -0.00084666669 -0.00031941177
0.031326666 -0.00042333335 -0.0010570588
-0.04079752 0 0.002262353
0.0010927907 -0.00127 -0.0017947059
-0.01529907 0.00127 -0.0017947059
-0.016756123 -0.00084666669 -0.0014258823
0.01019938 0 -0.0051141176
0.029869612 0 -0.0010570588
0.00036426357 0 -0.00031941177
-0.036062092 0.00127 -0.00031941177
-0.017120387 -0.00127 -0.0010570588
-0.045897208 0 0.00041823529
0.017484652 0 4.9411763e-05
0 -0.00042333335 -0.0058517647
-0.019305969 0.00042333335 -0.00031941177
-0.038611937 -0.00127 -0.0017947059
0.038247675 0 -0.00031941177
-0.015663333 0.00127 -0.0021635294
0.0010927907 0.00084666669 -0.00068823528
-0.045532946 -0.00042333335 -0.0017947059
-0.0032783721 -0.00084666669 -0.00068823528
-0.01529907 -0.00084666669 -0.00068823528
-0.013477752 -0.00042333335 -0.00031941177
0.026955504 -0.00084666669 -0.00068823528
-0.027319767 -0.00127 -0.00031941177
0.040433254 0.00084666669 -0.00031941177
-0.0389762 0 -0.00068823528
0.0076495348 -0.00084666669 -0.0010570588
0.015663333 0.00127 -0.00031941177
0.033876512 0 -0.0017947059
-0.004371163 -0.00084666669 -0.0014258823
0.004006899 0 -0.0017947059
0.032419458 -0.00042333335 -0.00031941177
0.012384961 0.00042333335 -0.0010570588
0.033512246 0.00042333335 -0.00068823528
0.025862712 -0.00084666669 -0.0017947059
-0.02039876 -0.00127 -0.0010570588
0.038247675 0 -0.0054829414
-0.040433254 -0.00127 -0.0021635294
0.045168683 0.00042333335 -0.0017947059
-0.026591239 0.00127 -0.0021635294
-0.032783721 0 -0.0047452943
0.023677131 -0.00042333335 -0.00068823528
0.033876512 0.00127 -0.0021635294
-0.030598139 0 -0.0014258823
0.025134185 0 -0.0069582355
0.030962402 -0.00127 -0.00031941177
-0.0076495348 0.00127 -0.0010570588
-0.0032783721 -0.00042333335 -0.0021635294
0.040433254 -0.00127 -0.0021635294
-0.022948604 0 -0.0017947059
0.0014570543 0.00042333335 -0.0025323529
0.025134185 -0.00084666669 -0.0014258823
-0.01019938 0 -0.00327
0.030962402 0 -0.00068823528
-0.0050996901 0.00127 -0.0017947059
-0.013113488 0.00084666669 -0.0014258823
0.022948604 0 -0.0062205885
-0.040068991 0.00042333335 -0.0017947059
0.011292171 -0.00127 -0.0017947059
0.030962402 -0.00084666669 -0.00031941177
-0.017848914 0 -0.0040076473
-0.013113488 -0.00127 -0.0010570588
-0.0389762 -0.00084666669 -0.0017947059
-0.02039876 0.00127 -0.00068823528
-0.002549845 -0.00042333335 -0.0062205885
0.012384961 -0.00084666669 -0.0010570588
-0.033147983 0 -0.0073270588
-0.017848914 0 -0.0051141176
0.046625737 -0.00084666669 -0.0017947059
0 -0.00042333335 -0.00327
0.042254575 0 -0.00031941177
0.018213179 0.00127 -0.0017947059
-0.045168683 0 -0.0010570588
0.037883412 0 -0.00327
0.02549845 0.00084666669 -0.00068823528
-0.041526046 -0.00127 -0.00031941177
0.029141085 -0.00042333335 -0.00068823528
0.043347362 0.00127 -0.00031941177
-0.01019938 -0.00084666669 -0.0017947059
0.0429831 -0.00127 -0.0014258823
-0.035697829 0 0.0018935294
-0.01639186 0 -0.0021635294
-0.0050996901 -0.00084666669 -0.00068823528
0.016027596 -0.00042333335 -0.00031941177
-0.017120387 -0.00127 -0.0014258823
0.0072852713 0 -0.0021635294
-0.043347362 0.00084666669 -0.0017947059
0.032055192 0.00042333335 -0.00031941177
0.024405658 0 -0.00068823528
0.036426358 0.00084666669 -0.0014258823
-0.00072852714 -0.00084666669 -0.00068823528
0.00072852714 -0.00084666669 -0.0021635294
-0.0065567442 0.00042333335 -0.00031941177
0.044440154 -0.00127 -0.00031941177
0.030233875 0.00084666669 -0.00031941177
-0.0050996901 -0.00084666669 -0.0017947059
-0.0098351166 0 -0.0014258823
-0.02549845 0.00042333335 -0.0076958826
-0.017484652 0.00127 -0.00068823528
0.002549845 0 -0.0029011765
0.037883412 0 -0.0029011765
-0.036790621 -0.00042333335 -0.00068823528
-0.036062092 -0.00127 -0.0014258823
0.023312869 0.00127 -0.0017947059
0.034240775 -0.00127 -0.00068823528
-0.034605037 -0.00042333335 -0.0017947059
0.042254575 -0.00127 -0.0014258823
-0.027684031 0 0.00041823529
0.0083780615 0 -0.0017947059
-0.035333566 -0.00042333335 -0.0021635294
0.038247675 0 -0.0080647059
-0.013477752 -0.00084666669 -0.00068823528
-0.026591239 0 -0.0021635294
0.013842016 -0.00127 -0.0010570588
0.0076495348 0 -0.0010570588
-0.0083780615 -0.00127 -0.0021635294
-0.046261471 0.00127 -0.0010570588
0.043347362 -0.00127 -0.00031941177
-0.012020698 -0.00127 -0.0017947059
-0.020034496 0.00127 -0.00068823528
0.02039876 -0.00127 -0.0010570588
0.019305969 -0.00084666669 -0.0010570588
-0.043347362 0.00042333335 -0.0025323529
0.00036426357 0.00042333335 -0.0014258823
0.0014570543 0.00127 -0.00068823528
-0.004371163 0.00127 -0.0010570588
-0.009470853 -0.00084666669 -0.0010570588
0.027684031 0.00084666669 -0.00068823528
-0.013842016 0.00127 -0.0014258823
0.032783721 0.00084666669 -0.0010570588
0.026955504 0 -0.0014258823
-0.026955504 0.00127 -0.0014258823
-0.02549845 0 -0.0073270588
-0.025862712 -0.00084666669 -0.0014258823
0.026226977 0 -0.0017947059
-0.01529907 0.00084666669 -0.00068823528
-0.0076495348 -0.00042333335 -0.0021635294
0.029505348 0.00127 -0.00031941177
0.034969304 -0.00042333335 -0.00068823528
0.020034496 0 -0.0029011765
-0.0069210078 0.00042333335 -0.00068823528
-0.033876512 0.00042333335 -0.0010570588
0.009470853 -0.00127 -0.0017947059
0.046261471 -0.00042333335 -0.0021635294
-0.020763023 0.00127 -0.0014258823
-0.019305969 0.00127 -0.0014258823
-0.02149155 -0.00042333335 -0.00031941177
-0.028412558 -0.00084666669 -0.0021635294
0.015663333 0.00042333335 -0.0010570588
0.01019938 0 -0.00327
0.02549845 0 -0.0084335292
-0.041526046 0.00042333335 -0.0014258823
-0.0061924807 0 -0.0021635294
0.012384961 -0.00042333335 -0.0014258823
0.0058282171 0 -0.00068823528
-0.01529907 -0.00042333335 -0.0058517647
-0.01639186 0.00042333335 -0.0010570588
0.020034496 -0.00042333335 -0.0021635294
0.017484652 0 -0.0054829414
0.016756123 -0.00084666669 -0.00031941177
0.0072852713 0.00084666669 -0.0021635294
0.022584341 0 -0.00031941177
0.010927907 -0.00042333335 -0.0010570588
0.033512246 -0.00127 -0.0021635294
-0.031326666 0.00084666669 -0.0021635294
0.0014570543 -0.00042333335 -0.00068823528
-0.031690929 -0.00084666669 -0.00031941177
0 0.00127 -0.0017947059
0.038611937 -0.00042333335 -0.0014258823
-0.02149155 -0.00084666669 -0.0014258823
-0.014934806 -0.00127 -0.0010570588
0 0 -0.0036388235
0.030962402 0.00084666669 -0.00068823528
0.013842016 0.00084666669 -0.0010570588
-0.044440154 -0.00084666669 -0.00031941177
0.0014570543 -0.00042333335 -0.0017947059
-0.017120387 0.00127 -0.00068823528
0.027319767 -0.00084666669 -0.0021635294
0.013842016 0 -0.0010570588
0.030598139 0 0.00041823529
0.026226977 -0.00084666669 -0.0010570588
-0.029505348 -0.00127 -0.0017947059
-0.038247675 0 -0.0029011765
0.017120387 0.00042333335 -0.0021635294
-0.037154883 0.00127 -0.0017947059
0.018213179 -0.00127 -0.00068823528
-0.016756123 0.00084666669 -0.00068823528
-0.012749225 -0.00042333335 0.00078705885
-0.035697829 -0.00084666669 -0.0021635294
-0.012384961 0 -0.0025323529
-0.004006899 -0.00084666669 -0.0014258823
-0.037883412 -0.00084666669 -0.0017947059
-0.017848914 -0.00084666669 -0.0010570588
-0.036790621 0.00084666669 -0.0014258823
0.00072852714 -0.00084666669 -0.00031941177
0.029141085 0 -0.00068823528
-0.029869612 -0.00042333335 -0.00031941177
0.045168683 0.00084666669 -0.0014258823
-0.0050996901 0 0.0011558824
-0.00036426357 -0.00042333335 -0.00031941177
0.044440154 0.00127 -0.0014258823
-0.038611937 -0.00084666669 -0.0021635294
-0.024769923 0.00042333335 -0.00031941177
0.045168683 -0.00042333335 -0.0021635294
0.045168683 -0.00127 -0.00031941177
0.0072852713 0.00042333335 -0.0021635294
-0.046261471 -0.00042333335 -0.0021635294
-0.024769923 0.00042333335 -0.00068823528
-0.01529907 -0.00127 -0.0017947059
0.0014570543 0.00042333335 -0.00031941177
-0.0029141086 -0.00127 -0.0014258823
0.033512246 0.00084666669 -0.0021635294
0.0050996901 0.00127 -0.0014258823
-0.0054639536 0.00127 -0.0014258823
-0.040433254 0 0.002262353
0.0036426357 0.00084666669 -0.0017947059
0.04079752 0.00042333335 -0.0010570588
-0.022584341 0.00127 -0.0014258823
-0.0069210078 -0.00127 -0.0017947059
0.036062092 -0.00127 -0.00031941177
-0.0065567442 0.00042333335 -0.00068823528
0.022584341 -0.00127 -0.00068823528
0.019305969 -0.00084666669 -0.00031941177
-0.010927907 0.00084666669 -0.00031941177
-0.042618837 0.00127 -0.0010570588
0.0054639536 0.00084666669 -0.00068823528
-0.002549845 0.00042333335 -0.0010570588
-0.02549845 -0.00042333335 -0.0076958826
-0.021127287 -0.00127 -0.0010570588
0.0021855815 -0.00127 -0.0021635294
-0.0429831 0.00084666669 -0.0021635294
-0.026955504 0 -0.0014258823
0.014206279 0.00084666669 -0.00068823528
0.0054639536 0.00127 -0.0017947059
-0.0087423259 0.00042333335 -0.0021635294
0.043347362 0 -0.0029011765
-0.040433254 0 0.00078705885
0.017484652 0.00042333335 -0.0021635294
-0.027684031 0 -0.0069582355
-0.04079752 0 -0.0043764706
0.0029141086 0.00042333335 -0.0010570588
0.032783721 -0.00084666669 -0.00068823528
0.022948604 0 0.002262353
-0.025134185 0 -0.0058517647
-0.0054639536 0.00084666669 -0.0017947059
0.023677131 -0.00127 -0.00068823528
-0.0065567442 -0.00127 -0.0021635294
0.013113488 0.00042333335 -0.00068823528
0.022948604 0 -0.0021635294
0.004006899 -0.00042333335 -0.00031941177
0.010927907 0.00127 -0.0010570588
0.0029141086 -0.00042333335 -0.0021635294
-0.026591239 -0.00084666669 -0.00031941177
-0.02039876 0 -0.0047452943
-0.0098351166 -0.00084666669 -0.0021635294
-0.01529907 0 -0.0069582355
-0.0429831 0 0.0015247059
0.032419458 0 -0.0010570588
-0.023312869 -0.00042333335 -0.00031941177
0.028776821 -0.00042333335 -0.0021635294
-0.033512246 0.00084666669 -0.0017947059
-0.032419458 -0.00127 -0.00068823528
-0.032783721 0 -0.0040076473
0.018941706 -0.00127 -0.0021635294
0.037519146 0.00042333335 -0.00031941177
-0.02549845 0.00042333335 0.00041823529
-0.00072852714 0.00042333335 -0.0017947059
-0.012749225 0.00042333335 4.9411763e-05
-0.040433254 -0.00084666669 -0.0010570588
0.0047354265 0.00127 -0.0021635294
-0.023677131 0 -0.0017947059
0.0058282171 -0.00127 -0.0017947059
-0.043347362 0 0.0011558824
0.030962402 -0.00042333335 -0.0017947059
0.028048294 0.00042333335 -0.0025323529
-0.012020698 -0.00084666669 -0.00068823528
-0.033876512 0.00042333335 -0.0021635294
-0.030233875 0 -0.0047452943
0.013113488 -0.00042333335 -0.0014258823
0.042618837 -0.00042333335 -0.0021635294
-0.0010927907 0.00042333335 -0.0014258823
-0.016027596 0 -0.0010570588
-0.0029141086 -0.00042333335 -0.0021635294
0.014206279 0.00127 -0.00031941177
-0.016027596 0.00042333335 -0.00068823528
-0.027684031 0 -0.0036388235
0.034240775 0.00127 -0.00031941177
0.040433254 0 -0.0084335292
-0.033147983 0 -0.0088023534
0.033147983 0 0.00078705885
-0.014934806 -0.00042333335 -0.00031941177
0.043347362 0 -0.0065894118
0.01639186 -0.00127 -0.00068823528
-0.023312869 -0.00084666669 -0.0014258823
0.044075891 -0.00084666669 -0.0021635294
0.027319767 -0.00042333335 -0.00031941177
0.00036426357 -0.00084666669 -0.00031941177
-0.0014570543 -0.00084666669 -0.0010570588
0.013113488 0.00084666669 -0.00031941177
-0.020034496 0.00084666669 -0.0014258823
0.002549845 0 -0.00327
0.004371163 0.00127 -0.0014258823
-0.035333566 0 0.002262353
0.01529907 0 -0.0047452943
0.042254575 0.00084666669 -0.0021635294
0.02039876 0.00084666669 -0.00068823528
-0.039704729 -0.00042333335 -0.0010570588
0.0061924807 0.00042333335 -0.0014258823
-0.011656434 0.00084666669 -0.00031941177
0.013477752 0.00127 -0.0017947059
0.0065567442 -0.00084666669 -0.0010570588
0.018213179 -0.00042333335 -0.0021635294
0.017120387 0.00127 -0.0021635294
-0.033876512 -0.00042333335 -0.0021635294
0.036062092 -0.00127 -0.00068823528
-0.046261471 0.00042333335 -0.00031941177
0.030233875 -0.00042333335 -0.0017947059
0.022948604 -0.00084666669 -0.0021635294
-0.0080137979 -0.00127 -0.0021635294
-0.02039876 -0.00084666669 -0.0010570588
0.037883412 0 -0.00068823528
0.0069210078 -0.00084666669 -0.00068823528
-0.0091065895 0.00042333335 -0.0017947059
0.043711629 -0.00042333335 -0.00068823528
-0.012749225 0 -0.00031941177
-0.01639186 0.00127 -0.00068823528
0.017484652 -0.00127 -0.00068823528
-0.021855814 0.00084666669 -0.0017947059
-0.041526046 0 -0.00068823528
0.02549845 0.00084666669 -0.0017947059
0.028412558 0.00084666669 -0.00068823528
-0.033512246 0.00084666669 -0.0021635294
0.009470853 0 -0.0014258823
-0.026226977 0 -0.00068823528
-0.0029141086 0 -0.0025323529
0.026226977 -0.00042333335 -0.0021635294
0.044440154 0 -0.0017947059
0.028048294 0 -0.0073270588
0.010563644 -0.00084666669 -0.0017947059
0.032783721 -0.00084666669 -0.0021635294
-0.037883412 0.00084666669 -0.0014258823
0.030962402 -0.00042333335 -0.00031941177
0.019670233 -0.00042333335 -0.00068823528
0.041526046 0.00127 -0.0017947059
0.02039876 -0.00042333335 -0.00031941177
0.02549845 0 -0.00068823528
-0.046261471 -0.00042333335 -0.0010570588
-0.002549845 0.00042333335 -0.0017947059
0.016027596 -0.00127 -0.0014258823
-0.043347362 -0.00042333335 -0.0010570588
0.014934806 -0.00084666669 -0.0021635294
-0.017848914 -0.00042333335 -0.0017947059
0.037883412 0 -0.0076958826
0.017484652 -0.00084666669 -0.0010570588
0.030598139 0 0.00078705885
0.035697829 0 0.0011558824
0.037154883 0.00042333335 -0.0017947059
-0.041890308 0 -0.00031941177
0.030233875 0 -0.00068823528
-0.034969304 0.00127 -0.0017947059
0.045532946 0.00042333335 -0.0017947059
0.0047354265 0.00042333335 -0.0021635294
0.0076495348 -0.00042333335 -0.0040076473
0.046261471 -0.00084666669 -0.0017947059
0.0076495348 0 -0.0084335292
-0.046261471 0.00127 -0.0021635294
-0.0050996901 -0.00042333335 -0.0065894118
0.017120387 0.00084666669 -0.00031941177
0.018577442 -0.00084666669 -0.0021635294
0.040433254 0.00042333335 -0.00068823528
0.016027596 -0.00042333335 -0.0010570588
0.01019938 0.00084666669 -0.0017947059
-0.0061924807 0 -0.00031941177
0.016756123 0.00127 -0.0017947059
0.020763023 0 -0.0010570588
-0.037883412 0 -0.0069582355
0.037883412 0 -0.0054829414
-0.0047354265 -0.00127 -0.00031941177
0.038247675 -0.00084666669 -0.00068823528
0.035697829 0 0.00078705885
0.01529907 -0.00127 -0.00031941177
-0.004371163 -0.00127 -0.00068823528
0.0076495348 0 -0.0017947059
-0.031326666 0 -0.0010570588
-0.011292171 0.00084666669 -0.0021635294
-0.017848914 0 -0.0062205885
0.018213179 -0.00042333335 -0.00031941177
-0.029141085 0 -0.0021635294
-0.025134185 0 -0.00068823528
0.040433254 0 0.0018935294
0.030233875 0 -0.00327
0.033512246 -0.00042333335 -0.0017947059
0.0080137979 0 -0.0017947059
-0.024769923 0.00127 -0.0021635294
0.031326666 -0.00084666669 -0.0010570588
0.031690929 0.00042333335 -0.0014258823
-0.033876512 -0.00127 -0.0021635294
0.028776821 -0.00084666669 -0.0021635294
0.045532946 0.00127 -0.0021635294
0.0083780615 0 -0.0014258823
-0.00036426357 0.00042333335 -0.0010570588
-0.014934806 -0.00127 -0.0021635294
-0.038611937 -0.00042333335 -0.00031941177
0.016027596 -0.00084666669 -0.0021635294
0.0029141086 0.00084666669 -0.00068823528
0.041890308 0 -0.0021635294
-0.025134185 0 -0.00031941177
0.040068991 0 -0.0010570588
-0.0076495348 0.00042333335 -0.0073270588
-0.024041396 -0.00084666669 -0.0010570588
-0.041161783 0 -0.0014258823
0.036426358 0.00127 -0.0014258823
0.027684031 0.00084666669 -0.0010570588
-0.011656434 0.00084666669 -0.0017947059
0.018941706 0.00084666669 -0.00031941177
-0.020763023 0 -0.0021635294
0.041526046 0 -0.0021635294
-0.046625737 -0.00042333335 -0.0014258823
-0.032419458 0 -0.0010570588
0.004371163 -0.00127 -0.0021635294
-0.019305969 -0.00084666669 -0.00068823528
-0.024769923 0 -0.0010570588
-0.0010927907 0 -0.00031941177
0.0047354265 -0.00127 -0.0010570588
-0.034605037 0.00042333335 -0.0017947059
0.012020698 -0.00084666669 -0.0017947059
0.035697829 -0.00084666669 -0.00031941177
0.013842016 0.00042333335 -0.0014258823
0.01529907 0 -0.0017947059
0.037154883 0 -0.00068823528
-0.030598139 -0.00084666669 -0.0021635294
-0.028048294 0 -0.0088023534
-0.041526046 0.00127 -0.0014258823
0.0050996901 0.00042333335 -0.0021635294
-0.0050996901 0.00127 -0.0010570588
0.042254575 -0.00127 -0.00031941177
-0.015663333 -0.00084666669 -0.0017947059
-0.023677131 0.00127 -0.0014258823
0.013842016 0 -0.0021635294
-0.022584341 0 -0.0069582355
0.045168683 -0.00042333335 -0.00031941177
-0.0076495348 -0.00127 -0.0021635294
-0.02039876 0.00084666669 -0.00068823528
-0.017848914 -0.00042333335 -0.00068823528
0.028048294 0 0.0015247059
0.045532946 0 0.00041823529
-0.002549845 0.00084666669 -0.0010570588
-0.0010927907 0.00127 -0.00068823528
0.045897208 0 -0.00031941177
-0.0083780615 0.00127 -0.0017947059
-0.0010927907 0.00127 -0.0014258823
0.01019938 -0.00042333335 0.002262353
0.002549845 0 -0.0073270588
-0.027684031 0.00127 -0.0021635294
0.032055192 -0.00042333335 -0.0014258823
-0.0076495348 -0.00127 -0.0017947059
0.012020698 0.00127 -0.0010570588
0.029141085 -0.00127 -0.0017947059
-0.0429831 0.00042333335 -0.0021635294
-0.044440154 0.00127 -0.0010570588
0.029869612 0 -0.0021635294
0.031690929 -0.00084666669 -0.0014258823
0.0076495348 0 -0.0036388235
-0.0047354265 -0.00084666669 -0.00068823528
-0.00072852714 0.00042333335 -0.0010570588
0.009470853 -0.00084666669 -0.0017947059
0.046625737 -0.00042333335 -0.00068823528
-0.031326666 0.00127 -0.00068823528
-0.044075891 0 -0.0010570588
-0.024769923 0.00084666669 -0.0014258823
-0.02039876 0 -0.0036388235
0.030598139 -0.00042333335 -0.0021635294
-0.009470853 0 -0.0021635294
0.032783721 0 -0.00031941177
0.01529907 0 -0.0080647059
-0.04079752 0 -0.00031941177
-0.019305969 -0.00042333335 -0.0014258823
-0.0047354265 0.00084666669 -0.0017947059
-0.0429831 0 -0.0054829414
-0.035697829 0 -0.0036388235
-0.031690929 0.00042333335 -0.00068823528
-0.032055192 -0.00042333335 -0.0014258823
-0.004006899 0.00127 -0.0021635294
0.02549845 0.00042333335 4.9411763e-05
0.046625737 0.00084666669 -0.0014258823
-0.0014570543 -0.00084666669 -0.00068823528
-0.033876512 0.00084666669 -0.0014258823
0.035697829 0 -0.0017947059
-0.004006899 0.00042333335 -0.0017947059
0.037883412 0 -0.0065894118
-0.002549845 -0.00042333335 -0.0054829414
-0.009470853 0.00127 -0.0017947059
-0.022220077 0 -0.0021635294
-0.0087423259 -0.00042333335 -0.00068823528
-0.0054639536 -0.00084666669 -0.00068823528
-0.035697829 0 0.00078705885
-0.00072852714 -0.00042333335 -0.0014258823
-0.040068991 0.00127 -0.00031941177
0.038611937 -0.00127 -0.0021635294
-0.0014570543 -0.00127 -0.00031941177
0.014934806 -0.00084666669 -0.00031941177
-0.030962402 0.00127 -0.0010570588
0.039704729 0.00042333335 -0.0010570588
0.043711629 0.00127 -0.0014258823
-0.037883412 -0.00042333335 -0.00068823528
0.019670233 0 -0.0017947059
-0.0061924807 0.00084666669 -0.0017947059
-0.0091065895 -0.00042333335 -0.0014258823
0.0032783721 0 -0.0010570588
-0.024041396 0.00084666669 -0.00031941177
0.01019938 -0.00042333335 -0.0017947059
-0.01529907 -0.00127 -0.0014258823
-0.0050996901 0.00042333335 4.9411763e-05
-0.042254575 0.00084666669 -0.0014258823
-0.022948604 0.00127 -0.0021635294
0.0032783721 0.00084666669 -0.0014258823
-0.0429831 0.00084666669 -0.0010570588
0.037883412 0.00084666669 -0.0014258823
0.031326666 0.00127 -0.00031941177
-0.01529907 0 4.9411763e-05
0.0058282171 -0.00127 -0.0014258823
-0.045897208 0 -0.0029011765
0.04079752 0 0.00078705885
-0.013842016 0.00127 -0.00068823528
-0.012384961 0.00084666669 -0.0010570588
-0.0061924807 0.00127 -0.0014258823
-0.02039876 -0.00042333335 -0.0076958826
0.041526046 -0.00084666669 -0.0014258823
-0.039340466 -0.00084666669 -0.0021635294
-0.044075891 -0.00084666669 -0.0017947059
0.040068991 -0.00042333335 -0.0010570588
-0.040068991 -0.00084666669 -0.0021635294
0.00036426357 0.00127 -0.00068823528
0.029869612 0.00084666669 -0.00031941177
0.0050996901 -0.00042333335 -0.0054829414
-0.01019938 0.00042333335 -0.0017947059
0.022948604 -0.00042333335 -0.0051141176
-0.028048294 0 -0.0029011765
-0.038247675 0 -0.0047452943
-0.010563644 0.00084666669 -0.0017947059
0.012749225 0.00127 -0.0021635294
-0.0069210078 0 -0.0021635294
0.032783721 0 -0.0088023534
-0.043347362 -0.00042333335 -0.0025323529
-0.029141085 0 -0.0014258823
0 -0.00042333335 -0.0036388235
0.022584341 0.00084666669 -0.00031941177
0.0076495348 -0.00042333335 -0.0076958826
-0.020034496 -0.00084666669 -0.0021635294
0.0429831 0 -0.0054829414
-0.01529907 0 -0.0080647059
-0.035697829 0.00127 -0.0021635294
0.038611937 -0.00042333335 -0.00031941177
0.029505348 0.00042333335 -0.00031941177
-0.00072852714 0 -0.0014258823
-0.034969304 0.00042333335 -0.00031941177
-0.039340466 0.00042333335 -0.00031941177
0.030233875 0.00127 -0.0010570588
-0.012749225 0.00127 -0.00068823528
0.011656434 0.00127 -0.00068823528
0.043711629 -0.00127 -0.00031941177
-0.0069210078 -0.00127 -0.00068823528
0.016027596 -0.00042333335 -0.0014258823
-0.0091065895 -0.00084666669 -0.00068823528
-0.04079752 0.00042333335 -0.0014258823
-0.033147983 0 -0.0084335292
0.0021855815 0.00127 -0.0014258823
-0.042254575 0 -0.0021635294
0.04079752 0.00127 -0.0010570588
-0.022220077 -0.00127 -0.0014258823
-0.013842016 -0.00084666669 -0.0017947059
-0.04079752 0.00084666669 -0.0017947059
0.026591239 -0.00127 -0.0010570588
-0.020763023 0 -0.00068823528
-0.037883412 0.00127 -0.0017947059
0.045168683 -0.00084666669 -0.0021635294
-0.036426358 -0.00042333335 -0.00068823528
0.038611937 0.00084666669 -0.0014258823
0.023312869 -0.00127 -0.00031941177
-0.026955504 -0.00084666669 -0.0014258823
0.018577442 0.00127 -0.0017947059
0.029869612 0.00042333335 -0.0014258823
-0.032783721 0.00084666669 -0.0021635294
0.029505348 -0.00042333335 -0.00031941177
0.0021855815 0 0.0018935294
-0.036426358 0.00084666669 -0.0021635294
0.046625737 -0.00084666669 -0.00068823528
0.012020698 0.00042333335 -0.00068823528
0.024405658 -0.00042333335 -0.0021635294
-0.042618837 0.00127 -0.00031941177
-0.028412558 0.00084666669 -0.00031941177
-0.037154883 0.00127 -0.00031941177
0.00036426357 -0.00084666669 -0.0010570588
-0.043711629 -0.00084666669 -0.0010570588
-0.025862712 -0.00127 -0.0017947059
-0.042618837 0.00042333335 -0.0010570588
0.032783721 0 0.00078705885
0.036790621 0.00084666669 -0.0014258823
-0.01019938 0.00042333335 -0.0029011765
0.035697829 -0.00127 -0.0014258823
0.02149155 0.00127 -0.0021635294
0.0050996901 -0.00127 -0.0021635294
-0.025862712 -0.00042333335 -0.00031941177
-0.011292171 0 -0.00068823528
0.045532946 -0.00084666669 -0.0014258823
-0.022948604 0.00127 -0.0010570588
-0.035333566 0 0.0015247059
0.039704729 -0.00084666669 -0.0014258823
-0.02039876 0.00084666669 -0.00031941177
0 -0.00042333335 -0.0080647059
0.040433254 0.00127 -0.00031941177
0.004006899 0.00127 -0.0021635294
-0.004006899 -0.00042333335 -0.00031941177
0.0050996901 0 -0.0010570588
0.027319767 -0.00084666669 -0.00031941177
-0.044440154 0 -0.0017947059
0.01639186 0 -0.0021635294
0.024405658 -0.00042333335 -0.0010570588
-0.012020698 -0.00084666669 -0.00031941177
0.015663333 0.00084666669 -0.0017947059
0.0050996901 -0.00084666669 -0.0010570588
0.013113488 0 -0.0017947059
0.02039876 -0.00127 -0.0017947059
-0.038247675 -0.00042333335 -0.00031941177
0.02039876 -0.00042333335 -0.00327
-0.0429831 -0.00084666669 -0.0010570588
0.028776821 0 -0.00031941177
0.025862712 -0.00084666669 -0.0010570588
-0.029505348 -0.00042333335 -0.0010570588
-0.037519146 -0.00127 -0.00031941177
-0.029141085 0 -0.0017947059
-0.04699 -0.00084666669 -0.0021635294
-0.0072852713 -0.00042333335 -0.0017947059
0.039340466 -0.00084666669 -0.0014258823
0.0061924807 0.00127 -0.0017947059
-0.0080137979 -0.00084666669 -0.00031941177
-0.037883412 0 0.0018935294
0.044075891 0.00042333335 -0.00031941177
0.02039876 -0.00042333335 -0.0025323529
-0.019670233 -0.00127 -0.0017947059
-0.012749225 -0.00042333335 -0.0017947059
-0.017120387 0.00042333335 -0.0021635294
0.032055192 0.00042333335 -0.0010570588
-0.021127287 0.00084666669 -0.0014258823
-0.032783721 0.00127 -0.00031941177
0.030962402 -0.00042333335 -0.00068823528
-0.030962402 0 -0.00068823528
0.043347362 -0.00084666669 -0.0017947059
0.028048294 -0.00042333335 -0.0051141176
-0.011656434 0.00127 -0.0014258823
0.0389762 0.00042333335 -0.00068823528
0.013842016 0.00042333335 -0.00031941177
-0.04079752 0.00127 -0.00068823528
0.0050996901 0 -0.0084335292
-0.017484652 0 -0.0040076473
0.0098351166 0.00042333335 -0.0014258823
-0.04079752 0.00084666669 -0.00068823528
0.017484652 -0.00084666669 -0.00068823528
0.036062092 0 -0.0010570588
0.02149155 -0.00127 -0.00031941177
-0.036062092 0.00042333335 -0.00068823528
0.014934806 -0.00042333335 -0.00068823528
0.0029141086 0.00084666669 -0.00031941177
0.022948604 0 0.0026311765
0.036790621 -0.00084666669 -0.00031941177
0.0032783721 0 -0.0021635294
0.004006899 0.00127 -0.0017947059
0.044440154 0.00042333335 -0.00031941177
-0.010563644 -0.00042333335 -0.00068823528
-0.045532946 0 -0.0054829414
0.017120387 -0.00127 -0.00068823528
0.004371163 0.00127 -0.00068823528
0.019670233 0.00042333335 -0.0014258823
0.028412558 0.00042333335 -0.0021635294
0.014570543 -0.00127 -0.00031941177
0.031690929 -0.00127 -0.0010570588
0.034240775 -0.00042333335 -0.0010570588
-0.043347362 0 -0.0010570588
-0.0018213178 -0.00127 -0.0021635294
-0.033512246 0.00042333335 -0.00068823528
0.011656434 -0.00084666669 -0.00031941177
-0.0018213178 0.00127 -0.0010570588
0.046625737 -0.00042333335 -0.00031941177
0.002549845 0 -0.0043764706
-0.002549845 -0.00042333335 -0.0025323529
0.029869612 -0.00084666669 -0.00031941177
-0.020034496 0 -0.0025323529
0.029505348 -0.00084666669 -0.0017947059
0.017848914 0.00127 -0.0010570588
0.027684031 0 -0.0080647059
-0.036790621 0.00042333335 -0.00031941177
0.028776821 0.00127 -0.0014258823
-0.031326666 0.00084666669 -0.00068823528
0.039704729 0 -0.0014258823
0.014934806 0.00127 -0.00068823528
-0.026591239 -0.00042333335 -0.0010570588
0.01019938 0 -0.0054829414
0.018941706 0.00127 -0.0010570588
-0.027684031 -0.00127 -0.00068823528
-0.041161783 0.00084666669 -0.0017947059
0.0018213178 -0.00042333335 -0.0017947059
-0.0061924807 0.00127 -0.00031941177
-0.004371163 -0.00127 -0.0021635294
0.022584341 -0.00127 -0.0017947059
-0.032419458 -0.00127 -0.0017947059
0.020034496 0.00127 -0.0017947059
-0.035333566 0 -0.0084335292
0.030233875 0 -0.0025323529
0.0389762 0.00127 -0.00031941177
-0.00036426357 -0.00042333335 -0.0014258823
-0.02039876 -0.00084666669 -0.00031941177
-0.020034496 -0.00042333335 -0.00031941177
0.040433254 0.00084666669 -0.0010570588
-0.035333566 -0.00042333335 -0.0017947059
0.0050996901 -0.00042333335 -0.00031941177
-0.032783721 0 -0.0058517647
-0.014934806 -0.00042333335 -0.0010570588
-0.02149155 0.00084666669 -0.0017947059
-0.014206279 -0.00042333335 -0.00031941177
-0.028048294 -0.00127 -0.00031941177
-0.0098351166 -0.00127 -0.0017947059
0.017848914 0.00042333335 4.9411763e-05
0.013477752 -0.00042333335 -0.0017947059
-0.01529907 -0.00127 -0.00031941177
0.0076495348 -0.00042333335 -0.0036388235
-0.026226977 0.00127 -0.00068823528
0.014570543 -0.00127 -0.0010570588
-0.0021855815 -0.00084666669 -0.0014258823
0.0076495348 -0.00042333335 4.9411763e-05
-0.019305969 0.00042333335 -0.0017947059
0.0036426357 -0.00127 -0.0017947059
0.041161783 -0.00084666669 -0.0014258823
-0.039704729 0.00084666669 -0.0017947059
-0.0098351166 0 -0.00068823528
0.046261471 0.00084666669 -0.0014258823
-0.028412558 0.00084666669 -0.0010570588
-0.043711629 -0.00127 -0.0014258823
0.016756123 0.00042333335 -0.0021635294
0.046625737 0 -0.0021635294
-0.037154883 -0.00127 -0.00031941177
0.022948604 0.00127 -0.0014258823
0.037883412 -0.00084666669 -0.0014258823
-0.0076495348 0 -0.0036388235
-0.045532946 -0.00042333335 -0.0014258823
0.02039876 -0.00042333335 -0.0010570588
0.0072852713 -0.00084666669 -0.0010570588
0.02039876 -0.00084666669 -0.0021635294
-0.017848914 0 -0.0058517647
0.00072852714 -0.00042333335 -0.0014258823
-0.02039876 0 -0.0062205885
-0.045897208 0.00042333335 -0.00068823528
-0.035333566 0.00042333335 -0.00068823528
-0.01019938 0 -0.0065894118
-0.0061924807 0 -0.00068823528
0.042254575 -0.00127 -0.0017947059
0.043347362 -0.00042333335 -0.00031941177
-0.012749225 -0.00042333335 -0.0025323529
-0.042618837 0.00127 -0.00068823528
-0.0029141086 -0.00127 -0.00068823528
0.037154883 -0.00042333335 -0.00068823528
-0.0014570543 0.00042333335 -0.0017947059
0.0080137979 0.00042333335 -0.0010570588
0.034605037 -0.00042333335 -0.00031941177
0.038247675 0 -0.0017947059
0.021127287 0.00042333335 -0.0014258823
0.030598139 0 -0.0062205885
-0.004006899 0.00042333335 -0.00031941177
-0.01529907 -0.00084666669 -0.00031941177
-0.04079752 0 -0.0080647059
-0.041890308 0.00084666669 -0.00031941177
0.0072852713 0.00127 -0.0010570588
-0.0029141086 0.00084666669 -0.00031941177
0.030233875 0 0.0011558824
-0.019670233 0 -0.00068823528
-0.027684031 0.00042333335 4.9411763e-05
0.034605037 0 -0.0017947059
0.040433254 -0.00042333335 -0.0021635294
0.038247675 0.00127 -0.0017947059
-0.020034496 0.00042333335 -0.0017947059
-0.012749225 -0.00084666669 -0.00031941177
-0.024041396 0.00042333335 -0.0014258823
-0.02039876 -0.00042333335 -0.0073270588
-0.040433254 0 -0.0040076473
0.016756123 0.00084666669 -0.0017947059
0.028048294 0 -0.0021635294
-0.026955504 0.00084666669 -0.0017947059
-0.039340466 0.00084666669 -0.0017947059
-0.0050996901 0 0.0015247059
-0.0087423259 0 -0.0017947059
0.029869612 -0.00084666669 -0.0021635294
0.046261471 0.00042333335 -0.0014258823
0.044440154 -0.00084666669 -0.0021635294
0.004371163 0.00127 -0.0017947059
-0.020763023 0.00084666669 -0.00031941177
0.022948604 0 -0.0091711767
0.033876512 0.00127 -0.0010570588
-0.0061924807 0.00127 -0.0010570588
-0.028048294 0 -0.0073270588
0.035697829 0.00084666669 -0.0017947059
0.010563644 0 -0.0010570588
-0.027684031 0.00084666669 -0.00031941177
0.027319767 -0.00042333335 -0.0021635294
0.036790621 0 -0.0017947059
-0.044075891 0.00042333335 -0.0010570588
-0.01639186 -0.00127 -0.0021635294
0.019670233 0.00042333335 -0.00031941177
0.012749225 0 -0.0043764706
0.028048294 0 0.002262353
0.038611937 -0.00127 -0.0014258823
-0.020034496 -0.00042333335 -0.0021635294
0.044440154 0 -0.00068823528
0 -0.00084666669 -0.0021635294
0.027684031 0 -0.0088023534
-0.0080137979 -0.00084666669 -0.0010570588
0.045168683 -0.00084666669 -0.0017947059
0.024041396 0.00127 -0.0021635294
-0.039704729 -0.00084666669 -0.0010570588
0.0098351166 0.00127 -0.00068823528
0.02039876 0 -0.0084335292
0.046625737 -0.00042333335 -0.0014258823
0.032055192 -0.00084666669 -0.0021635294
0.033147983 0.00042333335 -0.0017947059
-0.033876512 -0.00084666669 -0.0021635294
-0.040433254 0.00042333335 -0.00068823528
-0.041526046 -0.00084666669 -0.0017947059
0.0018213178 0.00127 -0.0021635294
-0.0076495348 0 -0.00327
-0.039704729 -0.00084666669 -0.0014258823
0.033147983 0.00127 -0.0010570588
-0.009470853 -0.00042333335 -0.00031941177
-0.0010927907 0.00084666669 -0.0017947059
-0.022948604 -0.00042333335 0.002262353
0.0069210078 -0.00127 -0.00031941177
0.043347362 -0.00084666669 -0.0014258823
0.017848914 0 -0.0054829414
0.0429831 0 0.002262353
0.040068991 -0.00084666669 -0.0014258823
0.026591239 -0.00084666669 -0.00068823528
-0.043347362 0.00127 -0.0017947059
0.025134185 0 4.9411763e-05
-0.002549845 -0.00042333335 -0.0084335292
0.0036426357 -0.00042333335 -0.0014258823
-0.016756123 -0.00042333335 -0.0010570588
0.018577442 -0.00127 -0.0017947059
-0.040433254 0 -0.0062205885
-0.041890308 0.00127 -0.0021635294
-0.018941706 -0.00042333335 -0.0010570588
-0.044440154 -0.00042333335 -0.0014258823
-0.031326666 0.00042333335 -0.0021635294
0.033147983 0 -0.0051141176
0.037883412 0 -0.0010570588
-0.02039876 0.00042333335 -0.0014258823
0.030233875 0.00042333335 -0.0010570588
-0.02039876 0 -0.0017947059
-0.017848914 0.00042333335 -0.0080647059
-0.036062092 0 -0.0014258823
-0.045532946 0 0.0011558824
-0.032783721 -0.00084666669 -0.0010570588
-0.01529907 0.00042333335 -0.0017947059
0.040068991 -0.00084666669 -0.0010570588
-0.026226977 -0.00084666669 -0.0021635294
0.022584341 0 -0.0047452943
0.022584341 0 -0.0080647059
0.0072852713 0.00042333335 -0.0010570588
-0.010563644 0 -0.0010570588
-0.014206279 -0.00084666669 -0.00031941177
-0.0389762 0.00127 -0.0014258823
-0.021855814 0.00042333335 -0.00068823528
0.011656434 -0.00042333335 -0.0014258823
-0.023677131 0.00127 -0.0010570588
0.037883412 0 -0.0080647059
0.028412558 0.00084666669 -0.0021635294
-0.04079752 0 -0.00327
0.01529907 0.00042333335 -0.0021635294
-0.018941706 -0.00084666669 -0.00031941177
0.020034496 0 -0.0054829414
-0.017848914 0 0.002262353
-0.0065567442 0.00084666669 -0.0021635294
-0.020763023 0.00084666669 -0.0021635294
-0.0091065895 -0.00127 -0.0014258823
0.019670233 0.00127 -0.0017947059
-0.01639186 -0.00042333335 -0.0014258823
-0.014570543 0 -0.0010570588
-0.045897208 0 -0.0058517647
-0.0389762 -0.00084666669 -0.0021635294
-0.022220077 -0.00042333335 -0.0014258823
0.022948604 0.00042333335 4.9411763e-05
-0.044804417 -0.00084666669 -0.0014258823
-0.041890308 0.00042333335 -0.00031941177
0.046261471 -0.00084666669 -0.0014258823
-0.002549845 0 -0.0036388235
0.028048294 0 -0.0014258823
-0.032419458 -0.00042333335 -0.00068823528
-0.032783721 0 -0.0036388235
-0.044440154 -0.00084666669 -0.0010570588
-0.0061924807 -0.00042333335 -0.00031941177
-0.0069210078 0.00042333335 -0.0021635294
0.0018213178 0.00127 -0.0010570588
-0.030962402 -0.00084666669 -0.00031941177
0.030598139 0 -0.0036388235
0.025134185 -0.00084666669 -0.0017947059
0.0429831 0 -0.0058517647
0.0429831 0 -0.0029011765
-0.032783721 0 -0.0029011765
0.010927907 -0.00084666669 -0.0010570588
0.025862712 0.00042333335 -0.0017947059
0.041161783 -0.00084666669 -0.0017947059
-0.017848914 0 -0.00327
0.01639186 -0.00084666669 -0.0010570588
-0.0076495348 -0.00042333335 4.9411763e-05
-0.0021855815 0.00084666669 -0.00031941177
0.046625737 -0.00042333335 -0.0017947059
0.0018213178 -0.00127 -0.00031941177
0.0065567442 0.00127 -0.0010570588
-0.035697829 -0.00042333335 -0.0021635294
0.034969304 0.00127 -0.0017947059
-0.01529907 0 -0.0088023534
-0.0098351166 0.00127 -0.00031941177
-0.042254575 0.00042333335 -0.00068823528
-0.044804417 0.00084666669 -0.0014258823
0.0083780615 0.00084666669 -0.00068823528
0.0072852713 -0.00084666669 -0.00068823528
0.031326666 0 -0.0021635294
-0.014934806 0.00084666669 -0.0010570588
0.012020698 0.00042333335 -0.0010570588
-0.02549845 -0.00042333335 -0.0073270588
-0.034969304 0.00127 -0.00031941177
0.030598139 0.00127 -0.00031941177
-0.030233875 0 -0.0054829414
-0.017484652 -0.00127 -0.0014258823
-0.036062092 0.00042333335 -0.0021635294
0.0083780615 0.00084666669 -0.00031941177
0.0076495348 0.00127 -0.0021635294
-0.030233875 0 0.00078705885
0.0072852713 0 -0.00068823528
0.024769923 0.00127 -0.00031941177
0.02149155 0.00042333335 -0.0021635294
0.040433254 0.00042333335 -0.0021635294
0.039340466 0.00084666669 -0.00031941177
0.0065567442 -0.00127 -0.0014258823
-0.01019938 0 0.0015247059
0.028048294 0.00042333335 -0.0010570588
-0.0429831 0 -0.0076958826
0.017484652 -0.00127 -0.0010570588
-0.024041396 0.00127 -0.0014258823
0.014206279 0.00084666669 -0.0017947059
-0.037883412 0.00042333335 -0.0014258823
-0.023677131 0.00042333335 -0.00031941177
-0.010563644 -0.00127 -0.0014258823
-0.0036426357 0.00042333335 -0.00031941177
0.022584341 -0.00127 -0.0010570588
-0.012749225 -0.00042333335 -0.00327
-0.0429831 0 -0.0036388235
0.0087423259 -0.00084666669 -0.0021635294
-0.022584341 0 -0.0010570588
0.035333566 0.00084666669 -0.0014258823
0.017848914 0 0.0018935294
-0.015663333 0.00084666669 -0.0021635294
0.033147983 0 -0.0084335292
-0.020034496 0.00127 -0.0021635294
0.0083780615 -0.00042333335 -0.0021635294
-0.030598139 0.00084666669 -0.0017947059
-0.0014570543 0.00084666669 -0.0010570588
-0.033512246 0.00127 -0.0021635294
0.021127287 0 -0.00031941177
-0.022584341 0 -0.0084335292
-0.0050996901 0.00042333335 0.002262353
0.022948604 -0.00084666669 -0.00031941177
0.023312869 -0.00127 -0.0010570588
-0.045168683 0 -0.0021635294
-0.038611937 -0.00127 -0.00031941177
0.039704729 0.00127 -0.0017947059
-0.01019938 0 -0.0069582355
-0.040068991 0.00042333335 -0.0014258823
0.021855814 -0.00042333335 -0.00068823528
0.0429831 0.00042333335 -0.0017947059
-0.04079752 0 -0.0047452943
-0.041890308 0.00127 -0.0010570588
-0.042618837 0 -0.0021635294
0.043711629 -0.00042333335 -0.00031941177
-0.02149155 -0.00042333335 -0.0014258823
0.030598139 0.00127 -0.0010570588
-0.0087423259 -0.00084666669 -0.00068823528
0.01019938 -0.00127 -0.0014258823
-0.019305969 0 -0.0021635294
-0.032419458 -0.00084666669 -0.00031941177
-0.0036426357 0.00127 -0.00031941177
0.0080137979 -0.00127 -0.0014258823
0.037154883 -0.00042333335 -0.0010570588
0.0429831 0 -0.0073270588
-0.016027596 -0.00127 -0.00031941177
-0.017848914 -0.00042333335 0.0015247059
0.012020698 -0.00084666669 -0.0010570588
0.024041396 0.00127 -0.00031941177
-0.041526046 0 -0.0014258823
0.019670233 -0.00127 -0.0014258823
0.028412558 -0.00127 -0.0017947059
0.0083780615 0 -0.00031941177
-0.00036426357 -0.00084666669 -0.0021635294
0.029505348 0.00084666669 -0.0014258823
-0.036426358 -0.00084666669 -0.00031941177
0 -0.00042333335 -0.0014258823
0.042618837 0.00084666669 -0.0014258823
-0.030598139 0 -0.0010570588
0.025134185 0 -0.0065894118
0.002549845 -0.00042333335 -0.00068823528
0.017848914 0 -0.0017947059
0.014206279 0 -0.0010570588
0.02149155 -0.00084666669 -0.0017947059
0.043347362 0.00042333335 -0.0010570588
-0.028776821 0.00127 -0.0017947059
-0.0050996901 0.00042333335 -0.0084335292
-0.012384961 -0.00042333335 -0.00068823528
-0.043347362 0.00042333335 -0.0021635294
-0.01529907 0.00084666669 -0.0010570588
-0.039340466 0.00127 -0.0010570588
-0.011656434 -0.00127 -0.0010570588
0.0069210078 0.00127 -0.0021635294
-0.032055192 0.00084666669 -0.0014258823
-0.027684031 -0.00084666669 -0.0010570588
-0.0098351166 -0.00127 -0.0014258823
0.044804417 0.00127 -0.00068823528
0.030962402 0.00127 -0.00031941177
-0.016756123 0.00042333335 -0.0014258823
0.020763023 0.00084666669 -0.0010570588
0.0076495348 0.00042333335 0.0011558824
-0.025134185 0.00042333335 -0.0017947059
-0.002549845 -0.00127 -0.0021635294
-0.035697829 0 -0.0021635294
0.01529907 0.00042333335 -0.0029011765
-0.030598139 0 0.0018935294
-0.0050996901 -0.00042333335 0.0011558824
0.0098351166 0.00084666669 -0.00068823528
-0.0010927907 -0.00127 -0.0017947059
0.004371163 0.00127 -0.00031941177
-0.0389762 0.00084666669 -0.00068823528
-0.00072852714 0.00084666669 -0.0017947059
-0.013842016 0.00042333335 -0.00068823528
0.014570543 0.00042333335 -0.0021635294
0.033147983 -0.00042333335 -0.00068823528
0.035333566 0.00127 -0.00031941177
-0.027319767 -0.00042333335 -0.00031941177
-0.043347362 0 -0.0073270588
-0.026591239 0.00127 -0.00068823528
-0.0083780615 0 -0.00031941177
0.029869612 0.00127 -0.00068823528
0.02039876 0.00084666669 -0.0017947059
0.0080137979 -0.00084666669 -0.0010570588
-0.010927907 0.00127 -0.0014258823
0.028776821 0.00084666669 -0.0021635294
-0.029141085 -0.00127 -0.0017947059
-0.024405658 0 -0.0010570588
0.034240775 -0.00042333335 -0.00068823528
0.027319767 0.00084666669 -0.00031941177
-0.0076495348 0.00084666669 -0.00031941177
0.0050996901 -0.00084666669 -0.00031941177
-0.020034496 -0.00127 -0.00031941177
-0.00072852714 -0.00084666669 -0.0025323529
0.018941706 -0.00042333335 -0.0014258823
-0.02549845 0.00042333335 -0.0065894118
-0.030233875 0 -0.0058517647
0.016756123 0.00042333335 -0.0010570588
0.033147983 0.00084666669 -0.0010570588
0.01019938 0.00042333335 -0.0017947059
0.024769923 0.00042333335 -0.00068823528
0.043347362 0 -0.0080647059
-0.029141085 0.00042333335 -0.0021635294
0.044804417 0 -0.0017947059
0.022948604 0 -0.0080647059
0.032783721 0.00084666669 -0.0017947059
-0.0054639536 -0.00042333335 -0.0014258823
0.037519146 0 -0.0014258823
0.0098351166 -0.00042333335 -0.0014258823
0 -0.00042333335 -0.0021635294
