# .PCD v0.7 - Point Cloud Data file format
VERSION 0.7
FIELDS x y z
SIZE 4 4 4
TYPE F F F
COUNT 1 1 1
WIDTH 1232
HEIGHT 1
VIEWPOINT 0 0 0 1 0 0 0
POINTS 1232
DATA ascii
0.028117208 -0.00127 -0.0021545456
0.035815969 0.00127 -0.0021545456
-0.024100464 0.00018142856 -0.0045600003
-0.030795038 0.00127 -0.00043636368
0.016066976 -0.00090714288 -9.2727329e-05
0.023431007 0.00018142856 -0.0021545456
0.026778294 0.00018142856 0.0019690909
0.0090376744 0.00018142856 -0.002498182
0.0016736434 -0.00018142856 -9.2727329e-05
0.039497983 0.00018142856 -0.0059345458
0.007029302 0.00018142856 -0.002498182
0 -0.00127 -0.0014672728
-0.0023431007 0.00127 -0.00043636368
0.011046046 0.00018142856 -9.2727329e-05
0.039497983 -0.00018142856 0.0023127273
0.027447751 0.00090714288 -0.0021545456
-0.03782434 -0.00127 -0.0011236364
-0.040502168 -0.00018142856 -0.0021545456
-0.039163254 0.00127 -0.00078000006
-0.032803409 0.00018142856 -9.2727329e-05
0.041841082 0.00018142856 0.00093818177
-0.0013389146 0.00090714288 -0.002498182
0.010376588 -0.00018142856 -9.2727329e-05
-0.0093724029 -0.00127 -9.2727329e-05
-0.032133952 -0.00054428569 -0.0021545456
-0.021422634 -0.00018142856 -0.0069654547
-0.036150698 -0.00127 -0.00078000006
-0.029456124 0.00127 -0.0011236364
0.0016736434 -0.00127 -0.0011236364
-0.016736433 -0.00127 -0.00043636368
0.0013389146 -0.00018142856 -0.005247273
0.0033472867 -0.00090714288 -9.2727329e-05
0.013054418 -0.00127 -0.0018109091
-0.028451936 0.00127 -0.0018109091
0.027113022 -0.00127 -0.00043636368
-0.0016736434 -0.00127 -9.2727329e-05
-0.0066945734 0.00127 -0.0021545456
-0.0043514725 0.00127 -0.00043636368
-0.001004186 -0.00018142856 0.00093818177
-0.023431007 0.00127 -0.00078000006
0.038159069 0.00018142856 -0.0021545456
-0.0080334879 0.00054428569 -0.00043636368
0.0090376744 -0.00127 -0.00043636368
0.0043514725 -0.00127 -0.0021545456
-0.015732247 0.00054428569 -0.0021545456
-0.033472866 -0.00054428569 -0.0021545456
-0.033807594 -0.00054428569 -0.00043636368
-0.0013389146 0.00054428569 -0.002498182
0.0066945734 0.00090714288 -0.002498182
-0.01004186 -0.00054428569 -0.00043636368
0.029456124 -0.00018142856 0.0023127273
-0.029456124 -0.00018142856 0.00025090904
-0.020418448 -0.00090714288 -9.2727329e-05
-0.017071161 0.00018142856 -0.0021545456
0.0063598445 -0.00018142856 0.0016254545
0.023431007 -0.00054428569 -0.00043636368
-0.003012558 -0.00127 -0.0018109091
-0.031464495 -0.00090714288 -9.2727329e-05
0.039497983 -0.00018142856 -0.0035290911
0.021757364 0.00018142856 -0.0045600003
0.012719689 -0.00090714288 -9.2727329e-05
0.00502093 0.00018142856 -9.2727329e-05
0.037154883 -0.00127 -0.0021545456
0.0036820155 0.00018142856 0.00059454539
0.019079534 -0.00018142856 -0.005247273
-0.0043514725 0.00127 -0.0011236364
0.034477051 -0.00018142856 -0.0031854548
0.024435192 -0.00054428569 -0.0021545456
0.0090376744 -0.00127 -0.0021545456
-0.026778294 0.00018142856 -0.0028418184
0.029456124 -0.00127 -0.00043636368
-0.015397519 -0.00127 -0.0014672728
0.019079534 0.00018142856 -9.2727329e-05
0.035815969 -0.00090714288 -0.0021545456
0.0043514725 0.00018142856 -0.002498182
0.0033472867 -0.00127 -0.00078000006
0.0023431007 0.00018142856 -9.2727329e-05
-0.027447751 0.00127 -0.0021545456
0.013723875 0.00018142856 -0.005247273
0.020418448 0.00127 -9.2727329e-05
-0.015397519 0.00018142856 -0.0021545456
-0.0046862015 0.00090714288 -9.2727329e-05
-0.00502093 -0.00127 -0.0018109091
0.0076987594 0.00054428569 -0.0021545456
-0.024769921 -0.00054428569 -0.00043636368
-0.014728062 0.00018142856 -9.2727329e-05
-0.013723875 0.00018142856 -0.0069654547
-0.01004186 -0.00127 -0.002498182
-0.022426821 -0.00127 -0.0011236364
0.024100464 0.00127 -9.2727329e-05
0.011380775 0.00054428569 -0.00043636368
-0.020418448 0.00090714288 -9.2727329e-05
-0.035481241 0.00127 -0.00078000006
-0.039163254 0.00018142856 0.0016254545
-0.037489612 0.00127 -0.0021545456
0.0083682165 -0.00127 -0.00078000006
-0.022092093 -0.00054428569 -0.00043636368
-0.024769921 -0.00127 -0.0018109091
0.026778294 -0.00127 -0.00043636368
-0.025104649 -0.00127 -9.2727329e-05
0.010711317 -0.00127 -0.00078000006
-0.01506279 0.00090714288 -9.2727329e-05
0.039163254 0.00018142856 -0.002498182
-0.019079534 -0.00018142856 0.0016254545
0.014058604 0.00018142856 0.00059454539
-0.039163254 0.00018142856 -0.0035290911
0.004016744 -0.00018142856 -0.0055909092
-0.01774062 0.00090714288 -9.2727329e-05
0.03246868 -0.00127 -9.2727329e-05
0.021087905 0.00018142856 -9.2727329e-05
0.008702945 0.00018142856 -0.0035290911
-0.00502093 -0.00127 -0.00078000006
-0.012050232 -0.00018142856 -0.0021545456
0.028451936 0.00127 -0.00043636368
0.015732247 -0.00054428569 -0.0021545456
-0.0063598445 -0.00018142856 -0.0059345458
-0.024100464 -0.00018142856 -0.0031854548
-0.027113022 0.00054428569 -0.0021545456
-0.034477051 0.00127 -9.2727329e-05
-0.00066945731 0.00054428569 -0.002498182
0.031799223 0.00018142856 0.00059454539
-0.031129766 -0.00018142856 -0.0021545456
-0.01506279 -0.00127 -0.0018109091
-0.018075349 0.00127 -0.0021545456
-0.0056903875 -0.00127 -0.0014672728
-0.01774062 -0.00127 -0.0014672728
-0.014058604 0.00018142856 0.00093818177
0.034477051 0.00090714288 -0.0021545456
0.0033472867 0.00127 -0.0018109091
-0.007029302 0.00018142856 -0.0021545456
-0.041171625 -0.00127 -0.0021545456
0.0016736434 0.00018142856 -9.2727329e-05
0.02276155 0.00054428569 -0.0021545456
0.036150698 -0.00090714288 -0.0021545456
-0.034142323 0.00127 -9.2727329e-05
0.015732247 0.00127 -9.2727329e-05
-0.027782479 -0.00127 -0.00043636368
-0.021757364 0.00018142856 0.00025090904
0.016736433 0.00018142856 -0.0038727275
-0.001004186 0.00018142856 -0.0066218185
0.026443565 0.00018142856 -0.0066218185
0.023765735 -0.00090714288 -0.0021545456
-0.038493797 -0.00127 -0.0011236364
-0.0053556585 -0.00054428569 -0.0021545456
0.041841082 0.00018142856 0.0012818181
-0.012719689 0.00018142856 -0.0021545456
-0.035146508 0.00127 -0.00043636368
-0.01238496 -0.00127 -9.2727329e-05
-0.037489612 -0.00090714288 -0.0021545456
0.010376588 -0.00127 -0.0021545456
0.039497983 0.00018142856 0.00059454539
-0.0063598445 -0.00018142856 -0.0028418184
0.01004186 -0.00127 -0.002498182
-0.014728062 0.00090714288 -9.2727329e-05
0.01774062 -0.00018142856 -9.2727329e-05
-0.021087905 0.00090714288 -9.2727329e-05
0.0033472867 -0.00127 -0.0018109091
-0.016401704 -0.00018142856 -0.0062781819
-0.0013389146 -0.00018142856 -0.0038727275
-0.018744806 -0.00127 -0.00078000006
0.039497983 0.00018142856 0.00025090904
-0.00033472865 0.00127 -9.2727329e-05
0.042175811 -0.00018142856 -0.0066218185
-0.0016736434 0.00018142856 -9.2727329e-05
-0.019079534 0.00018142856 -0.005247273
-0.0046862015 0.00127 -0.0011236364
0.026108837 -0.00127 -0.00043636368
-0.028117208 -0.00090714288 -0.0021545456
0.018744806 -0.00018142856 0.0019690909
-0.030460309 -0.00127 -0.0011236364
0.0046862015 0.00127 -0.0014672728
0.012050232 0.00127 -0.0014672728
0.016066976 0.00127 -0.0018109091
0.027113022 -0.00054428569 -0.00043636368
0.020753177 -0.00018142856 -9.2727329e-05
-0.026443565 0.00018142856 -0.0073090913
0.0016736434 0.00127 -0.002498182
0.024100464 0.00054428569 -0.002498182
-0.013723875 -0.00018142856 -0.0055909092
0.0056903875 -0.00090714288 -0.002498182
0.0023431007 -0.00127 -0.0011236364
-0.042845268 0.00090714288 -0.00078000006
0.019079534 -0.00127 -0.00043636368
-0.0013389146 -0.00127 -0.0011236364
-0.0013389146 0.00018142856 -0.0076527274
-0.016066976 -0.00127 -0.00078000006
0.024769921 -0.00127 -0.0021545456
0.0023431007 0.00127 -0.0018109091
-0.029121393 0.00127 -0.00043636368
0.0066945734 0.00090714288 -9.2727329e-05
0.032133952 -0.00018142856 -0.0021545456
0.025439378 -0.00018142856 -9.2727329e-05
0.019079534 -0.00018142856 -0.0042163637
-0.041841082 -0.00090714288 -0.00043636368
0.027447751 -0.00127 -9.2727329e-05
0.0090376744 -0.00090714288 -0.0021545456
0.01774062 0.00018142856 -9.2727329e-05
-0.0080334879 0.00127 -0.002498182
0.026443565 0.00018142856 -0.0038727275
-0.038828526 -0.00090714288 -0.00043636368
0.016401704 0.00018142856 -0.0069654547
-0.030460309 -0.00054428569 -0.0021545456
-0.014058604 -0.00018142856 0.0026563636
-0.029790852 -0.00127 -0.0018109091
0.013723875 0.00018142856 -0.0028418184
-0.006025116 -0.00018142856 -9.2727329e-05
-0.0036820155 -0.00090714288 -9.2727329e-05
0.026443565 -0.00018142856 -0.0076527274
-0.038493797 0.00127 -0.00078000006
-0.011380775 0.00127 -0.00043636368
-0.012719689 -0.00090714288 -9.2727329e-05
0.033472866 0.00127 -0.00078000006
0.03782434 0.00127 -0.0018109091
0.014728062 0.00090714288 -0.0021545456
0.028786665 0.00127 -0.00043636368
-0.0036820155 -0.00018142856 -0.0035290911
0.017071161 0.00127 -0.0014672728
-0.016401704 -0.00018142856 -0.0031854548
-0.03782434 -0.00018142856 -0.0021545456
-0.0097071314 -0.00127 -0.00043636368
-0.038159069 -0.00127 -0.00078000006
0.021422634 -0.00127 -0.0014672728
0.033807594 -0.00127 -0.0021545456
0.027782479 -0.00127 -0.00078000006
-0.025104649 -0.00018142856 -9.2727329e-05
-0.040502168 0.00054428569 -0.0021545456
0.036820155 -0.00018142856 -0.0062781819
0.018410077 0.00127 -0.0011236364
-0.019079534 0.00018142856 -0.0076527274
-0.018075349 0.00127 -9.2727329e-05
0.025774108 0.00054428569 -0.00043636368
-0.0036820155 0.00018142856 0.00093818177
0.01238496 0.00127 -0.0011236364
0.034142323 0.00018142856 -0.0055909092
-0.031464495 0.00018142856 -0.0073090913
-0.026778294 0.00054428569 -0.00043636368
0.025104649 0.00127 -0.0011236364
0.028786665 -0.00054428569 -0.0021545456
-0.029121393 0.00018142856 -0.0049036364
-0.038493797 -0.00054428569 -0.00043636368
-0.037154883 0.00090714288 -0.0021545456
-0.014058604 -0.00018142856 0.0012818181
0.008702945 0.00018142856 0.0023127273
-0.014058604 0.00018142856 0.0012818181
0.036820155 -0.00018142856 0.00093818177
-0.02008372 -0.00127 -0.0018109091
-0.016066976 0.00127 -0.00078000006
-0.037489612 -0.00018142856 -9.2727329e-05
-0.027782479 -0.00090714288 -9.2727329e-05
-0.031129766 0.00127 -0.00078000006
0.00033472865 0.00127 -9.2727329e-05
0.0043514725 -0.00054428569 -0.0021545456
0.01740589 0.00054428569 -0.0021545456
-0.024769921 0.00127 -0.0021545456
-0.020753177 0.00127 -0.00043636368
-0.021757364 0.00018142856 0.00059454539
0.013389147 0.00127 -0.00078000006
-0.040836897 -0.00090714288 -0.0021545456
-0.031799223 -0.00054428569 -0.002498182
0.031129766 0.00127 -0.0014672728
-0.006025116 -0.00018142856 -0.0069654547
0.0036820155 0.00018142856 -0.0073090913
-0.01506279 0.00018142856 -9.2727329e-05
-0.039163254 0.00127 -0.00043636368
0.038159069 0.00127 -9.2727329e-05
-0.006025116 -0.00018142856 -0.005247273
-0.019079534 -0.00127 -0.00043636368
0.035146508 0.00090714288 -0.0021545456
-0.016736433 0.00018142856 -0.0045600003
-0.0053556585 -0.00127 -0.0021545456
0.0033472867 -0.00127 -0.002498182
-0.024769921 0.00054428569 -0.0021545456
0.042845268 0.00054428569 -0.0011236364
0.040502168 -0.00127 -0.0018109091
0.002008372 -0.00054428569 -0.0021545456
-0.014393332 -0.00054428569 -0.0021545456
-0.0066945734 -0.00127 -0.0011236364
0.023765735 -0.00127 -0.0018109091
0.01774062 0.00127 -0.0021545456
0.033138137 0.00127 -0.0018109091
0.029456124 -0.00018142856 -9.2727329e-05
0.039497983 0.00127 -0.0011236364
-0.013723875 0.00127 -0.0018109091
0.014728062 0.00090714288 -9.2727329e-05
-0.016736433 0.00018142856 0.0012818181
-0.020753177 -0.00018142856 -0.0021545456
0.026443565 -0.00018142856 0.00025090904
0.041841082 -0.00127 -0.0011236364
0.023765735 0.00127 -0.0011236364
-0.016736433 0.00127 -0.0014672728
-0.0023431007 -0.00127 -0.0018109091
0.019079534 0.00127 -0.0014672728
0.014058604 -0.00127 -0.00078000006
-0.021757364 -0.00127 -9.2727329e-05
0.00066945731 -0.00127 -0.0014672728
0.019079534 0.00018142856 -0.0035290911
0.019079534 0.00018142856 -0.005247273
-0.039497983 -0.00127 -0.0011236364
-0.023765735 0.00054428569 -0.0021545456
-0.001004186 0.00127 -9.2727329e-05
-0.036820155 -0.00018142856 -0.0028418184
0.013723875 0.00054428569 -0.00043636368
-0.001004186 -0.00018142856 -0.0069654547
0.034477051 0.00018142856 -0.0062781819
-0.01506279 0.00054428569 -0.0021545456
-0.039497983 -0.00090714288 -0.00043636368
-0.029456124 0.00054428569 -0.0021545456
-0.008702945 0.00127 -0.0011236364
-0.036820155 0.00018142856 0.00025090904
0.025104649 -0.00090714288 -9.2727329e-05
-0.01238496 -0.00127 -0.0014672728
0.011380775 0.00127 -0.0018109091
0.001004186 0.00018142856 -0.0035290911
0.014058604 0.00018142856 0.0026563636
0.0063598445 -0.00018142856 0.0012818181
-0.038159069 0.00018142856 -0.0021545456
0.016066976 0.00054428569 -0.00043636368
-0.024435192 0.00054428569 -0.0021545456
0.011380775 0.00018142856 -0.0079963636
-0.031464495 -0.00127 -0.00078000006
0.031464495 -0.00018142856 -0.0031854548
-0.027447751 0.00090714288 -0.0021545456
0.016736433 0.00127 -0.00078000006
0.030125581 0.00090714288 -0.0021545456
-0.038159069 0.00127 -0.0021545456
0.015397519 -0.00018142856 -9.2727329e-05
-0.031464495 0.00018142856 0.0016254545
-0.012719689 0.00127 -9.2727329e-05
-0.026778294 0.00018142856 -0.0042163637
0.039497983 0.00127 -0.0018109091
-0.021422634 -0.00018142856 -0.0073090913
0.027782479 -0.00127 -0.00043636368
0.012719689 0.00090714288 -0.0021545456
0.023096278 -0.00054428569 -0.0021545456
0.027113022 -0.00127 -0.0021545456
0.02008372 -0.00018142856 -9.2727329e-05
0.039497983 -0.00018142856 0.00059454539
0.01238496 -0.00054428569 -0.00043636368
0.034477051 -0.00090714288 -0.00043636368
0.024100464 -0.00018142856 -0.0076527274
-0.011715503 0.00127 -0.00078000006
0.02276155 0.00054428569 -0.00043636368
-0.036150698 -0.00127 -0.0018109091
0.015397519 -0.00018142856 -0.0021545456
-0.028786665 0.00127 -0.0021545456
0.019748991 0.00127 -0.0018109091
0.01506279 -0.00127 -0.00043636368
0.0090376744 0.00127 -0.0011236364
-0.021422634 0.00018142856 -0.0055909092
-0.00033472865 0.00127 -0.002498182
-0.0063598445 0.00018142856 -0.0042163637
0.015732247 -0.00127 -9.2727329e-05
0.013723875 0.00018142856 0.0019690909
-0.0013389146 0.00054428569 -0.00043636368
0.01740589 -0.00127 -0.0014672728
0.016401704 -0.00018142856 -9.2727329e-05
0.024100464 -0.00018142856 -0.005247273
-0.031464495 0.00018142856 0.00059454539
-0.010711317 0.00127 -0.00043636368
0.033807594 0.00127 -0.00078000006
0.00033472865 -0.00054428569 -0.002498182
-0.0013389146 -0.00018142856 -0.0069654547
0.036485426 -0.00127 -0.0021545456
0.033138137 0.00018142856 -0.0021545456
0.028786665 -0.00127 -0.00043636368
-0.019079534 -0.00127 -9.2727329e-05
-0.036820155 0.00018142856 -0.0028418184
-0.0093724029 -0.00054428569 -0.0021545456
-0.0036820155 0.00018142856 -0.0045600003
-0.0090376744 -0.00018142856 -0.0076527274
-0.0056903875 -0.00127 -0.00078000006
-0.016401704 -0.00018142856 -9.2727329e-05
0.013723875 0.00018142856 -0.0042163637
-0.034142323 -0.00018142856 -0.0031854548
-0.018410077 0.00127 -0.0021545456
0.027782479 0.00127 -0.0021545456
-0.020418448 0.00127 -0.00078000006
-0.019079534 0.00018142856 -0.0069654547
0.0053556585 0.00127 -0.002498182
-0.001004186 0.00127 -0.00043636368
-0.012050232 0.00018142856 -0.0021545456
-0.03246868 -0.00018142856 -9.2727329e-05
-0.021087905 -0.00127 -0.0014672728
0.041841082 0.00018142856 -0.0045600003
-0.013723875 -0.00018142856 -0.0076527274
-0.035481241 0.00127 -0.00043636368
0.00066945731 -0.00054428569 -0.002498182
-0.031129766 -0.00018142856 -9.2727329e-05
0.036820155 0.00018142856 0.0012818181
0 -0.00090714288 -9.2727329e-05
-0.006025116 0.00018142856 -0.002498182
-0.00502093 -0.00018142856 -9.2727329e-05
-0.033807594 -0.00127 -0.00078000006
-0.0090376744 -0.00018142856 -0.0055909092
0.021422634 0.00018142856 -0.0062781819
0.030125581 0.00127 -0.0014672728
0.002008372 0.00127 -0.0021545456
-0.029790852 -0.00127 -0.0014672728
0.028451936 -0.00127 -0.0018109091
0.028786665 -0.00127 -0.00078000006
0.013723875 0.00018142856 -0.0049036364
-0.0013389146 -0.00018142856 -0.0059345458
0.0066945734 -0.00054428569 -0.00043636368
-0.027113022 0.00127 -0.00078000006
0.019079534 -0.00127 -0.00078000006
-0.004016744 0.00018142856 -0.0069654547
-0.0080334879 -0.00127 -9.2727329e-05
0.008702945 -0.00127 -0.0014672728
-0.041841082 0.00018142856 -0.0062781819
0.026778294 0.00018142856 0.0016254545
-0.021757364 -0.00018142856 0.0012818181
-0.0013389146 0.00018142856 0.00025090904
-0.010376588 0.00090714288 -0.0021545456
-0.024100464 -0.00127 -9.2727329e-05
0.024769921 0.00127 -0.00078000006
-0.01506279 0.00127 -9.2727329e-05
0.032133952 0.00127 -0.0014672728
-0.023431007 0.00054428569 -0.0021545456
0.029456124 0.00127 -0.0011236364
-0.013389147 -0.00127 -0.0018109091
0.004016744 -0.00018142856 -0.0073090913
0.021757364 0.00018142856 0.0016254545
-0.014393332 0.00054428569 -0.0021545456
0.025104649 -0.00018142856 -9.2727329e-05
-0.006025116 0.00127 -0.0021545456
-0.021422634 -0.00018142856 -0.0045600003
0.031129766 0.00054428569 -0.002498182
0.0023431007 -0.00018142856 -0.0021545456
0.029790852 0.00054428569 -0.0021545456
0.022426821 0.00090714288 -0.0021545456
-0.025104649 -0.00127 -0.00043636368
0.01740589 0.00090714288 -0.0021545456
0.025774108 0.00054428569 -0.0021545456
-0.019079534 -0.00018142856 -0.0038727275
-0.029456124 0.00090714288 -9.2727329e-05
0.0056903875 0.00054428569 -0.00043636368
0.013054418 0.00018142856 -0.0021545456
-0.027782479 -0.00054428569 -0.0021545456
-0.011046046 0.00090714288 -9.2727329e-05
0.036485426 0.00127 -0.0021545456
-0.032133952 -0.00090714288 -0.0021545456
0.035481241 0.00127 -0.0014672728
0.024100464 -0.00018142856 -0.0049036364
-0.027447751 -0.00127 -0.0018109091
-0.018744806 -0.00090714288 -0.002498182
-0.02008372 0.00054428569 -0.00043636368
0.004016744 0.00018142856 -0.0038727275
0.008702945 0.00018142856 0.00025090904
0.034142323 0.00018142856 -0.0028418184
0.017071161 -0.00090714288 -9.2727329e-05
-0.027113022 -0.00090714288 -9.2727329e-05
-0.012719689 0.00127 -0.0021545456
0.042510539 0.00127 -0.00078000006
-0.003012558 -0.00054428569 -0.00043636368
-0.016401704 -0.00090714288 -0.002498182
0.037154883 -0.00090714288 -0.00043636368
-0.0023431007 -0.00090714288 -0.002498182
-0.013723875 -0.00054428569 -0.0021545456
-0.021087905 0.00127 -9.2727329e-05
0.0056903875 0.00127 -0.00078000006
0.0080334879 -0.00018142856 -0.0021545456
-0.0036820155 0.00127 -0.002498182
0.016401704 -0.00127 -0.00043636368
0.0013389146 0.00018142856 -0.0055909092
-0.029456124 -0.00090714288 -9.2727329e-05
0.001004186 -0.00018142856 -0.0038727275
0.028117208 0.00127 -0.0018109091
0.035815969 -0.00090714288 -9.2727329e-05
-0.0097071314 -0.00127 -0.0018109091
-0.040502168 0.00090714288 -9.2727329e-05
-0.0093724029 0.00127 -0.00078000006
0.031464495 -0.00127 -0.0014672728
-0.023096278 -0.00127 -0.00043636368
0.041841082 0.00127 -0.0021545456
-0.028451936 0.00018142856 -0.0021545456
-0.015732247 0.00018142856 -9.2727329e-05
-0.029121393 0.00018142856 -9.2727329e-05
0.0053556585 -0.00054428569 -0.002498182
-0.032133952 0.00090714288 -0.0021545456
0.028786665 0.00127 -0.00078000006
-0.032803409 -0.00090714288 -0.0021545456
0.023431007 -0.00127 -0.0021545456
-0.031799223 0.00018142856 -0.0035290911
-0.011715503 -0.00127 -0.0021545456
-0.033138137 0.00127 -0.0021545456
-0.029790852 0.00127 -0.00043636368
-0.039832711 -0.00054428569 -0.0021545456
-0.020418448 -0.00127 -9.2727329e-05
0.018744806 -0.00127 -9.2727329e-05
0.01740589 -0.00127 -0.00078000006
0.029121393 -0.00018142856 -0.0045600003
-0.021422634 0.00127 -0.00043636368
0.00502093 -0.00054428569 -0.00043636368
-0.014058604 0.00018142856 -0.0055909092
-0.025104649 -0.00127 -0.0018109091
-0.016736433 -0.00018142856 -0.0069654547
-0.0063598445 -0.00018142856 -0.0045600003
-0.030125581 -0.00018142856 -9.2727329e-05
-0.00502093 -0.00054428569 -0.002498182
0.036820155 -0.00018142856 -0.002498182
0.021422634 0.00018142856 -0.005247273
-0.013723875 -0.00127 -0.0018109091
0.034142323 0.00018142856 -0.0069654547
0.023765735 -0.00127 -0.0021545456
0.035481241 -0.00127 -0.00043636368
0.0090376744 -0.00018142856 -0.0031854548
0.026108837 -0.00127 -9.2727329e-05
-0.020753177 0.00127 -0.0018109091
0.0046862015 0.00090714288 -0.002498182
-0.01740589 0.00127 -0.00043636368
-0.042845268 -0.00090714288 -0.0018109091
0.029790852 0.00018142856 -0.0021545456
0.029121393 -0.00054428569 -0.00043636368
-0.0063598445 -0.00018142856 -0.0035290911
-0.016401704 0.00018142856 -0.0038727275
-0.0013389146 -0.00018142856 -0.0062781819
-0.01238496 -0.00054428569 -0.0021545456
0.024769921 -0.00127 -0.0014672728
-0.038493797 -0.00054428569 -0.0021545456
0.0063598445 -0.00018142856 -0.0069654547
-0.020418448 -0.00127 -0.0021545456
-0.042510539 -0.00127 -0.0021545456
-0.03782434 0.00127 -0.0021545456
-0.016736433 -0.00127 -0.0014672728
-0.0013389146 0.00127 -0.0014672728
0.026443565 -0.00018142856 -0.005247273
0.011715503 0.00018142856 -0.002498182
0.0036820155 -0.00127 -0.0021545456
0.021422634 -0.00127 -0.0021545456
-0.014393332 -0.00127 -0.00078000006
0.039832711 0.00127 -0.0014672728
0.0097071314 0.00090714288 -9.2727329e-05
-0.0080334879 0.00090714288 -9.2727329e-05
-0.018744806 0.00127 -0.0011236364
0.014058604 0.00018142856 -0.005247273
0.016401704 -0.00127 -0.0014672728
0.036820155 0.00018142856 -9.2727329e-05
0.018075349 0.00127 -0.0011236364
-0.015397519 -0.00127 -0.0011236364
-0.02008372 -0.00127 -0.0011236364
0.016401704 0.00018142856 -0.0076527274
-0.035815969 0.00127 -0.0014672728
-0.016066976 -0.00127 -0.0014672728
-0.041841082 0.00018142856 0.00025090904
-0.030460309 0.00127 -9.2727329e-05
0.0043514725 -0.00127 -0.00043636368
-0.011380775 0.00018142856 -0.0069654547
0.03246868 0.00090714288 -9.2727329e-05
-0.028117208 0.00127 -0.0011236364
-0.021422634 -0.00090714288 -0.0021545456
-0.019079534 0.00090714288 -0.002498182
-0.033472866 0.00018142856 -9.2727329e-05
-0.011380775 -0.00018142856 -0.0073090913
-0.0056903875 0.00127 -0.00078000006
-0.034142323 0.00018142856 -0.0055909092
-0.030460309 -0.00127 -0.0021545456
0.039163254 0.00018142856 0.00025090904
-0.023431007 -0.00127 -9.2727329e-05
-0.030795038 -0.00127 -0.0021545456
0.03782434 0.00127 -0.0014672728
0.03246868 0.00127 -0.0018109091
0.012050232 -0.00127 -0.0014672728
0.038493797 -0.00127 -0.0021545456
-0.014058604 -0.00127 -0.0021545456
-0.029456124 0.00127 -0.0018109091
0.032133952 0.00054428569 -0.0021545456
-0.021757364 -0.00018142856 -0.0066218185
0.020753177 0.00090714288 -9.2727329e-05
-0.016401704 -0.00018142856 0.0023127273
0.001004186 -0.00018142856 0.0023127273
0.016401704 0.00018142856 0.0023127273
0.0013389146 0.00018142856 -0.0062781819
-0.0063598445 0.00127 -0.0011236364
-0.019748991 -0.00018142856 -0.0021545456
-0.0063598445 0.00054428569 -0.002498182
0.018410077 -0.00127 -0.00078000006
-0.03481178 -0.00018142856 -0.0021545456
0.015397519 -0.00054428569 -0.0021545456
-0.039163254 -0.00018142856 -0.0035290911
-0.026443565 0.00018142856 0.00025090904
0.013389147 -0.00054428569 -0.00043636368
0.021757364 0.00127 -0.0018109091
0.014728062 -0.00054428569 -0.0021545456
-0.034477051 0.00018142856 -0.0049036364
-0.031464495 -0.00018142856 -0.002498182
0.027113022 0.00127 -0.00078000006
0.003012558 0.00127 -0.0011236364
0.010711317 0.00127 -0.0018109091
0.032803409 -0.00054428569 -0.00043636368
0.018410077 -0.00054428569 -0.00043636368
0.024100464 -0.00018142856 0.0012818181
-0.027113022 -0.00054428569 -0.0021545456
0.036485426 0.00090714288 -0.00043636368
-0.01740589 0.00127 -0.0011236364
0.041841082 0.00054428569 -0.00043636368
-0.025104649 0.00127 -0.0014672728
0.0013389146 0.00018142856 0.0016254545
0.020753177 0.00018142856 -9.2727329e-05
-0.036820155 -0.00127 -0.0011236364
0.021757364 0.00018142856 -0.0031854548
-0.027113022 -0.00127 -0.00043636368
-0.023431007 -0.00090714288 -0.0021545456
0.021757364 -0.00018142856 -0.0073090913
0.012719689 -0.00127 -0.00078000006
-0.0066945734 -0.00127 -0.0021545456
0.019079534 0.00090714288 -0.0021545456
-0.032133952 -0.00127 -9.2727329e-05
0.03246868 0.00127 -0.00043636368
0.03246868 -0.00127 -0.00078000006
0.0013389146 -0.00018142856 0.00093818177
-0.039163254 -0.00127 -0.0011236364
-0.026443565 -0.00127 -0.0011236364
0.026443565 0.00018142856 0.0016254545
-0.0090376744 0.00018142856 -0.005247273
0.00502093 -0.00127 -0.0014672728
-0.031799223 0.00018142856 0.0019690909
-0.004016744 0.00018142856 0.00059454539
0.013389147 -0.00054428569 -0.0021545456
-0.004016744 0.00018142856 0.00025090904
-0.025439378 -0.00090714288 -9.2727329e-05
-0.033807594 0.00127 -0.00078000006
-0.016736433 0.00090714288 -0.0021545456
0.026443565 0.00127 -0.0011236364
0.042510539 -0.00054428569 -0.00043636368
0.035815969 -0.00127 -0.0018109091
0.015732247 -0.00127 -0.0011236364
0.031799223 -0.00018142856 0.0016254545
0.016401704 0.00054428569 -0.002498182
-0.013054418 0.00018142856 -0.0021545456
0.04016744 -0.00054428569 -0.0021545456
0.00033472865 -0.00127 -0.0021545456
0.008702945 -0.00018142856 -0.0028418184
-0.042175811 0.00090714288 -0.00043636368
0.012719689 -0.00127 -0.0021545456
0.001004186 -0.00018142856 -0.005247273
-0.01774062 0.00127 -9.2727329e-05
-0.014393332 0.00127 -9.2727329e-05
-0.019748991 -0.00090714288 -9.2727329e-05
0.0073640309 -0.00090714288 -9.2727329e-05
-0.036820155 0.00018142856 0.0019690909
0.034477051 -0.00090714288 -0.0021545456
-0.013389147 -0.00018142856 -9.2727329e-05
-0.03246868 0.00018142856 -0.0021545456
-0.014728062 0.00054428569 -0.0021545456
0.004016744 -0.00054428569 -0.0021545456
0.029790852 0.00018142856 -9.2727329e-05
-0.031464495 -0.00090714288 -0.0021545456
-0.02276155 0.00127 -0.00043636368
-0.029121393 -0.00018142856 0.00093818177
0.025104649 -0.00127 -0.00078000006
-0.02008372 -0.00127 -9.2727329e-05
-0.025439378 0.00127 -0.0021545456
-0.025774108 -0.00054428569 -0.0021545456
-0.032803409 -0.00127 -9.2727329e-05
-0.038828526 0.00127 -0.00078000006
0.016736433 0.00018142856 -0.0066218185
0.024100464 -0.00018142856 -0.0035290911
-0.028786665 0.00127 -0.0014672728
-0.021422634 -0.00018142856 0.0019690909
0.015732247 0.00127 -0.00078000006
0.001004186 0.00127 -0.00043636368
-0.033138137 -0.00018142856 -9.2727329e-05
0.029121393 -0.00127 -0.00043636368
-0.042845268 0.00054428569 -0.0018109091
-0.01004186 0.00090714288 -0.0021545456
-0.030125581 -0.00018142856 -0.0021545456
-0.039163254 0.00018142856 -0.005247273
-0.013723875 0.00054428569 -0.0021545456
-0.036820155 0.00018142856 -0.0045600003
0.018744806 -0.00127 -0.0018109091
0.037154883 -0.00127 -0.00043636368
-0.027782479 0.00127 -9.2727329e-05
0.014058604 0.00018142856 0.0016254545
-0.038493797 0.00090714288 -9.2727329e-05
0.019079534 0.00018142856 -0.0069654547
0.014728062 0.00127 -0.00078000006
-0.01740589 0.00127 -0.0021545456
-0.04016744 0.00018142856 -0.00043636368
-0.042510539 -0.00090714288 -0.0021545456
0.039832711 -0.00127 -0.0018109091
0.0016736434 -0.00127 -9.2727329e-05
-0.036820155 -0.00018142856 -0.002498182
0.019079534 -0.00018142856 -0.0035290911
-0.032133952 0.00127 -0.0021545456
-0.042175811 -0.00127 -0.0011236364
0.0063598445 -0.00018142856 0.00093818177
-0.0046862015 0.00127 -0.002498182
0.0036820155 0.00018142856 0.0023127273
-0.014058604 0.00018142856 0.0023127273
-0.018075349 0.00127 -0.00043636368
-0.021422634 0.00018142856 0.0023127273
-0.037154883 0.00127 -0.0011236364
-0.025104649 0.00127 -0.0021545456
0.016401704 0.00018142856 0.00025090904
0.0046862015 -0.00054428569 -0.0021545456
0.0013389146 -0.00018142856 -0.0059345458
0.0073640309 0.00127 -0.00078000006
0.023096278 0.00127 -0.0014672728
-0.001004186 -0.00018142856 0.00025090904
-0.013389147 -0.00127 -0.0011236364
0.033807594 -0.00127 -0.0014672728
-0.034477051 -0.00127 -0.0021545456
-0.013723875 -0.00018142856 0.0016254545
-0.019414263 -0.00127 -0.0014672728
0.012050232 -0.00090714288 -0.0021545456
0.03481178 0.00054428569 -0.00043636368
-0.037154883 -0.00018142856 -0.002498182
-0.023765735 -0.00127 -0.00043636368
-0.041506354 -0.00127 -0.00043636368
-0.025439378 -0.00018142856 -0.0021545456
-0.016401704 -0.00018142856 -0.0066218185
-0.024100464 -0.00018142856 -0.0028418184
-0.031799223 0.00018142856 -0.0055909092
0.016401704 0.00018142856 -0.005247273
-0.024769921 -0.00054428569 -0.0021545456
-0.008702945 -0.00127 -0.0021545456
0.031464495 -0.00127 -0.0018109091
0.0083682165 -0.00127 -9.2727329e-05
-0.0090376744 -0.00054428569 -0.002498182
-0.011380775 -0.00018142856 -0.005247273
0.014728062 0.00127 -0.00043636368
0.014058604 0.00018142856 -0.0038727275
-0.014058604 -0.00127 -0.0018109091
-0.0066945734 0.00127 -0.0018109091
-0.041506354 -0.00127 -0.0011236364
-0.004016744 -0.00054428569 -0.002498182
0.039163254 -0.00018142856 -0.0049036364
-0.004016744 -0.00090714288 -0.002498182
0.040502168 0.00127 -0.0011236364
0.034142323 -0.00018142856 -0.0059345458
0.0073640309 -0.00127 -0.002498182
0.026443565 0.00018142856 -0.0069654547
0.00066945731 -0.00018142856 -0.002498182
0.041841082 0.00018142856 -0.0028418184
0.004016744 -0.00018142856 -0.0045600003
-0.028117208 0.00018142856 -0.0021545456
0.027782479 0.00127 -0.00043636368
-0.041171625 0.00090714288 -0.00043636368
-0.011380775 0.00054428569 -0.002498182
0.031799223 -0.00127 -0.0021545456
-0.008702945 0.00018142856 0.0019690909
-0.024100464 0.00018142856 -0.005247273
-0.027113022 0.00127 -0.0021545456
0.0063598445 -0.00018142856 -0.0045600003
-0.021422634 -0.00018142856 0.0023127273
0.028451936 -0.00127 -0.00043636368
0.0023431007 0.00127 -0.00043636368
-0.0063598445 0.00018142856 0.0023127273
-0.019079534 -0.00127 -0.0018109091
0.036485426 0.00090714288 -0.0021545456
-0.025439378 -0.00018142856 -9.2727329e-05
-0.04016744 -0.00127 -0.0018109091
0.026778294 -0.00127 -0.0021545456
0.006025116 0.00127 -0.0018109091
-0.0073640309 -0.00018142856 -9.2727329e-05
-0.0013389146 -0.00127 -0.00043636368
0.039163254 -0.00018142856 -0.0062781819
-0.00066945731 -0.00054428569 -0.00043636368
0.016066976 -0.00054428569 -0.00043636368
0.026443565 -0.00018142856 0.0019690909
0.0046862015 0.00127 -0.00078000006
0.0093724029 -0.00090714288 -9.2727329e-05
-0.035481241 -0.00018142856 -9.2727329e-05
-0.041171625 0.00127 -0.0011236364
0.012050232 -0.00018142856 -0.0021545456
0.0033472867 0.00127 -0.0021545456
0.021757364 0.00127 -0.0014672728
-0.015397519 0.00127 -0.0018109091
-0.03246868 0.00127 -0.00043636368
-0.028786665 -0.00018142856 -0.002498182
-0.021422634 0.00018142856 -0.0062781819
-0.026443565 0.00127 -0.00078000006
-0.003012558 0.00127 -0.0011236364
-0.016401704 -0.00054428569 -0.002498182
-0.0036820155 0.00018142856 -0.0042163637
0.024100464 -0.00127 -0.0014672728
0.015732247 0.00054428569 -0.00043636368
0.014058604 0.00018142856 -0.0076527274
0.01004186 0.00054428569 -0.00043636368
-0.024769921 0.00018142856 -9.2727329e-05
0.041841082 0.00018142856 0.00059454539
0.035815969 0.00127 -0.00043636368
-0.033807594 0.00127 -0.0014672728
-0.024100464 0.00127 -0.00043636368
0.042175811 0.00090714288 -0.0021545456
-0.037489612 0.00018142856 -0.0021545456
0.03246868 -0.00127 -0.0021545456
-0.01004186 -0.00127 -9.2727329e-05
0.030795038 0.00090714288 -0.0021545456
0.025439378 0.00127 -0.0021545456
0.021087905 -0.00018142856 -9.2727329e-05
-0.036485426 0.00127 -0.00078000006
-0.031464495 0.00018142856 0.0012818181
-0.039497983 0.00018142856 0.0019690909
0.027782479 -0.00054428569 -0.00043636368
0.012719689 0.00054428569 -0.00043636368
0.014058604 0.00018142856 0.0019690909
0.019079534 0.00127 -9.2727329e-05
0.0016736434 -0.00054428569 -0.00043636368
-0.029121393 -0.00018142856 -0.0076527274
-0.031799223 0.00018142856 -0.0042163637
0.036820155 -0.00090714288 -0.00043636368
-0.00066945731 0.00054428569 -0.00043636368
0.027113022 -0.00127 -0.0014672728
-0.025774108 -0.00127 -0.0011236364
-0.02276155 0.00127 -0.00078000006
-0.0083682165 -0.00127 -0.00043636368
0.022426821 0.00054428569 -0.0021545456
0.035815969 -0.00127 -0.0011236364
-0.006025116 0.00018142856 -9.2727329e-05
0.010376588 -0.00090714288 -9.2727329e-05
-0.00033472865 -0.00018142856 -0.002498182
-0.016066976 0.00127 -0.0021545456
-0.026778294 -0.00018142856 -0.0066218185
-0.013054418 0.00127 -0.0011236364
0.02276155 -0.00127 -0.00078000006
0.014058604 -0.00018142856 -0.0062781819
-0.010376588 -0.00127 -0.00043636368
-0.032133952 -0.00127 -0.0014672728
-0.003012558 -0.00127 -0.0014672728
-0.004016744 0.00018142856 -0.0066218185
0.04016744 0.00090714288 -9.2727329e-05
0.014058604 -0.00018142856 0.0026563636
-0.026778294 -0.00018142856 0.0016254545
-0.038493797 0.00018142856 -9.2727329e-05
-0.021757364 -0.00018142856 -0.0038727275
0.021757364 0.00018142856 -0.005247273
-0.0036820155 -0.00054428569 -0.002498182
-0.021757364 0.00018142856 -0.0076527274
-0.023765735 -0.00018142856 -0.002498182
-0.026443565 0.00018142856 -0.0066218185
0.032133952 -0.00127 -0.0014672728
0.042845268 0.00018142856 -0.0018109091
0.016736433 -0.00018142856 0.0023127273
-0.034142323 0.00018142856 -9.2727329e-05
-0.016066976 -0.00127 -0.0011236364
0.036820155 -0.00018142856 -0.0059345458
0.042845268 0.00090714288 -0.0014672728
-0.0013389146 -0.00127 -9.2727329e-05
0.034142323 -0.00018142856 -0.0073090913
0.036150698 -0.00127 -0.0011236364
0.025774108 0.00127 -0.0018109091
0.00066945731 0.00127 -0.002498182
0.0036820155 -0.00127 -0.00043636368
-0.031464495 0.00054428569 -0.0021545456
0.0090376744 0.00018142856 -0.0031854548
-0.00502093 0.00090714288 -0.0021545456
0.041841082 0.00127 -0.0014672728
-0.030125581 -0.00127 -0.0018109091
0.034477051 0.00018142856 -0.0073090913
-0.01238496 -0.00090714288 -0.0021545456
0.033472866 0.00127 -0.0014672728
0.00066945731 0.00018142856 -0.002498182
-0.011046046 -0.00127 -0.0014672728
0.0013389146 -0.00018142856 0.00059454539
-0.0097071314 -0.00127 -0.0011236364
0.024100464 0.00127 -0.0011236364
0.018075349 0.00090714288 -9.2727329e-05
0.014393332 0.00127 -0.0021545456
0.042510539 -0.00090714288 -0.00078000006
-0.041841082 -0.00018142856 0.00025090904
0.039832711 -0.00127 -0.00043636368
0.026443565 -0.00127 -9.2727329e-05
0.033138137 -0.00127 -0.0021545456
-0.0066945734 -0.00127 -0.00078000006
-0.011715503 -0.00054428569 -0.0021545456
0.003012558 0.00018142856 -0.0021545456
-0.018410077 0.00127 -0.0018109091
0.0090376744 -0.00018142856 -9.2727329e-05
0.025439378 -0.00127 -0.0014672728
-0.0053556585 0.00054428569 -0.00043636368
0.034477051 0.00018142856 -0.0031854548
0.042845268 -0.00018142856 -0.0021545456
-0.034142323 -0.00018142856 -0.005247273
0.011715503 0.00127 -0.002498182
0.026778294 0.00018142856 0.0012818181
0.01740589 -0.00018142856 -0.0021545456
0.041506354 0.00127 -0.0011236364
0.0076987594 0.00127 -0.0021545456
-0.038828526 0.00054428569 -0.0021545456
0.035481241 -0.00018142856 -0.0021545456
-0.024435192 -0.00127 -9.2727329e-05
0.036150698 -0.00018142856 -0.0021545456
-0.028786665 -0.00127 -9.2727329e-05
0.030125581 -0.00018142856 -0.0021545456
0.034142323 -0.00018142856 0.00025090904
0.020753177 0.00127 -0.0014672728
-0.0090376744 -0.00018142856 -0.0031854548
0.001004186 0.00018142856 -0.0049036364
0.007029302 -0.00127 -0.0011236364
0.036820155 -0.00018142856 -0.0042163637
0.03481178 0.00127 -0.00043636368
-0.014393332 -0.00090714288 -9.2727329e-05
-0.033807594 -0.00127 -0.0011236364
0.011715503 0.00127 -9.2727329e-05
-0.0063598445 0.00018142856 -0.0059345458
-0.033807594 0.00127 -0.0011236364
0.0090376744 0.00127 -0.0021545456
0.039163254 -0.00127 -0.0021545456
-0.013054418 -0.00127 -0.0018109091
0.0036820155 0.00018142856 -0.0076527274
-0.030125581 -0.00127 -0.00043636368
-0.027447751 -0.00054428569 -0.0021545456
0.041841082 -0.00018142856 0.0016254545
-0.0036820155 -0.00018142856 -0.0045600003
-0.006025116 -0.00018142856 -0.0035290911
-0.023765735 0.00018142856 -0.002498182
-0.027782479 -0.00127 -9.2727329e-05
-0.027113022 0.00090714288 -9.2727329e-05
0.021087905 -0.00054428569 -0.0021545456
-0.021757364 -0.00018142856 0.0019690909
0.023096278 -0.00054428569 -0.00043636368
0.021422634 -0.00018142856 -0.005247273
-0.039497983 0.00018142856 -0.005247273
-0.016401704 -0.00018142856 0.0016254545
-0.033472866 0.00054428569 -0.00043636368
-0.0023431007 -0.00127 -0.0021545456
-0.028451936 -0.00127 -0.0014672728
0.012050232 0.00090714288 -0.002498182
0.036820155 0.00018142856 0.00093818177
0.040836897 -0.00090714288 -0.00043636368
-0.036150698 0.00018142856 -9.2727329e-05
-0.027782479 0.00054428569 -0.00043636368
0.035146508 -0.00054428569 -0.00043636368
0.02276155 0.00127 -9.2727329e-05
0.035815969 0.00127 -0.00078000006
0.0076987594 -0.00127 -0.0014672728
0.027113022 0.00127 -0.0018109091
0.011046046 0.00127 -0.0011236364
-0.024100464 0.00127 -9.2727329e-05
0.02008372 -0.00127 -0.00043636368
0.0033472867 0.00127 -0.002498182
0.013389147 -0.00127 -9.2727329e-05
-0.014058604 0.00018142856 0.00059454539
0.04016744 0.00127 -0.0014672728
0.019748991 0.00054428569 -0.00043636368
0.026443565 -0.00018142856 -0.0035290911
-0.0033472867 -0.00054428569 -0.0021545456
0.031799223 0.00018142856 -0.0066218185
-0.01740589 0.00054428569 -0.0021545456
0.031129766 0.00127 -0.00043636368
-0.010376588 0.00127 -0.0011236364
-0.026778294 0.00018142856 0.0016254545
-0.0073640309 0.00090714288 -9.2727329e-05
0.022426821 -0.00127 -9.2727329e-05
-0.03481178 0.00127 -0.0021545456
-0.019079534 0.00018142856 -9.2727329e-05
0.012719689 0.00090714288 -9.2727329e-05
-0.039497983 0.00127 -0.0011236364
0.026443565 0.00018142856 -0.0031854548
0.024435192 -0.00127 -0.0011236364
0.037489612 -0.00127 -0.0018109091
-0.026778294 0.00127 -0.00078000006
0.0036820155 0.00090714288 -9.2727329e-05
0.02276155 0.00018142856 -0.0021545456
-0.013054418 0.00018142856 -9.2727329e-05
-0.016401704 -0.00018142856 0.00025090904
-0.0093724029 0.00090714288 -9.2727329e-05
-0.0026778292 -0.00090714288 -0.002498182
0.003012558 -0.00090714288 -0.002498182
-0.008702945 -0.00018142856 0.0016254545
0.016736433 -0.00127 -0.0018109091
-0.020753177 -0.00127 -9.2727329e-05
-0.007029302 -0.00054428569 -0.00043636368
0.042175811 -0.00127 -0.00078000006
-0.033138137 -0.00127 -0.0011236364
0.04016744 0.00127 -0.0021545456
0.036820155 0.00054428569 -0.00043636368
0.014393332 -0.00127 -0.0014672728
0.036485426 -0.00090714288 -0.00043636368
-0.020418448 0.00054428569 -0.0021545456
0.0026778292 0.00054428569 -0.00043636368
-0.0083682165 0.00127 -0.0021545456
0.02008372 -0.00127 -0.00078000006
-0.031129766 -0.00090714288 -0.0021545456
0.029121393 0.00018142856 -0.0045600003
-0.016736433 0.00018142856 -0.0066218185
0.012719689 0.00127 -0.0011236364
0.0073640309 -0.00127 -0.0011236364
0.018075349 -0.00090714288 -9.2727329e-05
0.011046046 0.00090714288 -0.0021545456
0.041506354 -0.00127 -0.0014672728
0.036485426 0.00127 -0.00043636368
0.0043514725 -0.00018142856 -0.0021545456
-0.002008372 -0.00018142856 -9.2727329e-05
0.0036820155 -0.00054428569 -0.00043636368
-0.040502168 0.00127 -0.00078000006
-0.041506354 -0.00090714288 -0.0021545456
-0.006025116 -0.00018142856 0.0023127273
-0.011380775 -0.00127 -0.0021545456
0.021422634 -0.00127 -0.00078000006
-0.04016744 -0.00127 -0.00078000006
-0.0080334879 -0.00018142856 -0.0021545456
0.018075349 -0.00018142856 -9.2727329e-05
-0.041841082 -0.00018142856 -0.0045600003
0.0053556585 0.00018142856 -0.0021545456
-0.039163254 0.00018142856 -0.002498182
0.013723875 0.00018142856 0.0016254545
0.014058604 -0.00018142856 -0.0073090913
0.0063598445 -0.00127 -0.0014672728
-0.026443565 0.00054428569 -0.00043636368
-0.021757364 0.00127 -9.2727329e-05
0.023765735 0.00127 -9.2727329e-05
0.0090376744 0.00090714288 -9.2727329e-05
-0.018075349 0.00054428569 -0.00043636368
-0.016401704 0.00018142856 0.0012818181
0.0063598445 0.00054428569 -0.002498182
0.036820155 0.00127 -9.2727329e-05
0.029121393 -0.00127 -0.00078000006
-0.024100464 -0.00127 -0.002498182
-0.020418448 -0.00127 -0.00078000006
0.019079534 0.00018142856 -0.0045600003
-0.011715503 0.00018142856 -0.002498182
0.02008372 0.00054428569 -0.00043636368
0.023765735 -0.00127 -0.0011236364
-0.0033472867 0.00054428569 -0.00043636368
0.013054418 0.00127 -0.00043636368
-0.0043514725 0.00018142856 -9.2727329e-05
0.014393332 -0.00018142856 -0.0021545456
-0.041841082 0.00018142856 -0.0069654547
-0.006025116 0.00127 -0.00078000006
0.0016736434 0.00018142856 -0.002498182
0.014728062 -0.00054428569 -0.00043636368
-0.034142323 -0.00018142856 -0.0069654547
-0.013054418 0.00090714288 -9.2727329e-05
-0.041841082 -0.00018142856 -0.0031854548
0.011380775 0.00018142856 0.0023127273
0.029121393 0.00054428569 -0.002498182
-0.013723875 -0.00018142856 -0.0035290911
-0.03246868 -0.00127 -9.2727329e-05
-0.007029302 0.00127 -0.0011236364
0.014058604 -0.00018142856 -0.0045600003
0.033807594 -0.00127 -0.0011236364
0.01774062 0.00018142856 -0.0021545456
0.039497983 0.00127 -0.00078000006
0.042845268 -0.00090714288 -0.0021545456
0.034477051 0.00018142856 -0.0069654547
-0.019748991 0.00127 -0.0014672728
0.026108837 0.00127 -0.0014672728
0.019079534 0.00127 -0.0011236364
0.034477051 -0.00018142856 -0.0059345458
-0.023765735 -0.00127 -0.0011236364
-0.027113022 0.00127 -0.00043636368
0.006025116 -0.00127 -0.00043636368
-0.0053556585 -0.00127 -0.002498182
0.021757364 0.00018142856 -9.2727329e-05
-0.030125581 0.00018142856 -0.0021545456
-0.028451936 -0.00127 -9.2727329e-05
-0.001004186 0.00018142856 -0.0035290911
0.0090376744 -0.00018142856 -0.0055909092
-0.01774062 0.00127 -0.00043636368
0.004016744 -0.00018142856 0.0019690909
-0.036150698 0.00127 -0.0014672728
0.019414263 0.00018142856 -9.2727329e-05
0.001004186 0.00127 -0.0014672728
0.014058604 -0.00127 -0.0011236364
-0.014058604 0.00018142856 -0.0066218185
-0.0043514725 -0.00127 -0.002498182
-0.03246868 -0.00127 -0.0014672728
0.022092093 -0.00018142856 -9.2727329e-05
0.042175811 -0.00018142856 -0.0035290911
-0.035146508 0.00054428569 -0.0021545456
-0.025104649 -0.00127 -0.0011236364
-0.042175811 -0.00090714288 -0.0021545456
-0.0056903875 0.00127 -0.00043636368
-0.0090376744 -0.00127 -0.00078000006
-0.018075349 -0.00127 -0.0011236364
0.004016744 -0.00018142856 0.00059454539
0.030460309 0.00018142856 -9.2727329e-05
-0.016066976 0.00127 -9.2727329e-05
0.0066945734 -0.00127 -0.0021545456
-0.032133952 -0.00127 -0.00043636368
0.015732247 -0.00054428569 -0.00043636368
-0.024100464 -0.00018142856 0.0026563636
-0.039163254 0.00018142856 0.00059454539
-0.027113022 -0.00127 -9.2727329e-05
0.034477051 -0.00018142856 -0.0035290911
0.031799223 -0.00018142856 0.0026563636
-0.021422634 -0.00127 -0.0011236364
0.01506279 -0.00018142856 -9.2727329e-05
-0.0076987594 0.00127 -9.2727329e-05
0.016736433 -0.00018142856 0.00059454539
0.013054418 -0.00018142856 -9.2727329e-05
0.018410077 0.00018142856 -9.2727329e-05
0.023096278 0.00127 -0.0011236364
-0.006025116 -0.00018142856 -0.0066218185
-0.039832711 -0.00127 -0.0011236364
-0.035146508 -0.00054428569 -0.0021545456
-0.002008372 0.00054428569 -0.002498182
-0.026443565 0.00127 -0.0018109091
-0.026778294 0.00018142856 -0.005247273
0.037154883 0.00090714288 -0.00043636368
-0.023096278 -0.00127 -9.2727329e-05
0.008702945 0.00090714288 -9.2727329e-05
-0.026443565 0.00090714288 -9.2727329e-05
-0.034142323 -0.00018142856 -0.0059345458
0.014728062 -0.00127 -0.0011236364
-0.004016744 -0.00018142856 0.0016254545
0.002008372 -0.00090714288 -0.002498182
0.026778294 -0.00018142856 -0.0076527274
-0.013389147 -0.00127 -0.0021545456
0.015397519 0.00127 -0.00078000006
0.0013389146 -0.00018142856 -0.0062781819
0.024769921 -0.00127 -0.00043636368
0.0093724029 0.00018142856 -0.0021545456
0.00066945731 0.00127 -0.0011236364
0.0023431007 0.00127 -0.002498182
0.026108837 0.00127 -0.0021545456
-0.004016744 0.00127 -0.0014672728
0.006025116 0.00090714288 -0.0021545456
-0.038159069 0.00090714288 -9.2727329e-05
0.034477051 0.00127 -0.00043636368
0.021757364 0.00018142856 -0.002498182
-0.036820155 -0.00018142856 -0.0055909092
-0.034477051 0.00018142856 -0.002498182
0.038159069 -0.00090714288 -0.0021545456
0.021422634 -0.00018142856 -0.0049036364
0.036485426 0.00127 -0.0014672728
0.0023431007 0.00018142856 -0.002498182
0.036820155 0.00018142856 0.0026563636
-0.021757364 0.00127 -0.0014672728
0.002008372 -0.00127 -9.2727329e-05
0.0053556585 0.00018142856 -9.2727329e-05
0.020753177 0.00127 -0.0018109091
-0.026443565 -0.00018142856 -0.0031854548
0.016401704 0.00018142856 -9.2727329e-05
0.0097071314 0.00127 -0.0021545456
-0.030460309 0.00127 -0.0021545456
-0.011380775 -0.00018142856 -0.0049036364
0.010376588 0.00127 -0.00043636368
0.018410077 0.00127 -0.0018109091
-0.026778294 0.00018142856 -0.0035290911
-0.0090376744 -0.00018142856 -9.2727329e-05
0.01740589 -0.00127 -9.2727329e-05
0.0073640309 -0.00127 -0.0014672728
0.02276155 0.00127 -0.0011236364
0.038828526 0.00127 -0.00078000006
0.019079534 -0.00054428569 -0.00043636368
-0.01774062 -0.00127 -0.0018109091
-0.035481241 0.00054428569 -0.00043636368
-0.0013389146 -0.00054428569 -0.00043636368
-0.0090376744 0.00127 -0.0018109091
0.011380775 -0.00018142856 -0.0073090913
-0.014728062 0.00127 -9.2727329e-05
-0.013054418 -0.00127 -0.00043636368
-0.013054418 0.00127 -0.0021545456
0.011715503 -0.00127 -0.0014672728
-0.0083682165 -0.00018142856 -9.2727329e-05
-0.01004186 0.00054428569 -0.00043636368
-0.026778294 -0.00018142856 -0.005247273
-0.042845268 0.00090714288 -0.0021545456
-0.008702945 0.00018142856 -0.0038727275
0.015732247 -0.00127 -0.00078000006
0.023096278 -0.00127 -0.00043636368
-0.012050232 0.00127 -0.00078000006
0.030460309 0.00054428569 -0.0021545456
-0.019079534 0.00018142856 0.0023127273
-0.0026778292 -0.00127 -9.2727329e-05
-0.011380775 0.00018142856 0.0012818181
-0.015397519 -0.00090714288 -0.0021545456
0.04016744 -0.00018142856 -0.00043636368
-0.013723875 -0.00018142856 -0.0031854548
-0.016401704 -0.00018142856 0.00059454539
0.025774108 0.00127 -0.0021545456
-0.016736433 -0.00127 -0.0011236364
0.040836897 0.00090714288 -0.00043636368
0.040502168 0.00090714288 -0.0021545456
0.017071161 -0.00090714288 -0.0021545456
0.024100464 0.00018142856 0.0019690909
-0.016401704 0.00127 -0.0011236364
0.0073640309 0.00054428569 -0.00043636368
-0.020753177 0.00054428569 -0.0021545456
-0.03782434 -0.00127 -0.0014672728
-0.034477051 -0.00090714288 -9.2727329e-05
0.008702945 0.00018142856 -0.0055909092
-0.026108837 -0.00018142856 -0.0021545456
-0.022092093 -0.00127 -0.00078000006
-0.034142323 -0.00018142856 -0.0042163637
-0.035815969 -0.00127 -0.0014672728
-0.032133952 0.00054428569 -0.0021545456
-0.0080334879 -0.00090714288 -9.2727329e-05
-0.025439378 -0.00127 -0.0018109091
-0.038828526 -0.00127 -0.0011236364
-0.030795038 0.00127 -0.0014672728
-0.0033472867 0.00018142856 -9.2727329e-05
-0.008702945 -0.00054428569 -0.00043636368
-0.016736433 0.00018142856 -0.0059345458
-0.0063598445 0.00127 -9.2727329e-05
-0.015732247 0.00018142856 -0.0021545456
0.042175811 -0.00018142856 -0.002498182
-0.016736433 -0.00090714288 -0.002498182
0.031129766 -0.00127 -0.0014672728
-0.031799223 -0.00054428569 -0.00043636368
-0.028117208 0.00090714288 -9.2727329e-05
0.0097071314 -0.00090714288 -0.0021545456
0.03481178 0.00018142856 -9.2727329e-05
0.0043514725 -0.00127 -0.0014672728
0.026778294 0.00018142856 -0.005247273
0.0090376744 -0.00090714288 -9.2727329e-05
-0.01740589 -0.00018142856 -9.2727329e-05
0.014393332 0.00127 -0.00043636368
-0.0013389146 -0.00018142856 -0.0055909092
0.038159069 -0.00127 -0.00043636368
-0.031129766 -0.00127 -0.0018109091
0.031799223 -0.00018142856 0.00059454539
-0.00502093 -0.00127 -0.0021545456
-0.030795038 0.00054428569 -0.0021545456
-0.021422634 -0.00127 -0.00078000006
0.026108837 0.00090714288 -0.0021545456
0.041506354 -0.00127 -0.00078000006
-0.0023431007 0.00090714288 -0.002498182
-0.019079534 0.00127 -0.00043636368
0.036820155 0.00054428569 -0.002498182
-0.011380775 0.00018142856 -0.0066218185
-0.01774062 0.00054428569 -0.00043636368
-0.01774062 0.00127 -0.0011236364
-0.020418448 -0.00127 -0.00043636368
0.008702945 -0.00018142856 0.00025090904
0.031464495 -0.00018142856 0.0023127273
0.013054418 0.00127 -0.00078000006
0.03246868 -0.00090714288 -9.2727329e-05
-0.036820155 -0.00090714288 -0.00043636368
-0.021422634 -0.00018142856 -0.0035290911
0.030125581 0.00127 -0.0021545456
0.025439378 0.00127 -0.0018109091
-0.001004186 0.00018142856 -0.0028418184
0.0063598445 -0.00127 -0.00078000006
-0.011380775 -0.00018142856 0.0019690909
-0.0090376744 0.00127 -0.00078000006
-0.039163254 0.00127 -0.0011236364
0.01740589 -0.00018142856 -9.2727329e-05
-0.0090376744 0.00018142856 0.0012818181
