# .PCD v0.7 - Point Cloud Data file format
VERSION 0.7
FIELDS x y z
SIZE 4 4 4
TYPE F F F
COUNT 1 1 1
WIDTH 1356
HEIGHT 1
VIEWPOINT 0 0 0 1 0 0 0
POINTS 1356
DATA ascii
-0.014615079 -0.00127 -0.00087947375
0.016661189 0.000635 -0.00028263163
0.010230555 0 1.5789421e-05
0.028060952 -0.0003175 -0.0047589475
-0.0052614287 -0.0003175 -0.0053557898
-0.0073075397 -0.00095249998 -0.0023715789
0.012276666 0.00095249998 -0.0023715789
0.02046111 -0.0003175 -0.0038636844
0.026307143 -0.00095249998 -0.00028263163
-0.030399365 0.0003175 0.00091105257
0.011692063 0.00127 -0.0023715789
-0.0017538095 -0.00127 -0.0023715789
-0.013738175 -0.00127 -0.0017747369
-0.0075998413 0.0003175 0.00091105257
-0.004969127 -0.00127 -0.0023715789
0.0090613496 -0.00127 -0.002073158
-0.0026307143 0.00095249998 -0.00028263163
-0.014615079 0.00127 -0.0017747369
-0.009938254 0 -0.007444737
-0.010230555 -0.0003175 0.0015078947
-0.025430238 0.000635 -0.0023715789
-0.013153572 0.0003175 -0.0023715789
0.014907381 0.00127 -0.0017747369
-0.002046111 0.00127 -0.00028263163
-0.011107461 0.00127 -0.0014763159
-0.012568968 0.0003175 -0.0068478948
-0.030691667 0 0.00061263156
0.0043845237 0 -0.0023715789
-0.004969127 -0.00127 -0.0017747369
-0.033030078 0 -0.0041621053
0.028060952 0.00127 -0.0017747369
-0.021338016 0.0003175 -0.00028263163
0.0067229364 -0.0003175 -0.00028263163
-0.033030078 0.00127 -0.0014763159
-0.034491587 0.00127 -0.0017747369
-0.012568968 0.0003175 0.0021047369
-0.0023384127 -0.0003175 -0.0044605266
0.0011692063 -0.000635 -0.00028263163
0.025137937 0 -0.0041621053
0.034491587 -0.00127 -0.00087947375
-0.011399762 0.00127 -0.00028263163
0.014615079 0 -0.0023715789
-0.011399762 0.000635 -0.0023715789
0.0023384127 0.0003175 -0.0047589475
0.010815158 0.00127 -0.002073158
0.012568968 -0.00127 -0.00087947375
-0.030691667 0 -0.006251053
0.018999603 0.000635 -0.00028263163
0.010230555 0 0.00031421048
-0.007892143 0.00127 -0.0011778948
-0.0090613496 -0.0003175 -0.0023715789
0.021045715 0.00127 -0.0011778948
0.030983968 0.00127 -0.002073158
-0.032737777 -0.00127 -0.0017747369
-0.031276271 -0.00127 -0.0017747369
-0.032445475 0 -0.0023715789
-0.016661189 -0.0003175 -0.00028263163
-0.023091825 0.0003175 -0.0041621053
0.030399365 0 0.00091105257
-0.0087690474 0 -0.0023715789
-0.015199683 -0.0003175 0.00031421048
-0.030691667 -0.0003175 -0.0023715789
0.017830396 0 -0.0050573684
-0.0075998413 0.0003175 -0.0077431579
-0.0061383331 0.00127 -0.00058105268
0.011399762 -0.00127 -0.00087947375
0.0011692063 -0.00095249998 -0.00028263163
-0.010230555 -0.0003175 -0.0077431579
0.0075998413 -0.00127 -0.0023715789
-0.016368888 0.0003175 -0.00028263163
0.0070152381 0.00127 -0.00028263163
-0.020168809 -0.0003175 -0.0032668421
-0.027184047 -0.00127 -0.002073158
-0.021630317 0.00095249998 -0.0023715789
-0.018999603 -0.00127 -0.0017747369
-0.023384126 -0.00127 -0.0017747369
0.022799524 -0.00127 -0.0017747369
0.0026307143 -0.0003175 0.00061263156
-0.018122699 0.00127 -0.00028263163
0.025430238 0.0003175 -0.0026700001
0.028353253 -0.0003175 -0.0023715789
0.0090613496 -0.00127 -0.00058105268
-0.036245398 0.0003175 -0.0023715789
0.021338016 -0.00127 -0.00058105268
-0.016368888 0.00095249998 -0.0023715789
-0.018122699 0.00127 -0.00058105268
0.032153174 -0.00127 -0.0017747369
0.028060952 0.00127 -0.0023715789
0.00029230159 0 0.0012094737
0.02952246 0.00127 -0.0017747369
0.030399365 0 -0.0032668421
-0.034199286 0.00127 -0.0014763159
-0.004969127 0.000635 -0.0023715789
-0.0058460315 -0.00127 -0.00028263163
-0.030107064 -0.00127 -0.00058105268
0.0096459519 0.00095249998 -0.00028263163
-0.026307143 -0.00127 -0.00028263163
0.024261031 -0.0003175 -0.0023715789
-0.032153174 -0.00127 -0.002073158
0.015491984 0.000635 -0.0023715789
-0.01286127 -0.0003175 0.00061263156
-0.010230555 0 0.0015078947
-0.033322379 -0.00127 -0.00058105268
0.015491984 -0.00095249998 -0.00028263163
-0.02601484 -0.000635 -0.00028263163
0.026891746 -0.00127 -0.0017747369
0.01286127 0.00127 -0.0023715789
-0.017538095 -0.00127 -0.00058105268
0.022799524 0 0.0012094737
0.015199683 0 -0.0038636844
0.021338016 0.00127 -0.0011778948
0.0073075397 0 0.0018063157
-0.016076587 -0.00127 -0.0017747369
0.007892143 -0.0003175 0.00061263156
0.0090613496 0.0003175 -0.0023715789
0.015784286 0.00127 -0.0014763159
-0.015199683 -0.0003175 -0.007444737
0.020168809 -0.00127 -0.0017747369
0.0026307143 0.0003175 -0.0059526316
-0.013738175 -0.00127 -0.002073158
0.02601484 0 -0.0023715789
0.02952246 -0.00095249998 -0.00028263163
0.017830396 0.0003175 -0.0059526316
0.033906985 0.0003175 -0.0023715789
-0.030399365 0.00127 -0.00058105268
-0.017830396 -0.000635 -0.0023715789
0.025430238 -0.0003175 -0.0077431579
0.02046111 0 0.0015078947
0.033030078 0.000635 -0.0023715789
0.01286127 -0.0003175 0.002403158
0.016953493 -0.00127 -0.0023715789
0.014030476 -0.00127 -0.0011778948
0.02046111 0 -0.0044605266
-0.010230555 -0.0003175 -0.0047589475
-0.0052614287 -0.0003175 -0.0056542107
-0.035660792 -0.00095249998 -0.00028263163
0.020168809 0 -0.0053557898
-0.028937858 0.0003175 -0.0023715789
0.0040922221 0.00127 -0.0017747369
0.019584207 0.0003175 -0.0023715789
-0.030691667 -0.0003175 -0.006251053
-0.015491984 0 0.00091105257
0.0067229364 -0.000635 -0.00028263163
-0.015784286 -0.00127 -0.002073158
0.031860873 0.00127 -0.0014763159
0.0029230157 0.000635 -0.0023715789
0.025722539 -0.00127 -0.0014763159
0.035660792 0.0003175 -0.0071463161
0.026891746 -0.0003175 -0.00028263163
0 -0.0003175 -0.0050573684
0.031568572 -0.00095249998 -0.00028263163
-0.020168809 0.00127 -0.00087947375
-0.01286127 0.000635 -0.0023715789
0.0023384127 -0.00127 -0.00028263163
-0.0032153174 0.00095249998 -0.0023715789
-0.015784286 -0.0003175 -0.00028263163
0.032737777 -0.00127 -0.00028263163
0.024261031 -0.000635 -0.0023715789
0.035368491 -0.00127 -0.002073158
-0.018415 0.00127 -0.00058105268
-0.020168809 0 0.0015078947
-0.0026307143 0.0003175 -0.0032668421
0.034199286 0.000635 -0.00028263163
0.0026307143 -0.0003175 0.0012094737
-0.025137937 0 0.00091105257
0.035368491 0 -0.0071463161
0.0026307143 0.0003175 -0.0068478948
0.004969127 0 -0.0071463161
0.022799524 -0.0003175 -0.0038636844
0.0052614287 -0.00095249998 -0.00028263163
-0.0061383331 -0.00095249998 -0.0023715789
-0.012568968 0.000635 -0.0023715789
0.018999603 0.00127 -0.0023715789
0.023676429 -0.000635 -0.0023715789
-0.004969127 -0.0003175 -0.0068478948
-0.016076587 0.000635 -0.0023715789
-0.032737777 0 -0.0077431579
0.018707301 -0.00127 -0.00087947375
0.027768651 -0.00127 -0.00028263163
-0.033030078 -0.0003175 -0.0041621053
0.028060952 -0.0003175 -0.0053557898
-0.015491984 0 -0.0065494739
-0.027768651 -0.0003175 -0.0041621053
-0.027184047 0.00095249998 -0.00028263163
0.033322379 0 -0.0050573684
-0.036537699 0.0003175 -0.00058105268
0.0043845237 0.00127 -0.0014763159
0.030399365 -0.0003175 0.00031421048
-0.012276666 -0.00127 -0.0011778948
-0.013445873 -0.000635 -0.0023715789
-0.022214921 -0.00127 -0.0014763159
-0.019584207 -0.00127 -0.0023715789
-0.035368491 0 1.5789421e-05
0.011984365 0.00127 -0.0017747369
0.035368491 0 0.002403158
-0.00029230159 0 0.0015078947
-0.02747635 -0.00127 -0.0014763159
-0.021630317 -0.00127 -0.00087947375
-0.003507619 -0.00127 -0.002073158
-0.02601484 0.000635 -0.0023715789
0 -0.000635 -0.00028263163
-0.028060952 0.0003175 0.00061263156
-0.013445873 -0.0003175 -0.0023715789
0.020168809 0.0003175 0.0018063157
0.011399762 0.00127 -0.0023715789
-0.016076587 -0.00127 -0.0011778948
0.010230555 0 -0.0038636844
0.025430238 -0.000635 -0.00028263163
0.014615079 -0.00127 -0.0011778948
-0.022799524 0 -0.0077431579
-0.0061383331 -0.0003175 -0.00028263163
-0.035660792 0.0003175 -0.0059526316
0.016661189 -0.00095249998 -0.0023715789
-0.017245794 -0.000635 -0.0023715789
-0.030691667 -0.00127 -0.0017747369
-0.028645555 -0.00095249998 -0.0023715789
0.034491587 0.00127 -0.00058105268
-0.010230555 0 0.0012094737
-0.023384126 0.00127 -0.00087947375
0.015199683 -0.0003175 -0.006251053
0.010522857 0.00127 -0.0011778948
0.012276666 0.000635 -0.0023715789
0.02046111 -0.00127 -0.00087947375
-0.010815158 0.000635 -0.00028263163
-0.0064306348 -0.000635 -0.00028263163
-0.007892143 -0.00127 -0.00028263163
-0.033614684 -0.00127 -0.00058105268
-0.012568968 0.0003175 -0.0029684212
0.026599444 -0.00127 -0.00087947375
0.021630317 -0.00127 -0.00087947375
-0.020168809 0 -0.0035652632
0.0061383331 -0.000635 -0.00028263163
0.017830396 0.0003175 -0.007444737
0.025137937 0 -0.006251053
-0.023091825 0.0003175 -0.0053557898
0.0052614287 0.00127 -0.0023715789
-0.0075998413 0.0003175 0.00031421048
-0.0029230157 0.00127 -0.00058105268
0.022214921 0.00095249998 -0.0023715789
-0.022507222 0.00127 -0.00058105268
0.0017538095 0.0003175 -0.00028263163
-0.035368491 0 0.00031421048
-0.0052614287 -0.0003175 -0.0035652632
-0.011107461 0.00127 -0.0017747369
0.009938254 0.00095249998 -0.00028263163
-0.030399365 0.0003175 -0.0056542107
0.0061383331 0.00127 -0.0011778948
0.013153572 0.000635 -0.0023715789
0.022799524 0.0003175 1.5789421e-05
-0.009938254 -0.00127 -0.0017747369
-0.023676429 -0.00127 -0.0017747369
-0.02396873 0.0003175 -0.0023715789
-0.0073075397 0.00127 -0.00087947375
0.027768651 0 0.00061263156
-0.0026307143 0.00127 -0.0011778948
0.031568572 -0.000635 -0.00028263163
0.013738175 -0.00127 -0.00087947375
-0.013153572 0.00127 -0.0017747369
-0.027768651 0.00127 -0.0011778948
-0.0032153174 0.0003175 -0.00028263163
-0.035660792 0.0003175 -0.0056542107
0.025430238 -0.00127 -0.00028263163
-0.0029230157 -0.00127 -0.0014763159
0.0023384127 0 -0.0050573684
-0.014322777 0 -0.00028263163
-0.032153174 0.00127 -0.002073158
-0.014322777 -0.00127 -0.002073158
-0.013153572 0.00095249998 -0.0023715789
-0.017830396 -0.0003175 -0.0056542107
0.029814761 0.00127 -0.0011778948
0.028060952 0 -0.0077431579
0.025430238 0.0003175 0.0015078947
0.0037999207 0 -0.00028263163
-0.025430238 0.00127 -0.00058105268
-0.012276666 0.0003175 -0.0023715789
-0.035368491 -0.0003175 -0.00028263163
0.010230555 -0.0003175 -0.0026700001
0.020168809 0 -0.0059526316
-0.024845636 0.00127 -0.00028263163
0.022507222 0 -0.0023715789
0.0052614287 0.00127 -0.00058105268
0.022214921 0.00127 -0.0017747369
-0.027768651 0 0.0018063157
0.0075998413 -0.0003175 1.5789421e-05
-0.024261031 0.00127 -0.0017747369
0.016953493 -0.00095249998 -0.0023715789
-0.0073075397 -0.00095249998 -0.00028263163
-0.033030078 0 -0.0071463161
0.033030078 0.0003175 0.00031421048
-0.019876508 -0.00127 -0.0017747369
-0.023676429 -0.00127 -0.0023715789
-0.0070152381 0.00127 -0.0023715789
-0.021630317 0.00127 -0.0011778948
0.016076587 0.00127 -0.0017747369
0.036245398 -0.00095249998 -0.0014763159
0.035660792 0 1.5789421e-05
-0.0093536507 0 -0.00028263163
0.007892143 0.000635 -0.00028263163
0 -0.0003175 -0.0071463161
0.02046111 0.0003175 0.0018063157
-0.014030476 -0.00127 -0.00087947375
-0.028353253 0.00127 -0.00058105268
-0.033906985 0.00127 -0.0017747369
-0.025430238 0.00127 -0.00028263163
-0.028060952 -0.00127 -0.0014763159
0.00087690476 -0.00095249998 -0.0023715789
0.018415 -0.00127 -0.00087947375
-0.0055537303 0.00095249998 -0.0023715789
0.0043845237 0.0003175 -0.00028263163
-0.034491587 0.000635 -0.00028263163
-0.0075998413 0.00127 -0.00087947375
0.027184047 0.0003175 -0.00028263163
-0.030983968 0 -0.0023715789
0.010230555 -0.0003175 -0.0050573684
-0.030691667 0 0.0012094737
-0.012276666 0.000635 -0.00028263163
-0.020753413 -0.00127 -0.0014763159
-0.021045715 0.00095249998 -0.00028263163
0.015784286 -0.000635 -0.0023715789
-0.033030078 0.0003175 1.5789421e-05
-0.0052614287 0.00127 -0.0011778948
0.0073075397 0 -0.006251053
-0.013445873 0.00127 -0.00087947375
0.030691667 -0.00095249998 -0.0017747369
0.0026307143 0.0003175 0.0015078947
0.036537699 0.0003175 -0.00028263163
0.031276271 -0.000635 -0.0023715789
-0.017830396 -0.00127 -0.0023715789
0.011692063 -0.00095249998 -0.0023715789
0.0055537303 0.00127 -0.0011778948
0.0026307143 0.0003175 0.00031421048
-0.024845636 0.00095249998 -0.0023715789
-0.02046111 -0.0003175 0.0021047369
-0.0052614287 -0.00095249998 -0.00028263163
0.025137937 -0.00095249998 -0.0023715789
0.02747635 0.000635 -0.0023715789
-0.033030078 0.0003175 -0.0053557898
0.0090613496 -0.00095249998 -0.0023715789
0.004969127 -0.0003175 0.00031421048
-0.028060952 0.0003175 -0.0029684212
-0.015784286 -0.00127 -0.00028263163
-0.019291904 0.00127 -0.0017747369
-0.012568968 -0.000635 -0.00028263163
-0.029230159 0.00095249998 -0.0023715789
0.02952246 0.00095249998 -0.0023715789
0.030983968 -0.00127 -0.0011778948
-0.015199683 0.0003175 -0.0029684212
-0.035660792 -0.0003175 0.00091105257
0.010230555 0 0.0015078947
0.016076587 -0.0003175 -0.00028263163
0.019584207 -0.00127 -0.002073158
-0.00029230159 0 -0.0071463161
-0.0061383331 -0.0003175 -0.0023715789
0.027768651 0.0003175 0.00061263156
-0.015199683 0 0.00091105257
0.02952246 0.000635 -0.0023715789
-0.0052614287 0 0.0018063157
-0.017538095 0.00127 -0.002073158
0.033322379 0 -0.007444737
0.025137937 -0.00127 -0.0023715789
-0.0081844442 0.000635 -0.00028263163
0.035660792 0 0.0018063157
-0.022799524 -0.00095249998 -0.00028263163
-0.01286127 0.0003175 -0.0047589475
-0.032737777 -0.00127 -0.00028263163
-0.010522857 0.000635 -0.0023715789
0.017538095 0.0003175 -0.0071463161
-0.033322379 -0.00127 -0.0014763159
-0.0014615079 0.000635 -0.0023715789
0.009938254 -0.0003175 -0.00028263163
0.036537699 0 -0.002073158
0.020168809 0.0003175 0.00031421048
-0.025722539 0 0.0012094737
0.036830001 0.0003175 -0.00058105268
-0.022507222 -0.00127 -0.002073158
-0.022799524 -0.0003175 -0.0059526316
-0.023091825 0 0.00091105257
0.00029230159 0 -0.0077431579
-0.032737777 -0.00127 -0.00087947375
0.030399365 0.0003175 -0.0032668421
0.027768651 0.0003175 0.00031421048
0.021045715 0.00127 -0.00058105268
0.022799524 -0.00095249998 -0.00028263163
-0.022799524 -0.0003175 0.0021047369
-0.017830396 -0.00127 -0.00058105268
-0.017538095 0 1.5789421e-05
0.017830396 -0.00127 -0.0014763159
-0.0026307143 -0.000635 -0.00028263163
-0.025430238 0.0003175 0.0021047369
0.030983968 -0.00127 -0.0023715789
-0.016661189 0.0003175 -0.00028263163
0.033614684 0.00127 -0.0023715789
-0.021045715 0.00127 -0.002073158
0.019291904 -0.00127 -0.00058105268
0.02952246 -0.00127 -0.0023715789
0.012568968 0.00127 -0.00087947375
-0.028353253 0.00127 -0.00028263163
0.030399365 -0.0003175 -0.0065494739
-0.010815158 -0.0003175 -0.00028263163
-0.019876508 -0.00095249998 -0.0023715789
-0.00087690476 0.00127 -0.0014763159
0.009938254 0.00127 -0.00028263163
-0.0087690474 -0.00127 -0.0014763159
-0.017830396 -0.0003175 0.0018063157
-0.015199683 0 -0.0026700001
-0.0093536507 0.000635 -0.00028263163
0.01286127 -0.0003175 0.00031421048
-0.013153572 0.00127 -0.002073158
-0.02747635 -0.00127 -0.002073158
-0.017830396 0.00127 -0.002073158
-0.027768651 -0.0003175 -0.0038636844
-0.023091825 0.00127 -0.00028263163
-0.0073075397 0 1.5789421e-05
-0.0046768254 0.00127 -0.002073158
0.032445475 -0.0003175 -0.0023715789
-0.023091825 0 -0.0038636844
-0.0075998413 -0.0003175 -0.007444737
0.032737777 0.00095249998 -0.0023715789
-0.023091825 -0.00095249998 -0.00028263163
-0.0023384127 -0.0003175 0.0021047369
-0.020168809 0 -0.0071463161
-0.0084767463 -0.0003175 -0.00028263163
-0.028353253 -0.00127 -0.0017747369
-0.021922618 0.00095249998 -0.00028263163
-0.023384126 -0.0003175 -0.0023715789
0.00029230159 -0.0003175 -0.0068478948
0.011107461 -0.00127 -0.00058105268
0.022799524 -0.0003175 -0.0059526316
0.030691667 0 0.00061263156
0.030107064 0.00095249998 -0.0023715789
0.026307143 -0.00127 -0.0011778948
0.0052614287 0.0003175 0.0021047369
0.030107064 0.000635 -0.00028263163
0.011107461 0.000635 -0.00028263163
-0.025722539 -0.00095249998 -0.0023715789
0.0023384127 -0.00127 -0.0014763159
0.022799524 0.0003175 0.00091105257
0.017538095 0 -0.0071463161
0.034199286 -0.00095249998 -0.0023715789
0.0064306348 0.000635 -0.00028263163
0.01286127 0.00127 -0.0017747369
0.0023384127 0 -0.006251053
-0.0052614287 -0.0003175 0.0018063157
0.007892143 -0.00127 -0.0014763159
0.017245794 0.00127 -0.002073158
0.030399365 -0.0003175 0.00061263156
0.004969127 0.0003175 -0.0029684212
-0.016368888 0 -0.00028263163
0.015491984 0 -0.007444737
0.015784286 -0.00127 -0.00087947375
0.02952246 -0.00127 -0.0011778948
0.022214921 -0.00127 -0.00087947375
-0.030399365 0.0003175 0.002403158
0.029814761 -0.00095249998 -0.00028263163
-0.030691667 0 0.002403158
0.020168809 0.0003175 -0.0047589475
-0.025137937 0 0.00031421048
-0.035660792 -0.0003175 -0.0032668421
0.0026307143 -0.00127 -0.00087947375
-0.030691667 0 -0.0041621053
-0.016953493 -0.000635 -0.0023715789
0.015199683 0.0003175 0.00031421048
-0.016953493 -0.0003175 -0.0023715789
0.01286127 0.0003175 -0.0044605266
0.025430238 -0.00127 -0.0017747369
-0.007892143 0.00127 -0.0023715789
-0.018999603 0.0003175 -0.0023715789
-0.007892143 -0.0003175 -0.00028263163
-0.0026307143 0 -0.0047589475
0.023091825 0 -0.0056542107
0.020168809 -0.0003175 -0.0068478948
0.01286127 0.0003175 -0.0071463161
0.018999603 0.00127 -0.0017747369
0.017830396 0 0.0015078947
-0.035660792 0 -0.0029684212
0.033614684 -0.00127 -0.00028263163
-0.017538095 0.000635 -0.0023715789
-0.023384126 -0.00127 -0.00058105268
-0.026307143 0 -0.0023715789
0.0093536507 -0.00095249998 -0.00028263163
0.0026307143 0.000635 -0.0023715789
-0.02601484 0.00095249998 -0.0023715789
0.023091825 0 -0.0026700001
0.0075998413 -0.0003175 -0.0029684212
0.027184047 -0.000635 -0.00028263163
0.014030476 0.00127 -0.0017747369
0.036537699 0.00095249998 -0.002073158
-0.028060952 0 -0.0053557898
0.032445475 0.0003175 -0.0023715789
0.027768651 -0.0003175 -0.0050573684
0.0043845237 -0.00095249998 -0.00028263163
0.018122699 0.00095249998 -0.0023715789
-0.00029230159 0.00127 -0.0011778948
-0.016076587 -0.00127 -0.0014763159
0.014615079 0.00127 -0.00028263163
0.015784286 -0.0003175 -0.0023715789
0.017830396 -0.000635 -0.0023715789
0.016953493 -0.00127 -0.0014763159
0.007892143 0 -0.0041621053
-0.002046111 -0.0003175 -0.00028263163
-0.016953493 0.000635 -0.00028263163
-0.009938254 -0.0003175 -0.0029684212
0.0032153174 0.0003175 -0.00028263163
-0.013445873 -0.00127 -0.0014763159
-0.031860873 -0.00127 -0.0023715789
-0.032737777 -0.00127 -0.002073158
-0.030399365 0.000635 -0.0023715789
-0.036537699 0.000635 -0.0017747369
0.024845636 0.00095249998 -0.00028263163
0.024553332 0.00127 -0.002073158
-0.024553332 0.000635 -0.0023715789
-0.002046111 -0.00127 -0.0017747369
-0.018122699 0 -0.0023715789
-0.028060952 0 0.00031421048
-0.007892143 0 -0.0056542107
-0.0023384127 0.00127 -0.0011778948
0.02046111 -0.0003175 -0.0077431579
-0.028060952 0 0.0018063157
0.004969127 -0.0003175 -0.007444737
-0.015199683 0.00127 -0.0014763159
0.016076587 0.000635 -0.00028263163
-0.009938254 0 -0.0056542107
0.034783889 -0.00127 -0.002073158
-0.033030078 -0.0003175 1.5789421e-05
0.010230555 0.0003175 -0.0026700001
0.036537699 -0.00095249998 -0.0011778948
0.014615079 0.00095249998 -0.0023715789
0.017830396 0.0003175 -0.0032668421
-0.017830396 -0.0003175 -0.0035652632
-0.012568968 0 -0.0044605266
-0.012568968 -0.00127 -0.002073158
-0.0026307143 -0.0003175 -0.0038636844
-0.0026307143 0.0003175 -0.0035652632
0.0043845237 -0.0003175 -0.0023715789
-0.022799524 0 0.00061263156
0.004969127 -0.0003175 -0.0044605266
-0.02046111 0.0003175 -0.0050573684
-0.022799524 -0.0003175 0.0012094737
-0.0075998413 0.0003175 -0.006251053
0.033030078 0.0003175 -0.0047589475
0.011107461 -0.00127 -0.0011778948
-0.012568968 0 0.002403158
-0.022214921 0 -0.00028263163
0.030107064 0.00127 -0.0011778948
-0.031860873 0.00127 -0.0017747369
0.011107461 -0.00127 -0.0017747369
0.016661189 -0.00127 -0.002073158
-0.025722539 -0.0003175 -0.0023715789
-0.01286127 0 -0.0068478948
0 0.0003175 -0.0056542107
0.017830396 -0.000635 -0.00028263163
-0.007892143 0 0.002403158
0.016953493 0.00127 -0.0017747369
0.023091825 0 -0.007444737
0.020168809 0 0.002403158
-0.017830396 0 -0.0077431579
0.0084767463 -0.00127 -0.00087947375
-0.010230555 0.000635 -0.00028263163
-0.01286127 0.0003175 -0.0068478948
0.033906985 0.00095249998 -0.00028263163
-0.028060952 0.0003175 -0.0065494739
-0.015199683 -0.00127 -0.0023715789
0.017245794 0.00095249998 -0.0023715789
-0.02046111 0 -0.006251053
-0.031860873 -0.00127 -0.00087947375
0.0043845237 0.00095249998 -0.0023715789
0.021630317 -0.00095249998 -0.0023715789
-0.024261031 -0.0003175 -0.00028263163
0.009938254 0.000635 -0.0023715789
-0.031276271 -0.000635 -0.0023715789
-0.030983968 -0.000635 -0.0023715789
-0.0029230157 0.000635 -0.00028263163
0.012568968 -0.0003175 0.0018063157
-0.0029230157 0 -0.00028263163
0.0043845237 0.00127 -0.0017747369
-0.016661189 -0.00127 -0.0011778948
-0.02952246 0.0003175 -0.0023715789
0.0090613496 0.00095249998 -0.0023715789
-0.0081844442 -0.00127 -0.00058105268
0.030399365 0 -0.0044605266
0.028060952 0.0003175 0.00091105257
0.01286127 -0.0003175 -0.0035652632
-0.010230555 0.00127 -0.00028263163
0.020753413 0.000635 -0.00028263163
0.030399365 -0.0003175 -0.0059526316
-0.018707301 0.00095249998 -0.00028263163
0.028937858 -0.00095249998 -0.0023715789
0.025137937 -0.00127 -0.00058105268
-0.029814761 -0.00127 -0.0011778948
0.021630317 0.00127 -0.0017747369
0.017538095 0.00127 -0.0011778948
-0.010815158 -0.00127 -0.0014763159
0.0075998413 -0.0003175 -0.0026700001
0.00058460317 0.00095249998 -0.00028263163
0.020168809 -0.0003175 -0.0026700001
-0.0075998413 0.0003175 -0.0050573684
-0.033030078 0 -0.0050573684
0.013738175 0.00095249998 -0.00028263163
-0.026307143 -0.00095249998 -0.0023715789
0.030691667 0.00127 -0.0014763159
0.0087690474 -0.00127 -0.00087947375
-0.010522857 -0.00127 -0.0011778948
-0.011399762 -0.00127 -0.0023715789
0.0096459519 0.000635 -0.0023715789
0.014615079 0.00095249998 -0.00028263163
0.010230555 -0.0003175 -0.0056542107
0.011984365 -0.00127 -0.0011778948
0.030399365 -0.0003175 0.0012094737
0.017830396 0 -0.0077431579
0.022799524 0.0003175 0.00031421048
0.035368491 -0.00127 -0.0017747369
0.035953093 0.000635 -0.0023715789
0.0073075397 0 -0.0047589475
-0.0043845237 0.00127 -0.0011778948
0.025430238 -0.0003175 0.0018063157
-0.0046768254 0.00127 -0.0011778948
-0.0023384127 -0.0003175 -0.0038636844
-0.0040922221 -0.00127 -0.00058105268
-0.00029230159 0 -0.0053557898
-0.026307143 -0.00127 -0.0014763159
0.022507222 0.00095249998 -0.0023715789
0.022799524 0.0003175 -0.0032668421
-0.033030078 -0.0003175 0.0012094737
-0.012568968 -0.000635 -0.0023715789
0.0058460315 -0.000635 -0.00028263163
0.036245398 0.00095249998 -0.0014763159
-0.036537699 0.000635 -0.0023715789
0.012568968 -0.0003175 0.0015078947
0.00087690476 0 -0.0023715789
-0.02601484 -0.00127 -0.00058105268
0.010522857 0.00095249998 -0.0023715789
0.0084767463 -0.00127 -0.0023715789
-0.0093536507 0.0003175 -0.0023715789
-0.035660792 -0.000635 -0.00028263163
-0.025137937 -0.0003175 1.5789421e-05
0.00087690476 0.00127 -0.00087947375
0.030399365 0.00095249998 -0.00028263163
-0.024553332 0.00127 -0.0023715789
-0.004969127 0.0003175 -0.0029684212
0.030691667 0.00127 -0.0023715789
0.0067229364 -0.00127 -0.00028263163
-0.0090613496 -0.00127 -0.002073158
-0.013153572 0.00127 -0.00087947375
-0.020168809 0 -0.007444737
0.025430238 -0.0003175 -0.0056542107
-0.025722539 0 0.00061263156
0.0067229364 0.000635 -0.0023715789
-0.010815158 0.0003175 -0.00028263163
-0.019584207 0.00127 -0.00028263163
0.019876508 -0.0003175 -0.00028263163
-0.0087690474 -0.000635 -0.00028263163
-0.032153174 -0.00127 -0.00058105268
-0.02046111 -0.000635 -0.00028263163
0.0023384127 0 -0.0053557898
0.0046768254 0.00127 -0.00028263163
-0.0093536507 -0.00127 -0.00058105268
0.030691667 0 -0.0071463161
-0.0017538095 -0.0003175 -0.00028263163
-0.00029230159 0 -0.0035652632
-0.0046768254 -0.000635 -0.00028263163
0.015199683 -0.000635 -0.00028263163
-0.017538095 0 0.00061263156
-0.0023384127 0 -0.0065494739
-0.0073075397 0 0.00061263156
-0.0023384127 0 -0.0068478948
0.02046111 0 -0.0041621053
0.0026307143 0 -0.0035652632
0.018707301 0.00127 -0.0014763159
-0.024261031 0.0003175 -0.00028263163
0.030983968 -0.000635 -0.00028263163
0.00087690476 0.0003175 -0.00028263163
0.023384126 0.00127 -0.00058105268
0.010522857 0.0003175 -0.0023715789
0.0075998413 0 0.002403158
0.011399762 -0.000635 -0.00028263163
-0.027768651 0.0003175 -0.0044605266
0.0026307143 0 -0.0059526316
0.022507222 -0.000635 -0.0023715789
-0.025430238 -0.0003175 -0.0047589475
0.030107064 -0.000635 -0.00028263163
-0.014322777 -0.00127 -0.0011778948
-0.012568968 0.0003175 0.00091105257
-0.030691667 -0.00127 -0.002073158
-0.0023384127 0.00127 -0.00087947375
0.0014615079 0.000635 -0.0023715789
-0.022799524 0 0.002403158
0.022799524 0 -0.0053557898
0.018415 0.00127 -0.00058105268
-0.0075998413 0.00127 -0.00028263163
-0.030399365 0.0003175 0.0012094737
0.0075998413 -0.00127 -0.0017747369
-0.030399365 0 -0.007444737
-0.0011692063 -0.00127 -0.002073158
0.029814761 0 -0.00028263163
-0.020168809 0.0003175 -0.0068478948
-0.007892143 -0.0003175 -0.0023715789
0.0023384127 0.00095249998 -0.0023715789
-0.01286127 0.0003175 -0.0026700001
0.018707301 0 -0.0023715789
-0.020168809 0.0003175 -0.0038636844
0.015784286 0.00127 -0.0023715789
0.0014615079 0.00127 -0.002073158
0.020168809 -0.000635 -0.0023715789
0.033322379 -0.00095249998 -0.0023715789
-0.0017538095 -0.00127 -0.00028263163
0.028060952 0 0.0021047369
-0.007892143 -0.000635 -0.0023715789
-0.0052614287 0.0003175 0.0018063157
-0.012568968 0 -0.0059526316
-0.02396873 -0.00095249998 -0.00028263163
0.013153572 -0.00127 -0.0014763159
-0.027768651 -0.0003175 -0.006251053
-0.033322379 0.00127 -0.002073158
0.025722539 -0.00127 -0.00058105268
0.02601484 -0.00127 -0.002073158
-0.018122699 -0.00095249998 -0.00028263163
0.013445873 0.00127 -0.0011778948
-0.017245794 0.0003175 -0.0023715789
0.025722539 -0.000635 -0.00028263163
0.009938254 0.0003175 -0.0065494739
0.020168809 0 -0.0038636844
0.02046111 0.0003175 -0.0032668421
-0.031276271 -0.00127 -0.00058105268
-0.027768651 0 -0.0059526316
0.012568968 0 0.0021047369
0.0037999207 0.000635 -0.0023715789
-0.028060952 -0.0003175 -0.0065494739
0.010230555 0 0.0012094737
0.010815158 0.00127 -0.0023715789
0.022799524 0 -0.0071463161
-0.0014615079 -0.00127 -0.00058105268
0.0067229364 0.00095249998 -0.00028263163
0 0.0003175 -0.0050573684
-0.023676429 -0.000635 -0.00028263163
-0.035660792 0.0003175 -0.0044605266
0.022799524 -0.0003175 0.00061263156
0.0017538095 -0.00095249998 -0.00028263163
0.017830396 0.0003175 0.00091105257
0.017830396 0 -0.006251053
-0.027768651 0 -0.0047589475
0.0052614287 0.00127 -0.0014763159
-0.0052614287 0 -0.0035652632
0.030983968 -0.00127 -0.00087947375
-0.0067229364 -0.00127 -0.002073158
-0.004969127 0 -0.006251053
-0.0026307143 0 0.00091105257
0.028645555 0.00127 -0.0011778948
-0.00029230159 0.0003175 0.0018063157
-0.0067229364 -0.00127 -0.00087947375
0.019584207 0.0003175 -0.00028263163
-0.026599444 -0.00127 -0.0023715789
-0.033030078 0 0.002403158
0.0073075397 -0.00127 -0.0023715789
0.0052614287 -0.0003175 -0.0026700001
-0.021338016 0.00127 -0.0014763159
0.016953493 0.00127 -0.002073158
-0.023676429 0.00127 -0.0023715789
0.0087690474 0.00095249998 -0.00028263163
0.011984365 -0.00127 -0.00087947375
-0.012276666 -0.00127 -0.0014763159
-0.019584207 -0.00127 -0.0017747369
-0.017538095 0 -0.0059526316
0.026599444 0 -0.0023715789
0.018999603 0.00127 -0.002073158
0.033030078 0.0003175 0.0018063157
0.035368491 0 0.0021047369
-0.017830396 0.00095249998 -0.0023715789
-0.022799524 0 -0.0071463161
0.010230555 0.00127 -0.0011778948
0.026891746 -0.00127 -0.00028263163
0.02747635 0.0003175 -0.00028263163
-0.023091825 -0.00127 -0.00087947375
-0.016368888 -0.00127 -0.00058105268
0.030399365 0 -0.0071463161
0.011399762 0.00127 -0.00087947375
-0.035368491 0 0.002403158
-0.017538095 -0.00095249998 -0.00028263163
-0.030983968 -0.00127 -0.00087947375
0.015491984 0 -0.0044605266
-0.025722539 -0.00127 -0.00028263163
0.015199683 0.0003175 -0.0038636844
0.00029230159 -0.0003175 -0.0029684212
-0.021045715 -0.00127 -0.0014763159
0.0052614287 0.00095249998 -0.00028263163
0.004969127 -0.000635 -0.0023715789
0.014322777 -0.00127 -0.0017747369
0.011692063 -0.00127 -0.0017747369
0.003507619 -0.00127 -0.0023715789
0.031568572 0.00095249998 -0.00028263163
0.0093536507 -0.000635 -0.00028263163
-0.027768651 0.0003175 -0.0026700001
-0.027768651 0 -0.0026700001
0.0052614287 -0.000635 -0.0023715789
-0.00058460317 0.00127 -0.00087947375
-0.036537699 0 -0.00087947375
0.010230555 0 -0.0065494739
-0.034783889 -0.0003175 -0.0023715789
0.024845636 0.000635 -0.0023715789
0 -0.0003175 -0.0065494739
-0.02046111 -0.0003175 -0.0026700001
0.036830001 0.000635 -0.0011778948
-0.0087690474 -0.00127 -0.00058105268
0.033030078 -0.00127 -0.00087947375
-0.028645555 0.00095249998 -0.00028263163
0.011984365 0.00127 -0.00058105268
-0.020753413 0 -0.0023715789
0.029814761 -0.0003175 -0.0023715789
-0.033906985 0.000635 -0.00028263163
-0.014322777 0.000635 -0.0023715789
0.030399365 0.0003175 -0.0038636844
-0.020753413 -0.00127 -0.0017747369
-0.019291904 0.000635 -0.00028263163
-0.0026307143 -0.0003175 1.5789421e-05
0.025430238 0 -0.0056542107
-0.026599444 0.00095249998 -0.00028263163
-0.036245398 0.000635 -0.00028263163
-0.028353253 -0.00095249998 -0.00028263163
0.0017538095 0.00127 -0.00087947375
0.022799524 0 0.0018063157
-0.022214921 0 -0.0023715789
-0.0058460315 0.00127 -0.002073158
-0.009938254 -0.0003175 -0.0071463161
0.019876508 0.00127 -0.0014763159
-0.015199683 -0.00095249998 -0.00028263163
0.03507619 0.00127 -0.00087947375
0.0026307143 -0.000635 -0.0023715789
0.016368888 -0.00095249998 -0.00028263163
0.036830001 0.0003175 -0.00028263163
-0.034783889 -0.00127 -0.00087947375
0.012568968 0 -0.0053557898
-0.009938254 -0.00127 -0.00058105268
-0.004969127 0.0003175 0.00061263156
0.0037999207 0.00127 -0.00028263163
0.019584207 0.00127 -0.00058105268
-0.014615079 0.0003175 -0.00028263163
0.027768651 0.0003175 -0.0029684212
0.015199683 -0.0003175 0.00091105257
0.013153572 0 -0.0023715789
0.027768651 0.00127 -0.002073158
-0.009938254 0 -0.0044605266
0.022799524 -0.00127 -0.00058105268
0.0055537303 -0.00095249998 -0.00028263163
0.0023384127 0 -0.0068478948
-0.018122699 -0.00127 -0.002073158
-0.017538095 0 -0.0035652632
0.01286127 0 0.0015078947
-0.032153174 0.00127 -0.0011778948
0.021338016 0.0003175 -0.0023715789
-0.030691667 0 -0.0053557898
0.028937858 -0.00127 -0.00087947375
0.030399365 0.00127 -0.00028263163
-0.014907381 -0.00095249998 -0.0023715789
0.014907381 0 -0.0023715789
-0.030399365 0 -0.006251053
-0.015491984 -0.00127 -0.0014763159
0.0046768254 0.00127 -0.0014763159
-0.019291904 -0.00127 -0.002073158
0.011399762 0.000635 -0.0023715789
0.015491984 -0.00095249998 -0.0023715789
0.0075998413 0 -0.0053557898
0.0026307143 0.00127 -0.00087947375
-0.017830396 0.00127 -0.00087947375
-0.022214921 -0.000635 -0.0023715789
0.0029230157 -0.00127 -0.00028263163
0.013738175 0.00127 -0.00028263163
-0.014907381 0 -0.0050573684
0.003507619 0.00127 -0.002073158
-0.0040922221 0.00127 -0.00028263163
0.033906985 -0.00127 -0.00087947375
0.00029230159 0 0.00061263156
-0.0026307143 0 -0.0038636844
-0.028060952 -0.0003175 -0.0071463161
0.011399762 -0.000635 -0.0023715789
0.0032153174 0.000635 -0.00028263163
0.0023384127 -0.000635 -0.00028263163
0 0.0003175 0.002403158
0.028645555 0.00095249998 -0.0023715789
0.019584207 0 -0.0023715789
0.013153572 -0.000635 -0.0023715789
0.013153572 0.0003175 -0.0023715789
0.026891746 -0.000635 -0.0023715789
-0.0087690474 -0.00095249998 -0.0023715789
-0.02601484 0.00127 -0.00058105268
0.028060952 0.0003175 -0.0056542107
-0.01286127 -0.0003175 0.0018063157
-0.030399365 -0.00127 -0.0014763159
0.0026307143 0 -0.0032668421
0.011107461 0.00127 -0.0014763159
-0.0026307143 0.0003175 0.00091105257
-0.025430238 0.0003175 -0.0041621053
-0.033030078 -0.0003175 -0.0044605266
-0.0023384127 -0.00127 -0.00087947375
0.035953093 -0.00095249998 -0.002073158
-0.0058460315 -0.00127 -0.0023715789
-0.022214921 0.00127 -0.0011778948
-0.014615079 -0.0003175 -0.00028263163
-0.018999603 0.00127 -0.00028263163
-0.0075998413 0.0003175 -0.0035652632
0.0052614287 0.0003175 -0.0059526316
0.02747635 -0.00127 -0.0017747369
-0.020168809 -0.00127 -0.00058105268
-0.023676429 -0.0003175 -0.00028263163
0.014322777 -0.00095249998 -0.0023715789
0.0023384127 -0.00127 -0.00058105268
0.0081844442 -0.00127 -0.00087947375
-0.034783889 -0.00127 -0.0023715789
-0.0026307143 0 -0.0041621053
0.0061383331 0.000635 -0.00028263163
0.0029230157 0.000635 -0.00028263163
0.012276666 0.00127 -0.002073158
-0.0052614287 0 -0.0041621053
0.031568572 0 -0.00028263163
0.015199683 -0.0003175 0.0012094737
-0.0026307143 -0.00127 -0.00058105268
0.004969127 0.00127 -0.00058105268
-0.016661189 0.000635 -0.00028263163
-0.015491984 0.00127 -0.0017747369
-0.017830396 -0.0003175 0.002403158
0.0084767463 0.000635 -0.00028263163
-0.018415 -0.00127 -0.002073158
-0.018122699 -0.00127 -0.0011778948
-0.0061383331 0.000635 -0.00028263163
0.026307143 0.00095249998 -0.00028263163
0.0096459519 0.00127 -0.00087947375
-0.004969127 0 0.00091105257
-0.00058460317 -0.00127 -0.00087947375
0.0026307143 -0.0003175 0.002403158
-0.00029230159 -0.00095249998 -0.00028263163
-0.015199683 -0.0003175 -0.0059526316
0.012568968 0 0.00061263156
-0.022214921 0.00127 -0.002073158
-0.0075998413 -0.0003175 -0.0047589475
-0.016368888 0.00127 -0.00058105268
-0.0023384127 0.00127 -0.00028263163
0.01286127 -0.0003175 -0.0044605266
-0.010815158 0.00127 -0.00058105268
0.024845636 0.00127 -0.002073158
-0.020753413 0 -0.00028263163
-0.0046768254 -0.00095249998 -0.0023715789
-0.02046111 0.0003175 0.0018063157
0.012568968 0.0003175 -0.006251053
0.018415 0.00127 -0.0023715789
0.021045715 -0.00127 -0.00087947375
0.0087690474 -0.00127 -0.00058105268
0.018415 -0.00095249998 -0.00028263163
-0.015199683 0 0.00031421048
-0.030107064 -0.00127 -0.0011778948
-0.014615079 -0.00095249998 -0.0023715789
-0.003507619 0.00095249998 -0.00028263163
0.0023384127 0.0003175 0.00091105257
0.0040922221 0.000635 -0.00028263163
-0.022507222 0.00127 -0.0014763159
-0.010230555 0 -0.0032668421
-0.0023384127 -0.0003175 -0.0053557898
0.0011692063 0 -0.0023715789
-0.028060952 -0.0003175 0.00061263156
-0.004969127 -0.0003175 -0.0047589475
0 0.00127 -0.00058105268
-0.004969127 0.0003175 -0.0065494739
-0.028645555 0.00127 -0.00087947375
-0.021922618 -0.00127 -0.002073158
0.022507222 0.00127 -0.00028263163
-0.023384126 -0.0003175 -0.00028263163
-0.032445475 0.00127 -0.0011778948
0.011692063 0.00095249998 -0.00028263163
0.019291904 -0.00127 -0.0017747369
-0.0026307143 0 -0.0071463161
-0.009938254 0.0003175 0.0018063157
0.034491587 0.00127 -0.002073158
0.014907381 0 -0.0053557898
0.02046111 0 0.002403158
-0.003507619 -0.000635 -0.00028263163
0.02952246 0.00127 -0.0014763159
-0.002046111 0.00127 -0.00058105268
-0.010815158 -0.00127 -0.0011778948
-0.019291904 0.00127 -0.0011778948
-0.023091825 0 0.0018063157
-0.027768651 0.00127 -0.00087947375
-0.029814761 0.00127 -0.0023715789
-0.035660792 -0.00127 -0.00028263163
0.0011692063 0.0003175 -0.00028263163
0.031568572 -0.00127 -0.002073158
-0.02046111 0 -0.0044605266
-0.0014615079 -0.0003175 -0.00028263163
-0.004969127 0 -0.007444737
0.016661189 -0.00127 -0.0017747369
-0.010815158 0.0003175 -0.0023715789
-0.011107461 -0.00127 -0.00058105268
-0.019876508 0.00127 -0.0011778948
-0.020753413 0.00127 -0.002073158
0.028937858 0.0003175 -0.0023715789
0.014615079 0.00127 -0.00058105268
-0.022214921 0.00127 -0.00028263163
-0.004969127 0.00127 -0.002073158
-0.022799524 0.0003175 -0.0056542107
0.0046768254 -0.00127 -0.00087947375
-0.02046111 -0.0003175 -0.0032668421
-0.004969127 0 -0.0059526316
0.02747635 -0.000635 -0.00028263163
0.023091825 -0.00127 -0.0023715789
-0.011399762 0 -0.0023715789
-0.0073075397 0.00127 -0.0023715789
-0.030399365 0 0.0018063157
0.01286127 -0.00127 -0.002073158
0.0017538095 0.00127 -0.00058105268
-0.0040922221 -0.00127 -0.00087947375
-0.00029230159 0.0003175 -0.0056542107
-0.010230555 0.0003175 -0.0050573684
0.017830396 0 -0.0035652632
-0.0023384127 -0.0003175 -0.0026700001
-0.018122699 0.00127 -0.0011778948
0 0.00127 -0.0011778948
0.032737777 0 -0.0026700001
0.0075998413 0.00127 -0.0011778948
-0.022799524 -0.0003175 -0.0050573684
-0.034783889 0.00095249998 -0.0023715789
0.024845636 -0.000635 -0.00028263163
-0.009938254 0 -0.0050573684
-0.035660792 0.0003175 0.00031421048
-0.0052614287 0.00127 -0.002073158
0.031860873 -0.00127 -0.00058105268
0.035953093 -0.0003175 -0.00028263163
0.023091825 0 0.00061263156
-0.0084767463 -0.00127 -0.0011778948
-0.021922618 -0.00095249998 -0.00028263163
-0.0037999207 -0.00095249998 -0.00028263163
0.021922618 0.00095249998 -0.0023715789
0.025430238 -0.00127 -0.00087947375
-0.032737777 0 -0.0035652632
0.007892143 0 -0.0056542107
-0.02396873 -0.0003175 -0.0023715789
-0.035368491 0.00127 -0.0017747369
0.010815158 0 -0.00028263163
-0.018999603 -0.00127 -0.0014763159
0.016076587 -0.000635 -0.0023715789
0.033030078 0.0003175 -0.0032668421
0.014907381 0.000635 -0.0023715789
-0.017538095 0.00127 -0.0014763159
-0.029814761 0 -0.0023715789
-0.0070152381 0.000635 -0.0023715789
0.024845636 0 -0.00028263163
-0.01286127 0.00127 -0.00058105268
-0.022507222 0.00127 -0.0017747369
0.0081844442 -0.00095249998 -0.0023715789
-0.010522857 -0.0003175 -0.00028263163
-0.0075998413 0.00095249998 -0.0023715789
0 0.0003175 -0.0026700001
0.033322379 0.00127 -0.0017747369
0.004969127 0 0.002403158
0.011107461 -0.0003175 -0.0023715789
-0.0040922221 0.00127 -0.0017747369
-0.035368491 -0.00127 -0.0014763159
-0.026891746 -0.0003175 -0.00028263163
0.030691667 0 0.0021047369
-0.014322777 0.00127 -0.002073158
-0.0052614287 -0.0003175 -0.0029684212
-0.004969127 0.0003175 -0.006251053
0.021922618 0.00095249998 -0.00028263163
-0.02046111 0.0003175 0.00091105257
0.022799524 -0.0003175 -0.007444737
0 -0.0003175 -0.0053557898
0.028060952 0.0003175 -0.0035652632
0.026307143 0.00127 -0.00058105268
0.02046111 0.0003175 0.00031421048
0.025722539 0 0.0015078947
0.017830396 0.00127 -0.0011778948
-0.028645555 0.0003175 -0.0023715789
-0.023091825 0 -0.0029684212
0.017245794 0.0003175 -0.00028263163
-0.019584207 0.00127 -0.00087947375
-0.027768651 0 -0.0065494739
0.004969127 -0.0003175 -0.0050573684
-0.018707301 0.0003175 -0.0023715789
0.036537699 -0.0003175 -0.002073158
0 0.0003175 0.00031421048
0.004969127 0 0.0027015789
-0.00058460317 -0.000635 -0.0023715789
0.021922618 -0.0003175 -0.0023715789
0.035660792 0.00127 -0.00058105268
-0.028353253 0.000635 -0.0023715789
-0.019291904 -0.00127 -0.0023715789
-0.023091825 -0.0003175 -0.0047589475
-0.027184047 0.00127 -0.0011778948
-0.0023384127 -0.00127 -0.00028263163
-0.02952246 0.00095249998 -0.00028263163
0.0096459519 0.000635 -0.00028263163
-0.0055537303 -0.00127 -0.0011778948
0.018999603 0.00095249998 -0.0023715789
-0.027184047 -0.00127 -0.0014763159
-0.0026307143 -0.0003175 -0.0065494739
-0.0087690474 -0.0003175 -0.00028263163
0.012568968 0 -0.0047589475
-0.02601484 0.00127 -0.0023715789
0.021045715 -0.00127 -0.002073158
-0.004969127 0.0003175 -0.0026700001
0.02046111 0.0003175 0.0012094737
0.017245794 -0.00127 -0.0017747369
0.016368888 0.00127 -0.00028263163
-0.0096459519 0 -0.00028263163
0.023091825 -0.00095249998 -0.0023715789
0.029230159 -0.0003175 -0.00028263163
-0.0075998413 -0.0003175 -0.0053557898
0.030399365 -0.0003175 -0.0050573684
-0.027768651 0.00127 -0.0017747369
-0.027768651 0.0003175 0.00031421048
0.0026307143 0.0003175 -0.0029684212
-0.023091825 -0.0003175 -0.0044605266
-0.033030078 0.00127 -0.00058105268
-0.010230555 -0.0003175 -0.0059526316
-0.032737777 -0.00095249998 -0.00028263163
0.0084767463 -0.00095249998 -0.00028263163
0.031276271 0.00127 -0.00087947375
0.011984365 -0.00095249998 -0.0023715789
-0.029230159 0.00127 -0.00058105268
0.019876508 -0.00127 -0.0011778948
-0.030107064 0.00127 -0.0014763159
0.028060952 0.0003175 1.5789421e-05
0.022507222 0.000635 -0.0023715789
0.013153572 0.00127 -0.00028263163
0.031276271 0.00095249998 -0.00028263163
-0.027768651 0.0003175 -0.0059526316
-0.00029230159 0.0003175 0.0015078947
0.015199683 0 -0.0044605266
0.012568968 0 -0.0041621053
0.0011692063 -0.00127 -0.0014763159
0.015199683 -0.00127 -0.0017747369
-0.032737777 0 0.00031421048
-0.016368888 0.0003175 -0.0023715789
0.036245398 -0.0003175 -0.0023715789
0.010522857 -0.00127 -0.00028263163
-0.014615079 0.0003175 -0.0023715789
-0.033322379 0.00127 -0.00028263163
-0.013445873 -0.0003175 -0.00028263163
0.024553332 -0.00127 -0.00058105268
0.0014615079 -0.000635 -0.00028263163
-0.011399762 0.00095249998 -0.00028263163
0.027768651 0 -0.007444737
-0.033030078 0.0003175 -0.0071463161
0.0052614287 -0.0003175 -0.0059526316
0.0023384127 0.00127 -0.0023715789
-0.036245398 -0.00095249998 -0.0023715789
-0.0026307143 0 -0.007444737
-0.0026307143 0 -0.0077431579
-0.020168809 0.0003175 0.0012094737
0.022799524 -0.0003175 -0.0044605266
-0.035368491 0 -0.006251053
-0.026307143 0.00127 -0.00058105268
-0.0081844442 0 -0.0023715789
-0.031860873 -0.00127 -0.0014763159
0.010815158 0.00127 -0.0014763159
0.01286127 0.0003175 -0.0026700001
0.015491984 0.00127 -0.0023715789
-0.011984365 0 -0.0023715789
-0.015491984 0.00127 -0.00087947375
0.022799524 -0.0003175 -0.0041621053
-0.021922618 0.00127 -0.0014763159
0.017830396 0 1.5789421e-05
-0.022214921 -0.000635 -0.00028263163
-0.023091825 0.0003175 -0.0047589475
0.022799524 0.0003175 0.0018063157
-0.031860873 -0.000635 -0.0023715789
-0.021045715 0.00127 -0.0017747369
-0.0096459519 -0.00127 -0.00028263163
0.020168809 0.00127 -0.00028263163
0.034783889 0.00127 -0.00058105268
-0.0090613496 0.00095249998 -0.0023715789
0.02601484 -0.00127 -0.0017747369
0.032153174 0.00127 -0.00087947375
0.029230159 -0.00127 -0.00058105268
-0.022799524 0.0003175 0.00031421048
0.030399365 -0.0003175 0.0015078947
0.018415 0.00127 -0.0017747369
-0.01286127 -0.000635 -0.0023715789
0.023091825 -0.0003175 -0.0026700001
0.027768651 0 -0.006251053
0.025722539 0.000635 -0.0023715789
0.023091825 0 0.00031421048
0.012276666 0.00127 -0.00028263163
0.02396873 -0.00127 -0.00087947375
0.024261031 -0.00127 -0.002073158
-0.0081844442 -0.00127 -0.0017747369
0.011692063 0.00127 -0.002073158
0.011107461 -0.000635 -0.0023715789
0.007892143 0.000635 -0.0023715789
0.0090613496 0.00127 -0.002073158
-0.032153174 -0.00127 -0.0011778948
0.035953093 0.00127 -0.0023715789
0.020168809 -0.00095249998 -0.0023715789
0.015784286 -0.00127 -0.0023715789
0.022799524 -0.0003175 0.0021047369
0.033322379 -0.00095249998 -0.0014763159
-0.035660792 0.0003175 -0.0029684212
-0.007892143 0 -0.0047589475
-0.0075998413 -0.0003175 1.5789421e-05
0.017245794 -0.00127 -0.0014763159
-0.012276666 -0.00127 -0.00087947375
0.035660792 0 -0.0068478948
-0.022214921 0.0003175 -0.00028263163
0.004969127 0.00095249998 -0.00028263163
0.024845636 0.00127 -0.0014763159
0.0093536507 0.00127 -0.00087947375
0.023091825 0.00127 -0.0023715789
0.034783889 -0.000635 -0.00028263163
0.012568968 0.0003175 -0.0065494739
-0.021045715 -0.00127 -0.0011778948
0.023384126 -0.0003175 -0.00028263163
-0.033322379 -0.00127 -0.00028263163
0.022507222 0.00127 -0.0023715789
-0.026307143 -0.00095249998 -0.00028263163
-0.026891746 -0.000635 -0.00028263163
-0.018122699 0.00127 -0.0014763159
0.013738175 0.00127 -0.00058105268
0.018707301 0 -0.00028263163
0.018415 0 -0.00028263163
0.019291904 0.0003175 -0.0023715789
-0.0032153174 0.000635 -0.0023715789
-0.012568968 0.00127 -0.00028263163
-0.030399365 0.00127 -0.0011778948
0.010230555 -0.0003175 0.002403158
0.0055537303 -0.0003175 -0.0023715789
-0.034199286 0.00127 -0.002073158
0.00058460317 -0.00127 -0.0023715789
0 -0.00095249998 -0.00028263163
-0.036537699 0 -0.0011778948
-0.017245794 0.00095249998 -0.0023715789
0.01286127 -0.0003175 -0.0038636844
0.0052614287 -0.0003175 0.00091105257
0.010230555 0 -0.0047589475
0.017538095 -0.0003175 -0.0035652632
0 -0.0003175 -0.0059526316
-0.034783889 0.00127 -0.002073158
0.030691667 0 -0.0032668421
0.0090613496 0.00127 -0.00087947375
0.021338016 0.00127 -0.0023715789
-0.020753413 -0.00095249998 -0.0023715789
0.036830001 -0.0003175 -0.0014763159
0.00058460317 0.00127 -0.0017747369
0.021922618 -0.00127 -0.00028263163
0.020168809 -0.0003175 -0.0053557898
-0.0093536507 0.00127 -0.0011778948
-0.015199683 0.0003175 -0.0071463161
0.028060952 0.00127 -0.00028263163
-0.007892143 0 -0.006251053
-0.0026307143 0.0003175 1.5789421e-05
0.018707301 -0.000635 -0.00028263163
-0.018707301 -0.00127 -0.0011778948
0.0014615079 0.00127 -0.00087947375
-0.02601484 0.00127 -0.0017747369
0.015199683 -0.0003175 -0.0071463161
-0.022799524 -0.0003175 0.00031421048
0.0081844442 -0.00127 -0.00058105268
-0.0026307143 0.0003175 -0.0038636844
-0.028060952 0 -0.0068478948
-0.02046111 0 0.0021047369
0.017245794 0.00127 -0.00028263163
0.01286127 -0.0003175 -0.006251053
0.014322777 -0.00127 -0.0011778948
-0.024553332 -0.00127 -0.0023715789
-0.032445475 0.00127 -0.00028263163
0.010230555 -0.0003175 0.0021047369
0.025137937 0 0.0012094737
0.022799524 0.000635 -0.0023715789
-0.0052614287 0 -0.0056542107
0.025430238 -0.0003175 -0.0032668421
0.012568968 -0.0003175 0.0021047369
0.015199683 0.00095249998 -0.0023715789
-0.023091825 0 -0.0035652632
-0.0026307143 0.0003175 -0.0050573684
-0.0046768254 0.0003175 -0.00028263163
-0.018415 -0.00127 -0.0023715789
-0.022799524 0.0003175 -0.0032668421
-0.024845636 0.00127 -0.002073158
0.024261031 0.00095249998 -0.0023715789
0.025722539 0 1.5789421e-05
0.025430238 -0.00127 -0.00058105268
0.0052614287 0.00127 -0.00087947375
0.024261031 -0.00127 -0.00058105268
-0.035660792 -0.0003175 -0.0056542107
-0.00029230159 0 -0.0044605266
-0.036245398 0.00095249998 -0.00028263163
-0.022799524 -0.00127 -0.00028263163
-0.0081844442 -0.000635 -0.00028263163
0.012568968 0.0003175 0.0012094737
0.017538095 -0.0003175 0.0012094737
-0.002046111 0 -0.00028263163
0.026891746 -0.00127 -0.00087947375
-0.031276271 -0.00127 -0.0014763159
-0.0052614287 0 0.0012094737
0.0075998413 0.0003175 -0.0053557898
0.012568968 -0.0003175 -0.0053557898
0.0052614287 0.00127 -0.002073158
-0.016368888 -0.00127 -0.00087947375
-0.015491984 0.0003175 -0.0068478948
-0.0075998413 0.0003175 -0.0032668421
0.023384126 0.00127 -0.0017747369
0.034491587 0.00127 -0.0011778948
-0.019584207 -0.00127 -0.0011778948
0.009938254 0.0003175 -0.0050573684
0.021630317 0.000635 -0.00028263163
-0.02747635 -0.00127 -0.0011778948
-0.009938254 0.0003175 -0.0038636844
0.033030078 0.00095249998 -0.00028263163
0.015199683 0.00127 -0.00087947375
0.0093536507 -0.00127 -0.002073158
0.034491587 -0.00095249998 -0.002073158
0.011692063 -0.00127 -0.0014763159
0.028060952 -0.0003175 -0.0059526316
0.018999603 0 -0.0023715789
0.033030078 0.0003175 0.0012094737
-0.014615079 0.00127 -0.0014763159
-0.023091825 0.0003175 -0.0065494739
0.0075998413 -0.00127 -0.00058105268
0.022507222 -0.00127 -0.00087947375
-0.00058460317 0.00127 -0.0023715789
0.0075998413 -0.0003175 -0.0068478948
0.020168809 0.00127 -0.00087947375
-0.015199683 0 0.0018063157
-0.0087690474 -0.00127 -0.002073158
0.035368491 0.00095249998 -0.00028263163
0.021922618 0.00127 -0.00058105268
0.030399365 -0.000635 -0.00028263163
0.034199286 -0.00095249998 -0.00028263163
-0.035660792 0 -0.0056542107
-0.024553332 0.0003175 -0.00028263163
0.0026307143 -0.0003175 -0.0041621053
0.021338016 0.000635 -0.00028263163
-0.00029230159 0 0.00061263156
0.0026307143 0 -0.0038636844
-0.027768651 0.00095249998 -0.0023715789
-0.033906985 0.00127 -0.00028263163
0.022799524 0.0003175 0.00061263156
-0.034783889 0.000635 -0.00028263163
-0.012568968 0 0.0018063157
0.01286127 0.0003175 0.0021047369
-0.0023384127 0 0.00031421048
0.024261031 -0.000635 -0.00028263163
-0.014907381 0.00127 -0.00087947375
0.0023384127 0 0.00061263156
0.00029230159 0.00127 -0.0011778948
-0.0096459519 0.000635 -0.0023715789
-0.017830396 -0.0003175 1.5789421e-05
-0.012276666 -0.00127 -0.00058105268
-0.010230555 0 -0.0047589475
-0.015491984 0 0.00061263156
-0.034199286 -0.000635 -0.00028263163
0.027768651 0.00127 -0.00028263163
0.03507619 0.00127 -0.0011778948
0.010815158 0.00095249998 -0.0023715789
-0.035660792 0.000635 -0.0023715789
-0.0093536507 0.00095249998 -0.00028263163
-0.019291904 0.00127 -0.00058105268
-0.0064306348 -0.00127 -0.0014763159
0.010230555 0.000635 -0.00028263163
-0.021338016 -0.00127 -0.0017747369
0.0073075397 0 -0.0068478948
0.0026307143 -0.0003175 -0.0056542107
