# .PCD v0.7 - Point Cloud Data file format
VERSION 0.7
FIELDS x y z
SIZE 4 4 4
TYPE F F F
COUNT 1 1 1
WIDTH 1213
HEIGHT 1
VIEWPOINT 0 0 0 1 0 0 0
POINTS 1213
DATA ascii
-0.028482821 0.00070555555 -0.00032571438
-0.0019357257 0.00098777784 -0.0022657143
0.025440967 -0.00127 -0.0014342858
-0.00055306451 -0.00127 -0.0019885716
0.033183869 -0.00014111112 0.00022857136
0.021569515 0.00127 -4.8571506e-05
0.012997015 0.00014111112 0.00050571421
-0.010231693 -0.00014111112 -0.0033742858
0.0052541126 0.00042333335 -0.00032571438
-0.0066367742 0.00127 -0.00060285721
-0.029865483 -0.00127 -0.0014342858
-0.01106129 0.00070555555 -0.0022657143
-0.0030418548 -0.00098777784 -4.8571506e-05
0.020463387 0.00014111112 -0.0028200001
-0.029035887 -0.00127 -0.00060285721
-0.020186855 0.00127 -0.0014342858
0.027653225 0.00014111112 -0.0025428573
0.033460401 -0.00042333335 -0.0022657143
0.0022122581 -0.00127 -0.00060285721
0.0091255642 0.00127 -0.0017114287
0.023228709 -0.00014111112 -4.8571506e-05
0.025440967 0.00014111112 -0.0039285715
0.015209273 -0.00127 -0.00032571438
-0.017698064 -0.00127 -0.0014342858
-0.0074663707 -0.00127 -0.00032571438
0.00055306451 -0.00127 -0.0011571429
-0.020739919 -0.00127 -0.00060285721
-0.0082959672 -0.00042333335 -0.0022657143
0.01963379 -0.00070555555 -0.0022657143
-0.027929757 -0.00014111112 -0.0069771432
0.010231693 0.00014111112 -0.0080857147
-0.011890886 0.00127 -0.00032571438
0.0022122581 0.00014111112 -0.0075314287
-0.0060837097 -0.00127 -0.0019885716
-0.033460401 0.00098777784 -0.00032571438
0.024611371 -0.00127 -0.00032571438
0.025164435 -0.00127 -0.00032571438
-0.020463387 0.00014111112 0.0013371428
-0.0055306451 -0.00014111112 -4.8571506e-05
-0.034013465 -0.00098777784 -0.0017114287
-0.0071898387 -0.00042333335 -0.0022657143
0.027653225 -0.00014111112 0.0010599999
-0.027929757 0.00014111112 -0.0036514287
-0.0049775806 -0.00014111112 -0.0036514287
-0.021016451 -0.00127 -0.00060285721
-0.032354273 0.00070555555 -0.0022657143
0.013273548 -0.00127 -0.0022657143
0.025440967 0.00014111112 -0.0047600004
-0.0052541126 -0.00014111112 -0.0067000003
-0.013273548 -0.00042333335 -0.00032571438
0.012720483 -0.00098777784 -0.0022657143
0.031524677 0.00127 -0.00032571438
0.027929757 -0.00014111112 -0.0080857147
0.012443951 0.00014111112 0.00078285707
-0.01106129 -0.00014111112 -4.8571506e-05
-0.031248145 -0.00098777784 -0.0022657143
0.017974596 -0.00127 -0.0011571429
0.0077429027 0.00127 -0.00032571438
-0.013273548 0.00098777784 -0.0022657143
-0.032907337 0.00014111112 0.00022857136
-0.012443951 0.00014111112 -0.0072542862
0.022952177 -0.00014111112 -0.0039285715
0.0091255642 -0.00127 -0.00032571438
-0.0055306451 -0.00070555555 -0.0022657143
0.019080725 0.00127 -0.00088000012
-0.020186855 -0.00014111112 0.00022857136
0.0024887903 -0.00014111112 -0.0078085717
-0.027100161 -0.00042333335 -0.0022657143
0.023781773 -0.00042333335 -0.0022657143
-0.017144999 -0.00014111112 -4.8571506e-05
-0.012720483 0.00014111112 -0.0075314287
-0.0022122581 -0.00098777784 -4.8571506e-05
0.012720483 -0.00014111112 -0.0075314287
-0.033460401 -0.00127 -0.0014342858
-0.0024887903 -0.00014111112 0.0021685713
0.022952177 -0.00014111112 -4.8571506e-05
-0.013826612 0.00070555555 -0.0022657143
0.00027653226 0.00014111112 -0.0055914288
-0.022952177 0.00014111112 -0.003097143
-0.032630805 -0.00042333335 -0.0022657143
0.027653225 -0.00127 -0.0019885716
-0.0066367742 -0.00127 -0.0019885716
-0.0088490322 -0.00070555555 -0.0022657143
0.0049775806 0.00127 -4.8571506e-05
0.021569515 -0.00042333335 -0.0022657143
-0.025717499 -0.00098777784 -4.8571506e-05
-0.015485805 -0.00014111112 -0.0039285715
0.016315402 0.00070555555 -4.8571506e-05
-0.018804193 0.00127 -4.8571506e-05
0.0022122581 0.00014111112 -0.0055914288
0.0049775806 -0.00014111112 0.00050571421
-0.017698064 0.00127 -0.00060285721
-0.029865483 -0.00070555555 -0.0022657143
0.0052541126 -0.00127 -0.0019885716
-0.0052541126 0.00014111112 -0.0033742858
-0.0052541126 -0.00127 -0.0017114287
-0.020739919 0.00127 -0.0014342858
-0.00055306451 0.00098777784 -0.0022657143
-0.032077741 -0.00014111112 -0.00032571438
0.015485805 0.00014111112 -0.0047600004
0.0013826613 0.00014111112 -0.0022657143
-0.029588951 0.00127 -0.0022657143
-0.020463387 -0.00098777784 -0.0022657143
0.027929757 0.00014111112 -0.0025428573
0.012997015 -0.00127 -0.00060285721
0.0074663707 0.00014111112 -0.0058685718
-0.012720483 -0.00127 -0.0022657143
0.025164435 0.00127 -0.0022657143
0.030695079 -0.00014111112 0.00022857136
0.01106129 -0.00127 -0.0022657143
0.020186855 -0.00042333335 -0.0025428573
0.015485805 0.00098777784 -4.8571506e-05
0.0074663707 -0.00014111112 -0.0058685718
0.024887903 -0.00127 -0.00060285721
-0.012720483 0.00042333335 -0.0025428573
-0.024611371 0.00014111112 -4.8571506e-05
-0.022399113 -0.00127 -0.0014342858
0.0077429027 -0.00014111112 -0.0067000003
-0.027929757 0.00014111112 -0.0028200001
0.025440967 -0.00014111112 -0.0055914288
0.022122581 0.00014111112 -4.8571506e-05
0.026270563 0.00042333335 -0.00032571438
0.027100161 0.00098777784 -0.0022657143
-0.0077429027 -0.00127 -0.00088000012
-0.010231693 0.00014111112 -0.0033742858
-0.032907337 0.00042333335 -0.00032571438
-0.028482821 0.00127 -0.0011571429
-0.021569515 0.00042333335 -0.0022657143
-0.0027653226 0.00014111112 0.0013371428
-0.030418547 0.00014111112 -0.0064228573
-0.0052541126 -0.00014111112 -4.8571506e-05
0.030418547 -0.00070555555 -0.0022657143
-0.017421532 0.00070555555 -4.8571506e-05
0.0074663707 0.00014111112 -0.0055914288
0.01603887 -0.00070555555 -0.00032571438
-0.028206289 0.00127 -0.0022657143
0.027376693 -0.00127 -0.00060285721
-0.028482821 -0.00127 -0.0014342858
0.01603887 0.00127 -0.0014342858
-0.025440967 -0.00014111112 -0.0078085717
0.023505241 -0.00042333335 -0.00032571438
-0.0055306451 0.00127 -0.00032571438
0.021846049 -0.00070555555 -0.0022657143
0.0038714514 0.00070555555 -4.8571506e-05
0.00027653226 0.00014111112 -0.0078085717
0.030695079 0.00014111112 0.0013371428
0.016591934 0.00127 -4.8571506e-05
-0.018804193 -0.00042333335 -0.00032571438
-0.028482821 -0.00098777784 -0.0022657143
0.025440967 0.00014111112 0.0027228571
-0.030695079 -0.00127 -0.00032571438
0.017974596 -0.00014111112 -0.0036514287
0.031248145 0.00042333335 -0.0022657143
-0.027653225 -0.00014111112 0.0021685713
-0.010784757 -0.00042333335 -0.0022657143
0.0063602417 -0.00014111112 -4.8571506e-05
0.019357257 0.00127 -0.0011571429
0.024058305 0.00127 -0.0011571429
0.0019357257 0.00042333335 -0.00032571438
0.032907337 -0.00127 -0.0014342858
-0.020186855 -0.00014111112 -0.0044828574
-0.025164435 0.00014111112 0.00078285707
0.015209273 -0.00014111112 0.00050571421
-0.020186855 -0.00127 -0.00032571438
0.01355008 -0.00127 -0.0017114287
-0.025164435 -0.00014111112 -0.003097143
-0.0055306451 0.00127 -0.0022657143
0.0035949193 -0.00098777784 -4.8571506e-05
-0.032630805 0.00070555555 -0.0022657143
-0.030695079 0.00014111112 -0.0061457143
0.032630805 -0.00127 -0.0019885716
0.0038714514 0.00127 -0.0019885716
0.010508225 0.00127 -0.0011571429
0.024887903 0.00127 -0.00088000012
0.030695079 -0.00042333335 -0.0022657143
-0.030418547 -0.00014111112 0.0021685713
-0.021846049 0.00014111112 -4.8571506e-05
-0.025164435 0.00014111112 -0.0058685718
-0.032630805 -0.00127 -0.0011571429
-0.032077741 -0.00014111112 -0.0022657143
-0.020463387 -0.00014111112 -0.0028200001
-0.014103144 0.00042333335 -0.0022657143
-0.032077741 -0.00042333335 -0.00032571438
0.015209273 0.00127 -0.00088000012
-0.030695079 0.00014111112 -0.0033742858
-0.0055306451 -0.00127 -0.0014342858
0.0063602417 0.00127 -0.00032571438
-0.010231693 0.00014111112 0.0024457143
-0.025164435 -0.00042333335 -0.0022657143
0.032354273 0.00070555555 -0.00032571438
0.013826612 0.00127 -0.00088000012
-0.027653225 0.00127 -0.0019885716
0.0060837097 -0.00014111112 -0.0022657143
0.010231693 -0.00014111112 -0.0036514287
-0.033183869 -0.00070555555 -0.00032571438
0.0052541126 0.00014111112 -0.0064228573
-0.014656209 0.00070555555 -0.0022657143
0.0049775806 -0.00014111112 -0.0075314287
-0.020739919 0.00127 -0.0017114287
-0.029865483 0.00098777784 -4.8571506e-05
-0.0099551613 -0.00014111112 -0.0061457143
0.010231693 -0.00014111112 0.0013371428
-0.023781773 -0.00127 -0.0017114287
0 -0.00098777784 -0.0022657143
-0.0066367742 0.00127 -0.00088000012
-0.028759355 0.00014111112 -0.0022657143
-0.018527661 0.00127 -0.0017114287
0.029312419 -0.00014111112 -0.00032571438
-0.027376693 0.00014111112 -0.0022657143
-0.011614354 0.00127 -0.00060285721
0.017974596 0.00014111112 0.0013371428
0.029312419 0.00098777784 -0.0022657143
0.028206289 -0.00014111112 -0.0033742858
0 -0.00014111112 -0.0083628576
0.010231693 0.00042333335 -0.00032571438
-0.0094020963 -0.00127 -0.00088000012
-0.0074663707 0.00127 -0.00032571438
0.0024887903 -0.00014111112 0.0016142856
0.015762338 0.00014111112 -0.0022657143
-0.010784757 -0.00127 -0.0017114287
0.024058305 0.00127 -0.00060285721
-0.0035949193 0.00127 -0.0019885716
0.016868467 0.00042333335 -0.00032571438
0.010508225 -0.00070555555 -0.00032571438
0.0027653226 -0.00014111112 0.0010599999
0.031248145 0.00014111112 -0.0022657143
0.0052541126 0.00127 -0.00088000012
0.0099551613 0.00014111112 0.00022857136
0.030695079 -0.00014111112 -0.0069771432
0.022952177 -0.00127 -0.0019885716
-0.012997015 -0.00014111112 -0.0044828574
-0.015209273 -0.00014111112 -0.0078085717
-0.025164435 0.00014111112 -0.003097143
-0.017698064 0.00127 -0.0014342858
0.025440967 0.00014111112 -4.8571506e-05
0.027653225 0.00098777784 -0.0022657143
0.0027653226 -0.00127 -0.00088000012
-0.017421532 0.00127 -0.0011571429
0.0035949193 -0.00127 -0.0014342858
0.0016591935 0.00014111112 -4.8571506e-05
0.0052541126 -0.00014111112 -0.0061457143
-0.012720483 -0.00014111112 -0.003097143
0.026823629 -0.00127 -0.00060285721
-0.018251128 -0.00127 -0.0014342858
-0.025440967 0.00127 -0.0019885716
0.028206289 0.00014111112 -0.0072542862
-0.017698064 0.00014111112 -0.0078085717
0.030971611 0.00127 -0.0019885716
-0.0074663707 0.00014111112 0.0010599999
-0.032077741 0.00127 -0.00088000012
0.031801209 0.00070555555 -0.00032571438
-0.0082959672 -0.00042333335 -0.00032571438
0.00027653226 0.00127 -0.0022657143
-0.026270563 0.00098777784 -0.0022657143
0.0099551613 -0.00042333335 -0.00032571438
0.00027653226 -0.00014111112 0.0010599999
-0.0074663707 -0.00014111112 0.0021685713
-0.032907337 0.00014111112 0.00078285707
-0.020463387 -0.00014111112 -0.0075314287
0.012443951 0.00098777784 -0.0022657143
-0.015485805 0.00098777784 -0.0022657143
0.011337822 -0.00127 -0.0022657143
0.029865483 0.00127 -0.0011571429
0.017974596 0.00127 -0.0022657143
0.011337822 -0.00098777784 -0.0022657143
-0.023781773 0.00127 -0.00032571438
-0.024334839 -0.00127 -0.00060285721
-0.025440967 -0.00014111112 0.0016142856
0.018804193 0.00127 -0.00032571438
-0.033183869 -0.00042333335 -0.0025428573
0.027376693 -0.00070555555 -0.00032571438
-0.024058305 -0.00127 -0.0014342858
-0.028206289 0.00014111112 -0.0044828574
-0.0030418548 0.00042333335 -0.00032571438
-0.012720483 0.00042333335 -0.00032571438
0.032354273 0.00127 -0.00032571438
0.033460401 -0.00042333335 -0.00032571438
0.029312419 0.00127 -4.8571506e-05
-0.01106129 -0.00098777784 -4.8571506e-05
-0.025717499 0.00127 -0.0014342858
-0.032907337 -0.00014111112 -0.0050371429
-0.01603887 0.00014111112 -0.0022657143
0.025440967 0.00127 -0.0022657143
-0.0024887903 0.00014111112 -4.8571506e-05
0.0096786283 -0.00127 -0.0022657143
0.0027653226 0.00070555555 -0.0022657143
-0.012443951 0.00014111112 0.0021685713
0.020186855 0.00014111112 0.0021685713
0.016868467 0.00127 -0.0017114287
0.034013465 -0.00042333335 -0.00060285721
-0.0074663707 0.00014111112 0.00078285707
0.017698064 -0.00014111112 0.0016142856
0.0060837097 0.00127 -0.0017114287
0.0055306451 0.00070555555 -0.0022657143
0.022952177 -0.00014111112 -0.0061457143
-0.030695079 0.00014111112 0.0013371428
-0.027376693 0.00127 -0.00060285721
0.012720483 0.00070555555 -0.0022657143
0.029312419 0.00127 -0.0017114287
-0.031524677 0.00127 -0.0014342858
0.022122581 0.00127 -0.0019885716
0.0047010481 -0.00127 -0.0017114287
-0.0044245161 0.00127 -0.0017114287
0.025440967 -0.00014111112 0.00078285707
0.022675645 -0.00014111112 -0.0044828574
-0.0027653226 -0.00127 -0.0019885716
0.0088490322 0.00127 -0.0019885716
-0.023228709 -0.00014111112 -4.8571506e-05
-0.0077429027 -0.00014111112 -0.0061457143
-0.0066367742 0.00127 -0.0022657143
0.018804193 -0.00127 -0.00060285721
0.021016451 0.00098777784 -4.8571506e-05
-0.024887903 -0.00127 -0.00060285721
-0.025440967 -0.00014111112 -0.0042057144
0.022952177 -0.00014111112 -0.0067000003
-0.025717499 0.00098777784 -0.0022657143
-0.00027653226 0.00014111112 0.00078285707
-0.0049775806 0.00014111112 -0.0047600004
-0.0022122581 0.00098777784 -4.8571506e-05
0.014656209 -0.00098777784 -4.8571506e-05
-0.020463387 0.00014111112 -0.0042057144
-0.0096786283 -0.00127 -0.0011571429
-0.0099551613 -0.00014111112 0.0024457143
-0.032354273 0.00127 -0.0022657143
0.0099551613 -0.00014111112 -0.0078085717
0.012443951 0.00014111112 0.0010599999
-0.0049775806 0.00042333335 -0.00032571438
0.0082959672 0.00014111112 -0.0022657143
0.025164435 0.00014111112 -0.0067000003
-0.012443951 0.00070555555 -0.0022657143
-0.0027653226 0.00014111112 -0.0069771432
-0.017698064 -0.00127 -0.0017114287
-0.0052541126 0.00014111112 0.00050571421
-0.0052541126 -0.00014111112 -0.0069771432
-0.025717499 0.00127 -0.00032571438
-0.033460401 -0.00098777784 -0.00032571438
0.019080725 -0.00042333335 -0.00032571438
0.0077429027 0.00098777784 -0.0022657143
-0.030695079 -0.00014111112 0.0018914285
0.00055306451 -0.00127 -0.0019885716
0.021846049 -0.00127 -0.00060285721
0.012720483 0.00014111112 0.0027228571
0.016591934 0.00127 -0.00088000012
0.012997015 0.00014111112 -0.0044828574
-0.019910323 -0.00098777784 -0.0022657143
0.012443951 -0.00014111112 -0.0069771432
-0.022952177 0.00127 -0.0022657143
-0.0049775806 -0.00098777784 -4.8571506e-05
-0.014932741 0.00098777784 -4.8571506e-05
0.0094020963 -0.00127 -0.00088000012
0.033736933 0.00098777784 -0.0022657143
-0.0024887903 0.00014111112 -0.0042057144
0.0069133062 0.00014111112 -0.0022657143
-0.031801209 -0.00098777784 -0.0022657143
0.027929757 -0.00014111112 -0.0075314287
0.0047010481 -0.00042333335 -0.0022657143
0.0038714514 -0.00042333335 -0.0022657143
-0.025994031 -0.00127 -0.0014342858
0.025440967 0.00127 -0.0014342858
0.0077429027 -0.00014111112 -0.0055914288
-0.027653225 0.00014111112 -0.0069771432
-0.021569515 -0.00070555555 -0.0022657143
-0.032907337 0.00014111112 -0.0055914288
-0.017974596 -0.00070555555 -0.0022657143
-0.00055306451 -0.00014111112 -4.8571506e-05
-0.0082959672 0.00127 -0.00060285721
0.0077429027 -0.00127 -0.00060285721
-0.031248145 0.00014111112 -0.0022657143
0.019080725 -0.00127 -0.0019885716
0.030418547 -0.00127 -0.00060285721
0 0.00127 -0.0019885716
-0.0022122581 -0.00127 -0.00032571438
-0.011337822 0.00127 -0.0014342858
-0.023781773 0.00127 -0.0022657143
-0.014656209 -0.00014111112 -0.0022657143
-0.014379677 -0.00042333335 -0.0022657143
0.034289997 0.00070555555 -0.0011571429
-0.010231693 0.00014111112 0.0016142856
-0.026270563 0.00127 -0.00032571438
-0.00027653226 0.00014111112 0.0010599999
0.029865483 0.00098777784 -4.8571506e-05
-0.032077741 -0.00127 -0.0014342858
-0.0099551613 0.00014111112 -0.0058685718
0.010508225 -0.00098777784 -0.0022657143
0.030695079 -0.00014111112 -0.0028200001
-0.024887903 0.00127 -0.0017114287
-0.032907337 -0.00014111112 -0.003097143
0.029035887 -0.00127 -0.00060285721
-0.0033183871 0.00070555555 -4.8571506e-05
-0.032354273 -0.00070555555 -0.00032571438
0.017974596 0.00042333335 -0.0025428573
-0.0035949193 0.00127 -0.00088000012
-0.026823629 -0.00042333335 -0.00032571438
0.024887903 -0.00127 -0.0011571429
0.0052541126 0.00014111112 -4.8571506e-05
0.0077429027 -0.00014111112 -0.003097143
0.0052541126 -0.00127 -0.00088000012
0.0066367742 0.00127 -0.00032571438
0.0099551613 0.00014111112 0.0024457143
-0.030695079 -0.00014111112 -0.0069771432
0.024334839 0.00098777784 -0.0022657143
-0.028206289 -0.00014111112 -0.0078085717
-0.0049775806 0.00014111112 -0.0058685718
-0.0082959672 0.00127 -0.0017114287
0.025994031 -0.00127 -4.8571506e-05
0.0096786283 0.00098777784 -4.8571506e-05
0.0022122581 0.00014111112 0.0021685713
0.015485805 0.00014111112 -0.0042057144
-0.020463387 -0.00014111112 -0.0055914288
-0.0047010481 -0.00127 -0.0017114287
0.0030418548 0.00042333335 -0.00032571438
0.014932741 -0.00098777784 -4.8571506e-05
-0.0052541126 -0.00127 -4.8571506e-05
-0.029035887 0.00014111112 -0.00032571438
-0.028206289 0.00070555555 -0.0022657143
-0.0069133062 0.00127 -0.0014342858
-0.0052541126 -0.00127 -0.00088000012
0.024334839 0.00070555555 -4.8571506e-05
-0.031248145 0.00098777784 -0.00032571438
-0.012997015 -0.00127 -0.00088000012
0.0047010481 -0.00014111112 -0.0022657143
-0.0077429027 0.00014111112 -0.0067000003
0.029035887 -0.00070555555 -0.00032571438
0.030418547 -0.00042333335 -0.0025428573
0.0013826613 0.00070555555 -4.8571506e-05
0.010784757 0.00042333335 -0.0022657143
0.0049775806 0.00127 -0.0022657143
0.027929757 -0.00014111112 -4.8571506e-05
0.024611371 -0.00127 -0.0017114287
-0.0082959672 -0.00070555555 -4.8571506e-05
-0.024334839 -0.00098777784 -4.8571506e-05
-0.023505241 0.00070555555 -0.0022657143
0.027929757 -0.00014111112 -0.0044828574
0.025164435 0.00014111112 -0.0039285715
0.033736933 0.00014111112 -4.8571506e-05
0.028206289 0.00070555555 -0.00032571438
-0.012720483 -0.00014111112 -0.0033742858
-0.026547097 0.00070555555 -0.0022657143
-0.015485805 -0.00014111112 -0.0078085717
0.001106129 0.00042333335 -0.0022657143
0.027653225 0.00014111112 -0.0044828574
0.017144999 -0.00042333335 -0.0022657143
-0.0019357257 -0.00127 -0.00032571438
0.00027653226 -0.00014111112 -0.0036514287
0.0055306451 -0.00127 -0.0011571429
0.00027653226 0.00127 -0.0014342858
-0.0027653226 -0.00127 -4.8571506e-05
-0.010231693 0.00127 -0.0014342858
0.030695079 0.00014111112 0.0018914285
0.0069133062 -0.00127 -0.00032571438
-0.0071898387 0.00127 -0.0022657143
-0.0080194352 0.00098777784 -0.0022657143
-0.022675645 0.00098777784 -4.8571506e-05
0.0027653226 0.00127 -0.0022657143
0.0038714514 -0.00042333335 -0.00032571438
0.011890886 -0.00098777784 -4.8571506e-05
0.0024887903 0.00014111112 -0.0067000003
-0.015762338 0.00127 -0.00032571438
-0.014103144 0.00098777784 -4.8571506e-05
0.031248145 -0.00098777784 -0.00032571438
0.019910323 0.00098777784 -0.0022657143
-0.0060837097 0.00098777784 -4.8571506e-05
-0.017698064 0.00042333335 -0.00032571438
0.015485805 -0.00014111112 -4.8571506e-05
0.021016451 0.00127 -0.0022657143
-0.030418547 0.00070555555 -4.8571506e-05
-0.011337822 0.00127 -0.0022657143
0 0.00014111112 0.00022857136
-0.029312419 0.00098777784 -0.0022657143
-0.0038714514 -0.00042333335 -0.00032571438
0.0099551613 0.00098777784 -4.8571506e-05
-0.0016591935 0.00127 -0.00060285721
0.028759355 0.00127 -0.0019885716
0.021569515 -0.00070555555 -0.0022657143
-0.0041479836 0.00127 -0.00088000012
0.012167419 0.00042333335 -0.0022657143
-0.024611371 -0.00127 -0.00088000012
-0.027929757 0.00014111112 0.0024457143
-0.0094020963 -0.00014111112 -0.0022657143
-0.016868467 0.00127 -0.00088000012
-0.017144999 -0.00127 -0.0011571429
-0.0022122581 -0.00127 -0.00060285721
-0.030142015 0.00127 -0.00032571438
-0.026823629 -0.00014111112 -0.0022657143
0.0077429027 0.00014111112 -0.0047600004
0.020186855 0.00098777784 -4.8571506e-05
-0.001106129 0.00014111112 -0.0022657143
0.014656209 0.00014111112 -0.0022657143
0.0016591935 0.00127 -0.0014342858
-0.023781773 -0.00042333335 -0.0022657143
0.020463387 -0.00014111112 -0.0067000003
0.014103144 -0.00127 -0.0022657143
-0.022122581 0.00070555555 -0.0022657143
0.0035949193 -0.00070555555 -0.00032571438
-0.022952177 -0.00014111112 0.0013371428
0.020463387 -0.00127 -0.00060285721
0 0.00127 -0.00088000012
0.027376693 0.00127 -0.0017114287
0.025440967 -0.00014111112 0.0018914285
0.01106129 0.00127 -0.00060285721
-0.025717499 -0.00127 -0.0014342858
-0.025164435 -0.00014111112 -0.0053142859
-0.0077429027 -0.00014111112 -0.0069771432
0.023228709 0.00127 -0.00088000012
0.030418547 -0.00014111112 -4.8571506e-05
-0.012443951 -0.00127 -4.8571506e-05
0.033183869 0.00014111112 0.0016142856
-0.021016451 -0.00127 -0.0017114287
0.018251128 -0.00014111112 -0.0022657143
-0.025440967 -0.00014111112 -0.003097143
-0.022399113 0.00127 -0.0019885716
-0.032907337 -0.00098777784 -0.00032571438
-0.021569515 0.00098777784 -0.0022657143
0.016591934 -0.00014111112 -0.0022657143
-0.011890886 0.00127 -0.0019885716
0.022399113 -0.00127 -0.0019885716
-0.030695079 -0.00014111112 -0.0078085717
-0.025440967 0.00014111112 0.0021685713
-0.019357257 0.00127 -0.00032571438
0.0099551613 -0.00014111112 -0.0061457143
-0.0027653226 0.00014111112 0.0018914285
0.00027653226 0.00098777784 -0.0022657143
-0.015762338 0.00127 -0.0017114287
-0.0049775806 -0.00014111112 -0.0025428573
0.026270563 0.00127 -4.8571506e-05
-0.021292983 0.00127 -0.00060285721
-0.017698064 -0.00127 -4.8571506e-05
-0.0052541126 0.00014111112 -0.0053142859
0.0024887903 -0.00014111112 -0.0055914288
0.032077741 0.00070555555 -0.00032571438
-0.013273548 0.00014111112 -0.0022657143
-0.0052541126 -0.00014111112 -0.0025428573
-0.015762338 -0.00127 -0.00060285721
-0.027653225 0.00014111112 -0.0033742858
-0.0027653226 0.00127 -0.0022657143
0.0055306451 0.00127 -0.0014342858
-0.0099551613 0.00014111112 0.0018914285
-0.022122581 -0.00127 -0.0017114287
-0.021016451 0.00098777784 -0.0022657143
0.0088490322 0.00127 -0.0011571429
-0.027376693 -0.00042333335 -0.00032571438
-0.032907337 -0.00014111112 0.0010599999
0.0044245161 0.00127 -0.00032571438
-0.0052541126 -0.00014111112 0.0024457143
0.00027653226 -0.00014111112 0.0016142856
-0.017974596 -0.00014111112 -0.0067000003
-0.0027653226 0.00014111112 0.0024457143
0.029035887 -0.00127 -0.00088000012
0.022675645 -0.00014111112 -0.0069771432
-0.017974596 0.00127 -0.0014342858
0.027929757 -0.00070555555 -0.00032571438
0.01106129 0.00014111112 -0.0022657143
0.016591934 0.00014111112 -0.0022657143
0.014656209 0.00127 -0.0022657143
-0.0035949193 0.00127 -0.0014342858
-0.012443951 0.00127 -0.0014342858
-0.032354273 0.00127 -0.0011571429
0.015209273 0.00014111112 0.0027228571
0.0024887903 0.00014111112 -0.0061457143
0.0052541126 -0.00014111112 -0.0039285715
0.015209273 0.00014111112 0.0024457143
0.017698064 0.00127 -0.00088000012
0.023781773 0.00014111112 -0.0022657143
-0.017144999 0.00014111112 -4.8571506e-05
0.027929757 -0.00014111112 -0.0053142859
-0.025164435 0.00014111112 -4.8571506e-05
-0.030418547 0.00014111112 -0.0025428573
0.01106129 -0.00014111112 -0.0022657143
-0.022675645 -0.00014111112 -0.0042057144
0.014379677 0.00127 -0.0011571429
0.020463387 -0.00042333335 -0.0025428573
-0.0024887903 -0.00014111112 -0.0028200001
-0.024334839 -0.00127 -0.00088000012
-0.0044245161 0.00014111112 -4.8571506e-05
0.012997015 -0.00014111112 -0.0025428573
-0.012167419 0.00070555555 -0.0022657143
-0.0082959672 0.00127 -0.0011571429
-0.016315402 -0.00070555555 -4.8571506e-05
-0.0035949193 0.00127 -0.00032571438
0.0038714514 -0.00127 -0.0022657143
0.011337822 0.00042333335 -0.0022657143
0.015485805 -0.00014111112 0.0018914285
0.013826612 0.00014111112 -0.0022657143
-0.014932741 -0.00014111112 0.0021685713
-0.017974596 0.00014111112 -0.0042057144
0.029865483 -0.00127 -0.0011571429
0.015485805 -0.00014111112 -0.0075314287
-0.010784757 0.00127 -0.00088000012
-0.012443951 -0.00014111112 -0.0033742858
-0.030142015 -0.00127 -0.00088000012
-0.031524677 0.00127 -0.0011571429
-0.0099551613 -0.00070555555 -0.0022657143
0.029865483 0.00127 -0.00088000012
0.017974596 0.00014111112 -0.0044828574
0.01603887 -0.00070555555 -0.0022657143
-0.022675645 0.00070555555 -4.8571506e-05
-0.00027653226 0.00014111112 -0.0075314287
-0.0035949193 -0.00127 -0.00088000012
-0.019910323 -0.00042333335 -0.0022657143
-0.0016591935 -0.00127 -0.0014342858
0.030695079 0.00014111112 -0.0078085717
0.032077741 -0.00127 -0.0014342858
0.01106129 -0.00127 -0.0011571429
-0.011890886 0.00127 -0.0014342858
-0.011614354 0.00127 -0.00032571438
0.021569515 0.00098777784 -4.8571506e-05
-0.015485805 0.00127 -0.0014342858
0.015485805 0.00127 -0.00060285721
0.020186855 -0.00014111112 -0.0080857147
-0.015209273 -0.00014111112 0.0016142856
0.027929757 -0.00014111112 -0.0061457143
-0.027929757 -0.00014111112 -0.0064228573
0.027929757 -0.00014111112 0.00078285707
-0.012720483 0.00014111112 0.00078285707
0.015209273 -0.00014111112 0.00078285707
0.017974596 -0.00127 -0.0017114287
0.0041479836 0.00014111112 -0.0022657143
0.0024887903 0.00014111112 -0.0058685718
-0.033183869 0.00014111112 -0.0064228573
0.025717499 0.00098777784 -0.0022657143
0.0052541126 -0.00014111112 0.00078285707
-0.012167419 -0.00098777784 -4.8571506e-05
-0.0024887903 0.00014111112 0.00050571421
0.029865483 -0.00127 -0.00032571438
0.0041479836 0.00127 -0.0017114287
-0.025440967 -0.00070555555 -0.0022657143
-0.0041479836 0.00127 -0.0022657143
0.016868467 -0.00098777784 -4.8571506e-05
-0.019080725 -0.00127 -0.00060285721
0.019080725 0.00127 -0.00060285721
-0.0013826613 -0.00127 -0.0022657143
-0.019357257 0.00070555555 -4.8571506e-05
-0.00055306451 0.00127 -0.0017114287
0.018527661 -0.00098777784 -4.8571506e-05
-0.0077429027 -0.00014111112 0.00078285707
-0.0069133062 0.00127 -0.00032571438
-0.028206289 0.00014111112 -0.0047600004
-0.0074663707 0.00014111112 -0.0053142859
-0.030418547 0.00070555555 -0.0022657143
0.023505241 0.00098777784 -4.8571506e-05
-0.015485805 0.00014111112 -0.0064228573
0.00027653226 -0.00014111112 -0.0064228573
0.024058305 0.00127 -0.00088000012
-0.010231693 0.00014111112 -0.0053142859
-0.0052541126 -0.00014111112 -0.0064228573
-0.010231693 0.00014111112 0.0027228571
0.032077741 -0.00014111112 -0.0022657143
0.030418547 0.00014111112 -0.0067000003
0.011337822 0.00127 -0.00060285721
-0.015762338 -0.00014111112 -0.0022657143
-0.025994031 -0.00070555555 -0.0022657143
-0.011890886 -0.00042333335 -0.00032571438
-0.015209273 -0.00014111112 0.0024457143
0.030695079 0.00014111112 -0.0036514287
0.00055306451 -0.00042333335 -0.0022657143
-0.0077429027 -0.00070555555 -4.8571506e-05
-0.025717499 0.00042333335 -0.00032571438
-0.019080725 -0.00070555555 -0.0022657143
-0.029865483 0.00014111112 -4.8571506e-05
0.029035887 -0.00014111112 -0.00032571438
0.0094020963 0.00127 -0.00060285721
-0.024611371 -0.00127 -0.0019885716
0.015209273 0.00014111112 -0.0050371429
-0.0099551613 0.00014111112 0.0021685713
0.033183869 -0.00014111112 -0.0028200001
-0.012443951 -0.00014111112 -0.0028200001
0.016591934 0.00098777784 -0.0022657143
-0.0052541126 0.00014111112 -0.0064228573
0.01963379 0.00127 -0.00060285721
0.0074663707 0.00127 -0.0019885716
0.032907337 -0.00014111112 0.0016142856
0.026547097 -0.00127 -0.0017114287
0.033460401 0.00014111112 -0.0022657143
-0.022399113 0.00127 -0.00032571438
0.0038714514 -0.00127 -0.0014342858
0.022122581 0.00127 -4.8571506e-05
-0.032354273 0.00127 -0.0014342858
-0.028206289 0.00014111112 -0.0033742858
0.017974596 0.00014111112 -0.0050371429
-0.0071898387 -0.00127 -4.8571506e-05
-0.015485805 0.00014111112 0.0021685713
0.022399113 0.00070555555 -0.0022657143
0.020186855 0.00127 -4.8571506e-05
-0.015209273 0.00098777784 -4.8571506e-05
-0.013273548 0.00070555555 -0.0022657143
-0.0058071772 0.00127 -0.00032571438
0.0069133062 -0.00042333335 -0.0022657143
0.022952177 0.00014111112 -0.0042057144
-0.016868467 -0.00070555555 -0.0022657143
-0.014932741 0.00014111112 -0.0067000003
-0.011337822 -0.00042333335 -0.0022657143
0.0099551613 -0.00014111112 -0.0069771432
-0.016868467 -0.00098777784 -0.0022657143
-0.026823629 0.00098777784 -4.8571506e-05
-0.034013465 0.00014111112 -0.0019885716
0.0060837097 0.00014111112 -0.0022657143
0.015485805 -0.00014111112 -0.0055914288
0.0027653226 0.00014111112 0.0016142856
-0.028759355 -0.00127 -0.00032571438
0.012720483 -0.00014111112 -0.0064228573
0.0049775806 0.00098777784 -4.8571506e-05
-0.033460401 -0.00127 -0.0017114287
0.0066367742 -0.00127 -4.8571506e-05
-0.0074663707 -0.00014111112 0.0016142856
-0.0074663707 0.00014111112 -0.0067000003
-0.0027653226 0.00014111112 0.00078285707
-0.0052541126 0.00127 -0.00060285721
-0.017974596 0.00014111112 -0.0047600004
0.017698064 -0.00014111112 -0.003097143
0.012997015 -0.00127 -0.0022657143
-0.033460401 -0.00014111112 -0.0022657143
0.0077429027 -0.00127 -0.0014342858
0.00027653226 -0.00127 -0.0022657143
-0.017698064 0.00014111112 0.0016142856
0.018527661 -0.00070555555 -0.0022657143
-0.00082959677 -0.00070555555 -0.0022657143
-0.022952177 0.00014111112 -0.0078085717
0.020463387 0.00014111112 -0.0064228573
-0.0069133062 0.00042333335 -0.0022657143
-0.012720483 -0.00127 -0.0017114287
-0.020186855 0.00014111112 -0.0028200001
-0.033183869 0.00098777784 -0.00032571438
0.031801209 0.00042333335 -0.00032571438
-0.023505241 -0.00098777784 -0.0022657143
-0.022952177 0.00014111112 0.0018914285
-0.031801209 -0.00042333335 -0.0022657143
-0.029588951 0.00070555555 -4.8571506e-05
0.028482821 -0.00042333335 -0.00032571438
0.020739919 -0.00014111112 -4.8571506e-05
-0.001106129 0.00070555555 -0.0022657143
0.025717499 0.00014111112 -0.0078085717
-0.014932741 -0.00070555555 -0.0022657143
-0.019910323 0.00127 -0.0017114287
0.015485805 0.00014111112 -0.0050371429
-0.0019357257 0.00127 -4.8571506e-05
-0.011890886 0.00070555555 -0.0022657143
-0.033460401 0.00098777784 -0.0017114287
0.0058071772 -0.00127 -0.0011571429
-0.031801209 -0.00127 -0.0019885716
0.034013465 0.00014111112 -0.0017114287
0.015209273 -0.00014111112 0.00022857136
-0.030418547 -0.00070555555 -0.0022657143
-0.012720483 0.00127 -4.8571506e-05
0.017974596 -0.00127 -0.0019885716
0.0038714514 0.00014111112 -4.8571506e-05
-0.029035887 0.00042333335 -0.00032571438
-0.018251128 -0.00127 -0.0011571429
-0.024887903 -0.00098777784 -0.0022657143
0.00027653226 -0.00014111112 -0.0025428573
-0.018527661 -0.00127 -0.0011571429
0.030971611 0.00070555555 -0.0022657143
0.01963379 0.00070555555 -4.8571506e-05
-0.034013465 -0.00014111112 -0.0017114287
-0.027653225 -0.00014111112 0.00078285707
0.017144999 -0.00127 -0.0019885716
0.027929757 0.00014111112 0.00078285707
0.026270563 -0.00014111112 -0.0022657143
-0.033736933 -0.00098777784 -0.0011571429
-0.022952177 -0.00014111112 0.00050571421
0.0063602417 0.00070555555 -4.8571506e-05
-0.025440967 0.00014111112 -0.0050371429
-0.0077429027 0.00014111112 -0.0028200001
0.032907337 0.00014111112 -0.0075314287
0.014656209 -0.00042333335 -0.0022657143
0.0099551613 -0.00014111112 -0.0042057144
0.021292983 -0.00014111112 -0.0022657143
-0.017974596 0.00014111112 -0.0069771432
0.020463387 -0.00014111112 -0.0075314287
-0.030418547 -0.00098777784 -0.0022657143
-0.032630805 -0.00042333335 -0.00032571438
-0.030418547 0.00127 -0.0014342858
-0.028759355 -0.00098777784 -4.8571506e-05
0.0080194352 -0.00127 -0.0017114287
0.020186855 -0.00014111112 -0.0078085717
0 0.00098777784 -4.8571506e-05
0.023505241 -0.00127 -0.0017114287
0.01963379 -0.00127 -0.0017114287
-0.017698064 -0.00127 -0.0011571429
0.011614354 -0.00127 -0.0011571429
-0.015209273 -0.00014111112 -0.0028200001
-0.030695079 -0.00127 -0.0019885716
-0.032630805 -0.00070555555 -0.0022657143
0.0074663707 -0.00127 -0.00060285721
-0.021016451 -0.00014111112 -4.8571506e-05
-0.0024887903 0.00014111112 0.0027228571
0.025440967 0.00127 -0.00060285721
0.010231693 0.00127 -0.0019885716
0.024611371 -0.00014111112 -4.8571506e-05
-0.012997015 -0.00014111112 -0.003097143
0.011614354 0.00014111112 -4.8571506e-05
0.022952177 0.00127 -0.00032571438
0 -0.00014111112 -0.0058685718
-0.0060837097 0.00127 -0.0022657143
-0.012443951 -0.00014111112 -0.0025428573
0.0035949193 0.00098777784 -0.0022657143
0.024058305 -0.00042333335 -0.00032571438
-0.0052541126 0.00014111112 -0.0072542862
-0.020186855 -0.00014111112 -0.0036514287
-0.012167419 -0.00098777784 -0.0022657143
0.0024887903 -0.00127 -4.8571506e-05
0.030418547 -0.00014111112 -0.0036514287
0.025164435 -0.00014111112 -0.0025428573
-0.033183869 -0.00014111112 0.0013371428
0.026270563 0.00127 -0.00060285721
-0.017421532 0.00127 -0.0019885716
-0.032630805 0.00127 -0.0011571429
-0.015485805 -0.00042333335 -0.0022657143
0.027376693 0.00042333335 -0.0022657143
-0.0096786283 -0.00127 -0.00088000012
-0.025994031 0.00042333335 -0.00032571438
-0.027929757 0.00014111112 -0.0033742858
0.030418547 0.00014111112 -0.0080857147
0.022952177 -0.00014111112 -0.0042057144
0.022675645 0.00014111112 -0.0042057144
-0.032630805 0.00098777784 -0.0022657143
-0.012720483 0.00042333335 -0.0028200001
0.012167419 0.00127 -0.0017114287
0.020739919 0.00127 -0.00060285721
-0.0049775806 0.00127 -0.00032571438
-0.014932741 -0.00014111112 -0.0050371429
-0.012443951 -0.00014111112 0.0010599999
0.0052541126 -0.00014111112 -0.0025428573
0.022122581 -0.00014111112 -4.8571506e-05
0.0069133062 -0.00127 -0.00088000012
0.024334839 0.00127 -0.00032571438
0.028482821 -0.00070555555 -0.0022657143
-0.0052541126 -0.00014111112 -0.0033742858
0.029035887 -0.00127 -0.0019885716
0.0099551613 -0.00014111112 -0.0067000003
0.0027653226 0.00127 -0.0019885716
-0.027100161 -0.00127 -0.00088000012
-0.0033183871 0.00042333335 -0.00032571438
-0.0058071772 -0.00042333335 -0.00032571438
-0.0027653226 0.00014111112 -0.0055914288
-0.022952177 -0.00014111112 0.0027228571
-0.0016591935 0.00127 -0.0022657143
0.0077429027 -0.00127 -0.00032571438
-0.034013465 -0.00098777784 -0.0022657143
0.027100161 0.00127 -0.0011571429
-0.014932741 0.00014111112 -0.0064228573
0.0052541126 0.00014111112 -0.003097143
-0.0052541126 -0.00014111112 0.0021685713
-0.0033183871 -0.00127 -0.00032571438
0.017974596 0.00014111112 0.0021685713
0.015209273 0.00042333335 -0.00032571438
-0.016591934 0.00042333335 -0.00032571438
-0.018527661 -0.00042333335 -0.00032571438
-0.033183869 -0.00014111112 -0.0067000003
0.012720483 0.00127 -0.0014342858
-0.0066367742 -0.00127 -0.0022657143
-0.029865483 0.00127 -0.0022657143
0.028759355 -0.00127 -0.00088000012
0.00055306451 -0.00098777784 -0.0022657143
0.033460401 -0.00070555555 -0.00032571438
0.033736933 0.00098777784 -0.0011571429
-0.015485805 -0.00127 -0.00088000012
-0.010784757 0.00127 -0.00060285721
0.017974596 0.00014111112 -0.0075314287
0.0080194352 0.00127 -0.0019885716
-0.017974596 0.00127 -0.0017114287
0.034013465 -0.00014111112 -0.0019885716
0.012443951 0.00127 -0.0022657143
0.020463387 -0.00014111112 -0.0050371429
0.020186855 0.00014111112 -0.0047600004
-0.0016591935 -0.00070555555 -0.0022657143
0.030695079 -0.00014111112 0.0016142856
-0.022675645 -0.00014111112 0.0018914285
-0.0066367742 -0.00127 -4.8571506e-05
-0.024334839 -0.00042333335 -0.0022657143
0.016315402 -0.00127 -0.0011571429
-0.011614354 -0.00127 -0.0019885716
0.030142015 -0.00127 -0.00088000012
0.017974596 -0.00127 -0.00032571438
-0.0085724993 -0.00127 -0.0019885716
0.011337822 -0.00127 -0.0017114287
0.032077741 -0.00042333335 -0.00032571438
0.00082959677 -0.00127 -0.0011571429
0.030695079 0.00014111112 -0.0033742858
0.0049775806 0.00127 -0.00060285721
-0.0074663707 0.00098777784 -4.8571506e-05
-0.011337822 0.00014111112 -0.0022657143
-0.0074663707 0.00014111112 0.00022857136
0.010784757 0.00127 -0.0019885716
0.0099551613 -0.00014111112 -0.0039285715
0.0052541126 -0.00014111112 -0.0078085717
0.0074663707 0.00014111112 0.0010599999
-0.027653225 -0.00014111112 -0.0044828574
0.010231693 -0.00014111112 0.0010599999
0.030418547 0.00127 -0.00088000012
0.024058305 -0.00127 -0.00060285721
-0.0060837097 -0.00127 -0.00088000012
-0.033736933 -0.00098777784 -0.0019885716
0.0063602417 -0.00042333335 -0.0022657143
0.016868467 -0.00042333335 -0.0022657143
0.015209273 0.00098777784 -4.8571506e-05
-0.025440967 0.00127 -0.00032571438
-0.01355008 -0.00042333335 -0.00032571438
-0.015209273 -0.00127 -0.00088000012
-0.010231693 -0.00014111112 -0.0075314287
-0.0016591935 -0.00014111112 -0.0022657143
-0.021569515 0.00127 -0.0014342858
0.012443951 0.00014111112 -0.0067000003
0.0047010481 0.00098777784 -4.8571506e-05
0.015485805 0.00014111112 -0.0033742858
0.034013465 0.00042333335 -0.00032571438
0.0099551613 -0.00042333335 -0.0025428573
0.0074663707 -0.00127 -0.0022657143
-0.018251128 -0.00127 -0.0017114287
-0.0091255642 -0.00127 -0.0011571429
0.01355008 -0.00098777784 -4.8571506e-05
0.023505241 -0.00127 -0.0022657143
0.034013465 -0.00014111112 -0.00060285721
0.027653225 0.00014111112 0.00050571421
0.020739919 -0.00070555555 -0.0022657143
-0.011337822 -0.00042333335 -0.00032571438
-0.021846049 -0.00098777784 -4.8571506e-05
0.030971611 -0.00127 -0.0017114287
0.0049775806 -0.00014111112 0.0013371428
0.034013465 -0.00070555555 -0.0011571429
0.0027653226 0.00014111112 -0.0028200001
-0.01355008 0.00098777784 -4.8571506e-05
0.0052541126 -0.00127 -0.00060285721
-0.012997015 -0.00070555555 -0.0022657143
0.024611371 -0.00127 -0.00088000012
0.030695079 0.00014111112 -0.0058685718
-0.010231693 -0.00014111112 0.00022857136
-0.031248145 -0.00070555555 -0.0022657143
-0.001106129 0.00014111112 -4.8571506e-05
0.020186855 0.00014111112 -0.0058685718
0.012167419 0.00014111112 -0.0022657143
0.0024887903 0.00014111112 0.00022857136
0.011890886 -0.00127 -0.00060285721
0.0024887903 -0.00014111112 -0.0064228573
0.033183869 -0.00014111112 -0.0080857147
0.0088490322 0.00127 -0.0022657143
-0.029035887 0.00127 -0.00088000012
-0.0055306451 0.00042333335 -0.0022657143
-0.0052541126 -0.00014111112 0.00078285707
0.0074663707 0.00014111112 -0.0050371429
-0.020186855 0.00014111112 0.00078285707
0.025440967 0.00014111112 0.00022857136
-0.0071898387 0.00014111112 -4.8571506e-05
-0.021292983 0.00127 -4.8571506e-05
0.00027653226 0.00127 -0.00032571438
0.019357257 0.00014111112 -0.0022657143
-0.022675645 0.00014111112 -0.0044828574
-0.025440967 -0.00014111112 0.0018914285
0.025164435 0.00014111112 -0.003097143
0 -0.00014111112 -0.0072542862
0.029312419 -0.00070555555 -0.00032571438
0.017974596 0.00014111112 -0.0039285715
0.0099551613 -0.00014111112 -0.0058685718
0.027100161 -0.00098777784 -4.8571506e-05
-0.034013465 -0.00098777784 -0.0014342858
-0.022952177 0.00127 -0.0014342858
-0.029035887 -0.00127 -0.00032571438
0.026547097 -0.00127 -0.00088000012
-0.0099551613 -0.00014111112 -0.0078085717
-0.0027653226 -0.00014111112 -0.0067000003
-0.0035949193 -0.00070555555 -4.8571506e-05
0.022675645 0.00014111112 -4.8571506e-05
-0.0022122581 0.00127 -0.00032571438
0.021292983 0.00098777784 -4.8571506e-05
-0.0094020963 0.00127 -0.0022657143
-0.012167419 0.00014111112 -4.8571506e-05
0.010231693 0.00014111112 -0.0044828574
0.010784757 -0.00127 -0.0014342858
-0.016591934 0.00098777784 -0.0022657143
0 0.00014111112 -0.0064228573
0.0094020963 -0.00127 -0.0017114287
-0.00055306451 0.00127 -0.0019885716
-0.00055306451 0.00127 -0.0011571429
0.032077741 -0.00070555555 -0.0022657143
0.0013826613 -0.00127 -0.0022657143
0.020463387 0.00098777784 -4.8571506e-05
0.032354273 0.00042333335 -0.00032571438
0.00027653226 0.00014111112 -0.0080857147
0.014932741 -0.00127 -0.0022657143
0.020463387 0.00042333335 -0.0025428573
0.032077741 0.00098777784 -0.00032571438
0.019080725 0.00127 -0.0019885716
-0.0030418548 0.00127 -0.00088000012
-0.032907337 0.00042333335 -0.0022657143
0.0035949193 0.00070555555 -0.0022657143
-0.026823629 0.00070555555 -0.0022657143
0.012997015 0.00014111112 0.00078285707
0.0077429027 -0.00014111112 -0.0069771432
-0.026270563 0.00127 -4.8571506e-05
0.032907337 -0.00014111112 -0.0050371429
0.020739919 0.00127 -0.0022657143
0.0074663707 -0.00042333335 -0.0025428573
0.026823629 0.00014111112 -0.0022657143
0.034013465 0.00098777784 -0.0019885716
0.027653225 0.00014111112 -0.0053142859
0.017698064 0.00127 -0.0019885716
0.0024887903 -0.00127 -0.0014342858
0.029312419 0.00014111112 -0.0022657143
-0.0088490322 -0.00014111112 -4.8571506e-05
0.011337822 -0.00127 -0.0014342858
-0.032630805 -0.00127 -0.0014342858
-0.0077429027 -0.00014111112 -0.0078085717
0.0096786283 0.00098777784 -0.0022657143
-0.017974596 0.00014111112 -4.8571506e-05
-0.0024887903 -0.00014111112 -0.0064228573
-0.022675645 -0.00014111112 0.0016142856
-0.029312419 -0.00127 -0.0022657143
-0.0033183871 0.00127 -0.0011571429
0.021016451 0.00070555555 -0.0022657143
-0.014932741 0.00014111112 -0.0025428573
0.012997015 0.00070555555 -4.8571506e-05
-0.017698064 0.00014111112 -0.0028200001
0.0060837097 0.00014111112 -4.8571506e-05
-0.011890886 0.00014111112 -4.8571506e-05
0.027929757 0.00014111112 -0.0064228573
0.0069133062 -0.00014111112 -4.8571506e-05
0.017144999 0.00127 -0.0014342858
-0.014932741 0.00014111112 -0.0055914288
-0.0024887903 0.00014111112 -0.0028200001
0.022399113 -0.00014111112 -4.8571506e-05
-0.0027653226 0.00127 -0.00032571438
0.030418547 -0.00014111112 0.0010599999
-0.023228709 0.00014111112 -4.8571506e-05
-0.018251128 0.00014111112 -0.0022657143
0.023228709 -0.00127 -0.0019885716
-0.034013465 0.00014111112 -0.00088000012
-0.012997015 -0.00014111112 0.0016142856
-0.0063602417 0.00014111112 -0.0022657143
0.0033183871 -0.00070555555 -0.00032571438
-0.0022122581 -0.00070555555 -4.8571506e-05
-0.022675645 -0.00098777784 -0.0022657143
-0.023505241 0.00127 -4.8571506e-05
0.0069133062 0.00127 -4.8571506e-05
-0.032907337 -0.00014111112 0.0018914285
-0.0085724993 -0.00127 -0.00060285721
-0.012443951 0.00014111112 -0.0053142859
-0.0074663707 -0.00014111112 -0.0053142859
0.015485805 -0.00014111112 -0.0067000003
0.012720483 -0.00014111112 0.0010599999
-0.031524677 0.00042333335 -0.0022657143
0.029588951 -0.00127 -0.0014342858
0.014379677 0.00070555555 -0.0022657143
-0.034013465 0.00014111112 -0.0011571429
-0.018251128 0.00127 -0.00032571438
0.0063602417 0.00014111112 -4.8571506e-05
0.030971611 -0.00014111112 -0.0022657143
-0.017698064 -0.00014111112 -0.0044828574
0.017974596 -0.00014111112 -0.0044828574
-0.0074663707 -0.00014111112 0.0024457143
0.032907337 0.00042333335 -0.00032571438
0.0022122581 -0.00070555555 -0.00032571438
0.032907337 -0.00042333335 -0.00032571438
-0.012443951 0.00070555555 -4.8571506e-05
-0.016868467 0.00127 -0.0014342858
-0.0035949193 0.00014111112 -4.8571506e-05
0.0074663707 -0.00014111112 -0.0067000003
-0.028759355 0.00127 -0.00060285721
-0.015209273 -0.00070555555 -4.8571506e-05
-0.0049775806 -0.00014111112 -0.0067000003
0.033736933 -0.00042333335 -0.00032571438
-0.012720483 0.00014111112 -0.0064228573
0.019080725 0.00127 -0.0011571429
0.0049775806 0.00014111112 -0.0025428573
-0.00027653226 0.00014111112 -0.0080857147
-0.025164435 0.00014111112 -0.0028200001
0.0058071772 0.00014111112 -0.0022657143
-0.0058071772 -0.00070555555 -4.8571506e-05
0.018804193 0.00042333335 -0.0022657143
-0.014379677 -0.00042333335 -0.00032571438
0.025164435 0.00014111112 -0.0055914288
0.012720483 -0.00127 -0.0017114287
-0.0096786283 -0.00014111112 -4.8571506e-05
0.027653225 0.00014111112 -0.0042057144
-0.025440967 0.00014111112 -0.0053142859
0.014103144 -0.00042333335 -0.00032571438
0.028206289 0.00098777784 -4.8571506e-05
-0.031801209 -0.00127 -0.00032571438
-0.020739919 0.00127 -0.00060285721
-0.021292983 -0.00127 -0.00088000012
-0.019357257 -0.00070555555 -0.0022657143
0.030971611 -0.00127 -0.0019885716
0.033460401 0.00042333335 -0.00032571438
0.025164435 0.00014111112 0.0016142856
0.020463387 0.00014111112 0.00078285707
0.0077429027 0.00014111112 -0.0044828574
0.034013465 0.00070555555 -0.0022657143
0.0099551613 -0.00127 -0.0022657143
-0.015485805 -0.00127 -0.0017114287
-0.014103144 0.00127 -0.0014342858
0.013273548 0.00070555555 -0.0022657143
-0.018804193 -0.00098777784 -4.8571506e-05
0.012997015 -0.00127 -0.00088000012
-0.017421532 0.00127 -0.00060285721
0.00055306451 0.00042333335 -0.00032571438
0.013826612 -0.00070555555 -0.0022657143
0.022122581 0.00127 -0.0011571429
0.017974596 -0.00014111112 0.0021685713
0.023228709 -0.00127 -0.00060285721
0.021569515 0.00098777784 -0.0022657143
0.001106129 0.00127 -0.00060285721
0.034013465 -0.00014111112 -0.0014342858
-0.032907337 -0.00127 -0.00088000012
-0.012443951 0.00042333335 -0.00032571438
0.0038714514 -0.00127 -0.00032571438
-0.0013826613 0.00127 -0.00060285721
0.033183869 0.00014111112 -0.0039285715
-0.010231693 -0.00070555555 -0.0022657143
-0.019080725 0.00014111112 -4.8571506e-05
-0.01106129 -0.00127 -0.0014342858
-0.013273548 -0.00127 -0.0019885716
-0.0071898387 -0.00070555555 -0.0022657143
-0.0052541126 0.00014111112 0.0016142856
-0.029865483 -0.00014111112 -0.0022657143
0.0088490322 -0.00127 -0.00088000012
0.027653225 0.00014111112 0.0013371428
0.029312419 -0.00127 -0.00088000012
-0.0022122581 -0.00127 -0.0017114287
0.0088490322 0.00042333335 -0.0022657143
0.013273548 -0.00127 -4.8571506e-05
-0.010508225 0.00127 -0.00088000012
0.017421532 -0.00014111112 -0.0025428573
0.034289997 0.00042333335 -0.0022657143
0.0019357257 0.00127 -0.00088000012
0.0069133062 0.00127 -0.00032571438
-0.01963379 -0.00042333335 -0.00032571438
-0.025164435 0.00098777784 -4.8571506e-05
0.016591934 0.00127 -0.0011571429
0.017698064 0.00127 -0.0022657143
0.021846049 0.00127 -4.8571506e-05
-0.0049775806 0.00014111112 -0.0044828574
-0.0035949193 -0.00127 -4.8571506e-05
0.0030418548 -0.00042333335 -0.00032571438
0.017974596 -0.00070555555 -0.00032571438
-0.010508225 -0.00042333335 -0.0022657143
0.025717499 -0.00070555555 -0.00032571438
0.019080725 -0.00127 -0.00088000012
0.016591934 0.00127 -0.00060285721
-0.012997015 -0.00014111112 0.0021685713
-0.015209273 -0.00014111112 -0.0039285715
-0.0027653226 -0.00098777784 -4.8571506e-05
0.029588951 -0.00042333335 -0.0022657143
-0.0052541126 -0.00014111112 0.0018914285
0.031248145 -0.00070555555 -0.00032571438
-0.029035887 -0.00070555555 -4.8571506e-05
-0.017144999 -0.00070555555 -4.8571506e-05
0.031801209 -0.00070555555 -0.0022657143
-0.0091255642 -0.00127 -4.8571506e-05
-0.031524677 -0.00070555555 -0.0022657143
0.015485805 -0.00014111112 -0.0078085717
0.018527661 -0.00127 -0.00088000012
0.0022122581 0.00014111112 0.00022857136
-0.027929757 0.00070555555 -4.8571506e-05
-0.017144999 0.00098777784 -4.8571506e-05
-0.022675645 -0.00014111112 -0.0078085717
-0.026547097 0.00127 -0.0011571429
-0.0063602417 0.00127 -4.8571506e-05
-0.030971611 0.00042333335 -0.0022657143
0.024334839 0.00127 -4.8571506e-05
0.024058305 -0.00014111112 -4.8571506e-05
-0.028759355 -0.00127 -0.0017114287
-0.01355008 -0.00127 -0.00088000012
-0.0069133062 0.00127 -0.0011571429
0.015485805 -0.00014111112 -0.0042057144
-0.030695079 0.00014111112 -0.0025428573
0.010231693 -0.00014111112 -0.0072542862
-0.018804193 0.00127 -0.0011571429
-0.029588951 0.00127 -0.0017114287
-0.012997015 -0.00014111112 -0.0042057144
0.0047010481 -0.00127 -0.00032571438
-0.027653225 -0.00042333335 -0.00032571438
0.023781773 -0.00070555555 -0.00032571438
0.022952177 -0.00014111112 0.0016142856
-0.028759355 -0.00127 -0.0022657143
-0.029035887 0.00127 -0.0011571429
0.018527661 0.00042333335 -0.00032571438
-0.017698064 -0.00070555555 -4.8571506e-05
-0.019357257 0.00070555555 -0.0022657143
0.025440967 0.00127 -0.0011571429
0.020739919 -0.00098777784 -0.0022657143
0.010508225 -0.00098777784 -4.8571506e-05
0.021292983 -0.00042333335 -0.00032571438
0.017421532 0.00127 -0.0022657143
0.031524677 0.00127 -0.0011571429
0.0022122581 0.00070555555 -0.0022657143
-0.0069133062 -0.00014111112 -0.0022657143
0.0022122581 0.00014111112 0.0010599999
-0.0099551613 -0.00014111112 0.0018914285
-0.034013465 -0.00070555555 -0.0022657143
0.012443951 0.00127 -0.00088000012
0.01603887 -0.00098777784 -0.0022657143
0.025164435 -0.00014111112 -0.0075314287
0.0094020963 -0.00042333335 -0.00032571438
0.0049775806 -0.00014111112 0.00022857136
-0.025440967 -0.00014111112 -0.0039285715
-0.021569515 -0.00127 -0.0022657143
-0.034013465 0.00014111112 -0.00060285721
-0.026823629 0.00127 -0.00032571438
-0.0096786283 -0.00127 -0.0019885716
-0.029865483 0.00127 -0.0011571429
-0.018804193 0.00098777784 -0.0022657143
-0.011890886 0.00127 -0.00088000012
0.017698064 0.00127 -0.0011571429
0.021292983 -0.00127 -0.0019885716
-0.025440967 0.00014111112 0.0010599999
0.034013465 0.00098777784 -0.00060285721
0.015209273 0.00014111112 0.0016142856
0.0013826613 0.00127 -0.00032571438
0.012443951 -0.00014111112 -0.0058685718
-0.0085724993 0.00127 -0.0022657143
0.030418547 0.00014111112 0.0010599999
-0.023228709 0.00042333335 -0.00032571438
0.00027653226 0.00014111112 0.0010599999
0.0033183871 0.00127 -0.00032571438
0.00027653226 0.00014111112 -0.0061457143
