# .PCD v0.7 - Point Cloud Data file format
VERSION 0.7
FIELDS x y z
SIZE 4 4 4
TYPE F F F
COUNT 1 1 1
WIDTH 1309
HEIGHT 1
VIEWPOINT 0 0 0 1 0 0 0
POINTS 1309
DATA ascii
0.047639541 0.00042333335 -0.0012680001
0.027222596 0.00127 -0.00088000012
-0.025710229 -0.00127 -0.0012680001
-0.0075618322 -0.00042333335 -0.0063120001
0.043102443 0 0.0010599999
-0.024575954 0 -0.0024320001
0.043480534 0 -0.0074760001
0 -0.00042333335 -0.0063120001
-0.020038854 0 0.001448
-0.012477023 0.00084666669 -0.00010400008
0.039321527 0.00127 -0.0016560002
-0.0011342748 0.00084666669 -0.0020440002
0.032137785 -0.00127 -0.0024320001
-0.022685496 0.00042333335 -0.0012680001
-0.025332138 0.00042333335 -0.00088000012
-0.040455803 0 0.0026120001
-0.024575954 -0.00127 -0.0020440002
0.01625794 0.00127 -0.00010400008
-0.0052932827 0 -0.0032080002
-0.028734962 -0.00084666669 -0.0024320001
-0.039699618 0 -0.0016560002
0.0049151909 0 -0.0016560002
-0.046127178 -0.00127 -0.0012680001
0.023063589 0.00084666669 -0.00010400008
0.0098303817 0.00042333335 -0.00049200008
-0.0075618322 -0.00042333335 0.0022239999
-0.04423672 -0.00084666669 -0.00049200008
0.02344168 0.00084666669 -0.0016560002
-0.0011342748 0 -0.0020440002
0.0083180154 -0.00127 -0.0012680001
0.023819771 -0.00042333335 -0.0024320001
0.010208474 -0.00042333335 -0.0012680001
-0.045749083 -0.00127 -0.00049200008
0.020038854 -0.00084666669 -0.0016560002
0.0030247329 0.00127 -0.0024320001
0.02797878 0 -0.0024320001
-0.011342748 0.00042333335 -0.0012680001
0.03251588 -0.00042333335 -0.0024320001
-0.0015123665 0 -0.0012680001
0.0075618322 0 0.0022239999
0.029113054 -0.00084666669 -0.0020440002
0.040077709 0.00084666669 -0.0012680001
-0.023063589 0.00042333335 -0.0024320001
-0.03062542 -0.00042333335 -0.0012680001
0.0022685495 0 -0.0035960001
0.0052932827 0 0.001448
-0.037431069 -0.00084666669 -0.0016560002
-0.038943436 0.00042333335 -0.0012680001
-0.022307405 0.00042333335 -0.0024320001
0.027600687 0.00127 -0.00088000012
0.025332138 0.00084666669 -0.00049200008
-0.038565345 -0.00084666669 -0.0016560002
0.01398939 0 -0.0012680001
0.045749083 0.00084666669 -0.0020440002
-0.0098303817 0 0.00067199994
0.034028243 -0.00127 -0.00088000012
-0.024575954 -0.00042333335 -0.0020440002
0.01890458 0 -0.0024320001
-0.041968167 0.00127 -0.0020440002
0.022685496 -0.00042333335 -0.00049200008
-0.035540611 0.00042333335 -0.0032080002
0.043102443 -0.00042333335 -0.00088000012
0.010208474 -0.00042333335 -0.0016560002
-0.041968167 0.00127 -0.0016560002
-0.024197863 -0.00042333335 -0.0024320001
0.042724352 -0.00127 -0.00010400008
0.013611298 0 -0.0020440002
0.025710229 0 -0.0051480001
-0.0041590077 0.00084666669 -0.0012680001
-0.00037809162 -0.00084666669 -0.0012680001
0.042346261 0.00127 -0.0012680001
-0.026088322 0 -0.0016560002
-0.0049151909 0 -0.0082520004
0.032893971 0 -0.0012680001
0.021929312 0.00084666669 -0.0024320001
0.019282673 0.00127 -0.0020440002
-0.035540611 0.00127 -0.0020440002
-0.01172084 -0.00042333335 -0.00088000012
0.046505269 0.00127 -0.00049200008
-0.048773818 0.00042333335 -0.0020440002
0 -0.00042333335 -0.0078640003
0.027600687 0.00084666669 -0.00010400008
0.045749083 0 -0.0012680001
0.004537099 0 -0.0016560002
0.0098303817 0.00084666669 -0.00088000012
-0.03818725 0.00042333335 -0.0016560002
0.04688336 0 -0.00049200008
-0.044992901 0.00042333335 -0.0024320001
-0.0018904581 0.00042333335 -0.00088000012
0.042346261 0 -0.00088000012
0.0026466413 -0.00127 -0.0024320001
0.045370992 0.00127 -0.00049200008
0.014367481 -0.00127 -0.0020440002
0.0011342748 -0.00042333335 -0.0020440002
-0.026844503 -0.00084666669 -0.0020440002
0.021929312 -0.00084666669 -0.00049200008
0 -0.00042333335 -0.0047600004
-0.028734962 0 -0.00049200008
0.0049151909 0.00042333335 -0.0032080002
-0.02797878 0 0.00067199994
0.012855114 -0.00042333335 -0.0020440002
-0.032893971 0 0.00028399992
-0.040833894 -0.00127 -0.0016560002
0.0052932827 0.00084666669 -0.00088000012
-0.022307405 0.00084666669 -0.0016560002
-0.0022685495 0.00127 -0.00088000012
0.035540611 -0.00084666669 -0.0012680001
0.045749083 -0.00042333335 -0.00088000012
0.041590076 0.00084666669 -0.0012680001
0.014745573 -0.00127 -0.00049200008
-0.04726145 -0.00127 -0.0012680001
-0.0030247329 0.00084666669 -0.0024320001
-0.028356871 0.00127 -0.0016560002
0.0071837404 -0.00042333335 -0.0024320001
0.03062542 0.00084666669 -0.0016560002
-0.03062542 0.00127 -0.0020440002
-0.023063589 0 -0.0020440002
-0.023063589 0.00084666669 -0.00088000012
0.0022685495 0.00042333335 -0.0016560002
-0.029113054 0.00084666669 -0.00088000012
0.025710229 -0.00042333335 -0.00049200008
0.015501756 -0.00127 -0.00088000012
-0.017770305 0 0.001836
0.038943436 0.00084666669 -0.00049200008
-0.031759694 -0.00084666669 -0.0016560002
-0.029113054 -0.00084666669 -0.0024320001
-0.026844503 0.00084666669 -0.0012680001
0.0041590077 0.00042333335 -0.0012680001
0.03818725 0 -0.0012680001
0.005671374 0.00084666669 -0.0012680001
-0.0098303817 0 -0.00010400008
-0.046505269 0.00042333335 -0.0020440002
-0.020038854 0 -0.0020440002
0.006805649 0.00084666669 -0.0020440002
0.01625794 -0.00042333335 -0.0012680001
-0.0064275572 0.00127 -0.00010400008
-0.0026466413 0 0.001836
0.024197863 -0.00042333335 -0.0020440002
-0.0049151909 -0.00042333335 -0.00049200008
-0.0060494659 0.00042333335 -0.00049200008
-0.034784429 0.00084666669 -0.0016560002
0.042346261 0 -0.0016560002
0.048395727 0 0.0022239999
-0.031759694 0.00084666669 -0.00049200008
-0.015123664 0 0.001448
-0.040077709 -0.00084666669 -0.00088000012
0.040455803 -0.00042333335 -0.00088000012
-0.040455803 0.00084666669 -0.0012680001
0.02797878 0.00084666669 -0.00010400008
-0.043102443 0 -0.0051480001
0.015501756 0 -0.0028200001
0.014745573 0.00127 -0.00010400008
-0.046505269 0.00084666669 -0.0012680001
0.01172084 -0.00127 -0.00088000012
-0.043480534 -0.00127 -0.00010400008
-0.0022685495 -0.00042333335 -0.0020440002
0.0037809161 -0.00127 -0.0024320001
-0.047639541 -0.00042333335 -0.00088000012
-0.015879847 -0.00127 -0.00010400008
-0.006805649 -0.00042333335 -0.0020440002
-0.043102443 0 -0.0078640003
0.020416947 0 -0.0047600004
-0.020795038 -0.00084666669 -0.0024320001
-0.0064275572 0 -0.0016560002
0.0071837404 -0.00084666669 -0.00010400008
0.04461481 -0.00042333335 -0.0016560002
0.046505269 0.00127 -0.00088000012
0.043480534 0.00127 -0.0016560002
-0.039321527 -0.00084666669 -0.00049200008
0.021551222 0.00127 -0.0016560002
-0.032137785 0 -0.0024320001
0.0037809161 -0.00127 -0.00088000012
0.0034028245 0 -0.00088000012
-0.045749083 0 0.0026120001
0.046127178 0.00084666669 -0.0012680001
0.042724352 -0.00042333335 -0.00049200008
0.021551222 0.00127 -0.00010400008
-0.0075618322 0 -0.0067000003
-0.043858625 -0.00084666669 -0.00088000012
-0.030247329 0 -0.0028200001
-0.0041590077 0 -0.0016560002
-0.032137785 0 -0.0012680001
-0.015123664 0.00127 -0.00010400008
0.040833894 -0.00042333335 -0.0012680001
0.015501756 0.00042333335 -0.0020440002
-0.015501756 0 -0.0020440002
-0.023819771 0.00127 -0.00088000012
0.015501756 -0.00127 -0.0020440002
0.020416947 0 -0.0074760001
0.0086961072 -0.00042333335 -0.0016560002
0.0064275572 -0.00042333335 -0.00049200008
0.040077709 -0.00127 -0.00049200008
-0.03062542 0 -0.0043720002
-0.029113054 -0.00127 -0.0020440002
0.025710229 -0.00127 -0.0012680001
-0.027222596 -0.00084666669 -0.0012680001
-0.044992901 0.00127 -0.00010400008
-0.031759694 -0.00042333335 -0.00088000012
-0.021929312 -0.00084666669 -0.0012680001
-0.025710229 -0.00042333335 -0.0016560002
0.0022685495 0.00084666669 -0.0020440002
-0.012855114 0.00127 -0.00010400008
-0.042346261 -0.00042333335 -0.0012680001
0.039699618 -0.00084666669 -0.00010400008
0.022685496 0.00084666669 -0.0024320001
0.024954045 0.00127 -0.0020440002
0.03516252 -0.00042333335 -0.00049200008
-0.025332138 -0.00042333335 0.001836
0.0083180154 -0.00084666669 -0.0020440002
-0.0075618322 0.00084666669 -0.0024320001
0.017392214 0.00042333335 -0.0024320001
-0.013233206 -0.00127 -0.00010400008
0.0011342748 0.00042333335 -0.0016560002
0.013233206 -0.00127 -0.0020440002
-0.039699618 -0.00084666669 -0.0012680001
-0.016636031 -0.00084666669 -0.00088000012
0.015501756 0 -0.0043720002
0.0015123665 0.00084666669 -0.00049200008
-0.028734962 0 -0.0020440002
0.017014122 0 -0.0020440002
-0.023063589 0 -0.0012680001
0.047639541 0.00042333335 -0.00049200008
0.016636031 0 -0.0024320001
-0.0052932827 0 -0.0039840001
-0.0049151909 0 -0.0059240004
-0.03780916 -0.00127 -0.0024320001
-0.048017632 0 -0.0078640003
-0.015123664 0 -0.0067000003
-0.0090741981 0.00084666669 -0.0024320001
0.017770305 -0.00084666669 -0.0016560002
-0.0071837404 0.00084666669 -0.0012680001
-0.04688336 0.00127 -0.00088000012
0.0060494659 -0.00084666669 -0.00049200008
0.010208474 -0.00127 -0.00049200008
0.046127178 -0.00127 -0.0012680001
-0.04423672 -0.00042333335 -0.0012680001
0.015123664 0.00127 -0.0024320001
-0.04423672 0.00042333335 -0.00049200008
-0.031003512 -0.00127 -0.0024320001
0.032893971 -0.00084666669 -0.0020440002
-0.017392214 0.00042333335 -0.0016560002
-0.04423672 0.00084666669 -0.0020440002
0.0086961072 0.00127 -0.0024320001
0.040455803 0 -0.0012680001
-0.0037809161 -0.00084666669 -0.0012680001
-0.014367481 -0.00042333335 -0.0024320001
-0.035540611 0 0.001448
0.040455803 0 -0.0059240004
-0.018148396 -0.00084666669 -0.00088000012
-0.012098932 -0.00084666669 -0.0024320001
0.03062542 0 0.00067199994
0.0011342748 0.00127 -0.00088000012
0.00075618323 0.00084666669 -0.00010400008
-0.017770305 0 -0.0078640003
-0.026466412 0.00042333335 -0.0016560002
-0.012477023 0.00042333335 -0.0012680001
0.015501756 -0.00042333335 -0.00088000012
0.0098303817 0.00084666669 -0.00049200008
-0.013611298 0.00042333335 -0.00088000012
0.043102443 -0.00084666669 -0.0020440002
-0.022307405 -0.00127 -0.0016560002
0.024197863 0 -0.0020440002
0.03251588 0 -0.0016560002
0.039699618 -0.00127 -0.00010400008
-0.025332138 0.00084666669 -0.0020440002
0.012477023 -0.00084666669 -0.00049200008
0.0090741981 -0.00127 -0.0024320001
0.014367481 -0.00084666669 -0.00049200008
-0.010208474 0.00042333335 -0.0016560002
-0.041211985 0.00127 -0.0012680001
-0.034028243 0.00084666669 -0.0016560002
-0.041211985 -0.00084666669 -0.00088000012
-0.038565345 0.00127 -0.00049200008
0.010208474 0.00084666669 -0.0020440002
0.032893971 0 0.0022239999
0.040077709 0.00042333335 -0.00049200008
-0.021551222 0.00127 -0.0020440002
0.0086961072 -0.00042333335 -0.0020440002
0.014367481 -0.00127 -0.0016560002
0.005671374 -0.00127 -0.0016560002
0.02344168 -0.00127 -0.0012680001
0.010208474 0 -0.0070880004
-0.0022685495 0.00084666669 -0.0024320001
0.040455803 0.00042333335 -0.0016560002
0.016636031 0.00127 -0.00049200008
0.017770305 0.00042333335 -0.00049200008
0.010586565 -0.00084666669 -0.0020440002
-0.012855114 0.00084666669 -0.0012680001
0.019660763 0.00127 -0.00010400008
-0.025332138 0.00084666669 -0.0016560002
-0.024954045 -0.00042333335 -0.0020440002
-0.014367481 -0.00042333335 -0.0016560002
0.039699618 0.00042333335 -0.0020440002
0.048017632 0.00084666669 -0.00088000012
-0.024575954 0 -0.00088000012
0.0098303817 0 -0.0020440002
0.012855114 0.00084666669 -0.00088000012
-0.023819771 0.00084666669 -0.0016560002
-0.019282673 -0.00084666669 -0.0012680001
-0.020416947 0 -0.0051480001
-0.034784429 0.00042333335 -0.00049200008
-0.018526489 -0.00084666669 -0.00049200008
-0.038943436 -0.00042333335 -0.0012680001
0.03780916 0.00127 -0.0012680001
-0.040455803 -0.00127 -0.0016560002
-0.025332138 0 -0.0039840001
-0.0049151909 -0.00042333335 -0.0028200001
0.03062542 0 -0.00049200008
-0.027222596 -0.00127 -0.00088000012
-0.016636031 0 -0.00049200008
0.04423672 0.00084666669 -0.0016560002
0.0090741981 0.00042333335 -0.00049200008
0.014367481 -0.00042333335 -0.0020440002
-0.043102443 0 0.0010599999
0.048395727 0 -0.0032080002
-0.021173131 0.00084666669 -0.0024320001
0.019660763 -0.00127 -0.00049200008
0.018148396 0.00084666669 -0.00049200008
-0.029491145 -0.00042333335 -0.00049200008
-0.013233206 0 -0.00088000012
0.021551222 -0.00042333335 -0.0020440002
0.0071837404 0.00084666669 -0.0012680001
0.035918701 0 -0.00049200008
0.033272061 0 -0.0016560002
0.029113054 0.00084666669 -0.00010400008
0.041211985 0.00042333335 -0.0012680001
-0.048395727 -0.00042333335 -0.0012680001
-0.018526489 -0.00127 -0.00049200008
-0.018526489 0 -0.0016560002
0.040455803 -0.00084666669 -0.0024320001
0.03818725 -0.00084666669 -0.0016560002
0.0026466413 0.00084666669 -0.0020440002
0.005671374 -0.00127 -0.00088000012
0.039699618 0.00127 -0.0016560002
0.032893971 -0.00084666669 -0.00088000012
-0.006805649 -0.00084666669 -0.00088000012
-0.045749083 0.00042333335 -0.0020440002
-0.0079399236 0.00042333335 -0.00049200008
0.02797878 0.00127 -0.0012680001
-0.02344168 0.00084666669 -0.00010400008
0.0071837404 0.00127 -0.00049200008
-0.0086961072 0.00084666669 -0.00010400008
-0.016636031 0.00042333335 -0.0016560002
0.0026466413 -0.00042333335 -0.0020440002
-0.0030247329 -0.00127 -0.00088000012
-0.025710229 0 -0.0032080002
-0.031381603 -0.00084666669 -0.00049200008
0.024954045 0 -0.00049200008
0.01625794 0 -0.0016560002
-0.049151909 -0.00042333335 -0.0024320001
-0.01398939 0.00042333335 -0.0016560002
0.048395727 -0.00042333335 -0.00049200008
0.014745573 -0.00042333335 -0.00088000012
0.034028243 -0.00127 -0.00010400008
-0.029113054 0.00084666669 -0.0020440002
-0.032137785 0.00127 -0.0016560002
0.0064275572 -0.00084666669 -0.0012680001
0.02344168 0.00042333335 -0.0024320001
-0.019660763 0.00084666669 -0.0016560002
-0.03062542 0 -0.00088000012
-0.041211985 -0.00042333335 -0.0012680001
0.014745573 0.00127 -0.0020440002
0.031759694 0 -0.0016560002
0.0052932827 0.00127 -0.0020440002
-0.0026466413 0 -0.0035960001
0.02797878 -0.00127 -0.0020440002
0.032893971 -0.00042333335 -0.0024320001
0.00075618323 0.00127 -0.00010400008
-0.034406338 0 -0.0016560002
-0.015501756 0 -0.00010400008
-0.026466412 -0.00042333335 -0.0016560002
0.024197863 -0.00127 -0.00010400008
0.037431069 0.00127 -0.00010400008
0.026844503 0 -0.0012680001
-0.012855114 0.00042333335 -0.0020440002
-0.027222596 -0.00084666669 -0.0024320001
0.048773818 0 -0.00010400008
-0.017392214 0.00042333335 -0.00049200008
-0.048395727 0.00042333335 -0.0020440002
-0.04423672 -0.00042333335 -0.0016560002
0.014745573 0 -0.00088000012
-0.013233206 -0.00042333335 -0.0012680001
0.021173131 0.00127 -0.0024320001
-0.022685496 0.00042333335 -0.0016560002
0.042724352 0.00084666669 -0.0020440002
0.03516252 0 -0.0016560002
-0.043102443 0 -0.0043720002
0.025710229 0 0.0022239999
0.012855114 -0.00084666669 -0.00049200008
0.032137785 0.00084666669 -0.0020440002
0.035540611 0.00127 -0.00088000012
0.032893971 0 -0.00010400008
0.035918701 0.00127 -0.00010400008
-0.023063589 0 -0.0063120001
0.020416947 -0.00084666669 -0.0012680001
-0.048395727 0 -0.0051480001
0.033650152 -0.00127 -0.0012680001
0.015123664 -0.00127 -0.0016560002
-0.04726145 0.00127 -0.0024320001
-0.0030247329 0 -0.0016560002
0.027222596 0 -0.00049200008
-0.016636031 -0.00127 -0.00010400008
0.03516252 -0.00084666669 -0.0012680001
0.036674887 0 -0.00049200008
-0.020038854 0.00127 -0.0012680001
0.0015123665 -0.00127 -0.0024320001
-0.0034028245 -0.00127 -0.0024320001
-0.017770305 -0.00127 -0.0020440002
-0.019660763 -0.00127 -0.0012680001
0.01890458 -0.00084666669 -0.0020440002
-0.019282673 -0.00127 -0.0016560002
0.03818725 -0.00042333335 -0.0024320001
0.01172084 -0.00127 -0.0020440002
-0.029869236 0 -0.0016560002
0.022685496 0 0.0026120001
0.021551222 -0.00084666669 -0.0012680001
-0.0071837404 -0.00127 -0.0012680001
-0.04461481 -0.00127 -0.00010400008
-0.01890458 0.00127 -0.00010400008
0.049151909 0.00084666669 -0.0012680001
0.028734962 -0.00127 -0.0016560002
0.015879847 0.00084666669 -0.00049200008
0.015501756 -0.00127 -0.00049200008
0.015123664 0 -0.0020440002
-0.031759694 -0.00127 -0.00049200008
0.010586565 -0.00127 -0.00088000012
0.047639541 0.00084666669 -0.0020440002
-0.033272061 -0.00084666669 -0.00010400008
-0.010964656 -0.00084666669 -0.00088000012
0.012477023 -0.00042333335 -0.0020440002
-0.010208474 -0.00042333335 -0.0016560002
0.0041590077 -0.00127 -0.00049200008
-0.019282673 0 -0.0020440002
-0.029113054 0 -0.0024320001
0.0026466413 0 -0.0012680001
-0.0098303817 0.00042333335 -0.0016560002
0.015879847 -0.00127 -0.0020440002
0.015879847 0.00084666669 -0.0012680001
-0.014745573 -0.00042333335 -0.0016560002
-0.034784429 -0.00127 -0.00010400008
-0.015501756 -0.00042333335 -0.00049200008
0.038943436 0.00127 -0.00010400008
-0.016636031 0.00084666669 -0.00010400008
-0.01890458 -0.00084666669 -0.0016560002
0.015501756 0 -0.0067000003
0.012477023 -0.00042333335 -0.00088000012
-0.036296792 0.00084666669 -0.0012680001
-0.041211985 -0.00127 -0.00049200008
0.020038854 0 -0.0051480001
-0.013611298 0 -0.0020440002
0.020416947 0 0.001448
-0.049151909 0 -0.00049200008
-0.0075618322 0.00042333335 -0.0028200001
-0.039321527 0.00127 -0.0012680001
-0.033272061 -0.00084666669 -0.0012680001
0.031003512 -0.00127 -0.00088000012
0.014367481 0.00127 -0.00088000012
0.047639541 -0.00127 -0.0020440002
-0.029869236 -0.00084666669 -0.00010400008
-0.04688336 0.00084666669 -0.00088000012
-0.021173131 0.00127 -0.00010400008
-0.035540611 0 -0.0051480001
0.010208474 0 -0.0016560002
-0.020416947 -0.00084666669 -0.00088000012
-0.048773818 0.00084666669 -0.00049200008
-0.03516252 -0.00084666669 -0.00088000012
0.010586565 0.00127 -0.0016560002
-0.022307405 -0.00084666669 -0.0016560002
-0.012477023 0 -0.0078640003
0.043102443 0 -0.0012680001
0.021929312 -0.00127 -0.0016560002
0.038943436 -0.00084666669 -0.0020440002
0.03516252 -0.00127 -0.0020440002
-0.026844503 0 -0.00088000012
0.005671374 0.00042333335 -0.00049200008
-0.015879847 0.00042333335 -0.00049200008
-0.041590076 -0.00127 -0.0020440002
-0.033650152 0 -0.00049200008
-0.039321527 0.00042333335 -0.00088000012
-0.035540611 -0.00042333335 -0.0012680001
-0.048017632 0 -0.00088000012
0.034028243 -0.00084666669 -0.0012680001
-0.024954045 0.00127 -0.00010400008
-0.022685496 0 0.0022239999
-0.034406338 -0.00127 -0.0020440002
0.0015123665 0 -0.00049200008
-0.0075618322 -0.00042333335 -0.0067000003
0.012477023 -0.00127 -0.00049200008
-0.013611298 0.00042333335 -0.0016560002
-0.040833894 0 -0.0024320001
0.027600687 -0.00127 -0.0024320001
-0.011342748 0.00127 -0.00049200008
0.02344168 0 -0.0016560002
-0.037052978 -0.00084666669 -0.00010400008
0.023063589 0 -0.0063120001
0.011342748 0 -0.0012680001
0.019282673 -0.00127 -0.0020440002
0.023819771 0.00127 -0.0012680001
0.033650152 -0.00127 -0.0024320001
-0.01172084 0.00084666669 -0.0012680001
-0.031381603 0 -0.0016560002
0.038565345 -0.00042333335 -0.00049200008
0.049151909 -0.00042333335 -0.0020440002
0.03516252 -0.00127 -0.0024320001
0.040455803 0 0.0010599999
-0.041590076 -0.00127 -0.00010400008
-0.01625794 0.00127 -0.0024320001
-0.012855114 0 0.0010599999
0.0079399236 0 -0.0039840001
-0.032893971 -0.00042333335 -0.0020440002
-0.048395727 -0.00084666669 -0.00010400008
-0.029869236 -0.00127 -0.0024320001
-0.036674887 -0.00127 -0.00010400008
-0.0075618322 0.00127 -0.00010400008
-0.045749083 -0.00042333335 -0.00088000012
-0.038565345 0.00042333335 -0.00049200008
0.01625794 -0.00084666669 -0.0012680001
-0.0083180154 0.00127 -0.0024320001
-0.046127178 0 -0.00088000012
0.020416947 -0.00042333335 -0.00088000012
-0.01625794 0.00127 -0.00010400008
-0.048017632 0 -0.0024320001
0.048017632 -0.00084666669 -0.00049200008
0.017014122 -0.00042333335 -0.00088000012
-0.040833894 -0.00127 -0.0020440002
-0.0064275572 0.00127 -0.0020440002
0.027222596 -0.00084666669 -0.0024320001
0.010208474 0 -0.0035960001
-0.04688336 0.00127 -0.00049200008
0.045370992 0.00127 -0.00088000012
0.046505269 -0.00127 -0.00088000012
-0.023063589 0.00042333335 -0.00088000012
-0.043102443 0.00084666669 -0.0024320001
0 0.00127 -0.0012680001
-0.019282673 0.00042333335 -0.0012680001
-0.042346261 0 -0.00049200008
-0.045749083 0 0.001836
0.01172084 -0.00084666669 -0.0016560002
-0.039699618 -0.00042333335 -0.00049200008
-0.018526489 0.00127 -0.00088000012
0.03251588 0.00042333335 -0.0012680001
0.017392214 0.00042333335 -0.00088000012
0.034406338 -0.00042333335 -0.0024320001
0.042724352 0.00127 -0.0012680001
-0.01625794 -0.00042333335 -0.0024320001
-0.024197863 0.00127 -0.00010400008
0.012855114 -0.00042333335 -0.0024320001
-0.017392214 -0.00127 -0.0024320001
0.013233206 -0.00084666669 -0.00010400008
-0.023063589 0 -0.0032080002
-0.0022685495 0 -0.0063120001
-0.034784429 0.00042333335 -0.0012680001
0.048017632 0 -0.0051480001
0.0026466413 0.00084666669 -0.0012680001
-0.027600687 0 -0.0074760001
-0.027222596 -0.00042333335 -0.0012680001
0.028356871 0.00127 -0.0020440002
-0.048773818 -0.00084666669 -0.0012680001
0.006805649 0.00042333335 -0.0012680001
-0.025332138 0 -0.0059240004
0.036296792 -0.00084666669 -0.00010400008
0.033272061 -0.00084666669 -0.00010400008
-0.0011342748 0.00084666669 -0.00088000012
-0.039699618 0 -0.00088000012
-0.01398939 -0.00127 -0.00088000012
-0.040077709 0.00084666669 -0.00010400008
0.027222596 -0.00084666669 -0.0016560002
-0.020416947 0 -0.0035960001
0.025710229 -0.00127 -0.0016560002
-0.023819771 0 -0.00010400008
-0.03818725 0 -0.0067000003
-0.04461481 0 -0.0020440002
-0.022307405 -0.00127 -0.0012680001
-0.022685496 0 -0.0039840001
0.028356871 -0.00084666669 -0.00049200008
0.048395727 0 0.001836
0.0090741981 0 -0.00088000012
0.0075618322 0 -0.00049200008
-0.043102443 0 -0.0047600004
-0.0064275572 -0.00042333335 -0.0020440002
0.028356871 -0.00084666669 -0.00010400008
-0.035540611 -0.00084666669 -0.00010400008
0.043480534 -0.00042333335 -0.0016560002
-0.0060494659 0.00042333335 -0.0012680001
-0.0098303817 0.00127 -0.00010400008
0.006805649 0.00084666669 -0.00010400008
0.018148396 -0.00084666669 -0.00049200008
-0.035540611 0 -0.0063120001
-0.037052978 0.00127 -0.00049200008
0.043858625 0 -0.0012680001
-0.0022685495 0.00084666669 -0.0016560002
-0.048773818 0.00127 -0.00049200008
0.0075618322 0.00127 -0.0020440002
-0.02797878 0 0.0010599999
-0.03516252 0.00042333335 -0.0012680001
0.034028243 -0.00084666669 -0.00088000012
0.023063589 -0.00084666669 -0.0024320001
-0.010586565 -0.00127 -0.0024320001
0.035540611 0 -0.00088000012
0.039321527 0 -0.0020440002
0.0071837404 0 -0.00088000012
0.043102443 -0.00084666669 -0.0012680001
-0.01625794 -0.00042333335 -0.00049200008
0.041211985 0.00127 -0.00010400008
-0.023063589 0.00042333335 -0.0012680001
-0.010586565 0.00042333335 -0.0024320001
0.042346261 0.00042333335 -0.00088000012
-0.029113054 -0.00127 -0.0016560002
-0.042724352 -0.00042333335 -0.0012680001
-0.0098303817 -0.00042333335 -0.00049200008
0.043102443 0 -0.00088000012
0.016636031 -0.00127 -0.00010400008
-0.032893971 0 -0.00088000012
0.039699618 -0.00084666669 -0.0024320001
-0.040833894 0.00084666669 -0.0024320001
-0.04461481 0.00127 -0.0020440002
-0.019660763 0.00127 -0.0020440002
0.020416947 -0.00084666669 -0.0020440002
-0.048773818 -0.00127 -0.0012680001
-0.0094522899 0 -0.0012680001
-0.029491145 0.00042333335 -0.0016560002
0.029491145 0.00127 -0.0012680001
-0.023819771 0 -0.0016560002
-0.043480534 0 -0.0059240004
0.0049151909 -0.00084666669 -0.0012680001
-0.0079399236 0 -0.00010400008
-0.00037809162 0.00042333335 -0.0024320001
-0.044992901 0.00084666669 -0.00010400008
0.025332138 -0.00127 -0.0012680001
0 -0.00084666669 -0.00049200008
-0.017770305 -0.00042333335 -0.0020440002
0.025710229 0.00127 -0.0016560002
0.045370992 -0.00084666669 -0.00088000012
0.03062542 0 -0.00010400008
-0.038943436 0.00084666669 -0.0012680001
-0.03062542 0 -0.0067000003
-0.020795038 0 -0.0016560002
-0.046127178 0.00042333335 -0.00088000012
-0.02797878 -0.00084666669 -0.0012680001
0.0060494659 -0.00084666669 -0.00010400008
-0.024954045 0.00084666669 -0.00088000012
0.026466412 0 -0.0016560002
0.034784429 0.00127 -0.00010400008
-0.040833894 0.00042333335 -0.0024320001
0.04688336 0 -0.0016560002
0.00075618323 0.00042333335 -0.0020440002
-0.0030247329 0.00127 -0.0024320001
-0.024954045 0.00127 -0.0024320001
-0.03818725 0 -0.00088000012
-0.026844503 -0.00042333335 -0.0024320001
-0.021929312 -0.00127 -0.0012680001
0.024575954 -0.00127 -0.00088000012
0.037052978 -0.00127 -0.00088000012
-0.011342748 -0.00127 -0.00088000012
0.026844503 -0.00127 -0.00088000012
0.021551222 0.00042333335 -0.0020440002
-0.04688336 -0.00084666669 -0.0012680001
0.03780916 0.00127 -0.0020440002
0.0049151909 0.00127 -0.0016560002
-0.036674887 0.00127 -0.0016560002
0.012477023 0 0.0022239999
0.031759694 0.00042333335 -0.00088000012
0.038565345 0.00084666669 -0.0020440002
-0.045370992 -0.00127 -0.0012680001
-0.037052978 -0.00084666669 -0.00049200008
0.037052978 0 -0.00010400008
0.024197863 0.00127 -0.0020440002
0.048395727 0.00042333335 -0.00049200008
-0.020038854 0 0.001836
0.033272061 0 -0.0035960001
-0.020795038 0.00042333335 -0.00049200008
0.043480534 -0.00084666669 -0.0020440002
-0.032893971 0 -0.0082520004
-0.041968167 -0.00127 -0.00010400008
0.015123664 0.00127 -0.00010400008
0.018148396 -0.00042333335 -0.0012680001
-0.043858625 0.00127 -0.0012680001
0.034028243 -0.00042333335 -0.00088000012
-0.029113054 -0.00042333335 -0.0016560002
-0.045749083 -0.00127 -0.00010400008
-0.03818725 -0.00084666669 -0.0016560002
0.048017632 0.00042333335 -0.0024320001
0.034784429 0.00084666669 -0.0024320001
-0.029491145 0.00127 -0.0012680001
0.03062542 -0.00042333335 -0.0020440002
0.0026466413 0 -0.00088000012
-0.012098932 0.00042333335 -0.0016560002
-0.041968167 0.00042333335 -0.0024320001
-0.024575954 0.00084666669 -0.0012680001
0.045370992 0.00084666669 -0.0024320001
-0.0030247329 -0.00084666669 -0.0020440002
-0.01890458 -0.00084666669 -0.0024320001
-0.0094522899 -0.00042333335 -0.0020440002
-0.006805649 0 -0.00088000012
-0.021929312 0 -0.0024320001
-0.010586565 -0.00084666669 -0.0012680001
-0.022307405 0.00127 -0.0016560002
0.040455803 -0.00042333335 -0.0016560002
0.031759694 0.00042333335 -0.0024320001
0.032137785 0.00084666669 -0.00088000012
-0.038943436 0 -0.0016560002
0.030247329 0 -0.0012680001
0.010208474 0 0.0026120001
0.032893971 0.00127 -0.00088000012
0.021929312 -0.00042333335 -0.0024320001
-0.01398939 0.00084666669 -0.0012680001
0.017014122 -0.00127 -0.0024320001
0.013611298 -0.00042333335 -0.00088000012
-0.0022685495 0 -0.0032080002
0.015501756 -0.00042333335 -0.0012680001
-0.02797878 -0.00127 -0.0016560002
0.023063589 0.00084666669 -0.0024320001
-0.020416947 0 -0.0032080002
0.041968167 0.00042333335 -0.0016560002
-0.03818725 -0.00084666669 -0.00088000012
0.018526489 0.00084666669 -0.0024320001
0.043102443 0 -0.0067000003
-0.021173131 -0.00042333335 -0.00088000012
-0.048017632 0 -0.0063120001
0.043858625 0 -0.00088000012
-0.0098303817 0.00084666669 -0.00088000012
-0.03818725 0.00127 -0.0016560002
0.043480534 0.00084666669 -0.0024320001
-0.045749083 -0.00084666669 -0.0012680001
0.02797878 0 -0.0074760001
0.020416947 0.00042333335 -0.0024320001
-0.035918701 0.00084666669 -0.0020440002
-0.03062542 0.00084666669 -0.0012680001
-0.043480534 0 -0.0070880004
-0.0041590077 0.00042333335 -0.00049200008
-0.036674887 -0.00084666669 -0.00088000012
0.023819771 0.00042333335 -0.0024320001
0.0086961072 -0.00127 -0.0012680001
0.04461481 0.00127 -0.0020440002
-0.048017632 -0.00042333335 -0.0020440002
0.0034028245 0 -0.00049200008
-0.038565345 0 -0.00049200008
-0.040077709 0 -0.0024320001
0.0022685495 0 0.00028399992
-0.034406338 0.00127 -0.00010400008
0.032893971 0 0.001836
-0.032893971 0.00084666669 -0.00049200008
0.039699618 0.00084666669 -0.0024320001
-0.006805649 -0.00127 -0.0024320001
0.019660763 -0.00084666669 -0.0016560002
0.00037809162 0 -0.0016560002
-0.02797878 0.00127 -0.0024320001
0.0041590077 0 -0.00010400008
-0.010208474 -0.00084666669 -0.00088000012
-0.015123664 0 -0.0078640003
-0.023819771 0.00127 -0.00049200008
0.004537099 0.00084666669 -0.0024320001
0.029113054 -0.00042333335 -0.0012680001
-0.0026466413 -0.00042333335 -0.00049200008
-0.017770305 0.00127 -0.00088000012
0.010586565 0.00042333335 -0.0012680001
-0.025710229 0.00127 -0.0024320001
-0.018148396 0.00127 -0.00010400008
0.024197863 -0.00084666669 -0.0024320001
-0.046505269 0.00127 -0.00088000012
0.035540611 0.00127 -0.0020440002
0.041590076 0.00084666669 -0.0024320001
0.01890458 0.00084666669 -0.0020440002
-0.03818725 0 0.001448
-0.023819771 0.00042333335 -0.00088000012
-0.0060494659 0.00127 -0.0016560002
0.0011342748 0 -0.00088000012
-0.025710229 -0.00127 -0.00010400008
-0.031759694 0.00084666669 -0.0016560002
0.031381603 0.00084666669 -0.00010400008
-0.04688336 0.00084666669 -0.0016560002
0.021551222 0 -0.0024320001
0.03780916 -0.00127 -0.00049200008
-0.015879847 0.00084666669 -0.0012680001
-0.024954045 -0.00084666669 -0.00088000012
0.043480534 -0.00042333335 -0.0020440002
-0.0071837404 -0.00042333335 -0.0020440002
-0.028356871 -0.00127 -0.0016560002
-0.004537099 -0.00084666669 -0.00049200008
0.015123664 0 -0.0039840001
0.039699618 -0.00127 -0.0024320001
0.00037809162 0.00084666669 -0.0016560002
-0.004537099 -0.00042333335 -0.0024320001
-0.0083180154 -0.00127 -0.00049200008
0.004537099 0.00127 -0.00088000012
-0.034028243 -0.00084666669 -0.0016560002
0.0022685495 -0.00084666669 -0.0016560002
-0.044992901 -0.00084666669 -0.00049200008
0.032137785 0.00084666669 -0.00049200008
0.025710229 -0.00042333335 -0.0016560002
-0.015879847 0 -0.0024320001
-0.03062542 0 -0.0051480001
-0.0026466413 0.00084666669 -0.0020440002
-0.0049151909 0 0.0022239999
-0.018148396 -0.00127 -0.00010400008
-0.0098303817 0.00127 -0.0016560002
-0.017770305 0.00042333335 -0.0024320001
0.005671374 0.00127 -0.0020440002
0.039699618 -0.00084666669 -0.00088000012
0.00075618323 -0.00127 -0.0012680001
0.022307405 -0.00042333335 -0.0012680001
0.015123664 -0.00042333335 -0.0020440002
-0.0015123665 -0.00127 -0.00010400008
0.040077709 -0.00127 -0.0024320001
0.03780916 0 -0.0020440002
-0.048395727 -0.00127 -0.0012680001
-0.01625794 -0.00127 -0.00088000012
-0.03818725 0.00084666669 -0.00088000012
0.024197863 -0.00042333335 -0.00088000012
-0.023819771 0.00127 -0.0024320001
0.005671374 0 -0.0012680001
0.012477023 0.00042333335 -0.0012680001
0.034406338 0.00084666669 -0.00088000012
0.03251588 0.00084666669 -0.0012680001
0.029113054 0.00127 -0.0020440002
-0.020416947 0 -0.0059240004
-0.03780916 0.00127 -0.00088000012
0 0 0.001448
-0.031759694 -0.00084666669 -0.00049200008
0.034028243 -0.00084666669 -0.0024320001
0.022685496 0.00084666669 -0.0012680001
-0.018148396 -0.00084666669 -0.0016560002
-0.015123664 -0.00042333335 0.001836
-0.040077709 -0.00127 -0.00049200008
-0.014367481 0.00127 -0.0016560002
0.04726145 0.00042333335 -0.0024320001
-0.043480534 0 0.00028399992
0.041968167 -0.00084666669 -0.00010400008
0.017014122 0.00127 -0.0012680001
-0.023063589 0.00042333335 -0.00049200008
-0.004537099 0 -0.00010400008
0.035918701 -0.00042333335 -0.00088000012
0.017014122 0 -0.00049200008
-0.049529999 0 -0.00049200008
-0.048017632 0 -0.0067000003
-0.045370992 0.00084666669 -0.00010400008
-0.0064275572 -0.00042333335 -0.0012680001
-0.0086961072 0.00042333335 -0.00088000012
0.010208474 -0.00084666669 -0.0020440002
-0.0064275572 0.00084666669 -0.0024320001
-0.015501756 -0.00042333335 -0.0024320001
0.04423672 0.00084666669 -0.0012680001
0.026466412 0.00127 -0.00010400008
0.022685496 0.00042333335 -0.00049200008
-0.010964656 -0.00084666669 -0.0012680001
-0.012477023 0.00127 -0.00049200008
-0.034406338 -0.00127 -0.0012680001
-0.04726145 -0.00084666669 -0.0012680001
-0.036296792 -0.00084666669 -0.0020440002
0 -0.00042333335 -0.0016560002
0.027222596 -0.00127 -0.0024320001
0.017014122 0 -0.0012680001
0.042346261 0.00042333335 -0.0012680001
-0.037431069 -0.00042333335 -0.00049200008
0.0049151909 0 -0.0082520004
0.046127178 0.00042333335 -0.0016560002
-0.020038854 0.00127 -0.0020440002
0.020038854 -0.00042333335 -0.0024320001
0.029491145 0.00042333335 -0.0016560002
0.025332138 -0.00042333335 -0.00049200008
-0.0083180154 0 -0.00088000012
0.034028243 0.00127 -0.0020440002
0.032893971 0 -0.0078640003
0.030247329 0.00084666669 -0.0020440002
0.0079399236 0 -0.0067000003
-0.0022685495 0.00127 -0.0012680001
-0.035918701 -0.00127 -0.00049200008
0.018148396 0.00042333335 -0.0020440002
-0.013233206 -0.00042333335 -0.00088000012
-0.03251588 0.00084666669 -0.0016560002
0.042346261 0.00042333335 -0.0020440002
-0.03780916 0.00127 -0.00049200008
-0.0011342748 0.00042333335 -0.0020440002
-0.029113054 -0.00084666669 -0.00010400008
-0.043102443 0 -0.0070880004
0.0094522899 0.00084666669 -0.0016560002
0.021551222 0.00127 -0.00049200008
-0.025332138 0.00127 -0.0016560002
-0.036674887 -0.00084666669 -0.0020440002
0.042346261 -0.00127 -0.00049200008
0.023819771 0.00042333335 -0.00049200008
-0.0041590077 0.00084666669 -0.00088000012
-0.03062542 0.00084666669 -0.00049200008
0.024575954 0.00127 -0.00010400008
0.03251588 -0.00084666669 -0.0016560002
-0.041211985 0 -0.0016560002
-0.024197863 -0.00042333335 -0.00049200008
-0.036674887 0.00084666669 -0.0020440002
0.012477023 0 -0.0063120001
-0.02344168 -0.00127 -0.00010400008
-0.035918701 -0.00127 -0.00088000012
0.037431069 0.00127 -0.0016560002
0.02344168 -0.00042333335 -0.00088000012
-0.03818725 0 -0.0063120001
-0.03780916 -0.00127 -0.0020440002
0.046127178 0.00042333335 -0.0024320001
0.015501756 0 0.001836
0.035540611 -0.00042333335 -0.0024320001
-0.04461481 0 -0.00049200008
0.01172084 0.00084666669 -0.00088000012
-0.0086961072 0.00042333335 -0.0020440002
-0.04461481 0.00084666669 -0.00049200008
-0.019660763 -0.00127 -0.00010400008
-0.0075618322 -0.00084666669 -0.00010400008
0.03251588 0 -0.00088000012
0.006805649 -0.00084666669 -0.0012680001
-0.03062542 0 -0.0047600004
0.049151909 0.00084666669 -0.00088000012
0.028734962 0.00127 -0.0016560002
0.021173131 0 -0.0012680001
-0.017770305 0.00084666669 -0.00049200008
0.013611298 0.00084666669 -0.00010400008
-0.018526489 -0.00127 -0.0024320001
-0.045749083 0.00084666669 -0.0020440002
0.01398939 -0.00084666669 -0.00088000012
0.04688336 -0.00127 -0.0020440002
0.014745573 -0.00127 -0.0012680001
0.0075618322 -0.00127 -0.0020440002
-0.012477023 0 -0.0059240004
0.031381603 -0.00084666669 -0.00049200008
0.03818725 0.00084666669 -0.00010400008
-0.0022685495 -0.00042333335 -0.00088000012
0.03516252 0.00127 -0.00088000012
-0.026466412 0.00084666669 -0.00088000012
0.031381603 -0.00042333335 -0.00088000012
-0.006805649 -0.00084666669 -0.0012680001
-0.012855114 0 -0.0012680001
-0.03062542 0 0.0022239999
-0.025332138 0 -0.0070880004
-0.017392214 -0.00127 -0.00049200008
-0.01625794 0.00084666669 -0.0024320001
0.0060494659 -0.00084666669 -0.0016560002
0.033272061 0 -0.00049200008
0.018148396 -0.00084666669 -0.0020440002
0.038943436 -0.00042333335 -0.0016560002
-0.01398939 -0.00084666669 -0.00088000012
-0.048017632 0 0.00028399992
0.021929312 0 -0.00049200008
-0.012098932 0 -0.00010400008
-0.0064275572 0.00042333335 -0.0020440002
0.006805649 0.00042333335 -0.0020440002
-0.0018904581 0.00084666669 -0.00010400008
-0.01398939 0 -0.00049200008
0.041590076 0.00127 -0.00049200008
-0.0018904581 0.00084666669 -0.0020440002
0.01172084 0.00042333335 -0.0020440002
-0.040833894 0.00127 -0.00088000012
-0.01890458 0.00042333335 -0.0016560002
-0.018148396 -0.00042333335 -0.0016560002
0.018148396 0 -0.00088000012
0.0011342748 -0.00084666669 -0.0020440002
0.020416947 -0.00084666669 -0.00088000012
-0.045370992 0.00084666669 -0.0020440002
-0.031759694 -0.00127 -0.0020440002
-0.0094522899 -0.00084666669 -0.0024320001
-0.022685496 -0.00127 -0.0024320001
-0.03780916 0.00127 -0.0012680001
0.043102443 -0.00127 -0.00010400008
-0.015123664 0 -0.00010400008
0.014745573 -0.00127 -0.00010400008
-0.010586565 -0.00127 -0.0016560002
0.01172084 0 -0.0016560002
-0.0049151909 0 -0.0063120001
-0.032137785 0.00127 -0.0020440002
-0.041590076 0.00127 -0.00049200008
0.03780916 -0.00127 -0.0024320001
0.040833894 0 0.00028399992
0.048395727 0.00127 -0.0016560002
0.048017632 -0.00042333335 -0.0012680001
-0.033650152 0.00084666669 -0.0024320001
-0.022685496 -0.00127 -0.00010400008
0.038943436 0.00042333335 -0.0024320001
-0.025710229 0 -0.0024320001
0.03062542 0 -0.0047600004
-0.033272061 0.00084666669 -0.00010400008
0.021929312 -0.00042333335 -0.0012680001
-0.033650152 0.00084666669 -0.0016560002
0.036674887 0.00042333335 -0.0016560002
0.014367481 0.00127 -0.0016560002
-0.037052978 0 -0.0016560002
-0.039699618 0.00084666669 -0.0012680001
-0.03818725 0 -0.0016560002
0.022685496 0.00127 -0.0016560002
-0.034028243 -0.00084666669 -0.0012680001
0.024197863 0.00084666669 -0.0020440002
0.042346261 -0.00042333335 -0.00049200008
0.00075618323 -0.00084666669 -0.00049200008
-0.035540611 -0.00042333335 -0.00088000012
0.026088322 0.00084666669 -0.00088000012
-0.039321527 0.00042333335 -0.0012680001
-0.0075618322 0.00084666669 -0.0012680001
0.022685496 0.00127 -0.00010400008
-0.036674887 -0.00084666669 -0.00010400008
0.048773818 0.00127 -0.0016560002
0.03516252 -0.00084666669 -0.00049200008
0.0034028245 0 -0.00010400008
-0.01398939 0 -0.0016560002
-0.043858625 0.00084666669 -0.00088000012
0.0041590077 -0.00127 -0.00010400008
-0.028356871 -0.00084666669 -0.0020440002
-0.0049151909 0.00084666669 -0.0024320001
0.006805649 -0.00084666669 -0.0020440002
0.022685496 0 -0.0063120001
-0.042346261 0.00127 -0.0012680001
0.00037809162 -0.00127 -0.0012680001
-0.017014122 0.00127 -0.00049200008
-0.019282673 0.00127 -0.00088000012
-0.046127178 -0.00084666669 -0.0024320001
0.015879847 -0.00084666669 -0.0024320001
0.0034028245 0.00084666669 -0.0016560002
0.036674887 0 -0.0020440002
0.013233206 -0.00084666669 -0.0016560002
-0.03516252 -0.00084666669 -0.0020440002
0.041211985 -0.00084666669 -0.0012680001
0.040833894 -0.00127 -0.00049200008
-0.043480534 -0.00084666669 -0.0016560002
0.034406338 -0.00084666669 -0.0024320001
-0.031759694 -0.00127 -0.00088000012
0.017392214 -0.00084666669 -0.0020440002
0.017392214 0 -0.00010400008
0.015501756 -0.00084666669 -0.0020440002
-0.021173131 -0.00127 -0.0016560002
-0.0083180154 0.00127 -0.0020440002
0.0015123665 -0.00127 -0.00088000012
0.035540611 0.00127 -0.00049200008
-0.045370992 0.00084666669 -0.00088000012
-0.03062542 -0.00127 -0.00049200008
-0.021173131 0.00042333335 -0.00088000012
-0.017770305 -0.00042333335 -0.0016560002
0.0098303817 -0.00127 -0.00010400008
-0.0083180154 -0.00127 -0.00010400008
0.021551222 -0.00127 -0.00088000012
-0.019282673 -0.00127 -0.0024320001
0.03062542 0.00042333335 -0.0016560002
-0.028734962 0.00042333335 -0.0016560002
-0.035918701 0.00042333335 -0.0012680001
-0.020795038 -0.00127 -0.00049200008
0 0 -0.00049200008
-0.039321527 -0.00127 -0.0020440002
0.015123664 0 -0.0078640003
-0.006805649 -0.00084666669 -0.0020440002
-0.048773818 -0.00084666669 -0.0016560002
0.026088322 0.00042333335 -0.0012680001
-0.034784429 -0.00042333335 -0.0020440002
0.020416947 0 -0.0055360002
-0.022685496 0.00084666669 -0.0020440002
-0.010586565 0.00127 -0.0012680001
-0.018526489 0.00127 -0.00049200008
0.035918701 0.00084666669 -0.00049200008
-0.020416947 -0.00042333335 -0.0016560002
0.039699618 -0.00042333335 -0.0012680001
-0.032893971 -0.00127 -0.00088000012
0.028734962 0.00084666669 -0.0016560002
0.041590076 -0.00127 -0.0012680001
-0.026088322 -0.00042333335 -0.0024320001
0.031381603 -0.00127 -0.0016560002
0.032893971 0 -0.00049200008
0.026466412 -0.00127 -0.0012680001
-0.00037809162 -0.00127 -0.0020440002
-0.011342748 0 -0.00049200008
0.048773818 0 -0.0012680001
-0.028734962 -0.00127 -0.0020440002
0.032893971 0 -0.0028200001
0.04461481 -0.00084666669 -0.00049200008
-0.021929312 -0.00127 -0.00010400008
-0.031003512 -0.00042333335 -0.0016560002
0.0041590077 0.00042333335 -0.00088000012
-0.032893971 0 -0.0035960001
-0.035540611 0.00042333335 -0.0028200001
0.021929312 -0.00084666669 -0.00088000012
-0.017770305 0 -0.0032080002
0.041590076 -0.00084666669 -0.00010400008
0.040833894 -0.00084666669 -0.00088000012
0.01398939 0.00042333335 -0.0012680001
-0.0026466413 -0.00127 -0.00088000012
-0.018526489 -0.00042333335 -0.0012680001
-0.010208474 -0.00127 -0.00049200008
0.038565345 0.00042333335 -0.0012680001
0.0060494659 -0.00042333335 -0.00049200008
-0.04461481 0.00127 -0.00010400008
0.045370992 0.00042333335 -0.00049200008
0.031381603 0.00084666669 -0.0020440002
0.026844503 0.00127 -0.00010400008
0.015879847 -0.00042333335 -0.00088000012
-0.047639541 0.00042333335 -0.0020440002
-0.035540611 0.00084666669 -0.00049200008
-0.013233206 0.00042333335 -0.0012680001
0.0090741981 0.00127 -0.0016560002
-0.0022685495 0 -0.0039840001
0.038565345 -0.00042333335 -0.00088000012
0.025710229 0 -0.00049200008
-0.013233206 -0.00084666669 -0.0020440002
-0.027600687 0 0.00028399992
0.024197863 -0.00042333335 -0.00049200008
0.01625794 -0.00084666669 -0.00010400008
-0.0079399236 -0.00084666669 -0.0016560002
0.023063589 0 -0.0039840001
0.023819771 0.00127 -0.0020440002
-0.031003512 0.00084666669 -0.0016560002
-0.034406338 0.00042333335 -0.0016560002
0.00075618323 0 -0.00010400008
-0.028356871 0.00042333335 -0.0020440002
0.023063589 -0.00127 -0.0012680001
0.00075618323 0 -0.0016560002
0.042346261 0.00127 -0.00049200008
-0.026088322 0 -0.00010400008
0.0083180154 0 -0.00010400008
-0.040833894 0 -0.0067000003
0.040455803 -0.00127 -0.0020440002
-0.024197863 -0.00042333335 -0.00088000012
-0.012477023 0 -0.0012680001
0.0086961072 0.00084666669 -0.00010400008
0.034028243 0.00042333335 -0.00049200008
0.026088322 -0.00127 -0.00010400008
0.038565345 0.00127 -0.00010400008
-0.041211985 0.00042333335 -0.0016560002
0.016636031 0 -0.00010400008
0.013611298 0.00127 -0.0020440002
-0.014367481 0 -0.00088000012
-0.004537099 0.00084666669 -0.0024320001
-0.0075618322 -0.00127 -0.0012680001
0.015123664 0.00042333335 -0.0020440002
0.048773818 -0.00127 -0.00088000012
0.036674887 0.00084666669 -0.0016560002
-0.006805649 0.00084666669 -0.00088000012
0.029869236 -0.00127 -0.0012680001
0.030247329 0 0.001448
0.035918701 0.00042333335 -0.0020440002
0.0083180154 -0.00084666669 -0.0016560002
-0.041590076 -0.00127 -0.0016560002
0.032893971 0 -0.0055360002
0.033272061 -0.00127 -0.0016560002
-0.010964656 -0.00042333335 -0.0020440002
-0.020795038 -0.00127 -0.0012680001
-0.022685496 0 -0.0047600004
-0.006805649 -0.00042333335 -0.00088000012
0 0.00127 -0.0016560002
0.029869236 0 -0.0012680001
0.03780916 0.00084666669 -0.0012680001
0.00075618323 -0.00042333335 -0.0016560002
-0.029491145 0 -0.00049200008
-0.039321527 -0.00042333335 -0.0020440002
-0.043102443 -0.00127 -0.00088000012
-0.047639541 -0.00042333335 -0.00049200008
-0.0064275572 0 -0.0012680001
0.042346261 -0.00084666669 -0.00088000012
-0.048017632 0 -0.00010400008
0.0011342748 -0.00042333335 -0.00049200008
0.048017632 0 -0.0032080002
-0.0049151909 0 -0.0032080002
0.04688336 0.00042333335 -0.0020440002
-0.037052978 0.00042333335 -0.0020440002
0.0018904581 -0.00042333335 -0.0012680001
-0.042346261 0.00084666669 -0.0012680001
0.0034028245 0.00042333335 -0.0020440002
-0.0011342748 -0.00042333335 -0.00088000012
0.025332138 0 0.001448
0.00037809162 0 -0.00088000012
-0.014745573 0.00042333335 -0.00088000012
-0.044992901 0.00042333335 -0.0016560002
-0.043102443 -0.00084666669 -0.0016560002
-0.024954045 0.00084666669 -0.00049200008
0.021929312 0.00042333335 -0.0016560002
-0.034784429 0 -0.00088000012
-0.020416947 -0.00127 -0.00049200008
0.048017632 0 0.00028399992
0.046127178 -0.00127 -0.00049200008
0.013611298 0.00084666669 -0.0012680001
0.02797878 0 0.00028399992
-0.048395727 0.00042333335 -0.00088000012
0.026844503 -0.00127 -0.0012680001
-0.026466412 0 -0.00088000012
-0.013611298 0 -0.00049200008
0.0022685495 -0.00127 -0.0012680001
0.012855114 0 -0.0039840001
0.03818725 0 0.001448
-0.025332138 0.00042333335 -0.0024320001
0.0060494659 0.00084666669 -0.0012680001
0.031759694 0.00127 -0.0012680001
0.020416947 0.00127 -0.0016560002
-0.02344168 -0.00084666669 -0.0016560002
0.022307405 -0.00084666669 -0.00088000012
-0.03818725 0 -0.0070880004
0.010586565 -0.00084666669 -0.0012680001
0.023063589 -0.00084666669 -0.00088000012
0.023063589 -0.00084666669 -0.00010400008
0.021551222 -0.00084666669 -0.0016560002
0.012855114 0 -0.0024320001
0 -0.00127 -0.0012680001
-0.0098303817 0.00084666669 -0.0016560002
0.004537099 -0.00042333335 -0.00049200008
0.0090741981 0 -0.0012680001
-0.041968167 0 -0.0016560002
-0.031381603 -0.00042333335 -0.0016560002
-0.041590076 0 -0.0024320001
0.0086961072 -0.00084666669 -0.00049200008
-0.012477023 -0.00127 -0.00049200008
0.0083180154 0 -0.0012680001
0.021551222 -0.00127 -0.00049200008
0.019282673 -0.00084666669 -0.00049200008
0.042724352 0.00042333335 -0.0012680001
-0.040833894 0.00084666669 -0.00088000012
0.010208474 -0.00127 -0.0016560002
0.024575954 -0.00042333335 -0.0012680001
0.02797878 0 -0.00088000012
-0.03818725 0.00042333335 -0.0012680001
-0.025710229 0 -0.0074760001
-0.036674887 0.00042333335 -0.0024320001
0.040455803 0 0.0026120001
0.012477023 0 -0.0035960001
0.02797878 0.00127 -0.0016560002
-0.018526489 -0.00084666669 -0.00088000012
0.033272061 0 -0.00088000012
-0.015879847 0 -0.00010400008
0.045370992 -0.00127 -0.0016560002
0.024954045 -0.00042333335 -0.0012680001
-0.035918701 0.00127 -0.00088000012
-0.021173131 -0.00084666669 -0.00088000012
0.040833894 -0.00084666669 -0.0024320001
0.0094522899 0 -0.0016560002
-0.015879847 -0.00084666669 -0.0012680001
0.0049151909 0 -0.0067000003
0.012855114 -0.00127 -0.00088000012
-0.0022685495 0 -0.0035960001
-0.01890458 0.00084666669 -0.0020440002
0.019660763 -0.00042333335 -0.00088000012
-0.0079399236 -0.00127 -0.00088000012
-0.004537099 0.00042333335 -0.00049200008
-0.034028243 0 -0.00049200008
-0.032893971 0.00127 -0.00088000012
-0.029491145 0.00127 -0.00010400008
-0.024197863 0.00084666669 -0.0016560002
-0.0026466413 0 0.001448
-0.021929312 -0.00084666669 -0.0016560002
0.043480534 0 -0.0020440002
-0.034784429 0 -0.00010400008
0.020416947 0 -0.0016560002
0.048395727 0 -0.0051480001
0.0022685495 -0.00127 -0.0020440002
-0.019282673 0.00042333335 -0.0016560002
-0.016636031 0.00042333335 -0.00049200008
0.048017632 0 -0.0074760001
-0.029113054 0.00127 -0.00010400008
-0.045749083 0 -0.00049200008
0.031003512 -0.00084666669 -0.00088000012
-0.029869236 0.00084666669 -0.0012680001
0.0011342748 0 -0.0024320001
0.015123664 0 -0.0059240004
-0.021551222 0.00042333335 -0.0016560002
-0.024575954 -0.00084666669 -0.0016560002
0.021173131 0.00127 -0.0020440002
-0.0052932827 0 -0.0028200001
0.019282673 0 -0.0024320001
0.048395727 0 0.0026120001
0.016636031 0.00042333335 -0.00049200008
-0.035540611 0.00127 -0.0016560002
0.022685496 0 -0.0012680001
0.04726145 0 -0.0016560002
0.024197863 -0.00084666669 -0.00010400008
0.042724352 0.00084666669 -0.0016560002
0.04688336 0.00084666669 -0.0024320001
0.03818725 -0.00042333335 -0.00049200008
-0.0015123665 -0.00084666669 -0.0024320001
0.015123664 0.00084666669 -0.00088000012
-0.0022685495 0 -0.0059240004
-0.023063589 0 -0.0024320001
-0.027600687 0.00042333335 -0.00088000012
-0.039321527 0.00042333335 -0.0016560002
-0.00075618323 -0.00127 -0.00049200008
-0.012477023 0.00042333335 -0.00088000012
-0.046505269 -0.00127 -0.00049200008
0.014745573 0.00084666669 -0.00049200008
-0.049151909 -0.00084666669 -0.0012680001
0.023819771 0.00084666669 -0.0016560002
-0.0060494659 -0.00042333335 -0.0020440002
-0.015879847 0 -0.00049200008
-0.022307405 -0.00084666669 -0.00049200008
0 0 -0.0035960001
0.042724352 0.00127 -0.00049200008
-0.039321527 -0.00084666669 -0.0024320001
0.041968167 -0.00127 -0.00049200008
0.0041590077 -0.00127 -0.0012680001
-0.035540611 0 -0.0024320001
-0.017770305 0 -0.0020440002
-0.032893971 -0.00042333335 -0.00049200008
-0.021551222 0 -0.00010400008
0.017014122 0.00042333335 -0.0016560002
0.04726145 -0.00042333335 -0.0016560002
-0.040455803 0.00042333335 -0.00088000012
-0.029869236 -0.00127 -0.00088000012
0 0.00127 -0.00049200008
0.013611298 0.00127 -0.00049200008
0.023063589 0 -0.0043720002
0.039699618 -0.00127 -0.0020440002
-0.01172084 0.00127 -0.00010400008
-0.0037809161 0.00084666669 -0.00010400008
-0.017392214 0.00127 -0.00010400008
0.04726145 0.00042333335 -0.0016560002
0.031003512 0.00127 -0.00088000012
0.041590076 -0.00127 -0.00010400008
-0.029113054 0 -0.00088000012
-0.030247329 0.00042333335 -0.0012680001
0.012477023 0 0.00028399992
0.049151909 -0.00042333335 -0.0016560002
-0.041211985 0.00084666669 -0.0024320001
-0.03818725 0.00084666669 -0.0024320001
-0.040455803 -0.00127 -0.0020440002
0.018526489 -0.00127 -0.00049200008
0.015879847 0 -0.0020440002
