# .PCD v0.7 - Point Cloud Data file format
VERSION 0.7
FIELDS x y z
SIZE 4 4 4
TYPE F F F
COUNT 1 1 1
WIDTH 1218
HEIGHT 1
VIEWPOINT 0 0 0 1 0 0 0
POINTS 1218
DATA ascii
-0.0063418066 0.00025400001 -0.0044969493
0.0036870968 0.00127 -0.0022281357
-0.001524 0.00025400001 -0.0049901698
0.0064401291 0.0010668 -5.7966179e-05
0.0072267097 0.0011684 -0.0015376272
0.0072267097 -0.0010668 -0.00084711873
-0.003883742 -0.0003556 0.001717627
0.00044245162 -0.00127 -0.0025240679
0.0061451616 -5.0800001e-05 -0.0067657628
-0.0040803873 -5.0800001e-05 -0.0046942374
0.0024089033 -0.00045719999 -0.0025240679
0.0069317422 0.0011684 -0.0019322035
0.0027038711 -0.00096520002 -5.7966179e-05
-0.0063418066 -0.00025400001 -0.0045955935
0.0032938065 0.00127 -0.0022281357
0.0070300647 0.00045719999 -0.00025525433
-0.0026055484 0.0011684 -0.0024254238
0.0009340645 -0.00127 -0.0015376272
0.0035887742 -0.0001524 -0.0054833898
0.0010323871 -0.0001524 -0.0077522038
-0.0010323871 0.0001524 -0.0032145765
-0.0069317422 -5.0800001e-05 -0.0024254238
-0.0039820648 -0.0001524 0.0025067797
-0.00063909678 0.00127 -0.00064983062
-0.0009340645 -0.0001524 0.0019149153
-0.00063909678 -0.00127 -0.0019322035
0.0035887742 0.0003556 0.00043525416
-0.0075216773 0.00066040002 -0.0017349154
-0.00044245162 0.00127 -0.00045254247
0.0035887742 0.0003556 -0.0045955935
-0.0028021936 0.00055880001 -0.0024254238
-0.0040803873 0.00025400001 -0.0032145765
0.0016223226 -0.0011684 -0.0025240679
-0.0011307097 0.00127 -0.0024254238
-0.0064401291 -0.00127 -0.00055118656
-0.0018189678 -0.00127 -0.00045254247
-0.0036870968 0.0010668 -0.0024254238
0.0034904517 0.0001524 -0.0058779665
0.0024089033 -0.00127 -0.00015661024
-0.0065384516 -0.00025400001 -0.0052861017
0.0072267097 0.0011684 -0.00084711873
-0.0023105806 0.00127 -0.0010444069
-0.0076200003 0.0001524 -0.00025525433
0.0066367742 -0.0003556 -0.00025525433
0.0041787098 0.0001524 -0.0025240679
0.00034412905 0.00127 -0.001143051
-0.0011307097 0.00025400001 -0.0072589833
0.0009340645 0.0001524 -0.0068644071
-0.005555226 0.00127 -0.0019322035
0.0072267097 -0.0010668 -0.0021294917
0.0064401291 -0.00025400001 0.0011257627
0.0036870968 -0.00025400001 -0.005384746
0.0017206452 0.0008636 -5.7966179e-05
0.0036870968 0.0003556 -0.0056806784
-0.0019172904 -0.00045719999 -5.7966179e-05
0.0017206452 -0.00127 -0.0022281357
-0.0012290323 0.00025400001 -0.0052861017
-0.0061451616 5.0800001e-05 -0.0030172884
-0.0054569035 0.00127 -0.0018335595
-0.001524 5.0800001e-05 -0.0078508481
-0.0029005161 0.00127 -0.00025525433
-0.0011307097 -0.00025400001 -0.004102373
0.0059485161 0.00127 -0.0018335595
0.0012290323 -0.00025400001 -0.0031159325
-0.0062434841 -0.00025400001 -0.0032145765
-0.0066367742 -0.0001524 -0.0039050849
-0.0060468386 -0.0001524 -0.0067657628
0.0065384516 0.00025400001 0.00023796603
-0.0034904517 -5.0800001e-05 -0.0059766104
0.0066367742 0.0001524 -0.0063711866
-0.0013273548 0.00025400001 -0.0058779665
-0.0005407742 -0.00127 -0.0015376272
0.0012290323 -0.00025400001 0.0003366101
-0.0070300647 -0.0001524 -5.7966179e-05
0.003392129 -0.00127 -0.00084711873
0.0066367742 0.00025400001 0.0023094914
-0.003392129 0.00127 -0.0023267798
0.0066367742 5.0800001e-05 0.0012244068
0.0039820648 0.0003556 0.00053389824
-0.0040803873 -0.00025400001 -0.0059766104
-0.0032938065 -0.00066040002 -0.00025525433
0.0064401291 0.00025400001 0.0010271186
0.0013273548 0.00025400001 0.0020135592
0.0014256774 0.00025400001 0.00023796603
0.0065384516 -5.0800001e-05 -0.0081467796
0.005751871 -0.00076199998 -0.0024254238
-0.0035887742 -0.0003556 -0.0056806784
0.0021139355 5.0800001e-05 -0.0025240679
0.0039820648 -0.00025400001 0.00073118636
0.0076200003 0.00045719999 -0.0017349154
-0.00073741935 0.00127 -0.0025240679
-0.0036870968 0.00045719999 -0.0025240679
0.0010323871 -0.0001524 -0.006667119
-0.0035887742 0.0001524 -0.0045955935
0.0062434841 0.00025400001 -0.0064698309
0.0054569035 -0.00025400001 -5.7966179e-05
0.0065384516 -0.00127 -0.001143051
-0.0048669679 0.00127 -0.0016362712
-0.0009340645 -0.00045719999 -5.7966179e-05
0.0025072258 -0.0010668 -5.7966179e-05
0.0063418066 0.00127 -0.001241695
-0.003883742 -0.0003556 -0.0068644071
0.0061451616 0.00025400001 0.0010271186
-0.0013273548 0.00025400001 0.00043525416
0.00014748388 -0.00076199998 -0.0025240679
-0.0051619355 0.00127 -0.0019322035
0.0012290323 -0.00025400001 -0.0055820341
0.0034904517 0.00127 -0.00074847467
0.003883742 0.00127 -0.0023267798
0.0035887742 -5.0800001e-05 0.0018162711
0.0034904517 0.0001524 -0.0029186441
-0.0029005161 0.0003556 -0.0024254238
-0.0013273548 0.00025400001 -0.0078508481
0.0066367742 0.0001524 0.00023796603
0.00024580644 0.00127 -0.0021294917
-0.0035887742 0.00025400001 -0.0045955935
-0.0029988387 0.00127 -0.00045254247
-0.0054569035 0.00127 -0.00064983062
0.0066367742 0.00025400001 -0.0036091527
-0.0053585805 0.00127 -0.001241695
-0.0075216773 -5.0800001e-05 -0.0016362712
-0.0010323871 0.00025400001 -0.005384746
-0.0009340645 -0.0001524 -0.0046942374
-0.0067350967 0.0011684 -0.0016362712
0.0014256774 -0.00025400001 -0.0080481358
0.0047686454 -0.00096520002 -0.0024254238
0.0012290323 0.00025400001 -0.0058779665
-0.0041787098 -0.00127 -0.00015661024
-0.0040803873 -0.0001524 -0.0070616952
-0.0036870968 -0.0001524 -0.0082454244
-0.0065384516 0.00127 -0.0020308476
0.0060468386 0.00025400001 0.0018162711
0.0062434841 0.00025400001 -0.0076535596
-0.0037854195 0.0003556 -0.0035105087
0.0021139355 -0.0001524 -0.0025240679
-0.0066367742 -0.0011684 -0.001241695
-0.0022122581 -5.0800001e-05 -0.0025240679
-0.0062434841 -0.0003556 -0.0075549157
0.0010323871 -0.0001524 -0.0044969493
0.0032938065 -0.00127 -0.0017349154
-0.0065384516 5.0800001e-05 -0.0062725428
-0.0032938065 -0.00127 -0.00074847467
-0.0062434841 0.00025400001 0.0006325423
0.0010323871 5.0800001e-05 0.0019149153
-0.0035887742 -0.0003556 0.00092847453
0.0068334197 -0.0011684 -0.00025525433
0.0066367742 0.0001524 0.0019149153
-0.0016223226 -0.0001524 -0.0070616952
-0.0005407742 0.00096520002 -5.7966179e-05
-0.003883742 -0.0003556 -0.0062725428
-0.0061451616 0.0001524 0.0025067797
-0.0039820648 -0.0003556 0.0020135592
-0.0022122581 -0.00127 -0.00055118656
0.0066367742 0.0001524 0.0012244068
-0.0046703229 -0.00096520002 -5.7966179e-05
0.0047686454 0.00127 -0.00084711873
-0.0042770323 0.00127 -0.0014389831
0.00034412905 0.00127 -0.0014389831
0.0040803873 0.00025400001 -0.0025240679
-0.005555226 -0.00127 -0.00035389839
0.0054569035 -0.00127 -0.0022281357
-0.0056535485 -5.0800001e-05 -5.7966179e-05
-0.0034904517 -0.0010668 -5.7966179e-05
0.0016223226 0.0001524 -0.0075549157
0.0035887742 -0.0001524 -0.0080481358
0.0069317422 0.0011684 -0.00094576279
-0.0061451616 -0.00127 -0.00045254247
-0.0040803873 -0.00025400001 -0.0077522038
-0.0039820648 -0.00096520002 -0.0024254238
-0.0058501936 0.00066040002 -0.00025525433
-0.0011307097 0.00025400001 -0.0042010173
-0.001524 0.0001524 0.0020135592
0.0040803873 -0.0001524 -0.0048915255
0.0010323871 -0.0001524 -0.0060752546
0.0062434841 0.00096520002 -5.7966179e-05
0.0039820648 -0.00025400001 0.00023796603
4.9161292e-05 -0.0003556 -0.0025240679
-0.005260258 0.0010668 -0.00015661024
-0.0051619355 0.00127 -0.00015661024
-0.0019172904 0.00127 -0.0023267798
-0.0032938065 -0.0010668 -5.7966179e-05
-0.00063909678 0.0003556 -0.0025240679
0.0056535485 0.00127 -0.00025525433
-0.0009340645 -0.0001524 0.001618983
-0.0064401291 0.00025400001 0.00082983047
-0.0019172904 -0.00127 -0.00064983062
-0.0010323871 0.00025400001 -0.0076535596
4.9161292e-05 0.00127 -0.0019322035
-0.0014256774 -0.00025400001 -0.0068644071
0.0032938065 0.00127 -0.00015661024
-0.0064401291 -0.00066040002 -0.0024254238
-0.0039820648 0.0003556 -0.0051874579
0.001524 0.00127 -0.0024254238
-0.0011307097 0.0003556 -0.00025525433
0.0012290323 -0.00127 -0.0024254238
0.0062434841 0.00025400001 -0.0063711866
4.9161292e-05 -0.00127 -0.001241695
-0.0023105806 -0.00055880001 -0.0025240679
0.0041787098 -0.00127 -0.00045254247
0.00073741935 0.0003556 -0.00025525433
-0.0019172904 0.00076199998 -0.0025240679
-0.0010323871 5.0800001e-05 0.0023094914
-0.0040803873 0.00127 -0.0010444069
0.0034904517 5.0800001e-05 0.0003366101
-0.0065384516 -0.00025400001 0.00092847453
0.0010323871 -0.0001524 -0.0054833898
0.0045719999 0.00127 -0.0013403391
-0.0075216773 0.0008636 -0.0018335595
0.0063418066 -0.00025400001 -0.0028200001
-0.0014256774 0.00127 -0.0013403391
0.0030971614 0.00066040002 -0.00025525433
0.0016223226 5.0800001e-05 0.0019149153
0.0074233548 -0.0003556 -0.0023267798
0.0066367742 0.00025400001 -0.0032145765
-0.0009340645 -0.0001524 -0.0028200001
0.0005407742 -0.00045719999 -0.0025240679
0.0060468386 -0.00127 -0.0010444069
-0.0026055484 0.00127 -0.00035389839
-0.003883742 -0.00127 -0.0017349154
-0.0073250323 0.0003556 -0.00015661024
-0.0058501936 -0.00076199998 -0.00015661024
0.0060468386 5.0800001e-05 0.00043525416
0.0044736774 -0.00127 -0.00094576279
0.0012290323 0.0011684 -0.0025240679
0.00063909678 -0.0011684 -0.0025240679
0.0011307097 -0.00025400001 -0.0047928817
0.0061451616 -5.0800001e-05 0.001618983
-0.0029988387 -0.00127 -0.00025525433
-0.0050636129 0.0003556 -0.0024254238
0.0016223226 5.0800001e-05 -0.0028200001
0.0034904517 0.0001524 -0.0040037292
-0.0066367742 -5.0800001e-05 -0.0072589833
0.0036870968 0.0008636 -0.0024254238
-0.0011307097 -0.00025400001 -0.0051874579
-0.0024089033 -0.0003556 -0.0025240679
0.0012290323 -0.00025400001 -0.0072589833
-0.0019172904 0.00127 -0.0022281357
0.0029005161 0.00127 -0.00064983062
-0.0011307097 0.00025400001 -0.0061738985
0.0012290323 0.00025400001 -0.0046942374
-0.0029005161 -0.00045719999 -0.00015661024
-0.0072267097 -0.00076199998 -5.7966179e-05
-0.0067350967 0.0011684 -0.0019322035
-0.0059485161 -0.00025400001 -0.0024254238
0.0045719999 0.00066040002 -0.0024254238
0.0044736774 -0.00066040002 -0.00025525433
0.0050636129 0.00127 -0.0010444069
-0.0065384516 0.0001524 0.00023796603
0.0063418066 0.00025400001 -0.0076535596
0.0070300647 -0.0011684 -0.001241695
0.0040803873 -5.0800001e-05 -0.0052861017
0.0074233548 0.0010668 -0.0013403391
-0.00073741935 0.0008636 -5.7966179e-05
0.0024089033 5.0800001e-05 -0.0025240679
0.00034412905 0.00127 -5.7966179e-05
-0.0067350967 -0.0011684 -0.0024254238
-0.0034904517 5.0800001e-05 -0.0028200001
-0.0029988387 -0.00127 -0.00045254247
0.0076200003 0.00025400001 -0.001143051
0.0039820648 0.00025400001 0.0020135592
-0.0009340645 -0.0001524 0.0006325423
-0.0050636129 -0.00127 -0.0015376272
0.0012290323 0.0001524 0.0028027119
0.0012290323 -0.00127 -0.00064983062
-0.0075216773 5.0800001e-05 -0.001143051
0.00063909678 0.0001524 -0.0025240679
0.0016223226 -0.0001524 -0.0045955935
4.9161292e-05 -0.00055880001 -0.0025240679
-0.0054569035 0.00127 -0.00015661024
0.0010323871 0.00025400001 -0.0056806784
-0.0016223226 -0.00045719999 -5.7966179e-05
-0.0026055484 0.0011684 -5.7966179e-05
0.0039820648 -0.00025400001 -0.007160339
0.0036870968 0.0003556 0.001717627
0.0071283872 0.0011684 -0.0013403391
-0.0061451616 0.00066040002 -0.00025525433
0.0042770323 -0.00127 -0.00074847467
-0.0042770323 0.0003556 -5.7966179e-05
-0.0010323871 -5.0800001e-05 -0.0048915255
-0.0013273548 0.00066040002 -0.00025525433
-0.0039820648 0.0003556 -0.0045955935
0.001524 -0.00076199998 -0.00015661024
0.0011307097 -0.00127 -0.0019322035
0.0040803873 -5.0800001e-05 -0.007160339
0.001524 -0.0003556 -5.7966179e-05
-0.0019172904 -0.00127 -0.0017349154
-0.0064401291 -0.00127 -0.0019322035
0.0040803873 -5.0800001e-05 0.001618983
-0.0036870968 -0.00045719999 -0.002721356
-0.0018189678 -0.00127 -0.00035389839
-0.00024580644 -0.00127 -0.00084711873
0.0039820648 -0.00025400001 0.0014216949
0.0069317422 5.0800001e-05 -5.7966179e-05
0.0064401291 0.00025400001 -0.0042996611
0.0016223226 0.0001524 0.0022108473
0.0074233548 0.0010668 -0.00084711873
-0.0031954839 -0.00127 -0.00035389839
-0.0011307097 -0.00025400001 -0.0058779665
0.0075216773 -0.00055880001 -0.00094576279
0.0042770323 -0.0010668 -5.7966179e-05
0.0048669679 -0.00127 -0.0017349154
0.00063909678 -0.00127 -0.0015376272
0.005260258 0.00045719999 -0.00025525433
0.0010323871 0.00127 -0.0018335595
-0.0037854195 -0.00127 -0.0010444069
0.003883742 -0.0003556 -0.007160339
0.0050636129 0.00045719999 -0.0024254238
0.0053585805 0.00127 -0.0014389831
0.0026055484 -0.00127 -0.0010444069
-0.001524 0.00025400001 -0.0069630509
-0.0050636129 -0.00127 -5.7966179e-05
-0.0044736774 -5.0800001e-05 -5.7966179e-05
-0.002015613 -0.00127 -0.00094576279
0.0024089033 -0.00127 -0.00064983062
-0.0041787098 0.00127 -0.0024254238
-0.001524 0.00025400001 0.00023796603
0.0076200003 0.00025400001 -0.0018335595
0.0066367742 5.0800001e-05 -0.0037077968
0.0049652904 -0.0010668 -0.0023267798
0.0022122581 0.0011684 -0.0025240679
0.0017206452 0.00127 -5.7966179e-05
0.0031954839 -0.00096520002 -5.7966179e-05
-0.0016223226 -0.0001524 -0.0035105087
-0.0071283872 -0.00045719999 -0.0024254238
0.0034904517 0.00025400001 -0.0042996611
0.0064401291 -0.0001524 -0.0054833898
-0.0058501936 -0.0011684 -5.7966179e-05
0.0049652904 0.00025400001 -5.7966179e-05
-0.0028021936 -0.00127 -0.00055118656
-0.0064401291 -0.00076199998 -0.0024254238
0.0016223226 0.00127 -5.7966179e-05
0.0066367742 0.0011684 -0.00064983062
0.0012290323 0.00025400001 0.0022108473
-0.0013273548 -0.00025400001 -0.0052861017
0.0040803873 0.00127 -0.00045254247
-0.0070300647 0.0011684 -0.0015376272
-0.0014256774 0.00025400001 -0.0063711866
0.0061451616 -0.0001524 -0.0038064409
-0.0013273548 -0.00025400001 -0.006667119
-0.0053585805 0.00127 -0.0016362712
-0.0014256774 -0.00127 -0.0018335595
-0.0023105806 -0.0001524 -0.0025240679
-0.001524 5.0800001e-05 0.0018162711
0.0012290323 -0.00025400001 -0.0078508481
0.0018189678 -0.00127 -0.0025240679
0.0060468386 -0.00045719999 -0.0024254238
0.0012290323 0.00025400001 0.0010271186
0.0028021936 -0.0001524 -5.7966179e-05
0.0019172904 0.00066040002 -0.0025240679
-0.0030971614 -0.00127 -0.0018335595
0.0061451616 -0.0001524 -0.0040037292
0.0025072258 -0.00127 -0.0013403391
0.0029005161 -0.00127 -0.00035389839
-0.0030971614 0.00127 -0.0023267798
0.0010323871 -0.00127 -0.0015376272
0.0070300647 -0.0010668 -0.00015661024
0.0051619355 0.00127 -0.0020308476
-0.0011307097 0.00025400001 0.0015203389
-0.0075216773 0.0008636 -0.0016362712
-0.0061451616 0.0003556 -0.0024254238
-0.0037854195 5.0800001e-05 0.0027040679
0.0031954839 -0.00127 -0.00064983062
0.00044245162 -5.0800001e-05 -0.0025240679
0.0032938065 -0.00066040002 -0.0024254238
0.0065384516 -0.00055880001 -0.00025525433
0.0075216773 -5.0800001e-05 -0.0019322035
0.0037854195 -0.00045719999 -5.7966179e-05
-0.0018189678 0.00127 -0.00055118656
0.0061451616 0.00127 -0.0010444069
-0.0066367742 -5.0800001e-05 -0.0057793222
0.0021139355 -0.0003556 -0.0025240679
0.00044245162 0.00127 -0.00035389839
-0.0010323871 5.0800001e-05 -0.0065684747
0.0026055484 -0.00127 -0.001143051
0.0059485161 0.0011684 -0.0024254238
0.0037854195 0.00096520002 -5.7966179e-05
-0.0037854195 -0.0003556 0.0021122033
-0.0035887742 0.00025400001 -0.0065684747
-0.003883742 -0.0003556 -0.005384746
-0.0034904517 0.0001524 0.00043525416
0.0053585805 -0.00025400001 -5.7966179e-05
0.0075216773 0.0001524 -0.0023267798
0.0034904517 -0.00127 -0.00084711873
-0.0036870968 -0.00127 -0.00025525433
-0.005260258 0.0010668 -0.0024254238
0.00044245162 -0.00127 -0.0021294917
0.0064401291 -0.00025400001 -0.0048915255
-0.0032938065 0.00127 -0.001241695
0.0047686454 0.00127 -0.00064983062
-0.005555226 0.00127 -0.00074847467
0.003883742 -0.0008636 -0.0024254238
0.0072267097 0.00096520002 -5.7966179e-05
0.0036870968 0.0003556 0.0023094914
-0.0075216773 -0.00076199998 -0.0014389831
0.00044245162 0.00096520002 -5.7966179e-05
0.0017206452 -0.00127 -0.00084711873
0.0042770323 0.00127 -0.0020308476
0.0023105806 -0.00127 -0.00074847467
0.0075216773 -0.00066040002 -0.00045254247
0.0062434841 -0.00025400001 -0.0044969493
-0.0044736774 0.00045719999 -0.00025525433
-0.0065384516 0.00127 -0.0021294917
0.0066367742 5.0800001e-05 -0.0049901698
0.0058501936 -0.0010668 -0.00015661024
-0.0075216773 -0.00066040002 -0.0014389831
0.00014748388 -0.00127 -0.00084711873
-0.0032938065 -0.0011684 -0.0024254238
-4.9161292e-05 0.00127 -0.00094576279
-0.0030971614 0.00025400001 -5.7966179e-05
0.0028021936 -0.00045719999 -0.0025240679
0.0042770323 -5.0800001e-05 -5.7966179e-05
-0.0029988387 0.0003556 -0.0024254238
0.0066367742 0.0001524 0.0006325423
-0.0066367742 0.00025400001 -5.7966179e-05
-0.0036870968 -0.00127 -0.00084711873
-0.003883742 -0.00127 -0.0015376272
-0.0012290323 -0.00076199998 -5.7966179e-05
-0.0065384516 0.00127 -0.0022281357
-0.0014256774 0.00025400001 0.0014216949
0.0009340645 0.0001524 -0.0055820341
-0.0037854195 0.0003556 -0.0075549157
-0.0016223226 -0.00025400001 0.0021122033
0.00044245162 0.00127 -0.0015376272
0.00063909678 -0.00127 -0.0013403391
0.005260258 0.00127 -0.0018335595
-0.0037854195 -0.0003556 -0.0062725428
-0.0029005161 0.00127 -0.00064983062
-0.0040803873 -0.0001524 0.001717627
0.0039820648 -0.00045719999 -0.0024254238
0.0059485161 0.00076199998 -0.00025525433
0.001524 -0.00025400001 -0.0030172884
-0.0034904517 -0.0001524 -0.0058779665
0.0035887742 -0.00025400001 -0.0034118646
0.0026055484 -0.0008636 -5.7966179e-05
-0.0060468386 -5.0800001e-05 -0.007160339
-0.0023105806 0.00127 -0.00094576279
-0.00083574193 -0.00096520002 -0.0025240679
-0.0063418066 -0.00025400001 -0.0055820341
-0.0066367742 -0.00025400001 0.0010271186
-0.001524 -5.0800001e-05 0.0024081357
-0.0060468386 -5.0800001e-05 0.0019149153
-0.0014256774 -0.00045719999 -0.00015661024
-0.0051619355 0.00025400001 -0.0024254238
-0.002015613 0.00127 -0.0022281357
-0.0035887742 -0.0001524 -0.0080481358
0.005751871 -0.00025400001 -5.7966179e-05
-0.0016223226 -0.0001524 -0.0050888136
-0.00063909678 -0.0011684 -5.7966179e-05
-0.0017206452 0.00127 -0.0020308476
-0.0061451616 5.0800001e-05 -0.0062725428
-0.0011307097 -0.00055880001 -0.0025240679
-0.0010323871 -0.00045719999 -0.00015661024
0.0011307097 -0.00025400001 -0.0059766104
-0.0009340645 -0.0001524 -0.0040037292
-0.0040803873 -5.0800001e-05 -0.0051874579
0.00014748388 -0.00127 -0.0019322035
0.0014256774 0.00025400001 -0.0047928817
0.0066367742 0.00025400001 -0.0062725428
-0.00044245162 0.00127 -0.0024254238
-0.0024089033 0.0008636 -0.0025240679
0.0040803873 5.0800001e-05 0.0019149153
-0.0062434841 0.00025400001 -0.0034118646
-0.0066367742 -0.0001524 0.00053389824
0.0029005161 0.00127 -0.0023267798
-0.0062434841 0.00025400001 -0.0043983054
-0.0062434841 -0.00127 -0.0021294917
0.0040803873 -5.0800001e-05 0.0020135592
0.0037854195 0.00127 -0.0013403391
-0.0029988387 -0.00127 -0.0019322035
-0.0030971614 0.00066040002 -0.00025525433
-0.00063909678 -0.0001524 -0.0025240679
-0.00073741935 -0.0001524 -0.0025240679
-0.0065384516 -0.00127 -0.0016362712
-0.0046703229 0.0003556 -0.00015661024
0.0069317422 -0.0011684 -0.001241695
-0.0040803873 -0.00066040002 -0.0024254238
0.0056535485 0.00096520002 -0.0024254238
-0.0068334197 0.0010668 -0.0023267798
0.0053585805 -0.0001524 -0.0024254238
0.00014748388 -0.00127 -0.0013403391
-0.0075216773 0.00045719999 -0.00084711873
-0.0060468386 -0.0001524 -0.0055820341
-0.0037854195 -0.0001524 0.0026054238
-0.0050636129 0.00096520002 -0.00015661024
-0.0060468386 -0.00025400001 -0.0073576272
-0.00044245162 0.0010668 -0.0025240679
0.005555226 0.00127 -0.00025525433
0.0060468386 5.0800001e-05 -0.002721356
-0.001524 0.0003556 -0.00025525433
-0.0059485161 0.00127 -0.0010444069
0.0066367742 0.00025400001 -0.0055820341
-0.0017206452 0.00127 -0.00055118656
0.0010323871 5.0800001e-05 0.0011257627
-0.0032938065 -0.00066040002 -0.0024254238
0.0042770323 -0.00127 -0.0018335595
-0.0060468386 0.0008636 -0.0023267798
0.0040803873 0.00025400001 -0.0073576272
0.0040803873 -0.00127 -0.0014389831
-0.0028021936 -0.00066040002 -0.0024254238
-0.0035887742 0.00025400001 -0.006667119
-0.0040803873 5.0800001e-05 0.0015203389
-0.001524 0.00025400001 -0.0054833898
-0.0040803873 -5.0800001e-05 -0.0056806784
-0.0043753549 0.00127 -0.00045254247
0.0014256774 -0.00025400001 -0.0052861017
0.00034412905 -0.00045719999 -5.7966179e-05
-0.0039820648 0.00055880001 -0.00025525433
0.001524 -0.00025400001 -0.0048915255
0.001524 -0.00025400001 -0.0065684747
-0.0072267097 -0.0011684 -0.0014389831
0.0040803873 -5.0800001e-05 -0.0059766104
-0.0012290323 0.00025400001 0.001717627
-0.0010323871 0.0001524 -0.0065684747
0.001524 -0.00025400001 -0.0072589833
0.0037854195 0.0003556 -0.0058779665
-0.003883742 -0.0003556 0.0020135592
-0.0039820648 -0.0003556 -0.0061738985
-0.001524 5.0800001e-05 -0.0072589833
-0.0010323871 5.0800001e-05 -0.002721356
-0.0036870968 -0.0003556 -0.0030172884
-0.0005407742 0.00127 -0.00074847467
0.0032938065 0.00055880001 -0.0024254238
0.0066367742 -0.0010668 -0.0023267798
-0.0023105806 -0.00096520002 -0.0025240679
0.0042770323 -0.00045719999 -0.00015661024
0.0012290323 -0.00025400001 -0.0042010173
0.0075216773 -5.0800001e-05 -0.0013403391
0.0066367742 0.00025400001 0.0019149153
0.00024580644 0.00127 -0.0010444069
0.0010323871 -5.0800001e-05 -0.0031159325
-0.0005407742 0.00127 -0.0021294917
0.0050636129 -0.00127 -0.0018335595
0.0010323871 -0.0001524 -0.0047928817
-0.0051619355 0.00045719999 -0.00025525433
-0.0064401291 0.00025400001 -0.002721356
0.0017206452 0.00076199998 -0.00025525433
-0.0013273548 0.0011684 -5.7966179e-05
0.0021139355 -0.00127 -0.0022281357
0.00083574193 -5.0800001e-05 -5.7966179e-05
0.0044736774 0.0003556 -0.00015661024
-0.001524 -0.00025400001 -0.0058779665
0.0060468386 -0.00127 -0.00035389839
0.00014748388 0.00076199998 -0.00025525433
0.00034412905 0.0001524 -5.7966179e-05
-0.0034904517 -0.00025400001 -0.005384746
0.0048669679 -0.00127 -0.0020308476
0.0064401291 -0.0001524 -0.0038064409
0.0062434841 0.00127 -0.00035389839
-0.00024580644 5.0800001e-05 -0.0025240679
0.0013273548 -0.0008636 -5.7966179e-05
-0.0065384516 -0.00025400001 -0.0042996611
-0.0064401291 -0.00025400001 -0.0048915255
-0.0060468386 -0.00025400001 -0.0051874579
0.0017206452 0.00127 -0.0021294917
0.0064401291 -0.00025400001 -0.0056806784
0.0040803873 -0.0001524 -0.0074562714
-0.0010323871 0.0001524 -0.0067657628
0.0016223226 0.0001524 -0.0051874579
-0.0029988387 -0.00066040002 -0.00025525433
0.0050636129 0.0008636 -0.0024254238
0.0021139355 0.0003556 -0.0025240679
0.0053585805 0.0003556 -5.7966179e-05
-0.0011307097 0.00025400001 0.0023094914
0.0034904517 0.00025400001 0.00092847453
-0.003883742 0.0003556 -0.0044969493
-0.0040803873 -0.00025400001 -0.0062725428
0.0075216773 0.00066040002 -0.0019322035
-0.0019172904 -0.0001524 -0.0025240679
0.003883742 0.0003556 -0.0065684747
-0.0068334197 0.0003556 -0.0023267798
-0.00034412905 0.0008636 -0.00015661024
-0.0061451616 5.0800001e-05 0.0011257627
-0.0053585805 0.00055880001 -0.00025525433
-0.0029005161 0.0003556 -0.00025525433
0.0035887742 0.0003556 -0.0067657628
-0.0025072258 0.00127 -0.0015376272
0.0035887742 0.00127 -0.001143051
0.0061451616 -0.00025400001 -0.005384746
-0.0043753549 -0.00127 -0.00045254247
-0.0012290323 -0.00025400001 0.0014216949
-0.00034412905 -0.00076199998 -5.7966179e-05
0.0048669679 -0.00127 -0.0021294917
-0.0030971614 -0.00076199998 -0.0024254238
0.0074233548 0.0008636 -0.0024254238
-0.0010323871 -0.0010668 -5.7966179e-05
-0.0024089033 -0.00076199998 -5.7966179e-05
-0.001524 0.00127 -0.0021294917
-0.0028021936 0.00127 -0.0022281357
0.0035887742 -0.00127 -0.0013403391
-0.0014256774 -0.00025400001 0.0011257627
0.0040803873 0.00025400001 -0.0059766104
0.0034904517 -5.0800001e-05 -0.0038064409
-0.001524 5.0800001e-05 -0.0069630509
-0.0063418066 -0.00025400001 0.0023094914
0.0065384516 -5.0800001e-05 -0.007160339
0.0065384516 0.00025400001 -0.0025240679
0.0029005161 0.00076199998 -0.00025525433
0.0034904517 5.0800001e-05 -0.0067657628
0.0065384516 -0.0001524 -0.0072589833
-0.0073250323 0.0010668 -0.00045254247
0.0024089033 -0.00127 -0.00074847467
0.0017206452 0.00127 -0.0014389831
-0.0011307097 0.00127 -0.0019322035
-0.0023105806 -0.00025400001 -0.0025240679
0.0056535485 -0.00127 -0.00084711873
-0.0016223226 -0.00025400001 -0.0025240679
-0.0037854195 -0.00127 -0.00084711873
-0.0045719999 -0.00127 -0.00084711873
-0.0041787098 -0.00096520002 -0.0024254238
0.0072267097 -0.0010668 -0.0010444069
0.0050636129 0.00127 -0.0023267798
0.0066367742 5.0800001e-05 -0.0055820341
-0.0039820648 -0.0003556 -0.007949492
0.0041787098 -0.00127 -0.0022281357
0.0040803873 -0.0001524 -0.0026227119
-0.0060468386 -0.0001524 -0.0058779665
0.0035887742 -0.0001524 0.00092847453
-0.0010323871 -0.00066040002 -0.00025525433
0.0060468386 0.0001524 0.0006325423
0.0013273548 -0.00025400001 0.0014216949
-0.0017206452 -0.00127 -0.00025525433
0.0040803873 0.00025400001 -0.0057793222
0.003392129 -0.00127 -0.00064983062
0.0034904517 0.00025400001 -0.0075549157
-0.0062434841 0.00025400001 -0.002721356
-0.0060468386 -5.0800001e-05 -0.0033132206
-0.0035887742 -0.00127 -0.0015376272
-0.005555226 0.0011684 -0.00015661024
0.0014256774 0.00025400001 -0.0043983054
-0.0034904517 0.0001524 -0.0049901698
0.001524 0.00127 -0.0013403391
-0.0014256774 0.00025400001 -0.0057793222
0.0022122581 -0.00127 -5.7966179e-05
0.0053585805 -0.0011684 -0.0023267798
-0.0072267097 0.0010668 -0.0023267798
-0.0066367742 -0.0010668 -0.0024254238
-0.005555226 -0.00127 -0.001143051
0.0010323871 -0.00025400001 -0.0051874579
0.0036870968 -0.00025400001 0.00023796603
-0.0026055484 -0.00045719999 -5.7966179e-05
-0.0011307097 0.00025400001 -0.0030172884
0.0042770323 -0.00066040002 -0.0024254238
-0.0060468386 0.00076199998 -0.0024254238
-0.0016223226 -0.00127 -0.0022281357
0.0060468386 0.0001524 -0.0062725428
0.0053585805 0.00096520002 -5.7966179e-05
-0.001524 0.00127 -0.0013403391
-0.0075216773 -0.00055880001 -0.00025525433
0.00014748388 -0.0008636 -5.7966179e-05
0.0041787098 0.00127 -0.0024254238
0.0065384516 -5.0800001e-05 0.00013932196
-0.0018189678 -0.0001524 -0.0025240679
-0.0073250323 -0.0010668 -0.00035389839
0.0061451616 -0.00025400001 0.00053389824
0.00014748388 0.0011684 -5.7966179e-05
-0.0016223226 -5.0800001e-05 -0.0052861017
0.0050636129 0.00127 -0.0018335595
0.0047686454 -0.00076199998 -0.0024254238
-0.0060468386 -0.0001524 -0.0056806784
0.0040803873 0.00127 -0.00094576279
0.0023105806 0.0008636 -5.7966179e-05
0.0012290323 0.00025400001 0.0003366101
-0.0065384516 5.0800001e-05 0.00013932196
0.0032938065 -5.0800001e-05 -0.0025240679
0.0068334197 0.0011684 -0.00064983062
-0.0014256774 0.00025400001 -0.0031159325
-0.0041787098 -0.00127 -0.0019322035
0.005260258 -0.0010668 -0.00015661024
0.0016223226 5.0800001e-05 -0.0061738985
-0.0075216773 -0.0001524 -0.00094576279
0.005751871 -0.00045719999 -0.00025525433
-0.0040803873 0.0001524 0.00053389824
-4.9161292e-05 0.00127 -0.00084711873
0.0065384516 0.00025400001 -0.0050888136
-0.00044245162 -0.00127 -0.00084711873
-0.0061451616 0.00025400001 -0.0064698309
0.005260258 -0.0001524 -5.7966179e-05
0.0018189678 -0.00127 -5.7966179e-05
0.00063909678 -0.00127 -0.00015661024
0.0066367742 0.00066040002 -0.0024254238
-0.0014256774 0.00025400001 -0.0062725428
0.0042770323 -0.00127 -0.0016362712
0.0011307097 -0.00025400001 -0.0055820341
-0.0012290323 0.00025400001 0.0023094914
-0.0005407742 -5.0800001e-05 -0.0025240679
0.0071283872 -0.0011684 -0.0023267798
-0.00083574193 -0.00127 -0.0016362712
0.0061451616 -0.0001524 -0.0052861017
0.0065384516 0.00025400001 -0.0062725428
-0.0062434841 0.00055880001 -0.00025525433
0.0046703229 0.00127 -0.0024254238
0.0056535485 -0.00096520002 -0.00015661024
0.0054569035 -0.00066040002 -0.00025525433
-0.0062434841 0.00127 -0.0010444069
-0.0035887742 -0.00127 -0.0023267798
-4.9161292e-05 -0.00127 -0.0013403391
-0.0010323871 -0.00025400001 -0.0061738985
-0.0053585805 0.00045719999 -0.0024254238
-0.0035887742 -0.00127 -0.0019322035
-0.0075216773 0.00076199998 -0.001143051
0.00024580644 0.0011684 -5.7966179e-05
0.0036870968 0.0003556 0.00073118636
0.0076200003 0.00025400001 -0.00025525433
0.00024580644 0.0001524 -0.0025240679
0.0073250323 -0.0010668 -0.00045254247
-0.0011307097 -0.00025400001 -0.0035105087
0.0063418066 -0.00127 -0.00025525433
0.0065384516 0.00127 -0.0014389831
-0.0061451616 5.0800001e-05 -0.0038064409
0.002015613 0.0010668 -0.0025240679
-0.0049652904 0.0003556 -0.0024254238
-0.0068334197 0.00096520002 -0.0023267798
-0.0025072258 -5.0800001e-05 -0.0025240679
0.0075216773 0.0008636 -0.00084711873
0.0013273548 0.00127 -0.00035389839
-0.0069317422 0.00025400001 -0.0023267798
0.0021139355 -0.00127 -0.0018335595
-0.0067350967 0.00066040002 -0.00025525433
-0.0074233548 -0.00055880001 -0.0024254238
0.0010323871 -0.00025400001 -0.0029186441
0.0073250323 0.00096520002 -5.7966179e-05
0.0065384516 0.00025400001 0.0011257627
-0.001524 -0.00127 -0.001241695
0.0056535485 -0.00127 -0.0016362712
-0.0031954839 -0.0001524 -0.0025240679
0.0063418066 0.00127 -0.0016362712
-0.0036870968 0.0003556 -0.0075549157
0.0070300647 -0.0003556 -0.00025525433
0.0054569035 -5.0800001e-05 -5.7966179e-05
-0.0024089033 0.0010668 -0.0024254238
-0.0011307097 0.00127 -0.00094576279
0.00014748388 0.00127 -0.0014389831
0.0016223226 0.0001524 0.0015203389
-0.0040803873 -5.0800001e-05 -0.0055820341
-0.0040803873 -0.0001524 -0.0076535596
0.0012290323 0.0008636 -5.7966179e-05
0.0029988387 -0.0010668 -5.7966179e-05
-0.0068334197 0.00066040002 -0.00025525433
-0.0024089033 0.00127 -0.001143051
-0.0061451616 -0.00025400001 0.0015203389
-0.0072267097 0.0010668 -0.0013403391
-0.0039820648 0.0003556 -0.0026227119
0.0073250323 5.0800001e-05 -5.7966179e-05
-0.0071283872 -0.00025400001 -5.7966179e-05
0.0060468386 5.0800001e-05 -0.0040037292
-0.0010323871 0.00025400001 -0.0029186441
-0.0056535485 0.00127 -0.00025525433
0.0062434841 -0.00025400001 0.001717627
-0.0044736774 -0.00127 -0.0023267798
0.0026055484 0.00025400001 -0.00015661024
-0.0056535485 -0.00055880001 -0.00025525433
-0.0066367742 -0.00025400001 -0.0046942374
-0.0013273548 -0.00025400001 0.0013230508
-0.0075216773 -0.00055880001 -0.00055118656
0.0012290323 -0.00025400001 -0.0046942374
-0.0040803873 -5.0800001e-05 -0.0057793222
-4.9161292e-05 -0.0011684 -0.0025240679
0.0036870968 0.0003556 0.0014216949
0.0034904517 0.0001524 -0.0035105087
0.005260258 0.00127 -0.001241695
0.0036870968 0.0003556 0.0006325423
0.0013273548 -0.00025400001 0.0003366101
0.003392129 0.0008636 -0.00015661024
-0.0030971614 -0.00045719999 -0.00015661024
0.0010323871 -0.0001524 -0.0069630509
-0.0035887742 -5.0800001e-05 -0.0081467796
0.0061451616 -5.0800001e-05 -0.0039050849
-0.0060468386 -0.0001524 0.0021122033
-0.0053585805 0.0008636 -0.00015661024
0.0063418066 0.00066040002 -0.00025525433
-0.0065384516 0.0001524 0.0014216949
0.0030971614 5.0800001e-05 -5.7966179e-05
0.001524 -0.0010668 -0.0025240679
-0.0065384516 0.0001524 0.0012244068
0.0022122581 0.00127 -0.0017349154
-0.0061451616 0.00127 -0.00084711873
0.0013273548 0.00127 -0.0010444069
-0.0034904517 -0.00076199998 -5.7966179e-05
0.0050636129 -0.00045719999 -5.7966179e-05
-0.0047686454 0.00076199998 -0.00025525433
-0.0031954839 5.0800001e-05 -0.0025240679
-0.001524 0.0001524 0.0010271186
-0.0044736774 -0.00096520002 -5.7966179e-05
-0.0034904517 -0.00045719999 -0.00015661024
-0.0043753549 0.00127 -0.00055118656
0.0074233548 -0.00096520002 -0.0015376272
0.0076200003 0.00025400001 -0.0010444069
0.005751871 0.00076199998 -0.0024254238
-0.0072267097 5.0800001e-05 -0.0024254238
-0.005260258 -0.00127 -0.00084711873
-0.0072267097 -0.0011684 -0.001143051
0.0011307097 -0.00127 -0.00015661024
-0.0063418066 0.00025400001 -0.0062725428
0.0011307097 0.00025400001 -0.0057793222
0.0014256774 0.00127 -0.0018335595
0.0039820648 0.00025400001 -0.0054833898
0.003392129 5.0800001e-05 -0.0025240679
-0.0009340645 -0.0003556 -5.7966179e-05
-0.0062434841 -0.00025400001 -0.0057793222
0.0040803873 -0.0001524 -0.0057793222
0.0064401291 0.00025400001 0.0018162711
0.0040803873 -0.0001524 0.0018162711
0.0013273548 -0.00045719999 -0.0026227119
0.0010323871 0.00025400001 -0.0043983054
0.0034904517 -5.0800001e-05 -0.0061738985
-0.0040803873 -0.00127 -0.0021294917
0.0010323871 -0.0001524 -0.0033132206
0.0050636129 0.0001524 -0.0024254238
0.0072267097 -0.00096520002 -0.00015661024
0.003883742 0.0003556 -0.0050888136
-0.0049652904 0.00096520002 -0.00015661024
-0.0010323871 -0.00025400001 -0.0058779665
0.0067350967 -0.00025400001 -0.00015661024
-0.0053585805 0.00127 -0.0014389831
0.00083574193 -0.00076199998 -5.7966179e-05
0.0011307097 -0.00127 -0.00055118656
-0.0040803873 -5.0800001e-05 -0.0036091527
-0.005260258 0.00127 -0.00055118656
0.0073250323 -0.0010668 -0.0017349154
0.0060468386 0.0001524 0.0015203389
-0.003392129 -0.00127 -0.00074847467
0.0061451616 -0.00127 -0.00084711873
-0.0060468386 -0.0001524 -0.0030172884
0.0013273548 -0.00025400001 0.0021122033
-0.0037854195 0.0003556 -0.0046942374
0.0051619355 0.0010668 -5.7966179e-05
-0.0019172904 0.00045719999 -0.00025525433
0.0035887742 -0.00025400001 0.0020135592
0.0013273548 0.00127 -0.00064983062
-0.0040803873 0.00025400001 0.00013932196
-0.0005407742 -0.00127 -0.0018335595
-0.003883742 -5.0800001e-05 0.0027040679
0.001524 -0.00025400001 -0.0062725428
0.0069317422 -0.0011684 -0.0019322035
-0.0060468386 -0.0001524 0.0003366101
0.0062434841 0.00025400001 0.0013230508
-0.0072267097 0.00055880001 -0.00025525433
0.0019172904 0.00127 -0.0018335595
0.0072267097 0.00025400001 -5.7966179e-05
-0.0072267097 -0.0011684 -0.00055118656
0.0013273548 0.00127 -0.00055118656
-0.0035887742 -0.0003556 -0.0067657628
-0.0066367742 -0.00025400001 -0.0036091527
0.00014748388 0.00127 -0.0022281357
-0.0064401291 0.0001524 -0.0038064409
0.0014256774 -0.00025400001 -0.005384746
-0.0016223226 0.00127 -0.00064983062
0.0075216773 0.00076199998 -0.00035389839
-0.0026055484 0.00076199998 -0.0025240679
0.0014256774 0.00025400001 -0.0074562714
4.9161292e-05 -0.00127 -0.0025240679
-0.0066367742 0.00076199998 -0.00025525433
0.0051619355 0.0003556 -0.00015661024
0.0056535485 0.00025400001 -5.7966179e-05
0.0072267097 0.0010668 -5.7966179e-05
0.0034904517 0.0011684 -5.7966179e-05
-0.0062434841 0.00025400001 -0.0047928817
-0.0030971614 -0.0008636 -5.7966179e-05
0.0073250323 5.0800001e-05 -0.0024254238
-0.001524 -0.00025400001 -0.0029186441
-0.0040803873 0.00025400001 -0.0068644071
-0.0014256774 -0.00025400001 0.00073118636
0.0030971614 0.0010668 -0.0024254238
0.0065384516 -0.0001524 -0.007949492
-0.001524 5.0800001e-05 0.0013230508
0.0034904517 0.0001524 -0.0050888136
-0.0068334197 -0.00066040002 -0.00025525433
-0.0068334197 0.0011684 -0.00064983062
-0.0021139355 -0.00127 -0.001241695
0.005751871 0.00127 -0.0017349154
0.005555226 0.00066040002 -0.0024254238
0.0063418066 -0.00025400001 -0.0035105087
-0.0043753549 0.0008636 -0.00015661024
-0.0016223226 -5.0800001e-05 0.0018162711
0.0063418066 -0.0010668 -0.0023267798
-0.0075216773 -0.00066040002 -0.00055118656
-0.005555226 0.00127 -0.00084711873
0.0045719999 -0.00045719999 -5.7966179e-05
-0.0063418066 -0.00055880001 -0.0024254238
0.0043753549 0.00096520002 -5.7966179e-05
0.00063909678 0.0003556 -0.00025525433
-0.0012290323 0.00025400001 0.0013230508
-0.0036870968 -0.00127 -0.00055118656
0.0075216773 0.00076199998 -0.001241695
0.0023105806 0.00127 -0.0021294917
0.0026055484 -0.00025400001 -0.0025240679
-0.0060468386 -0.00025400001 -0.0056806784
-0.0053585805 -0.0008636 -0.0024254238
0.005260258 0.00127 -5.7966179e-05
0.0029005161 0.0008636 -0.00015661024
-0.0036870968 0.00066040002 -0.00025525433
0.0034904517 0.00025400001 -0.0070616952
0.0024089033 -0.00127 -0.0015376272
-0.0037854195 -0.0003556 -0.0052861017
-0.0042770323 -0.00127 -0.00055118656
-0.0046703229 -0.00127 -0.0019322035
0.0016223226 0.00025400001 0.0006325423
0.0037854195 0.0003556 -0.0035105087
0.0010323871 -0.0010668 -0.0025240679
0.005555226 0.0011684 -0.0024254238
0.0065384516 -0.0001524 -0.0074562714
-0.0062434841 0.00127 -0.00084711873
-0.005555226 0.00127 -0.00064983062
-0.0014256774 0.00025400001 -0.0040037292
0.0064401291 0.00045719999 -0.0024254238
0.001524 -0.00025400001 -0.0075549157
-0.0034904517 -0.0011684 -0.0024254238
-0.0036870968 -0.0003556 -0.0058779665
-0.0064401291 -0.00025400001 0.00073118636
-0.005260258 0.00127 -0.00074847467
-0.005751871 -0.0010668 -5.7966179e-05
-0.0063418066 0.00025400001 -0.0064698309
0.0016223226 0.0001524 -0.007160339
-0.0028021936 -0.00127 -0.0013403391
0.0049652904 -0.0011684 -0.00015661024
-0.0065384516 0.0001524 -0.007160339
-0.0076200003 -0.00066040002 -0.0021294917
0.003883742 -0.0003556 -0.0063711866
-0.0016223226 -5.0800001e-05 0.0015203389
4.9161292e-05 0.0001524 -5.7966179e-05
-0.0040803873 -0.0001524 -0.007160339
0.0016223226 -5.0800001e-05 -0.0051874579
0.0060468386 0.00127 -0.0010444069
-0.001524 -0.00066040002 -0.00025525433
-0.0059485161 0.00127 -0.00074847467
-0.0013273548 -0.00025400001 -0.0060752546
0.0060468386 0.0003556 -0.00015661024
0.0023105806 -5.0800001e-05 -0.0025240679
-0.0039820648 0.0003556 -0.0060752546
0.005751871 0.00127 -0.00064983062
0.0064401291 -0.0010668 -0.0023267798
-0.0014256774 -0.00127 -0.0016362712
0.0054569035 0.00127 -0.0020308476
0.00073741935 0.0008636 -5.7966179e-05
-0.0075216773 0.00025400001 -0.0015376272
0.0022122581 -0.00127 -0.0019322035
0.0054569035 0.00127 -0.00045254247
-0.0034904517 -0.00127 -0.00035389839
-0.0060468386 0.00127 -0.00074847467
0.0062434841 0.0011684 -0.0024254238
0.0005407742 -0.00127 -0.0013403391
-0.0061451616 0.0001524 -0.0033132206
-0.0069317422 0.00066040002 -0.00025525433
0.0034904517 0.00127 -0.0014389831
0.0036870968 -0.00025400001 -0.0051874579
0.0011307097 -0.0010668 -5.7966179e-05
-0.0016223226 -0.00025400001 -0.0029186441
-0.0070300647 -0.0011684 -0.00074847467
0.0075216773 5.0800001e-05 -0.00064983062
0.0018189678 0.00025400001 -5.7966179e-05
0.0014256774 0.00127 -0.0020308476
0.0030971614 -0.00127 -0.0020308476
0.0013273548 -0.00025400001 -0.0065684747
-0.0071283872 -0.00096520002 -0.0024254238
-0.003883742 0.00127 -0.00094576279
0.0042770323 0.00045719999 -0.0024254238
-0.0017206452 0.0001524 -0.0025240679
-0.0035887742 -0.00025400001 0.0024081357
-0.0040803873 -5.0800001e-05 -0.0038064409
-0.0016223226 -5.0800001e-05 -0.0059766104
0.0035887742 -0.00127 -0.0022281357
0.0029005161 -0.00096520002 -5.7966179e-05
-0.0029005161 -0.00127 -0.00074847467
-0.0063418066 0.00025400001 0.0013230508
-0.0023105806 0.00127 -0.00045254247
0.0075216773 -0.0003556 -0.0015376272
-0.0064401291 -0.00127 -0.001241695
-0.0061451616 0.00025400001 -0.0042010173
-0.0037854195 0.0003556 -0.0042010173
-0.0028021936 -0.00127 -0.0021294917
0.0027038711 -0.00127 -0.00025525433
0.0064401291 -0.00076199998 -0.00015661024
-0.0022122581 -0.00127 -0.0015376272
-0.0039820648 -0.0003556 -0.0057793222
0.0034904517 0.0001524 -0.0061738985
0.0010323871 -0.00025400001 0.00053389824
-0.0030971614 0.00127 -0.00045254247
0.0014256774 -0.00025400001 -0.0049901698
-0.00014748388 -0.00127 -0.0015376272
-0.0053585805 0.0010668 -0.0024254238
0.0013273548 -0.00025400001 -0.005384746
0.00083574193 0.0001524 -0.0025240679
-0.0017206452 -0.00045719999 -0.00015661024
4.9161292e-05 -0.00127 -0.0015376272
-0.0061451616 0.0001524 0.0003366101
0.0060468386 0.0001524 -0.0029186441
0.0066367742 -0.00055880001 -0.00025525433
0.0028021936 -0.00127 -0.0015376272
0.0064401291 -0.0001524 -0.0042010173
-0.0010323871 -0.00025400001 -0.0075549157
0.00063909678 0.00045719999 -0.00025525433
-0.0053585805 0.00066040002 -0.00025525433
-0.0010323871 -0.00025400001 -0.0057793222
-0.0019172904 -0.00127 -0.0020308476
-0.0065384516 -0.00127 -0.0014389831
-0.001524 -0.00127 -0.001143051
0.0069317422 0.0011684 -0.0015376272
0.0019172904 -0.0010668 -0.0025240679
0.0012290323 -0.00025400001 0.001717627
-0.0009340645 0.0003556 -0.0025240679
-0.0016223226 -5.0800001e-05 0.00043525416
0.0011307097 0.00055880001 -0.0025240679
-0.0076200003 -0.0003556 -0.00084711873
-0.0019172904 0.00127 -0.001143051
-0.0005407742 -0.00127 -0.0013403391
-0.0043753549 -0.00045719999 -5.7966179e-05
-0.005555226 -0.00127 -0.0021294917
-0.0034904517 0.00127 -0.00025525433
-0.0069317422 0.00066040002 -0.0023267798
0.0034904517 -0.0001524 -0.0025240679
0.0021139355 0.00127 -0.0010444069
-0.0035887742 0.0001524 -0.0031159325
-0.00034412905 -0.00127 -0.0014389831
-0.0066367742 -0.00025400001 -0.0054833898
0.0025072258 0.00127 -0.0016362712
-0.0075216773 -0.00096520002 -0.001241695
0.0060468386 0.00025400001 -0.0038064409
-0.0036870968 -0.0003556 -0.0055820341
0.0012290323 0.00055880001 -0.0025240679
0.001524 -0.00025400001 -0.002721356
0.0009340645 -0.0008636 -0.0025240679
-0.005260258 0.00127 -0.0017349154
0.00034412905 0.00066040002 -0.00025525433
-0.0029988387 -0.00127 -0.001143051
-0.0065384516 0.00127 -0.00045254247
0.0064401291 0.00127 -0.0014389831
0.0045719999 -0.00045719999 -0.0024254238
0.0034904517 5.0800001e-05 -0.0042996611
-0.0005407742 0.00127 -0.00064983062
0.003883742 0.00127 -5.7966179e-05
0.0034904517 -5.0800001e-05 -0.0056806784
-0.0066367742 -0.00025400001 0.00043525416
-0.002015613 0.00127 -0.00064983062
-0.0014256774 0.00025400001 -0.007949492
-0.0018189678 -0.00127 -0.0021294917
-0.00034412905 0.00127 -0.0020308476
-0.00083574193 0.00127 -0.0021294917
0.0010323871 0.00127 -0.0015376272
-0.0049652904 0.00076199998 -0.00025525433
0.0065384516 -0.0011684 -0.00015661024
-0.0034904517 0.00127 -0.00064983062
0.0025072258 -0.00127 -0.0023267798
0.002015613 -0.00045719999 -0.00015661024
0.003883742 -0.0003556 -0.0025240679
0.0013273548 -0.0001524 -0.0082454244
-0.0075216773 0.00055880001 -0.0010444069
0.0032938065 -0.00127 -0.00015661024
-0.0059485161 -0.00127 -0.0015376272
-0.0070300647 0.00096520002 -0.0023267798
0.0031954839 0.00127 -0.0023267798
0.0012290323 -0.00045719999 -0.0025240679
0.0019172904 0.0010668 -0.0025240679
0.0010323871 -0.0001524 -0.0062725428
-0.0065384516 0.0001524 -0.0073576272
-0.0060468386 0.00127 -0.00064983062
0.0063418066 -0.00055880001 -0.0024254238
0.0026055484 0.00127 -0.00084711873
-0.0019172904 0.00076199998 -0.00025525433
-0.001524 -0.0001524 -0.007949492
0.0037854195 0.0003556 0.00073118636
0.0064401291 -0.0001524 -0.0046942374
-0.00044245162 0.00025400001 -0.0025240679
-0.0034904517 -5.0800001e-05 0.0019149153
-0.0069317422 -0.00076199998 -0.00015661024
0.0009340645 0.00045719999 -0.00025525433
-0.0064401291 -0.00025400001 0.0021122033
-0.0012290323 0.00127 -0.001143051
0.00044245162 0.0011684 -5.7966179e-05
-0.0034904517 0.0001524 0.00092847453
0.0065384516 0.00096520002 -0.0024254238
-0.0048669679 -0.00025400001 -0.0024254238
-0.0013273548 -0.00025400001 -0.0070616952
0.0013273548 0.00025400001 -5.7966179e-05
0.0030971614 0.00127 -0.0016362712
0.0058501936 5.0800001e-05 -0.0024254238
0.0018189678 -0.00127 -0.00015661024
0.0049652904 0.0010668 -5.7966179e-05
-0.005751871 0.00076199998 -0.00025525433
-0.00063909678 -0.00127 -0.00074847467
-0.0076200003 -0.00045719999 -0.00035389839
0.0047686454 0.0001524 -5.7966179e-05
0.0044736774 -0.0011684 -0.0022281357
-0.0041787098 -0.0003556 -0.0025240679
0.005260258 0.00076199998 -0.00025525433
0.0066367742 0.00025400001 -0.0058779665
0.00073741935 -0.0010668 -5.7966179e-05
0.0058501936 0.00025400001 -5.7966179e-05
-0.0048669679 -0.00127 -0.0013403391
-0.0012290323 -0.00127 -0.00094576279
0.0064401291 -0.00025400001 -0.0031159325
-0.0031954839 0.00127 -0.0023267798
-0.00024580644 -0.00045719999 -5.7966179e-05
-0.0060468386 -0.00127 -5.7966179e-05
0.005751871 -0.00127 -0.0013403391
-0.003392129 0.0001524 -0.0025240679
-0.0022122581 0.00127 -0.001143051
0.0011307097 0.00025400001 -0.0059766104
0.00063909678 0.00127 -0.0015376272
-0.0060468386 -0.00025400001 -0.0047928817
0.0039820648 -0.00025400001 -0.0034118646
0.0030971614 -0.00025400001 -0.0024254238
0.0027038711 -0.00045719999 -0.00015661024
0.0031954839 -0.00127 -0.0013403391
-0.0032938065 0.00127 -0.0022281357
-0.0010323871 -5.0800001e-05 -0.0044969493
-0.0029005161 0.0010668 -0.0024254238
-0.0041787098 -0.00127 -0.00045254247
-0.0068334197 0.00025400001 -0.00015661024
-0.0014256774 0.0001524 0.0025067797
-0.0069317422 0.0011684 -0.0016362712
0.0017206452 -0.00055880001 -0.0025240679
-0.002015613 -0.00127 -0.0010444069
-0.0060468386 0.00025400001 -0.0025240679
-0.0016223226 -0.0001524 -0.0038064409
0.0040803873 5.0800001e-05 -0.0059766104
-0.0062434841 5.0800001e-05 0.0027040679
-0.0018189678 0.00096520002 -0.0025240679
-0.0061451616 0.00025400001 -0.0063711866
0.0031954839 0.00127 -0.0020308476
-0.0069317422 -0.00045719999 -0.00015661024
0.0034904517 0.00025400001 0.0015203389
0.0017206452 -0.0001524 -0.0025240679
0.0039820648 -0.00025400001 -0.0060752546
-0.0013273548 -0.00127 -0.00074847467
-0.0035887742 0.00025400001 0.0012244068
0.003392129 -0.00076199998 -0.0024254238
0.0039820648 -0.00025400001 -0.0032145765
0.0024089033 0.00127 -0.00045254247
-0.0017206452 -0.0001524 -0.0025240679
-0.0039820648 -0.00127 -0.001241695
0.0061451616 0.00025400001 0.0021122033
0.0065384516 -5.0800001e-05 -0.005384746
-0.0010323871 0.0001524 -0.0031159325
0.0025072258 0.00055880001 -0.0025240679
-0.0040803873 5.0800001e-05 0.0010271186
-0.0034904517 0.0001524 -0.0060752546
-0.00014748388 -5.0800001e-05 -5.7966179e-05
0.0049652904 0.0011684 -0.0024254238
0.0060468386 5.0800001e-05 0.001717627
-0.0069317422 0.0008636 -0.0023267798
-0.0043753549 0.0008636 -5.7966179e-05
-0.0034904517 5.0800001e-05 -0.0065684747
0.0061451616 0.00025400001 -0.0044969493
-0.0072267097 -0.0011684 -0.00074847467
-0.0016223226 -0.0001524 0.0006325423
-0.0022122581 0.00055880001 -0.00025525433
0.0030971614 0.00127 -0.001241695
0.0031954839 0.0010668 -5.7966179e-05
-0.0062434841 -5.0800001e-05 0.0026054238
-0.00014748388 -0.00127 -0.0020308476
-0.005260258 0.00076199998 -0.00025525433
0.0035887742 0.0003556 0.0023094914
0.0060468386 0.0003556 -0.0024254238
0.0060468386 0.0008636 -5.7966179e-05
0.0047686454 -0.0010668 -0.0024254238
0.0074233548 0.0010668 -5.7966179e-05
0.0022122581 -0.00127 -0.0013403391
0.0010323871 5.0800001e-05 -0.0039050849
0.0048669679 0.00127 -0.0024254238
-0.0039820648 0.0003556 -0.002721356
-0.0074233548 0.00096520002 -0.00055118656
0.0009340645 0.0001524 -0.0048915255
-0.001524 5.0800001e-05 -0.0029186441
0.0064401291 -0.00127 -0.00025525433
-0.0036870968 -0.0003556 -0.0070616952
0.0029005161 -0.00127 -0.0022281357
0.0050636129 -0.00127 -0.0020308476
0.0013273548 -0.00025400001 0.0020135592
-0.0049652904 -0.00127 -0.00074847467
-0.0009340645 -0.00076199998 -0.0025240679
-0.00073741935 -0.00025400001 -0.0025240679
0.0070300647 0.0008636 -5.7966179e-05
-0.0037854195 0.00127 -0.00035389839
-0.0034904517 -0.00025400001 -0.0068644071
-0.0065384516 5.0800001e-05 0.00023796603
-0.0040803873 -0.0001524 0.0010271186
-0.0068334197 -0.0011684 -5.7966179e-05
-0.0062434841 -0.0001524 -0.0081467796
-0.0074233548 0.00055880001 -0.00025525433
0.0047686454 0.00127 -0.00074847467
-0.0036870968 -0.0003556 0.0024081357
0.0040803873 0.00025400001 -0.0043983054
-0.0014256774 5.0800001e-05 0.0026054238
0.0019172904 -0.00127 -0.0010444069
0.0030971614 -5.0800001e-05 -0.0024254238
-0.00014748388 -0.00045719999 -0.0025240679
0.0063418066 -0.00127 -0.0018335595
0.0053585805 -0.00066040002 -0.00025525433
-0.0040803873 -0.0011684 -5.7966179e-05
0.0034904517 5.0800001e-05 -0.0034118646
-0.0034904517 5.0800001e-05 -0.0064698309
0.0037854195 0.00127 -0.0019322035
0.0060468386 0.0001524 0.0021122033
0.0060468386 -0.00127 -0.0022281357
-0.0021139355 -0.00127 -0.0014389831
0.0051619355 -0.00127 -0.0019322035
-0.0075216773 0.0008636 -0.0017349154
-0.0059485161 -0.00127 -0.0023267798
0.00014748388 -0.0010668 -0.0025240679
-0.0009340645 -5.0800001e-05 0.00082983047
-0.0059485161 -0.00127 -0.00025525433
0.0074233548 0.0010668 -0.00074847467
-0.0051619355 -0.00045719999 -0.00015661024
0.00044245162 0.00127 -0.0010444069
-0.0039820648 -0.0003556 0.0012244068
0.0028021936 -0.00127 -0.0024254238
0.00073741935 0.00127 -0.00045254247
0.00034412905 0.0011684 -0.0025240679
-0.0048669679 0.00127 -0.00025525433
-0.00073741935 0.00127 -0.00064983062
0.0031954839 -0.00127 -0.00035389839
0.0061451616 -0.0001524 -0.0075549157
-0.0061451616 -0.00045719999 -0.00015661024
-0.002015613 -0.00045719999 -0.00015661024
0.0042770323 0.00127 -0.001143051
0.0013273548 0.00025400001 -0.0031159325
0.0036870968 -0.0003556 0.0010271186
-0.0075216773 0.00076199998 -0.00055118656
