# .PCD v0.7 - Point Cloud Data file format
VERSION 0.7
FIELDS x y z
SIZE 4 4 4
TYPE F F F
COUNT 1 1 1
WIDTH 1258
HEIGHT 1
VIEWPOINT 0 0 0 1 0 0 0
POINTS 1258
DATA ascii
0.00030479999 3.848485e-05 0.0011
0.00022859999 -0.00034636364 -0.007032
-0.0024383999 0.00026939393 -0.0052840002
-0.0022859999 -0.00011545455 -0.0062719998
-0.0023621998 -0.00034636364 -0.0053599998
-0.00030479999 -0.00011545455 0.0020880001
0.0028193998 -3.848485e-05 -0.0025480001
0.0037337998 0.00073121215 -0.0022440001
0.001524 0.00127 -0.0023960001
-0.0025907999 -0.00034636364 0.002012
-0.0026669998 -0.0008851515 -3.9999999e-05
0.0023621998 -0.00011545455 0.00079600001
0.0024383999 0.00034636364 0.0023920001
0.00091439998 0.00127 -0.001028
0.00030479999 -0.00026939393 0.0021639999
0.0030479999 0.00127 -0.001408
0.0019812 -0.00065424241 -0.000268
-0.0032003999 -0.00042333335 -0.000116
0.00030479999 -0.00127 -0.002016
0.0017526 -0.00127 -0.00079999998
0.0027431999 -3.848485e-05 -0.0083999997
-0.0028955999 -0.00127 -0.000268
-0.00060959999 0.00127 -0.001332
0.0022097998 0.00019242424 0.001176
0 -0.00127 -0.00057199999
0.00022859999 -0.00127 -0.001332
-0.0012192 -0.00050030305 -0.000268
-7.6199998e-05 0.00034636364 -0.0049040001
0.0038099999 0.00019242424 -0.001104
0.00053339999 -0.00127 -0.00232
-0.0033527999 0.00042333335 -3.9999999e-05
0.0028193998 3.848485e-05 -0.0081719998
0.0034289998 0.00026939393 -3.9999999e-05
-0.0023621998 0.0010390909 -0.000116
0.0023621998 0.00042333335 -3.9999999e-05
-0.0028193998 0.00011545455 0.001252
0.00030479999 -0.00011545455 -0.0062719998
-0.0028193998 -0.00011545455 0.0021639999
0.0025907999 0.00127 -0.00118
0.0001524 -0.00011545455 -0.0090840003
-0.0025907999 -0.00034636364 -0.0059679998
0.00022859999 0.00019242424 -0.003156
-0.0031241998 -0.00057727273 -0.000268
-0.0022859999 -3.848485e-05 -0.0030799999
0.0018288 0.00011545455 -0.002472
-0.0025145998 0.00026939393 -0.0035359999
0.0026669998 0.00034636364 -0.003308
-0.00022859999 0.00127 -0.001408
-0.0028193998 -3.848485e-05 -0.0035359999
-0.0014478 0.00050030305 -0.002472
0.0025907999 0.00042333335 -0.002624
0.0025907999 -0.00011545455 -0.0065759998
-0.0025145998 0.00026939393 -0.0044479999
-0.0033527999 0.0011930303 -0.001788
0.0032765998 0.00011545455 -3.9999999e-05
0.0025907999 -0.00011545455 -0.0084760003
0.0022097998 0.00019242424 -0.00346
-0.0038099999 3.848485e-05 -0.0022440001
0.0025907999 -0.00042333335 -0.002472
-0.0018288 0.00127 -0.00079999998
0.0023621998 -0.0008851515 -0.002472
0.00022859999 0.00034636364 0.000416
-0.00099059998 3.848485e-05 -3.9999999e-05
0.0022097998 0.00026939393 -0.003612
0.0031241998 -0.0011160607 -0.00232
-0.0032765998 -0.00080818182 -0.000116
0.00030479999 -0.00034636364 3.6000001e-05
-0.0037337998 -0.00096212124 -0.00232
-0.0022859999 3.848485e-05 -0.0042960001
0.0023621998 -0.00011545455 -0.0087799998
-0.0025145998 0.00026939393 -0.002776
-0.0028955999 0.0011160607 -0.000116
-0.00022859999 -0.00034636364 -0.0049800002
0.0012954 0.00034636364 -0.002472
-0.0025907999 0.00065424241 -0.002472
-0.0028193998 -0.00019242424 -0.0086279996
0.0025907999 -0.00011545455 -0.0046000001
-0.0034289998 0.00065424241 -0.000268
0.0037337998 0.0010390909 -0.001104
0.0001524 -0.00034636364 -0.0033839999
0.00053339999 -0.0011160607 -0.002472
-0.0034289998 -0.00073121215 -0.002472
0.0029717998 0.0011160607 -3.9999999e-05
0.00022859999 -0.00034636364 0.00049200002
-0.0017526 -0.00019242424 -0.002472
-0.0027431999 0.00011545455 -0.004828
-0.0025907999 0.00042333335 -0.000116
-0.0022097998 0.00127 -0.001712
-0.0038099999 0.00057727273 -0.002168
0.00045719999 0.00050030305 -0.000268
0.001524 0.00127 -0.001712
0.0023621998 -3.848485e-05 0.002544
0.0028193998 0.00019242424 -0.0074880002
0.0022097998 0.00019242424 0.00079600001
-0.0026669998 0.00026939393 -0.0039920001
0.00022859999 0.00026939393 -0.0038399999
-0.0012954 -0.00042333335 -0.000116
-0.0037337998 -0.0008851515 -0.00079999998
0.00022859999 0.00034636364 0.00018800001
0.0001524 -0.00034636364 -0.0072599999
0.0022097998 0.00011545455 -0.0058920002
0.0012192 0.0008851515 -0.00019200001
-0.0022859999 0.00127 -0.00042
0.0027431999 0.00019242424 0.00064400001
0.0013716 0.00127 -0.00049599999
-0.0035051999 0.0011160607 -0.001408
0.00038099999 -0.0008851515 -3.9999999e-05
-0.0001524 -0.00127 -0.0020920001
0.0035051999 -0.00042333335 -0.00019200001
-0.00099059998 -0.00096212124 -0.002472
0.0016764 0.00127 -0.001332
-0.0030479999 0.00042333335 -3.9999999e-05
0.0012192 0.00127 -0.00156
-0.0038099999 -0.00065424241 -0.001104
-0.0035813998 0.0010390909 -0.001864
-0.00083819998 0.00127 -0.001028
-0.0022097998 0.00065424241 -0.002472
0.0038099999 -0.00034636364 -0.001636
-0.0019812 0.00127 -0.00194
-0.0031241998 -0.00127 -0.00072399998
0.00045719999 -0.00034636364 -3.9999999e-05
-0.0038099999 0.00011545455 -0.002472
-0.00030479999 -0.00057727273 -0.002472
0.0022097998 -0.00127 -0.0022440001
0.00030479999 -0.00026939393 -0.0071080001
-0.00099059998 0.00127 -0.00118
-0.00030479999 -3.848485e-05 -0.007944
0.0019812 -0.00034636364 -0.002472
0.0036575999 0.00019242424 -0.002472
7.6199998e-05 -0.00034636364 -0.0087799998
-0.00060959999 0.0010390909 -0.002472
0.0029717998 0.00034636364 -3.9999999e-05
0.0017526 -0.00057727273 -0.002472
0.0023621998 -0.00019242424 -0.0082480004
0.00022859999 0.00127 -0.0020920001
-0.0037337998 -0.00065424241 -0.000268
0.0024383999 -0.00019242424 -0.005816
0.0025907999 -0.00019242424 -0.0085519999
-0.0036575999 0.00096212124 -0.000268
-0.001524 0.0008851515 -0.000116
0.0027431999 0.00026939393 -0.0027000001
-0.0013716 0.00042333335 -0.002472
-0.0032003999 -0.00073121215 -0.0023960001
0.00068579998 0.00127 -0.001028
-0.0012192 0.0008851515 -0.00019200001
0.0022859999 0.00034636364 -0.0038399999
-0.0018288 0.0011930303 -0.0023960001
-0.0023621998 0.00011545455 -0.0059679998
0.00091439998 -0.00042333335 -0.000116
-7.6199998e-05 0.00127 -0.001636
0.00022859999 0.00034636364 -0.0081719998
0 0.00034636364 -0.0035359999
-0.00030479999 -0.00011545455 0.001784
0.0034289998 -0.0010390909 -0.002016
0.0028193998 -0.00011545455 0.001176
-0.0024383999 0.00080818182 -0.000268
-0.0028193998 -3.848485e-05 -0.0030040001
0.0035051999 0.00011545455 -3.9999999e-05
0.00022859999 0.00026939393 -0.0029279999
-0.0026669998 -0.00034636364 -0.0071080001
0.0032003999 0.00127 -0.001864
-0.00030479999 -3.848485e-05 -0.0065000001
0.0037337998 0.00096212124 -0.001636
0.0024383999 0.00034636364 -0.004524
-0.0028193998 0.00065424241 -0.000268
-0.0025907999 -0.00034636364 -0.0068040001
-0.0021335999 -0.00127 -0.00042
0.00045719999 0.00127 -0.001332
-0.0019812 -0.00042333335 -0.002472
0.0032003999 0.00065424241 -0.002472
0.0024383999 0.00034636364 -0.0063479999
-0.00060959999 -0.00073121215 -0.002472
-0.0023621998 0.00011545455 3.6000001e-05
-0.0012192 0.00065424241 -0.000268
0.0014478 0.00127 -0.000116
0.0017526 0.00127 -0.00087599998
-0.0028193998 0.00011545455 -0.0049800002
-0.0032003999 0.00127 -0.00057199999
0.001905 -0.00127 -0.0023960001
-0.0001524 0.00034636364 -0.0050559998
-0.00030479999 0.00034636364 -0.0086279996
-0.00022859999 -0.00127 -0.001332
-0.00022859999 0.00034636364 -0.0077920002
0.00099059998 0.00127 -3.9999999e-05
-0.0012192 -0.00034636364 -3.9999999e-05
-0.0018288 0.00057727273 -0.000268
0.0033527999 -0.00042333335 -0.000116
-0.0028193998 -0.00011545455 -0.0083999997
-0.0023621998 0.00026939393 -0.004524
0.0026669998 -0.00011545455 -0.0044479999
0.0032003999 -0.00050030305 -0.0023960001
-0.0014478 -0.00026939393 -0.002472
0.0028193998 0.00011545455 -0.0074120001
0.00030479999 3.848485e-05 0.00064400001
-0.001905 -0.0008851515 -0.002472
0.0023621998 0.00034636364 -0.003612
-0.0010668 0.00127 -0.00232
0.0036575999 0.0011160607 -0.00087599998
-0.0016764 0.00127 -0.001332
-0.0023621998 -0.00127 -0.001256
0.0001524 0.00034636364 -0.0058920002
-0.00068579998 -0.00127 -3.9999999e-05
0.00045719999 0.00127 -3.9999999e-05
-0.0022859999 3.848485e-05 -0.00422
0.0017526 -0.00127 -0.001636
-0.00022859999 -0.00026939393 -0.0083240001
-0.0032003999 0.00042333335 -0.000116
-0.0033527999 -0.00073121215 -0.000116
-0.0025145998 -0.00034636364 0.001632
-0.0022859999 3.848485e-05 -0.0065000001
-0.0032765998 0.00026939393 -0.002472
0.00091439998 -0.00127 -0.000268
0.0022859999 0.00034636364 -0.0082480004
0.00030479999 -0.00034636364 -0.0085519999
-0.00022859999 -0.00034636364 -0.003156
-0.0025907999 -0.00034636364 -0.0040679998
0.00022859999 0.00019242424 0.0022400001
0.0017526 0.00127 -0.001256
0.00030479999 -0.00034636364 -0.0030040001
0.001524 -0.00127 -0.002016
-0.0001524 0.00034636364 0.001556
0 -0.00034636364 -0.0060439999
0.0027431999 0.00127 -0.000268
0.0022859999 3.848485e-05 -0.0027000001
-0.0028955999 -0.00026939393 0.000112
0.0020573998 0.00127 -0.002016
0.00083819998 -0.0011930303 -0.0023960001
-0.00083819998 -0.00127 -0.00019200001
-0.0030479999 0.00127 -0.00232
0 -0.00073121215 -0.002472
-0.00030479999 -0.00011545455 -0.0038399999
0.0022859999 0.00034636364 -0.0061960001
-0.001524 0.0011160607 -0.000116
0.0035813998 0.0011160607 -0.000116
0.00030479999 -0.00026939393 -0.0044479999
-0.0025907999 0.00019242424 -0.0069559999
-0.0001524 -3.848485e-05 0.0027719999
0.0024383999 0.00034636364 -0.005816
0.00022859999 -0.00011545455 -0.0090079997
-0.0037337998 0.00073121215 -0.00232
0.0038099999 -0.00065424241 -0.001636
-0.00060959999 -0.00127 -0.002016
-0.0025907999 -0.00127 -0.001484
0.0036575999 -0.0008851515 -0.00232
0.0021335999 -0.00073121215 -0.002472
-0.0023621998 0.00011545455 -0.007336
-0.0012954 -0.00127 -0.00057199999
-0.0036575999 -0.0010390909 -0.001104
-0.00030479999 -0.00011545455 -0.0052080001
0.0025145998 0.00034636364 -0.004524
0.0022097998 0.00011545455 -0.002624
-0.0036575999 -0.0010390909 -0.001712
-0.0001524 -0.00034636364 -0.0041439999
-0.0023621998 0.00026939393 -0.0058920002
-0.00022859999 0.00034636364 -0.00346
0.0022097998 -0.00042333335 -0.002472
0.0022097998 0.00011545455 -0.0052080001
-0.00068579998 0.00127 -0.00095199997
0 -0.00034636364 -0.0056639998
-0.0025907999 -0.0010390909 -3.9999999e-05
0.0017526 -0.00034636364 -0.002472
-0.0023621998 -0.00042333335 -0.000116
-0.0027431999 3.848485e-05 -0.0049040001
-0.0016764 -0.00127 -0.00194
0.0025145998 0.0010390909 -0.002472
-0.00091439998 -0.00096212124 -0.002472
0.0012192 -0.00127 -0.001636
0.0023621998 0.00034636364 0.000948
0.00045719999 0.00034636364 -0.002472
0 0.00034636364 0.000416
-0.0012192 0.00127 -0.000116
-0.0022097998 -0.00011545455 0.00072000001
-0.0018288 -0.00096212124 -0.002472
-0.00022859999 -0.00019242424 0.0023159999
0.0029717998 0.00127 -0.001104
0.0025145998 -0.00096212124 -0.000116
-0.0025907999 -0.00034636364 -0.0049040001
-0.0016764 0.00019242424 -0.002472
0.0028193998 -0.00065424241 -0.002472
0.0024383999 0.0008851515 -3.9999999e-05
0.0022859999 0.00034636364 -0.0029279999
-0.0010668 0.00065424241 -0.002472
0.0024383999 -0.00026939393 0.0022400001
0.0037337998 0.00073121215 -0.001712
0.0027431999 0.00019242424 0.00018800001
-0.00030479999 0.00034636364 -0.003156
-0.0025145998 -0.00127 -0.00064799999
-0.0027431999 0.00127 -0.001636
0.0027431999 -0.00011545455 0.000264
0.0034289998 -0.0010390909 -0.001408
-0.0028955999 0.00127 -0.000268
-0.00068579998 0.00034636364 -0.002472
0.0019812 -0.00065424241 -0.002472
-0.001905 -0.00127 -0.001864
0.0025907999 0.00034636364 0.001784
0.0012954 -0.00026939393 -0.002472
0.0022097998 0.00019242424 -0.0068799998
0.0038099999 -0.00042333335 -0.0022440001
-0.0035051999 -0.00073121215 -0.00019200001
-0.0022859999 -0.00019242424 -0.003764
-0.0034289998 0.0008851515 -0.00019200001
-0.00022859999 -0.00019242424 -0.0041439999
-7.6199998e-05 -0.00127 -0.001484
0.0038099999 -0.00073121215 -0.00087599998
0.00022859999 -0.00034636364 -0.0071840002
7.6199998e-05 0.00127 -0.001484
0.0025907999 0.00019242424 -0.0091599999
-0.0024383999 0.00065424241 -0.002472
-0.00099059998 0.00034636364 -3.9999999e-05
0.00030479999 -3.848485e-05 -0.0030799999
-0.0026669998 -0.00026939393 -0.008932
0 -0.00034636364 -0.0038399999
-0.0027431999 0.00011545455 -0.0062719998
0.0038099999 -3.848485e-05 -0.00095199997
-0.0025907999 -0.00034636364 -0.0077160001
0.001905 -0.0011160607 -0.0023960001
-0.0010668 -0.0008851515 -0.002472
0.0012954 0.00127 -3.9999999e-05
0.0023621998 0.00034636364 -0.0029279999
0.0031241998 -0.0011160607 -0.002016
0 0.0010390909 -0.002472
-0.0025145998 -0.00034636364 0.001404
7.6199998e-05 -0.0010390909 -0.002472
0.001143 -0.00019242424 -3.9999999e-05
-0.0017526 0.00127 -0.001256
-0.0026669998 -0.00127 -0.002472
0.0032003999 -0.00034636364 -0.002472
-0.00030479999 -0.00127 -0.00064799999
0.0020573998 -0.00127 -0.001636
-0.0024383999 3.848485e-05 -0.0091599999
-0.0026669998 -0.00034636364 0.001556
-0.0028193998 3.848485e-05 -0.0025480001
-0.0028193998 -0.00019242424 -0.0049040001
0.0026669998 0.0008851515 -3.9999999e-05
0.0018288 0.00127 -0.0020920001
0.00091439998 -0.00073121215 -0.002472
0.00022859999 -0.00034636364 0.0021639999
0 0.00034636364 0.001176
0.0016764 0.00042333335 -0.000116
-0.00030479999 0.00026939393 -0.0039920001
0.0037337998 -0.00042333335 -0.0023960001
0.0026669998 0.00034636364 -0.0039920001
0.0028955999 -0.00050030305 -0.002472
-0.0022859999 -0.00019242424 -0.0077920002
-0.00053339999 -0.00073121215 -0.000268
-0.00022859999 -0.00026939393 -0.0069559999
-0.0018288 -0.0011930303 -3.9999999e-05
0.0016002 0.0008851515 -0.00019200001
0 -0.00034636364 -0.005816
-0.00030479999 0.00011545455 -0.0082480004
0.0023621998 0.00034636364 0.00148
-0.00099059998 0.00042333335 -0.000116
-0.00030479999 0.00019242424 0.000948
-0.0021335999 -0.00096212124 -3.9999999e-05
-0.0012954 -0.0010390909 -0.002472
-0.0037337998 -0.0010390909 -0.00057199999
-0.0022859999 -3.848485e-05 0.000872
0.0013716 0.00080818182 -0.000268
-0.0031241998 0.00127 -0.00057199999
0.00091439998 0.0011930303 -3.9999999e-05
-0.0025907999 -0.00034636364 0.000872
0.0024383999 0.00019242424 -0.0091599999
0.00038099999 0.0011930303 -3.9999999e-05
-0.00022859999 -0.00026939393 -0.003916
-0.0022859999 3.848485e-05 -0.003916
-7.6199998e-05 -0.00034636364 0.001252
0.00022859999 -0.0011160607 -3.9999999e-05
-0.00030479999 0.00127 -0.00057199999
0.0036575999 0.00034636364 -0.002472
-0.0028955999 0.00127 -0.001256
0.0023621998 -0.0011930303 -0.00064799999
0.00022859999 -0.00065424241 -0.000268
0.0012192 -0.00127 -0.00194
0.0025907999 -3.848485e-05 0.0026199999
-0.0022859999 -3.848485e-05 -0.007944
-0.0012192 -0.00127 -0.001028
0.00083819998 0.00127 -0.00042
0.0034289998 0.00019242424 -3.9999999e-05
-0.0016764 0.00127 -0.00095199997
0.00030479999 -0.00011545455 0.001024
0.0022097998 0.00011545455 0.0011
0.00022859999 0.00034636364 -0.0077920002
-0.0037337998 0.00080818182 -0.001104
-0.0010668 -0.00080818182 -0.002472
-0.0016002 0.00127 -0.001484
-0.0016764 -0.00127 -0.0020920001
0.0025145998 -0.0010390909 -0.000116
-0.0031241998 -0.0011930303 -3.9999999e-05
-0.0025145998 -0.00026939393 0.0024679999
-0.0017526 -0.00127 -0.001864
-0.0033527999 0.00042333335 -0.000116
-0.0001524 0.00034636364 -0.0044479999
-0.0010668 0.0011930303 -0.0023960001
-0.0027431999 0.00011545455 0.00064400001
0.001143 -0.00127 -0.00156
-0.00022859999 0.00034636364 -0.0065759998
0.0027431999 -0.0011160607 -0.002016
0.00030479999 0.00011545455 -0.0083240001
0.0023621998 -0.00026939393 0.0020880001
0.0028193998 0.00127 -0.00049599999
0.0021335999 -0.00127 -0.00064799999
-0.0034289998 0.00034636364 -0.002472
-0.0038099999 0.00034636364 -0.002168
-0.0038099999 -0.00026939393 -0.002016
-0.00030479999 0.00127 -0.000268
0.0028193998 0.00019242424 0.0020880001
0.0027431999 -0.00019242424 0.001556
-0.0037337998 0.00073121215 -0.000344
0.0038099999 0.00042333335 -0.001712
0.00045719999 0.00127 -0.0020920001
0.0038099999 0.00065424241 -0.001332
-0.0016002 0.00127 -0.00194
-0.0001524 0.00034636364 0.0022400001
-0.00038099999 0.00065424241 -0.002472
0.0026669998 -0.0011930303 -0.0022440001
-0.0028193998 3.848485e-05 -0.0085519999
0.0025907999 -0.00011545455 -0.0087040002
0.0032003999 -0.0008851515 -0.000116
-0.0022859999 0.00011545455 -0.0052080001
-0.0027431999 -0.00127 -0.00019200001
-0.0028193998 3.848485e-05 -0.0074120001
-0.0018288 -0.00127 -0.0020920001
-0.0025907999 -0.00034636364 -0.0027000001
0.0038099999 0.00019242424 -0.00118
0.0028193998 -3.848485e-05 0.0020880001
-0.00030479999 0.00026939393 -0.0032319999
-0.0034289998 -0.00127 -0.00232
0.00030479999 -0.00034636364 0.001176
7.6199998e-05 -0.00034636364 -0.0090079997
-0.00022859999 -0.00034636364 0.000264
-0.0019812 -0.0011160607 -0.002472
0.0026669998 0.00034636364 -0.0043720002
-0.00030479999 0.00019242424 -0.0065759998
-0.0019812 -0.00127 -0.00064799999
-0.0037337998 0.00073121215 -0.001408
-0.0035813998 -0.00065424241 -0.000268
-0.0001524 0.00034636364 0.00079600001
-0.0023621998 -0.00034636364 -0.0060439999
0.001524 0.00042333335 -0.002472
0.0032003999 -0.0010390909 -0.000116
7.6199998e-05 -0.00127 -0.00156
7.6199998e-05 -0.00034636364 -0.0085519999
-0.0017526 0.00127 -0.001484
-0.0010668 -0.00127 -0.00072399998
0.0036575999 -0.00042333335 -0.0023960001
-0.00068579998 0.00019242424 -3.9999999e-05
0.0001524 -0.00034636364 0.001784
0.0001524 0.00127 -0.00156
0.0012954 0.00127 -0.00194
0.0025145998 -0.00026939393 0.001404
-0.0001524 -0.00034636364 -0.0085519999
0.0030479999 -0.00057727273 -0.000268
0.0031241998 0.00127 -0.000268
-0.0022859999 3.848485e-05 -0.003156
-0.0022859999 -3.848485e-05 0.001936
-0.0023621998 -0.00034636364 -0.0080199996
-0.0012954 0.00127 -0.000268
-0.00030479999 3.848485e-05 -0.00346
0.001905 -0.00080818182 -0.00019200001
-0.0022859999 0.00011545455 -0.0074120001
0.0037337998 0.00096212124 -3.9999999e-05
0.0022097998 0.00026939393 -0.0047519999
-0.00030479999 0.00026939393 -0.002624
-0.00060959999 -0.00127 -0.00087599998
0.0038099999 0.00050030305 -0.00232
0.00053339999 -0.0011930303 -3.9999999e-05
0.0026669998 -0.00011545455 -0.0074120001
-0.0016764 -0.0010390909 -0.000116
-0.0010668 0.00034636364 -3.9999999e-05
-0.0022097998 -0.00019242424 0.00018800001
0.0027431999 0.00127 -0.001408
0.00022859999 -0.00034636364 -0.0055120001
-0.0029717998 -0.00127 -0.002472
-0.00022859999 0.00034636364 -0.0062719998
-0.0038099999 0.00011545455 -0.001712
-0.00022859999 -0.00019242424 0.001176
-0.0001524 -0.00034636364 0.00049200002
0.0028955999 -0.0011160607 -0.00072399998
0.0001524 0.00034636364 -0.0082480004
-0.0014478 -0.00127 -0.001256
-0.0029717998 -0.00026939393 -3.9999999e-05
-0.0022859999 3.848485e-05 0.001252
-0.0022859999 0.00127 -0.00057199999
-0.00022859999 -0.00026939393 -0.0074120001
0.0016764 -0.00096212124 -0.002472
-0.0022859999 -0.00034636364 -0.0065759998
0.0001524 -0.00034636364 -0.0046000001
-0.00038099999 0.00034636364 -0.002472
0.00091439998 0.00127 -0.0022440001
-0.0024383999 -0.00034636364 -0.00346
-0.0012954 0.00096212124 -0.002472
-0.0029717998 -3.848485e-05 -0.002472
-0.0022859999 -0.00026939393 -0.0046000001
0.00030479999 -0.00034636364 -0.0055880002
0.00030479999 0.00011545455 0.000264
-0.0012192 0.00019242424 -3.9999999e-05
0.0001524 -0.00034636364 0.00056800002
-0.0035051999 -0.0011930303 -0.001712
-0.0001524 -0.00042333335 -0.000116
-0.0025907999 0.00019242424 -0.0065759998
-7.6199998e-05 -0.00127 -0.001104
-0.0027431999 -0.00026939393 -0.0032319999
0.001905 -0.00096212124 -3.9999999e-05
-0.001905 -0.0011160607 -0.000116
-0.001524 -0.00127 -0.00064799999
-0.00099059998 0.00034636364 -0.002472
0.0001524 -0.00034636364 -0.0083999997
-0.0017526 0.00127 -0.00057199999
-0.0038099999 0.00026939393 -0.001028
-0.00030479999 0.00127 -0.00194
-0.0030479999 0.00057727273 -0.002472
-0.0001524 -0.00057727273 -0.002472
-0.00030479999 3.848485e-05 0.0020880001
-0.0025145998 0.00019242424 -0.0085519999
-0.0025145998 -0.00042333335 -0.000116
0 -0.00034636364 -0.0062719998
-0.00030479999 0.00019242424 -0.0029279999
0.00030479999 -0.00019242424 -0.0056639998
0.0029717998 0.00019242424 -0.002472
0.0022859999 3.848485e-05 -0.0056639998
0.001905 -0.00127 -0.000116
-0.0020573998 0.00034636364 -3.9999999e-05
-0.0038099999 -3.848485e-05 -0.002168
0.0038099999 0.00050030305 -0.001256
0.0032765998 0.0008851515 -0.000116
0.00030479999 -0.00026939393 -0.0050559998
0.00053339999 -0.00073121215 -0.002472
-0.0031241998 -0.00042333335 -0.000116
-0.00022859999 -0.00034636364 -0.0086279996
-0.00099059998 0.00127 -0.0020920001
-0.0029717998 -0.0011930303 -0.002472
0.00030479999 -3.848485e-05 -0.0081719998
-0.0010668 0.00127 -0.00057199999
-0.0018288 0.00127 -0.000116
7.6199998e-05 -0.00034636364 -0.004828
-0.00076199998 -0.00127 -0.000268
-0.0037337998 -0.0010390909 -0.001712
0.0013716 -0.00080818182 -0.00019200001
0.0038099999 0.00042333335 -0.00079999998
-0.0035813998 -0.00096212124 -0.002472
0.0026669998 0.00034636364 -0.0046000001
-0.00030479999 0.00034636364 -0.0047519999
0.0025145998 -0.00011545455 -0.0077160001
0.00030479999 0.00011545455 0.00056800002
-0.0022859999 -0.00034636364 -0.007944
-0.0035051999 0.00026939393 -0.002472
-0.0022859999 -3.848485e-05 -0.0053599998
0.0012954 0.00127 -0.00072399998
7.6199998e-05 0.00034636364 -0.007336
0.0017526 0.00127 -0.0022440001
-0.00030479999 0.00019242424 -0.00612
-0.0022859999 -0.00034636364 0.000416
-0.00068579998 -0.00065424241 -0.000268
0.00030479999 -3.848485e-05 -0.0063479999
0.0033527999 0.00073121215 -0.000268
-0.0025145998 0.00026939393 -0.0054359999
-0.0037337998 -0.00057727273 -0.0023960001
0.0028955999 3.848485e-05 3.6000001e-05
-0.0029717998 0.0008851515 -0.0023960001
0.0022097998 0.00019242424 0.00072000001
0.001524 -0.00127 -0.001408
0.0012192 -0.00065424241 -0.000268
0.0027431999 -0.00042333335 -0.00019200001
-0.00030479999 -3.848485e-05 0.001024
0.0038099999 0.00019242424 -0.00042
0 0.00034636364 -0.0058920002
-0.0023621998 -0.00073121215 -0.00019200001
-0.0022859999 -0.00026939393 0.00072000001
-0.00030479999 0.00026939393 0.000948
-0.0012954 0.00073121215 -0.002472
0.00030479999 -0.00026939393 -0.0030040001
-0.0026669998 -0.00034636364 0.00072000001
0.0027431999 0.00026939393 0.002012
0.0010668 0.00127 -0.00194
-0.0025145998 0.00026939393 3.6000001e-05
0.0028193998 0.00127 -0.00064799999
-0.0029717998 -3.848485e-05 -3.9999999e-05
-0.0014478 0.00019242424 -3.9999999e-05
0.0019812 0.00127 -0.001256
-0.00030479999 0.00026939393 0.000416
-0.0027431999 0.00019242424 0.0021639999
0.0023621998 -0.0008851515 -3.9999999e-05
0.0013716 0.00042333335 -0.002472
0.0022859999 0.00127 -0.00064799999
0.0022859999 0.00034636364 -0.007032
0.0025907999 -0.00019242424 -0.0029279999
0.00099059998 -0.00073121215 -0.000116
-0.0023621998 0.00080818182 -0.000268
0.0038099999 0.00050030305 -0.00057199999
-0.0032765998 0.00127 -0.00156
-0.0017526 0.00065424241 -0.000268
-0.0001524 0.00034636364 -0.0061960001
0.0023621998 -0.00026939393 -3.9999999e-05
-0.0034289998 -0.0011930303 -0.00072399998
-0.0030479999 -0.00042333335 -0.00019200001
-0.0024383999 -0.00034636364 -0.0075639999
-7.6199998e-05 0.00073121215 -0.000268
0.0028193998 0.00011545455 -0.0054359999
-0.0016764 -0.00127 -0.000268
0.00030479999 -0.00026939393 -0.0072599999
0.0028193998 0.00011545455 -0.0053599998
0.00060959999 0.00011545455 -0.002472
-0.00030479999 0.00019242424 -0.0065000001
0.00022859999 0.00034636364 -0.0086279996
-0.00022859999 -0.00026939393 0.002012
-0.00038099999 -0.00034636364 -3.9999999e-05
0.0022097998 0.00026939393 0.00064400001
0.0013716 -0.00127 -0.001256
0.0012954 -0.00127 -0.001636
0.0027431999 -3.848485e-05 0.0023920001
-0.0032003999 0.00127 -0.00072399998
0.0026669998 0.00065424241 -0.002472
-0.0029717998 -0.00034636364 -3.9999999e-05
0.0036575999 -0.0008851515 -0.002168
-0.0024383999 0.00026939393 0.000112
0.0037337998 3.848485e-05 -0.0023960001
0.0021335999 -0.00127 -0.000268
-0.0025907999 0.00096212124 -0.0023960001
-0.0022097998 0.0008851515 -0.000116
0.0020573998 -0.00127 -0.00095199997
0.0001524 0.0011930303 -3.9999999e-05
-0.0026669998 -0.00034636364 -0.0056639998
-0.0012192 -0.00127 -0.000344
0.00091439998 0.00127 -0.001332
-7.6199998e-05 -0.00026939393 -0.0090079997
0.001143 0.00127 -0.00019200001
-0.0001524 -0.00034636364 -0.0063479999
0.0022859999 3.848485e-05 0.0023920001
0 -0.00080818182 -0.000268
0.00022859999 0.00034636364 -0.0087799998
0.001905 0.0008851515 -0.00019200001
0.0028193998 -3.848485e-05 -0.0057399999
-0.0022859999 -3.848485e-05 -0.005816
0.00091439998 0.00050030305 -0.000268
-0.00030479999 0.00019242424 -0.0082480004
0.0027431999 3.848485e-05 0.002544
-0.0001524 0.00042333335 -0.000116
0.0022859999 0.00034636364 -0.0043720002
-0.0031241998 -0.00050030305 -0.000268
-0.0010668 0.00065424241 -0.000268
-0.0025907999 0.00019242424 -0.0087799998
-0.00030479999 -3.848485e-05 0.00049200002
0.0022859999 3.848485e-05 0.002012
-0.0022859999 -0.00026939393 -0.0030799999
-0.0022859999 -0.00011545455 -0.0068040001
0.0014478 -0.00127 -0.0022440001
0.0010668 -0.00042333335 -0.000268
-0.0023621998 0.00019242424 -0.008932
0.00022859999 0.00026939393 0.000416
-0.0001524 -0.00019242424 -0.0090840003
0.0028193998 0.00011545455 0.001708
-0.0028193998 -3.848485e-05 -0.00422
-0.001905 -0.00050030305 -0.000268
7.6199998e-05 -0.00034636364 0.0021639999
0.0025145998 0.00026939393 0.0023920001
-0.0023621998 0.00127 -0.001028
0.0022859999 0.00034636364 -0.0058920002
0.0037337998 0.00073121215 -0.001256
-0.0035813998 -0.0011160607 -0.00079999998
-0.0028193998 -0.00019242424 -0.0069559999
-0.0029717998 -0.00080818182 -0.002472
-0.0028955999 0.00042333335 -3.9999999e-05
0.0001524 0.00034636364 0.00034
0.0026669998 0.00034636364 -0.002776
0.0022097998 0.00026939393 -0.0085519999
-0.0028955999 0.00127 -0.00049599999
0.00030479999 -0.00034636364 0.000948
-0.0038099999 0.00034636364 -0.00072399998
-0.0022859999 3.848485e-05 -0.0088560004
-0.0032765998 -0.0010390909 -3.9999999e-05
0.0022097998 0.00019242424 0.000264
0.0022859999 0.00127 -0.000268
0.0035051999 -0.0010390909 -0.00194
0.0019812 0.00127 -0.001788
-0.001905 -0.00019242424 -3.9999999e-05
0.0022859999 0.00034636364 0.000112
0.00022859999 0.00019242424 -0.0046000001
-0.0028193998 -3.848485e-05 -0.0085519999
0.001905 0.00127 -3.9999999e-05
-0.0012954 0.00127 -0.00118
-0.0022859999 -0.00127 -0.001408
0.0019812 -0.0011160607 -0.000116
-0.00099059998 0.00073121215 -0.000268
-0.0022859999 -0.00127 -0.0023960001
-0.00076199998 -0.00127 -0.000344
0.00091439998 0.00127 -0.00079999998
-0.0001524 0.00034636364 0.001252
-0.0022859999 -0.00034636364 -0.0072599999
-0.0020573998 -0.00127 -0.001636
0.0021335999 0.00057727273 -0.002472
-0.0038099999 0.00034636364 -0.00064799999
0.0036575999 -0.00096212124 -0.001104
-0.00091439998 -0.00127 -0.00079999998
-0.0021335999 -0.00127 -0.000116
0.00022859999 -0.00034636364 -0.0047519999
0.0031241998 0.00127 -0.00118
0.00038099999 -0.0010390909 -3.9999999e-05
-0.00022859999 0.00034636364 -0.0086279996
-0.0035813998 -0.0011160607 -0.00087599998
-0.00030479999 0.00019242424 -0.00422
0.0033527999 0.0011930303 -0.00156
0.0019812 -0.00127 -0.00072399998
0.0026669998 -0.0011930303 -0.00079999998
0.0028193998 0.00011545455 -0.0039920001
0.0027431999 -3.848485e-05 -0.00422
0.00076199998 -0.00057727273 -0.000268
-0.0025145998 0.00026939393 -0.0041439999
0.00030479999 3.848485e-05 -0.0030040001
-0.00022859999 -0.00034636364 -0.0029279999
0.00022859999 0.0011160607 -0.002472
0.0037337998 0.0008851515 -0.001408
-0.0021335999 -0.0011930303 -0.000116
-0.0013716 -0.00127 -0.001788
-0.00022859999 -0.00019242424 -0.0044479999
0.0022097998 0.00011545455 -0.0080199996
-0.0022859999 -0.00026939393 -0.0030040001
0.0022097998 -0.00057727273 -0.000268
0.00022859999 0.00127 -0.001332
0.0023621998 -0.00011545455 0.00072000001
-0.0012192 -0.00127 -0.000268
0.0027431999 -0.00011545455 -0.003308
-0.0026669998 -0.00019242424 -0.0090840003
0.0033527999 0.00065424241 -0.002472
-0.0023621998 -0.00026939393 0.001632
0.0023621998 -0.00011545455 0.001024
-0.00083819998 0.00026939393 -0.002472
0 3.848485e-05 -0.0093120001
0.0016002 0.0011160607 -0.002472
-0.0034289998 -0.00065424241 -0.002472
-0.0001524 -0.00127 -0.000268
-0.001143 0.0008851515 -0.00019200001
-0.0025145998 -0.00034636364 -0.0060439999
7.6199998e-05 -0.00127 -0.00095199997
-0.00030479999 0.00026939393 -0.0087799998
0.0026669998 0.00127 -0.00194
-0.0013716 -0.00127 -0.00042
-0.0037337998 0.00073121215 -0.001104
-0.0024383999 -0.00034636364 -0.0065000001
0.0028955999 -3.848485e-05 0.000112
-0.0025907999 0.00026939393 -0.0078680003
-0.00022859999 0.00127 -0.001332
-0.0027431999 3.848485e-05 -0.0047519999
0.0021335999 -0.00096212124 -0.000116
0.0023621998 -0.00011545455 -0.008932
0.0033527999 -0.00096212124 -0.0023960001
-0.0038099999 0.00057727273 -0.001484
0.00022859999 0.00065424241 -0.000268
0.0016764 0.00127 -0.002472
0.0032765998 0.00127 -0.00072399998
0.0022859999 3.848485e-05 -0.00422
0.0013716 0.00127 -0.001712
0.0022097998 0.00011545455 -0.0078680003
0.0037337998 0.00080818182 -0.001028
-0.0028193998 3.848485e-05 -0.0074880002
0.00038099999 0.00011545455 -3.9999999e-05
0.00060959999 0.00127 -0.001864
0.0022859999 0.00034636364 -0.0087040002
0.0026669998 -0.00011545455 -0.0065759998
0.00030479999 3.848485e-05 -0.0033839999
-0.0035051999 -0.00011545455 -3.9999999e-05
0.0017526 -0.00127 -0.00118
-0.0025145998 0.00026939393 0.001328
0.0037337998 0.00096212124 -0.002168
-7.6199998e-05 -0.00034636364 -0.0042960001
-0.0028193998 -0.00011545455 -0.0063479999
-0.0026669998 0.00026939393 0.00064400001
0.00022859999 -0.00034636364 -0.0055880002
-0.0038099999 0.00019242424 -0.001484
-0.0032765998 -0.00127 -0.00232
-0.0001524 0.00034636364 -0.0030799999
0.0030479999 -0.0011160607 -0.00194
-0.00060959999 0.0008851515 -3.9999999e-05
0.00030479999 0.00011545455 0.0023159999
-0.00022859999 -0.00026939393 -0.002624
-0.00083819998 0.00127 -0.00232
-7.6199998e-05 0.00034636364 -0.0083999997
-0.0025907999 -0.00127 -0.00118
-0.00022859999 0.00034636364 -0.0028520001
-0.0022097998 0.0008851515 -0.002472
-0.00099059998 0.00127 -0.00095199997
-0.0025145998 -0.00127 -0.00057199999
0.0037337998 0.0010390909 -0.0022440001
0.0028193998 0.00019242424 -0.0068799998
0.00022859999 0.00026939393 -0.00346
0.00030479999 -0.00026939393 -0.004524
-0.0026669998 0.00127 -0.00156
-0.0025145998 -0.00034636364 0.0023159999
0.0012192 0.00127 -0.00049599999
-0.0038099999 0.00065424241 -0.001256
-0.00030479999 -0.00011545455 0.00072000001
0.0024383999 0.00127 -0.001484
0.0019812 0.00127 -0.00042
0 0.00034636364 -0.0077160001
-0.0027431999 0.00011545455 -0.0038399999
-0.00053339999 0.0008851515 -0.000116
-0.0038099999 3.848485e-05 -0.0023960001
0.0037337998 0.00073121215 -0.001484
-0.0035813998 0.0010390909 -0.00049599999
-0.0022859999 -3.848485e-05 -0.007032
-0.001524 0.00057727273 -0.000268
0.0026669998 0.00034636364 0.000416
-0.0019812 -0.00057727273 -0.002472
-0.00022859999 -0.00026939393 -0.0032319999
0.0023621998 0.00034636364 -0.0052080001
-0.0023621998 0.00026939393 0.001556
0.0026669998 -0.00042333335 -0.002472
0.0037337998 0.00065424241 -0.002472
-0.00022859999 3.848485e-05 -0.0091599999
-0.0022859999 -0.00034636364 -0.0028520001
0 0.00034636364 -0.004828
-0.00068579998 -0.00011545455 -3.9999999e-05
0.001905 0.0008851515 -0.002472
0.0026669998 -0.00011545455 -0.0084760003
0.0038099999 0.00065424241 -0.001104
0.0024383999 -0.00042333335 -0.000116
0.0038099999 3.848485e-05 -0.00049599999
0.0024383999 3.848485e-05 -0.0091599999
0.0036575999 -0.00057727273 -0.0023960001
-0.0023621998 -0.00019242424 -0.0090840003
0.0025145998 -0.00019242424 -0.0085519999
-0.0022859999 -0.00011545455 -0.0043720002
-0.00030479999 -0.00127 -0.002168
0.0032765998 0.00065424241 -0.002472
-0.0001524 0.00034636364 -0.0071080001
-0.0038099999 -0.00065424241 -0.002168
0.0038099999 0.00019242424 -0.00064799999
0.0022097998 0.00019242424 -0.0050559998
-0.00099059998 0.0008851515 -0.000116
0.0034289998 0.0011160607 -3.9999999e-05
-0.0038099999 -0.00026939393 -0.00232
0.0038099999 0.00011545455 -0.002168
-0.0038099999 -0.00019242424 -0.000116
-0.0019812 -0.00127 -0.001028
-0.00030479999 0.00011545455 0.001328
-0.0016764 0.00019242424 -3.9999999e-05
0.0037337998 0.00080818182 -0.001104
-0.0023621998 0.00019242424 0.001024
0.0016764 -0.00127 -0.00042
-0.0023621998 -0.00034636364 0.002012
-0.0028955999 0.0011930303 -0.00019200001
-0.0014478 0.00042333335 -0.000116
-0.00099059998 0.00073121215 -0.002472
0 -0.00034636364 -0.0057399999
0.0025145998 -0.00026939393 -0.0027000001
-0.0025907999 0.00019242424 -0.004524
-0.00068579998 0.00042333335 -0.000116
-0.0001524 0.00127 -0.001028
0.0016002 -0.00050030305 -0.002472
0.00022859999 0.00019242424 -0.0071080001
-0.0023621998 0.00011545455 0.00064400001
-0.0022859999 -0.00011545455 -0.0069559999
-0.0028193998 0.00011545455 -0.0085519999
0.0028193998 0.00011545455 -0.00422
0.0014478 0.0010390909 -3.9999999e-05
0.0038099999 -0.00011545455 -0.001408
-0.00060959999 -0.0011930303 -0.002472
0.0019812 0.0008851515 -0.002472
-0.0022859999 -0.00034636364 -0.00764
0.0025907999 0.00034636364 -0.003308
-0.0033527999 0.0011160607 -0.00019200001
-0.00030479999 0.00019242424 -0.0077920002
0.00030479999 3.848485e-05 -0.007944
-0.0032003999 -0.00019242424 -0.002472
-0.00030479999 0.00034636364 0.00056800002
-0.0022859999 -3.848485e-05 -0.0080199996
0.0022097998 -0.0008851515 -0.002472
-0.0037337998 0.00026939393 -0.002472
-0.00083819998 0.00042333335 -0.002472
0.0023621998 3.848485e-05 -0.0090840003
0.0031241998 -0.0011160607 -0.00072399998
0.001143 -0.00011545455 -3.9999999e-05
-0.00076199998 -0.0008851515 -0.00019200001
-0.0018288 -0.00073121215 -0.00019200001
-0.0025907999 0.00026939393 -0.003612
-0.0025907999 0.00019242424 0.0026199999
-0.0019812 0.00042333335 -0.00019200001
0.0022097998 0.00019242424 -0.006728
0.0026669998 0.00034636364 0.000264
-0.00091439998 -0.00042333335 -0.000116
-0.0038099999 0.00019242424 -0.001408
0.0022859999 0.00034636364 -0.0083240001
-0.00022859999 0.00034636364 -0.0078680003
-0.0023621998 -0.00127 -0.001712
7.6199998e-05 0.00026939393 0.0023920001
0 -0.00034636364 3.6000001e-05
-0.00022859999 0.00096212124 -3.9999999e-05
0.0025145998 0.00034636364 0.002012
0.0013716 0.00050030305 -0.002472
-0.00030479999 0.00034636364 0.0011
0.0001524 0.00034636364 -0.004828
-0.00030479999 0.00011545455 -0.00422
0.001524 -0.00042333335 -0.002472
-0.0025907999 0.00019242424 -0.0071840002
-0.0027431999 0.00019242424 -0.0077920002
-0.0033527999 0.00042333335 -0.00019200001
-0.00022859999 0.00127 -0.000268
-7.6199998e-05 -0.00127 -0.00232
-0.0027431999 -0.00096212124 -0.002472
0.0038099999 -0.00019242424 -0.00194
-0.001905 0.00127 -0.00095199997
-0.0038099999 0.00034636364 -0.000268
0.0037337998 0.0010390909 -0.001788
0.0024383999 -0.00011545455 0.002544
0.00083819998 0.00065424241 -0.000268
-0.001143 0.00096212124 -3.9999999e-05
0.0038099999 -0.00019242424 -0.001256
-0.00030479999 0.00034636364 -0.0080199996
0.0012954 0.00042333335 -3.9999999e-05
-0.0028193998 -3.848485e-05 -0.0033839999
0.0018288 -0.00034636364 -3.9999999e-05
-0.0013716 -0.00026939393 -0.002472
0.0023621998 -0.00011545455 -0.0057399999
-0.0035051999 -0.00057727273 -0.000268
-0.00022859999 -0.00127 -0.00049599999
-0.00022859999 0.00034636364 -0.0068799998
-7.6199998e-05 0.00034636364 -0.0081719998
-0.0022859999 -3.848485e-05 -0.0032319999
0.0017526 -0.00096212124 -3.9999999e-05
0.00091439998 0.00096212124 -0.002472
-0.0028955999 0.00096212124 -0.0023960001
0.0022097998 0.00026939393 -0.0056639998
-0.00030479999 0.00026939393 0.00079600001
-0.0027431999 3.848485e-05 -0.003308
0.0031241998 0.00019242424 -0.002472
-0.0024383999 -0.00019242424 0.002544
-0.0001524 0.00127 -0.00049599999
-0.0022859999 -0.00019242424 -0.0071080001
-0.0035813998 -0.0011160607 -0.000268
0.0037337998 0.0010390909 -0.00232
-0.00030479999 0.00011545455 -0.0068799998
0 0.0011160607 -0.002472
-0.0025145998 0.00026939393 0.00072000001
0.0027431999 -0.00011545455 0.000416
-0.00076199998 0.00019242424 -0.002472
0.0023621998 0.00034636364 -0.0074880002
-0.00038099999 0.0011930303 -3.9999999e-05
-0.0025907999 0.00026939393 -0.0080199996
0.00030479999 -3.848485e-05 -0.00764
0.0033527999 -0.0008851515 -0.0023960001
-0.0026669998 0.00026939393 -0.0053599998
-0.0025907999 -0.00127 -0.001864
-0.00060959999 -0.00127 -0.001864
0.0022097998 0.00019242424 3.6000001e-05
0.0021335999 0.00127 -0.001104
-0.0032003999 -0.00127 -0.000344
0.00076199998 -0.00127 -0.002016
-0.00022859999 -0.00019242424 -0.0074880002
-0.0029717998 -0.00127 -0.001256
0.0025907999 -0.00019242424 -0.0074880002
-0.0024383999 0.00019242424 -0.0035359999
-0.0025907999 0.00019242424 -0.00346
-7.6199998e-05 0.00034636364 0.001024
-0.0014478 -0.00127 -0.002016
-0.0012954 0.0008851515 -0.00019200001
-0.00030479999 3.848485e-05 -0.003916
0.0025145998 0.0011930303 -0.002472
-0.0022097998 0.00096212124 -0.000116
0.00030479999 -3.848485e-05 0.001404
0.0023621998 -0.00026939393 0.001708
-0.00045719999 0.00127 -0.00232
-0.0018288 0.0008851515 -0.002472
-0.0014478 -0.00127 -0.00072399998
0.0024383999 0.00034636364 0.00018800001
-0.00053339999 -0.00127 -0.0023960001
-0.0037337998 0.00080818182 -0.00194
0.0037337998 0.00096212124 -0.001028
-0.0022097998 -0.00127 -0.00232
-0.00022859999 -0.0010390909 -3.9999999e-05
0.0022097998 0.00011545455 -0.0066519999
-0.0027431999 3.848485e-05 -0.0061960001
-0.00053339999 0.00127 -0.00042
0.00030479999 -3.848485e-05 0.000872
0.0010668 0.00019242424 -3.9999999e-05
0.0025907999 -0.00019242424 -0.0032319999
0.0027431999 0.00026939393 0.000872
-0.0038099999 0.00026939393 -0.00079999998
0.0037337998 -0.00080818182 -0.001028
0.0022859999 -3.848485e-05 0.001632
-0.00030479999 -3.848485e-05 0.002012
0.00030479999 0.00127 -0.001636
-0.00022859999 -0.00026939393 -0.007336
-0.0001524 -0.00034636364 -0.0029279999
0.0022097998 0.00127 -0.00072399998
-0.00091439998 -0.00127 -0.001864
0.00030479999 -0.00026939393 -0.0055120001
-7.6199998e-05 -0.00096212124 -3.9999999e-05
0.0022097998 0.00011545455 -0.0042960001
-0.00038099999 0.0008851515 -0.002472
7.6199998e-05 -0.00034636364 -0.0039920001
0.0028193998 0.00042333335 -0.000116
-0.00076199998 0.00096212124 -3.9999999e-05
-0.00030479999 0.00019242424 -0.0084760003
0.0012954 0.00127 -0.00064799999
-0.0022859999 -0.00019242424 -0.0028520001
0.0037337998 0.0008851515 -0.00156
-0.0020573998 0.00019242424 -3.9999999e-05
7.6199998e-05 0.00042333335 -0.00019200001
-0.0010668 0.00127 -0.000116
-0.0027431999 -0.00026939393 -0.0036879999
0.00022859999 0.00026939393 -0.007944
-0.0028955999 -0.00127 -0.00194
-0.0023621998 0.00026939393 -0.0053599998
0.0014478 -0.0008851515 -0.002472
-0.0038099999 0.00026939393 -3.9999999e-05
-0.0022859999 -0.00057727273 -0.002472
-0.0001524 -0.00034636364 -0.0083240001
0.0028193998 0.00034636364 -0.002472
-0.0001524 -0.00034636364 -0.00422
0.0028193998 0.00019242424 -0.007944
7.6199998e-05 -0.00042333335 -0.0030799999
-0.0037337998 -0.0008851515 -0.001104
0.0038099999 -3.848485e-05 -0.001408
0.00076199998 -3.848485e-05 -3.9999999e-05
0.0038099999 0.00026939393 -0.0020920001
0.0024383999 -0.00011545455 -0.0077920002
-0.00022859999 -0.00034636364 -0.0071080001
0.0025145998 -0.00026939393 -0.0040679998
0.0022859999 -3.848485e-05 0.001176
-0.0031241998 -0.0011930303 -0.00019200001
-7.6199998e-05 -0.00073121215 -0.000268
-0.0022859999 -0.00034636364 -0.0052840002
-0.00083819998 0.00042333335 -0.000116
-0.0014478 -0.00042333335 -0.000116
0.0025907999 -0.00019242424 0.001024
-0.0012192 0.00127 -0.000344
7.6199998e-05 0.00034636364 0.001176
0.00038099999 0.00127 -0.00079999998
0.00030479999 0.00042333335 -0.00019200001
0.00030479999 -0.00026939393 0.001556
-0.0016002 0.00073121215 -0.002472
0.0028955999 -3.848485e-05 3.6000001e-05
0.00022859999 0.00026939393 -0.003612
-0.0021335999 0.00127 -0.001104
-0.001905 0.00011545455 -0.002472
0.0001524 0.00034636364 -0.0036879999
0.00030479999 0.00011545455 -0.0032319999
-0.00030479999 0.00011545455 -0.0047519999
0 0.00019242424 0.002544
-7.6199998e-05 0.00034636364 0.002012
0.0016002 3.848485e-05 -0.002472
0.00099059998 -0.00127 -0.001408
-0.0034289998 -0.00073121215 -0.00019200001
0.0038099999 0.00026939393 -0.001712
-0.0030479999 0.00127 -0.00057199999
0.0023621998 -0.00011545455 -0.0032319999
-0.0001524 0.0010390909 -0.002472
-0.0038099999 -0.00011545455 -0.00156
-0.00060959999 0.00042333335 -0.00019200001
0.00060959999 0.00127 -0.00118
0.00030479999 -3.848485e-05 -0.007944
0.00030479999 -0.00034636364 -0.0047519999
-0.0025907999 -0.00034636364 -0.0085519999
0.0038099999 -0.00011545455 -0.000268
0.0019812 -0.0008851515 -0.002472
0.0014478 0.00127 -0.00042
-0.0038099999 0.00026939393 -0.00072399998
0.0023621998 0.00034636364 -0.007944
-0.001143 0.00127 -0.00072399998
0.0023621998 -0.00011545455 -0.004524
-0.0017526 -0.00127 -0.00019200001
0.00099059998 0.00019242424 -3.9999999e-05
0.00076199998 -0.00127 -0.001104
-0.0023621998 0.00127 -0.00095199997
-0.0022859999 -0.00034636364 -0.005132
0.0023621998 0.00034636364 -0.0040679998
0.00030479999 -0.00034636364 -0.0030799999
7.6199998e-05 0.00034636364 -0.0071840002
0.0033527999 0.0011930303 -0.00095199997
0.0032003999 -0.0010390909 -0.002168
0.00030479999 3.848485e-05 -0.0028520001
0.0022097998 0.00011545455 -0.0055880002
-0.00099059998 0.00026939393 -0.002472
0.0025145998 0.00127 -0.00232
0.0014478 0.00127 -0.001332
0.00045719999 0.00065424241 -0.000268
0.00038099999 -0.00127 -0.001864
-0.0028193998 -0.00019242424 -0.0028520001
0.0025145998 -0.00026939393 0.00018800001
-0.0027431999 -0.00026939393 0.000264
0.0038099999 0.00011545455 -0.00232
0.0035813998 0.00042333335 -3.9999999e-05
0.0038099999 0.00042333335 -0.00095199997
-0.00030479999 0.00011545455 -0.00612
-0.0016002 -3.848485e-05 -3.9999999e-05
-0.0025145998 0.0010390909 -0.0023960001
0.0024383999 0.00127 -0.000344
0.0025145998 0.00034636364 -0.003156
-0.0026669998 -0.00034636364 -0.0080960002
-0.0010668 0.00127 -0.000268
0.0032765998 0.00127 -0.00049599999
0.0029717998 -0.0011160607 -0.001712
0.0037337998 0.0010390909 -0.0023960001
0.0035813998 -0.0010390909 -0.001408
0.0038099999 0.00026939393 -0.00194
-0.00030479999 0.00026939393 -0.0066519999
-0.0034289998 -0.0011930303 -0.002472
0.0035051999 -0.00042333335 -0.002472
-0.0016002 0.00057727273 -0.002472
0.0037337998 0.00096212124 -0.002016
-0.0036575999 0.00073121215 -0.00232
-0.0025145998 3.848485e-05 -0.008932
0.0021335999 -0.00096212124 -0.0023960001
0.0001524 -0.00127 -0.00079999998
-0.00022859999 0.00034636364 -0.0036879999
0.0001524 0.00034636364 0.001784
-0.0001524 0.0008851515 -0.000116
0.00022859999 -0.00127 -0.000116
0.0001524 -0.00034636364 -0.006728
-0.00030479999 0.00019242424 0.001556
-0.00022859999 0.00034636364 -0.0033839999
0.0038099999 -0.00050030305 -0.00049599999
-0.0038099999 -3.848485e-05 -0.00156
-0.0035051999 -0.0011930303 -0.00072399998
0.0012954 0.00011545455 -0.002472
0.0001524 0.00034636364 0.00072000001
0.0025145998 -0.00026939393 0.001936
-0.0025907999 0.00026939393 -0.003308
-0.0022859999 -0.00019242424 -0.0035359999
0.00022859999 -0.00034636364 -0.00422
0.0024383999 -0.00026939393 -0.0053599998
0.0038099999 0.00042333335 -0.002016
-0.0037337998 -0.0010390909 -0.001408
0.0027431999 -0.0011160607 -0.00042
-0.0025907999 0.00127 -0.001104
-0.0024383999 0.00026939393 -0.0077160001
0.0024383999 -0.00011545455 -0.0074120001
0.0029717998 -0.0011160607 -0.00057199999
0.0024383999 -0.00073121215 -0.002472
7.6199998e-05 0.00034636364 0.00148
0.0012954 0.00127 -0.00042
-0.0038099999 -0.00057727273 -0.00194
0.001524 -0.00127 -0.00064799999
-0.00022859999 -0.00127 -0.000344
-0.0026669998 -0.00034636364 -0.003764
-0.0028955999 0.00065424241 -0.002472
0.0025145998 -0.00019242424 -0.0043720002
-0.00030479999 -0.00011545455 -0.0036879999
-0.0014478 -0.00127 -0.001028
-0.00030479999 0.00019242424 -0.007944
-0.0038099999 0.00011545455 -0.002168
0.0017526 -3.848485e-05 -0.002472
0.00053339999 -0.00026939393 -3.9999999e-05
0 -0.00034636364 -0.0055880002
0.0016002 -0.00127 -0.000116
-0.00030479999 3.848485e-05 0.001252
0.0024383999 -0.00011545455 -0.00764
0.00030479999 0.00011545455 -0.0035359999
-0.0014478 0.00011545455 -0.002472
-0.0035051999 -0.0011160607 -3.9999999e-05
-0.00060959999 -0.00127 -0.00057199999
-0.00076199998 -0.00127 -0.001712
-0.0019812 -0.00011545455 -0.002472
-0.0038099999 0.00011545455 -0.001332
-0.0025907999 3.848485e-05 0.002696
-0.0001524 0.00019242424 0.0026199999
-0.0018288 -0.00127 -0.00064799999
-0.0001524 0.00034636364 -0.0055880002
0.0026669998 0.00034636364 -0.005816
-7.6199998e-05 0.00034636364 0.00056800002
-0.00068579998 0.00127 -0.001028
0.0030479999 0.00127 -0.001636
0.0020573998 -0.00026939393 -0.002472
0.00076199998 0.00057727273 -0.002472
-0.00030479999 0.00011545455 -0.0044479999
0 -3.848485e-05 -0.0093120001
-0.0028193998 -3.848485e-05 -0.0027000001
0.0028955999 -0.0011160607 -0.00118
-0.001524 -0.0008851515 -0.002472
-0.0034289998 0.0011930303 -0.001028
-7.6199998e-05 0.00127 -0.002016
-0.0027431999 0.00011545455 -0.0086279996
0.0030479999 -3.848485e-05 -3.9999999e-05
-0.001143 -0.00127 -0.00057199999
-0.0022859999 -0.00011545455 0.00148
0.00030479999 0.00127 -0.002168
-0.00053339999 0.00042333335 -0.00019200001
-0.00030479999 0.0011160607 -0.002472
0.0013716 -0.0011160607 -0.0023960001
-0.00022859999 3.848485e-05 0.0026199999
0.00022859999 0.00034636364 -0.0063479999
0.001143 -0.0010390909 -3.9999999e-05
-0.00030479999 -0.00011545455 0.000416
-0.0022859999 3.848485e-05 -0.0060439999
0.00030479999 -0.00026939393 -0.0047519999
7.6199998e-05 -0.00034636364 -0.0066519999
-0.00022859999 -0.00019242424 -0.0087799998
-0.00038099999 0.00073121215 -0.002472
0.0012954 0.00026939393 -3.9999999e-05
0.0028193998 0.00127 -0.00072399998
0.00068579998 0.00096212124 -3.9999999e-05
0.0028193998 -3.848485e-05 -0.0049800002
-0.00022859999 0.00127 -0.001788
-0.0022859999 -0.00011545455 -0.0044479999
0.0026669998 -0.00011545455 0.002544
-0.00022859999 0.00034636364 0.000872
-0.001143 -0.00080818182 -0.000268
-0.0024383999 3.848485e-05 0.002696
0.00030479999 -0.00034636364 -0.0044479999
-0.0025907999 -0.00034636364 -0.006728
-0.0023621998 0.00026939393 -0.007336
0.0038099999 -0.00026939393 -0.0023960001
-0.0031241998 0.0011160607 -0.00019200001
-0.0025145998 -0.00034636364 0.000264
0.0038099999 -0.00011545455 -0.001104
0.0016764 -0.00034636364 -0.000116
0.0026669998 0.00127 -0.001408
-0.0035813998 -0.0011160607 -0.002016
0.0001524 0.00034636364 -0.003308
7.6199998e-05 -0.00034636364 0.0024679999
0.0037337998 0.0008851515 -0.002016
0.0036575999 -0.0008851515 -0.00194
-0.0021335999 -0.00011545455 -0.002472
0.0028193998 3.848485e-05 -0.0046000001
-0.0023621998 0.00011545455 0.001252
-0.0022859999 -0.00026939393 -0.0071840002
0.00030479999 -0.00019242424 -0.0039920001
-0.0036575999 0.00050030305 -0.000268
0.0010668 -0.00127 -0.0020920001
-0.0025145998 -0.00127 -0.001864
-0.0001524 0.00042333335 -0.002624
-0.0038099999 0.00042333335 -0.00064799999
-0.0027431999 0.00011545455 -0.0063479999
-0.0016002 0.0011160607 -0.000116
0.00083819998 0.00042333335 -3.9999999e-05
-0.001143 0.00127 -0.000344
-0.0016002 -0.0010390909 -0.000116
-0.0027431999 0.00019242424 -0.0068040001
-0.00030479999 0.00011545455 -0.0032319999
-0.0027431999 0.00011545455 -0.0055120001
-0.00030479999 0.00019242424 -0.0032319999
-0.0028193998 -0.00127 -0.001332
-0.0022859999 -3.848485e-05 -0.0068040001
0.0014478 -0.00073121215 -0.002472
-0.0001524 -0.00034636364 -0.0046000001
-0.0013716 0.00127 -0.00232
0.0024383999 0.00034636364 -0.0049040001
-0.0035051999 -0.0011930303 -0.0023960001
-0.00053339999 -0.00011545455 -0.002472
-0.00022859999 -0.00034636364 0.00079600001
-0.0022859999 3.848485e-05 -0.002776
-0.00068579998 -0.00065424241 -0.002472
-0.0022859999 -0.00026939393 -0.0044479999
0.00022859999 0.00042333335 -0.00019200001
0.0028193998 -3.848485e-05 -0.0071840002
0.00076199998 0.00042333335 -0.000116
0.0032003999 0.0010390909 -0.002472
0.0026669998 0.00034636364 -0.0075639999
-0.00022859999 0.00034636364 -0.0052840002
0.0025907999 0.00034636364 -0.0080960002
-0.0018288 0.00127 -0.00156
0.0032765998 0.00127 -0.000268
-0.0032003999 0.00127 -0.00049599999
0.0033527999 -0.00019242424 -0.00019200001
0.00060959999 -0.00127 -0.0020920001
-0.0029717998 0.00127 -0.001028
0.00030479999 -0.00019242424 -0.0088560004
-0.00068579998 -0.00127 -0.00057199999
-0.0017526 0.00127 -0.00232
