# .PCD v0.7 - Point Cloud Data file format
VERSION 0.7
FIELDS x y z
SIZE 4 4 4
TYPE F F F
COUNT 1 1 1
WIDTH 1215
HEIGHT 1
VIEWPOINT 0 0 0 1 0 0 0
POINTS 1215
DATA ascii
-0.011788446 -0.0013432693 -0.010641099
0.0048225462 -0.0029551925 -0.02134
-0.010716769 0.0080596153 -0.019467693
0.0099130115 0.0094028851 -0.001547033
0.0053583845 -0.010746154 -0.0066290111
-0.0066979807 -0.0099401921 -0.013583297
1.7347235e-18 0.0075223078 -0.02134
-0.0085734157 -0.0029551925 -0.02134
-0.0034829499 -0.011283462 -0.0055591208
0.0066979807 0.0096715391 -0.006094066
-0.0024112731 0.01182077 -0.017595384
0.0096450923 0.0069850003 -0.0085013192
0.0083054965 -0.0085969232 -0.014653187
-0.001071677 -0.0026865385 -0.00020967035
0.00080375769 0.0088655772 -0.00020967035
-0.0040187882 0.0059103849 -0.02134
-0.0016075154 -0.01182077 -0.018397802
-0.007233819 -0.0048357695 -0.00020967035
0.0058942232 -0.0048357695 -0.00020967035
0.0013395961 0.0010746154 -0.00020967035
-0.013663881 0.0010746154 -0.0012795605
0.0099130115 0.0067163464 -0.0058265934
0.012860123 -0.0034925002 -0.00020967035
-0.0021433539 0.011552116 -0.014653187
1.7347235e-18 -0.0085969232 -0.02134
0.01044885 -0.005373077 -0.021072527
0.0056263036 0.0104775 -0.0042217583
0.013128042 -0.0026865385 -0.0018145056
0.0075017386 -0.0094028851 -0.007698901
0.009109254 -0.0075223078 -0.014118242
-0.0026791922 0.0061790384 -0.00020967035
-0.00053583848 0.0040298076 -0.02134
0.0061621424 0.010208846 -0.0063615385
-0.0013395961 -0.01182077 -0.0063615385
0.00026791924 0.0059103849 -0.02134
-0.0093771731 0.0099401921 -0.001547033
1.7347235e-18 -0.013432693 -0.020805055
-0.0075017386 0.0091342311 -0.010373627
-0.0048225462 -0.011014808 -0.0082338462
0.0099130115 0.0067163464 -0.011978461
-0.0085734157 0.0083282692 -0.021072527
-0.0099130115 0.0094028851 -0.001547033
0.0061621424 -0.010208846 -0.00020967035
0.00080375769 0.01182077 -0.0063615385
-0.011788446 -0.0016119231 -0.0028843957
0.0029471116 -0.0029551925 -0.00020967035
0.0026791922 0.011552116 -0.01706044
-0.010984688 0.0040298076 -0.0082338462
0.0066979807 0.0085969232 -0.021072527
-0.0042867078 0.0040298076 -0.02134
-0.0034829499 0.00026865385 -0.02134
-0.0026791922 -0.011552116 -0.0085013192
0.0069658998 -0.0016119231 -0.02134
-0.001071677 -0.0042984616 -0.02134
-0.0088413348 -0.010208846 -0.019467693
-0.0058942232 -0.01182077 -0.019467693
-0.0042867078 0.011283462 -0.0042217583
0.0018754347 0.013701347 -0.019735165
-0.0075017386 -0.005641731 -0.00020967035
-0.013663881 0.0013432693 -0.020270109
0.0083054965 -0.0080596153 -0.00020967035
0.00053583848 -0.01182077 -0.010908572
-0.011252607 -0.0037611539 -0.010373627
-0.013663881 -0.001880577 -0.0018145056
-0.0093771731 0.0064476924 -0.00020967035
0.010716769 0.005104423 -0.0052916482
-0.013395961 -0.0005373077 -0.00020967035
-0.012056366 0.0032238462 -0.00020967035
0.011520527 -0.005104423 -0.021072527
0.0018754347 0.011552116 -0.021072527
0.010984688 -0.0040298076 -0.011176044
-0.0032150308 -0.012089423 -0.021072527
0.0083054965 -0.0032238462 -0.02134
0.0096450923 0.0067163464 -0.0087687913
0.0040187882 0.0069850003 -0.00020967035
0.0024112731 0.013432693 -0.00020967035
-0.0029471116 -0.01182077 -0.00020967035
0.0096450923 -0.0072536538 -0.0093037365
0.0058942232 0.0005373077 -0.02134
-0.00080375769 -0.012626731 -0.019467693
-0.0034829499 0.012626731 -0.0018145056
-0.010180931 0.0040298076 -0.021072527
-0.0085734157 0.010746154 -0.0018145056
-0.0053583845 -0.0085969232 -0.00020967035
-0.009109254 0.005641731 -0.00020967035
-0.0080375765 0.010746154 -0.019735165
-0.007233819 -0.0075223078 -0.021072527
0.0018754347 0.011552116 -0.0071639563
0.0075017386 -0.0037611539 -0.00020967035
-0.012592204 0.005641731 -0.00074461539
-0.007233819 0.0029551925 -0.02134
-0.011788446 -0.0005373077 -0.0068964837
0.0029471116 0.0016119231 -0.00020967035
0.010984688 -0.0045671156 -0.013850769
0.0066979807 0.0096715391 -0.00020967035
-0.011520527 -0.0026865385 -0.014653187
0.001071677 -0.01182077 -0.019200221
0.0013395961 0.0064476924 -0.02134
0.010716769 0.001880577 -0.00020967035
-0.0021433539 0.005373077 -0.02134
-0.0075017386 -0.0104775 -0.00020967035
-0.0056263036 0.0104775 -0.015188132
0.0083054965 -0.0085969232 -0.0074314289
0.0026791922 0.011552116 -0.0055591208
0.0018754347 -0.011552116 -0.0028843957
0.0069658998 0.01182077 -0.001547033
0.0058942232 -0.0077909618 -0.021072527
-0.0088413348 0.0080596153 -0.0052916482
-0.011788446 0.0048357695 -0.0018145056
-0.0037508693 -0.012626731 -0.00020967035
-0.0088413348 -0.0080596153 -0.00020967035
0.01044885 0.005641731 -0.0055591208
0.0093771731 0.0075223078 -0.0090362635
0.0083054965 0.00026865385 -0.02134
-0.013128042 0.0034925002 -0.019735165
0.0077696578 -0.0091342311 -0.01706044
-0.0085734157 -0.00026865385 -0.00020967035
1.7347235e-18 -0.010746154 -0.00020967035
0.0083054965 0.0085969232 -0.01599055
0.004554627 -0.012895385 -0.00020967035
0.0029471116 -0.012089423 -0.0020819781
-0.0037508693 0.001880577 -0.00020967035
-0.0096450923 0.0096715391 -0.0010120879
0.001071677 -0.01182077 -0.0055591208
0.0037508693 -0.012626731 -0.019735165
-0.0016075154 0.012358077 -0.00020967035
-0.0050904653 -0.0077909618 -0.00020967035
-0.0096450923 0.0096715391 -0.00074461539
0.0056263036 -0.011014808 -0.00020967035
-0.0058942232 0.01182077 -0.021072527
-0.011252607 0.0037611539 -0.010641099
-0.0040187882 0.012089423 -0.019467693
-0.0077696578 0.0088655772 -0.0047567035
-0.0064300615 -0.011552116 -0.021072527
-0.0016075154 -0.01182077 -0.013048352
0.001071677 0.0096715391 -0.02134
0.010716769 0.005104423 -0.0058265934
-0.0083054965 0.0061790384 -0.021072527
0.0064300615 -0.0032238462 -0.00020967035
0.011520527 -0.0034925002 -0.017595384
0.011252607 0.0021492308 -0.021072527
0.001071677 -0.0085969232 -0.02134
-0.0075017386 0.0094028851 -0.021072527
0.0066979807 0.0096715391 -0.007966374
0.0083054965 0.011014808 -0.0012795605
-0.0096450923 0.0096715391 -0.020537583
-0.0013395961 0.01182077 -0.0052916482
-0.01044885 0.0088655772 -0.00074461539
0.0018754347 -0.0010746154 -0.02134
-0.0042867078 -0.012895385 -0.019735165
0.0077696578 0.0091342311 -0.0039542858
-0.01044885 -0.0032238462 -0.00020967035
0.0083054965 -0.0083282692 -0.00020967035
0.011520527 -0.0029551925 -0.013048352
-0.011520527 -0.0021492308 -0.016525494
0.010180931 -0.0005373077 -0.00020967035
-0.0016075154 -0.01182077 -0.021072527
-0.010984688 0.0048357695 -0.021072527
0.010180931 0.0061790384 -0.010373627
0.00026791924 0.012358077 -0.021072527
0.011252607 0.0045671156 -0.00020967035
0.010180931 0.0061790384 -0.0058265934
-0.0088413348 -0.0080596153 -0.016258022
-0.009109254 0.0075223078 -0.01706044
0.0088413348 -0.0091342311 -0.021072527
-0.0026791922 0.0045671156 -0.00020967035
-0.0064300615 0.011283462 -0.021072527
-0.010716769 -0.005373077 -0.0085013192
-0.0069658998 -0.0045671156 -0.00020967035
0.012056366 0.0013432693 -0.00020967035
0.00080375769 -0.01182077 -0.0028843957
0.00053583848 -0.0010746154 -0.02134
-0.0064300615 -0.0099401921 -0.012245934
0.0050904653 0.010746154 -0.012245934
-0.0040187882 -0.0045671156 -0.02134
0.0093771731 -0.0072536538 -0.014653187
0.00080375769 0.0094028851 -0.00020967035
0.011788446 -0.0010746154 -0.013583297
0.010716769 -0.0005373077 -0.021072527
0.011252607 0.0037611539 -0.007698901
-0.0077696578 -0.0026865385 -0.02134
-0.011788446 0.0026865385 -0.0058265934
0.0034829499 -0.011014808 -0.021072527
0.0016075154 0.01182077 -0.015723078
-0.001071677 0.01182077 -0.0074314289
-0.0058942232 0.011283462 -0.0018145056
0.0050904653 0.010746154 -0.0047567035
1.7347235e-18 -0.012358077 -0.0020819781
0.011520527 0.0029551925 -0.0055591208
-0.0064300615 -0.010208846 -0.0034193408
0.0080375765 -0.0088655772 -0.013048352
-0.0037508693 -0.012895385 -0.00020967035
0.0032150308 -0.0077909618 -0.02134
-0.004554627 -0.011014808 -0.018397802
0.0018754347 -0.0075223078 -0.02134
0.0066979807 -0.0096715391 -0.013850769
-0.0085734157 -0.010208846 -0.00020967035
0.0053583845 0.0096715391 -0.00020967035
0.0085734157 -0.0075223078 -0.00020967035
0.0040187882 -0.011283462 -0.017595384
0.011520527 -0.0034925002 -0.0093037365
-0.004554627 0.0026865385 -0.00020967035
-0.00026791924 0.01182077 -0.016792968
-0.013395961 -0.00026865385 -0.020537583
0.0066979807 0.00080596155 -0.00020967035
-0.011788446 -0.0010746154 -0.01706044
-0.012860123 -0.005104423 -0.020002637
-0.0042867078 -0.0085969232 -0.02134
-0.0058942232 0.0099401921 -0.021072527
-0.01044885 -0.005641731 -0.006094066
-0.011520527 0.0021492308 -0.011443516
-0.0026791922 0.013432693 -0.00020967035
0.011788446 -0.0024178848 -0.0082338462
-0.0083054965 -0.0104775 -0.00020967035
0.012056366 -0.00026865385 -0.017595384
-0.007233819 -0.0094028851 -0.01813033
0.0013395961 0.01182077 -0.015723078
-0.011252607 0.0040298076 -0.010641099
-0.0013395961 0.0099401921 -0.021072527
-0.013663881 -0.0005373077 -0.0012795605
-0.001071677 -0.0021492308 -0.00020967035
0.011788446 -0.0026865385 -0.0031518682
-0.001071677 -0.0048357695 -0.02134
-0.011788446 0.00080596155 -0.014118242
-0.0077696578 -0.010746154 -0.00020967035
-0.0018754347 0.0091342311 -0.00020967035
-0.0058942232 -0.0069850003 -0.00020967035
0.0021433539 0.013432693 -0.00020967035
0.0099130115 0.0064476924 -0.016525494
0.0085734157 0.0042984616 -0.02134
0.0053583845 0.012626731 -0.020537583
0.010716769 0.00026865385 5.7802175e-05
-0.00053583848 -0.013701347 -0.020002637
-0.012592204 0.0032238462 -0.00020967035
0.011788446 -0.0021492308 -0.01599055
0.0056263036 -0.0104775 -0.0034193408
-0.0099130115 0.0094028851 -0.00074461539
0.00026791924 0.0064476924 -0.02134
-0.011788446 0.005641731 -0.00020967035
-0.011788446 0.0016119231 -0.010106154
0.0053583845 0.010746154 -0.0042217583
-0.00080375769 0.0045671156 -0.02134
0.0069658998 0.0096715391 -0.0063615385
0.0026791922 0.0075223078 -0.02134
-0.0085734157 0.010746154 -0.020002637
0.0069658998 -0.0096715391 -0.007966374
0.0037508693 0.0013432693 -0.02134
-0.010984688 0.0080596153 -0.020805055
-0.00080375769 0.0083282692 -0.02134
0.0053583845 -0.0059103849 -0.00020967035
0.0029471116 0.0059103849 -0.00020967035
0.010180931 -0.0059103849 -0.01706044
-0.011788446 -0.0005373077 -0.014653187
-0.0075017386 -0.0096715391 -0.00020967035
0.0018754347 0.0034925002 -0.00020967035
-0.0032150308 0.010746154 -0.00020967035
-0.011520527 0.0024178848 -0.013850769
0.0016075154 -0.012626731 -0.0018145056
-0.010716769 0.0013432693 -0.021072527
-0.011788446 -0.0013432693 -0.018397802
-0.0016075154 0.01182077 -0.0095712086
-0.0088413348 0.0080596153 -0.014920659
-0.0050904653 0.005641731 -0.02134
-0.0064300615 -0.005373077 -0.00020967035
-0.010984688 0.0045671156 -0.014653187
-0.007233819 0.0094028851 -0.017327912
-0.0058942232 0.01182077 -0.019467693
0.004554627 0.0045671156 -0.00020967035
0.011252607 0.005641731 -0.00020967035
-0.0032150308 0.005104423 -0.02134
0.009109254 -0.0077909618 -0.014920659
0.0050904653 0.012626731 -0.0012795605
-0.0016075154 -0.01182077 -0.011176044
0.007233819 0.005104423 -0.02134
0.0075017386 0.0026865385 -0.02134
0.0053583845 0.0077909618 -0.00020967035
0.012056366 -0.0005373077 -0.0093037365
-0.00053583848 0.0083282692 -0.02134
0.004554627 -0.0075223078 -0.02134
-0.0080375765 -0.0088655772 -0.0090362635
-0.007233819 -0.011552116 -0.020270109
0.0093771731 0.0075223078 -0.015188132
0.009109254 -0.005373077 -0.021072527
-0.010984688 0.0045671156 -0.013048352
0.0099130115 0.0005373077 0.00086021976
0.0066979807 0.0099401921 -0.0058265934
0.0016075154 -0.013164039 -0.020805055
0.0080375765 0.0088655772 -0.018397802
0.0088413348 -0.0091342311 -0.00020967035
0.0058942232 0.0048357695 -0.02134
-0.0077696578 0.011283462 -0.00020967035
0.01044885 -0.0059103849 -0.0050241761
-0.012860123 -0.001880577 -0.00020967035
0.0016075154 0.005641731 -0.00020967035
-0.00080375769 -0.01182077 -0.0071639563
-0.0075017386 -0.0024178848 -0.02134
-0.01044885 -0.0064476924 -0.00020967035
-0.010984688 0.0026865385 -0.021072527
-0.012860123 0.00026865385 -0.020805055
-0.0050904653 0.0045671156 -0.00020967035
-0.0048225462 -0.010746154 -0.0071639563
0.0050904653 0.0077909618 -0.00020967035
-0.001071677 -0.0104775 -0.00020967035
0.0029471116 -0.0013432693 -0.00020967035
-0.0056263036 0.0005373077 -0.02134
0.010180931 0.0075223078 -0.019467693
0.011788446 0.0016119231 -0.0028843957
-0.011520527 0.0029551925 -0.0028843957
0.004554627 0.011014808 -0.0082338462
-0.0018754347 -0.011552116 -0.016525494
-0.0048225462 -0.010746154 -0.012245934
-0.0069658998 0.0042984616 -0.02134
0.0042867078 -0.011014808 -0.0098386817
0.0069658998 -0.0096715391 -0.01599055
-0.0077696578 -0.0032238462 -0.00020967035
-0.0056263036 0.0021492308 -0.02134
-0.001071677 -0.01182077 -0.00020967035
-0.010716769 0.0048357695 -0.0055591208
0.010984688 -0.0045671156 -0.0044892309
-0.0053583845 -0.0040298076 -0.02134
0.0069658998 -0.0096715391 -0.0034193408
0.00053583848 -0.0021492308 -0.02134
0.0075017386 -0.011552116 -0.020537583
0.010716769 0 0.00086021976
-0.011788446 -0.0013432693 -0.01813033
-0.0058942232 -0.010208846 -0.0055591208
-0.010716769 -0.005104423 -0.012245934
0.0075017386 0.0091342311 -0.015455605
0.010984688 0.0042984616 -0.013048352
0.00053583848 0.013432693 -0.020805055
0.004554627 0.011014808 -0.017595384
0.0029471116 -0.011552116 -0.0044892309
-0.0066979807 -0.0094028851 -0.021072527
-0.011520527 -0.0029551925 -0.012513407
-0.010984688 0.0083282692 -0.020270109
0.0083054965 0.0085969232 -0.0028843957
0.0016075154 0.01182077 -0.011710989
0.00053583848 -0.01182077 -0.0050241761
-0.00026791924 0.013701347 -0.020537583
0.004554627 -0.011014808 -0.0066290111
-0.007233819 -0.0069850003 -0.02134
-0.0032150308 -0.0091342311 -0.00020967035
0.0042867078 -0.011283462 -0.017862856
1.7347235e-18 -0.005641731 -0.00020967035
0.0066979807 0.0024178848 -0.02134
-0.011788446 0.0048357695 -0.00020967035
0.011788446 0.0021492308 -0.015723078
-0.0053583845 0.0067163464 -0.00020967035
-0.00053583848 0.013701347 -0.020270109
0.004554627 -0.0099401921 -0.00020967035
1.7347235e-18 0.0083282692 -0.02134
0.0034829499 -0.0034925002 -0.00020967035
0.0083054965 0.0085969232 -0.0050241761
-0.0026791922 -0.011552116 -0.016258022
0.0026791922 0.011552116 -0.013048352
-0.0085734157 -0.0067163464 -0.021072527
0.012324285 0.0042984616 -0.019467693
0.010180931 0.0059103849 -0.011443516
0.0050904653 0.0061790384 -0.02134
0.0037508693 -0.0091342311 -0.02134
0.010984688 0.0040298076 -0.010641099
0.001071677 -0.0083282692 -0.02134
0.007233819 -0.011552116 -0.00047714289
-0.0093771731 -0.0075223078 -0.01599055
0.0064300615 -0.011283462 -0.00020967035
-0.0032150308 -0.013432693 -0.020002637
0.011788446 -0.0024178848 -0.019200221
-0.0085734157 0.0083282692 -0.0071639563
0.0093771731 0.0064476924 -0.00020967035
-0.0016075154 -0.013701347 -0.019735165
-0.0088413348 -0.010208846 -0.00020967035
0.004554627 -0.011014808 -0.015723078
-0.011788446 -0.0010746154 -0.0098386817
0.0021433539 0.01182077 -0.007698901
-0.0066979807 0.011283462 -0.00020967035
-0.0018754347 -0.0069850003 -0.00020967035
0.00053583848 0.012895385 -0.0018145056
-0.0099130115 0.0064476924 -0.0087687913
0.013395961 -0.001880577 -0.020805055
-0.007233819 -0.0094028851 -0.0098386817
0.001071677 -0.01182077 -0.0042217583
0.0069658998 -0.0026865385 -0.00020967035
-0.0061621424 0.0005373077 -0.02134
-0.0058942232 0.0104775 -0.0085013192
-0.010716769 0.005104423 -0.0055591208
0.0085734157 -0.0083282692 -0.016525494
-0.0085734157 0.0045671156 -0.02134
0.009109254 0.0075223078 -0.0055591208
0.0013395961 0.010746154 -0.00020967035
-0.012324285 -0.005104423 -0.00020967035
-0.0096450923 0.0072536538 -0.0031518682
-0.0029471116 0.012895385 -0.0018145056
-0.0096450923 0.0075223078 -0.018665275
-0.0021433539 -0.010746154 -0.00020967035
-0.0021433539 0.013432693 -0.00074461539
0.0077696578 0.0091342311 -0.011978461
-0.0096450923 0.005373077 -0.021072527
-0.00080375769 0.0024178848 -0.00020967035
0.0096450923 -0.0067163464 -0.0028843957
-0.001071677 0.005373077 -0.00020967035
0.00026791924 -0.011283462 -0.021072527
0.00026791924 0.0091342311 -0.02134
0.0064300615 0.012089423 -0.00074461539
0.0077696578 0.0088655772 -0.021072527
-0.007233819 -0.0094028851 -0.007698901
0.00080375769 -0.01182077 -0.007698901
-0.013128042 0.001880577 -0.019467693
-0.0040187882 0.01182077 -0.00020967035
0.0099130115 -0.0016119231 -0.021072527
0.0042867078 0.013164039 -0.0018145056
-0.009109254 0.0096715391 -0.020805055
-0.0037508693 -0.013164039 -0.020270109
-0.0061621424 -0.0075223078 -0.02134
-0.01044885 -0.0059103849 -0.0039542858
-0.010180931 -0.0061790384 -0.0082338462
0.012056366 0.00026865385 -0.019200221
0.0099130115 0.0064476924 -0.011443516
-0.0029471116 0.0040298076 -0.02134
-0.0061621424 0.01182077 -0.020805055
-0.0056263036 -0.0042984616 -0.02134
-0.012592204 -0.005641731 -0.020270109
-0.0088413348 -0.0094028851 -0.021072527
0.0083054965 -0.010746154 -0.0018145056
-0.0061621424 0.010208846 -0.018397802
0.0053583845 0.012626731 -0.00074461539
0.013128042 0.0034925002 -0.019735165
-0.012056366 -0.00026865385 -0.017595384
-0.0050904653 0.012358077 -0.019467693
0.0069658998 0.0096715391 -0.015723078
0.0056263036 -0.010208846 -0.021072527
-0.0013395961 -0.01182077 -0.015455605
0.0021433539 -0.013432693 -0.0012795605
0.0021433539 0.01182077 -0.014920659
-0.00026791924 0.011283462 -0.00020967035
0.0099130115 0.0067163464 -0.006094066
-0.01044885 0.0029551925 -0.021072527
-0.010984688 -0.005641731 -0.00020967035
0.001071677 0.01182077 -0.017327912
-0.011252607 -0.005373077 -0.00020967035
-0.00080375769 0.00080596155 -0.00020967035
0.0024112731 -0.0077909618 -0.00020967035
0.0053583845 0.010746154 -0.014385714
0.0053583845 0.0013432693 -0.02134
-0.0058942232 0.0094028851 -0.021072527
-0.01044885 -0.0037611539 -0.00020967035
-0.010716769 -0.0048357695 -0.0055591208
-0.011788446 0.0013432693 -0.0058265934
0.0053583845 0.0104775 -0.0036868132
0.0018754347 0.0016119231 -0.00020967035
-0.0024112731 0.0075223078 -0.00020967035
-0.01044885 -0.005641731 -0.01706044
-0.0061621424 -0.00026865385 -0.00020967035
-0.0056263036 0.01182077 -0.00020967035
-0.011788446 -0.001880577 -0.0085013192
0.0080375765 0.0088655772 -0.011176044
0.0042867078 0.011283462 -0.014920659
-0.011252607 0.0034925002 -0.0087687913
-0.011520527 0.0045671156 -0.0018145056
-0.011252607 -0.0042984616 -0.0082338462
-0.0064300615 -0.0059103849 -0.00020967035
-0.01044885 -0.005641731 -0.0085013192
0.0088413348 -0.0040298076 -0.00020967035
0.0029471116 -0.0075223078 -0.02134
-0.0053583845 -0.0048357695 -0.02134
0.01044885 0.005641731 -0.017862856
-0.0018754347 -0.011552116 -0.0036868132
0.0069658998 0.0040298076 -0.00020967035
-0.01044885 0.0061790384 -0.0023494505
0.00026791924 -0.013701347 -0.0012795605
-0.012324285 0.001880577 -0.019200221
0.0026791922 0.0080596153 -0.00020967035
1.7347235e-18 -0.0037611539 -0.02134
-0.011520527 -0.0024178848 -0.017327912
0.0096450923 0.0069850003 -0.010641099
0.0064300615 0.0099401921 -0.01278088
0.01044885 0.005641731 -0.0074314289
-0.010716769 -0.0059103849 -0.018665275
-0.010984688 -0.0042984616 -0.021072527
0.0032150308 0.011552116 -0.01599055
0.010984688 -0.0029551925 -0.00020967035
-0.0029471116 -0.011552116 -0.006094066
0.011520527 0.0026865385 -0.0082338462
-0.0037508693 0.0088655772 -0.00020967035
-0.0018754347 0.0059103849 -0.00020967035
0.0021433539 -0.011552116 -0.0087687913
-0.0034829499 0.012358077 -0.0018145056
-0.011520527 -0.005104423 -0.019467693
0.0050904653 0.00080596155 -0.02134
-0.011520527 0.0026865385 -0.010641099
0.0061621424 -0.011283462 -0.021072527
0.0085734157 -0.010746154 -0.020805055
0.009109254 -0.0075223078 -0.014653187
-0.0037508693 0.0091342311 -0.02134
0.0032150308 -0.0080596153 -0.00020967035
-0.0013395961 0.0026865385 -0.00020967035
0.011520527 0.0075223078 -0.020002637
-0.0058942232 0.012358077 -0.001547033
0.01044885 0.0059103849 -0.0068964837
-0.0032150308 -0.01182077 -0.018932747
-0.010180931 -0.0045671156 -0.021072527
0.012056366 -0.00026865385 -0.011710989
-0.0096450923 0.0072536538 -0.007698901
0.011520527 -0.0026865385 -0.021072527
0.011252607 -0.0034925002 -0.0068964837
-0.010984688 0.0040298076 -0.007966374
-0.0021433539 0.011552116 -0.0063615385
-0.010716769 0.005373077 -0.006094066
-0.0032150308 0.0005373077 -0.02134
-0.011520527 0.0032238462 -0.007698901
-0.011788446 0.0042984616 -0.021072527
0.0064300615 0.0059103849 -0.02134
-0.013663881 -0.0005373077 -0.00047714289
-0.010716769 0.0048357695 -0.0044892309
0.011520527 0.0069850003 -0.020805055
1.7347235e-18 0.0021492308 -0.02134
-0.0083054965 0.005373077 -0.021072527
-0.0099130115 -0.0064476924 -0.016525494
-0.001071677 0.01182077 -0.015723078
-0.0088413348 -0.0029551925 -0.02134
0.010716769 -0.005373077 -0.014118242
0.0040187882 -0.011014808 -0.0055591208
0.0083054965 -0.0085969232 -0.007698901
-0.0096450923 0.0069850003 -0.017595384
-0.011520527 -0.0026865385 -0.015455605
0.010180931 -0.0059103849 -0.012245934
-0.0016075154 -0.01182077 -0.0068964837
0.00080375769 0.013701347 -0.020537583
-0.007233819 0.011014808 -0.019467693
-0.0085734157 0.0104775 -0.020805055
0.0050904653 -0.010746154 -0.0031518682
-0.001071677 -0.01182077 -0.0087687913
-0.0077696578 -0.0083282692 -0.00020967035
0.010984688 0.0042984616 -0.00020967035
-0.011252607 -0.0037611539 -0.01706044
-0.0066979807 -0.0096715391 -0.0028843957
-0.009109254 0.0077909618 -0.018397802
-0.00080375769 0.0016119231 -0.00020967035
0.011788446 -0.00080596155 -0.014653187
0.0056263036 0.012089423 -0.00020967035
-0.011788446 -0.0010746154 -0.0039542858
-0.011520527 0.0013432693 -0.021072527
0.0042867078 0.012089423 -0.019467693
0.0080375765 -0.0088655772 -0.014920659
-0.009109254 0.0091342311 -0.00020967035
0.00026791924 -0.0072536538 -0.00020967035
0.0040187882 0.011283462 -0.0031518682
0.0034829499 0.0077909618 -0.00020967035
0.0053583845 0.0104775 -0.010373627
-0.0056263036 -0.01182077 -0.021072527
0.0099130115 -0.0064476924 -0.0028843957
-0.004554627 -0.012358077 -0.019467693
0.0040187882 0.0024178848 -0.02134
0.009109254 0.0075223078 -0.0039542858
-0.00053583848 -0.01182077 -0.0085013192
-0.010984688 -0.0010746154 -0.021072527
0.0018754347 -0.0096715391 -0.02134
-0.012860123 0.0045671156 -0.019735165
0.013395961 -0.0024178848 -0.020002637
0.0026791922 -0.013164039 -0.020805055
1.7347235e-18 0.01182077 -0.01813033
0.0099130115 0 0.0027325274
-0.010984688 0.0021492308 -0.021072527
0.010180931 0.0072536538 -0.0018145056
0.011252607 -0.00080596155 -0.00020967035
-0.011252607 -0.0067163464 -0.021072527
0.011252607 0.0037611539 -0.013583297
0.0077696578 0.0091342311 -0.0066290111
0.0024112731 0.0072536538 -0.02134
-0.010984688 -0.005641731 -0.0020819781
0.011788446 0.0024178848 -0.0055591208
-0.0042867078 0.012089423 -0.00020967035
0.011788446 0.0037611539 -0.021072527
0.001071677 0.010746154 -0.021072527
-0.001071677 -0.0099401921 -0.00020967035
-0.009109254 0.010208846 -0.020002637
-0.012860123 -0.0040298076 -0.0018145056
0.01044885 0.0013432693 -0.021072527
-0.01044885 -0.0059103849 -0.011176044
-0.010180931 0.0064476924 -0.017862856
-0.012592204 0.0042984616 -0.020805055
0.0077696578 -0.0034925002 -0.02134
-0.0064300615 -0.00026865385 -0.02134
0.0069658998 -0.0096715391 -0.0028843957
0.012592204 0.005373077 -0.020805055
0.012860123 -0.00026865385 -0.0018145056
-0.0037508693 0.011283462 -0.007966374
0.0056263036 -0.0104775 -0.007698901
0.007233819 0.005104423 -0.00020967035
-0.009109254 0.0077909618 -0.010106154
0.0048225462 -0.011014808 -0.01599055
-0.0058942232 0.0083282692 -0.00020967035
-0.0077696578 -0.0088655772 -0.007966374
0.0024112731 0.013164039 -0.019467693
-0.010984688 0.0042984616 -0.0039542858
0.0083054965 -0.0021492308 -0.02134
0.013395961 0.0026865385 -0.00020967035
-0.0083054965 0.0085969232 -0.007966374
-0.0069658998 -0.0096715391 -0.0085013192
0.001071677 0.0083282692 -0.02134
0.01044885 0.0042984616 -0.00020967035
0.004554627 0.012089423 -0.00020967035
-0.011252607 -0.0037611539 -0.017327912
0.011252607 0.0034925002 -0.011176044
0.0048225462 0.00080596155 -0.02134
-0.010180931 0.0061790384 -0.007698901
-0.0093771731 0.0072536538 -0.01813033
-0.007233819 -0.0094028851 -0.014920659
-0.01044885 -0.005373077 -0.0098386817
0.0064300615 -0.0029551925 -0.00020967035
-0.010180931 0.0061790384 -0.016525494
0.012324285 -0.0016119231 -0.0020819781
-0.0053583845 -0.005641731 -0.02134
0.011788446 0.0016119231 -0.014653187
-0.012056366 -0.0037611539 -0.021072527
-0.0064300615 -0.010208846 -0.015188132
0.0085734157 -0.0085969232 -0.018932747
0.0077696578 0.010746154 -0.0018145056
0.0088413348 -0.0077909618 -0.0090362635
0.007233819 0.0094028851 -0.007698901
0.0069658998 -0.0096715391 -0.010106154
-0.012056366 0.0048357695 -0.019467693
0.010716769 0.0045671156 -0.021072527
-0.00080375769 0.01182077 -0.010641099
-0.01044885 -0.005373077 -0.0071639563
0.011252607 -0.0034925002 -0.0055591208
-0.0024112731 0.011014808 -0.021072527
-0.0029471116 -0.0024178848 -0.02134
0.0080375765 0.001880577 -0.00020967035
-0.011520527 -0.0024178848 -0.013850769
0.00026791924 0.005373077 -0.00020967035
-0.010984688 0.0032238462 -0.021072527
0.00080375769 -0.0067163464 -0.00020967035
0.012860123 -0.0042984616 -0.0018145056
-0.0050904653 0.0061790384 -0.00020967035
-0.00053583848 -0.011014808 -0.00020967035
0.0013395961 -0.01182077 -0.0085013192
0.0034829499 -0.0013432693 -0.02134
0.010716769 0.0059103849 -0.021072527
0.0088413348 0.0005373077 -0.021072527
0.011252607 -0.0048357695 -0.0020819781
-0.0037508693 -0.0048357695 -0.00020967035
0.0029471116 -0.011552116 -0.0034193408
-0.004554627 -0.012358077 -0.0018145056
0.009109254 -0.0059103849 -0.00020967035
0.010716769 -0.0048357695 -0.014653187
-0.0080375765 0.011283462 -0.020270109
-0.0077696578 -0.0069850003 -0.00020967035
-0.011788446 0.001880577 -0.010641099
0.0037508693 -0.0010746154 -0.00020967035
-0.0077696578 0.005104423 -0.00020967035
0.0053583845 -0.010746154 -0.010908572
-0.010180931 -0.0024178848 -0.021072527
0.0034829499 0.00026865385 -0.00020967035
0.0026791922 0.0042984616 -0.02134
0.011520527 -0.0024178848 -0.006094066
0.012592204 -0.0040298076 -0.00020967035
-0.0077696578 0.0005373077 -0.021072527
-0.0093771731 -0.0075223078 -0.0020819781
0.013128042 -0.0032238462 -0.020805055
0.0066979807 -0.010208846 -0.0020819781
-0.0053583845 -0.010746154 -0.011710989
0.0034829499 0.011283462 -0.0039542858
-0.011252607 0.0040298076 -0.006094066
0.0026791922 0.013432693 -0.020002637
0.012056366 -0.005104423 -0.019467693
-0.0083054965 0.0091342311 -0.019200221
-0.0034829499 0.011283462 -0.015455605
-0.0024112731 -0.0067163464 -0.02134
-0.0080375765 -0.0040298076 -0.00020967035
-0.010984688 0.0080596153 -0.0012795605
-0.0029471116 0.011552116 -0.0090362635
0.0042867078 -0.0064476924 -0.02134
-0.0061621424 -0.011014808 -0.0020819781
-0.013128042 0.0042984616 -0.020805055
-0.011252607 -0.0048357695 -0.019200221
-0.0096450923 -0.0069850003 -0.0085013192
-0.00053583848 0.0094028851 -0.02134
-0.011520527 0.0032238462 -0.0082338462
-0.0080375765 0.010746154 -0.00020967035
-0.0016075154 -0.01182077 -0.017327912
0.011788446 0.00080596155 -0.015188132
-0.0064300615 -0.0099401921 -0.011443516
-0.00026791924 -0.01182077 -0.016258022
-0.00080375769 -0.01182077 -0.010106154
-0.012056366 0.005641731 -0.019467693
1.7347235e-18 -0.0096715391 -0.02134
-0.0077696578 0.0016119231 -0.02134
1.7347235e-18 -0.0094028851 -0.02134
0.010984688 0.0045671156 -0.010908572
0.011252607 0.0034925002 -0.0098386817
-0.0064300615 0.0099401921 -0.010373627
0.004554627 0.010208846 -0.021072527
-0.00053583848 0.0083282692 -0.00020967035
0.012056366 0.0040298076 -0.019200221
0.0099130115 -0.0064476924 -0.0047567035
0.009109254 -0.0077909618 -0.0082338462
-0.011520527 0.0026865385 -0.015723078
0.0032150308 0.011283462 -0.016258022
0.004554627 0.0013432693 -0.02134
-0.0042867078 0.0021492308 -0.00020967035
-0.0085734157 0.0083282692 -0.0036868132
0.011788446 0 -0.0087687913
0.0013395961 -0.01182077 -0.007966374
-0.010716769 -0.005104423 -0.0085013192
0.0021433539 -0.011552116 -0.012245934
-0.0096450923 -0.0072536538 -0.01599055
0.011252607 -0.0037611539 -0.0050241761
0.00026791924 -0.012895385 -0.019467693
-0.0085734157 -0.0083282692 -0.016525494
-0.001071677 -0.0040298076 -0.00020967035
0.0013395961 -0.0024178848 -0.00020967035
0.0058942232 0.010208846 -0.0063615385
0.011252607 0.0034925002 -0.0087687913
-0.001071677 0.012626731 -0.0018145056
-0.0042867078 -0.011283462 -0.014920659
-0.001071677 -0.013432693 -0.020805055
-0.0040187882 0.011283462 -0.010908572
-0.0050904653 0.0034925002 -0.00020967035
0.0032150308 0.005373077 -0.00020967035
-0.0034829499 -0.011283462 -0.0095712086
0.0032150308 -0.011283462 -0.016525494
-0.011520527 0.0067163464 -0.020805055
-0.00026791924 0.0077909618 -0.00020967035
-0.011252607 -0.0016119231 -0.00020967035
-0.013128042 -0.0045671156 -0.001547033
0.00026791924 -0.012089423 -0.021072527
-0.0032150308 -0.0024178848 -0.02134
0.010716769 0.0069850003 -0.0018145056
0.011788446 0.0069850003 -0.020805055
-0.0026791922 -0.011552116 -0.0050241761
-0.0042867078 0.012358077 -0.021072527
-0.0053583845 -0.0104775 -0.021072527
0.0053583845 -0.010746154 -0.0031518682
0.010716769 0.0077909618 -0.020805055
0.01044885 -0.0005373077 -0.00020967035
-0.010984688 -0.0042984616 -0.0087687913
-0.0061621424 0.011552116 -0.021072527
-0.0029471116 -0.0024178848 -0.00020967035
0.0069658998 0.0096715391 -0.01813033
-0.0040187882 0.013164039 -0.00074461539
0.010180931 0.0064476924 -0.011710989
-0.0088413348 -0.005104423 -0.00020967035
-0.013128042 -0.0040298076 -0.019735165
-0.011788446 -0.0016119231 -0.013315824
-0.011252607 0.005641731 -0.0018145056
-0.011520527 -0.0026865385 -0.0044892309
0.0093771731 0.0091342311 -0.00020967035
-0.0069658998 0.0094028851 -0.021072527
0.0032150308 -0.012895385 -0.019467693
-0.011520527 0.0029551925 -0.010106154
0.004554627 -0.0091342311 -0.00020967035
0.007233819 0.0075223078 -0.00020967035
-0.0099130115 -0.0067163464 -0.018397802
0.012592204 -0.005104423 -0.020805055
0.0053583845 0.0032238462 -0.02134
-0.0042867078 0.010746154 -0.021072527
-0.012056366 -0.0013432693 -0.018665275
0.011252607 -0.0040298076 -0.0066290111
-0.004554627 -0.011014808 -0.0031518682
-0.010180931 0.0059103849 -0.016525494
-0.0053583845 -0.012626731 -0.019467693
-0.013395961 0.0010746154 -0.00020967035
0.0026791922 0.011552116 -0.01278088
0.0016075154 -0.01182077 -0.01278088
-0.011788446 0.0013432693 -0.0068964837
0.011788446 0.0016119231 -0.0058265934
-0.011520527 -0.0029551925 -0.0034193408
-0.0050904653 0.011552116 -0.0020819781
-0.0016075154 -0.01182077 -0.015455605
-0.011788446 -0.0016119231 -0.011176044
-0.0026791922 0.011552116 -0.0090362635
0.0016075154 0.00080596155 -0.02134
-0.011788446 0.0026865385 -0.0042217583
0.0083054965 0.0075223078 -0.021072527
-0.0066979807 -0.0042984616 -0.00020967035
-0.013663881 -0.0013432693 -0.00074461539
-0.0026791922 0.011552116 -0.0028843957
0.0042867078 0.001880577 -0.02134
-0.011252607 0.0021492308 -0.00020967035
0.0093771731 -0.0034925002 -0.00020967035
-0.0056263036 -0.0010746154 -0.02134
0.0066979807 -0.0037611539 -0.00020967035
-0.004554627 0.011283462 -0.021072527
-0.0037508693 0.011283462 -0.007698901
-0.0037508693 0.0045671156 -0.00020967035
-0.004554627 -0.01182077 -0.021072527
0.0050904653 0.0021492308 -0.00020967035
0.0069658998 -0.005373077 -0.00020967035
0.0013395961 0.0037611539 -0.00020967035
0.011520527 -0.0072536538 -0.00020967035
0.010984688 -0.0040298076 -0.012245934
0.010984688 -0.0026865385 -0.021072527
-0.0040187882 -0.011283462 -0.013315824
0.012324285 0.0034925002 -0.00020967035
0.01044885 0.005373077 -0.0055591208
-0.0077696578 -0.0029551925 -0.02134
0.00080375769 -0.01182077 -0.014653187
-0.013663881 0.0010746154 -0.020537583
-0.00026791924 -0.01182077 -0.0055591208
-0.0029471116 0.013164039 -0.020805055
0.0093771731 0.0040298076 -0.00020967035
0.0026791922 -0.013432693 -0.0018145056
0.0024112731 0.0094028851 -0.02134
0.0016075154 0.0034925002 -0.02134
0.0048225462 0.010746154 -0.0063615385
-0.0050904653 0.010746154 -0.0026169231
0.004554627 -0.012895385 -0.020537583
-0.01044885 -0.005641731 -0.0052916482
0.0040187882 0.01182077 -0.0020819781
0.01044885 0.005641731 -0.0087687913
0.0050904653 0.010746154 -0.013315824
0.00053583848 -0.0037611539 -0.02134
0.0042867078 0.0005373077 -0.00020967035
-0.011520527 0.0075223078 -0.020537583
0.004554627 -0.0104775 -0.021072527
0.0037508693 -0.012089423 -0.0018145056
0.011252607 0.0064476924 -0.021072527
0.010716769 0.005373077 -0.010641099
0.0040187882 -0.011014808 -0.019200221
-0.0050904653 0.012089423 -0.021072527
-0.009109254 0.0037611539 -0.021072527
-0.009109254 -0.0077909618 -0.0026169231
0.0058942232 0.010208846 -0.0028843957
-0.0099130115 -0.0080596153 -0.0018145056
0.0013395961 0.012626731 -0.019467693
0.0026791922 -0.0083282692 -0.00020967035
0.0042867078 -0.011283462 -0.016792968
0.011520527 -0.0024178848 -0.011176044
0.0029471116 0.0029551925 -0.02134
0.0075017386 0.0096715391 -0.00020967035
0.0026791922 0.0013432693 -0.00020967035
0.0058942232 0.0059103849 -0.02134
0.0099130115 -0.0067163464 -0.0074314289
0.0075017386 -0.011283462 -0.020805055
0.0093771731 0.0072536538 -0.013850769
0.0053583845 0.0032238462 -0.00020967035
-0.0139318 0 -0.0010120879
0.0075017386 0.0064476924 -0.00020967035
-0.0066979807 -0.0096715391 -0.0044892309
-0.0056263036 0.0104775 -0.016525494
-0.0083054965 -0.0085969232 -0.016792968
0.00080375769 -0.0080596153 -0.00020967035
0.012324285 -0.0040298076 -0.0018145056
-0.0013395961 0.01182077 -0.0026169231
-0.0021433539 -0.005641731 -0.00020967035
-0.0018754347 0.013701347 -0.00047714289
-0.010180931 0.0064476924 -0.011978461
-0.0013395961 0.01182077 -0.017595384
0.0034829499 0.0080596153 -0.02134
0.0032150308 0.010746154 -0.00020967035
0.0050904653 -0.011014808 -0.0023494505
-0.0024112731 -0.0083282692 -0.00020967035
0.0032150308 -0.010746154 -0.00020967035
0.0085734157 0.0083282692 -0.015723078
-0.0069658998 -0.0040298076 -0.00020967035
0.00053583848 0.013701347 -0.00047714289
-0.0040187882 0.0061790384 -0.02134
0.0085734157 -0.0091342311 -0.00020967035
-0.0066979807 -0.010746154 -0.019467693
0.011520527 0.0032238462 -0.0044892309
-0.0093771731 -0.0072536538 -0.0071639563
0.00053583848 0.0045671156 -0.02134
-0.0064300615 -0.005641731 -0.00020967035
0.011520527 -0.0029551925 -0.016525494
-0.0018754347 -0.01182077 -0.0093037365
0.0077696578 0.00026865385 -0.02134
0.012056366 -0.0010746154 -0.0023494505
-0.0085734157 0.0083282692 -0.015723078
0.0058942232 -0.0104775 -0.0050241761
0.012056366 -0.0005373077 -0.0023494505
-0.0042867078 0.011283462 -0.021072527
-0.0050904653 0.0080596153 -0.02134
0.0085734157 0.010208846 -0.0018145056
-0.0053583845 -0.011552116 -0.019467693
0.010984688 0.0040298076 -0.013850769
0.012056366 0.005373077 -0.019467693
-0.010716769 0.005104423 -0.016792968
-0.0064300615 0.0083282692 -0.00020967035
-0.001071677 0.01182077 -0.016525494
0.0066979807 -0.0099401921 -0.015188132
-0.009109254 0.0075223078 -0.01278088
-0.0080375765 -0.0088655772 -0.0066290111
-0.0058942232 0.0104775 -0.0050241761
0.00080375769 0.01182077 -0.016525494
-0.00026791924 0.013701347 -0.020270109
-0.011788446 0 -0.010641099
0.0061621424 -0.012358077 -0.00047714289
-0.0026791922 0.012358077 -0.019200221
-0.0083054965 -0.0094028851 -0.00020967035
-0.010180931 -0.0005373077 0.00086021976
0.012056366 0.00080596155 -0.018665275
0.0050904653 0.0099401921 -0.021072527
0.0056263036 -0.0104775 -0.0042217583
0.011252607 -0.0045671156 -0.018665275
-0.0026791922 0.011552116 -0.016258022
0.0016075154 -0.012089423 -0.00020967035
-0.0099130115 -0.0067163464 -0.0058265934
0.011788446 -0.001880577 -0.021072527
0.010180931 0.0072536538 -0.00020967035
-0.01044885 -0.005373077 -0.0063615385
0.012592204 -0.0037611539 -0.00020967035
-0.013663881 -0.001880577 -0.020805055
-0.0077696578 0.0091342311 -0.013583297
-0.004554627 0.012089423 -0.0018145056
0.013128042 0 -0.020537583
-0.0013395961 0.012089423 -0.018665275
-0.0050904653 -0.011014808 -0.018665275
-0.0061621424 -0.011283462 -0.021072527
-0.0077696578 -0.0045671156 -0.00020967035
0.012324285 0.0029551925 -0.020805055
-0.010180931 0.0075223078 -0.019467693
0.011788446 -0.0005373077 -0.014920659
0.013663881 -0.00080596155 -0.020537583
-0.011520527 0.0034925002 -0.0058265934
0.0013395961 -0.01182077 -0.006094066
0.0085734157 -0.0083282692 -0.015455605
0.010984688 -0.0048357695 -0.018397802
-0.0026791922 0.00080596155 -0.00020967035
0.00053583848 0.013432693 -0.00020967035
-0.01044885 -0.0085969232 -0.00020967035
-0.0016075154 -0.0067163464 -0.00020967035
-0.0069658998 -0.0096715391 -0.0050241761
-0.00053583848 0.01182077 -0.012245934
-0.0096450923 -0.0067163464 -0.010373627
0.0099130115 -0.0064476924 -0.011176044
-0.011520527 0.0034925002 -0.0050241761
-0.0026791922 0.001880577 -0.02134
0.011520527 0.0032238462 -0.01599055
-0.0042867078 0.011014808 -0.007698901
-0.011788446 -0.0010746154 -0.014118242
0.0085734157 -0.005373077 -0.00020967035
-0.0075017386 -0.0094028851 -0.013315824
0.00080375769 -0.01182077 -0.0068964837
-0.0088413348 0.0064476924 -0.021072527
0.0050904653 0.0059103849 -0.02134
-0.0016075154 -0.0048357695 -0.02134
0.0056263036 0.012626731 -0.0018145056
-0.0032150308 -0.0064476924 -0.02134
-0.011252607 0.0037611539 -0.018397802
-0.011788446 -0.00080596155 -0.01706044
0.0053583845 0.0061790384 -0.00020967035
0.001071677 -0.0067163464 -0.02134
0.0034829499 0.0064476924 -0.00020967035
0.004554627 0.011283462 -0.018932747
-0.0050904653 -0.0104775 -0.00020967035
0.001071677 0.012626731 -0.019467693
-0.0040187882 0.0032238462 -0.00020967035
0.0083054965 0.0085969232 -0.01813033
-0.012056366 0.00026865385 -0.010106154
-0.009109254 -0.010208846 -0.0012795605
-0.0050904653 -0.010746154 -0.013850769
-0.010180931 -0.0061790384 -0.0047567035
0.011788446 0.00080596155 -0.0095712086
0.0040187882 0.011014808 -0.012245934
0.0080375765 0.0037611539 -0.02134
0.0083054965 -0.011014808 -0.020805055
-0.010984688 0.0042984616 -0.015455605
0.0050904653 -0.011014808 -0.00020967035
0.011788446 0.0021492308 -0.0098386817
-0.0096450923 0.0024178848 -0.00020967035
0.012056366 -0.0064476924 -0.0012795605
-0.011788446 0.0021492308 -0.0050241761
-0.0037508693 -0.0042984616 -0.02134
0.0096450923 -0.0069850003 -0.018397802
-0.011788446 0.00080596155 -0.011978461
0.0066979807 0.0096715391 -0.0063615385
-0.010984688 -0.0048357695 -0.0085013192
-0.0040187882 -0.0029551925 -0.00020967035
0.0024112731 0.011552116 -0.021072527
-0.0058942232 -0.012089423 -0.00020967035
-0.0096450923 0.0072536538 -0.0050241761
0.01044885 -0.0034925002 -0.021072527
0.0048225462 -0.0088655772 -0.00020967035
0.0018754347 -0.013701347 -0.00047714289
-0.012860123 -0.0005373077 -0.019467693
0.0013395961 -0.0026865385 -0.00020967035
0.01044885 0.0059103849 -0.013583297
-0.011252607 0.0034925002 -0.0028843957
0.0064300615 0.011552116 -0.020805055
-0.011252607 -0.0037611539 -0.011978461
0.0096450923 0.0010746154 -0.00020967035
-0.0064300615 -0.0099401921 -0.011176044
-0.004554627 0.0085969232 -0.02134
0.00026791924 0.01182077 -0.013048352
0.0096450923 0.005104423 -0.021072527
0.0053583845 0.012626731 -0.020270109
-0.0053583845 0.001880577 -0.02134
-0.0077696578 0.0091342311 -0.00020967035
-0.012056366 0.0029551925 -0.0020819781
0.0056263036 0.0104775 -0.0047567035
-0.0050904653 -0.0048357695 -0.00020967035
0.0058942232 0.010208846 -0.014653187
0.0061621424 0.010746154 -0.021072527
-0.0021433539 0.0099401921 -0.00020967035
-0.011788446 -0.00080596155 -0.011443516
0.001071677 0.01182077 -0.0074314289
-0.0018754347 -0.005641731 -0.02134
0.0037508693 0.0048357695 -0.00020967035
0.009109254 0.005641731 -0.021072527
-0.0050904653 0.0048357695 -0.02134
-0.011788446 -0.0013432693 -0.010106154
0.0042867078 -0.01182077 -0.021072527
0.0042867078 0.0085969232 -0.02134
0.011520527 -0.0034925002 -0.0082338462
-0.012056366 0.0045671156 -0.00020967035
0.0096450923 -0.0069850003 -0.010908572
1.7347235e-18 0.0059103849 -0.00020967035
-0.012056366 0.00080596155 -0.021072527
-0.0058942232 -0.012358077 -0.0010120879
0.0083054965 -0.0085969232 -0.016525494
-0.0032150308 -0.011014808 -0.021072527
0.0069658998 0.001880577 -0.02134
-0.0024112731 0.01182077 -0.015188132
0.0069658998 -0.0096715391 -0.0063615385
0.0029471116 0.0059103849 -0.02134
0.0096450923 0.0016119231 -0.00020967035
0.012056366 -0.0005373077 -0.0066290111
-0.0080375765 -0.0096715391 -0.019467693
0.0061621424 -0.011552116 -0.0018145056
-0.00080375769 0.013701347 -0.001547033
0.0032150308 0.0064476924 -0.00020967035
0.010180931 0.0061790384 -0.0071639563
-0.004554627 -0.005641731 -0.02134
0.001071677 -0.0034925002 -0.02134
0.00026791924 0.012358077 -0.0020819781
-0.0058942232 0.012358077 -0.0018145056
-0.010716769 0.0072536538 -0.021072527
-0.0026791922 0.011552116 -0.0031518682
-0.0064300615 -0.011014808 -0.0018145056
-0.0050904653 -0.0085969232 -0.00020967035
-0.0042867078 -0.011283462 -0.017595384
-0.011788446 0.0024178848 -0.0050241761
0.0088413348 -0.0069850003 -0.00020967035
-0.007233819 -0.0094028851 -0.0028843957
-0.012056366 -0.0040298076 -0.0018145056
0.011520527 0.0024178848 -0.0071639563
-0.012324285 0.0061790384 -0.020805055
-0.007233819 0.0094028851 -0.01278088
0.0013395961 -0.0040298076 -0.00020967035
-0.0016075154 -0.013164039 -0.00020967035
0.0088413348 0.0024178848 -0.02134
-0.0016075154 0.0104775 -0.021072527
0.0096450923 -0.0085969232 -0.0018145056
0.0032150308 -0.0026865385 -0.00020967035
-0.0085734157 -0.0083282692 -0.014118242
0.011520527 -0.0045671156 -0.019467693
0.01044885 0.005641731 -0.011443516
-0.010180931 -0.0075223078 -0.00020967035
0.013128042 -0.0024178848 -0.019467693
0.011788446 -0.0010746154 -0.0055591208
0.011252607 -0.0042984616 -0.0066290111
-0.011520527 -0.0040298076 -0.018932747
-0.0016075154 0.0096715391 -0.02134
-0.0093771731 -0.0029551925 -0.021072527
-0.012056366 -0.0067163464 -0.019467693
-0.00026791924 -0.013701347 -0.001547033
-0.0061621424 0.011552116 -0.019467693
-0.011788446 0.0016119231 -0.014653187
-0.010180931 -0.0061790384 -0.011978461
-0.011252607 0.0040298076 -0.0023494505
0.010716769 -0.005104423 -0.0082338462
-0.0099130115 0.0094028851 -0.00020967035
-0.0058942232 0.0104775 -0.0093037365
0.0058942232 -0.0069850003 -0.02134
0.0026791922 -0.013432693 -0.020537583
-0.010716769 0.0069850003 -0.019467693
-0.0016075154 -0.0088655772 -0.00020967035
-0.001071677 -0.0080596153 -0.00020967035
-0.0029471116 0.011552116 -0.018397802
-0.0029471116 -0.0021492308 -0.00020967035
-0.013663881 -0.0021492308 -0.020270109
-0.007233819 0.01182077 -0.00074461539
0.010180931 0.0045671156 -0.021072527
-0.001071677 -0.012358077 -0.00020967035
0.0024112731 0.0080596153 -0.00020967035
-0.0066979807 -0.012089423 -0.0010120879
0.0058942232 -0.0104775 -0.0058265934
0.007233819 -0.0094028851 -0.017327912
-0.00080375769 0.0104775 -0.00020967035
-0.012324285 0.00080596155 -0.00020967035
-0.00026791924 0.0037611539 -0.02134
-0.0069658998 0.0083282692 -0.021072527
-0.004554627 0.011014808 -0.0052916482
0.0042867078 -0.013164039 -0.0012795605
-0.0018754347 0.0067163464 -0.02134
-0.0021433539 -0.011552116 -0.0063615385
0.0077696578 -0.0091342311 -0.007698901
0.012324285 0.0061790384 -0.001547033
-0.0080375765 0.0085969232 -0.00020967035
0.0056263036 -0.0069850003 -0.00020967035
-0.0042867078 -0.011283462 -0.014118242
-0.0075017386 -0.0042984616 -0.02134
0.0088413348 0.0080596153 -0.0044892309
-0.009109254 0.0048357695 -0.021072527
0.011788446 0.00080596155 -0.0028843957
-0.0083054965 -0.0085969232 -0.015723078
0.0053583845 -0.0042984616 -0.00020967035
0.011520527 -0.0032238462 -0.0095712086
0.00053583848 -0.005641731 -0.02134
0.0018754347 0.0088655772 -0.00020967035
0.0088413348 0.0077909618 -0.007698901
-0.0024112731 0.01182077 -0.0066290111
-0.0066979807 -0.01182077 -0.0018145056
-0.0024112731 -0.011552116 -0.014653187
0.0080375765 -0.0048357695 -0.00020967035
0.0016075154 0 -0.00020967035
-0.011788446 0.00026865385 -0.01813033
-0.0016075154 -0.01182077 -0.014920659
-0.0037508693 0.011283462 -0.0058265934
0.011252607 0.0034925002 -0.006094066
-0.0042867078 -0.011014808 -0.014653187
0.0024112731 0.012626731 -0.00020967035
0.007233819 0.0048357695 -0.02134
-0.0069658998 -0.0096715391 -0.011710989
0.013395961 -0.001880577 -0.00020967035
-0.010716769 -0.005641731 -0.00020967035
0.0066979807 0.01182077 -0.020805055
-0.0075017386 0.0094028851 -0.017595384
-0.00080375769 -0.013701347 -0.020002637
-0.0061621424 -0.005641731 -0.02134
0.00053583848 -0.01182077 -0.0055591208
-0.0034829499 0.0032238462 -0.00020967035
0.0053583845 0.0104775 -0.016525494
-0.011788446 -0.00026865385 -0.011176044
0.010984688 -0.0045671156 -0.0039542858
-0.010716769 -0.005373077 -0.0090362635
0.0013395961 -0.01182077 -0.013315824
0.00080375769 0.01182077 -0.016792968
1.7347235e-18 0.0083282692 -0.00020967035
-0.0037508693 -0.010208846 -0.021072527
0.007233819 0.011552116 -0.00047714289
-0.0066979807 -0.011552116 -0.00020967035
-0.011788446 0.0005373077 -0.0095712086
0.0032150308 0.0037611539 -0.02134
-0.0080375765 -0.0005373077 -0.00020967035
0.004554627 -0.0080596153 -0.00020967035
0.0061621424 -0.010208846 -0.013583297
0.010716769 -0.0013432693 -0.021072527
0.00026791924 -0.0048357695 -0.00020967035
-0.0064300615 0.0042984616 -0.02134
-0.011520527 0.0024178848 -0.013048352
0.011520527 -0.0029551925 -0.0071639563
0.0029471116 0.013432693 -0.020537583
0.0042867078 0.0040298076 -0.02134
-0.0077696578 -0.0091342311 -0.014920659
0.0056263036 -0.0104775 -0.0063615385
-0.0024112731 -0.012089423 -0.00020967035
0.0021433539 -0.012089423 -0.018665275
0.004554627 0.0072536538 -0.00020967035
-0.0034829499 0.013164039 -0.00020967035
0.0024112731 -0.01182077 -0.01599055
0.0088413348 0.0080596153 -0.0023494505
-0.0096450923 0.0077909618 -0.019467693
-0.013395961 0.0024178848 -0.0012795605
-0.0037508693 0.012089423 -0.019467693
0.0050904653 -0.010746154 -0.0074314289
0.013128042 0.0016119231 -0.0018145056
0.00053583848 0.01182077 -0.015455605
-0.0077696578 -0.005373077 -0.02134
0.0024112731 -0.011552116 -0.012245934
-0.010180931 -0.0061790384 -0.0028843957
-0.011520527 -0.0029551925 -0.0039542858
-0.0080375765 -0.0088655772 -0.0050241761
-0.010716769 -0.0059103849 -0.0020819781
0.011252607 0.0034925002 -0.0047567035
-0.0032150308 0.011552116 -0.019200221
-0.011788446 -0.0016119231 -0.006094066
0.010984688 0.0075223078 -0.019467693
0.0026791922 0.011552116 -0.017595384
0.0040187882 -0.011283462 -0.0034193408
0.0061621424 -0.010208846 -0.0074314289
-0.0085734157 0.0083282692 -0.017862856
-0.0077696578 0.0013432693 -0.00020967035
-0.0077696578 -0.0088655772 -0.021072527
-0.0018754347 -0.012895385 -0.00020967035
-0.0056263036 0.0104775 -0.0087687913
-0.010180931 -0.0059103849 -0.021072527
0.013128042 -0.0029551925 -0.020805055
-0.0026791922 0.0013432693 -0.00020967035
0.0032150308 0.011552116 -0.0058265934
0.0066979807 0.0045671156 -0.00020967035
0.0026791922 0.011014808 -0.021072527
1.7347235e-18 0.012358077 -0.0020819781
0.0066979807 0.0096715391 -0.01813033
0.011788446 -0.0016119231 -0.0058265934
-0.0077696578 0.0091342311 -0.013315824
-0.0032150308 0.011283462 -0.013048352
-0.010716769 -0.0048357695 -0.01706044
0.007233819 0.011552116 -0.0018145056
0.0037508693 -0.013164039 -0.0018145056
-0.009109254 0.005104423 -0.00020967035
-0.012056366 -0.0064476924 -0.0012795605
-0.011788446 -0.0013432693 -0.015455605
-0.0064300615 0.0064476924 -0.02134
-0.012056366 -0.0067163464 -0.0010120879
-0.0088413348 -0.0077909618 -0.010641099
-0.007233819 -0.0067163464 -0.00020967035
-0.0016075154 -0.001880577 -0.02134
-0.0016075154 -0.01182077 -0.0023494505
-0.0029471116 -0.011552116 -0.013583297
0.00080375769 0.001880577 -0.02134
0.012860123 -0.0037611539 -0.020805055
-0.0037508693 -0.011283462 -0.0028843957
0.0077696578 -0.010208846 -0.019467693
-0.0058942232 0.005373077 -0.00020967035
0.00053583848 0.001880577 -0.00020967035
-0.0075017386 0.0091342311 -0.0063615385
0.011788446 0.0024178848 -0.00020967035
-0.0099130115 0.0042984616 -0.00020967035
0.0096450923 -0.0069850003 -0.013583297
0.0064300615 0.0016119231 -0.00020967035
-0.0061621424 0.011283462 -0.00020967035
-0.0050904653 -0.010746154 -0.015723078
0.0016075154 -0.01182077 -0.011443516
-0.0088413348 0.0080596153 -0.0063615385
