# .PCD v0.7 - Point Cloud Data file format
VERSION 0.7
FIELDS x y z
SIZE 4 4 4
TYPE F F F
COUNT 1 1 1
WIDTH 1256
HEIGHT 1
VIEWPOINT 0 0 0 1 0 0 0
POINTS 1256
DATA ascii
0.0170551 0.0040639997 -0.011631429
0.0073093283 0.018694399 -0.0026900002
0.01177614 0.0036575999 -0.036830001
-0.019897616 -0.00081279996 -0.00065785728
-0.019491542 -0.0044704 -0.0035028574
-0.01177614 -0.0125984 -0.0079735722
0.013400435 0.0109728 -0.023417858
-0.0060911071 0.0158496 -0.0051285718
-0.0016242953 -0.0170688 -0.0091928579
-0.012182214 -0.0125984 -0.0059414292
0.014212583 -0.01016 -0.018947143
-0.0089336233 0.0024383999 -0.00025142872
0.014618657 0.0089408001 -0.029920716
-0.017461173 0.00081279996 -0.031952858
0.0012182214 -0.017475199 -0.032359287
0.014618657 0.0089408001 -0.00025142872
0.012182214 -0.0158496 -0.0035028574
-0.0016242953 0.0093471995 -0.036830001
-0.0036546641 -0.017475199 -0.032359287
0.0032485905 -0.0077215997 -0.00025142872
0.016649026 -0.0052831997 -0.029514287
0.0097457711 0.014223999 -0.023417858
0.0089336233 0.0178816 -0.0026900002
0.010963992 0.0166624 -0.0014707145
0.0044668117 0.0065023997 -0.00025142872
0.0069032544 -0.0158496 -0.015289286
0.00081214763 0.017475199 -0.024637144
-0.019897616 -0.0016255999 -0.0030964289
-0.011370067 0.013004799 -0.021385716
-0.0052789594 0.0081279995 -0.036830001
-0.0040607378 -0.0109728 -0.036830001
-0.017461173 0.00081279996 -0.0075671435
-0.00040607381 -0.0195072 -0.036017146
0.015836878 0.0077215997 -0.00025142872
0.0024364428 0.0028448 -0.00025142872
0.012994362 0.0040639997 -0.00025142872
0 -0.019913599 -0.035204288
0.014618657 0.00081279996 -0.036830001
0.011370067 -0.016255999 -0.00025142872
-0.0170551 0.00081279996 -0.025450001
0.0048728855 0.0069088 -0.036830001
0.019491542 -0.0052831997 -0.00065785728
0.013806509 0.014223999 -0.034797858
0.0044668117 -0.0056896 -0.036830001
0.012588288 0.012192 -0.023011429
-0.0016242953 -0.017475199 -0.012850715
-0.019491542 0.0012192 -0.036017146
-0.0028425166 -0.0170688 -0.015289286
0.017867247 -0.0085343998 -0.00065785728
0.013400435 -0.0073151998 -0.00025142872
-0.017461173 -0.0093471995 -0.035204288
0.017461173 -0.0089408001 -0.0035028574
0.017461173 -0.0077215997 -0.00025142872
0.0093396977 0.016255999 -0.00025142872
0.0085275499 0.0150368 -0.020166429
-0.00081214763 0.017475199 -0.031546429
0.0077154022 0.0012192 -0.00025142872
0.015430804 -0.0073151998 -0.026669286
-0.019085469 -0.0056896 -0.0026900002
0.0093396977 0.0146304 -0.00025142872
-0.016649026 0.0056896 -0.00025142872
0.00040607381 -0.012192 -0.036830001
0.0032485905 0.0040639997 -0.036830001
0.014212583 -0.0097535998 -0.022198573
-0.010557919 -0.012192 -0.00025142872
-0.0040607378 0.0166624 -0.016915001
0.0089336233 -0.0178816 -0.035610717
-0.010963992 0.0134112 -0.016915001
0.0077154022 0.0178816 -0.00025142872
-0.0056850333 0.016255999 -0.01447643
0.012182214 0.0125984 -0.023011429
0.016649026 -0.0044704 -0.022198573
-0.00081214763 0.0036575999 -0.00025142872
0.012994362 0.0113792 -0.019760001
-0.0020303689 0.0170688 -0.0083800005
-0.0069032544 0.0178816 -0.0035028574
-0.015430804 -0.0073151998 -0.023824288
-0.0052789594 -0.0166624 -0.018540716
0.013806509 0.010566399 -0.023824288
0.018273322 -0.0028448 -0.00025142872
0.0073093283 -0.0158496 -0.027075715
0.0170551 0.0036575999 -0.0063478574
0.0097457711 -0.0170688 -0.0035028574
-0.00081214763 -0.017475199 -0.026262859
0.0097457711 -0.0166624 -0.036423571
-0.015024731 0.013004799 -0.035610717
0.01177614 -0.016255999 -0.034797858
0.014618657 0.0089408001 -0.018134287
0.00040607381 0.017475199 -0.019353572
0.0020303689 0.018694399 -0.00025142872
0.006497181 -0.0166624 -0.00025142872
0.018679395 0.0020319999 -0.0035028574
-0.017461173 0 -0.0071607148
-0.0089336233 -0.0113792 -0.00025142872
0.017867247 -0.0036575999 -0.00025142872
-0.0016242953 -0.0158496 -0.036830001
-0.0097457711 0.012192 -0.00025142872
0.015430804 -0.0077215997 -0.0059414292
0.014618657 -0.0138176 -0.035610717
0.016649026 -0.0044704 -0.016915001
0.012182214 0.012192 -0.021385716
-0.0170551 -0.0032511998 -0.011631429
-0.0060911071 0.0191008 -0.0010642859
-0.0060911071 -0.018694399 -0.00025142872
-0.00040607381 0.0170688 -0.00025142872
0.0048728855 -0.0170688 -0.031952858
0.0170551 0 -0.020979287
0.006497181 0.0158496 -0.016508572
0.0170551 0.0028448 -0.015695715
-0.0052789594 0.0056896 -0.00025142872
0.019085469 0.0060959999 -0.0014707145
-0.0016242953 -0.017475199 -0.010005715
-0.014212583 -0.0138176 -0.0035028574
0.00040607381 -0.019913599 -0.00025142872
-0.0170551 -0.01016 -0.00025142872
-0.011370067 0.013004799 -0.019760001
-0.0170551 -0.0040639997 -0.017727857
0.00081214763 -0.0170688 -0.0079735722
-0.0170551 0.0040639997 -0.024637144
0.010557919 0.0138176 -0.029514287
-0.0081214756 0.015443199 -0.020572858
-0.0024364428 0.0170688 -0.016102144
-0.0081214756 -0.012192 -0.00025142872
0.016649026 0.0048767999 -0.012444287
0.018273322 -0.0077215997 -0.0010642859
0.017461173 -0.00081279996 -0.023824288
0.0085275499 0.015443199 -0.0071607148
0.0012182214 0.017475199 -0.012850715
-0.0170551 -0.0016255999 -0.019353572
0.015836878 0.0069088 -0.022605002
0.015430804 0.0077215997 -0.0079735722
-0.0020303689 -0.013004799 -0.00025142872
-0.0016242953 -0.0170688 -0.027075715
-0.0024364428 0.0170688 -0.02870143
0.0097457711 0.014223999 -0.015695715
-0.010151845 0.014223999 -0.014882858
0.017461173 0.0016255999 -0.01407
0.0024364428 -0.0170688 -0.0071607148
0.010151845 0.0138176 -0.011225001
-0.00081214763 0.0097535998 -0.036830001
-0.0093396977 -0.0146304 -0.018134287
0.0048728855 -0.0109728 -0.036830001
0.011370067 0.0065023997 -0.00025142872
0.012588288 -0.012192 -0.0055350005
0.015430804 0.00081279996 -0.036830001
-0.015430804 0.0081279995 -0.024230715
-0.0069032544 -0.0158496 -0.01732143
0.015430804 -0.0109728 -0.036423571
-0.0032485905 -0.0170688 -0.025043573
0.00040607381 -0.0170688 -0.028295001
0.019491542 0.0040639997 -0.0026900002
0.015024731 0.0085343998 -0.016102144
-0.0170551 -0.0040639997 -0.021792144
0.012588288 -0.012192 -0.021792144
-0.013806509 0.0052831997 -0.00025142872
-0.0020303689 -0.0191008 -0.00025142872
0.0170551 -0.0012192 -0.022605002
0.013806509 -0.010566399 -0.0083800005
-0.017461173 -0.0024383999 -0.0071607148
-0.012182214 0.012192 -0.020979287
-0.0012182214 -0.0052831997 -0.036830001
-0.0081214756 0.0028448 -0.00025142872
-0.0093396977 -0.0170688 -0.00025142872
-0.01177614 -0.0134112 -0.033172145
0.006497181 0.018694399 -0.0022835718
-0.00040607381 0.017475199 -0.018947143
0.0069032544 0.0012192 -0.036830001
0.015836878 -0.0073151998 -0.017727857
0.011370067 -0.00040639998 -0.036830001
0.013400435 0.0109728 -0.010005715
0.016649026 -0.0036575999 -0.0051285718
0.0073093283 -0.0158496 -0.0055350005
0.0048728855 0.0166624 -0.027482145
0.019897616 -0.0016255999 -0.035610717
-0.00040607381 -0.0158496 -0.00025142872
0.015430804 -0.0081279995 -0.031546429
0.010151845 0.0170688 -0.034797858
-0.015836878 0.0073151998 -0.00025142872
0.0024364428 0.011785599 -0.00025142872
-0.014212583 0.012192 -0.0035028574
0.015836878 0.00040639998 -0.036017146
0.0093396977 0.0146304 -0.016102144
0.0016242953 0.017475199 -0.010412144
0.018679395 -0.0032511998 -0.036423571
-0.016649026 -0.0052831997 -0.012850715
0.0048728855 0.0166624 -0.0083800005
0 -0.011785599 -0.036830001
0.012588288 -0.0024383999 -0.00025142872
0.017867247 0.00081279996 -0.036017146
0.0085275499 0.0150368 -0.012850715
-0.010151845 0.01016 -0.036830001
-0.019085469 0 -0.00025142872
0.0060911071 -0.016255999 -0.026262859
-0.011370067 -0.0134112 -0.01447643
-0.015024731 0.0085343998 -0.0075671435
0.0069032544 0.0052831997 -0.00025142872
0.006497181 -0.018694399 -0.00025142872
0.0020303689 0.0081279995 -0.036830001
0.013400435 -0.0016255999 -0.00025142872
0.0048728855 -0.0081279995 -0.00025142872
-0.00040607381 -0.017475199 -0.024230715
-0.0077154022 0.015443199 -0.023824288
0.0024364428 0.0195072 -0.036017146
0.0012182214 0.0097535998 -0.036830001
-0.010557919 -0.010566399 -0.00025142872
-0.010963992 -0.0036575999 -0.036830001
-0.00081214763 -0.0089408001 -0.036830001
0.018679395 -0.0044704 -0.034391429
-0.017461173 -0.0016255999 -0.017727857
0.018679395 -0.0032511998 -0.0035028574
0.012588288 -0.00040639998 -0.00025142872
-0.0085275499 -0.0060959999 -0.036830001
-0.0048728855 -0.0166624 -0.012444287
0.018679395 0.0016255999 -0.00025142872
-0.0024364428 -0.0170688 -0.022605002
0.017461173 0.0077215997 -0.00025142872
0.0060911071 -0.0178816 -0.0035028574
0.016649026 -0.0044704 -0.024230715
-0.011370067 0.0048767999 -0.036830001
0.010557919 0.0138176 -0.031140001
-0.0032485905 -0.0085343998 -0.036830001
0.016242951 -0.0056896 -0.016508572
-0.0052789594 0.0020319999 -0.00025142872
0.017461173 0 -0.0043157148
-0.018273322 -0.0077215997 -0.0035028574
-0.0056850333 -0.0166624 -0.018947143
0.0170551 -0.0032511998 -0.0095992861
0.0032485905 0.0138176 -0.00025142872
-0.015430804 0.0048767999 -0.00025142872
0.0056850333 0 -0.036830001
-0.016649026 -0.0048767999 -0.031140001
0.01177614 -0.0134112 -0.033172145
0.0016242953 -0.0170688 -0.015289286
-0.015836878 -0.0069088 -0.013663572
0.019897616 -0.0032511998 -0.0022835718
0.0056850333 0.016255999 -0.013663572
0.0077154022 -0.015443199 -0.023011429
0.019897616 -0.0020319999 -0.0026900002
0.0012182214 -0.017475199 -0.020166429
0.0060911071 -0.015443199 -0.00025142872
0.0048728855 0.0125984 -0.00025142872
0.0036546641 0.0170688 -0.016508572
-0.0060911071 0.016255999 -0.01732143
-0.0069032544 0.0178816 -0.033985
-0.0081214756 -0.017475199 -0.036423571
0.011370067 0.0138176 -0.032359287
-0.0020303689 -0.0170688 -0.029107859
-0.0170551 0.0024383999 -0.018947143
-0.015430804 -0.0077215997 -0.014882858
-0.015430804 0.0077215997 -0.011631429
-0.0012182214 -0.0170688 -0.0095992861
-0.0044668117 0.0048767999 -0.036830001
-0.0069032544 -0.016255999 -0.018947143
0.016242951 0.0056896 -0.013663572
0.0077154022 0.0093471995 -0.00025142872
-0.0093396977 0.0125984 -0.036830001
-0.014618657 0.0065023997 -0.00025142872
-0.015836878 0.011785599 -0.036017146
-0.015430804 0.0077215997 -0.021792144
0.010963992 -0.0125984 -0.00025142872
-0.012994362 -0.013004799 -0.033578575
-0.015836878 -0.0056896 -0.036423571
-0.00081214763 -0.010566399 -0.036830001
0.019491542 0.0036575999 -0.00025142872
-0.0020303689 0.0170688 -0.027482145
0.010151845 -0.0081279995 -0.036830001
0.0170551 0.0024383999 -0.0059414292
-0.0097457711 0.0170688 -0.036017146
-0.0085275499 -0.0036575999 -0.036830001
0.012588288 0.0134112 -0.033985
0.010151845 0.014223999 -0.0087864287
-0.012588288 -0.012192 -0.01447643
-0.0012182214 -0.017475199 -0.030327145
0.0170551 -0.0032511998 -0.019760001
0.0016242953 0.017475199 -0.01732143
-0.0056850333 -0.0032511998 -0.036830001
0.0024364428 -0.0170688 -0.0087864287
-0.010151845 0.0073151998 -0.036830001
0.015024731 0.0085343998 -0.031140001
-0.016649026 0.0052831997 -0.0063478574
-0.0170551 -0.0036575999 -0.011631429
-0.012182214 -0.012192 -0.020979287
0.0028425166 -0.0170688 -0.016508572
-0.019897616 0.0024383999 -0.0014707145
-0.015024731 -0.0085343998 -0.02585643
-0.0012182214 -0.0178816 -0.0035028574
0.010557919 0.0138176 -0.012444287
0.010151845 -0.014223999 -0.0055350005
0.0097457711 -0.017475199 -0.036017146
-0.015430804 0.01016 -0.0035028574
-0.0020303689 0.0146304 -0.036830001
0.0077154022 -0.016255999 -0.00025142872
0.015430804 -0.0073151998 -0.015695715
-0.0170551 0.0024383999 -0.018540716
-0.0016242953 -0.017475199 -0.027888574
-0.0069032544 -0.0016255999 -0.036830001
-0.012182214 0.0125984 -0.02585643
0.0028425166 -0.0170688 -0.025450001
-0.019085469 -0.0056896 -0.035610717
0.0056850333 0.0060959999 -0.036830001
0.0077154022 0.0040639997 -0.036830001
-0.0032485905 -0.0166624 -0.00025142872
0.0052789594 0.018694399 -0.00025142872
-0.0012182214 -0.017475199 -0.0055350005
0.018273322 0.0024383999 -0.00025142872
0.012182214 -0.0073151998 -0.036830001
-0.0089336233 -0.0150368 -0.031546429
-0.0040607378 -0.0166624 -0.0091928579
-0.017461173 0.00040639998 -0.02585643
0.006497181 -0.0158496 -0.016915001
0.0060911071 0.0109728 -0.036830001
-0.019897616 0.0036575999 -0.0030964289
0.012588288 -0.011785599 -0.026669286
-0.0024364428 -0.0056896 -0.00025142872
-0.0048728855 0.0089408001 -0.036830001
-0.0040607378 0.016255999 -0.00025142872
-0.016649026 0.0040639997 -0.020979287
-0.013806509 0.0138176 -0.00025142872
0.019897616 0.0016255999 -0.0014707145
0.010557919 -0.0138176 -0.020166429
-0.016649026 -0.0052831997 -0.013257144
-0.016242951 -0.0020319999 -0.036423571
-0.0093396977 -0.00081279996 -0.00025142872
0.0081214756 0.0150368 -0.018540716
-0.014212583 0.0097535998 -0.02585643
-0.0036546641 0.0170688 -0.024637144
-0.015024731 0.0093471995 -0.032359287
-0.0028425166 0.0113792 -0.00025142872
-0.00040607381 -0.0195072 -0.0035028574
-0.016242951 0.0060959999 -0.010005715
-0.0012182214 0.0170688 -0.012444287
0.0077154022 -0.015443199 -0.017727857
0.0012182214 0.015443199 -0.00025142872
0.0016242953 -0.012192 -0.00025142872
0.010151845 -0.0134112 -0.036423571
-0.0040607378 0.0178816 -0.033578575
0.012182214 0.0032511998 -0.00025142872
-0.0089336233 0.0052831997 -0.036830001
-0.0060911071 0.0170688 -0.00025142872
-0.0085275499 -0.0166624 -0.00025142872
-0.019085469 -0.0016255999 -0.00025142872
0.0028425166 -0.0170688 -0.0059414292
-0.010557919 0.0081279995 -0.036830001
0.016649026 0.0056896 -0.0039092861
-0.012588288 0.012192 -0.028295001
-0.0048728855 0.0166624 -0.0067542861
-0.015836878 -0.0028448 -0.036830001
-0.013806509 -0.0065023997 -0.036830001
-0.0089336233 0.0150368 -0.025043573
-0.0032485905 0.018694399 -0.034391429
-0.013400435 0.0040639997 -0.036830001
0.012588288 0.015443199 -0.00025142872
0.01177614 0.013004799 -0.031140001
-0.0024364428 -0.0134112 -0.00025142872
-0.0077154022 0.0040639997 -0.00025142872
-0.0028425166 -0.01016 -0.036830001
0.0097457711 0.0073151998 -0.00025142872
0.016242951 -0.0065023997 -0.02870143
-0.0032485905 -0.0134112 -0.00025142872
-0.018273322 -0.0028448 -0.033985
0.0048728855 -0.0146304 -0.036830001
0.0052789594 0.0012192 -0.036830001
0.016242951 -0.0056896 -0.027482145
-0.016242951 0.0060959999 -0.013257144
-0.019897616 -0.0036575999 -0.0030964289
0.010557919 -0.01016 -0.036830001
0.017461173 0.0052831997 -0.036423571
0.014618657 -0.0138176 -0.035204288
-0.01177614 -0.015443199 -0.0035028574
-0.012588288 -0.0065023997 -0.00025142872
0.0077154022 0.0158496 -0.020572858
0.0020303689 0.0146304 -0.036830001
0.0036546641 -0.0170688 -0.011225001
-0.010557919 0.0138176 -0.027075715
0.015430804 -0.0093471995 -0.032765716
0.016242951 0.0056896 -0.025450001
-0.016649026 0.0040639997 -0.029514287
0.0016242953 0.0170688 -0.010818572
0.016242951 0.0052831997 -0.0079735722
-0.015024731 -0.0125984 -0.033985
0.010557919 0.0166624 -0.0035028574
0.015430804 -0.0081279995 -0.027888574
-0.013400435 -0.00081279996 -0.036830001
-0.0056850333 -0.0191008 -0.0035028574
-0.0048728855 -0.0195072 -0.00025142872
-0.012588288 0.012192 -0.021385716
0.0089336233 0.0016255999 -0.00025142872
-0.010963992 -0.0085343998 -0.036830001
0.0093396977 -0.0146304 -0.023824288
-0.016242951 0.0020319999 -0.036830001
0.017867247 0.00081279996 -0.032765716
0.011370067 0.013004799 -0.028295001
0.0170551 0.0036575999 -0.0083800005
0.01177614 -0.0125984 -0.013663572
-0.0016242953 0.017475199 -0.017727857
0.0012182214 -0.0170688 -0.0079735722
0.0044668117 0.0166624 -0.023011429
0.0097457711 -0.014223999 -0.024230715
0.012182214 -0.012192 -0.0091928579
-0.015430804 -0.0077215997 -0.0059414292
0.016242951 0.0056896 -0.028295001
0.0170551 0.0040639997 -0.024230715
0.0020303689 0.0146304 -0.00025142872
-0.0020303689 -0.017475199 -0.0043157148
0.016242951 0.0056896 -0.0047221431
0.0036546641 -0.0170688 -0.019353572
0.0060911071 -0.0191008 -0.0010642859
0.017461173 -0.0012192 -0.026262859
-0.013806509 -0.010566399 -0.026669286
0.014618657 -0.01016 -0.032359287
-0.013400435 0.0146304 -0.001877143
0.015024731 0.0077215997 -0.036423571
-0.0016242953 0.0150368 -0.00025142872
0.0048728855 -0.0195072 -0.0010642859
-0.010151845 0.0150368 -0.036423571
0.017461173 0 -0.027888574
0.015430804 0.0020319999 -0.00025142872
0.0097457711 -0.0073151998 -0.00025142872
-0.0024364428 -0.0085343998 -0.00025142872
0.016242951 -0.0056896 -0.029107859
0.016649026 0.0089408001 -0.033985
0.018679395 -0.0036575999 -0.00025142872
0.012994362 -0.0056896 -0.036830001
0.017461173 0.00040639998 -0.016102144
0.0012182214 -0.0097535998 -0.036830001
-0.012994362 -0.011785599 -0.015695715
0.010151845 0.0089408001 -0.00025142872
0.013400435 0.0109728 -0.031546429
0.0089336233 0.0178816 -0.034797858
0.0060911071 0.0170688 -0.00025142872
0.018679395 -0.0065023997 -0.0014707145
0.0060911071 0.0191008 -0.036017146
-0.015836878 0.0065023997 -0.0091928579
0.016649026 0.0048767999 -0.023011429
0.0170551 -0.0028448 -0.023417858
-0.013806509 -0.010566399 -0.016508572
0.0060911071 0.016255999 -0.0067542861
0.014618657 0.0093471995 -0.013257144
-0.0170551 0.0012192 -0.016915001
0.018273322 -0.0056896 -0.033985
-0.0040607378 0.018694399 -0.0035028574
-0.0020303689 -0.0170688 -0.020572858
0.015430804 -0.0077215997 -0.022198573
0.016649026 -0.0044704 -0.013663572
-0.015024731 -0.0093471995 -0.036423571
-0.0028425166 0.0020319999 -0.036830001
0.00081214763 -0.010566399 -0.036830001
0.019085469 0.0028448 -0.0035028574
0.015024731 -0.0085343998 -0.029107859
0.013400435 0.0109728 -0.012037857
0.012994362 0.0089408001 -0.036830001
0.0089336233 -0.0150368 -0.017727857
0.0020303689 -0.0170688 -0.0071607148
0.016649026 0.0028448 -0.00025142872
0.010151845 -0.0138176 -0.023824288
0.0044668117 -0.0166624 -0.010818572
-0.012588288 -0.0056896 -0.00025142872
0.0032485905 0.017475199 -0.00025142872
0.016242951 -0.0065023997 -0.02585643
-0.010151845 0.012192 -0.00025142872
0.0016242953 -0.0170688 -0.0063478574
0.010557919 -0.0138176 -0.0039092861
0.0069032544 0.0158496 -0.036423571
0.012182214 -0.0081279995 -0.00025142872
-0.0097457711 0.01016 -0.036830001
0.0069032544 -0.0012192 -0.00025142872
-0.012994362 -0.0052831997 -0.036830001
0.012182214 -0.0097535998 -0.036830001
0.0085275499 0.0150368 -0.012444287
-0.0097457711 0.017475199 -0.033985
0.012182214 -0.0056896 -0.00025142872
0.0170551 0.010566399 -0.001877143
0.012588288 -0.012192 -0.012850715
0.0036546641 0.0178816 -0.036423571
0.01177614 0.0158496 -0.00025142872
-0.016649026 0.0056896 -0.029107859
-0.0032485905 -0.0073151998 -0.036830001
0.0170551 -0.0016255999 -0.013663572
0.017461173 0 -0.018947143
-0.01177614 0.0065023997 -0.036830001
0.013806509 0.01016 -0.0091928579
-0.017461173 -0.0012192 -0.021792144
0.0036546641 0.0195072 -0.034797858
0.0056850333 0.0191008 -0.0022835718
0.010963992 -0.0093471995 -0.036830001
0.006497181 0.0166624 -0.0035028574
-0.0056850333 -0.0069088 -0.036830001
-0.014212583 0.0069088 -0.036830001
-0.0028425166 -0.0170688 -0.013257144
0.017461173 -0.00081279996 -0.01447643
0.013400435 0.0044704 -0.00025142872
-0.018273322 -0.0020319999 -0.036423571
0.0093396977 0.017475199 -0.0014707145
-0.0040607378 0.0020319999 -0.036830001
-0.0012182214 -0.017475199 -0.01732143
-0.017461173 0.0020319999 -0.029107859
-0.015024731 0.0089408001 -0.0091928579
-0.010963992 -0.0048767999 -0.00025142872
-0.0044668117 -0.0048767999 -0.036830001
-0.0093396977 -0.0012192 -0.036830001
0.0024364428 -0.0170688 -0.0095992861
0.006497181 0.016255999 -0.01447643
-0.018273322 0.0028448 -0.036423571
-0.0081214756 0.0170688 -0.0035028574
-0.018679395 -0.0073151998 -0.036017146
-0.015430804 0.0081279995 -0.0095992861
0.0020303689 -0.0170688 -0.025450001
-0.014212583 0.0097535998 -0.029514287
0.015836878 -0.0065023997 -0.026669286
-0.0060911071 -0.012192 -0.036830001
-0.0040607378 -0.0170688 -0.013257144
0.0052789594 0.0113792 -0.00025142872
-0.00081214763 -0.0036575999 -0.00025142872
0.0089336233 -0.0150368 -0.020166429
-0.018273322 -0.0016255999 -0.0035028574
0.019491542 -0.0040639997 -0.00025142872
0.0020303689 -0.016255999 -0.00025142872
0.019085469 -0.0048767999 -0.034391429
0.0028425166 -0.0077215997 -0.00025142872
0.016649026 0.0052831997 -0.025450001
-0.0093396977 -0.0146304 -0.020166429
0.0020303689 0.0170688 -0.010005715
-0.012994362 0.0109728 -0.036423571
-0.0020303689 -0.0170688 -0.023417858
0.0085275499 -0.0150368 -0.018540716
-0.0170551 -0.0020319999 -0.027075715
-0.0016242953 0.0065023997 -0.036830001
-0.00081214763 -0.017475199 -0.016102144
-0.015024731 -0.0012192 -0.00025142872
0.0044668117 -0.0097535998 -0.00025142872
-0.0077154022 0.015443199 -0.019760001
0.016649026 0.0048767999 -0.0083800005
-0.0052789594 -0.016255999 -0.016915001
0.00081214763 0.0170688 -0.00025142872
0.0016242953 0.0052831997 -0.00025142872
-0.0052789594 -0.0048767999 -0.00025142872
-0.010557919 -0.0134112 -0.036423571
-0.0073093283 -0.0158496 -0.017727857
-0.0170551 -0.0052831997 -0.00025142872
0.0089336233 0.0146304 -0.018540716
-0.0032485905 -0.017475199 -0.036423571
-0.011370067 -0.0146304 -0.0035028574
0.0077154022 0.0040639997 -0.00025142872
-0.0016242953 -0.0146304 -0.036830001
-0.0170551 0.010566399 -0.00025142872
-0.0085275499 -0.0178816 -0.035610717
-0.017461173 -0.00081279996 -0.024637144
-0.015430804 0.010566399 -0.033578575
0.015836878 0.0065023997 -0.0079735722
0.0032485905 0.0048767999 -0.00025142872
-0.012994362 0.0150368 -0.036017146
0.015836878 -0.0113792 -0.033985
0.015024731 0.011785599 -0.036423571
0.016649026 0.0052831997 -0.021385716
-0.0044668117 0.016255999 -0.00025142872
0.0020303689 0.017475199 -0.016102144
-0.014618657 -0.0093471995 -0.015695715
0.00081214763 -0.0113792 -0.036830001
-0.0060911071 -0.017475199 -0.036423571
-0.0012182214 -0.0012192 -0.036830001
-0.016242951 0.0065023997 -0.027482145
0.015430804 0.0032511998 -0.036830001
0.0044668117 -0.0166624 -0.030327145
0.0048728855 -0.0166624 -0.023011429
-0.0069032544 -0.0158496 -0.027888574
-0.013400435 0.0113792 -0.024637144
0.0060911071 -0.0073151998 -0.036830001
-0.014618657 0.0093471995 -0.02870143
0.0036546641 0 -0.036830001
0.018679395 0 -0.033985
-0.0040607378 -0.0044704 -0.00025142872
0.0044668117 -0.018288 -0.033985
-0.0012182214 0.0093471995 -0.00025142872
0.0073093283 0.0020319999 -0.00025142872
-0.015430804 -0.012192 -0.036017146
-0.0016242953 -0.0170688 -0.015695715
-0.018273322 0.0044704 -0.036423571
0.012182214 0.0097535998 -0.036830001
0.0170551 -0.010566399 -0.001877143
-0.0040607378 -0.0150368 -0.036830001
0.012182214 0.0125984 -0.027888574
0.018273322 0.0036575999 -0.00025142872
-0.016649026 -0.0081279995 -0.00025142872
-0.0089336233 0.0150368 -0.021792144
-0.0081214756 0.0081279995 -0.00025142872
0.015836878 -0.0093471995 -0.036423571
-0.0093396977 0.0146304 -0.01407
0.014212583 -0.0065023997 -0.036830001
-0.0056850333 0.0077215997 -0.00025142872
0.013400435 0.0109728 -0.0047221431
-0.0069032544 -0.0158496 -0.030327145
0.017461173 0.0028448 -0.0043157148
-0.017867247 0.0085343998 -0.036017146
0.014212583 -0.0032511998 -0.00025142872
-0.018273322 -0.0028448 -0.036423571
0.0048728855 0.01016 -0.00025142872
-0.010557919 0.0097535998 -0.036830001
-0.010151845 0.0012192 -0.00025142872
0.015024731 -0.0085343998 -0.0087864287
0.0073093283 -0.0138176 -0.00025142872
0.015024731 -0.0085343998 -0.022605002
0.017461173 -0.00081279996 -0.016102144
0.016649026 0.0052831997 -0.015289286
0.0024364428 0.0170688 -0.022198573
0 -0.018288 -0.033985
0.0052789594 -0.00040639998 -0.036830001
0.01177614 -0.0146304 -0.033985
-0.0020303689 -0.0150368 -0.00025142872
0.0170551 -0.0020319999 -0.0095992861
-0.010151845 0.0016255999 -0.00025142872
0.017461173 -0.0060959999 -0.033985
-0.013806509 0.0085343998 -0.036830001
0 0.017475199 -0.030733572
0.012182214 0.015443199 -0.00025142872
0.015836878 0.0065023997 -0.0051285718
-0.00081214763 0.015443199 -0.00025142872
-0.012994362 -0.011785599 -0.029107859
0.010963992 -0.0028448 -0.00025142872
0.015430804 -0.0077215997 -0.025043573
-0.015430804 -0.0081279995 -0.0083800005
0.012182214 -0.0125984 -0.030733572
0.012182214 0.0081279995 -0.036830001
-0.019085469 0.0060959999 -0.00065785728
0.015024731 -0.0040639997 -0.00025142872
-0.01177614 -0.014223999 -0.00025142872
-0.0073093283 0.0158496 -0.018540716
0.015024731 0.0085343998 -0.021792144
-0.017461173 0.0069088 -0.033985
-0.013806509 0.0125984 -0.0035028574
0.013400435 -0.0044704 -0.036830001
-0.012994362 0.0044704 -0.00025142872
0.0016242953 0.0170688 -0.019353572
-0.0089336233 -0.0146304 -0.0051285718
0.0097457711 0.0125984 -0.00025142872
-0.0040607378 0.0195072 -0.0010642859
0.012994362 0.0097535998 -0.00025142872
0.016649026 -0.0048767999 -0.022198573
0.0052789594 0.015443199 -0.00025142872
-0.018273322 -0.0073151998 -0.00025142872
-0.015836878 0.011785599 -0.034391429
-0.016242951 -0.0065023997 -0.02870143
-0.0048728855 0.017475199 -0.00025142872
0.018679395 0.00040639998 -0.00025142872
-0.0012182214 0.0170688 -0.018134287
0.016242951 0.0065023997 -0.036423571
0.010151845 0.014223999 -0.018540716
-0.016649026 0.0036575999 -0.0079735722
0.0170551 -0.0032511998 -0.0091928579
-0.017461173 -0.00081279996 -0.029920716
0.018273322 0.0052831997 -0.036423571
0.0170551 -0.0028448 -0.013663572
0.012994362 -0.0113792 -0.020979287
0.010151845 0.0170688 -0.001877143
-0.016649026 -0.0012192 -0.00025142872
-0.0170551 -0.0032511998 -0.023824288
0.0170551 0.0032511998 -0.0087864287
0.00081214763 0.0166624 -0.00025142872
0.010557919 0.015443199 -0.036423571
-0.014212583 0.0052831997 -0.036830001
-0.0052789594 0.0166624 -0.02585643
-0.0016242953 0.0028448 -0.00025142872
0.013806509 -0.010566399 -0.0095992861
-0.0097457711 0.014223999 -0.0067542861
0.012994362 0.0113792 -0.019353572
-0.0170551 -0.0020319999 -0.024230715
0.0060911071 0.0056896 -0.036830001
-0.013806509 0.010566399 -0.012850715
-0.0093396977 -0.0028448 -0.00025142872
-0.013400435 0.0109728 -0.0095992861
0.0056850333 -0.0191008 -0.0014707145
-0.0056850333 -0.0085343998 -0.036830001
0.010963992 -0.0040639997 -0.00025142872
-0.0016242953 -0.017475199 -0.018947143
-0.0040607378 0.016255999 -0.036423571
0.011370067 0.0150368 -0.00025142872
0.013400435 -0.0146304 -0.0014707145
-0.0170551 -0.0020319999 -0.021385716
-0.00040607381 -0.019913599 -0.034797858
-0.017461173 -0.0040639997 -0.00025142872
-0.017867247 -0.0073151998 -0.00025142872
0.017867247 0.0024383999 -0.036423571
0.018679395 0.0016255999 -0.0035028574
0.006497181 0.0158496 -0.015289286
-0.014618657 0.0134112 -0.034797858
-0.011370067 0.0138176 -0.033578575
0.017461173 -0.0085343998 -0.00025142872
0 0.0040639997 -0.036830001
-0.0036546641 -0.0170688 -0.024230715
-0.006497181 0.016255999 -0.030733572
0.015836878 0.0073151998 -0.0055350005
0.0170551 0.0024383999 -0.022605002
-0.018679395 -0.0077215997 -0.0030964289
0.0056850333 0.018694399 -0.00025142872
-0.0052789594 -0.0113792 -0.00025142872
0.015430804 -0.011785599 -0.00025142872
0.017867247 -0.0040639997 -0.0035028574
-0.010151845 -0.0150368 -0.036423571
0.006497181 0.018694399 -0.00025142872
0.0032485905 0.013004799 -0.036830001
-0.0069032544 -0.0158496 -0.031140001
-0.017461173 -0.0028448 -0.0071607148
-0.0040607378 -0.0069088 -0.036830001
0.013806509 0.011785599 -0.00025142872
0.010557919 0.0077215997 -0.00025142872
-0.0060911071 0.0073151998 -0.036830001
-0.018679395 -0.0048767999 -0.033985
-0.017867247 -0.0085343998 -0.0035028574
0.00081214763 0.017475199 -0.030327145
0.0036546641 0.0170688 -0.018947143
0.012182214 0.013004799 -0.0035028574
0.013400435 0.0093471995 -0.036423571
0.017461173 0.0048767999 -0.036423571
-0.018273322 0.0036575999 -0.00025142872
-0.015836878 -0.0097535998 -0.00025142872
0.0036546641 0.0024383999 -0.036830001
0.017867247 -0.0020319999 -0.036423571
-0.016649026 0.0085343998 -0.00025142872
-0.00081214763 -0.0170688 -0.0079735722
-0.0016242953 0.0077215997 -0.00025142872
-0.010963992 -0.0134112 -0.020166429
-0.0170551 0.0020319999 -0.0091928579
-0.015836878 -0.01016 -0.033985
0.015430804 0.011785599 -0.036017146
-0.010151845 0.0170688 -0.00025142872
0.0170551 -0.0032511998 -0.023417858
0.015024731 -0.0032511998 -0.036830001
-0.0056850333 -0.0097535998 -0.036830001
0.012588288 -0.0073151998 -0.036830001
0.0081214756 0.0158496 -0.033172145
-0.010557919 -0.010566399 -0.036830001
-0.0044668117 -0.016255999 -0.036423571
0.016242951 0.0065023997 -0.021792144
0.0170551 0 -0.01407
-0.017461173 -0.00040639998 -0.031952858
-0.0073093283 -0.015443199 -0.00025142872
-0.0012182214 -0.00081279996 -0.036830001
0.0170551 -0.00040639998 -0.0079735722
0.0060911071 -0.0191008 -0.0014707145
0.016649026 -0.0056896 -0.031952858
0.017461173 0.0052831997 -0.00025142872
0.0036546641 -0.0077215997 -0.036830001
-0.0089336233 0.0178816 -0.034797858
-0.018273322 -0.0016255999 -0.033578575
0.0032485905 0.0170688 -0.0059414292
-0.00040607381 0.017475199 -0.012850715
0.015836878 0.011785599 -0.0035028574
0.0024364428 0.0170688 -0.024230715
0.0020303689 0.017475199 -0.0039092861
0.0089336233 0.0028448 -0.00025142872
0.017867247 0.0060959999 -0.036423571
-0.011370067 -0.0032511998 -0.036830001
-0.0036546641 0.018288 -0.0035028574
0.015430804 0.0077215997 -0.018947143
-0.015836878 0.0069088 -0.010818572
-0.018273322 -0.0012192 -0.033578575
-0.016649026 -0.0093471995 -0.0035028574
0.0089336233 0.0170688 -0.0035028574
0.01177614 0.0077215997 -0.00025142872
-0.0097457711 0.0028448 -0.036830001
-0.0044668117 0.0093471995 -0.036830001
-0.0170551 0.0032511998 -0.013257144
0.019897616 0 -0.0010642859
0.017461173 -0.0020319999 -0.030327145
0.0036546641 0.018288 -0.00025142872
0.0024364428 0.0097535998 -0.036830001
-0.012182214 -0.0012192 -0.036830001
-0.0089336233 0.0150368 -0.013257144
0.006497181 0.0024383999 -0.036830001
0.012994362 -0.0125984 -0.036423571
0.017461173 0.00040639998 -0.0067542861
-0.012994362 -0.011785599 -0.0087864287
-0.016242951 -0.0056896 -0.0051285718
0.0044668117 0.0166624 -0.024230715
0.0081214756 -0.015443199 -0.016915001
0.017461173 0.0085343998 -0.033578575
-0.010963992 -0.0134112 -0.036423571
0 -0.0191008 -0.0035028574
-0.017461173 -0.0028448 -0.01447643
-0.015836878 -0.00040639998 -0.036017146
-0.014618657 -0.010566399 -0.033172145
0.010557919 -0.0138176 -0.029514287
0.0085275499 -0.0150368 -0.017727857
0 0.017475199 -0.013257144
-0.019085469 0.0056896 -0.0035028574
-0.0052789594 0.0089408001 -0.00025142872
0.0016242953 -0.0170688 -0.00025142872
0 -0.0081279995 -0.00025142872
-0.015024731 0.0085343998 -0.015695715
-0.016649026 0.0077215997 -0.0035028574
0.0089336233 -0.014223999 -0.00025142872
0.017461173 -0.0012192 -0.036423571
-0.0170551 0.0048767999 -0.031952858
0.015024731 -0.0093471995 -0.027482145
-0.0056850333 0.016255999 -0.0051285718
-0.0020303689 -0.0081279995 -0.00025142872
0.0056850333 -0.016255999 -0.0063478574
-0.013806509 -0.012192 -0.0035028574
-0.0048728855 0.0077215997 -0.00025142872
0.0040607378 0.0166624 -0.0079735722
-0.015024731 0.0048767999 -0.036830001
-0.0024364428 -0.0170688 -0.018947143
0.00081214763 -0.0170688 -0.021385716
-0.0170551 -0.0069088 -0.0035028574
-0.012182214 -0.0125984 -0.029514287
0.0073093283 0.0020319999 -0.036830001
0.006497181 -0.0044704 -0.00025142872
0.0056850333 0.0170688 -0.00025142872
-0.015430804 0.0113792 -0.036423571
0.0097457711 -0.0146304 -0.0043157148
0.0028425166 0.018694399 -0.00025142872
0.0028425166 -0.0195072 -0.033985
-0.015836878 -0.0032511998 -0.00025142872
-0.013400435 -0.014223999 -0.036017146
0.00040607381 0.0178816 -0.032359287
-0.016649026 0.0052831997 -0.018540716
-0.017461173 0.0016255999 -0.016102144
-0.013400435 0.012192 -0.00025142872
-0.012182214 -0.0125984 -0.026262859
0.015836878 0.0065023997 -0.036423571
-0.0073093283 -0.015443199 -0.036423571
0.015430804 -0.011785599 -0.033985
0.019897616 0.0012192 -0.0026900002
-0.014212583 -0.00040639998 -0.036830001
0.006497181 -0.016255999 -0.024637144
0.015836878 0.0093471995 -0.033578575
-0.0085275499 -0.0158496 -0.033578575
0.0048728855 0.0134112 -0.036830001
-0.016649026 0.0052831997 -0.011225001
-0.0020303689 0.0170688 -0.016102144
0.0028425166 -0.0028448 -0.00025142872
-0.00081214763 -0.00040639998 -0.00025142872
0.0170551 0.0016255999 -0.0051285718
0.014212583 -0.0113792 -0.0035028574
-0.0056850333 0.00081279996 -0.036830001
-0.011370067 0.01016 -0.036830001
-0.012588288 -0.012192 -0.031952858
-0.0056850333 -0.016255999 -0.0039092861
-0.00040607381 -0.01016 -0.00025142872
-0.019491542 0.0052831997 -0.001877143
0.014618657 0.0093471995 -0.031140001
0.0060911071 -0.016255999 -0.013257144
-0.0020303689 -0.0170688 -0.015289286
-0.010557919 -0.0138176 -0.01447643
0.015836878 -0.0069088 -0.031140001
0.012994362 0.0016255999 -0.036830001
-0.00081214763 -0.019913599 -0.0022835718
-0.0016242953 0.0012192 -0.036830001
-0.0040607378 0.0166624 -0.0063478574
-0.010151845 -0.0138176 -0.0091928579
-0.00040607381 -0.017475199 -0.026669286
0.016242951 -0.0065023997 -0.025043573
-0.013400435 0.00081279996 -0.036830001
-0.0012182214 0.0056896 -0.00025142872
0.0020303689 -0.0195072 -0.036017146
-0.012994362 0.0073151998 -0.036830001
-0.0170551 -0.0016255999 -0.029920716
-0.0085275499 0.0150368 -0.025450001
0.015430804 0.0077215997 -0.029107859
0.0077154022 -0.0166624 -0.036423571
0.016242951 -0.0073151998 -0.032359287
0.0056850333 -0.0097535998 -0.00025142872
-0.0048728855 0.0191008 -0.036017146
0.014212583 0.0097535998 -0.016915001
0.014618657 0.0097535998 -0.0043157148
-0.0048728855 -0.0077215997 -0.036830001
0.013400435 -0.0109728 -0.031140001
0.013806509 -0.010566399 -0.01447643
-0.01177614 -0.0134112 -0.0035028574
-0.0048728855 -0.00040639998 -0.00025142872
0.0052789594 -0.0166624 -0.031140001
-0.0081214756 0.0150368 -0.036423571
-0.0032485905 0.0032511998 -0.036830001
-0.0044668117 0.0191008 -0.034391429
-0.015430804 -0.0052831997 -0.00025142872
0.0170551 0.0028448 -0.029920716
-0.0032485905 0 -0.036830001
-0.013400435 -0.014223999 -0.034391429
0.00040607381 -0.0170688 -0.012444287
0.014618657 0.0093471995 -0.028295001
0.0052789594 0.0166624 -0.031952858
-0.016649026 0.0052831997 -0.023011429
-0.017461173 0 -0.021792144
-0.012994362 -0.0089408001 -0.036830001
0.0073093283 -0.016255999 -0.0035028574
0.015836878 0.012192 -0.035204288
0.0097457711 -0.0081279995 -0.036830001
-0.0048728855 0.015443199 -0.00025142872
0.016649026 -0.0073151998 -0.033985
0.019897616 -0.00040639998 -0.034391429
0.0052789594 0.0113792 -0.036830001
0.015430804 -0.0073151998 -0.014882858
-0.0016242953 -0.015443199 -0.036830001
-0.00040607381 0.0093471995 -0.00025142872
0.013806509 0.01016 -0.00025142872
0.0060911071 0.0077215997 -0.036830001
-0.015430804 -0.0032511998 -0.00025142872
0.0032485905 0.0170688 -0.025043573
0 0.0016255999 -0.00025142872
0.012994362 0 0.0025935713
-0.010557919 0.0138176 -0.0055350005
-0.012994362 -0.011785599 -0.014882858
0.0069032544 0.0158496 -0.024637144
-0.016242951 0.0065023997 -0.030327145
0.0093396977 0.0146304 -0.021385716
0.016242951 -0.0044704 -0.00025142872
-0.0052789594 -0.0166624 -0.0047221431
-0.017867247 0.0073151998 -0.036017146
0.0016242953 -0.017475199 -0.011225001
-0.016242951 -0.0060959999 -0.0047221431
0.011370067 0.013004799 -0.021385716
-0.016649026 -0.0052831997 -0.0059414292
0.0069032544 -0.014223999 -0.036830001
-0.0048728855 0.0166624 -0.027075715
-0.016649026 -0.0052831997 -0.019760001
-0.016242951 -0.0056896 -0.0095992861
-0.018273322 -0.0040639997 -0.033985
0.0085275499 -0.0150368 -0.010412144
0.012588288 -0.0065023997 -0.036830001
-0.012588288 -0.013004799 -0.036423571
-0.0048728855 0.0166624 -0.017727857
-0.0016242953 -0.017475199 -0.00025142872
-0.0085275499 0.0170688 -0.00025142872
-0.017461173 0 -0.0059414292
-0.011370067 -0.014223999 -0.0035028574
0.0170551 0.0040639997 -0.0055350005
-0.015430804 0.0073151998 -0.019353572
0.0032485905 0.0170688 -0.036423571
-0.01177614 -0.0044704 -0.036830001
-0.010151845 0.0146304 -0.00025142872
-0.0081214756 -0.018288 -0.034797858
-0.016649026 -0.0073151998 -0.0035028574
-0.015024731 0.0089408001 -0.032359287
-0.010151845 -0.0134112 -0.00025142872
-0.0073093283 -0.0158496 -0.029107859
0.016242951 0.0060959999 -0.0083800005
-0.015430804 0.0093471995 -0.0035028574
0.013400435 0.010566399 -0.00025142872
-0.00081214763 -0.0085343998 -0.00025142872
0.010963992 -0.0134112 -0.020166429
0.012182214 0.0125984 -0.027482145
0.0032485905 0.0138176 -0.036830001
-0.016649026 -0.0109728 -0.001877143
-0.0093396977 -0.0032511998 -0.036830001
-0.010557919 0.0032511998 -0.036830001
-0.0085275499 0.0150368 -0.00025142872
-0.01177614 -0.0125984 -0.017727857
-0.0052789594 0.0170688 -0.0035028574
0.013400435 -0.0146304 -0.001877143
0.0052789594 -0.0166624 -0.01447643
0.0093396977 -0.0146304 -0.020979287
0.01177614 0.0125984 -0.026669286
-0.0073093283 0.0097535998 -0.00025142872
0.01177614 -0.0125984 -0.015289286
0.0170551 0.0085343998 -0.036423571
-0.0056850333 0.0158496 -0.036423571
0.0081214756 0.015443199 -0.030327145
0.017867247 -0.0085343998 -0.035610717
-0.013806509 0.01016 -0.022605002
0.0097457711 -0.0146304 -0.0087864287
-0.015836878 0.0085343998 -0.0035028574
-0.016242951 0.0060959999 -0.010412144
0.0012182214 0.0178816 -0.033172145
-0.0036546641 0.0170688 -0.025043573
-0.010963992 0.0134112 -0.018540716
-0.017461173 0.0012192 -0.014882858
-0.0032485905 0.0178816 -0.0035028574
-0.012994362 -0.0097535998 -0.036423571
-0.0060911071 0.016255999 -0.019353572
0.014618657 -0.0093471995 -0.019353572
0.0024364428 0.0028448 -0.036830001
-0.018679395 0.0073151998 -0.0026900002
0.0089336233 0.0146304 -0.025450001
-0.0024364428 -0.0097535998 -0.00025142872
-0.016649026 0.0044704 -0.024637144
-0.016242951 0.0081279995 -0.036423571
-0.0056850333 -0.016255999 -0.015289286
0.0081214756 0.0044704 -0.036830001
0.0170551 -0.0073151998 -0.033985
-0.0016242953 0.0170688 -0.010818572
0.0040607378 0.0195072 -0.0035028574
0.017461173 0.0020319999 -0.0043157148
-0.015430804 0.0073151998 -0.0063478574
-0.010151845 -0.0134112 -0.036423571
0.015430804 0.0073151998 -0.015289286
-0.0024364428 0.0016255999 -0.036830001
0.0170551 0.0024383999 -0.013663572
-0.016242951 0.0081279995 -0.0035028574
0.012182214 0.0125984 -0.024230715
-0.012994362 -0.011785599 -0.030733572
0.012182214 0.0093471995 -0.036830001
0.0060911071 -0.0158496 -0.0051285718
-0.0069032544 -0.0134112 -0.00025142872
-0.010557919 -0.0138176 -0.017727857
0.0097457711 -0.0052831997 -0.036830001
-0.0073093283 -0.0065023997 -0.036830001
0.0085275499 0.014223999 -0.00025142872
-0.0073093283 0.017475199 -0.036423571
0.014618657 0.0093471995 -0.0051285718
0.016242951 -0.0060959999 -0.024637144
0.0056850333 -0.016255999 -0.027888574
0.0170551 -0.0012192 -0.019353572
0.0044668117 -0.0166624 -0.029514287
0.016649026 0.0040639997 -0.0079735722
-0.012182214 0.0138176 -0.00025142872
-0.016242951 -0.0069088 -0.021792144
-0.010557919 0.0138176 -0.027482145
0.0052789594 0.0166624 -0.021792144
0.0089336233 -0.0166624 -0.0035028574
-0.018679395 -0.0069088 -0.033985
-0.0036546641 -0.013004799 -0.00025142872
-0.0036546641 -0.0170688 -0.011225001
-0.0016242953 0.017475199 -0.010005715
0.0170551 0.0012192 -0.0079735722
-0.0081214756 0.0012192 -0.036830001
0.0060911071 0.012192 -0.00025142872
0.019897616 0.0016255999 -0.001877143
-0.010557919 0.0170688 -0.036017146
0.010557919 -0.0048767999 -0.036830001
0.010963992 0.011785599 -0.00025142872
-0.0093396977 0.0097535998 -0.036830001
-0.016242951 0.0065023997 -0.02585643
0.013806509 -0.010566399 -0.018540716
-0.0044668117 -0.0166624 -0.018134287
-0.015836878 -0.0069088 -0.022605002
0.015430804 -0.0081279995 -0.026669286
0.016649026 -0.0044704 -0.018947143
0.016649026 -0.0060959999 -0.032765716
-0.012588288 -0.0093471995 -0.00025142872
0.0016242953 -0.00040639998 -0.036830001
-0.017461173 0.0016255999 -0.012850715
-0.0089336233 0.0178816 -0.0010642859
-0.015430804 -0.0081279995 -0.030327145
-0.016242951 -0.00040639998 -0.00025142872
0.0040607378 0.0166624 -0.028295001
0.0060911071 -0.016255999 -0.0055350005
-0.0048728855 0.0166624 -0.031140001
-0.01177614 0.011785599 -0.00025142872
-0.0016242953 -0.00040639998 -0.036830001
0.0085275499 0.016255999 -0.00025142872
-0.0040607378 0.0166624 -0.013663572
-0.019491542 0.0016255999 -0.034391429
-0.013806509 0.010566399 -0.017727857
-0.0085275499 -0.0085343998 -0.00025142872
-0.017867247 -0.0016255999 -0.033172145
-0.0069032544 0.017475199 -0.036423571
0.0024364428 0.0170688 -0.013257144
-0.019897616 0.00081279996 -0.0026900002
0.016242951 -0.0073151998 -0.033578575
0.0040607378 -0.0028448 -0.036830001
-0.0016242953 0.0170688 -0.015289286
0.0073093283 0.0158496 -0.018947143
0.0028425166 -0.00040639998 -0.00025142872
0.006497181 0.011785599 -0.00025142872
0.014212583 -0.0073151998 -0.00025142872
-0.017461173 0.0036575999 -0.033172145
0.0170551 -0.0060959999 -0.033578575
-0.013806509 0.013004799 -0.0035028574
-0.013806509 0.0097535998 -0.036423571
0.00040607381 0.017475199 -0.0083800005
0.010963992 0.0134112 -0.020572858
-0.00040607381 -0.017475199 -0.019353572
-0.017461173 0.0016255999 -0.018947143
-0.011370067 -0.01016 -0.036830001
0.0036546641 -0.0069088 -0.00025142872
-0.016242951 -0.0097535998 -0.00025142872
-0.017461173 0.0012192 -0.031140001
0.0016242953 -0.017475199 -0.023011429
-0.015024731 0.011785599 -0.036423571
-0.016649026 0.0056896 -0.011631429
-0.010963992 0.01016 -0.036830001
-0.0044668117 -0.0170688 -0.033578575
-0.0048728855 -0.0125984 -0.00025142872
-0.013806509 -0.0109728 -0.0035028574
-0.0032485905 0.012192 -0.00025142872
-0.0028425166 -0.0166624 -0.00025142872
-0.017461173 -0.00081279996 -0.021792144
0.0044668117 0.015443199 -0.036830001
-0.0060911071 -0.0150368 -0.036830001
0.00040607381 -0.017475199 -0.029514287
0.006497181 -0.016255999 -0.012850715
-0.0170551 0.00081279996 -0.023824288
0.0077154022 -0.0089408001 -0.00025142872
0.017461173 0.0093471995 -0.034797858
0.0077154022 0.0044704 -0.00025142872
0.0170551 0.0024383999 -0.014882858
0.0060911071 -0.0052831997 -0.036830001
0.0081214756 0.0060959999 -0.00025142872
-0.0040607378 -0.0195072 -0.00065785728
0.0085275499 0.0150368 -0.011225001
-0.016649026 0.0109728 -0.033985
-0.0170551 -0.0020319999 -0.02585643
-0.0044668117 0.017475199 -0.033172145
-0.013400435 0.0109728 -0.013663572
-0.016242951 -0.0097535998 -0.036423571
0.014212583 -0.0097535998 -0.016508572
-0.019897616 0.0028448 -0.0026900002
0.0040607378 -0.0166624 -0.0091928579
0.0048728855 -0.0150368 -0.00025142872
0.018273322 -0.0065023997 -0.036423571
0.017461173 -0.0012192 -0.030327145
-0.012182214 -0.0020319999 -0.036830001
0.0081214756 -0.0097535998 -0.00025142872
0.013806509 0.010566399 -0.01447643
0.00040607381 0.0024383999 -0.036830001
-0.010151845 0.0138176 -0.018134287
0.015430804 0.0073151998 -0.00025142872
-0.0170551 0.0016255999 -0.028295001
0.010557919 -0.0052831997 -0.036830001
-0.0170551 -0.0040639997 -0.023011429
-0.01177614 -0.013004799 -0.023417858
-0.01177614 -0.013004799 -0.024230715
0.0093396977 -0.0146304 -0.031952858
0.0170551 0.0028448 -0.021385716
-0.0052789594 0.00081279996 -0.00025142872
0.0052789594 -0.01016 -0.00025142872
-0.017867247 -0.0073151998 -0.0035028574
0.013400435 0.0113792 -0.031140001
0.014618657 -0.0113792 -0.036423571
-0.010557919 -0.0170688 -0.00025142872
0.00040607381 0.017475199 -0.029920716
0.0073093283 0.0052831997 -0.00025142872
0.0032485905 -0.0195072 -0.00025142872
0.0044668117 0.0166624 -0.017727857
-0.017867247 -0.0069088 -0.036423571
0.011370067 -0.0069088 -0.00025142872
0.00040607381 0.0195072 -0.036017146
-0.012588288 0.011785599 -0.025450001
0.0097457711 -0.014223999 -0.012444287
-0.014618657 -0.011785599 -0.033985
-0.010557919 0.0020319999 -0.036830001
-0.01177614 0.0028448 -0.00025142872
0.015024731 -0.0109728 -0.033578575
0.013400435 0.0109728 -0.027482145
0.015430804 -0.0081279995 -0.0091928579
-0.0097457711 -0.014223999 -0.0047221431
-0.0085275499 -0.0150368 -0.02585643
-0.019897616 0.00081279996 -0.00025142872
0.0028425166 0.0081279995 -0.00025142872
0.016242951 -0.0032511998 -0.036423571
0.0036546641 0.0012192 -0.036830001
-0.0012182214 0.0191008 -0.0035028574
0.012182214 0.01016 -0.036830001
0.0028425166 -0.0170688 -0.011631429
-0.015430804 0.011785599 -0.00025142872
-0.016649026 -0.0036575999 -0.010818572
0.0052789594 0.0166624 -0.031546429
0.0097457711 -0.0077215997 -0.036830001
-0.0032485905 0.0170688 -0.0063478574
0.014212583 0.01016 -0.031952858
0.010151845 0.015443199 -0.00025142872
-0.0093396977 0.0150368 -0.033172145
0.016242951 -0.0065023997 -0.030733572
0.00040607381 0.0170688 -0.0079735722
-0.0052789594 -0.0166624 -0.02870143
0.0060911071 -0.016255999 -0.021385716
-0.010151845 -0.014223999 -0.021792144
0.0024364428 0.012192 -0.00025142872
0.010963992 0.015443199 -0.033985
0.0081214756 0.015443199 -0.011225001
0.0040607378 -0.0060959999 -0.00025142872
-0.0069032544 0.0056896 -0.036830001
0.006497181 -0.015443199 -0.036423571
-0.012994362 -0.0020319999 -0.00025142872
-0.0060911071 0.016255999 -0.015695715
-0.01177614 0.00040639998 -0.036830001
-0.0040607378 -0.0044704 -0.036830001
-0.0012182214 0.017475199 -0.031952858
-0.0044668117 0.0166624 -0.012444287
-0.0044668117 0.0085343998 -0.036830001
-0.0016242953 -0.0044704 -0.00025142872
-0.010557919 -0.0085343998 -0.00025142872
-0.0024364428 0.0065023997 -0.036830001
0.0028425166 -0.0065023997 -0.036830001
0.0036546641 0.0170688 -0.023011429
0.0016242953 0.011785599 -0.00025142872
0.012588288 0.0052831997 -0.00025142872
-0.015836878 -0.0109728 -0.036423571
0.010151845 0.0138176 -0.016508572
-0.0044668117 0.0166624 -0.025450001
-0.0170551 -0.00081279996 -0.0067542861
-0.01177614 -0.0081279995 -0.036830001
0.0170551 -0.0020319999 -0.021385716
0.0040607378 -0.0170688 -0.036423571
0.012994362 -0.0113792 -0.036423571
0.010963992 0.013004799 -0.00025142872
0.012994362 0.0113792 -0.015695715
-0.0093396977 0.0146304 -0.026262859
0.0032485905 -0.0170688 -0.013663572
-0.012588288 0.015443199 -0.035204288
-0.0085275499 0.016255999 -0.033985
-0.0048728855 0.0170688 -0.032765716
-0.015836878 0.0032511998 -0.036830001
-0.0097457711 -0.0113792 -0.036830001
-0.0028425166 0.0170688 -0.030327145
-0.0077154022 0.0056896 -0.036830001
-0.0097457711 0.014223999 -0.0079735722
-0.0073093283 0.0158496 -0.031140001
0.013400435 0.0109728 -0.014882858
0.0052789594 -0.0016255999 -0.00025142872
0.012182214 0.0125984 -0.036423571
0.017461173 0.00081279996 -0.024230715
-0.0069032544 0.0089408001 -0.036830001
0.015836878 0.0069088 -0.0079735722
0.010963992 0.0134112 -0.018540716
-0.012994362 0.011785599 -0.024230715
0.0052789594 -0.0146304 -0.036830001
0.0020303689 0.0012192 -0.00025142872
0.017461173 0.0077215997 -0.033578575
0.0081214756 0.0020319999 -0.00025142872
0.0069032544 -0.0166624 -0.033578575
0.0052789594 -0.010566399 -0.00025142872
0.0077154022 -0.015443199 -0.026669286
0.016242951 0.0060959999 -0.018134287
-0.0032485905 -0.010566399 -0.036830001
0.0016242953 0.0170688 -0.0051285718
0.0089336233 0.01016 -0.036830001
-0.0040607378 -0.0170688 -0.030327145
0.0089336233 0.0166624 -0.0035028574
0.0060911071 -0.017475199 -0.033985
0.016242951 0.0056896 -0.015695715
-0.017461173 0.00040639998 -0.01407
-0.013400435 -0.0125984 -0.00025142872
-0.0040607378 0.018288 -0.033985
-0.0056850333 -0.0069088 -0.00025142872
0.012182214 -0.012192 -0.029920716
0.006497181 -0.018694399 -0.035610717
-0.0060911071 -0.016255999 -0.0059414292
0.017461173 0.0012192 -0.010412144
-0.017461173 0.0012192 -0.0075671435
0.0089336233 -0.0166624 -0.00025142872
0.010557919 -0.0138176 -0.020572858
0.017461173 -0.00081279996 -0.0039092861
0.0069032544 0.016255999 -0.029107859
0.0077154022 0.015443199 -0.024230715
-0.0056850333 0.0166624 -0.0043157148
0.015024731 -0.00081279996 -0.036830001
0.012994362 -0.0069088 -0.00025142872
0.0077154022 -0.015443199 -0.012037857
-0.0044668117 0.0166624 -0.029920716
0.0056850333 0.016255999 -0.019760001
-0.014212583 -0.0020319999 -0.00025142872
0.0069032544 0.018694399 -0.00065785728
0.0093396977 0.0065023997 -0.00025142872
0.0060911071 0.0069088 -0.00025142872
-0.017867247 0.0085343998 -0.034391429
-0.018679395 0.0012192 -0.0035028574
-0.00040607381 0.019913599 -0.035204288
-0.016649026 0.00040639998 -0.00025142872
-0.0081214756 -0.015443199 -0.023011429
-0.00081214763 -0.0065023997 -0.00025142872
0.0170551 -0.0016255999 -0.0067542861
0.0048728855 -0.0166624 -0.021792144
0.01177614 -0.0125984 -0.018540716
0.0097457711 0.0146304 -0.036423571
-0.015430804 -0.0077215997 -0.011225001
0.015836878 0.0081279995 -0.032765716
