# .PCD v0.7 - Point Cloud Data file format
VERSION 0.7
FIELDS x y z
SIZE 4 4 4
TYPE F F F
COUNT 1 1 1
WIDTH 1200
HEIGHT 1
VIEWPOINT 0 0 0 1 0 0 0
POINTS 1200
DATA ascii
-0.0082384115 0.0035676593 -0.011825273
0.0042305361 0.0035676593 -9.7818207e-05
-0.0086837318 0.0044595744 -0.019348545
0.0095743705 -0.0024527658 -9.7818207e-05
-0.0080157518 0.0040136171 -0.015365637
-0.0086837318 0.0022297872 -0.015365637
-0.0086837318 0.004682553 -0.019348545
-0.0040078759 0.00044595741 -0.02134
0.0042305361 -0.007804255 -0.014480545
0.002003938 -0.0020068085 -9.7818207e-05
-0.0048985151 0.00044595741 -9.7818207e-05
0.0082384115 -0.0053514889 -0.001868
-0.0080157518 -0.0042365957 -0.018020909
0.0046758554 -0.001560851 -9.7818207e-05
-0.0095743705 0.0037906382 -0.0014254546
-0.0055664945 0.0069123399 -0.010276364
0.0084610721 0.0033446806 -0.014259273
0.0035625566 0.0084731914 -0.018906001
-0.0082384115 0.0035676593 -0.0029743637
0.00066797936 0.0089191487 -0.018463455
0.0089063914 0.0011148936 -0.0038594545
0.00022265979 -0.0089191487 -0.011382727
0.0013359587 -0.0057974467 -0.02134
-0.003117237 0.0084731914 -0.0043020002
0.002003938 -0.010034042 -0.0012041818
0.0089063914 -0.00066893612 -0.018242182
-0.0035625566 -0.004682553 -0.02134
0.00089063914 -0.010034042 -0.001868
0.0089063914 0.001560851 -0.0067360001
-0.006234474 -0.0069123399 -0.001868
0.0028945771 -0.0037906382 -0.02134
-0.0093517108 -0.003121702 -9.7818207e-05
0.006902453 0.007804255 -0.020012364
0.0086837318 -0.0024527658 -0.0091700004
-0.0075704325 0.0049055316 -0.014480545
-0.0084610721 -0.003121702 -0.016914546
-0.0075704325 -0.0049055316 -0.0093912724
0.0040078759 -0.0089191487 -0.020897456
-0.0013359587 0.0089191487 -0.0045232726
0.0055664945 0.0069123399 -0.0056296363
-0.0022265979 -0.010034042 -0.020897456
-0.0013359587 -0.0060204254 -9.7818207e-05
0.0024492575 -0.0071353186 -0.021118727
0.0071251132 -0.0073582977 -0.02045491
0.00022265979 0.010257021 -0.001868
-0.0040078759 0.0080272341 -0.0040807272
0.003117237 -0.0080272341 -0.021118727
0.0080157518 -0.003121702 -9.7818207e-05
0.0024492575 -0.0086961696 -0.014923091
0.0015586185 0.001560851 -0.02134
-0.0089063914 0 -0.010276364
-0.0015586185 -0.0086961696 -0.0098338183
-0.0053438349 0.0017838296 -0.021118727
0.00066797936 -0.0089191487 -0.0034169091
-0.0048985151 -0.0011148936 -9.7818207e-05
0.0037852162 -0.0080272341 -0.0089487275
0.0075704325 -0.0040136171 -0.021118727
-0.0089063914 -0.00066893612 -0.0067360001
-0.0064571337 -0.00089191482 -0.021118727
0.0086837318 -0.0022297872 -0.011604
-0.0028945771 0.001560851 -0.02134
-0.0095743705 -0.0037906382 -0.00098290911
-0.006234474 0.0075812764 -9.7818207e-05
-0.006234474 0.0082502123 -0.00031909093
-0.0051211747 -0.0080272341 -9.7818207e-05
-0.0037852162 0.0080272341 -0.006957273
-0.0075704325 0.0049055316 -0.016914546
-0.0089063914 0.0013378722 -0.013595454
-0.00089063914 -0.0069123399 -0.021118727
0 0.0089191487 -0.015144364
0.0097970301 -0.0026757445 -0.00031909093
-0.0022265979 0.0053514889 -9.7818207e-05
-0.0042305361 -0.0024527658 -9.7818207e-05
0.0028945771 -0.0084731914 -0.0085061816
-0.0089063914 -0.001560851 -0.0040807272
0.0015586185 -0.0089191487 -0.018463455
0.0082384115 0.0022297872 -0.021118727
-0.0082384115 -0.0035676593 -0.012710364
0.0089063914 0.00022297871 -0.0093912724
-0.0064571337 -0.0080272341 -0.00098290911
0.0077930922 -0.0057974467 -0.019348545
0.0044531957 -0.007804255 -0.0080636367
-0.0048985151 0.0075812764 -0.017135818
0.0035625566 -0.0073582977 -0.021118727
0.0048985151 0.0089191487 -0.0012041818
-0.0082384115 0.0049055316 -0.001868
0.00044531957 0.0089191487 -0.013152909
-0.0073477728 -0.0071353186 -0.0016467273
0.0013359587 0.0080272341 -9.7818207e-05
-0.0077930922 0.0051285103 -9.7818207e-05
0.0046758554 0.0075812764 -9.7818207e-05
-0.0017812783 -0.0042365957 -9.7818207e-05
0.0024492575 -0.010034042 -0.019791091
0.0080157518 0.006243404 -0.00031909093
0.0075704325 -0.004682553 -0.011382727
0.0015586185 0.0089191487 -0.010276364
0.00089063914 -0.0089191487 -0.014038
-0.0015586185 -0.0022297872 -9.7818207e-05
-0.0051211747 -0.0089191487 -0.020897456
-0.0089063914 0.0011148936 -0.0043020002
-0.0093517108 0.0042365957 -0.019569818
-0.00022265979 -0.0013378722 -0.02134
-0.0051211747 0.0044595744 -0.021118727
-0.003117237 -0.0082502123 -0.017135818
-0.0011132989 0.0011148936 -0.02134
-0.0084610721 -0.0022297872 -0.021118727
0.0051211747 -0.0037906382 -9.7818207e-05
-0.0044531957 0.0086961696 -0.020897456
-0.0022265979 -0.010034042 -0.020233637
-0.0048985151 -0.0073582977 -9.7818207e-05
0.00022265979 -0.0089191487 -0.013595454
0 -0.0089191487 -0.006957273
-0.0051211747 0.0075812764 -0.0082849087
-0.0080157518 -0.0037906382 -0.011382727
-0.00044531957 -0.0037906382 -9.7818207e-05
0.0075704325 -0.0020068085 -0.021118727
0.006902453 -0.0011148936 -9.7818207e-05
0.0095743705 -0.0017838296 -0.020897456
0.0091290511 -0.00022297871 -0.0093912724
0.0071251132 0.0053514889 -0.0045232726
-0.0080157518 0.0040136171 -0.016693274
-0.0082384115 0.0035676593 -0.0087274546
0.0044531957 -0.0017838296 -0.02134
0.0028945771 0.0049055316 -0.021118727
0.00044531957 0.0055744676 -9.7818207e-05
0.0071251132 0.0011148936 -0.021118727
0.0040078759 -0.0080272341 -0.0091700004
0.0026719174 0.0028987234 -0.02134
-0.0082384115 0.0033446806 -0.0071785455
-0.0037852162 0.0080272341 -0.020897456
0.0040078759 0.0080272341 -0.0034169091
-0.003117237 0.0084731914 -0.013595454
0.006234474 0.0049055316 -0.021118727
0.0017812783 0.0069123399 -9.7818207e-05
-0.0044531957 -0.007804255 -0.0036381818
-0.00066797936 0.0024527658 -0.02134
0.0084610721 -0.0017838296 -9.7818207e-05
0.0011132989 0.00066893612 -9.7818207e-05
-0.0091290511 0.0024527658 -0.019348545
-0.0035625566 0.0022297872 -9.7818207e-05
-0.0037852162 0.0080272341 -0.017135818
-0.0091290511 0.00044595741 -0.013374182
-0.00066797936 0.00089191482 -0.02134
-0.006234474 0.0064663826 -0.01735709
0.0082384115 -0.0035676593 -0.0078423638
0.0048985151 -0.001560851 -9.7818207e-05
0.0035625566 -0.0026757445 -0.02134
0.0037852162 0.004682553 -9.7818207e-05
-0.01001969 0.0022297872 -0.020233637
-0.0055664945 -0.003121702 -9.7818207e-05
0.0086837318 0.0022297872 -0.016029455
0.0066797934 0.0060204254 -0.014480545
0.0075704325 0.0060204254 -9.7818207e-05
0.0022265979 -0.0028987234 -9.7818207e-05
0.0033398967 0.0095880842 -0.020897456
-0.0013359587 -0.010034042 -0.00031909093
0.0013359587 -0.0069123399 -9.7818207e-05
-0.0028945771 0.0084731914 -0.011382727
-0.0037852162 0.0082502123 -0.016693274
-0.01001969 -0.00044595741 -0.019348545
-0.0066797934 -0.006243404 -0.010055091
-0.0022265979 -0.009365106 -9.7818207e-05
0.0075704325 -0.0051285103 -0.021118727
-0.0066797934 -0.0060204254 -0.0023105454
-0.0077930922 0.0044595744 -0.010718909
-0.00066797936 0.0089191487 -0.014038
-0.0089063914 -0.0013378722 -0.014038
0.0022265979 -0.010034042 -0.00076163642
0.00066797936 0.0089191487 -0.0031956364
0.0055664945 -0.00066893612 -0.02134
-0.0080157518 -0.0040136171 -0.011161455
-0.0060118139 -0.00066893612 -9.7818207e-05
0.00089063914 0.0053514889 -0.02134
0.0057891542 0.0069123399 -0.0020892727
0.0089063914 0.00066893612 -0.0043020002
-0.0026719174 -0.0044595744 -0.02134
0.00044531957 -0.0044595744 -9.7818207e-05
0.0080157518 -0.0042365957 -0.016693274
-0.0080157518 -0.0040136171 -0.0093912724
0.0075704325 0.0049055316 -0.0071785455
0.0095743705 -0.0028987234 -0.001868
-0.0091290511 -0.0026757445 -0.001868
-0.006902453 -0.0057974467 -0.010718909
0.0071251132 -0.0055744676 -0.010940182
0.0037852162 0.0035676593 -0.02134
0.0046758554 -0.0013378722 -0.02134
-0.0073477728 0.0051285103 -0.0091700004
0.0046758554 -0.0026757445 -0.02134
-0.0042305361 0.0086961696 -0.019348545
0.0042305361 0 -9.7818207e-05
0.00066797936 0.010257021 -0.00098290911
0.0089063914 0.0011148936 -0.017135818
-0.006234474 0.0064663826 -0.015808182
0.0048985151 0.0064663826 -0.021118727
0.0064571337 -0.0064663826 -0.015144364
0.0017812783 -0.001560851 -9.7818207e-05
0.003117237 0.0026757445 -0.02134
-0.0028945771 0.00089191482 -0.02134
0.0015586185 0.006243404 -9.7818207e-05
-0.0026719174 -0.0086961696 -0.0043020002
0.0022265979 0.010034042 -0.020676183
-0.006902453 0.0042365957 -9.7818207e-05
0.0046758554 -0.0069123399 -9.7818207e-05
0.0095743705 0.0040136171 -0.019791091
0.006902453 0.0057974467 -0.0038594545
0.0051211747 0.0089191487 -0.001868
0.0042305361 0.0080272341 -0.0058509093
0.003117237 -0.0084731914 -0.0076210909
-0.0080157518 0.0037906382 -0.0096125454
-0.0071251132 0.0055744676 -0.0060721817
-0.0046758554 -0.0075812764 -0.0054083639
-0.0046758554 0.0091421269 -0.02045491
-0.0084610721 0.0028987234 -0.014701818
-0.0066797934 0.0060204254 -0.010940182
0.0082384115 -0.003121702 -0.010497636
0.0046758554 0.0060204254 -9.7818207e-05
-0.0086837318 -0.001560851 -0.0080636367
0.0082384115 -0.0035676593 -0.0093912724
-0.0089063914 -0.0053514889 -0.019348545
0.0086837318 0.001560851 -0.014038
-0.0015586185 -0.0013378722 -9.7818207e-05
-0.0084610721 -0.0028987234 -0.0054083639
-0.0024492575 0.0086961696 -0.010718909
0.0075704325 0.004682553 -0.012046546
-0.002003938 0 -9.7818207e-05
0.0057891542 0.0044595744 -0.021118727
0.0046758554 -0.0075812764 -0.011161455
0.0071251132 0.0042365957 -9.7818207e-05
-0.0080157518 0.0042365957 -0.0023105454
0.006234474 0 -0.021118727
0.0022265979 0.0086961696 -0.0036381818
0.0060118139 -0.00089191482 -0.021118727
-0.0026719174 0.0082502123 -9.7818207e-05
0.0028945771 -0.0084731914 -0.011825273
0.0022265979 0.0089191487 -0.0020892727
-0.0080157518 -0.0037906382 -0.0087274546
0.0089063914 0.001560851 -0.0098338183
0.0086837318 0.0024527658 -0.013152909
0.0026719174 0.0035676593 -9.7818207e-05
0.0044531957 -0.001560851 -9.7818207e-05
0 0.010257021 -0.001868
-0.0071251132 -0.0055744676 -0.005187091
-0.0048985151 -0.0075812764 -9.7818207e-05
0.0089063914 0.0011148936 -0.0087274546
0.0046758554 -0.0040136171 -0.021118727
-0.0091290511 0.0020068085 -0.020897456
0.0084610721 0.003121702 -0.0025318181
-0.0077930922 -0.0044595744 -0.013152909
-0.0028945771 0.0084731914 -0.012046546
-0.0073477728 -0.0053514889 -0.0040807272
-0.01001969 -0.0026757445 -0.0014254546
-0.0064571337 -0.0051285103 -9.7818207e-05
0.0075704325 0 0.0025574546
0.0066797934 -0.0057974467 -0.0096125454
-0.0028945771 0.0086961696 -0.018906001
-0.0042305361 0.009365106 -0.0016467273
-0.0066797934 -0.0044595744 -9.7818207e-05
-0.006234474 0.0064663826 -0.0036381818
0.0066797934 0.0060204254 -0.012489091
-0.0080157518 0.0064663826 -0.001868
-0.0060118139 0.0066893613 -0.010055091
0.0013359587 0.010257021 -0.020897456
-0.0046758554 0.007804255 -0.0043020002
0.0051211747 -0.0022297872 -0.02134
0.00089063914 0.010034042 -0.00031909093
0.0071251132 0.0071353186 -0.019348545
-0.002003938 -0.0098110633 -0.00031909093
-0.0033398967 -0.0082502123 -0.0056296363
0.0017812783 0.0086961696 -0.0043020002
-0.0084610721 0.0033446806 -0.0043020002
-0.0073477728 0.0051285103 -0.0062934547
0.003117237 -0.0084731914 -0.0020892727
0.0086837318 0.0024527658 -0.0058509093
0.0048985151 0.0071353186 -0.020897456
-0.010242349 -0.00022297871 -0.0016467273
-0.0055664945 0.0069123399 -0.010497636
0.006902453 0.0066893613 -0.001868
-0.0011132989 -0.00089191482 -9.7818207e-05
-0.0040078759 -0.0064663826 -0.021118727
0.0086837318 -0.0022297872 -0.018242182
-0.0046758554 -0.003121702 -0.02134
0.0086837318 -0.001560851 -0.0062934547
-0.0044531957 -0.0089191487 -0.020897456
-0.00089063914 0.0089191487 -0.016914546
-0.00044531957 0.0091421269 -9.7818207e-05
0.0028945771 -0.0084731914 -0.0093912724
-0.01001969 -0.00089191482 -0.020897456
0.0080157518 0.0053514889 -9.7818207e-05
-0.0037852162 -0.0080272341 -0.010276364
-0.003117237 -0.0042365957 -9.7818207e-05
0.0015586185 0.0089191487 -0.0043020002
0.0060118139 0.0011148936 -0.021118727
0.0086837318 0.0057974467 -0.019791091
-0.0089063914 0.0011148936 -0.010718909
0.0082384115 -0.0035676593 -0.017135818
0.0089063914 0.0011148936 -0.014038
-0.0053438349 0.0073582977 -9.7818207e-05
0.0082384115 -0.0033446806 -0.021118727
0.0015586185 0.0055744676 -0.021118727
-0.006902453 0.0057974467 -0.015365637
-0.0064571337 0.006243404 -0.0062934547
0.0091290511 -0.0049055316 -0.0014254546
-0.0042305361 -0.007804255 -0.017135818
-0.0024492575 0.0013378722 -9.7818207e-05
0.0033398967 -0.0017838296 -9.7818207e-05
0.0017812783 0.0026757445 -0.02134
-0.0075704325 0.001560851 -0.021118727
0.0026719174 0.0035676593 -0.02134
0.0073477728 -0.0051285103 -0.0087274546
-0.0075704325 -0.004682553 -0.0089487275
-0.0011132989 -0.010034042 -0.001868
-0.00044531957 0.0091421269 -0.016914546
0.0057891542 0.0084731914 -0.020012364
0.002003938 -0.009365106 -0.019348545
0 0.0057974467 -9.7818207e-05
-0.0071251132 -0.0028987234 -9.7818207e-05
0.0060118139 0.0066893613 -0.01735709
-0.0040078759 0.0066893613 -0.021118727
0.0017812783 0.0086961696 -0.012267819
-0.0080157518 -0.0057974467 -0.020897456
0.0037852162 -0.0089191487 -0.020897456
-0.0086837318 0.0024527658 -0.013152909
0.0089063914 0.0033446806 -9.7818207e-05
-0.0064571337 -0.0064663826 -0.012489091
-0.0048985151 0.0080272341 -0.020897456
0.0024492575 0.0086961696 -0.014259273
-0.0089063914 -0.00044595741 -0.0043020002
-0.0060118139 0.0066893613 -0.016250728
-0.00066797936 0.0089191487 -0.0056296363
0.0042305361 -0.0080272341 -0.014923091
0.0077930922 -0.0044595744 -0.014259273
-0.00066797936 0.0089191487 -0.013816727
-0.0071251132 -0.0035676593 -9.7818207e-05
-0.00089063914 -0.0089191487 -0.0091700004
-0.0086837318 0.0020068085 -0.006957273
0.0080157518 -0.0042365957 -0.004965818
0.0015586185 -0.0089191487 -0.011161455
0.0086837318 0.0024527658 -0.0098338183
0.0082384115 -0.0033446806 -0.013152909
0.0073477728 0 0.0025574546
0.0095743705 -0.0035676593 -0.020012364
0.0093517108 0.0022297872 -9.7818207e-05
-0.0026719174 0.0084731914 -0.013152909
-0.0026719174 -0.0086961696 -0.014480545
-0.0066797934 -0.0042365957 -0.021118727
0.0075704325 -0.0022297872 -0.021118727
0.0073477728 -0.0053514889 -0.012489091
0.0011132989 -0.0089191487 -0.0058509093
0.0066797934 -0.00089191482 -9.7818207e-05
-0.0071251132 0.0073582977 -0.020233637
-0.0053438349 0.0066893613 -9.7818207e-05
0.0024492575 0.0086961696 -0.002753091
0.0051211747 0.0089191487 -0.019569818
-0.0037852162 -0.0082502123 -9.7818207e-05
-0.01001969 0.0020068085 -0.00031909093
-0.0064571337 0.006243404 -0.015365637
0.0048985151 0.0055744676 -0.021118727
-0.00044531957 -0.0091421269 -0.0025318181
-0.0091290511 -0.0049055316 -0.019348545
0 -0.0089191487 -0.010718909
0.0089063914 -0.00066893612 -0.012046546
-0.0089063914 -0.00044595741 -0.012267819
0.0057891542 0.00066893612 -0.021118727
0.0042305361 0.007804255 -0.0036381818
-0.0055664945 -0.0071353186 -0.014923091
0.0091290511 -0.00089191482 -0.018906001
-0.003117237 -0.003121702 -0.02134
0.0084610721 -0.0026757445 -0.012931637
0.0073477728 0.0053514889 -0.0065147271
0.0051211747 -0.0042365957 -9.7818207e-05
0.0073477728 -0.0053514889 -0.0025318181
-0.00044531957 0.0091421269 -0.0025318181
0.0089063914 0.00022297871 -0.014038
0.003117237 -0.0069123399 -0.021118727
0.0066797934 -0.0060204254 -0.0058509093
-0.0055664945 -0.0037906382 -9.7818207e-05
-0.0033398967 0.003121702 -9.7818207e-05
-0.0089063914 -0.00066893612 -0.01735709
0.0033398967 0.0082502123 -0.0036381818
0.0040078759 -0.0089191487 -0.019348545
-0.0077930922 -0.0044595744 -0.014923091
-0.0035625566 -0.0082502123 -0.0054083639
-0.0048985151 0.0075812764 -0.016029455
-0.0028945771 -0.0049055316 -0.02134
0.0028945771 -0.0098110633 -0.019348545
-0.0071251132 0.0066893613 -0.001868
0.0017812783 0.0075812764 -9.7818207e-05
0.0082384115 -0.003121702 -0.0062934547
-0.0089063914 -0.00066893612 -0.011382727
-0.0053438349 -0.0089191487 -0.020233637
0.0042305361 0.007804255 -0.0087274546
-0.0086837318 0.001560851 -0.006957273
-0.0046758554 -0.007804255 -0.010055091
-0.0095743705 0.0040136171 -0.00031909093
0.00044531957 0.0089191487 -0.0076210909
-0.00022265979 -0.0089191487 -0.0038594545
-0.0091290511 -0.00022297871 -0.011825273
0.0086837318 -0.0020068085 -0.015586909
-0.0086837318 -0.0024527658 -0.011825273
0.0046758554 0.007804255 -0.0058509093
0.006902453 0.0057974467 -0.0040807272
0.0022265979 0.0098110633 -0.001868
0.0044531957 -0.0084731914 -0.020897456
-0.0089063914 0.0013378722 -0.010940182
-0.00022265979 -0.0086961696 -0.0029743637
-0.0033398967 -0.0053514889 -9.7818207e-05
0.0057891542 -0.0037906382 -9.7818207e-05
-0.0089063914 -0.0011148936 -0.0078423638
0.0080157518 0.0037906382 -0.016472001
0.0048985151 0.0075812764 -0.016029455
-0.0086837318 0.0017838296 -0.006957273
-0.0048985151 -0.00044595741 -9.7818207e-05
-0.0086837318 -0.0020068085 -0.0054083639
0.0084610721 0.001560851 -9.7818207e-05
-0.0044531957 0.007804255 -0.014480545
-0.00044531957 0.0089191487 -0.013595454
0 -0.0089191487 -0.0062934547
-0.0073477728 0 0.0023361817
0.0051211747 -0.00066893612 -9.7818207e-05
-0.0057891542 0.0055744676 -0.021118727
-0.00022265979 0.010257021 -0.02045491
-0.01001969 0.0024527658 -0.00076163642
0.006234474 -0.0075812764 -0.019348545
-0.0013359587 -0.010257021 -0.019791091
0.002003938 0.0049055316 -9.7818207e-05
-0.003117237 0.0084731914 -0.0078423638
0.0011132989 -0.00089191482 -9.7818207e-05
0.0077930922 -0.0040136171 -9.7818207e-05
0.0089063914 -0.00044595741 -0.006957273
0.0051211747 0.0073582977 -0.015365637
-0.0037852162 -0.0082502123 -0.0025318181
0.0071251132 0.0075812764 -0.02045491
-0.0040078759 -0.004682553 -9.7818207e-05
-0.0086837318 0.0022297872 -0.0054083639
-0.0086837318 -0.001560851 -0.006957273
-0.0013359587 0.0089191487 -0.018242182
0.0082384115 -0.0035676593 -0.0076210909
0.0035625566 0.0028987234 -9.7818207e-05
0.0086837318 -0.0024527658 -0.0096125454
0.00066797936 0.0089191487 -0.0082849087
0.0077930922 0.004682553 -0.010718909
0.0048985151 -0.0089191487 -0.001868
0.002003938 -0.0060204254 -0.021118727
0.0013359587 0.0089191487 -0.0056296363
-0.0033398967 -0.0057974467 -0.021118727
-0.0089063914 0.0013378722 -0.0025318181
0.0040078759 0.0080272341 -0.0058509093
0.0060118139 -0.0073582977 -9.7818207e-05
-0.0037852162 0.009365106 -0.020897456
0.0080157518 -0.0040136171 -0.002753091
0.0086837318 -0.0022297872 -0.015586909
0.0013359587 0.0082502123 -0.021118727
-0.002003938 0.0051285103 -9.7818207e-05
0.0080157518 0.0064663826 -0.00098290911
-0.0091290511 0 -0.0043020002
0.006234474 0.0064663826 -0.0071785455
-0.0073477728 -0.0053514889 -0.011161455
0.0082384115 0.0035676593 -0.010940182
0.0080157518 0.0042365957 -0.015144364
-0.0089063914 -0.00022297871 -0.011604
-0.0026719174 0.0033446806 -0.02134
0.0055664945 -0.0071353186 -0.0031956364
0.0057891542 0.0071353186 -9.7818207e-05
0.0026719174 0.0098110633 -0.019569818
0.0013359587 0.0089191487 -0.012267819
0.0051211747 -0.00089191482 -0.02134
-0.0033398967 -0.0084731914 -0.0020892727
0.0011132989 -0.0040136171 -9.7818207e-05
-0.0057891542 0.0069123399 -0.010497636
0.0013359587 0.004682553 -9.7818207e-05
0.0086837318 -0.00066893612 -0.0045232726
-0.0084610721 0.003121702 -0.0098338183
0.0013359587 0.0089191487 -0.015365637
0.0055664945 -0.0069123399 -0.013152909
-0.00022265979 0.0095880842 -0.020897456
0.0089063914 0.0011148936 -0.013374182
0.0022265979 -0.0049055316 -0.02134
-0.006902453 0.0057974467 -0.015144364
0.0075704325 0.0055744676 -0.001868
-0.0011132989 0.0089191487 -0.0076210909
-0.010242349 -0.00044595741 -0.019569818
0.0033398967 0.0026757445 -9.7818207e-05
-0.0042305361 0.007804255 -0.014038
0.0057891542 -0.0069123399 -0.015144364
0.0026719174 -0.0098110633 -0.019348545
-0.0091290511 0.0037906382 -0.019348545
-0.0077930922 -0.0060204254 -9.7818207e-05
0.0075704325 -0.0033446806 -9.7818207e-05
-0.0046758554 0.007804255 -0.0034169091
0.0086837318 -0.0026757445 -0.012489091
0.0071251132 0.0075812764 -0.00054036366
0.003117237 -0.0082502123 -0.0080636367
0.0033398967 0.0084731914 -0.020897456
-0.0075704325 -0.0049055316 -0.016472001
-0.0089063914 -0.0024527658 -0.020897456
-0.002003938 0.0057974467 -9.7818207e-05
0.0077930922 -0.0066893613 -0.020012364
-0.0080157518 -0.0049055316 -9.7818207e-05
-0.002003938 0.0086961696 -0.016693274
-0.0035625566 0.0082502123 -0.0073998184
0.0044531957 -0.00022297871 -0.02134
-0.0057891542 -0.0066893613 -9.7818207e-05
-0.006902453 -0.0071353186 -0.019348545
0.00044531957 0.0091421269 -0.002753091
-0.0051211747 -0.0073582977 -0.004965818
-0.0048985151 -0.0086961696 -9.7818207e-05
-0.0084610721 0.0026757445 -0.0080636367
-0.0033398967 -0.0082502123 -0.010718909
-0.0073477728 0.0051285103 -0.016914546
0.006234474 0.00089191482 -0.021118727
0.00022265979 0.00044595741 -0.02134
-0.00066797936 -0.009365106 -0.018906001
-0.0017812783 -0.0089191487 -0.0058509093
0.0080157518 -0.0037906382 -0.0054083639
-0.0071251132 0.0055744676 -0.0076210909
0.0015586185 0.0066893613 -0.021118727
-0.0089063914 -0.001560851 -0.017578363
-0.006902453 -0.0055744676 -0.010497636
-0.0075704325 0.0049055316 -0.0025318181
0.0040078759 -0.0080272341 -0.012489091
0.0035625566 -0.0095880842 -0.020676183
-0.0026719174 -0.0069123399 -0.021118727
-0.00066797936 0.0049055316 -9.7818207e-05
-0.0033398967 0.0089191487 -0.019348545
-0.0071251132 -0.0055744676 -0.0060721817
-0.0071251132 -0.0055744676 -0.013374182
0.0060118139 -0.0066893613 -0.005187091
0.003117237 -0.0055744676 -9.7818207e-05
0.0082384115 0.0035676593 -0.01735709
-0.0048985151 -0.0075812764 -0.012046546
0.0042305361 -0.0084731914 -9.7818207e-05
0.0042305361 0.0080272341 -0.0065147271
0.0035625566 -0.0028987234 -0.02134
0.0073477728 -0.0053514889 -0.014480545
-0.0053438349 0.007804255 -0.020897456
0.0015586185 0.0033446806 -0.02134
-0.0066797934 -0.001560851 -9.7818207e-05
0.0077930922 0.0049055316 -9.7818207e-05
-0.0089063914 0.00089191482 -0.016472001
0 0.0089191487 -0.002753091
-0.0080157518 -0.0051285103 -0.019348545
0.0077930922 0.0042365957 -0.0062934547
0.00044531957 0.0089191487 -9.7818207e-05
0.0091290511 0.001560851 -0.020897456
0.0024492575 0.0086961696 -0.01735709
-0.003117237 -0.0084731914 -0.011825273
-0.002003938 -0.0055744676 -0.02134
-0.0071251132 -0.0073582977 -0.00031909093
0.006902453 -0.0055744676 -0.015808182
0.0024492575 -0.0086961696 -0.011161455
-0.0055664945 -0.0053514889 -0.021118727
0.0077930922 0.0042365957 -0.014480545
-0.0024492575 0.00044595741 -9.7818207e-05
0.0055664945 -0.0069123399 -0.0029743637
-0.0051211747 0.0075812764 -0.014259273
-0.0086837318 0.0026757445 -0.015144364
0.0082384115 0 -9.7818207e-05
-0.0026719174 -0.0057974467 -0.02134
-0.0033398967 0.0082502123 -9.7818207e-05
-0.0042305361 -0.0055744676 -0.021118727
0.0075704325 -0.0049055316 -0.015808182
-0.0086837318 -0.0017838296 -0.013816727
-0.0080157518 -0.0040136171 -0.014480545
0.0026719174 0.0024527658 -0.02134
-0.0013359587 -0.0073582977 -9.7818207e-05
0.0060118139 0.0026757445 -0.021118727
-0.0040078759 0.0091421269 -0.00031909093
-0.0075704325 -0.0049055316 -0.0089487275
-0.0033398967 0.0035676593 -0.02134
0.0033398967 -0.0042365957 -0.02134
0.0051211747 0.00022297871 -0.02134
0.00089063914 0.0089191487 -0.0082849087
0.0071251132 0.0060204254 -0.020897456
0.0064571337 -0.006243404 -0.018242182
0.0082384115 -0.0033446806 -0.014480545
-0.006234474 -0.0071353186 -0.019127272
-0.0057891542 -0.0069123399 -0.015365637
-0.0075704325 0.0024527658 -9.7818207e-05
-0.0086837318 0.001560851 -9.7818207e-05
-0.0064571337 0.00044595741 -9.7818207e-05
-0.002003938 0.010034042 -0.020676183
0.0089063914 -0.001560851 -0.0098338183
0.0013359587 0.0089191487 -0.013816727
0.0097970301 0.0028987234 -0.0016467273
0.002003938 -0.0066893613 -0.021118727
0.0013359587 0.0064663826 -9.7818207e-05
0.0060118139 -0.0066893613 -0.0067360001
0.0060118139 -0.001560851 -9.7818207e-05
0.0093517108 -0.0020068085 -0.001868
0.0035625566 -0.0095880842 -0.00076163642
0.0017812783 -0.0086961696 -0.018020909
-0.0048985151 0.00022297871 -9.7818207e-05
-0.0073477728 -0.0042365957 -0.021118727
0.003117237 0.0082502123 -0.013816727
-0.0015586185 -0.0055744676 -0.02134
-0.0015586185 -0.001560851 -0.02134
-0.0071251132 0.0040136171 -0.021118727
-0.00089063914 -0.0066893613 -0.021118727
0.0091290511 -0.00044595741 -0.011825273
-0.0022265979 0.0024527658 -9.7818207e-05
-0.0084610721 -0.003121702 -0.012710364
0.00022265979 -0.0089191487 -0.002753091
-0.0086837318 0.0024527658 -0.010055091
-0.00022265979 0.0089191487 -0.010497636
0.0077930922 0.0066893613 -0.001868
0.0075704325 -0.004682553 -0.018020909
-0.0082384115 0.004682553 -9.7818207e-05
-0.00022265979 -0.0075812764 -9.7818207e-05
0.0026719174 0.0098110633 -0.020233637
-0.0089063914 0.0017838296 -0.011161455
0.0086837318 -0.001560851 -0.018020909
-0.0089063914 -0.00044595741 -0.011825273
0.006234474 -0.0064663826 -0.013152909
-0.0022265979 0.0086961696 -0.0098338183
-0.00044531957 -0.0053514889 -0.02134
0.0075704325 0.0020068085 -9.7818207e-05
-0.0075704325 0.0049055316 -0.0054083639
0.0033398967 0.0084731914 -0.014259273
0.0086837318 0.0022297872 -0.015365637
0.002003938 -0.0084731914 -0.021118727
0.0073477728 0.0053514889 -0.0082849087
-0.0089063914 0.0049055316 -0.00054036366
-0.0077930922 -0.0042365957 -0.0087274546
-0.0077930922 -0.0064663826 -9.7818207e-05
-0.006902453 0.0057974467 -0.0040807272
-0.0015586185 0.0089191487 -0.005187091
-0.0089063914 0.0011148936 -0.0076210909
-0.0080157518 -0.0053514889 -0.019348545
0.0080157518 0.0040136171 -0.010497636
-0.0035625566 -0.0066893613 -9.7818207e-05
0.0044531957 -0.007804255 -0.014923091
0.00066797936 -0.0082502123 -0.021118727
0.0089063914 0.00022297871 -0.016472001
0.0040078759 0.0035676593 -0.02134
0.0048985151 0.0075812764 -0.016250728
0.0055664945 -0.0013378722 -9.7818207e-05
-0.0073477728 -0.0053514889 -0.013374182
-0.0084610721 -0.0028987234 -0.011825273
0.0022265979 0.0028987234 -9.7818207e-05
-0.010242349 0.00089191482 -0.020233637
-0.0075704325 0.0049055316 -0.010940182
-0.0033398967 -0.0084731914 -0.013595454
-0.0026719174 -0.0035676593 -0.02134
0.0086837318 0.0024527658 -0.016029455
0.0011132989 0.0049055316 -9.7818207e-05
-0.0082384115 -0.0035676593 -0.014480545
-0.0075704325 0.0051285103 -0.013374182
-0.00022265979 -0.010257021 -0.00098290911
-0.0024492575 -0.0086961696 -0.0067360001
-0.00089063914 -0.0089191487 -0.015365637
0.0040078759 0.0069123399 -9.7818207e-05
0.0042305361 0.007804255 -0.010276364
0.0022265979 -0.0086961696 -0.0087274546
0.0086837318 -0.001560851 -0.0080636367
0.0042305361 0.0080272341 -0.015808182
0.0075704325 -0.0064663826 -0.001868
0.0093517108 0.0033446806 -0.001868
-0.0011132989 0.0091421269 -0.018906001
0.0013359587 -0.0024527658 -9.7818207e-05
0.0089063914 0.0013378722 -0.014923091
-0.0086837318 -0.0022297872 -0.011604
0.0026719174 -0.003121702 -0.02134
-0.0073477728 0.0053514889 -0.0098338183
-0.003117237 0.0013378722 -9.7818207e-05
-0.0013359587 -0.0089191487 -0.012046546
-0.0084610721 -0.0026757445 -0.017799636
-0.00044531957 -0.0089191487 -0.0038594545
-0.0040078759 -0.0091421269 -0.019348545
-0.0086837318 0.0024527658 -0.0087274546
-0.0084610721 0.0028987234 -0.015144364
0.006234474 0.007804255 -0.001868
-0.00022265979 -0.0044595744 -0.02134
-0.0089063914 -0.00089191482 -0.011161455
0.0080157518 0.0040136171 -0.013374182
-0.0026719174 -0.0084731914 -9.7818207e-05
-0.006234474 -0.0049055316 -9.7818207e-05
-0.0089063914 -0.00044595741 -0.014480545
0.0066797934 0.0060204254 -0.012710364
-0.0024492575 0.0086961696 -0.004965818
0.0084610721 0.003121702 -0.0067360001
0.0080157518 -0.0042365957 -0.0085061816
0.00044531957 0.0035676593 -9.7818207e-05
-0.0073477728 0.0051285103 -0.017135818
-0.00044531957 -0.010257021 -0.019569818
0.0084610721 0.0028987234 -0.018242182
0.0084610721 0.0026757445 -0.0071785455
0.0011132989 0.0089191487 -0.010055091
-0.0026719174 0.0086961696 -0.016914546
-0.0024492575 -0.010034042 -0.02045491
-0.0044531957 0.00044595741 -0.02134
0.0075704325 -0.0049055316 -0.013374182
-0.0080157518 0.0044595744 -0.020897456
-0.0086837318 -0.0026757445 -0.002753091
0.0053438349 0.0071353186 -0.016472001
-0.0064571337 -0.0064663826 -0.0025318181
-0.002003938 0.010034042 -0.020012364
0.0066797934 0.0060204254 -0.006957273
-0.00066797936 0.0033446806 -0.02134
0.006902453 -0.0060204254 -9.7818207e-05
-0.0066797934 0.0060204254 -0.013816727
0.0024492575 -0.0086961696 -0.0058509093
-0.0051211747 0.0089191487 -0.020897456
-0.0089063914 -0.00044595741 -0.01735709
0.0091290511 0.003121702 -0.001868
-0.0071251132 -0.0064663826 -0.001868
-0.0055664945 0.0069123399 -0.014701818
0.0037852162 -0.0095880842 -0.020897456
0.0077930922 -0.0044595744 -0.018242182
-0.0091290511 -0.00022297871 -0.014259273
-0.0013359587 0.001560851 -0.02134
0.0097970301 0.0033446806 -0.00054036366
0.00044531957 -0.0049055316 -9.7818207e-05
-0.0073477728 -0.0051285103 -0.011382727
-0.0022265979 0.0086961696 -0.018463455
0.006902453 0.0057974467 -0.0058509093
0.0084610721 0.0028987234 -0.014038
0.0017812783 -0.0053514889 -0.02134
-0.0013359587 0.0089191487 -0.014480545
0.006234474 0.0071353186 -0.019127272
-0.002003938 0.0071353186 -9.7818207e-05
-0.0057891542 -0.0084731914 -0.019791091
-0.0086837318 -0.0055744676 -0.0016467273
0.0037852162 -0.004682553 -0.021118727
0.00066797936 0.010257021 -0.0016467273
0.0044531957 0.0069123399 -0.021118727
-0.0026719174 0.0098110633 -0.020012364
-0.0042305361 0.007804255 -0.0038594545
0.0075704325 0.004682553 -0.014038
0.006902453 -0.0033446806 -9.7818207e-05
-0.0084610721 -0.003121702 -0.013595454
-0.0086837318 -0.0020068085 -0.015365637
-0.00089063914 -0.0082502123 -9.7818207e-05
-0.0080157518 -0.0037906382 -9.7818207e-05
0.0042305361 0.0091421269 -0.001868
0.0084610721 -0.0028987234 -0.0096125454
0.0082384115 0.0026757445 -0.020897456
-0.0044531957 -0.0075812764 -0.0029743637
-0.0097970301 0.0024527658 -0.00054036366
0 -0.0044595744 -0.02134
0.01001969 0.00089191482 -9.7818207e-05
-0.0026719174 0.0084731914 -9.7818207e-05
-0.0042305361 -0.0080272341 -0.016914546
-0.0095743705 -0.0040136171 -0.00031909093
-0.0035625566 -0.003121702 -9.7818207e-05
-0.0084610721 0.0033446806 -0.017799636
-0.0042305361 -0.00066893612 -9.7818207e-05
-0.0080157518 -0.0033446806 -9.7818207e-05
0.0051211747 0.0075812764 -0.0082849087
-0.0028945771 0.0071353186 -0.021118727
-0.0066797934 0.007804255 -0.020233637
0.00022265979 0.0082502123 -0.021118727
0.0084610721 0.003121702 -0.0031956364
-0.01001969 0.0022297872 -0.00054036366
0.00066797936 0.0089191487 -0.0023105454
-0.0082384115 0.0035676593 -0.014038
0.006234474 0.0073582977 -0.019348545
-0.0089063914 0 -0.018020909
-0.00066797936 0.010257021 -0.00098290911
-0.0077930922 -0.0044595744 -0.011825273
0.0091290511 -0.00044595741 -9.7818207e-05
0.0044531957 -0.0082502123 -0.001868
0.0033398967 0.0084731914 -0.0043020002
-0.0042305361 0.009365106 -0.019791091
-0.0075704325 0.0049055316 -0.004965818
-0.0033398967 0.0091421269 -0.001868
-0.0071251132 -0.0055744676 -0.018463455
0.00089063914 0.0044595744 -0.02134
0.0024492575 -0.0071353186 -9.7818207e-05
0.0013359587 -0.0089191487 -0.010718909
0.0073477728 -0.0028987234 -0.021118727
0.0044531957 -0.0028987234 -0.02134
0.0037852162 0.0084731914 -0.019127272
-0.0022265979 -0.010034042 -0.00076163642
-0.003117237 0.0082502123 -0.010497636
-0.0089063914 0 -0.005187091
0.0044531957 -0.0091421269 -0.019791091
0.0044531957 -0.0055744676 -9.7818207e-05
0.0075704325 0.004682553 -0.018242182
-0.0089063914 -0.0033446806 -0.001868
0.0084610721 -0.0028987234 -0.014701818
0.0053438349 -0.0086961696 -0.00031909093
0.0028945771 -0.0084731914 -0.011161455
-0.0033398967 0.0071353186 -0.021118727
0.0028945771 0.0028987234 -9.7818207e-05
-0.0066797934 -0.007804255 -0.020233637
-0.0077930922 -0.004682553 -0.014480545
0.0071251132 -0.0060204254 -0.019127272
0.0077930922 0.0042365957 -0.0087274546
-0.00066797936 0.0089191487 -0.012710364
0.006902453 -0.0057974467 -0.0031956364
0.0086837318 -0.0026757445 -0.0065147271
-0.0042305361 0.0020068085 -0.02134
-0.0082384115 0.003121702 -0.0029743637
-0.0046758554 0.0075812764 -0.0047445456
0.0089063914 0.00066893612 -0.005187091
-0.01001969 0.0020068085 -0.020897456
0.00044531957 0.0089191487 -0.0091700004
0.006234474 0.0066893613 -9.7818207e-05
0.0077930922 0.0044595744 -0.0029743637
0.0089063914 -0.003121702 -0.020897456
-0.0055664945 -0.0069123399 -0.0080636367
0.0093517108 0.0020068085 -9.7818207e-05
0.0040078759 0.0095880842 -0.019569818
-0.0064571337 0.00066893612 -9.7818207e-05
0.0077930922 -0.0042365957 -0.0080636367
0.00066797936 0.0089191487 -0.014923091
-0.0051211747 0.0035676593 -9.7818207e-05
-0.0077930922 0.004682553 -0.014923091
-0.0035625566 -0.0082502123 -0.012931637
0.00066797936 -0.0089191487 -0.01735709
0.0024492575 -0.00022297871 -9.7818207e-05
-0.01001969 -0.0024527658 -0.00076163642
0.0082384115 0.0040136171 -0.018684728
0.0089063914 -0.00089191482 -0.0067360001
0.0089063914 -0.0020068085 -0.0065147271
-0.0066797934 -0.0060204254 -0.015144364
0.0073477728 -0.0049055316 -0.010497636
0.0024492575 -0.0086961696 -0.0056296363
0.0057891542 0.0069123399 -0.0080636367
0.00089063914 -0.0098110633 -9.7818207e-05
0.0075704325 -0.0053514889 -0.020897456
-0.01001969 -0.0020068085 -0.020012364
0.0042305361 0.001560851 -9.7818207e-05
0.002003938 -0.0086961696 -0.015365637
-0.0071251132 -0.0057974467 -0.001868
-0.0026719174 0.0084731914 -0.015586909
-0.0080157518 -0.0064663826 -0.00098290911
0.0089063914 0.0022297872 -9.7818207e-05
-0.0064571337 -0.0055744676 -9.7818207e-05
0.0046758554 0.0024527658 -9.7818207e-05
-0.0055664945 0.0080272341 -0.019348545
0.0046758554 0.0075812764 -0.014038
0.0064571337 -0.0080272341 -0.001868
0.0095743705 -0.0013378722 -0.020897456
0.0073477728 0.0033446806 -9.7818207e-05
0.0095743705 0.001560851 -0.019348545
-0.0084610721 0.0055744676 -0.00031909093
0.003117237 0.0080272341 -9.7818207e-05
0.0084610721 0.003121702 -0.004965818
-0.002003938 0.0022297872 -0.02134
0.0084610721 -0.0028987234 -0.016693274
0.006234474 0.0066893613 -0.011825273
0.0097970301 0.0024527658 -0.001868
0.0075704325 0.0051285103 -0.016914546
0.0055664945 -0.0022297872 -9.7818207e-05
0.006234474 -0.0026757445 -0.021118727
0.0089063914 -0.0044595744 -0.020897456
0.0013359587 0.010257021 -0.020012364
-0.0089063914 0.00022297871 -0.0038594545
-0.0053438349 -0.0080272341 -0.001868
0.0035625566 0.0095880842 -0.00098290911
-0.00044531957 0.0091421269 -0.011825273
0.0033398967 -0.0082502123 -0.016250728
0.0013359587 0.00066893612 -9.7818207e-05
-0.0044531957 -0.007804255 -0.0067360001
0.0026719174 -0.0017838296 -9.7818207e-05
0.0048985151 -0.0057974467 -9.7818207e-05
-0.0089063914 0.0013378722 -0.016472001
-0.0033398967 0.0044595744 -0.02134
-0.002003938 -0.0086961696 -0.004965818
0.0082384115 0.0049055316 -0.001868
-0.0017812783 0.0086961696 -0.0045232726
0.0080157518 0.0040136171 -0.0047445456
-0.0015586185 0.010034042 -0.020897456
-0.0037852162 0.0071353186 -9.7818207e-05
-0.0086837318 -0.0024527658 -0.0062934547
-0.0097970301 0.0026757445 -0.0012041818
-0.0040078759 -0.0095880842 -0.00054036366
-0.0077930922 0.004682553 -0.013595454
0.0086837318 0.0055744676 -0.019791091
-0.0013359587 0.0089191487 -0.011825273
0.0073477728 -0.0051285103 -0.010276364
0.00066797936 -0.0011148936 -0.02134
0.003117237 0.0082502123 -0.012931637
-0.0044531957 0.00066893612 -0.02134
0.0051211747 -0.0073582977 -0.013816727
0.0022265979 0.0080272341 -9.7818207e-05
-0.0089063914 -0.001560851 -0.014923091
0.0084610721 0.003121702 -0.0056296363
-0.0077930922 -0.0057974467 -0.001868
-0.0048985151 0.0075812764 -0.011161455
0.0060118139 -0.0066893613 -0.020897456
0.0089063914 -0.0024527658 -0.018684728
-0.0095743705 0.0026757445 -0.001868
-0.0040078759 -0.0080272341 -0.0093912724
0.0028945771 0.0086961696 -0.019127272
0.0015586185 0.0071353186 -0.021118727
-0.0017812783 -0.010034042 -0.019348545
0.0091290511 -0.00044595741 -0.012710364
-0.0013359587 -0.00022297871 -0.02134
-0.0091290511 -0.0042365957 -0.001868
0.0042305361 0.0089191487 -0.001868
0.0089063914 0.0011148936 -0.002753091
0.0080157518 -0.0064663826 -0.00031909093
0.0089063914 0.00022297871 -0.0031956364
0 -0.0089191487 -0.0078423638
0.0077930922 -0.0042365957 -0.012267819
0.0026719174 -0.0086961696 -0.010718909
-0.0024492575 0.0086961696 -0.0040807272
-0.0055664945 0.0084731914 -0.019348545
0.00044531957 0.010257021 -0.019791091
-0.0089063914 -0.0028987234 -9.7818207e-05
0.0055664945 0.0071353186 -0.012489091
0.0066797934 0.007804255 -0.020012364
0.0040078759 0.0080272341 -0.016472001
-0.0089063914 0.00089191482 -0.0036381818
0.0017812783 -0.0089191487 -0.014259273
-0.0040078759 0.0080272341 -0.014259273
0.0071251132 -0.0053514889 -0.014038
0.0084610721 0.003121702 -0.0065147271
0.0013359587 0.0089191487 -0.013374182
-0.0051211747 0.0066893613 -0.021118727
0.00044531957 0.0089191487 -0.012046546
-0.00022265979 -0.0091421269 -9.7818207e-05
-0.003117237 0.0040136171 -0.02134
0.0015586185 -0.0086961696 -0.014038
-0.0048985151 0.0075812764 -0.012931637
0.0060118139 0.0013378722 -9.7818207e-05
0.0042305361 0.0080272341 -0.0076210909
0.00089063914 0.0035676593 -9.7818207e-05
0.0037852162 -0.0082502123 -9.7818207e-05
0.0089063914 -0.00022297871 -0.016472001
-0.0075704325 -0.0020068085 -0.021118727
-0.0046758554 -0.007804255 -0.018906001
0.0091290511 -0.0013378722 -9.7818207e-05
0.010242349 -0.00066893612 -0.020676183
0.0022265979 0.00089191482 -9.7818207e-05
0.0086837318 -0.0017838296 -0.01735709
0.0046758554 -0.0064663826 -9.7818207e-05
0.0051211747 0.0026757445 -0.021118727
0.0084610721 0.0020068085 -0.021118727
-0.0086837318 -0.0022297872 -0.0047445456
-0.00022265979 0.0089191487 -0.012710364
0.0089063914 0.001560851 -0.013595454
-0.00044531957 -0.0089191487 -0.018020909
-0.0022265979 -0.0024527658 -0.02134
0.0037852162 -0.0080272341 -0.0043020002
0.0055664945 -0.0055744676 -0.021118727
-0.003117237 -0.0084731914 -0.016029455
-0.0022265979 -0.0086961696 -0.0054083639
-0.0044531957 -0.007804255 -0.013595454
0.0060118139 -0.004682553 -0.021118727
0.0089063914 -0.001560851 -0.0073998184
0.002003938 0.0086961696 -0.0029743637
-0.0064571337 0.0022297872 -9.7818207e-05
0.0071251132 0.00044595741 -9.7818207e-05
-0.0073477728 -0.0053514889 -0.012489091
0.0015586185 0.0089191487 -0.0034169091
-0.0053438349 -0.0071353186 -0.0078423638
0.0064571337 -0.006243404 -0.0031956364
-0.003117237 0.0084731914 -0.0040807272
0.0015586185 -0.010034042 -0.00054036366
-0.0091290511 -0.0042365957 -9.7818207e-05
0.0040078759 0.0080272341 -0.002753091
0.0055664945 0.0013378722 -9.7818207e-05
0 0.0089191487 -0.018020909
-0.0060118139 0.0020068085 -0.021118727
-0.00066797936 -0.010257021 -0.019791091
-0.0080157518 -0.0037906382 -0.0060721817
0.0084610721 -0.0028987234 -0.0098338183
0.0064571337 0.006243404 -0.005187091
0.0048985151 0.0075812764 -0.017799636
-0.0037852162 -0.0051285103 -0.021118727
-0.00089063914 -0.0089191487 -0.014038
0.0026719174 -0.0084731914 -0.014038
-0.0055664945 0.0060204254 -9.7818207e-05
0.0086837318 -0.0020068085 -9.7818207e-05
0.0093517108 0.0035676593 -9.7818207e-05
-0.0022265979 -0.0086961696 -0.0098338183
-0.0091290511 0.004682553 -0.0012041818
-0.006902453 -0.0051285103 -0.020897456
0.0077930922 0.00044595741 -9.7818207e-05
-0.0046758554 -0.007804255 -0.0034169091
0.0097970301 0.0033446806 -0.001868
0.0071251132 0.0037906382 -9.7818207e-05
0.0060118139 0.0066893613 -0.016693274
-0.010242349 0.0011148936 -0.0012041818
-0.0044531957 -0.007804255 -0.0058509093
0.0075704325 -0.0049055316 -0.005187091
0.002003938 -0.0098110633 -0.020897456
-0.0055664945 -0.0071353186 -0.013374182
0.0057891542 -0.0066893613 -0.0080636367
-0.0060118139 0.001560851 -0.021118727
-0.0066797934 0.0028987234 -9.7818207e-05
0.0044531957 0.007804255 -0.015144364
0.010242349 -0.0017838296 -0.0012041818
-0.0077930922 0.004682553 -0.011825273
0.00022265979 0.0089191487 -0.016914546
0.0089063914 0.0011148936 -0.016914546
-0.0082384115 0.0044595744 -0.020897456
0.0040078759 -0.0080272341 -0.0031956364
0 -0.0011148936 -9.7818207e-05
0.0064571337 -0.0040136171 -9.7818207e-05
0.0057891542 -0.00089191482 -9.7818207e-05
-0.0073477728 0.0051285103 -0.0073998184
0.00044531957 0.00089191482 -9.7818207e-05
-0.002003938 0.004682553 -0.02134
0.0086837318 -0.001560851 -0.016472001
0.0064571337 0.0064663826 -0.016029455
-0.0064571337 -0.006243404 -0.004965818
0.003117237 0.0082502123 -0.016472001
-0.0080157518 -0.0040136171 -0.0025318181
-0.0091290511 -0.0028987234 -9.7818207e-05
0.0091290511 -0.0020068085 -9.7818207e-05
-0.0046758554 0.007804255 -0.0065147271
0.0040078759 0.0053514889 -9.7818207e-05
0.0040078759 -0.0080272341 -0.0020892727
-0.0086837318 0.001560851 -0.0062934547
-0.003117237 -0.0071353186 -0.021118727
0.0082384115 0.0037906382 -0.0085061816
0.0089063914 0.00022297871 -0.010276364
0.0089063914 0.0011148936 -0.004965818
0.0057891542 0.004682553 -9.7818207e-05
-0.0073477728 0.0053514889 -0.013374182
0.0017812783 0.0082502123 -9.7818207e-05
0.0033398967 0.0082502123 -0.017578363
0.006902453 0.0055744676 -0.018020909
-0.0024492575 -0.0011148936 -9.7818207e-05
-0.0011132989 -0.0089191487 -0.0091700004
-0.0026719174 0.0086961696 -0.0073998184
-0.00089063914 0.0053514889 -0.02134
0.0089063914 -0.00066893612 -0.010055091
-0.00022265979 0.0089191487 -0.0098338183
-0.0044531957 0.0089191487 -0.020897456
0.00044531957 -0.0091421269 -0.0058509093
-0.0091290511 -0.0049055316 -0.0012041818
0.0060118139 -0.0017838296 -9.7818207e-05
-0.0077930922 0.0049055316 -0.018684728
-0.0086837318 0.0024527658 -0.0043020002
0.00066797936 0.010257021 -0.0014254546
0.0073477728 0.0053514889 -0.0031956364
0.0013359587 0.010257021 -0.001868
0.00022265979 -0.0089191487 -0.0045232726
0.0051211747 0.0075812764 -0.0091700004
-0.0082384115 0.0033446806 -0.0062934547
-0.0044531957 0.007804255 -0.006957273
0.0040078759 -0.0075812764 -9.7818207e-05
-0.0077930922 0.0066893613 -0.0014254546
0.0028945771 0.0084731914 -0.016693274
-0.0015586185 0.0089191487 -0.010055091
0.0013359587 0.0040136171 -9.7818207e-05
0.0077930922 0.0042365957 -0.006957273
0.0044531957 0.0091421269 -0.001868
0.0080157518 0.0044595744 -0.018906001
-0.0075704325 -0.0049055316 -0.0023105454
-0.0071251132 0.0053514889 -0.0096125454
-0.0084610721 0.0057974467 -0.00098290911
0.0051211747 -0.0089191487 -0.019791091
-0.0095743705 -0.0028987234 -0.020897456
-0.0082384115 0.0037906382 -0.0076210909
0.0046758554 0.0026757445 -9.7818207e-05
-0.0082384115 -0.0049055316 -0.019348545
0 0.0089191487 -0.014259273
-0.0040078759 0.0080272341 -0.013816727
0.0089063914 0 -0.013816727
-0.0051211747 -0.0073582977 -0.005187091
0.0051211747 0.0017838296 -9.7818207e-05
0.0082384115 0.0044595744 -0.019127272
-0.0091290511 0.00022297871 -0.011825273
-0.0089063914 0.0011148936 -0.018463455
0.0015586185 -0.0086961696 -0.0045232726
0.0037852162 -0.0035676593 -0.02134
0.0055664945 -0.0086961696 -0.001868
0.00089063914 0.0089191487 -0.012710364
-0.0044531957 0.007804255 -0.0076210909
-0.00022265979 -0.0069123399 -9.7818207e-05
-0.0077930922 -0.0042365957 -0.0089487275
-0.0097970301 0.0028987234 -0.00031909093
0.0044531957 -0.007804255 -0.0071785455
-0.003117237 0.0091421269 -0.019127272
0.006902453 0.0057974467 -0.018463455
0.0046758554 0.007804255 -0.004965818
-0.0057891542 -0.0084731914 -0.020012364
0.0055664945 0.0033446806 -9.7818207e-05
-0.0089063914 0 -0.018242182
-0.0091290511 -0.00044595741 -0.0031956364
-0.0091290511 0.00044595741 -0.002753091
0 -0.004682553 -0.02134
0.0055664945 -0.0024527658 -0.021118727
0.0071251132 0.0066893613 -0.019348545
-0.0040078759 0.0084731914 -9.7818207e-05
-0.0091290511 -0.00022297871 -0.0076210909
0.0022265979 0.0086961696 -0.0073998184
-0.0044531957 0.00089191482 -0.02134
-0.0075704325 -0.0049055316 -0.0073998184
-0.0015586185 0.0089191487 -0.011604
-0.0066797934 -0.0071353186 -0.001868
0.0089063914 0.0011148936 -0.015144364
-0.0044531957 0.007804255 -0.014038
-0.0086837318 -0.0022297872 -0.004965818
-0.0080157518 -0.0042365957 -0.018684728
-0.0051211747 -0.0089191487 -0.0014254546
0.0084610721 0.0026757445 -9.7818207e-05
0.0051211747 0.0073582977 -0.0076210909
-0.006234474 0.0064663826 -0.0091700004
-0.0077930922 -0.0044595744 -0.014038
0.0071251132 0.0055744676 -0.0040807272
0.0035625566 -0.0020068085 -0.02134
-0.0042305361 0.007804255 -0.013152909
0.0077930922 0.003121702 -0.021118727
0.006234474 0.0064663826 -0.020897456
-0.00089063914 0.0053514889 -9.7818207e-05
-0.0037852162 -0.0082502123 -0.0031956364
-0.0013359587 0.0042365957 -9.7818207e-05
0.0089063914 -0.0013378722 -0.0043020002
0.0035625566 -0.0091421269 -0.001868
0.0055664945 -0.0075812764 -9.7818207e-05
0.0084610721 -0.0026757445 -0.0029743637
-0.0053438349 -0.0071353186 -0.0056296363
0.0075704325 0.004682553 -0.016472001
0.0077930922 -0.0044595744 -0.0060721817
0.0089063914 0 -0.0056296363
-0.0046758554 -0.0069123399 -0.021118727
-0.0040078759 0.0013378722 -9.7818207e-05
-0.0077930922 0.0064663826 -0.00031909093
0.0051211747 -0.0073582977 -0.018020909
-0.0015586185 -0.0082502123 -0.021118727
0.00044531957 0.0057974467 -9.7818207e-05
-0.0033398967 0.0057974467 -9.7818207e-05
0.0084610721 -0.0024527658 -0.0062934547
0.0044531957 -0.003121702 -0.02134
0.0060118139 -0.0075812764 -9.7818207e-05
-0.006902453 0.0057974467 -0.0036381818
0.0053438349 -0.0071353186 -0.0096125454
-0.006234474 0.0013378722 -9.7818207e-05
-0.0015586185 -0.0089191487 -0.010276364
0.0089063914 0.0017838296 -0.014259273
0.0055664945 -0.00022297871 -9.7818207e-05
-0.0089063914 0.0022297872 -0.018684728
0.0086837318 -0.0033446806 -0.020897456
-0.0071251132 0.0075812764 -0.019791091
-0.0013359587 0.0089191487 -0.021118727
0.0044531957 -0.0080272341 -0.019127272
-0.0077930922 -0.0053514889 -0.001868
-0.0089063914 -0.00044595741 -0.0087274546
0.0026719174 0.0013378722 -9.7818207e-05
0.0089063914 -0.0035676593 -0.020897456
-0.0077930922 -0.0066893613 -0.020676183
-0.0057891542 0.0075812764 -0.019348545
0.0066797934 0.0060204254 -0.0036381818
-0.0082384115 -0.00089191482 -0.021118727
-0.0055664945 -0.001560851 -0.021118727
-0.0022265979 -0.0049055316 -0.02134
-0.0095743705 -0.00022297871 -9.7818207e-05
-0.0055664945 -0.00089191482 -9.7818207e-05
0.0093517108 0.0044595744 -0.02045491
-0.0011132989 -0.009365106 -0.018906001
0.0077930922 -0.0051285103 -0.020897456
0.0060118139 -0.0066893613 -0.0056296363
0.00089063914 -0.001560851 -9.7818207e-05
-0.0028945771 -0.0026757445 -0.02134
0.006902453 0.0057974467 -0.017799636
-0.0082384115 0.0037906382 -0.0034169091
0.003117237 0.0082502123 -0.0062934547
0.0042305361 0.007804255 -0.005187091
-0.0089063914 -0.0020068085 -0.010055091
-0.0082384115 -0.004682553 -0.001868
0.0084610721 -0.0060204254 -0.0016467273
0.00022265979 -0.0089191487 -0.0098338183
0.0086837318 -0.0017838296 -0.0096125454
-0.0026719174 0.00089191482 -0.02134
-0.0022265979 0.0086961696 -0.018020909
-0.0028945771 0.0084731914 -0.0065147271
-0.0082384115 -0.0035676593 -0.0038594545
-0.00022265979 -0.0042365957 -0.02134
-0.0084610721 0.0022297872 -0.0062934547
0.0017812783 0.0089191487 -0.0073998184
-0.00044531957 0.0073582977 -9.7818207e-05
-0.0028945771 -0.00089191482 -9.7818207e-05
0.0066797934 0.007804255 -0.00098290911
-0.003117237 0.0084731914 -0.011161455
-0.0035625566 -0.009365106 -0.020897456
-0.0042305361 0.0080272341 -0.018463455
-0.003117237 0.0084731914 -0.015808182
-0.0042305361 -0.004682553 -9.7818207e-05
0.0033398967 0.0057974467 -9.7818207e-05
0.0037852162 0.0080272341 -0.012046546
0.0040078759 0.0089191487 -0.001868
0.0015586185 -0.0089191487 -0.0060721817
-0.0042305361 -0.007804255 -0.0078423638
-0.0022265979 -0.010034042 -0.019791091
-0.0044531957 -0.0073582977 -9.7818207e-05
0.00089063914 -0.0089191487 -0.012489091
0.0044531957 0.0084731914 -0.020897456
-0.0028945771 -0.0071353186 -0.021118727
0 0.0089191487 -0.0054083639
0.0051211747 -0.0084731914 -0.019348545
-0.0013359587 0.0095880842 -9.7818207e-05
-0.0080157518 0.0040136171 -0.0071785455
-0.006234474 0.0082502123 -0.0014254546
0.0057891542 -0.0069123399 -0.012931637
-0.0077930922 -0.0044595744 -0.0031956364
-0.0017812783 -0.0086961696 -0.015365637
-0.00022265979 0.0033446806 -0.02134
0.0028945771 -0.0084731914 -0.012046546
-0.0089063914 -0.0011148936 -0.0045232726
0.0040078759 -0.0060204254 -9.7818207e-05
0.0015586185 -0.0086961696 -0.012931637
-0.0089063914 -0.00066893612 -0.015808182
-0.0084610721 0.0028987234 -0.0031956364
