# .PCD v0.7 - Point Cloud Data file format
VERSION 0.7
FIELDS x y z
SIZE 4 4 4
TYPE F F F
COUNT 1 1 1
WIDTH 1238
HEIGHT 1
VIEWPOINT 0 0 0 1 0 0 0
POINTS 1238
DATA ascii
0.0009577038 -0.004783479 -0.0003453487
-0.016759817 0.013393742 -0.024718603
0.012929001 0.012437046 -0.0003453487
-0.02298489 -0.00047834791 -0.037144184
-0.0028731113 0.014350438 -0.0003453487
-0.008140482 -0.0023917395 -0.0003453487
0.018675223 0.01148035 -0.0041686045
0.0028731113 0.0086102625 -0.0003453487
0.020590631 -0.0062185228 -0.026630232
0.0023942594 0.022004005 -0.033798836
0.010534742 -0.018655568 -0.011337209
-0.017238669 0.012915394 -0.022806976
-0.018675223 0.01626383 -0.037144184
0.021548335 0.0028700875 -0.02232907
0.012929001 -0.010523655 -0.0003453487
-0.0043096673 0.015307133 -0.038099997
0.0033519634 -0.0043051313 -0.0003453487
0.0071827783 0.020090614 -0.0051244185
-0.0023942594 -0.022482352 -0.0036906975
0.010534742 0.018655568 -0.015638372
-0.018675223 -0.011002002 -0.0075139529
-0.019632928 0.0028700875 -0.038099997
0.016759817 0.01387209 -0.018027905
0.0090981862 0.018177221 -0.0003453487
0.0019154076 0.005740175 -0.038099997
0.018196372 -0.01148035 -0.0084697669
0.018675223 -0.010523655 -0.017549999
-0.021548335 0.0090886103 -0.0036906975
0.012929001 0.017220525 -0.012770929
0.011013594 -0.00047834791 -0.0003453487
-0.013886705 -0.018655568 -0.03762209
-0.011971298 0.005740175 -0.0003453487
-0.0019154076 0.021525657 -0.015638372
-0.023463743 -0.005740175 -0.035710465
-0.0043096673 -0.021047309 -0.0051244185
0.019632928 -0.0086102625 -0.028063953
-0.0062250746 0.0229607 -0.0003453487
0.02250604 -0.010523655 -0.036666278
-0.023942595 -0.00047834791 -0.035710465
-0.0014365556 0.022482352 -0.0036906975
0.0047885189 -0.014828785 -0.0003453487
-0.0090981862 0.019612266 -0.021851161
-0.0086193345 -0.020568961 -0.035232555
0.017238669 0.0028700875 -0.0003453487
-0.0076616304 0.0229607 -0.0003453487
-0.016280964 0.018177221 -0.03762209
0.011013594 -0.0071752188 -0.0003453487
0.0090981862 -0.019612266 -0.024240697
0.013407853 -0.016742177 -0.0094255805
0.014844409 0.017698873 -0.0036906975
-0.021069484 -0.01148035 -0.03762209
-0.0028731113 0.0023917395 -0.038099997
0.021548335 0.011958698 -0.036188371
0.015802113 0.0019133916 -0.0003453487
0.0057462226 0.020090614 -0.038099997
0.011971298 -0.017698873 -0.026152324
0.014365557 -0.019133916 -0.036188371
0.021548335 0.0019133916 -0.029019766
0.0019154076 -0.021525657 -0.026630232
-0.021548335 -0.0038267833 -0.0060802321
0.021069484 -0.0052618273 -0.029019766
-0.0043096673 0.022482352 -0.03762209
-0.0023942594 0.004783479 -0.038099997
-0.021069484 0.0038267833 -0.021851161
0.023463743 -0.0086102625 -0.0003453487
-0.013407853 -0.016742177 -0.0099034877
0.0004788519 -0.021525657 -0.030931395
-0.023463743 -0.0038267833 -0.0036906975
0.014844409 0.015785482 -0.027586045
0.012450149 0.017698873 -0.013726744
0 0.0095669581 -0.038099997
0.023463743 -0.0038267833 -0.0003453487
0.0062250746 -0.023439048 -0.0003453487
0.0071827783 0.012915394 -0.0003453487
0.0086193345 0.020568961 -0.0003453487
0.0062250746 -0.020568961 -0.024240697
-0.021548335 -0.0038267833 -0.019461626
0.010534742 0.018655568 -0.023284882
-0.021548335 0.0014350438 -0.012770929
-0.0057462226 -0.012437046 -0.0003453487
0.011492445 -0.01387209 -0.038099997
0.018675223 0.0033484355 -0.0003453487
-0.019632928 -0.0095669581 -0.0041686045
-0.022027187 0.0081319148 -0.03762209
0.020111779 -0.0076535665 -0.022806976
0.018196372 0.011958698 -0.013726744
0.0067039267 0.020568961 -0.032365113
0.0009577038 -0.021525657 -0.026152324
0.011013594 -0.0090886103 -0.0003453487
0.017238669 -0.013393742 -0.0089476742
0.019632928 0.015307133 -0.036188371
0.021069484 0.0052618273 -0.025196511
-0.0047885189 0.0033484355 -0.0003453487
-0.023942595 -0.006696871 -0.00082325569
-0.0009577038 0.021525657 -0.0094255805
0.0043096673 -0.021047309 -0.024718603
-0.020590631 0.0071752188 -0.029019766
0.0009577038 0.017220525 -0.0003453487
0.0009577038 -0.017698873 -0.038099997
0 -0.0076535665 -0.038099997
-0.019632928 -0.01387209 -0.036188371
-0.013886705 0.013393742 -0.0003453487
-0.0009577038 -0.022482352 -0.0036906975
-0.0057462226 0.020568961 -0.026630232
0.0023942594 0.0052618273 -0.0003453487
0.0033519634 0.022004005 -0.034276742
-0.014844409 -0.015785482 -0.010381395
0.020111779 0.014828785 -0.0022569764
-0.0014365556 -0.01626383 -0.0003453487
-0.011013594 -0.00047834791 -0.0003453487
-0.016280964 -0.014350438 -0.030453486
-0.0038308152 -0.0229607 -0.0003453487
-0.015802113 0.015785482 -0.0036906975
0.0014365556 -0.021525657 -0.010859302
0.021548335 0.0019133916 -0.032843024
-0.0067039267 -0.0043051313 -0.0003453487
-0.011013594 0.018655568 -0.012770929
0.012450149 0.0071752188 -0.0003453487
0.018675223 -0.011002002 -0.018027905
0.021548335 0.0033484355 -0.028541859
-0.0023942594 -0.021525657 -0.0003453487
0.018196372 0.017220525 -0.0022569764
0.020111779 0.0076535665 -0.01420465
-0.011971298 0.0028700875 -0.038099997
0.0090981862 0.021525657 -0.0036906975
0.020111779 0.0076535665 -0.02997558
-0.021548335 -0.00047834791 -0.023284882
-0.019632928 0.0043051313 -0.0003453487
-0.014365557 0.01626383 -0.0094255805
-0.019154076 -0.0023917395 -0.0003453487
-0.0004788519 -0.021525657 -0.02232907
0.021548335 -0.0076535665 -0.03762209
0.024421446 -0.004783479 -0.0022569764
0.012450149 0.021525657 -0.0027348835
-0.0009577038 0.022004005 -0.0003453487
0.0076616304 0 -0.0003453487
-0.011013594 0.012437046 -0.0003453487
-0.011013594 0.010045307 -0.038099997
-0.020111779 0.00095669582 -0.03762209
0.0062250746 -0.020568961 -0.0094255805
0.018675223 0.01626383 -0.035710465
-0.0019154076 0.00095669582 -0.0003453487
-0.0062250746 0.020568961 -0.024718603
0.01771752 0.012437046 -0.031887207
0.0095770378 0.019133916 -0.025196511
-0.018675223 -0.011958698 -0.034754649
-0.0023942594 -0.018655568 -0.0003453487
0.020590631 0.01387209 -0.037144184
0.019154076 0.015785482 -0.0027348835
0.01771752 -0.012915394 -0.0075139529
0.021548335 -0.0019133916 -0.026630232
0.02250604 -0.0014350438 -0.0003453487
-0.018196372 0.01148035 -0.024718603
0.0076616304 0.020090614 -0.018505814
0.018196372 -0.01148035 -0.0094255805
0.0095770378 -0.019133916 -0.029019766
0.016759817 -0.014350438 -0.033798836
-0.015802113 0.015307133 -0.03332093
0.020111779 0.0081319148 -0.025196511
0.0047885189 -0.0086102625 -0.038099997
-0.021548335 -0.0033484355 -0.018027905
0.022027187 0.01148035 -0.036188371
-0.021548335 -0.00047834791 -0.011815116
0.0023942594 0.021525657 -0.0075139529
-0.010534742 0.020090614 -0.03762209
-0.0076616304 0.0229607 -0.03762209
0.022027187 0.00095669582 -0.0036906975
-0.010534742 0.0028700875 -0.0003453487
-0.014365557 -0.019133916 -0.0003453487
0.0047885189 -0.021047309 -0.030453486
-0.016759817 0.0033484355 -0.038099997
-0.011492445 0.018655568 -0.032365113
-0.021548335 0.0019133916 -0.028541859
0.015323261 -0.015307133 -0.029497674
0.0047885189 0.022482352 -0.0036906975
0.021548335 0.010045307 -0.0036906975
0.021548335 0.00095669582 -0.023284882
-0.0086193345 -0.018655568 -0.038099997
0.018675223 0.011958698 -0.03332093
-0.021069484 -0.005740175 -0.0046465113
0.019154076 -0.012915394 -0.0003453487
0.021548335 -0.0014350438 -0.020895349
0.021548335 -0.0019133916 -0.016116278
-0.021548335 -0.0019133916 -0.023284882
-0.008140482 0.020090614 -0.028063953
-0.0095770378 0.022482352 -0.0003453487
0.02250604 -0.0043051313 -0.035232555
0.010534742 -0.01387209 -0.038099997
-0.0043096673 -0.021047309 -0.013726744
0.019632928 0.01387209 -0.03762209
-0.015802113 0.014828785 -0.0075139529
0.0071827783 0.005740175 -0.0003453487
-0.021069484 -0.005740175 -0.025196511
0.019154076 0.010045307 -0.027108138
0.0019154076 0.021525657 -0.024718603
0.010055889 -0.019133916 -0.031887207
-0.0043096673 0.015307133 -0.0003453487
0.0004788519 -0.024874091 -0.0022569764
0.011971298 -0.0033484355 -0.038099997
0.0014365556 0.006696871 -0.038099997
-0.0019154076 -0.0062185228 -0.038099997
0.008140482 -0.017698873 -0.0003453487
0.0004788519 -0.024874091 -0.0013011626
0.018196372 0.011958698 -0.0046465113
0.005267371 0.022004005 -0.0003453487
0 -0.006696871 -0.0003453487
-0.010055889 -0.021525657 -0.035710465
0.010534742 -0.022482352 -0.036666278
0.016759817 -0.01387209 -0.014682557
0.021548335 0.011002002 -0.0003453487
0.021548335 -0.00095669582 -0.018027905
-0.012929001 0.0081319148 -0.038099997
0.0071827783 0.017698873 -0.0003453487
0.0071827783 0.022482352 -0.035710465
0.0086193345 -0.019612266 -0.021373255
0.020590631 -0.006696871 -0.011337209
-0.010534742 -0.00095669582 -0.0003453487
-0.011971298 0.017698873 -0.01898372
-0.008140482 0.0062185228 -0.0003453487
0.016280964 -0.014350438 -0.026630232
0.0014365556 -0.011002002 -0.0003453487
0.013407853 -0.016742177 -0.0084697669
0.0095770378 -0.021047309 -0.035710465
0.014844409 -0.019133916 -0.03762209
0.014365557 0.015785482 -0.0099034877
0.019632928 -0.0071752188 -0.038099997
0.019154076 -0.010045307 -0.0003453487
-0.021069484 -0.0052618273 -0.013726744
-0.019632928 0.0090886103 -0.018027905
-0.0090981862 0.021047309 -0.0003453487
-0.0004788519 0.011002002 -0.0003453487
0 -0.011002002 -0.038099997
-0.0095770378 -0.015785482 -0.0003453487
0.015802113 -0.014828785 -0.013726744
0.0038308152 0.021525657 -0.0041686045
0.0067039267 0.023439048 -0.036188371
-0.016280964 -0.010523655 -0.038099997
-0.020590631 -0.0086102625 -0.0003453487
-0.024421446 0.0043051313 -0.036666278
0.021069484 -0.0052618273 -0.027586045
0.0090981862 -0.020568961 -0.03762209
0.0043096673 0.01626383 -0.0003453487
-0.0014365556 0.012915394 -0.0003453487
-0.0076616304 0.020090614 -0.029497674
-0.021069484 -0.0052618273 -0.0041686045
-0.0047885189 0.0076535665 -0.038099997
-0.019632928 0.0090886103 -0.01898372
0.0071827783 -0.014350438 -0.0003453487
0.019632928 -0.0090886103 -0.0075139529
0.0071827783 -0.00095669582 -0.0003453487
-0.0071827783 0.020568961 -0.011815116
0.0043096673 0.021047309 -0.014682557
0.020590631 0.0033484355 -0.0003453487
-0.0076616304 0.020090614 -0.012770929
0.019632928 -0.0095669581 -0.0041686045
0.0043096673 -0.021047309 -0.030453486
0.0057462226 0.013393742 -0.038099997
-0.011013594 -0.01148035 -0.0003453487
-0.0009577038 0.012915394 -0.038099997
-0.0086193345 -0.020090614 -0.026630232
0.005267371 0.006696871 -0.038099997
0.0023942594 -0.022004005 -0.033798836
0.012450149 -0.015307133 -0.0003453487
0.011971298 0.020568961 -0.03762209
-0.011492445 0.018177221 -0.030453486
-0.0004788519 0.021525657 -0.012293023
-0.005267371 -0.021047309 -0.02232907
-0.008140482 -0.0033484355 -0.0003453487
0.0095770378 0.019612266 -0.029019766
-0.021548335 -0.0028700875 -0.025674418
-0.015802113 -0.014828785 -0.0084697669
0.0047885189 -0.019612266 -0.0003453487
-0.01771752 -0.011002002 -0.038099997
0.01771752 0 0.002044186
0.0028731113 0.0023917395 -0.038099997
-0.02298489 0 -0.0003453487
-0.021548335 0.0014350438 -0.02997558
0.0095770378 0.01626383 -0.0003453487
-0.013886705 0.016742177 -0.019461626
0.0071827783 0.023917396 -0.0013011626
0.016759817 -0.014350438 -0.03762209
-0.0043096673 -0.022004005 -0.0036906975
-0.01771752 -0.011958698 -0.015638372
0.0019154076 0.014828785 -0.0003453487
0.0019154076 -0.021525657 -0.010381395
0.0023942594 0.0095669581 -0.0003453487
-0.017238669 -0.012915394 -0.023284882
-0.01771752 -0.015307133 -0.0036906975
-0.019632928 0.0086102625 -0.017549999
0.008140482 -0.020090614 -0.032365113
0.011013594 -0.0062185228 -0.0003453487
-0.021069484 0.005740175 -0.02997558
0.02298489 -0.0028700875 -0.0003453487
-0.015802113 -0.011958698 -0.0003453487
-0.012929001 0.017220525 -0.015160465
-0.024900299 -0.0019133916 -0.0017790695
-0.008140482 0.0019133916 -0.038099997
0.015802113 -0.0071752188 -0.0003453487
-0.0086193345 0.020090614 -0.0046465113
-0.015802113 0.0043051313 -0.0003453487
0.013407853 -0.00047834791 -0.038099997
-0.0043096673 0.021047309 -0.02997558
0.012929001 -0.010045307 -0.0003453487
-0.0086193345 0.0019133916 -0.0003453487
-0.0038308152 0.021525657 -0.010381395
0.0090981862 -0.0081319148 -0.038099997
0.0004788519 0.021525657 -0.016594185
-0.0033519634 -0.021047309 -0.012293023
-0.021548335 0.0023917395 -0.023284882
0.012929001 0.012915394 -0.038099997
-0.021069484 -0.0052618273 -0.0075139529
-0.0086193345 0.019612266 -0.0070360461
-0.0057462226 0.0023917395 -0.038099997
0.0071827783 0.020568961 -0.020417441
0.018675223 -0.011002002 -0.013248837
-0.014844409 0.0081319148 -0.038099997
0.014844409 0.0090886103 -0.038099997
-0.011971298 0.018177221 -0.016594185
-0.012929001 -0.0028700875 -0.038099997
-0.0062250746 -0.015307133 -0.038099997
0.020590631 0.01387209 -0.036666278
0.011013594 -0.010523655 -0.038099997
0.0004788519 -0.006696871 -0.0003453487
-0.011971298 -0.01626383 -0.038099997
0.021069484 -0.005740175 -0.016594185
-0.023463743 -0.0086102625 -0.0017790695
-0.0038308152 -0.021047309 -0.025196511
-0.022027187 0.00047834791 -0.034276742
0.0071827783 -0.01626383 -0.038099997
0.021548335 0.0019133916 -0.018027905
-0.008140482 -0.023439048 -0.0027348835
0.0095770378 -0.019612266 -0.032843024
-0.018675223 0.011002002 -0.024718603
-0.0023942594 0.005740175 -0.038099997
-0.0090981862 0.022482352 -0.0003453487
0.0023942594 -0.017698873 -0.038099997
-0.021069484 -0.0052618273 -0.025196511
-0.0023942594 0.004783479 -0.0003453487
-0.013886705 0.012915394 -0.038099997
0.0019154076 0.023917396 -0.0003453487
0.0043096673 -0.021047309 -0.015638372
-0.020590631 -0.005740175 -0.024718603
0.02250604 0 -0.0036906975
-0.023942595 -0.0071752188 -0.0017790695
0.019632928 -0.011958698 -0.035232555
0.01771752 0.012437046 -0.013726744
-0.014844409 -0.015785482 -0.027586045
-0.011971298 0.014828785 -0.038099997
0.013407853 -0.016742177 -0.027586045
0.017238669 0.012915394 -0.020417441
0.005267371 0.012437046 -0.038099997
0.011492445 -0.019133916 -0.0036906975
0.011013594 0.014828785 -0.0003453487
0.021548335 0.0038267833 -0.019461626
-0.010534742 -0.022482352 -0.037144184
0.0047885189 -0.0229607 -0.0036906975
-0.010055889 -0.019133916 -0.028541859
0.0062250746 -0.006696871 -0.038099997
-0.015802113 0.018177221 -0.0003453487
-0.01771752 0.012437046 -0.011815116
0.014844409 -0.01626383 -0.03762209
0.021548335 -0.0019133916 -0.0046465113
-0.0004788519 0.0019133916 -0.038099997
0.018675223 -0.01148035 -0.02997558
-0.021548335 -0.00047834791 -0.021851161
-0.019632928 0.0086102625 -0.028541859
-0.0014365556 -0.019612266 -0.0003453487
-0.0033519634 -0.022482352 -0.0036906975
0.0086193345 0.020090614 -0.032843024
-0.021548335 0.0014350438 -0.023284882
0.015802113 -0.0052618273 -0.0003453487
0.02298489 -0.0095669581 -0.036666278
0.021069484 0.0052618273 -0.0070360461
0.014844409 -0.01626383 -0.03332093
0.005267371 -0.021047309 -0.032365113
-0.0090981862 -0.019612266 -0.03762209
-0.0033519634 0.016742177 -0.038099997
0.0023942594 -0.019133916 -0.0003453487
0.013886705 -0.012437046 -0.038099997
-0.0009577038 0.0028700875 -0.038099997
-0.021069484 0.004783479 -0.020895349
-0.021069484 0.0033484355 -0.012770929
-0.017238669 -0.013393742 -0.0075139529
0.0033519634 0.024874091 -0.0017790695
0.013407853 -0.012437046 -0.038099997
-0.020590631 -0.0062185228 -0.012770929
-0.0009577038 0.0019133916 -0.0003453487
0.021548335 -0.0019133916 -0.02376279
-0.0019154076 0.021525657 -0.010381395
0.010055889 0.019133916 -0.014682557
0.021548335 -0.0019133916 -0.023284882
-0.021548335 0.0028700875 -0.018505814
0.008140482 -0.01387209 -0.038099997
0.0019154076 0.021525657 -0.0056023253
-0.011013594 -0.00095669582 -0.038099997
0.0019154076 -0.00047834791 -0.0003453487
0.0014365556 0.024395743 -0.036188371
0.011013594 0.0095669581 -0.0003453487
0.021548335 -0.0019133916 -0.021373255
-0.021548335 0.0028700875 -0.0041686045
0.022027187 0.0095669581 -0.035710465
-0.012450149 -0.01387209 -0.0003453487
-0.021548335 -0.00047834791 -0.02376279
-0.020111779 0.0076535665 -0.017072093
0.011492445 0.018177221 -0.013248837
-0.008140482 -0.021525657 -0.0003453487
0.005267371 0.021047309 -0.017072093
0.024421446 0.00047834791 -0.036666278
0.0038308152 -0.021047309 -0.0084697669
-0.022027187 -0.0081319148 -0.035710465
-0.0090981862 -0.019612266 -0.024240697
0.020590631 0.01148035 -0.03762209
0.0086193345 -0.0062185228 -0.038099997
0.01771752 -0.0019133916 -0.038099997
0.013886705 0.01387209 -0.0003453487
0.011013594 0.018655568 -0.011337209
-0.011492445 -0.022004005 -0.0027348835
0.0086193345 -0.0086102625 -0.0003453487
-0.012450149 -0.015785482 -0.0003453487
0.013407853 0.016742177 -0.013248837
0.021548335 0.0033484355 -0.013726744
-0.016280964 -0.014350438 -0.013726744
-0.02250604 -0.0014350438 -0.0036906975
-0.017238669 -0.018177221 -0.0022569764
-0.022027187 0.0076535665 -0.0003453487
0.022027187 0.0028700875 -0.0003453487
0.0057462226 -0.0071752188 -0.0003453487
-0.0047885189 0.021047309 -0.029497674
0.016280964 0.0043051313 -0.0003453487
0.010534742 -0.022482352 -0.0027348835
-0.019632928 -0.0086102625 -0.02376279
0.013886705 0.0086102625 -0.038099997
0.018196372 0.01148035 -0.024240697
0.0028731113 -0.021525657 -0.0084697669
0.016759817 -0.01387209 -0.016594185
0.013886705 -0.0081319148 -0.0003453487
0 -0.021525657 -0.025674418
0.0028731113 0.0095669581 -0.038099997
0.021548335 -0.01148035 -0.035232555
-0.008140482 0.020090614 -0.026630232
-0.011492445 -0.020090614 -0.035710465
0.022027187 0.006696871 -0.03762209
0.021069484 0.013393742 -0.037144184
0.012450149 0.019612266 -0.03762209
0.01771752 0.012437046 -0.013248837
0.024421446 -0.0043051313 -0.0022569764
0.0033519634 0.0229607 -0.03762209
-0.0057462226 -0.024395743 -0.0032127905
-0.021548335 -0.0023917395 -0.023284882
0.0009577038 -0.021525657 -0.011815116
-0.0004788519 0.024874091 -0.036666278
0.013407853 -0.020568961 -0.0036906975
-0.019632928 0.0095669581 -0.027108138
-0.010534742 0.021525657 -0.03762209
0.0076616304 0.0052618273 -0.038099997
-0.0090981862 -0.013393742 -0.038099997
0.019154076 0.0095669581 -0.020417441
0.0033519634 0.021047309 -0.0094255805
0.0057462226 -0.01626383 -0.038099997
-0.010534742 0.0033484355 -0.038099997
-0.017238669 -0.013393742 -0.012293023
0.011013594 0.018655568 -0.024240697
-0.015802113 -0.013393742 -0.0003453487
-0.008140482 -0.020090614 -0.01898372
-0.0076616304 0.020090614 -0.013726744
0.019632928 0.0086102625 -0.026152324
0.015323261 -0.014828785 -0.026152324
-0.016759817 -0.0038267833 -0.0003453487
-0.013886705 0.016742177 -0.030453486
0.013407853 0.021047309 -0.037144184
-0.0062250746 0.020568961 -0.021373255
0.012929001 -0.01148035 -0.0003453487
-0.0028731113 0.016742177 -0.0003453487
-0.021069484 0.0038267833 -0.028541859
0.0019154076 -0.021525657 -0.014682557
0.017238669 0.011958698 -0.038099997
0.011492445 -0.0043051313 -0.038099997
-0.020590631 -0.0062185228 -0.0075139529
0.011492445 0.018177221 -0.030453486
-0.016280964 -0.015307133 -0.0036906975
-0.015802113 0.005740175 -0.038099997
0.0057462226 -0.005740175 -0.038099997
0.021069484 0.011002002 -0.035232555
-0.014844409 -0.01626383 -0.033798836
-0.0019154076 0.010523655 -0.0003453487
-0.018675223 0.011002002 -0.02376279
-0.0067039267 0.021525657 -0.0003453487
0.021069484 -0.012437046 -0.03762209
-0.021069484 -0.0052618273 -0.012293023
0.019154076 -0.0076535665 -0.038099997
0.0047885189 0.019133916 -0.038099997
0 -0.021525657 -0.010381395
-0.013407853 0.00047834791 -0.0003453487
0.021069484 0.0076535665 -0.0036906975
-0.0086193345 -0.020090614 -0.010859302
-0.0014365556 0.019133916 -0.0003453487
0.0086193345 0.019612266 -0.029019766
0.0062250746 0.00047834791 -0.038099997
-0.005267371 0.0229607 -0.035710465
-0.014844409 0.0033484355 -0.0003453487
-0.020590631 -0.0071752188 -0.031887207
0.018196372 -0.01148035 -0.012770929
-0.0047885189 0.021047309 -0.014682557
0.0057462226 -0.021047309 -0.0056023253
-0.0057462226 -0.0076535665 -0.0003453487
0 0.0086102625 -0.0003453487
0.0004788519 -0.020090614 -0.038099997
0.021548335 -0.0071752188 -0.035232555
0.0028731113 -0.020090614 -0.0003453487
-0.0047885189 0.011002002 -0.0003453487
0.020111779 -0.0086102625 -0.03762209
0.01771752 0.014828785 -0.0003453487
0.008140482 -0.020090614 -0.018027905
0.0095770378 -0.01387209 -0.038099997
0.0043096673 0.021047309 -0.021373255
-0.0019154076 -0.010045307 -0.038099997
0.0043096673 0.021047309 -0.010381395
-0.0076616304 -0.020090614 -0.025196511
0.010055889 -0.0033484355 -0.0003453487
-0.016280964 -0.016742177 -0.0036906975
-0.0004788519 0.0043051313 -0.0003453487
0.013886705 0.017220525 -0.03332093
0.0023942594 0.022482352 -0.0003453487
-0.011013594 -0.018655568 -0.020895349
0.0009577038 -0.022004005 -0.03332093
-0.010534742 0.019133916 -0.028541859
0.012450149 -0.017698873 -0.031887207
0.020111779 0.011958698 -0.035232555
0.024900299 0.0019133916 -0.0017790695
-0.016280964 -0.0043051313 -0.0003453487
-0.0047885189 0.0014350438 -0.038099997
0.024421446 0.0052618273 -0.00082325569
0.021548335 0.0023917395 -0.031887207
0.011971298 0.014828785 -0.0003453487
-0.015323261 -0.019612266 -0.037144184
-0.018196372 0.011958698 -0.0075139529
-0.0043096673 -0.018655568 -0.0003453487
0.018196372 0.011958698 -0.013248837
-0.0033519634 -0.020090614 -0.0003453487
0.021069484 -0.0052618273 -0.027108138
-0.018196372 -0.0014350438 -0.0003453487
-0.0057462226 0.020568961 -0.01420465
-0.0057462226 -0.021047309 -0.025674418
-0.024421446 -0.0043051313 -0.0013011626
-0.005267371 0.011958698 -0.038099997
0.0033519634 -0.005740175 -0.0003453487
-0.010534742 0.018655568 -0.021851161
0.016280964 -0.014350438 -0.014682557
0.020590631 0.005740175 -0.03762209
-0.019154076 0.010523655 -0.034754649
-0.01771752 0.012437046 -0.0089476742
-0.0047885189 -0.020090614 -0.0003453487
0.015323261 -0.0095669581 -0.038099997
-0.019632928 0.0086102625 -0.011337209
0.021548335 0.0033484355 -0.0046465113
-0.019154076 -0.01387209 -0.035710465
0.014844409 0.01148035 -0.038099997
-0.0095770378 0.019133916 -0.012770929
-0.016280964 -0.014350438 -0.0089476742
0.0038308152 -0.022004005 -0.035232555
0.019154076 0.01626383 -0.0013011626
0.010055889 0.019133916 -0.016116278
-0.012929001 0.021047309 -0.0017790695
0.015323261 -0.0043051313 -0.0003453487
0.011971298 -0.017698873 -0.02232907
0.0038308152 0.0229607 -0.03762209
-0.020590631 -0.014350438 -0.0032127905
-0.018196372 -0.012915394 -0.0003453487
-0.0086193345 -0.020568961 -0.034276742
0.023942595 0.0052618273 -0.0036906975
0.017238669 0.012915394 -0.0060802321
-0.022027187 0.0043051313 -0.0003453487
-0.021548335 -0.0023917395 -0.0003453487
0.0047885189 -0.021047309 -0.0075139529
-0.023942595 0.00047834791 -0.033798836
-0.02298489 0.010045307 -0.036666278
0.015323261 -0.015307133 -0.01898372
0.012929001 -0.014350438 -0.0003453487
0.014365557 0.01626383 -0.0003453487
0.0062250746 -0.023917396 -0.0027348835
0.008140482 0.020090614 -0.011337209
-0.0047885189 0.016742177 -0.0003453487
-0.019632928 -0.015307133 -0.035710465
0.023942595 0.0071752188 -0.0027348835
-0.010534742 0.00095669582 -0.0003453487
-0.017238669 -0.013393742 -0.016594185
0.018675223 0.0023917395 -0.0003453487
-0.016280964 0.014350438 -0.0003453487
-0.0038308152 -0.021047309 -0.021373255
-0.011971298 -0.018177221 -0.011815116
0.0004788519 -0.010523655 -0.0003453487
-0.0086193345 0.022004005 -0.0036906975
0.01771752 -0.011958698 -0.0084697669
-0.015323261 -0.010523655 -0.0003453487
-0.013886705 -0.016742177 -0.021851161
-0.016280964 -0.014350438 -0.013248837
0.0014365556 -0.021525657 -0.030931395
-0.0086193345 -0.019133916 -0.038099997
-0.0062250746 -0.023917396 -0.037144184
-0.020111779 0.0081319148 -0.013248837
-0.0067039267 -0.020568961 -0.011337209
-0.016280964 0.018177221 -0.0036906975
-0.022027187 0.0062185228 -0.0003453487
-0.0014365556 -0.010523655 -0.0003453487
0.013407853 0.014350438 -0.0003453487
0.021069484 0.005740175 -0.0056023253
-0.013407853 0.017220525 -0.020895349
-0.0009577038 0.0023917395 -0.038099997
-0.021548335 0.00047834791 -0.011337209
0 0.00047834791 -0.0003453487
-0.0062250746 0.020568961 -0.020895349
-0.019154076 -0.0095669581 -0.027586045
0.0019154076 0.00047834791 -0.038099997
0.017238669 0.0071752188 -0.0003453487
-0.012929001 -0.017220525 -0.0060802321
0.010055889 0.0086102625 -0.038099997
-0.0014365556 -0.022004005 -0.034276742
-0.016280964 0.0071752188 -0.0003453487
-0.013407853 -0.0062185228 -0.038099997
-0.020111779 0.0086102625 -0.0041686045
0.0095770378 0.0028700875 -0.0003453487
-0.0038308152 0.021525657 -0.03332093
0.010055889 0.015307133 -0.038099997
0.0038308152 0.021525657 -0.0075139529
0.018675223 -0.010523655 -0.0084697669
0.016759817 0.018655568 -0.0032127905
-0.021548335 0.0033484355 -0.0094255805
-0.0076616304 -0.020090614 -0.02376279
-0.015323261 0.015307133 -0.01898372
-0.016280964 -0.014350438 -0.029019766
-0.011492445 -0.022004005 -0.0003453487
0.0004788519 0.0033484355 -0.038099997
0.0062250746 -0.020568961 -0.0089476742
0.016759817 -0.01387209 -0.026152324
0.019632928 0.0028700875 -0.0003453487
0.0014365556 0.021525657 -0.031887207
0.013407853 -0.019133916 -0.0036906975
0.0043096673 0.0229607 -0.03762209
0.0028731113 -0.0081319148 -0.038099997
-0.01771752 0.014350438 -0.035232555
-0.010534742 -0.021525657 -0.03762209
0.0028731113 0.021525657 -0.015160465
0.019154076 0.0081319148 -0.038099997
0.0086193345 -0.017698873 -0.0003453487
0.021548335 -0.0023917395 -0.019461626
-0.020111779 -0.0081319148 -0.016116278
-0.0019154076 -0.017220525 -0.0003453487
-0.019154076 0.0095669581 -0.010859302
0.0023942594 0.021525657 -0.024718603
-0.021069484 -0.0052618273 -0.026152324
-0.011492445 -0.00047834791 -0.038099997
0.018196372 0.0071752188 -0.0003453487
-0.020590631 0.0019133916 -0.0003453487
-0.0028731113 0.0081319148 -0.038099997
0.019154076 0.010045307 -0.03762209
0.0057462226 0.020568961 -0.012770929
0.012929001 -0.006696871 -0.038099997
0.0062250746 -0.020568961 -0.017072093
-0.013407853 -0.016742177 -0.016116278
-0.014365557 0.01626383 -0.0003453487
0.012929001 0.021525657 -0.037144184
0.0028731113 0.019133916 -0.0003453487
-0.012929001 0.0076535665 -0.038099997
0.010534742 -0.0038267833 -0.0003453487
-0.014844409 -0.0052618273 -0.038099997
0.010534742 -0.016742177 -0.038099997
-0.023942595 0.0052618273 -0.03762209
-0.0014365556 0.021525657 -0.012770929
0.0086193345 -0.019612266 -0.0051244185
-0.020590631 0.0071752188 -0.0079918597
0.017238669 -0.013393742 -0.029019766
0.019154076 -0.015785482 -0.00082325569
0.012450149 -0.017698873 -0.025196511
-0.01771752 0.012915394 -0.0089476742
0.0004788519 0.023439048 -0.0003453487
0.005267371 -0.0052618273 -0.038099997
-0.0071827783 -0.0095669581 -0.038099997
-0.0028731113 -0.011958698 -0.0003453487
-0.019632928 -0.0090886103 -0.0070360461
-0.0033519634 -0.021525657 -0.0089476742
-0.017238669 0.010045307 -0.0003453487
-0.011013594 -0.022482352 -0.0027348835
0.018675223 0.0033484355 -0.038099997
-0.0076616304 0.006696871 -0.038099997
-0.010055889 0.019133916 -0.011337209
-0.0028731113 -0.0090886103 -0.038099997
0.01771752 0.011958698 -0.011337209
0.0086193345 0.01626383 -0.038099997
0.0086193345 -0.022482352 -0.0003453487
0.0086193345 0.021525657 -0.03762209
0.0057462226 0.020568961 -0.0094255805
0.021069484 0 -0.0003453487
-0.015802113 0.012915394 -0.038099997
-0.020111779 -0.0086102625 -0.0041686045
0.010534742 -0.00047834791 -0.038099997
0.0067039267 0.015307133 -0.038099997
0.01771752 0.017698873 -0.0027348835
0.0090981862 -0.019612266 -0.0075139529
0.0014365556 -0.021525657 -0.021851161
-0.0071827783 -0.020568961 -0.017072093
-0.0038308152 0.021525657 -0.025674418
-0.021069484 0.0052618273 -0.017072093
0.011492445 0.022004005 -0.03762209
-0.005267371 -0.017698873 -0.038099997
-0.008140482 -0.020568961 -0.03332093
0.0014365556 0.017220525 -0.0003453487
0.008140482 -0.020090614 -0.029019766
-0.021548335 0.00095669582 -0.020895349
0.0057462226 -0.01387209 -0.038099997
-0.010534742 -0.015785482 -0.0003453487
-0.0062250746 -0.023439048 -0.036188371
0.016759817 -0.0095669581 -0.038099997
-0.015323261 0.015307133 -0.0089476742
0.021069484 0.0095669581 -0.03762209
-0.0090981862 0.006696871 -0.0003453487
0.010534742 0.0095669581 -0.0003453487
-0.019632928 0.0090886103 -0.015160465
-0.019632928 -0.0086102625 -0.01898372
-0.021548335 0.0033484355 -0.014682557
0.010534742 0.019133916 -0.027586045
-0.021548335 0.0019133916 -0.0099034877
-0.019632928 -0.0086102625 -0.016594185
0.0067039267 -0.01626383 -0.038099997
0.018675223 -0.015785482 -0.03762209
0.0019154076 0.024874091 -0.0032127905
0.020590631 0.0071752188 -0.020895349
-0.0004788519 -0.018655568 -0.038099997
-0.010055889 -0.019133916 -0.020417441
-0.0004788519 0.022004005 -0.0003453487
-0.010055889 0.004783479 -0.0003453487
0.018675223 0.010523655 -0.02232907
0.016280964 -0.014350438 -0.0075139529
-0.014844409 0.0043051313 -0.0003453487
0.015323261 0.01148035 -0.0003453487
0.0062250746 -0.0033484355 -0.038099997
-0.0033519634 -0.021525657 -0.019939534
-0.0067039267 0.00095669582 -0.0003453487
-0.015323261 0.015307133 -0.031409301
0.019154076 -0.010045307 -0.0060802321
0.018675223 -0.010523655 -0.01420465
0.021069484 -0.006696871 -0.034276742
-0.0033519634 0.00047834791 -0.0003453487
0.0057462226 -0.021047309 -0.016594185
-0.0019154076 0.021525657 -0.030931395
-0.010534742 0.019133916 -0.016594185
-0.014365557 -0.01626383 -0.017072093
0.018196372 0.01148035 -0.0094255805
0.0023942594 0.024395743 -0.036188371
-0.020111779 -0.0076535665 -0.022806976
0.01771752 -0.016742177 -0.03762209
-0.0095770378 -0.019612266 -0.032843024
0.013407853 -0.016742177 -0.026630232
0.0071827783 0.022482352 -0.0003453487
0.0019154076 -0.021525657 -0.028063953
0.0062250746 0.020568961 -0.016116278
0.010055889 -0.018177221 -0.0003453487
-0.017238669 -0.014350438 -0.035232555
-0.024421446 0.0052618273 -0.0003453487
-0.0043096673 -0.021047309 -0.016594185
0.0004788519 0.021525657 -0.011815116
0.0086193345 -0.013393742 -0.038099997
-0.023463743 -0.0090886103 -0.0003453487
-0.008140482 0.019133916 -0.0003453487
0 0.0043051313 -0.038099997
0.014365557 -0.01626383 -0.02376279
-0.020111779 -0.014828785 -0.0027348835
-0.0014365556 0.016742177 -0.038099997
0.023942595 0.00047834791 -0.036666278
0.0086193345 0 -0.0003453487
0.0047885189 -0.021047309 -0.027108138
-0.020590631 0.0052618273 -0.012770929
0.021069484 0.004783479 -0.0079918597
-0.021069484 0.004783479 -0.017072093
0.021548335 -0.0019133916 -0.032843024
-0.016280964 -0.014350438 -0.02997558
0.0009577038 -0.021525657 -0.03762209
-0.0033519634 0.022482352 -0.03762209
-0.016280964 0.014350438 -0.029497674
-0.0086193345 0.0023917395 -0.0003453487
-0.010055889 0.022004005 -0.036188371
0.016759817 0 0.00013255824
0.008140482 -0.020090614 -0.014682557
0.019632928 -0.0086102625 -0.024718603
0.0090981862 0.0062185228 -0.038099997
-0.0014365556 -0.021525657 -0.013248837
0.018675223 -0.01626383 -0.037144184
0.0033519634 0.017220525 -0.0003453487
-0.014844409 0.016742177 -0.035232555
0.0009577038 -0.0081319148 -0.0003453487
-0.017238669 -0.013393742 -0.02232907
0.0023942594 0.0023917395 -0.0003453487
-0.0076616304 -0.020090614 -0.0065581393
0 0 -0.0003453487
-0.020590631 -0.01387209 -0.0022569764
0.012450149 -0.005740175 -0.0003453487
0.0071827783 0.012915394 -0.038099997
0.0071827783 0.020568961 -0.013248837
0.019632928 0.0090886103 -0.023284882
-0.016280964 0.014350438 -0.016116278
0.021069484 0.0052618273 -0.031409301
0.019154076 0.010045307 -0.013248837
0.02250604 -0.011002002 -0.037144184
0.015323261 0.0086102625 -0.038099997
0.018196372 -0.01148035 -0.0003453487
-0.020590631 0.006696871 -0.0094255805
-0.021548335 0.0023917395 -0.022806976
0.0014365556 -0.0014350438 -0.038099997
0.0057462226 -0.021047309 -0.018027905
-0.020590631 0.0062185228 -0.0056023253
-0.011492445 -0.018177221 -0.0094255805
0.0057462226 -0.0229607 -0.0036906975
-0.0038308152 0.021047309 -0.010859302
0.021069484 -0.0062185228 -0.03332093
0.010534742 0.018655568 -0.0003453487
-0.011013594 0.018655568 -0.027108138
0.020590631 -0.0071752188 -0.0075139529
-0.005267371 0.017220525 -0.0003453487
0.013886705 0.016742177 -0.022806976
-0.019632928 -0.0038267833 -0.0003453487
-0.018196372 0.01148035 -0.0065581393
0.0009577038 0.0229607 -0.035710465
0.0090981862 -0.005740175 -0.038099997
0.0047885189 0.005740175 -0.038099997
-0.011971298 -0.019612266 -0.0003453487
0.01771752 -0.005740175 -0.0003453487
-0.021069484 -0.004783479 -0.023284882
0.0067039267 -0.020568961 -0.02376279
0.0071827783 -0.0052618273 -0.0003453487
-0.023463743 -0.0038267833 -0.037144184
0.0067039267 0.0043051313 -0.0003453487
0.018196372 0.01148035 -0.029019766
0.021548335 -0.0014350438 -0.015160465
0.011971298 0.020568961 -0.0036906975
0.021548335 0.0019133916 -0.010859302
0.0038308152 -0.024395743 -0.0013011626
0.021069484 0.0038267833 -0.030931395
-0.0004788519 0.021525657 -0.030453486
-0.014365557 -0.01626383 -0.022806976
0.0076616304 -0.019133916 -0.0003453487
-0.021548335 -0.0038267833 -0.011815116
0.010534742 0.019133916 -0.020895349
-0.0038308152 0.021047309 -0.011337209
-0.011492445 -0.018177221 -0.020417441
-0.023463743 0.0014350438 -0.033798836
-0.021548335 0.0062185228 -0.035232555
0.021069484 0.0043051313 -0.025674418
-0.005267371 -0.021047309 -0.019461626
0.0019154076 -0.0062185228 -0.0003453487
-0.015323261 -0.018655568 -0.03762209
0.022027187 -0.0095669581 -0.03762209
0.011492445 -0.018177221 -0.015638372
0.021069484 0.0043051313 -0.032365113
0.021069484 -0.005740175 -0.02997558
0.019154076 0.010523655 -0.022806976
0.023463743 -0.0028700875 -0.0003453487
-0.0043096673 -0.021047309 -0.0060802321
-0.018196372 -0.011958698 -0.012293023
0.008140482 0.0023917395 -0.038099997
-0.019154076 -0.0019133916 -0.0003453487
0.0067039267 0.0076535665 -0.038099997
0.0009577038 -0.010045307 -0.038099997
0.015802113 -0.018655568 -0.03762209
0.0047885189 -0.021047309 -0.030931395
-0.018675223 0.011002002 -0.027108138
-0.020590631 0.01148035 -0.035232555
-0.020590631 0.005740175 -0.010859302
0.024421446 -0.0023917395 -0.03762209
-0.018675223 0.015785482 -0.03762209
-0.0009577038 0.015785482 -0.038099997
-0.0047885189 -0.0062185228 -0.0003453487
-0.023463743 0.005740175 -0.0003453487
-0.0095770378 -0.011958698 -0.0003453487
-0.0033519634 0.021525657 -0.016594185
0.0009577038 0.021525657 -0.0060802321
-0.013886705 -0.016742177 -0.02232907
0.0090981862 0.022482352 -0.0036906975
0.0095770378 -0.014828785 -0.038099997
0.008140482 -0.0095669581 -0.0003453487
-0.021069484 -0.004783479 -0.031409301
0.008140482 0.020090614 -0.0051244185
0.015323261 0.015307133 -0.030453486
0.013886705 0.011958698 -0.038099997
-0.0062250746 0.022482352 -0.0003453487
-0.0023942594 -0.024874091 -0.036666278
0.0004788519 0.017698873 -0.0003453487
-0.022027187 -0.0076535665 -0.034754649
0.018675223 0.015307133 -0.0036906975
0.011013594 -0.018655568 -0.029019766
-0.0090981862 -0.0043051313 -0.038099997
0.0033519634 0.021525657 -0.0089476742
-0.010055889 0.011002002 -0.0003453487
0.011013594 0.00047834791 -0.038099997
-0.012450149 -0.021525657 -0.0032127905
0.0019154076 0.021525657 -0.027586045
-0.020590631 -0.0062185228 -0.029497674
0.021548335 -0.00047834791 -0.01898372
-0.02298489 -0.0014350438 -0.03762209
0.0071827783 0.021047309 -0.034276742
-0.0062250746 -0.0028700875 -0.0003453487
0.016280964 -0.014350438 -0.018027905
0.017238669 -0.0090886103 -0.038099997
-0.0071827783 0.015785482 -0.038099997
0.020590631 0.0062185228 -0.013726744
-0.018196372 0.01148035 -0.030931395
-0.011971298 -0.018177221 -0.026630232
-0.012929001 -0.017220525 -0.012770929
0.0071827783 0.023917396 -0.036666278
-0.021069484 -0.0062185228 -0.0003453487
0.016759817 0.013393742 -0.023284882
0.023463743 -0.0081319148 -0.0017790695
-0.0019154076 -0.021525657 -0.019939534
-0.0047885189 -0.021047309 -0.031409301
0.0095770378 -0.010523655 -0.0003453487
-0.01771752 0.01148035 -0.038099997
-0.0095770378 0.0086102625 -0.038099997
-0.021548335 -0.0038267833 -0.033798836
-0.018675223 0.010523655 -0.015638372
0.016759817 0.014350438 -0.034276742
0.0086193345 -0.019133916 -0.038099997
-0.019632928 -0.014828785 -0.0036906975
-0.017238669 0.013393742 -0.0060802321
-0.0043096673 0.021047309 -0.013248837
0.020590631 -0.012437046 -0.0036906975
0.016759817 0.01148035 -0.038099997
0.021548335 -0.0028700875 -0.0075139529
-0.021069484 -0.0062185228 -0.034276742
-0.013886705 0.0014350438 -0.038099997
0.0067039267 0.015785482 -0.038099997
0.015802113 -0.017220525 -0.0003453487
-0.0004788519 0.021525657 -0.02376279
0.011013594 -0.0033484355 -0.038099997
0.01771752 -0.010045307 -0.0003453487
0.0086193345 0.023439048 -0.0013011626
0.018196372 -0.010523655 -0.0003453487
0.02250604 -0.0086102625 -0.035232555
-0.0057462226 0.022482352 -0.035710465
-0.013407853 -0.0090886103 -0.0003453487
0.012929001 -0.017220525 -0.023284882
0.016280964 -0.0052618273 -0.0003453487
-0.023942595 -0.0019133916 -0.03762209
-0.0028731113 0.012915394 -0.038099997
0.0095770378 0.019612266 -0.030453486
0.021069484 0.0052618273 -0.02232907
-0.0062250746 -0.0076535665 -0.038099997
0.011971298 0.018177221 -0.020895349
-0.0047885189 0.0076535665 -0.0003453487
0.0014365556 -0.017698873 -0.038099997
0.011971298 -0.01626383 -0.0003453487
-0.0004788519 -0.021525657 -0.024718603
0.015802113 0.011002002 -0.038099997
-0.011013594 -0.0043051313 -0.0003453487
-0.012450149 0.021525657 -0.036188371
-0.013407853 0.0062185228 -0.038099997
0.0062250746 0.0229607 -0.035710465
0.008140482 -0.011002002 -0.038099997
-0.016280964 -0.0095669581 -0.038099997
-0.021069484 0.0043051313 -0.017072093
0.014844409 -0.015785482 -0.028063953
0.020111779 0.014828785 -0.0027348835
0.021548335 0.0028700875 -0.032843024
-0.020111779 0.0076535665 -0.030931395
-0.0009577038 0.021525657 -0.032365113
0.020590631 -0.0062185228 -0.028541859
-0.01771752 0.012437046 -0.030931395
-0.020111779 0.0076535665 -0.015638372
-0.021548335 0.00047834791 -0.02232907
0.0086193345 -0.022004005 -0.03762209
-0.020590631 -0.0062185228 -0.018027905
-0.0067039267 -0.020568961 -0.0051244185
-0.0076616304 -0.017698873 -0.038099997
0.011492445 -0.018177221 -0.029019766
0.0028731113 0.021525657 -0.013248837
0.0067039267 0.023917396 -0.0036906975
-0.0043096673 -0.01626383 -0.0003453487
0.01771752 -0.012437046 -0.019461626
0.0076616304 0.020090614 -0.018027905
-0.0086193345 0.020090614 -0.031409301
-0.014365557 0.018177221 -0.035232555
0.0004788519 -0.021525657 -0.020417441
0.016759817 0.01387209 -0.027108138
-0.005267371 -0.020090614 -0.038099997
-0.0062250746 0.020568961 -0.02232907
0.022027187 0.0033484355 -0.035232555
-0.020590631 -0.0071752188 -0.026630232
0.023942595 -0.0014350438 -0.036188371
0.0057462226 -0.021047309 -0.024240697
0.02250604 -0.011002002 -0.0032127905
-0.0028731113 0.021525657 -0.0056023253
0.021069484 -0.00095669582 -0.03762209
-0.011492445 0.013393742 -0.038099997
-0.005267371 -0.021047309 -0.022806976
-0.0076616304 0.01626383 -0.038099997
0.021548335 0 -0.024240697
-0.0009577038 0.0229607 -0.03762209
0.0086193345 0.019612266 -0.0003453487
-0.01771752 0.012437046 -0.023284882
0.016759817 -0.013393742 -0.0051244185
0.017238669 0.01626383 -0.0036906975
-0.02250604 0.0071752188 -0.03762209
0.024900299 0.0014350438 -0.0013011626
0.016280964 -0.016742177 -0.0036906975
-0.011971298 -0.00095669582 -0.0003453487
0.016280964 -0.0086102625 -0.0003453487
0.005267371 0.024395743 -0.0013011626
0.015323261 0.019612266 -0.0036906975
-0.0023942594 -0.021525657 -0.019939534
-0.02250604 0.011002002 -0.0003453487
0.0047885189 -0.021525657 -0.034276742
0.024900299 -0.0023917395 -0.0017790695
0.011013594 0.0076535665 -0.0003453487
-0.01771752 0.011002002 -0.038099997
-0.010534742 0.018655568 -0.023284882
-0.0043096673 -0.023439048 -0.03762209
-0.023463743 0.0052618273 -0.0003453487
-0.024421446 0.0052618273 -0.0032127905
0.019632928 -0.0095669581 -0.02997558
0.016280964 -0.0062185228 -0.038099997
-0.0047885189 -0.021047309 -0.023284882
0.021069484 -0.013393742 -0.035710465
0.0038308152 -0.021047309 -0.012770929
-0.0057462226 0.020568961 -0.011337209
-0.010055889 -0.0229607 -0.036666278
-0.016759817 -0.011002002 -0.038099997
-0.012450149 0.017698873 -0.016116278
-0.020590631 -0.0071752188 -0.017072093
0.014365557 0.013393742 -0.0003453487
-0.014844409 -0.015785482 -0.016116278
-0.008140482 0.020090614 -0.014682557
-0.0076616304 -0.0019133916 -0.038099997
0.020590631 0.0071752188 -0.031887207
-0.016280964 -0.014350438 -0.0099034877
-0.005267371 -0.019133916 -0.038099997
0.020111779 0.0081319148 -0.024718603
-0.0090981862 0.019612266 -0.022806976
-0.011492445 0.010523655 -0.038099997
0.0057462226 -0.021047309 -0.0089476742
0.015323261 0.0028700875 -0.0003453487
-0.01771752 0.012437046 -0.0060802321
0.021548335 0.01148035 -0.0003453487
0.011013594 0.00095669582 -0.0003453487
-0.0076616304 -0.0095669581 -0.0003453487
-0.0062250746 0.020568961 -0.017072093
0.013886705 0.014350438 -0.0003453487
-0.020590631 -0.013393742 -0.0036906975
-0.015802113 0.0086102625 -0.038099997
0.019154076 -0.010045307 -0.016594185
-0.021069484 0.0033484355 -0.017549999
-0.0095770378 -0.022004005 -0.036188371
0.0071827783 0.020568961 -0.016594185
0.0057462226 0.021047309 -0.03332093
-0.021548335 0.0028700875 -0.028063953
0 0.022482352 -0.0036906975
-0.020111779 0.011958698 -0.0036906975
0.0090981862 -0.022482352 -0.03762209
0.0086193345 -0.020568961 -0.0036906975
-0.021548335 -0.00095669582 -0.026630232
-0.015323261 -0.005740175 -0.038099997
-0.023463743 -0.0081319148 -0.036188371
-0.0014365556 -0.006696871 -0.038099997
0.0047885189 0.0019133916 -0.0003453487
-0.0062250746 0.020568961 -0.019939534
-0.0028731113 -0.021047309 -0.021851161
-0.0095770378 0.019612266 -0.022806976
-0.0071827783 0.020090614 -0.0051244185
0.021069484 0.0038267833 -0.020417441
-0.023942595 0.005740175 -0.0036906975
0.021069484 -0.0028700875 -0.0003453487
0.0009577038 0.022004005 -0.03762209
-0.011971298 -0.021047309 -0.03762209
0.0067039267 -0.021047309 -0.034754649
-0.0071827783 -0.020568961 -0.011815116
0.018196372 -0.015785482 -0.035232555
0.0028731113 -0.021525657 -0.0070360461
-0.0004788519 0.021525657 -0.027108138
-0.021548335 0.0014350438 -0.010381395
0.012929001 0.017220525 -0.02232907
-0.0057462226 -0.020568961 -0.014682557
0.02250604 0.010523655 -0.00082325569
0.021548335 0 -0.032843024
-0.016759817 -0.0052618273 -0.038099997
0.017238669 0.0038267833 -0.038099997
0.018675223 0.010523655 -0.029019766
0.013407853 -0.01387209 -0.038099997
0.015802113 0.014828785 -0.0084697669
0.015802113 -0.014828785 -0.01898372
0.016759817 0.017220525 -0.0003453487
-0.0023942594 -0.0028700875 -0.038099997
0.017238669 -0.0019133916 -0.038099997
0.01771752 0.0019133916 -0.0003453487
0.0038308152 0.0033484355 -0.038099997
-0.021548335 -0.00047834791 -0.01898372
0.0057462226 0.020568961 -0.0079918597
0.012929001 -0.020090614 -0.0036906975
-0.011013594 0.022482352 -0.036188371
0.012929001 0.0071752188 -0.0003453487
-0.0095770378 -0.005740175 -0.0003453487
-0.022027187 0.0014350438 -0.0036906975
-0.0004788519 -0.021525657 -0.01898372
-0.012450149 -0.0028700875 -0.038099997
0.0067039267 0.020568961 -0.015638372
0.0071827783 0.00047834791 -0.038099997
0.012450149 0.021525657 -0.037144184
-0.0095770378 -0.019612266 -0.011815116
0.0076616304 -0.021047309 -0.035232555
0.01771752 -0.012437046 -0.024240697
-0.011492445 0.016742177 -0.0003453487
0.020111779 -0.0076535665 -0.027108138
-0.018196372 -0.012915394 -0.033798836
0.012929001 0.016742177 -0.0003453487
0.015802113 0.014828785 -0.019939534
0.023942595 -0.00047834791 -0.0036906975
-0.020590631 -0.013393742 -0.0003453487
0.0062250746 -0.012915394 -0.0003453487
0.021548335 -0.0033484355 -0.03762209
0.016759817 -0.014828785 -0.0003453487
0.0067039267 -0.021047309 -0.033798836
-0.012450149 0.017698873 -0.026630232
-0.011971298 0.017698873 -0.0051244185
-0.0023942594 0.010045307 -0.0003453487
0.021548335 0.0071752188 -0.0003453487
0.0076616304 0.010523655 -0.0003453487
0.024900299 0.00095669582 -0.0027348835
-0.0004788519 -0.0081319148 -0.0003453487
-0.013886705 0.0081319148 -0.038099997
0.013407853 0.017220525 -0.027108138
0.0062250746 0.020568961 -0.021373255
-0.013407853 -0.017220525 -0.011815116
-0.016280964 0.014828785 -0.03332093
0.005267371 0.021047309 -0.010381395
0.019632928 0.015307133 -0.035710465
0.005267371 -0.012437046 -0.0003453487
0.0086193345 0.021047309 -0.035232555
-0.021069484 -0.0071752188 -0.0036906975
-0.0033519634 0.015785482 -0.038099997
-0.01771752 -0.013393742 -0.033798836
0.010534742 0.018655568 -0.029497674
0.0023942594 -0.017698873 -0.0003453487
-0.014844409 0.015785482 -0.02232907
0.01771752 0.0052618273 -0.038099997
0.0047885189 0.015307133 -0.0003453487
-0.0062250746 0.021047309 -0.0003453487
0.021548335 0.0014350438 -0.013248837
0.02250604 0.006696871 -0.035710465
0.019154076 0.0062185228 -0.038099997
0.012929001 0.01387209 -0.038099997
0.0023942594 0.0229607 -0.0003453487
-0.023463743 0.0081319148 -0.0036906975
0.019154076 0.012915394 -0.035710465
0.0057462226 -0.021525657 -0.034276742
-0.0057462226 -0.01626383 -0.0003453487
0.0033519634 0.021047309 -0.018505814
-0.010055889 -0.019133916 -0.031409301
0.010055889 -0.01387209 -0.038099997
0.012929001 0.018177221 -0.0036906975
-0.025379151 0 -0.0017790695
-0.0090981862 0.022004005 -0.0003453487
0.014365557 -0.01626383 -0.026152324
0.020111779 -0.0033484355 -0.0003453487
0.018196372 -0.00047834791 -0.038099997
-0.014844409 0.015785482 -0.010381395
0.0043096673 0.020090614 -0.038099997
0.020111779 0.0081319148 -0.0056023253
0.013407853 -0.018655568 -0.035710465
0.0047885189 0.013393742 -0.0003453487
-0.0095770378 0.019133916 -0.019939534
-0.0090981862 0.019612266 -0.0065581393
0.020590631 -0.01387209 -0.035710465
0.021069484 -0.0052618273 -0.0075139529
-0.0038308152 0.021525657 -0.022806976
0.021548335 -0.0028700875 -0.0065581393
0.015802113 0.014828785 -0.01420465
-0.015802113 0.01387209 -0.0003453487
-0.013886705 0 -0.038099997
-0.010055889 -0.019133916 -0.018505814
-0.0086193345 0.020090614 -0.0056023253
-0.015802113 -0.018177221 -0.03762209
-0.020590631 -0.01387209 -0.0017790695
-0.018675223 -0.01387209 -0.035710465
-0.019632928 0.0090886103 -0.027586045
0.015802113 0.014828785 -0.018505814
-0.0057462226 0.01148035 -0.0003453487
0.020111779 0.0076535665 -0.011815116
-0.014844409 -0.019612266 -0.0003453487
0.02250604 -0.010523655 -0.035232555
-0.019154076 -0.010523655 -0.0046465113
-0.0014365556 -0.020090614 -0.0003453487
0.014365557 -0.0043051313 -0.038099997
0.019632928 0.014350438 -0.0036906975
-0.0019154076 -0.021525657 -0.017549999
0.019154076 0.010045307 -0.031409301
-0.0023942594 0.021525657 -0.024240697
-0.0019154076 0.021525657 -0.032365113
-0.0028731113 -0.021525657 -0.0079918597
-0.020111779 0.0076535665 -0.02376279
0.013407853 0.017698873 -0.03762209
0.011971298 0.018177221 -0.018027905
-0.0004788519 0.021525657 -0.024240697
-0.012450149 0.017698873 -0.025674418
-0.015802113 0.014828785 -0.02376279
-0.019154076 -0.015785482 -0.036666278
0.018675223 -0.011958698 -0.03762209
-0.016280964 -0.013393742 -0.0003453487
0.01771752 -0.017698873 -0.037144184
0.0014365556 -0.015785482 -0.0003453487
-0.021069484 -0.0043051313 -0.027108138
0.015802113 0.0023917395 -0.0003453487
0.008140482 0.0090886103 -0.038099997
0.024900299 -0.0019133916 -0.036188371
0.021548335 -0.0033484355 -0.010381395
-0.010534742 0.0028700875 -0.038099997
-0.011971298 -0.0038267833 -0.038099997
-0.0067039267 -0.0095669581 -0.0003453487
-0.005267371 0.010523655 -0.0003453487
0.019632928 0.0090886103 -0.01898372
0.014844409 -0.018177221 -0.035232555
-0.014365557 0.01626383 -0.026630232
0.0090981862 -0.019612266 -0.030931395
0.021069484 0.012437046 -0.0036906975
0.0028731113 0.0081319148 -0.0003453487
-0.0086193345 0.0014350438 -0.0003453487
0.021548335 0.0014350438 -0.031409301
-0.019632928 0.011002002 -0.0003453487
0.0062250746 -0.020568961 -0.021851161
0.0038308152 0.022004005 -0.03332093
0.0004788519 -0.021525657 -0.012770929
-0.021548335 0.00047834791 -0.026630232
0.015323261 -0.0014350438 -0.038099997
0.015802113 -0.012437046 -0.0003453487
-0.005267371 -0.011002002 -0.038099997
-0.0076616304 -0.01148035 -0.038099997
-0.014844409 -0.010045307 -0.0003453487
0.0095770378 0.019612266 -0.032365113
-0.021548335 0 -0.018027905
0.02298489 -0.0038267833 -0.035232555
0.021548335 0.0033484355 -0.02232907
-0.019154076 0.010045307 -0.0003453487
0.0014365556 0.015785482 -0.0003453487
0.01771752 0.00095669582 -0.038099997
