# .PCD v0.7 - Point Cloud Data file format
VERSION 0.7
FIELDS x y z
SIZE 4 4 4
TYPE F F F
COUNT 1 1 1
WIDTH 1308
HEIGHT 1
VIEWPOINT 0 0 0 1 0 0 0
POINTS 1308
DATA ascii
0.028571429 0.0057142857 0.028181817
0.062857144 -0.021714285 0.10318182
-0.035428572 -0.010285715 0.11454546
-0.051428571 -0.026285714 0.039545454
-0.026285714 0.026285714 0.11
-0.067428574 0.0057142857 0.048636362
-0.0011428571 -0.012571429 -0.012727273
0.010285715 -0.0080000004 0.11227272
-0.019428572 0.021714285 0.028181817
0.0034285714 -0.033142857 0.094090909
-0.0057142857 -0.035428572 0.080454543
0.012571429 0.0057142857 0.085000001
0.0080000004 0.030857142 0.10545454
-0.0057142857 0.017142856 0.016818183
-0.0034285714 0.019428572 0.0054545454
0.053714287 0.017142856 0.11454546
0.035428572 0.024 0.11
-0.026285714 0.021714285 0.021363636
-0.037714284 -0.037714284 0.057727274
-0.058285713 -0.024 0.080454543
-0.019428572 0.0011428571 0.11909091
-0.044571429 -0.035428572 0.078181818
0.053714287 0.021714285 0.11681818
-0.017142856 0.039999999 0.087272726
-0.028571429 -0.039999999 0.06909091
0.010285715 -0.019428572 0.080454543
-0.030857142 0.037714284 0.057727274
-0.024 -0.026285714 0.032727271
0.010285715 -0.012571429 0.11227272
-0.035428572 -0.037714284 0.059999999
-0.056000002 -0.028571429 0.06909091
-0.0034285714 -0.0057142857 0.11681818
0.014857143 0.017142856 0.10090909
0.0011428571 0.030857142 0.10772727
-0.060571428 -0.0080000004 0.089545451
0.058285713 -0.017142856 0.11
-0.033142857 -0.026285714 0.10545454
0.019428572 -0.0080000004 0.0099999998
-0.037714284 0.028571429 0.035
-0.024 0.028571429 0.037272729
0.056000002 0.0011428571 0.062272727
-0.010285715 -0.017142856 0.11681818
-0.056000002 -0.021714285 0.039545454
-0.058285713 -0.021714285 0.085000001
-0.035428572 0.037714284 0.062272727
-0.056000002 0.021714285 0.039545454
0.044571429 -0.0034285714 0.044090908
0.0080000004 -0.017142856 0.11454546
-0.049142856 0.030857142 0.085000001
0.065142855 -0.021714285 0.091818184
-0.0057142857 0.033142857 0.10545454
-0.037714284 -0.037714284 0.071363635
0.0011428571 -0.033142857 0.089545451
-0.0011428571 0.0057142857 0.11454546
-0.0011428571 0.033142857 0.075909093
0.0034285714 -0.014857143 0.059999999
-0.056000002 -0.0057142857 0.02590909
-0.0057142857 -0.035428572 0.098636366
0.039999999 0.0011428571 0.041818183
-0.046857145 0.024 0.032727271
-0.065142855 0.017142856 0.057727274
0.039999999 0.0011428571 0.035
-0.060571428 0.014857143 0.087272726
0.012571429 -0.019428572 0.087272726
-0.042285714 -0.026285714 0.098636366
0.028571429 0.017142856 0.11227272
0.058285713 -0.019428572 0.10090909
-0.017142856 -0.012571429 0.11681818
-0.046857145 0.028571429 0.089545451
0.056000002 -0.017142856 0.11227272
0.024 -0.010285715 0.11
0.0011428571 0.014857143 -0.0081818178
-0.012571429 -0.019428572 0.035
-0.010285715 0.037714284 0.082727276
0.030857142 0.014857143 0.11
-0.067428574 0.0080000004 0.071363635
-0.051428571 0.012571429 0.023636363
-0.037714284 -0.035428572 0.05318182
-0.051428571 0.026285714 0.041818183
0.026285714 0.010285715 0.11
0.030857142 -0.0057142857 0.028181817
0.012571429 -0.010285715 0.082727276
-0.051428571 0.030857142 0.05318182
-0.037714284 -0.033142857 0.091818184
-0.021714285 -0.037714284 0.059999999
-0.0080000004 0.017142856 0.044090908
-0.033142857 0.037714284 0.087272726
-0.0057142857 -0.014857143 0.11681818
0.017142856 0.0034285714 0.11227272
-0.017142856 -0.028571429 0.041818183
-0.042285714 0.010285715 0.11
-0.056000002 0.017142856 0.091818184
-0.0034285714 -0.017142856 0.01909091
-0.044571429 0.026285714 0.032727271
0.024 -0.014857143 0.11227272
0.0011428571 0.0057142857 0.050909091
0.0080000004 0.024 0.11227272
-0.046857145 -0.019428572 0.02590909
-0.019428572 -0.033142857 0.048636362
-0.067428574 0.0011428571 0.046363637
-0.028571429 0.030857142 0.10318182
0.012571429 -0.010285715 0.11227272
-0.042285714 0.035428572 0.05318182
-0.067428574 -0.0080000004 0.055454545
-0.0011428571 -0.014857143 -0.010454546
-0.026285714 -0.037714284 0.059999999
0.058285713 -0.024 0.11227272
-0.065142855 -0.014857143 0.050909091
0.060571428 -0.012571429 0.10090909
0.0034285714 -0.0057142857 0.059999999
-0.044571429 -0.026285714 0.096363634
-0.060571428 -0.021714285 0.048636362
0.010285715 -0.017142856 0.080454543
0.026285714 -0.0034285714 0.030454546
-0.039999999 -0.024 0.028181817
0.060571428 -0.017142856 0.10772727
0.017142856 0.026285714 0.10772727
-0.033142857 0.026285714 0.030454546
-0.035428572 -0.037714284 0.055454545
-0.033142857 -0.039999999 0.064545453
-0.065142855 -0.017142856 0.066818185
-0.021714285 0.010285715 0.11909091
-0.010285715 -0.0011428571 -0.015
-0.028571429 0.028571429 0.035
-0.0057142857 -0.0011428571 0.030454546
-0.028571429 0.019428572 0.01909091
-0.062857144 0.019428572 0.078181818
-0.062857144 0.019428572 0.06909091
0.010285715 0.012571429 0.11227272
-0.039999999 -0.012571429 0.11227272
-0.017142856 -0.039999999 0.082727276
-0.065142855 -0.0080000004 0.082727276
-0.053714287 0.0080000004 0.10090909
-0.067428574 0.0057142857 0.055454545
-0.028571429 0.024 0.028181817
-0.014857143 0.021714285 0.11454546
0.042285714 0.0011428571 0.046363637
0.010285715 -0.017142856 0.11227272
-0.060571428 0.012571429 0.037272729
-0.019428572 -0.039999999 0.085000001
0.0011428571 -0.014857143 -0.0081818178
-0.033142857 0.030857142 0.037272729
-0.067428574 0.0011428571 0.059999999
-0.053714287 -0.026285714 0.044090908
-0.037714284 0.037714284 0.071363635
-0.037714284 -0.033142857 0.041818183
0.053714287 0.019428572 0.10772727
0.014857143 0.012571429 0.0054545454
-0.067428574 -0.0057142857 0.07363636
-0.056000002 0.0080000004 0.098636366
0.042285714 -0.0034285714 0.041818183
-0.037714284 0.026285714 0.030454546
-0.062857144 0.0034285714 0.035
0.0057142857 0.0011428571 0.11454546
0.0057142857 -0.030857142 0.087272726
-0.039999999 -0.033142857 0.089545451
0.030857142 -0.017142856 0.10772727
-0.049142856 -0.033142857 0.05318182
0.0011428571 -0.010285715 0.11454546
0.056000002 0.024 0.11454546
-0.037714284 0.024 0.028181817
0.019428572 0.0057142857 0.016818183
-0.012571429 -0.019428572 0.02590909
-0.035428572 -0.035428572 0.089545451
-0.065142855 0.014857143 0.064545453
-0.021714285 0.035428572 0.098636366
-0.035428572 -0.014857143 0.014545455
0.056000002 0.017142856 0.10545454
-0.024 0.019428572 0.01909091
-0.012571429 0.019428572 0.035
0.0034285714 -0.0011428571 0.057727274
-0.024 0.0080000004 -0.0036363637
-0.065142855 -0.012571429 0.078181818
0.042285714 -0.0011428571 0.037272729
-0.060571428 -0.0057142857 0.094090909
-0.056000002 0.0034285714 0.02590909
0.0057142857 0.021714285 0.11454546
-0.021714285 0.037714284 0.059999999
-0.014857143 0.026285714 0.041818183
-0.019428572 0.0034285714 -0.010454546
0.012571429 0.024 0.098636366
0.051428571 -0.021714285 0.11681818
0.012571429 -0.033142857 0.10545454
-0.012571429 0.019428572 0.016818183
-0.044571429 0.026285714 0.035
0.017142856 -0.0080000004 -0.0013636363
-0.0011428571 0.019428572 -0.0013636363
-0.065142855 -0.012571429 0.080454543
-0.0057142857 0.030857142 0.11
0.010285715 -0.026285714 0.11
-0.053714287 0.017142856 0.032727271
-0.0034285714 -0.0011428571 0.11681818
-0.024 0.037714284 0.057727274
-0.0011428571 0.035428572 0.089545451
-0.024 -0.035428572 0.048636362
-0.062857144 -0.010285715 0.041818183
-0.042285714 0.035428572 0.059999999
0.026285714 -0.014857143 0.10545454
-0.010285715 0.017142856 0.11681818
-0.035428572 0.037714284 0.057727274
-0.0011428571 0.0080000004 0.023636363
-0.012571429 0.035428572 0.10090909
0.014857143 -0.010285715 -0.0036363637
0.049142856 -0.019428572 0.11454546
0.021714285 -0.012571429 0.10318182
0.044571429 -0.0034285714 0.10772727
-0.030857142 0.037714284 0.082727276
0.0034285714 0.010285715 -0.012727273
-0.067428574 0.010285715 0.07363636
0.010285715 0.030857142 0.096363634
-0.062857144 0.019428572 0.075909093
-0.021714285 -0.039999999 0.07363636
-0.010285715 0.017142856 -0.0059090909
0.021714285 0.0034285714 0.0077272728
-0.012571429 0.037714284 0.06909091
0.012571429 -0.012571429 0.087272726
-0.0034285714 0.014857143 0.11681818
-0.0057142857 -0.014857143 0.021363636
-0.056000002 0.024 0.044090908
-0.049142856 0.033142857 0.078181818
0.049142856 0.0034285714 0.048636362
-0.0011428571 0.0011428571 0.11681818
-0.026285714 0.035428572 0.050909091
0.026285714 0.014857143 0.10545454
-0.021714285 -0.039999999 0.080454543
-0.010285715 0.026285714 0.11227272
-0.060571428 0.024 0.059999999
-0.042285714 -0.014857143 0.01909091
-0.0034285714 -0.014857143 -0.010454546
-0.044571429 0.030857142 0.087272726
0.0057142857 -0.012571429 0.016818183
-0.010285715 -0.037714284 0.091818184
-0.035428572 0.017142856 0.016818183
-0.024 -0.039999999 0.071363635
-0.033142857 0.033142857 0.096363634
-0.046857145 0.0034285714 0.11
-0.017142856 -0.017142856 0.0031818182
0.060571428 -0.0011428571 0.06909091
0.0080000004 0.030857142 0.091818184
-0.017142856 -0.026285714 0.11227272
0.0057142857 0.0080000004 0.066818185
-0.010285715 -0.024 0.046363637
-0.012571429 0.033142857 0.10545454
-0.053714287 0.0034285714 0.10318182
-0.065142855 -0.014857143 0.06909091
-0.065142855 0.0011428571 0.085000001
-0.012571429 0.037714284 0.087272726
-0.049142856 0.033142857 0.059999999
-0.030857142 -0.039999999 0.078181818
-0.019428572 -0.028571429 0.041818183
-0.021714285 0.0057142857 0.11909091
-0.056000002 0.014857143 0.094090909
-0.0080000004 0.019428572 0.0099999998
-0.062857144 -0.012571429 0.044090908
0.019428572 -0.0034285714 -0.0013636363
-0.0080000004 0.033142857 0.066818185
0.028571429 0.019428572 0.10545454
-0.067428574 -0.0034285714 0.071363635
-0.035428572 -0.014857143 0.11227272
-0.0011428571 -0.024 0.059999999
-0.051428571 -0.030857142 0.050909091
0.014857143 0.0080000004 0.012272728
0.028571429 -0.0011428571 0.10545454
-0.012571429 0.035428572 0.098636366
-0.037714284 0.035428572 0.089545451
0.067428574 -0.017142856 0.089545451
0.039999999 0.021714285 0.11227272
0.024 0.024 0.10545454
-0.053714287 0.014857143 0.028181817
0.0011428571 0.028571429 0.11
0.0057142857 0.012571429 -0.010454546
0.012571429 -0.017142856 0.11227272
-0.0011428571 0.019428572 0.057727274
0.060571428 -0.017142856 0.098636366
-0.042285714 0.0011428571 0.014545455
0.014857143 -0.0080000004 0.096363634
-0.019428572 -0.030857142 0.10772727
0.0011428571 0.012571429 -0.012727273
0.024 -0.019428572 0.10318182
-0.026285714 -0.035428572 0.048636362
-0.037714284 0.026285714 0.10318182
0.0080000004 -0.030857142 0.098636366
-0.0080000004 -0.026285714 0.11227272
-0.044571429 0.035428572 0.078181818
-0.062857144 -0.017142856 0.046363637
-0.0057142857 -0.0034285714 0.037272729
-0.010285715 -0.037714284 0.078181818
-0.0057142857 0.0057142857 0.030454546
0.019428572 0.0080000004 0.10090909
-0.037714284 0.0011428571 0.11454546
-0.010285715 0.028571429 0.11227272
-0.017142856 -0.028571429 0.044090908
0.053714287 0.021714285 0.11454546
0.028571429 -0.0057142857 0.11
0.0011428571 0.026285714 0.11454546
-0.028571429 0.030857142 0.039545454
-0.046857145 -0.028571429 0.091818184
0.0034285714 -0.014857143 0.11454546
0.0057142857 -0.014857143 0.014545455
0.017142856 -0.028571429 0.10545454
0.021714285 0.0057142857 0.10318182
-0.010285715 -0.014857143 0.028181817
-0.062857144 0.010285715 0.039545454
0.014857143 -0.010285715 0.01909091
0.0034285714 0.030857142 0.10772727
0.017142856 -0.026285714 0.10318182
-0.017142856 -0.0034285714 -0.010454546
-0.062857144 -0.0034285714 0.087272726
-0.067428574 -0.010285715 0.059999999
-0.0080000004 -0.035428572 0.07363636
-0.037714284 -0.037714284 0.059999999
0.026285714 0.0011428571 0.014545455
-0.051428571 -0.0057142857 0.021363636
0.0011428571 -0.026285714 0.11227272
0.0057142857 -0.014857143 0.06909091
0.0057142857 0.014857143 0.064545453
-0.049142856 -0.0057142857 0.01909091
0.010285715 -0.014857143 -0.0013636363
-0.060571428 -0.010285715 0.089545451
-0.0011428571 -0.014857143 0.11681818
0.065142855 -0.021714285 0.098636366
-0.042285714 0.035428572 0.055454545
-0.049142856 -0.017142856 0.10318182
-0.019428572 0.037714284 0.064545453
0.0057142857 -0.033142857 0.10090909
-0.017142856 -0.035428572 0.059999999
0.0034285714 0.0057142857 0.11454546
-0.0080000004 0.012571429 0.11681818
0.021714285 0.010285715 0.11
0.0057142857 -0.0034285714 0.11454546
-0.058285713 0.024 0.05318182
0.035428572 -0.019428572 0.10772727
0.0034285714 0.026285714 0.07363636
0.030857142 -0.0057142857 0.10545454
0.0057142857 0.017142856 0.066818185
0.014857143 0.010285715 0.091818184
0.012571429 -0.024 0.096363634
0.0034285714 0.033142857 0.085000001
0.024 -0.019428572 0.11227272
-0.058285713 0.0011428571 0.028181817
0.010285715 0.014857143 0.012272728
-0.033142857 0.010285715 0.11681818
0.030857142 0.0034285714 0.10772727
-0.017142856 -0.037714284 0.091818184
-0.0011428571 0.012571429 0.021363636
-0.039999999 -0.0080000004 0.012272728
0.028571429 -0.0057142857 0.023636363
0.021714285 -0.0034285714 0.0054545454
0.028571429 -0.019428572 0.10545454
-0.049142856 0.026285714 0.091818184
0.042285714 0.017142856 0.11
0.024 0.010285715 0.11
0.0034285714 0.010285715 0.059999999
0.042285714 -0.0034285714 0.046363637
-0.030857142 -0.030857142 0.039545454
-0.0011428571 -0.0011428571 0.11681818
-0.044571429 -0.0080000004 0.016818183
-0.021714285 0.039999999 0.06909091
-0.017142856 0.024 0.035
0.012571429 0.014857143 0.087272726
-0.0034285714 0.017142856 0.11681818
-0.065142855 0.0034285714 0.041818183
-0.058285713 0.0080000004 0.094090909
0.019428572 0.0057142857 0.023636363
-0.065142855 -0.0034285714 0.082727276
-0.0080000004 -0.019428572 -0.0013636363
0.0011428571 -0.0057142857 0.050909091
0.012571429 -0.010285715 0.085000001
-0.046857145 -0.021714285 0.10090909
0.033142857 0.0034285714 0.030454546
0.0034285714 0.0011428571 -0.015
0.019428572 0.0057142857 0.10090909
-0.067428574 -0.010285715 0.055454545
-0.046857145 0.012571429 0.021363636
-0.065142855 0.014857143 0.066818185
-0.0034285714 0.035428572 0.089545451
0.026285714 0.030857142 0.10772727
0.012571429 0.019428572 0.089545451
-0.039999999 -0.012571429 0.014545455
-0.021714285 -0.033142857 0.10318182
0.058285713 0.017142856 0.11454546
-0.062857144 0.017142856 0.046363637
0.0057142857 -0.033142857 0.096363634
-0.0011428571 -0.033142857 0.10545454
0.035428572 0.0011428571 0.028181817
-0.056000002 0.026285714 0.050909091
-0.049142856 -0.021714285 0.030454546
0.051428571 -0.021714285 0.11454546
-0.012571429 -0.037714284 0.085000001
0.030857142 -0.012571429 0.11
0.0034285714 -0.0080000004 -0.015
-0.0080000004 0.017142856 0.041818183
-0.024 0.019428572 0.014545455
0.0011428571 0.024 0.11454546
-0.030857142 0.019428572 0.016818183
-0.0080000004 0.017142856 -0.0036363637
0.051428571 0.017142856 0.11454546
0.0011428571 0.021714285 0.11454546
0.014857143 0.0011428571 -0.0081818178
-0.017142856 0.024 0.11227272
-0.0011428571 0.014857143 -0.010454546
-0.042285714 0.037714284 0.071363635
-0.044571429 -0.030857142 0.044090908
-0.056000002 0.0011428571 0.10090909
-0.012571429 -0.019428572 0.021363636
-0.062857144 -0.021714285 0.07363636
-0.010285715 0.017142856 -0.0036363637
-0.065142855 0.0080000004 0.078181818
0.0057142857 -0.014857143 -0.0081818178
0.0011428571 0.019428572 0.0031818182
-0.010285715 0.033142857 0.10545454
-0.062857144 0.017142856 0.075909093
-0.028571429 0.019428572 0.016818183
-0.030857142 -0.021714285 0.11227272
-0.0057142857 -0.019428572 -0.0013636363
0.0034285714 -0.033142857 0.10318182
-0.012571429 -0.019428572 0.012272728
-0.035428572 0.026285714 0.030454546
-0.010285715 -0.012571429 0.035
-0.037714284 -0.028571429 0.10090909
0.060571428 -0.012571429 0.10318182
-0.0034285714 0.017142856 0.050909091
0.062857144 -0.010285715 0.096363634
-0.0034285714 0.014857143 -0.0081818178
0.019428572 -0.0034285714 0.10090909
-0.014857143 -0.019428572 0.0054545454
0.037714284 0.0034285714 0.037272729
0.0011428571 0.017142856 0.11681818
-0.014857143 0.026285714 0.044090908
0.024 -0.0034285714 0.10318182
0.062857144 -0.012571429 0.10318182
0.0011428571 -0.033142857 0.085000001
-0.035428572 0.037714284 0.064545453
0.026285714 -0.021714285 0.10545454
-0.019428572 0.039999999 0.078181818
0.017142856 0.021714285 0.10318182
-0.024 -0.024 0.02590909
-0.017142856 0.019428572 0.021363636
-0.039999999 0.037714284 0.06909091
0.0080000004 0.017142856 0.071363635
0.058285713 -0.014857143 0.10318182
0.019428572 -0.0011428571 0.10090909
0.0034285714 -0.014857143 0.062272727
0.024 -0.0011428571 0.028181817
0.019428572 0.0034285714 0.014545455
-0.017142856 -0.017142856 0.11681818
-0.010285715 -0.030857142 0.11
-0.051428571 -0.0034285714 0.10545454
0.058285713 0.024 0.10545454
0.062857144 0.0011428571 0.071363635
-0.030857142 -0.017142856 0.014545455
0.010285715 -0.014857143 0.0099999998
-0.065142855 0.017142856 0.066818185
0.010285715 -0.0080000004 0.075909093
-0.035428572 -0.037714284 0.057727274
0.024 -0.028571429 0.10772727
0.017142856 0.030857142 0.10545454
-0.051428571 0.021714285 0.032727271
0.065142855 0.019428572 0.094090909
-0.037714284 0.0080000004 0.11454546
0.012571429 0.012571429 0.11227272
-0.014857143 -0.0011428571 -0.012727273
-0.0034285714 0.035428572 0.082727276
-0.037714284 -0.030857142 0.039545454
-0.067428574 -0.0057142857 0.071363635
-0.028571429 -0.010285715 0.0031818182
-0.0011428571 -0.030857142 0.07363636
0.014857143 -0.012571429 0.0031818182
-0.053714287 -0.0057142857 0.10318182
-0.039999999 -0.0080000004 0.11227272
0.042285714 -0.0011428571 0.046363637
0.017142856 0.0011428571 0.11227272
0.012571429 -0.010285715 0.01909091
0.0080000004 0.028571429 0.11
-0.046857145 -0.035428572 0.059999999
0.024 0.010285715 0.10318182
-0.012571429 -0.017142856 0.030454546
-0.044571429 -0.035428572 0.066818185
-0.021714285 0.019428572 0.012272728
-0.030857142 -0.017142856 0.11454546
-0.053714287 0.024 0.039545454
-0.042285714 0.021714285 0.02590909
0.012571429 0.028571429 0.11
-0.062857144 0.014857143 0.048636362
0.0034285714 -0.017142856 0.11454546
0.012571429 0.024 0.094090909
-0.0011428571 -0.017142856 0.0099999998
0.060571428 -0.017142856 0.10318182
0.058285713 0.021714285 0.10545454
-0.062857144 -0.0057142857 0.037272729
0.056000002 0.017142856 0.11454546
0.058285713 -0.021714285 0.10318182
-0.056000002 0.017142856 0.035
-0.017142856 0.037714284 0.064545453
-0.067428574 -0.0011428571 0.046363637
-0.021714285 0.017142856 0.0054545454
-0.0080000004 -0.030857142 0.059999999
-0.024 0.039999999 0.07363636
-0.053714287 -0.0080000004 0.10090909
0.037714284 0.024 0.11
-0.0011428571 0.035428572 0.10090909
-0.014857143 0.037714284 0.07363636
-0.062857144 -0.017142856 0.082727276
-0.053714287 0.0080000004 0.023636363
0.028571429 -0.019428572 0.11227272
-0.026285714 -0.037714284 0.087272726
0.037714284 0.0034285714 0.039545454
0.0034285714 0.010285715 0.01909091
0.062857144 -0.0080000004 0.096363634
0.039999999 0.021714285 0.11
-0.046857145 0.033142857 0.075909093
0.030857142 0.012571429 0.10545454
0.044571429 0.0011428571 0.041818183
-0.035428572 -0.024 0.02590909
-0.049142856 -0.024 0.094090909
0.0011428571 0.0034285714 0.023636363
0.044571429 -0.019428572 0.11227272
0.028571429 0.0034285714 0.032727271
-0.0080000004 0.037714284 0.087272726
-0.044571429 -0.0011428571 0.11
-0.039999999 0.028571429 0.037272729
-0.046857145 0.030857142 0.044090908
-0.039999999 -0.0034285714 0.11454546
-0.0034285714 -0.012571429 0.046363637
-0.037714284 0.037714284 0.062272727
0.010285715 -0.014857143 0.11227272
-0.017142856 -0.014857143 -0.0036363637
-0.058285713 -0.0057142857 0.030454546
0.065142855 -0.012571429 0.098636366
-0.060571428 0.021714285 0.048636362
0.026285714 0.0057142857 0.028181817
0.010285715 0.033142857 0.10545454
-0.028571429 0.037714284 0.05318182
-0.0034285714 -0.017142856 0.014545455
-0.053714287 -0.0034285714 0.10318182
-0.017142856 -0.039999999 0.078181818
-0.051428571 -0.0034285714 0.021363636
-0.014857143 -0.014857143 -0.0036363637
0.012571429 -0.0080000004 0.01909091
-0.019428572 0.037714284 0.094090909
-0.021714285 0.019428572 0.016818183
0.060571428 0.014857143 0.10772727
0.014857143 0.0057142857 0.096363634
-0.0034285714 -0.019428572 0.05318182
0.065142855 0.026285714 0.096363634
-0.056000002 -0.010285715 0.098636366
-0.053714287 -0.030857142 0.064545453
-0.010285715 -0.037714284 0.089545451
-0.014857143 -0.037714284 0.066818185
0.021714285 -0.0034285714 0.10318182
-0.010285715 0.037714284 0.080454543
-0.049142856 0.0080000004 0.021363636
-0.033142857 -0.024 0.02590909
-0.060571428 -0.014857143 0.039545454
0.0080000004 -0.010285715 0.06909091
-0.033142857 -0.017142856 0.11227272
-0.033142857 0.0057142857 0.11681818
-0.030857142 -0.019428572 0.01909091
-0.012571429 0.037714284 0.085000001
-0.033142857 -0.028571429 0.10318182
0.0011428571 -0.014857143 0.11681818
0.014857143 0.0034285714 0.094090909
0.0034285714 -0.021714285 0.11454546
-0.049142856 -0.033142857 0.062272727
-0.039999999 0.019428572 0.021363636
0.062857144 -0.028571429 0.098636366
0.012571429 0.021714285 0.091818184
0.021714285 -0.0057142857 0.014545455
0.0080000004 0.0057142857 0.07363636
0.065142855 -0.021714285 0.094090909
-0.051428571 0.030857142 0.075909093
-0.014857143 -0.039999999 0.080454543
-0.0034285714 -0.010285715 0.11681818
-0.010285715 -0.019428572 0.0031818182
-0.0057142857 -0.017142856 -0.0059090909
0.012571429 0.021714285 0.089545451
0.046857145 0.019428572 0.11227272
-0.060571428 0.0057142857 0.032727271
-0.0034285714 -0.017142856 -0.0059090909
-0.065142855 -0.0080000004 0.044090908
-0.019428572 -0.035428572 0.055454545
-0.039999999 -0.010285715 0.014545455
-0.060571428 -0.024 0.057727274
0.042285714 0.017142856 0.11227272
0.024 -0.024 0.10772727
-0.067428574 -0.010285715 0.07363636
-0.019428572 0.033142857 0.10318182
-0.0057142857 -0.0080000004 0.030454546
0.0057142857 0.014857143 0.11454546
0.060571428 -0.021714285 0.098636366
-0.0057142857 -0.012571429 0.11681818
-0.028571429 0.039999999 0.078181818
-0.014857143 0.019428572 0.0099999998
-0.051428571 0.0057142857 0.021363636
0.062857144 -0.0011428571 0.071363635
-0.021714285 0.037714284 0.064545453
-0.060571428 0.021714285 0.080454543
0.037714284 -0.024 0.11
-0.053714287 -0.014857143 0.028181817
0.014857143 -0.0080000004 0.094090909
-0.039999999 -0.0011428571 0.11454546
0.060571428 -0.028571429 0.10772727
0.053714287 -0.017142856 0.11
-0.010285715 0.037714284 0.07363636
0.053714287 -0.026285714 0.11227272
-0.051428571 0.030857142 0.057727274
-0.058285713 -0.019428572 0.039545454
-0.0011428571 -0.014857143 0.01909091
-0.0034285714 -0.0057142857 -0.015
0.019428572 0.0080000004 0.0099999998
0.042285714 0.0034285714 0.039545454
-0.019428572 0.012571429 0.11681818
-0.069714285 0.0011428571 0.062272727
-0.0057142857 0.0034285714 0.11681818
0.0034285714 -0.017142856 0.012272728
-0.039999999 -0.017142856 0.11
-0.056000002 -0.014857143 0.032727271
0.014857143 0.0057142857 -0.0081818178
-0.012571429 -0.010285715 -0.010454546
0.0011428571 -0.012571429 0.055454545
0.039999999 0.0057142857 0.10772727
0.0011428571 0.021714285 0.062272727
0.017142856 -0.024 0.11
0.0034285714 0.010285715 0.057727274
0.037714284 0.017142856 0.11
-0.039999999 -0.026285714 0.030454546
0.012571429 0.010285715 0.085000001
0.0034285714 0.028571429 0.075909093
-0.033142857 0.030857142 0.039545454
-0.030857142 -0.0080000004 0.11681818
0.012571429 0.0080000004 0.080454543
-0.017142856 0.037714284 0.066818185
-0.049142856 -0.033142857 0.057727274
0.033142857 0.0034285714 0.10772727
-0.0057142857 0.035428572 0.080454543
0.065142855 -0.017142856 0.091818184
0.058285713 -0.024 0.11
-0.012571429 -0.017142856 0.11681818
-0.030857142 0.0011428571 0.0031818182
-0.049142856 -0.033142857 0.059999999
0.058285713 0.024 0.10318182
-0.0034285714 0.033142857 0.10318182
-0.067428574 -0.0057142857 0.050909091
-0.017142856 0.019428572 0.0099999998
0.014857143 0.0034285714 0.11227272
-0.014857143 0.014857143 0.11681818
0.065142855 -0.021714285 0.096363634
0.056000002 0.021714285 0.10545454
-0.058285713 0.026285714 0.059999999
-0.030857142 -0.012571429 0.0077272728
-0.049142856 0.010285715 0.021363636
0.060571428 -0.026285714 0.10772727
0.0034285714 -0.014857143 -0.0081818178
-0.035428572 -0.019428572 0.021363636
0.058285713 0.014857143 0.10772727
-0.058285713 -0.024 0.082727276
-0.0011428571 -0.019428572 0.00090909092
-0.030857142 0.017142856 0.11454546
0.062857144 -0.028571429 0.10090909
0.010285715 0.012571429 0.014545455
-0.021714285 -0.0057142857 -0.0081818178
-0.0057142857 0.0057142857 -0.015
0.0034285714 0.012571429 0.059999999
0.035428572 0.019428572 0.11
-0.037714284 0.030857142 0.096363634
-0.014857143 0.021714285 0.035
0.014857143 -0.0011428571 0.096363634
0.019428572 -0.019428572 0.11227272
-0.046857145 -0.033142857 0.082727276
0.039999999 0.017142856 0.11227272
-0.028571429 -0.028571429 0.032727271
0.010285715 -0.028571429 0.089545451
0.0011428571 -0.0011428571 0.055454545
-0.053714287 0.028571429 0.048636362
-0.033142857 -0.0080000004 0.11681818
0.030857142 0.0057142857 0.032727271
-0.019428572 -0.019428572 0.014545455
-0.014857143 0.019428572 0.032727271
-0.030857142 0.0080000004 0.0054545454
-0.030857142 -0.039999999 0.075909093
0.010285715 -0.014857143 0.0077272728
-0.056000002 -0.010285715 0.096363634
0.060571428 -0.010285715 0.10090909
-0.037714284 -0.0011428571 0.0099999998
-0.0034285714 -0.030857142 0.066818185
-0.028571429 -0.039999999 0.071363635
-0.065142855 0.010285715 0.075909093
0.0080000004 -0.017142856 0.0054545454
-0.012571429 -0.037714284 0.089545451
-0.044571429 -0.035428572 0.080454543
-0.014857143 -0.037714284 0.075909093
0.012571429 -0.024 0.11
0.049142856 0.0011428571 0.05318182
0.046857145 0.0034285714 0.046363637
0.021714285 0.0057142857 0.0054545454
-0.065142855 0.0034285714 0.080454543
0.010285715 -0.030857142 0.094090909
-0.0057142857 0.0011428571 -0.017272728
-0.021714285 -0.019428572 0.016818183
0.039999999 0.0034285714 0.037272729
0.062857144 0.024 0.096363634
-0.012571429 0.035428572 0.064545453
-0.062857144 0.012571429 0.041818183
-0.0011428571 0.012571429 0.05318182
-0.014857143 0.014857143 -0.0059090909
-0.033142857 0.039999999 0.066818185
-0.014857143 0.019428572 0.021363636
-0.012571429 0.030857142 0.055454545
-0.014857143 -0.037714284 0.078181818
0.0080000004 0.014857143 0.0099999998
-0.026285714 -0.014857143 0.11681818
-0.065142855 0.014857143 0.062272727
-0.012571429 0.019428572 0.0077272728
0.024 0.0011428571 0.012272728
-0.019428572 0.014857143 0.11681818
0.0057142857 -0.0011428571 0.066818185
-0.019428572 0.026285714 0.11227272
-0.062857144 -0.019428572 0.055454545
0.019428572 0.0034285714 0.00090909092
-0.035428572 -0.017142856 0.016818183
-0.010285715 0.017142856 0.01909091
-0.033142857 -0.028571429 0.032727271
-0.065142855 -0.014857143 0.064545453
-0.012571429 -0.0034285714 0.11909091
-0.051428571 0.024 0.094090909
-0.035428572 -0.024 0.028181817
-0.049142856 -0.028571429 0.089545451
-0.0011428571 -0.021714285 0.057727274
0.012571429 -0.010285715 0.016818183
-0.0080000004 -0.021714285 0.048636362
0.014857143 0.012571429 0.089545451
0.014857143 0.010285715 0.014545455
0.019428572 0.0034285714 0.11227272
0.033142857 -0.019428572 0.10772727
0.0080000004 -0.012571429 0.01909091
-0.044571429 -0.012571429 0.10772727
0.058285713 -0.019428572 0.10772727
-0.065142855 -0.010285715 0.048636362
0.021714285 -0.0034285714 0.0031818182
0.042285714 0.0057142857 0.10772727
0.017142856 0.0080000004 0.00090909092
-0.014857143 0.035428572 0.057727274
-0.024 -0.014857143 0.0054545454
-0.030857142 0.039999999 0.071363635
-0.046857145 -0.026285714 0.094090909
-0.037714284 0.012571429 0.014545455
0.053714287 -0.019428572 0.11681818
-0.049142856 0.0011428571 0.01909091
-0.0011428571 -0.010285715 0.11454546
-0.042285714 0.028571429 0.035
-0.019428572 -0.039999999 0.071363635
-0.017142856 -0.017142856 0.0054545454
-0.0080000004 -0.017142856 0.041818183
-0.042285714 -0.017142856 0.10772727
-0.037714284 -0.035428572 0.082727276
-0.0011428571 -0.014857143 0.016818183
0.014857143 0.026285714 0.11
-0.042285714 -0.010285715 0.016818183
-0.030857142 0.028571429 0.035
-0.021714285 0.021714285 0.11454546
-0.030857142 0.039999999 0.059999999
-0.058285713 0.024 0.082727276
-0.030857142 -0.035428572 0.091818184
-0.037714284 0.024 0.02590909
-0.012571429 -0.037714284 0.071363635
-0.024 -0.039999999 0.082727276
0.012571429 0.012571429 0.087272726
0.0011428571 -0.017142856 0.0077272728
0.067428574 -0.014857143 0.096363634
-0.019428572 -0.014857143 -0.0013636363
-0.0080000004 -0.014857143 0.041818183
-0.028571429 0.0034285714 -0.0013636363
0.051428571 0.014857143 0.11227272
-0.065142855 -0.0011428571 0.044090908
-0.067428574 0.0057142857 0.059999999
-0.010285715 0.0034285714 0.11681818
0.021714285 -0.0057142857 0.023636363
0.012571429 0.026285714 0.10318182
-0.056000002 -0.024 0.087272726
-0.046857145 0.026285714 0.096363634
0.021714285 -0.014857143 0.10318182
-0.033142857 0.014857143 0.11454546
-0.067428574 0.0011428571 0.075909093
0.028571429 0.0080000004 0.11
-0.014857143 0.019428572 0.012272728
0.065142855 -0.010285715 0.094090909
-0.037714284 0.014857143 0.11227272
-0.0080000004 0.026285714 0.05318182
0.037714284 0.019428572 0.11227272
-0.010285715 0.017142856 0.037272729
-0.065142855 0.0011428571 0.041818183
-0.049142856 -0.0011428571 0.10772727
0.0080000004 0.026285714 0.11227272
-0.053714287 -0.0011428571 0.023636363
-0.053714287 -0.024 0.039545454
0.060571428 0.017142856 0.10545454
0.024 -0.024 0.11
-0.039999999 0.021714285 0.10545454
-0.067428574 -0.010285715 0.066818185
0.019428572 -0.010285715 0.11
-0.0057142857 -0.012571429 -0.012727273
0.049142856 -0.019428572 0.11
-0.0034285714 -0.010285715 0.046363637
0.0057142857 0.010285715 -0.012727273
-0.044571429 -0.033142857 0.085000001
0.0057142857 0.014857143 0.012272728
-0.019428572 -0.0011428571 -0.010454546
-0.010285715 -0.037714284 0.07363636
0.017142856 0.0080000004 -0.0036363637
-0.0011428571 -0.0011428571 0.046363637
0.019428572 0.028571429 0.10772727
-0.035428572 0.028571429 0.10090909
0.030857142 -0.012571429 0.10772727
0.019428572 0.021714285 0.11227272
-0.065142855 -0.010285715 0.075909093
-0.053714287 -0.021714285 0.091818184
-0.026285714 -0.039999999 0.062272727
-0.067428574 -0.012571429 0.071363635
-0.028571429 -0.019428572 0.01909091
0.021714285 0.030857142 0.10772727
-0.042285714 -0.0034285714 0.014545455
-0.053714287 -0.024 0.041818183
-0.017142856 0.021714285 0.030454546
-0.0080000004 0.033142857 0.10318182
-0.039999999 0.0057142857 0.012272728
-0.028571429 -0.033142857 0.098636366
-0.014857143 0.0034285714 -0.012727273
0.010285715 -0.019428572 0.082727276
-0.056000002 -0.021714285 0.041818183
-0.033142857 0.033142857 0.041818183
-0.037714284 -0.030857142 0.096363634
-0.0034285714 0.0057142857 -0.015
-0.028571429 -0.014857143 0.11681818
-0.042285714 -0.021714285 0.10545454
-0.0080000004 -0.014857143 0.039545454
-0.042285714 -0.0057142857 0.014545455
-0.028571429 -0.024 0.02590909
0.0011428571 -0.0034285714 0.11454546
0.014857143 0.019428572 0.096363634
-0.051428571 0.019428572 0.096363634
-0.024 0.026285714 0.11
0.0080000004 -0.024 0.11227272
-0.067428574 0.0057142857 0.066818185
-0.019428572 0.017142856 0.0077272728
-0.0080000004 0.0057142857 0.032727271
-0.044571429 0.026285714 0.096363634
0.012571429 0.026285714 0.094090909
-0.0011428571 -0.028571429 0.11227272
-0.0011428571 0.014857143 0.01909091
0.012571429 -0.0011428571 0.11227272
0.065142855 0.0011428571 0.07363636
0.035428572 -0.014857143 0.11
-0.033142857 0.026285714 0.10545454
-0.030857142 0.0057142857 0.11681818
0.062857144 0.0080000004 0.10090909
-0.065142855 0.014857143 0.071363635
-0.024 0.033142857 0.10318182
0.0011428571 0.0011428571 0.050909091
-0.069714285 -0.0011428571 0.062272727
-0.010285715 0.0080000004 -0.012727273
-0.037714284 -0.037714284 0.075909093
-0.017142856 -0.037714284 0.06909091
-0.017142856 0.019428572 0.012272728
-0.0057142857 -0.0034285714 0.039545454
-0.017142856 0.030857142 0.046363637
0.0011428571 -0.019428572 0.00090909092
-0.062857144 -0.021714285 0.064545453
-0.065142855 0.014857143 0.078181818
0.065142855 0.030857142 0.096363634
0.0057142857 -0.019428572 0.11454546
-0.012571429 0.028571429 0.11
-0.062857144 -0.021714285 0.062272727
-0.060571428 -0.019428572 0.085000001
-0.017142856 0.033142857 0.10545454
-0.014857143 -0.019428572 0.01909091
-0.0011428571 -0.014857143 0.05318182
-0.0080000004 -0.010285715 0.030454546
-0.0011428571 0.017142856 0.014545455
-0.039999999 -0.035428572 0.085000001
0.065142855 -0.026285714 0.098636366
-0.0080000004 -0.019428572 0.0031818182
0.0034285714 0.021714285 0.11454546
-0.049142856 0.026285714 0.039545454
0.035428572 0.0034285714 0.035
-0.012571429 0.037714284 0.096363634
-0.010285715 0.012571429 -0.010454546
0.021714285 0.0057142857 0.11
-0.062857144 0.019428572 0.062272727
-0.035428572 0.024 0.10772727
-0.014857143 -0.019428572 0.11681818
-0.012571429 0.014857143 -0.0059090909
-0.044571429 -0.019428572 0.02590909
-0.037714284 -0.014857143 0.016818183
-0.014857143 0.019428572 0.0054545454
-0.053714287 0.028571429 0.080454543
-0.039999999 0.035428572 0.085000001
-0.0080000004 -0.0034285714 0.11681818
0.0080000004 -0.030857142 0.096363634
-0.019428572 -0.035428572 0.057727274
-0.035428572 0.035428572 0.050909091
-0.028571429 -0.035428572 0.094090909
-0.042285714 -0.030857142 0.039545454
0.0034285714 0.0034285714 0.057727274
-0.037714284 0.033142857 0.094090909
-0.010285715 -0.0011428571 0.11909091
0.014857143 0.012571429 0.094090909
-0.0057142857 -0.017142856 0.01909091
0.0034285714 -0.0034285714 -0.015
-0.030857142 0.035428572 0.094090909
-0.0080000004 -0.012571429 0.039545454
0.014857143 -0.0011428571 -0.0081818178
-0.060571428 0.019428572 0.080454543
0.0057142857 -0.0011428571 0.11454546
-0.035428572 0.0011428571 0.0077272728
-0.046857145 0.033142857 0.078181818
-0.026285714 0.0057142857 -0.0036363637
0.014857143 0.017142856 0.098636366
-0.060571428 0.021714285 0.078181818
-0.067428574 -0.0034285714 0.066818185
0.039999999 0.0034285714 0.039545454
-0.062857144 0.010285715 0.041818183
-0.0011428571 -0.0057142857 0.023636363
0.026285714 -0.0057142857 0.021363636
0.0011428571 -0.0080000004 0.05318182
0.046857145 -0.0034285714 0.048636362
-0.0080000004 -0.019428572 0.0077272728
0.010285715 0.021714285 0.080454543
-0.030857142 -0.037714284 0.087272726
-0.021714285 -0.037714284 0.094090909
0.014857143 -0.0011428571 0.094090909
-0.037714284 0.024 0.10545454
0.0080000004 -0.0011428571 0.06909091
-0.021714285 0.037714284 0.062272727
0.0080000004 -0.030857142 0.091818184
-0.062857144 0.012571429 0.044090908
0.012571429 0.021714285 0.10772727
0.0011428571 0.010285715 0.021363636
-0.062857144 -0.019428572 0.059999999
0.060571428 0.012571429 0.10318182
-0.0011428571 -0.019428572 0.057727274
0.0034285714 -0.0080000004 0.11454546
0.012571429 0.0057142857 0.087272726
0.051428571 0.0011428571 0.050909091
-0.044571429 0.024 0.10090909
-0.037714284 -0.037714284 0.06909091
-0.033142857 0.014857143 0.012272728
-0.037714284 -0.0080000004 0.11454546
-0.024 0.035428572 0.05318182
0.0011428571 0.0080000004 -0.015
-0.0080000004 -0.026285714 0.05318182
0.0080000004 0.014857143 0.11454546
-0.024 -0.017142856 0.0077272728
-0.024 -0.039999999 0.078181818
-0.037714284 0.017142856 0.01909091
0.053714287 0.0011428571 0.059999999
-0.012571429 -0.037714284 0.096363634
0.0080000004 0.010285715 0.11454546
0.019428572 -0.0011428571 0.11227272
-0.033142857 0.021714285 0.021363636
-0.046857145 0.028571429 0.041818183
-0.033142857 -0.014857143 0.11454546
-0.056000002 0.028571429 0.057727274
-0.026285714 0.0080000004 0.11909091
-0.021714285 0.0011428571 -0.0081818178
0.0057142857 -0.026285714 0.11227272
0.012571429 -0.0057142857 0.080454543
-0.0011428571 -0.035428572 0.089545451
-0.0057142857 0.019428572 0.0077272728
-0.017142856 -0.010285715 0.11909091
0.0011428571 -0.014857143 0.057727274
-0.014857143 -0.0080000004 -0.010454546
-0.028571429 0.037714284 0.059999999
-0.067428574 0.0011428571 0.055454545
-0.049142856 -0.0080000004 0.021363636
0.0034285714 0.0011428571 0.023636363
-0.046857145 -0.0034285714 0.11
-0.042285714 0.033142857 0.048636362
0.058285713 -0.026285714 0.10318182
-0.042285714 -0.024 0.030454546
-0.058285713 -0.0057142857 0.028181817
0.065142855 0.028571429 0.096363634
-0.056000002 0.017142856 0.094090909
-0.049142856 0.0011428571 0.10772727
-0.014857143 -0.014857143 -0.0059090909
-0.039999999 -0.035428572 0.082727276
0.058285713 -0.014857143 0.10545454
-0.053714287 0.026285714 0.044090908
-0.0080000004 0.0011428571 0.11681818
0.010285715 0.0057142857 -0.012727273
-0.039999999 -0.030857142 0.039545454
-0.014857143 0.037714284 0.075909093
-0.037714284 0.037714284 0.080454543
-0.0080000004 0.010285715 0.037272729
-0.024 -0.028571429 0.10772727
-0.0057142857 -0.026285714 0.055454545
0.010285715 0.030857142 0.10090909
-0.017142856 0.014857143 -0.0036363637
0.046857145 -0.0011428571 0.044090908
0.062857144 0.0080000004 0.096363634
-0.030857142 0.033142857 0.044090908
-0.030857142 -0.037714284 0.055454545
0.012571429 -0.012571429 0.085000001
-0.042285714 -0.035428572 0.059999999
0.021714285 0.0011428571 0.10318182
-0.060571428 0.019428572 0.044090908
-0.046857145 0.0034285714 0.016818183
0.012571429 0.024 0.089545451
-0.028571429 -0.030857142 0.037272729
-0.0034285714 -0.030857142 0.10772727
0.012571429 -0.0057142857 0.01909091
0.0011428571 -0.030857142 0.10772727
-0.058285713 -0.024 0.078181818
-0.051428571 -0.012571429 0.02590909
0.0057142857 -0.017142856 -0.0036363637
-0.039999999 0.019428572 0.10772727
-0.024 -0.0034285714 0.11909091
0.0011428571 -0.035428572 0.10090909
-0.026285714 -0.0034285714 0.11909091
0.051428571 0.019428572 0.11
-0.010285715 -0.010285715 0.11681818
-0.051428571 0.021714285 0.094090909
-0.0080000004 -0.017142856 0.016818183
-0.024 0.037714284 0.055454545
-0.028571429 -0.035428572 0.096363634
0.0080000004 0.017142856 -0.0013636363
0.017142856 -0.0080000004 -0.0036363637
0.0057142857 0.0034285714 0.064545453
-0.0057142857 0.035428572 0.098636366
0.062857144 0.017142856 0.094090909
0.017142856 -0.021714285 0.10318182
-0.060571428 -0.024 0.07363636
-0.035428572 -0.0057142857 0.11454546
0.065142855 -0.010285715 0.098636366
0.030857142 0.0034285714 0.02590909
-0.037714284 0.037714284 0.07363636
-0.065142855 0.012571429 0.078181818
-0.049142856 0.033142857 0.066818185
-0.042285714 -0.033142857 0.087272726
-0.017142856 -0.035428572 0.098636366
-0.0080000004 0.035428572 0.07363636
0.0034285714 -0.010285715 0.11454546
-0.014857143 0.019428572 0.030454546
-0.039999999 0.021714285 0.02590909
0.017142856 -0.0034285714 -0.0059090909
-0.067428574 0.0034285714 0.066818185
-0.0011428571 0.033142857 0.080454543
0.021714285 -0.019428572 0.10318182
-0.019428572 0.021714285 0.023636363
-0.0057142857 -0.0011428571 0.041818183
-0.028571429 0.021714285 0.023636363
0.014857143 -0.019428572 0.11
-0.0080000004 0.012571429 -0.010454546
-0.046857145 -0.030857142 0.044090908
-0.0057142857 -0.010285715 -0.012727273
0.019428572 -0.0011428571 -0.0013636363
-0.021714285 0.012571429 -0.0013636363
-0.030857142 -0.021714285 0.023636363
-0.056000002 -0.028571429 0.057727274
-0.021714285 0.033142857 0.046363637
-0.0057142857 0.014857143 0.046363637
0.012571429 -0.021714285 0.091818184
0.0034285714 0.024 0.06909091
0.010285715 -0.0034285714 0.075909093
-0.010285715 -0.012571429 -0.010454546
0.021714285 -0.026285714 0.10545454
-0.033142857 -0.039999999 0.066818185
-0.067428574 -0.0080000004 0.06909091
-0.053714287 -0.012571429 0.028181817
0.010285715 0.017142856 0.075909093
-0.067428574 -0.0011428571 0.057727274
-0.056000002 -0.021714285 0.089545451
-0.0011428571 0.0057142857 0.048636362
-0.010285715 0.014857143 0.030454546
-0.026285714 0.014857143 0.11681818
0.014857143 -0.0057142857 0.096363634
0.014857143 0.0080000004 0.087272726
-0.033142857 -0.028571429 0.035
0.0011428571 0.014857143 -0.010454546
-0.046857145 -0.0011428571 0.11
-0.030857142 -0.0034285714 0.0031818182
0.021714285 0.0011428571 0.0054545454
-0.044571429 0.0011428571 0.014545455
0.042285714 -0.019428572 0.11
0.0057142857 -0.021714285 0.07363636
0.0011428571 0.0034285714 0.11454546
0.019428572 -0.0080000004 0.014545455
0.0057142857 0.012571429 0.064545453
0.039999999 -0.0034285714 0.039545454
-0.039999999 0.0080000004 0.11227272
-0.037714284 0.0080000004 0.012272728
-0.065142855 0.010285715 0.082727276
0.0011428571 -0.0011428571 0.11681818
-0.026285714 0.017142856 0.012272728
-0.0080000004 -0.024 0.050909091
-0.037714284 -0.024 0.10545454
0.019428572 0.010285715 0.10090909
-0.014857143 0.010285715 0.11909091
-0.0080000004 0.028571429 0.057727274
-0.0080000004 -0.012571429 0.032727271
-0.056000002 -0.014857143 0.094090909
-0.037714284 -0.037714284 0.07363636
0.0011428571 -0.014857143 0.014545455
-0.021714285 -0.026285714 0.11
0.012571429 -0.017142856 0.089545451
0.065142855 0.0080000004 0.096363634
-0.026285714 0.026285714 0.030454546
-0.039999999 -0.037714284 0.075909093
-0.028571429 0.039999999 0.064545453
-0.017142856 -0.021714285 0.032727271
0.017142856 0.019428572 0.11227272
0.024 -0.021714285 0.11227272
-0.024 -0.037714284 0.091818184
0.065142855 0.017142856 0.091818184
-0.035428572 0.030857142 0.039545454
0.037714284 0.014857143 0.11
0.062857144 -0.010285715 0.098636366
-0.024 -0.039999999 0.085000001
-0.053714287 -0.0034285714 0.023636363
-0.0057142857 0.0011428571 0.030454546
-0.051428571 0.028571429 0.046363637
-0.056000002 0.024 0.087272726
-0.0057142857 -0.030857142 0.062272727
0.0034285714 -0.033142857 0.091818184
-0.042285714 -0.033142857 0.044090908
0.0034285714 0.017142856 0.0099999998
-0.049142856 0.012571429 0.10545454
-0.067428574 -0.0080000004 0.059999999
-0.019428572 0.037714284 0.066818185
0.017142856 -0.017142856 0.10318182
-0.010285715 0.014857143 0.11681818
0.062857144 0.019428572 0.094090909
0.028571429 -0.014857143 0.11
0.053714287 0.014857143 0.11227272
-0.044571429 -0.026285714 0.032727271
0.010285715 -0.0034285714 0.078181818
0.017142856 0.0080000004 0.014545455
-0.0057142857 -0.014857143 0.044090908
-0.0011428571 0.010285715 0.023636363
0.030857142 -0.019428572 0.11227272
-0.021714285 -0.037714284 0.064545453
0.024 -0.012571429 0.10318182
-0.053714287 0.0011428571 0.10318182
-0.033142857 0.039999999 0.06909091
-0.0011428571 -0.017142856 0.11681818
-0.0057142857 -0.0057142857 0.028181817
-0.037714284 -0.035428572 0.089545451
0.051428571 -0.017142856 0.11454546
-0.0011428571 -0.019428572 0.0054545454
-0.037714284 0.010285715 0.11454546
-0.053714287 -0.026285714 0.085000001
-0.039999999 -0.037714284 0.071363635
-0.0011428571 0.033142857 0.10318182
-0.0057142857 0.0034285714 -0.015
-0.051428571 0.033142857 0.06909091
-0.019428572 0.033142857 0.048636362
-0.0080000004 0.014857143 0.11681818
-0.033142857 -0.039999999 0.062272727
0.010285715 -0.010285715 0.11227272
-0.065142855 0.014857143 0.075909093
0.067428574 -0.0057142857 0.094090909
0.019428572 -0.0057142857 0.0031818182
0.0080000004 0.030857142 0.089545451
0.030857142 0.0080000004 0.10545454
-0.030857142 0.0011428571 0.11681818
0.042285714 0.0034285714 0.046363637
0.056000002 -0.019428572 0.11454546
-0.0080000004 -0.010285715 0.037272729
-0.028571429 0.035428572 0.048636362
0.0080000004 0.012571429 0.07363636
-0.019428572 0.039999999 0.06909091
-0.033142857 -0.037714284 0.05318182
-0.039999999 -0.037714284 0.059999999
0.0011428571 -0.0080000004 0.021363636
0.028571429 0.012571429 0.10545454
-0.012571429 0.019428572 0.021363636
-0.039999999 0.0080000004 0.012272728
-0.010285715 0.037714284 0.087272726
-0.051428571 0.030857142 0.050909091
-0.062857144 -0.012571429 0.085000001
-0.046857145 -0.033142857 0.048636362
-0.010285715 -0.0057142857 -0.015
-0.010285715 -0.033142857 0.059999999
0.017142856 0.0034285714 -0.0036363637
0.0011428571 0.012571429 0.055454545
-0.012571429 -0.030857142 0.10772727
0.014857143 0.010285715 -0.0013636363
0.049142856 0.0011428571 0.046363637
0.0034285714 -0.0011428571 -0.015
-0.049142856 0.033142857 0.071363635
0.035428572 -0.0011428571 0.028181817
0.010285715 -0.028571429 0.10772727
-0.012571429 0.019428572 0.0054545454
0.0057142857 -0.0080000004 0.062272727
-0.030857142 0.037714284 0.055454545
0.019428572 0.030857142 0.10772727
-0.024 0.039999999 0.085000001
0.0011428571 -0.014857143 0.016818183
0.019428572 0.0080000004 0.0031818182
0.060571428 -0.019428572 0.096363634
-0.0011428571 -0.019428572 0.0031818182
-0.067428574 0.0080000004 0.057727274
0.030857142 0.024 0.11
0.026285714 0.0080000004 0.02590909
0.010285715 -0.0057142857 0.075909093
-0.024 -0.035428572 0.05318182
0.0080000004 -0.014857143 -0.0036363637
0.0034285714 -0.017142856 0.062272727
-0.044571429 0.033142857 0.048636362
0.021714285 0.012571429 0.10318182
-0.051428571 0.030857142 0.078181818
-0.065142855 0.014857143 0.06909091
-0.021714285 -0.039999999 0.066818185
0.0080000004 0.0057142857 0.11454546
-0.046857145 0.028571429 0.039545454
-0.046857145 -0.021714285 0.028181817
0.0011428571 0.0057142857 0.023636363
-0.0034285714 0.033142857 0.07363636
-0.035428572 0.0080000004 0.0099999998
-0.0011428571 0.012571429 -0.012727273
0.056000002 -0.024 0.11454546
-0.060571428 -0.0034285714 0.091818184
-0.037714284 -0.021714285 0.023636363
-0.010285715 -0.014857143 0.037272729
-0.030857142 -0.030857142 0.037272729
0.0057142857 -0.010285715 0.01909091
-0.053714287 0.010285715 0.02590909
0.021714285 -0.0011428571 0.0054545454
0.012571429 0.014857143 0.00090909092
0.033142857 0.0057142857 0.035
-0.0011428571 0.017142856 0.055454545
0.026285714 0.0057142857 0.10545454
0.0057142857 -0.0057142857 -0.015
-0.058285713 -0.026285714 0.06909091
-0.062857144 -0.021714285 0.071363635
0.019428572 0.0057142857 0.012272728
-0.012571429 0.035428572 0.066818185
-0.067428574 0.0034285714 0.071363635
-0.0034285714 -0.014857143 -0.0081818178
-0.014857143 -0.033142857 0.10545454
0.0011428571 0.0057142857 0.05318182
-0.024 -0.0080000004 0.11909091
0.012571429 0.026285714 0.098636366
-0.0034285714 0.035428572 0.087272726
-0.058285713 -0.019428572 0.041818183
-0.056000002 -0.021714285 0.087272726
-0.030857142 0.021714285 0.021363636
-0.060571428 -0.010285715 0.037272729
0.0080000004 0.026285714 0.080454543
-0.021714285 0.019428572 0.11454546
-0.049142856 -0.026285714 0.091818184
-0.0057142857 0.019428572 0.048636362
-0.0057142857 -0.033142857 0.10318182
-0.0034285714 -0.0057142857 0.046363637
-0.062857144 -0.021714285 0.059999999
-0.049142856 -0.024 0.096363634
-0.0057142857 0.012571429 0.023636363
-0.026285714 0.039999999 0.082727276
0.0057142857 0.017142856 0.0031818182
-0.067428574 -0.0011428571 0.06909091
-0.026285714 -0.037714284 0.091818184
-0.065142855 -0.017142856 0.062272727
-0.060571428 -0.014857143 0.087272726
-0.024 -0.019428572 0.016818183
-0.060571428 0.0011428571 0.091818184
-0.037714284 0.035428572 0.048636362
-0.030857142 0.039999999 0.064545453
-0.058285713 0.012571429 0.094090909
-0.026285714 0.039999999 0.064545453
-0.037714284 -0.037714284 0.055454545
-0.012571429 0.0011428571 0.11909091
-0.030857142 -0.037714284 0.05318182
0.0080000004 -0.0011428571 0.07363636
-0.067428574 0.0080000004 0.055454545
-0.014857143 0.035428572 0.062272727
-0.039999999 0.012571429 0.014545455
-0.0057142857 0.010285715 0.02590909
-0.019428572 0.037714284 0.059999999
-0.042285714 -0.028571429 0.037272729
0.021714285 -0.0080000004 0.01909091
-0.024 0.039999999 0.075909093
-0.049142856 0.017142856 0.10318182
-0.0057142857 -0.012571429 0.044090908
-0.062857144 -0.012571429 0.041818183
-0.010285715 -0.028571429 0.11227272
-0.046857145 0.033142857 0.080454543
0.014857143 0.014857143 0.091818184
-0.049142856 -0.033142857 0.06909091
-0.042285714 0.017142856 0.10772727
0.056000002 -0.019428572 0.11681818
-0.014857143 0.030857142 0.10772727
0.037714284 -0.0011428571 0.039545454
0.0080000004 -0.0034285714 0.06909091
-0.039999999 -0.014857143 0.016818183
-0.033142857 -0.037714284 0.055454545
-0.030857142 0.0080000004 0.11681818
-0.065142855 -0.012571429 0.05318182
-0.056000002 -0.0057142857 0.098636366
0.0011428571 -0.014857143 0.055454545
-0.026285714 -0.012571429 0.0031818182
0.067428574 -0.010285715 0.096363634
0.014857143 -0.010285715 0.094090909
-0.062857144 -0.019428572 0.06909091
-0.046857145 0.026285714 0.037272729
0.033142857 0.019428572 0.11227272
-0.0034285714 0.033142857 0.075909093
-0.026285714 -0.021714285 0.11227272
-0.017142856 -0.037714284 0.094090909
-0.046857145 -0.033142857 0.078181818
