# .PCD v0.7 - Point Cloud Data file format
VERSION 0.7
FIELDS x y z
SIZE 4 4 4
TYPE F F F
COUNT 1 1 1
WIDTH 1230
HEIGHT 1
VIEWPOINT 0 0 0 1 0 0 0
POINTS 1230
DATA ascii
-0.0042808987 0.0020212121 -0.0080747129
0.0011986516 0.0029 -0.003621839
0.012157752 0.00096666667 -0.0034505746
-0.0080480892 0.0029 -0.003108046
-0.006164494 0.00026363635 0.0016873564
-0.014212584 -0.0029 -0.00071034476
0.013013932 0.0029 -0.00053908041
-0.0083905617 -8.7878791e-05 -0.0065333331
0.0099316854 0.0020212121 -0.0084172413
-0.0087330332 0.0029 -0.0060195401
-0.0097604487 0.00061515154 -0.0044781608
-0.013870112 0.0021969697 -0.0055057472
0.011301572 0.0020212121 -0.010472414
0.003595955 0.00026363635 0.0011735633
-0.011130337 0.0021969697 -0.0043068966
-0.0080480892 -8.7878791e-05 -0.0094448272
0.00068494381 0.0029 -0.0072183907
-0.01352764 0.0021969697 -0.004135632
0.0029110112 0.0029 -0.010814942
-0.0044521345 -8.7878791e-05 -0.0056770113
-0.0085617974 0.00061515154 -0.0065333331
-0.0099316854 0.0020212121 -0.0067045977
0.0027397752 0.00061515154 -0.0061908048
-0.0097604487 0.00061515154 -0.003621839
-0.0099316854 0.0029 -0.00036781601
0.0097604487 0.0029 -0.0092735635
-0.0025685392 0.0018454546 -0.0075609195
-0.011815281 0.00061515154 -0.0092735635
-0.01267146 0.0029 -0.010986207
-0.011644045 8.7878791e-05 -0.0084172413
-0.011130337 0.00026363635 -0.010643678
-0.0017123595 0.00096666667 -0.0010528734
-0.0097604487 -8.7878791e-05 -0.0072183907
0.003595955 0.00061515154 0.00014597709
0.004109663 0.0020212121 -0.0085885059
0.0071919099 0.0021969697 -2.528728e-05
-0.003767191 0.00079090911 -2.528728e-05
0.0039384267 -8.7878791e-05 -0.0085885059
-0.0078768535 0.0029 -0.0034505746
0.0094179772 0.0020212121 -0.010472414
0.013870112 -0.0029 -0.0010528734
0.013356404 0.0020212121 -0.0097873565
-0.0049658427 0.00061515154 -0.0072183907
-0.012500225 -0.00061515154 -2.528728e-05
0.010445393 0.0029 -0.0044781608
-0.011301572 0.00043939395 0.00048850582
-0.013185168 -0.0023727273 -0.003108046
0.011815281 0.0020212121 -0.003621839
-0.0053083142 0.00061515154 -0.0061908048
-0.0025685392 0.00061515154 -0.0089310342
0.0099316854 0.0020212121 -2.528728e-05
0.011815281 -0.0018454546 -0.00019655164
-0.0095892129 8.7878791e-05 -0.0067045977
-0.003767191 0.0020212121 -0.0084172413
-0.013698876 0.0029 -0.0049919542
-0.012500225 0.0029 -0.0075609195
0.0053083142 0.00061515154 -0.0037931034
-0.0015411235 -0.0029 -0.0024229884
-0.00017123595 0.00061515154 -0.0048206896
0.003082247 0.0029 -0.0017379309
-0.0092467414 -0.0020212121 -2.528728e-05
-0.0058220224 0.0029 -0.003621839
-0.0018835955 0.0021969697 -2.528728e-05
-0.00051370787 8.7878791e-05 -0.0072183907
-0.0010274157 0.0029 -0.00019655164
0.0044521345 -0.0029 -0.0013954022
0.011815281 0.00061515154 -0.0068758619
-0.0010274157 -0.0013181819 -0.0034505746
0.0099316854 0.0021969697 -2.528728e-05
0.0027397752 0.00061515154 -0.0087597705
-0.013356404 8.7878791e-05 -0.010129885
-0.0013698876 0.0029 -0.0073896553
0.0042808987 -8.7878791e-05 -0.0091022989
-0.008904269 0.0029 -0.0032793102
0.006506966 0.0029 -0.0013954022
-0.010274157 8.7878791e-05 -0.0056770113
0.012328988 0.0029 -0.0094448272
-0.014212584 0.00043939395 -0.0056770113
-0.011301572 0.0029 -0.0067045977
0.014041347 -0.001669697 -0.00019655164
-0.0025685392 0.00061515154 -0.0077321837
0.011986516 0.0029 -0.0080747129
0.0051370785 0.00061515154 -0.0075609195
-0.0099316854 -0.0029 -0.002251724
-0.0042808987 0.0029 -0.0061908048
-0.003082247 0.00061515154 -0.003621839
0.0044521345 0.00061515154 -0.0061908048
0.01438382 -0.0014939394 -0.003108046
-0.0080480892 0.0021969697 -0.0046494254
-0.0095892129 0.0021969697 -0.0084172413
0.01524 0.0014939394 -0.0008816091
0.0022260672 0.0029 -0.0084172413
0.0049658427 -0.0013181819 -2.528728e-05
0.006506966 0.00026363635 0.0018586208
-0.0022260672 0.0029 -0.0039643678
-0.006506966 0.0029 -0.0024229884
0.0047946065 -8.7878791e-05 -0.0082459766
0.01524 0.0011424243 -0.0013954022
0.003767191 0.00061515154 -0.0072183907
0.0044521345 0.00061515154 -0.0082459766
-0.006164494 0.0029 -0.0087597705
-0.003253483 0.00061515154 -0.010301149
-0.015068764 -8.7878791e-05 -0.0010528734
0.012500225 0.0020212121 -0.0063620689
-0.0027397752 -0.0018454546 -2.528728e-05
0.003767191 -0.00079090911 -2.528728e-05
0.0090755057 -0.0020212121 -0.003108046
0.0058220224 0.0018454546 -0.0072183907
-0.0053083142 -0.0025484848 -2.528728e-05
-0.010102921 8.7878791e-05 -0.0096160918
0.010274157 -0.0020212121 -0.003108046
0.0056507862 0.0018454546 -0.00036781601
-0.011301572 -0.0029 -2.528728e-05
0.010959101 0.00061515154 -0.0096160918
0.0051370785 0.0020212121 -0.0084172413
-0.0049658427 0.0021969697 -0.0063620689
0.0003424719 -0.0020212121 -0.0034505746
-0.0051370785 -0.0029 -0.0013954022
0.0095892129 0.0020212121 -2.528728e-05
0.0078768535 0.00061515154 -0.0077321837
-0.0056507862 0.00061515154 -0.0073896553
0.012500225 0.0029 -0.0049919542
0.013698876 0.0021969697 -2.528728e-05
0.013698876 0.0020212121 -0.0085885059
0.0085617974 0.0029 -0.0017379309
0.0039384267 -0.0013181819 -0.0034505746
0.0059932582 -0.0029 -0.00036781601
-0.003424719 0.00061515154 -0.010472414
0.0029110112 0.0029 -0.0012241378
-0.0051370785 0.0029 -0.0013954022
0.008904269 -0.00061515154 -0.0034505746
-0.014212584 -0.0029 -0.0019091953
-0.00068494381 0.00061515154 -0.0096160918
-0.0059932582 0.0029 -0.0073896553
-0.006849438 0.0021969697 -0.0039643678
0.011130337 0.0023727273 -2.528728e-05
-0.0054795505 0.00061515154 -2.528728e-05
-0.0070206737 0.0029 -0.0008816091
-0.0082193259 0.0029 -0.0089310342
0.0083905617 0.0020212121 -0.0096160918
-0.0010274157 0.0023727273 -0.011157472
-0.010445393 0.0029 -0.010986207
0.0058220224 -8.7878791e-05 -0.0055057472
0.0073631457 0.001669697 -2.528728e-05
-0.012842696 0.0029 -0.0039643678
0.0020548315 -0.0029 -0.00053908041
0.0058220224 0.0029 -0.0044781608
0.0063357302 0.0029 -0.0075609195
-0.003082247 0.0020212121 -0.0079034483
-0.010616628 0.00061515154 -0.0085885059
-0.011986516 8.7878791e-05 -0.0032793102
-0.0013698876 0.0020212121 -0.0048206896
0.010616628 0.0029 -0.002251724
-0.0077056177 -0.0029 -0.0027655172
-0.008904269 0.0027242424 -0.00019655164
0.0056507862 0.00043939395 -0.010472414
-0.006164494 0.0021969697 -0.0079034483
0.012500225 0.0023727273 -2.528728e-05
-0.008904269 8.7878791e-05 -0.0099586211
0.013185168 0.0029 -0.011157472
0.0022260672 0.0020212121 -0.0055057472
-0.0015411235 0.00026363635 0.0018586208
0.0056507862 0.0018454546 -0.0034505746
-0.0087330332 -0.0014939394 -2.528728e-05
0.0054795505 0.0020212121 -0.0087597705
0.0058220224 -0.0029 -0.0025942528
-0.0058220224 -0.0029 -0.0008816091
0.00051370787 -8.7878791e-05 -0.0056770113
0.0099316854 0.0018454546 -0.0075609195
0.010445393 0.00061515154 -0.0048206896
-0.006164494 8.7878791e-05 0.0020298851
-0.0053083142 0.0021969697 -0.0082459766
-0.012500225 0.0023727273 -0.011157472
0.0018835955 0.0029 -0.0049919542
0.0059932582 0.00061515154 -0.005848276
0.013870112 0.00061515154 -0.0084172413
-0.011815281 -0.00043939395 -2.528728e-05
0.0029110112 0.00061515154 -0.0084172413
-0.0046233707 0.0021969697 -0.0087597705
-0.011815281 0.0029 -0.0067045977
0.0090755057 0.00026363635 0.00048850582
-0.0058220224 0.0027242424 -0.011157472
-0.006164494 0.0029 -0.0010528734
0.0090755057 0.00061515154 0.0011735633
-0.0020548315 -8.7878791e-05 -0.0039643678
0.0092467414 0.0029 -0.010129885
0.0020548315 0.0029 -0.003621839
-0.015068764 -0.00026363635 -0.00071034476
-0.00085617974 0.0020212121 -0.0060195401
0.00017123595 0.0029 -0.00053908041
0.0090755057 8.7878791e-05 0.0025436783
-0.00085617974 0.00061515154 -0.0087597705
0.004109663 0.00061515154 -0.0068758619
0.0011986516 0.0013181819 -2.528728e-05
-0.006164494 -0.0029 -0.0020804596
0.010616628 0.0029 -0.0065333331
0.0082193259 0.0020212121 -0.010301149
-0.014212584 0.0018454546 -0.003108046
0.0010274157 0.00096666667 -0.0034505746
-0.0090755057 -8.7878791e-05 -0.0055057472
-0.0047946065 0.0021969697 -0.0084172413
0.0010274157 0.00061515154 -0.004135632
-0.011301572 0.0029 -0.0034505746
-0.0042808987 -8.7878791e-05 -0.0082459766
0.013185168 0.0029 -0.0094448272
0.010274157 -8.7878791e-05 -0.0051632184
0.006164494 0.0020212121 -0.0092735635
0.010445393 8.7878791e-05 -0.0060195401
-0.011301572 0.0018454546 -0.0073896553
-0.010102921 0.0029 -0.0013954022
-0.0085617974 -0.0029 -0.0008816091
-0.0049658427 0.0021969697 -0.0056770113
0.010616628 -0.0021969697 -0.00019655164
0.0073631457 0.0029 -0.011157472
0.010102921 -0.0020212121 -0.003108046
-0.006164494 0.00043939395 0.00031724147
-0.011815281 -0.0029 -0.002251724
0.014041347 0.00061515154 0.0022011495
-0.006164494 0.00026363635 0.00014597709
0.0044521345 -8.7878791e-05 -0.0051632184
0.0063357302 0.0029 -0.0056770113
0.0070206737 -0.0027242424 -2.528728e-05
0.0059932582 0.001669697 -0.0032793102
0.0049658427 0.0018454546 -0.0034505746
-0.0044521345 0.0029 -2.528728e-05
-0.0073631457 0.0021969697 -0.0099586211
0.013356404 0.0020212121 -0.0072183907
0.01524 -8.7878791e-05 -0.0015666666
0.013013932 0.00096666667 -0.0032793102
0.0083905617 0.0027242424 -0.011157472
0.0011986516 8.7878791e-05 -0.0082459766
-0.0075343819 8.7878791e-05 -0.0092735635
0.0059932582 0.0029 -0.0091022989
0.0063357302 0.0029 -0.0068758619
0.0066782022 0.0029 -0.0017379309
-0.013185168 -8.7878791e-05 -0.0067045977
0.012500225 0.0018454546 -0.0070471265
-0.012842696 0.0023727273 -0.00019655164
0.013698876 0.00043939395 0.0016873564
-0.011815281 8.7878791e-05 -0.0043068966
1.7347235e-18 0.0029 -0.0079034483
-0.0011986516 -8.7878791e-05 -2.528728e-05
0.0011986516 0.0029 -0.0025942528
0.0066782022 0.0014939394 -0.00036781601
-0.0042808987 0.00061515154 -0.010643678
0.0059932582 -0.001669697 -0.0032793102
-0.006506966 0.0029 -0.0053344825
-0.011301572 -0.0013181819 -0.0032793102
0.011472808 -8.7878791e-05 -0.005848276
-0.01352764 0.0020212121 -0.003621839
0.0095892129 8.7878791e-05 -0.0099586211
-0.008904269 0.0021969697 -0.010129885
0.0059932582 -0.0020212121 -0.003108046
-0.011815281 0.00061515154 -0.0096160918
0.01524 -8.7878791e-05 -0.0020804596
0.006164494 8.7878791e-05 -0.010129885
-0.003767191 0.0029 -0.0043068966
0.0080480892 0.00061515154 -0.0056770113
0.0042808987 0.00061515154 -0.0044781608
0.003253483 -0.0011424243 -2.528728e-05
-0.010616628 0.0021969697 -0.0044781608
-0.010274157 -8.7878791e-05 -0.0091022989
-0.0073631457 8.7878791e-05 -0.010301149
0.0083905617 0.0020212121 -0.0092735635
0.0075343819 0.0020212121 -0.0049919542
-0.0070206737 0.00061515154 -0.0085885059
0.0094179772 0.00061515154 -0.0070471265
0.0010274157 0.0029 -0.0065333331
-0.01267146 0.001669697 -0.00019655164
-0.013698876 0.00026363635 -0.010301149
-0.0073631457 -0.0021969697 -2.528728e-05
0.0051370785 0.00061515154 -0.0068758619
-0.0013698876 0.00061515154 -0.0039643678
-0.0071919099 -0.0013181819 -2.528728e-05
-0.0082193259 -0.0029 -0.0017379309
-0.0013698876 -0.0029 -0.0013954022
-0.011986516 0.00026363635 -0.0061908048
0.003595955 0.0020212121 -0.0061908048
0.00068494381 0.00061515154 -0.0073896553
0.0018835955 0.0029 -0.0055057472
0.0073631457 0.0029 -0.010129885
0.0078768535 8.7878791e-05 -0.003621839
0.0049658427 0.00061515154 -0.0055057472
0.01267146 0.0029 -0.0077321837
-0.012157752 0.0021969697 -0.010129885
0.011644045 -0.0029 -0.0025942528
0.010787865 0.0029 -0.0087597705
-0.003595955 -0.0014939394 -2.528728e-05
-0.0080480892 -0.00096666667 -2.528728e-05
0.011472808 -8.7878791e-05 -0.0067045977
0.01438382 0.00096666667 -0.0032793102
0.003595955 0.0029 -0.010643678
0.00051370787 -0.0029 -0.0025942528
-0.003767191 0.00061515154 -0.0084172413
-0.0046233707 -0.0029 -0.0027655172
-0.01524 0.0023727273 -0.00053908041
0.0042808987 -0.0029 -0.0012241378
-0.0003424719 0.0029 -0.004135632
0.0051370785 0.00061515154 -0.0056770113
0.0020548315 0.0029 -0.011157472
-0.0013698876 0.00061515154 -0.0087597705
0.0056507862 0.0020212121 -0.0067045977
0.010445393 -0.0014939394 -0.003108046
0.011986516 0.00061515154 -0.0070471265
-0.0023973032 -0.0029 -0.0015666666
0.0099316854 -8.7878791e-05 -0.0068758619
-0.0082193259 0.00061515154 -0.0065333331
0.011986516 0.0029 -0.011157472
0.0017123595 0.0020212121 -0.0039643678
-0.0023973032 0.00061515154 -0.0055057472
0.011472808 0.0029 -0.0051632184
0.0027397752 0.0025484848 -2.528728e-05
-0.01524 -0.0011424243 -0.0027655172
-0.0087330332 -0.0013181819 -0.0032793102
0.0097604487 -8.7878791e-05 -0.0092735635
-0.0071919099 0.0021969697 -0.004135632
-0.010445393 0.00079090911 -2.528728e-05
0.0097604487 -0.0018454546 -2.528728e-05
-0.010959101 -8.7878791e-05 -0.005848276
-0.0029110112 0.00061515154 -0.0079034483
0.0053083142 0.00061515154 -0.0070471265
0.003595955 8.7878791e-05 -0.010129885
-0.0015411235 -0.0029 -0.0029367816
-0.012500225 0.0021969697 -0.00019655164
1.7347235e-18 0.0014939394 -0.0034505746
-0.014726291 0.00079090911 -0.00019655164
-0.01524 -0.0011424243 -0.0024229884
0.0078768535 0.0029 -0.0048206896
0.012157752 0.0029 -0.0015666666
0.0066782022 0.0029 -0.0075609195
0.0051370785 -0.0029 -0.0010528734
-0.0077056177 0.00061515154 -0.0075609195
0.0020548315 0.0025484848 -0.011157472
-0.0083905617 -0.00043939395 -2.528728e-05
-0.0070206737 0.0020212121 -0.0077321837
0.0063357302 8.7878791e-05 -0.0056770113
0.0023973032 0.00043939395 -2.528728e-05
-0.013870112 0.00061515154 -0.005848276
0.01267146 0.0029 -0.0072183907
0.0046233707 -8.7878791e-05 -0.0084172413
-0.0087330332 0.0021969697 -0.0053344825
0.008904269 0.0029 -0.0012241378
0.015068764 -0.0025484848 -0.00019655164
0.006164494 0.0029 -0.002251724
-0.01267146 -0.0018454546 -2.528728e-05
0.0023973032 0.00079090911 -2.528728e-05
-0.013185168 0.0029 -0.0055057472
-0.00068494381 -8.7878791e-05 -0.0043068966
0.013698876 0.0029 -0.0039643678
-0.010959101 0.0020212121 -0.0065333331
0.0017123595 -0.0018454546 -0.0032793102
-0.003253483 -8.7878791e-05 -0.0080747129
-0.006506966 0.0021969697 -0.0085885059
-0.0027397752 -0.0029 -0.0008816091
0.011644045 8.7878791e-05 -0.0055057472
-0.003424719 0.00061515154 -0.0068758619
-0.01352764 -8.7878791e-05 -0.003621839
0.0059932582 -0.0029 -0.00071034476
-0.01438382 0.0029 -0.0013954022
0.0090755057 0.00079090911 -0.0034505746
-0.013185168 0.0020212121 -0.0080747129
-0.0075343819 0.0020212121 -0.0034505746
-0.006164494 -0.0011424243 -0.0034505746
-0.0027397752 0.0020212121 -0.0085885059
-0.0020548315 0.0014939394 -0.00036781601
-0.003253483 0.0020212121 -0.0061908048
-0.01524 0.00061515154 -0.0025942528
-0.0058220224 8.7878791e-05 -0.0092735635
0.0011986516 -0.0014939394 -2.528728e-05
0.003424719 0.0029 -0.0020804596
0.006506966 8.7878791e-05 -0.003621839
0.012328988 0.0029 -0.0020804596
-0.0059932582 0.00061515154 -0.0079034483
0.011130337 0.0029 -0.010301149
0.0063357302 0.0029 -0.0085885059
0.010787865 -8.7878791e-05 -0.0084172413
-0.013698876 8.7878791e-05 0.00048850582
0.003424719 -8.7878791e-05 -0.0065333331
0.0017123595 -0.0029 -0.0024229884
-0.010102921 -0.0029 -2.528728e-05
0.0059932582 -8.7878791e-05 -0.0082459766
-0.006506966 0.0021969697 -0.0082459766
0.003595955 0.00026363635 0.0025436783
-0.0077056177 -0.001669697 -2.528728e-05
-0.0080480892 -0.0023727273 -0.0032793102
-0.004109663 -0.0029 -0.002251724
0.0083905617 0.0020212121 -0.0039643678
-0.013870112 0.0027242424 -0.0099586211
0.0070206737 0.0029 -0.0060195401
0.0051370785 0.00061515154 -0.0053344825
-0.0090755057 0.0021969697 -0.0079034483
-0.0046233707 -0.00096666667 -0.0034505746
-0.010616628 0.00079090911 -2.528728e-05
-0.0015411235 0.0029 -0.0092735635
-0.015068764 -0.0027242424 -0.00053908041
-0.014212584 0.00026363635 -0.0097873565
0.0082193259 -0.0029 -0.0017379309
-0.0080480892 0.0029 -0.0080747129
-0.0087330332 0.0021969697 -0.0094448272
-0.003424719 0.001669697 -2.528728e-05
0.003082247 -0.0018454546 -0.0032793102
-0.00085617974 0.0029 -0.0065333331
-0.003595955 0.0021969697 -0.011157472
0.012157752 0.0025484848 -0.011157472
-0.0046233707 -8.7878791e-05 -0.0065333331
-0.0056507862 0.00061515154 -2.528728e-05
0.014041347 0.0023727273 -0.0051632184
0.0042808987 0.0029 -0.0055057472
0.0010274157 0.00061515154 -0.0068758619
0.0082193259 0.00061515154 -0.0051632184
0.0020548315 0.0029 -0.0055057472
-0.0020548315 0.0013181819 -0.0034505746
0.0015411235 8.7878791e-05 -0.010472414
0.010102921 -0.0027242424 -0.003108046
0.013698876 0.00026363635 0.00031724147
-0.0085617974 -0.00096666667 -0.0032793102
-0.0083905617 0.0020212121 -0.0065333331
-0.00068494381 0.00061515154 -2.528728e-05
-0.0099316854 0.0029 -0.010129885
0.011472808 8.7878791e-05 -0.0049919542
-0.003424719 0.00061515154 -0.0099586211
-0.008904269 -8.7878791e-05 -0.003621839
0.0015411235 -0.0025484848 -2.528728e-05
0.0073631457 0.00061515154 -0.0099586211
-0.011301572 -0.0021969697 -2.528728e-05
0.014041347 8.7878791e-05 -0.0055057472
-0.0073631457 0.0018454546 -0.0068758619
-0.006849438 0.0021969697 -0.0091022989
-0.003595955 -8.7878791e-05 -0.0089310342
-0.014212584 0.00043939395 0.0018586208
-0.00051370787 0.0027242424 -2.528728e-05
0.014726291 -0.0027242424 -0.0025942528
-0.0051370785 0.00061515154 -0.003621839
0.0073631457 -8.7878791e-05 -0.0085885059
-0.012842696 0.0029 -0.0048206896
-0.012157752 0.00043939395 -0.0048206896
0.0085617974 0.00061515154 -0.0053344825
0.0075343819 -0.0029 -0.0017379309
0.0022260672 -0.0029 -0.0029367816
-0.0015411235 0.00026363635 0.00065977022
-0.006849438 0.0025484848 -2.528728e-05
-0.013870112 8.7878791e-05 -0.0073896553
-0.0092467414 -0.00079090911 -2.528728e-05
0.011815281 -0.0025484848 -0.00019655164
0.011644045 8.7878791e-05 -0.0034505746
-0.006849438 -8.7878791e-05 -0.0051632184
0.0013698876 -8.7878791e-05 -0.0053344825
-0.003424719 0.0025484848 -0.011157472
-0.0051370785 0.00043939395 -2.528728e-05
-0.003424719 0.0020212121 -0.010472414
0.0070206737 0.0029 -0.0024229884
-0.0073631457 -0.0029 -0.00019655164
-0.00085617974 0.0029 -0.0099586211
-0.0082193259 0.00061515154 -0.0051632184
-0.0042808987 -0.0020212121 -0.0032793102
-0.0039384267 0.00061515154 -0.0053344825
0.0077056177 0.0020212121 -0.0096160918
-0.0094179772 -8.7878791e-05 -0.003621839
0.0013698876 8.7878791e-05 -0.0037931034
0.01352764 0.00026363635 -0.0065333331
-0.0082193259 -0.0029 -0.0010528734
0.0082193259 0.00061515154 -0.0082459766
0.0054795505 -0.0029 -0.0024229884
0.014041347 0.00061515154 -0.004135632
0.0011986516 8.7878791e-05 0.0027149427
-0.008904269 0.0020212121 -0.0065333331
-0.013356404 0.0029 -0.010643678
-0.01352764 -0.0021969697 -0.003108046
-0.0022260672 0.001669697 -2.528728e-05
-0.0066782022 0.0014939394 -0.0034505746
-0.0095892129 0.00061515154 -0.003621839
0.013356404 -0.00061515154 -0.003108046
0.003082247 8.7878791e-05 -0.0097873565
-0.0042808987 0.001669697 -0.0070471265
-0.014555056 -0.0029 -0.00036781601
-0.006506966 0.0029 -0.0060195401
0.0058220224 -0.0018454546 -0.0032793102
-0.0018835955 8.7878791e-05 -0.0048206896
0.003595955 8.7878791e-05 -0.0097873565
-0.0090755057 0.0029 -0.0079034483
-0.013870112 0.0025484848 -0.010814942
0.0063357302 0.0020212121 -0.0053344825
0.0075343819 -8.7878791e-05 -0.0072183907
0.00017123595 8.7878791e-05 -0.010643678
-0.011130337 0.00061515154 -0.0053344825
-0.003767191 0.0029 -0.0025942528
-0.0046233707 0.00061515154 -0.0065333331
-0.003767191 0.0029 -0.0051632184
0.0070206737 8.7878791e-05 -0.0043068966
-0.0082193259 -0.00061515154 -2.528728e-05
0.00085617974 0.00061515154 -0.0099586211
-0.0003424719 -0.001669697 -2.528728e-05
-0.0011986516 -8.7878791e-05 0.0025436783
-0.0023973032 8.7878791e-05 -0.010643678
0.0083905617 0.0020212121 -0.0065333331
-0.011644045 0.0021969697 -0.0061908048
-0.0087330332 -8.7878791e-05 0.0022011495
-0.011130337 -8.7878791e-05 -0.0065333331
-0.0073631457 0.00061515154 -0.0097873565
0.003595955 0.0029 -0.0065333331
0.003082247 -0.0029 -0.0012241378
-0.010102921 0.0020212121 -0.0077321837
0.0085617974 8.7878791e-05 -0.0077321837
-0.006506966 -0.0023727273 -2.528728e-05
-0.0070206737 0.0029 -0.00071034476
0.0022260672 0.0020212121 -0.0091022989
0.0025685392 0.0029 -0.0080747129
-0.015068764 -0.00043939395 -0.00053908041
0.0097604487 0.0018454546 -0.0072183907
-0.010445393 0.00061515154 -0.0079034483
-0.014212584 0.00061515154 -0.010301149
-0.0017123595 -8.7878791e-05 -0.0079034483
0.010959101 -0.0029 -0.002251724
-0.004109663 -8.7878791e-05 -2.528728e-05
0.0073631457 0.0029 -0.0013954022
0.0013698876 -8.7878791e-05 -0.0043068966
-0.00017123595 0.0029 -0.0087597705
-0.00068494381 -0.00043939395 -0.00019655164
-0.003767191 -0.0027242424 -2.528728e-05
-0.0054795505 0.0029 -0.0073896553
0.0075343819 8.7878791e-05 -0.0091022989
0.013356404 0.0029 -0.0049919542
-0.013698876 8.7878791e-05 -0.0075609195
-0.0071919099 0.0021969697 -0.0092735635
0.0066782022 0.0029 -0.00053908041
0.0047946065 0.0020212121 -0.0096160918
-0.0070206737 0.0021969697 -0.0085885059
-0.010959101 -8.7878791e-05 -0.0080747129
0.008904269 0.0021969697 -0.010986207
0.012500225 -0.0018454546 -0.00019655164
0.013870112 8.7878791e-05 -0.0043068966
-0.0073631457 0.0021969697 -0.010643678
0.0075343819 -0.0027242424 -0.003108046
0.01524 0.0021969697 -0.0024229884
0.0085617974 0.0018454546 -0.0072183907
0.0053083142 0.0020212121 -0.0046494254
0.0053083142 8.7878791e-05 -0.0099586211
-0.004109663 0.0020212121 -0.003621839
-0.0095892129 0.00061515154 -0.0079034483
-0.0044521345 0.00061515154 -0.0067045977
0.010274157 0.0029 -0.0008816091
0.0010274157 0.0029 -0.0082459766
-0.0071919099 0.0029 -0.010814942
-0.010787865 0.0021969697 -0.0080747129
0.00068494381 0.0029 -0.0037931034
-0.011644045 0.0029 -0.0091022989
-0.0080480892 0.0029 -0.0032793102
-0.0013698876 -8.7878791e-05 -0.0049919542
-0.0018835955 0.0029 -0.0094448272
-0.0022260672 0.00061515154 -0.0055057472
0.0087330332 0.0018454546 -0.0072183907
0.01524 -0.0020212121 -0.0015666666
0.0099316854 0.0029 -0.0072183907
0.0044521345 -0.0029 -0.00036781601
-0.01524 0.00043939395 -0.0010528734
0.003424719 0.0020212121 -0.010129885
0.0029110112 0.00026363635 -2.528728e-05
0.013870112 -0.0014939394 -0.003108046
-0.01524 0.0020212121 -0.003108046
0.0078768535 -0.0029 -0.002251724
0.010445393 0.0029 -0.0046494254
0.0042808987 -0.00026363635 -2.528728e-05
0.014041347 -0.001669697 -0.0029367816
-0.003767191 0.0020212121 -0.0056770113
-0.0097604487 -0.00026363635 -0.0034505746
0.011815281 0.0018454546 -0.0072183907
-0.0046233707 -0.00026363635 -2.528728e-05
0.0022260672 -8.7878791e-05 -0.0053344825
0.0013698876 0.00079090911 -0.00019655164
0.003595955 -8.7878791e-05 -0.0044781608
0.0087330332 0.0029 -0.0065333331
0.006849438 0.00061515154 -0.0063620689
-0.01524 0.00096666667 -0.00019655164
0.01524 0.0025484848 -0.002251724
0.010445393 -8.7878791e-05 -0.0068758619
-0.0056507862 0.00061515154 -0.005848276
-0.0094179772 0.00061515154 -0.0080747129
0.0097604487 8.7878791e-05 -0.0067045977
0.010616628 0.00061515154 -0.0072183907
0.0003424719 -0.0029 -0.0019091953
0.0025685392 0.00061515154 -0.0082459766
-0.011472808 8.7878791e-05 -0.003621839
0.0092467414 0.0020212121 -0.0091022989
0.0082193259 0.0029 -0.0055057472
0.0077056177 0.0027242424 -2.528728e-05
-0.0018835955 -8.7878791e-05 -0.0097873565
0.010616628 -0.00026363635 -0.0034505746
0.010787865 0.0023727273 -2.528728e-05
-0.011815281 0.00061515154 -0.0039643678
0.013185168 0.0020212121 -0.003621839
0.003424719 0.0020212121 -0.0075609195
-0.00017123595 -8.7878791e-05 -0.0070471265
-0.014041347 0.0020212121 -0.0032793102
-0.0080480892 0.0021969697 -0.0055057472
0.010787865 0.0020212121 -2.528728e-05
0.0011986516 0.00061515154 -0.0079034483
0.014212584 0.00079090911 -0.0032793102
-0.003767191 0.0020212121 -0.010643678
-0.008904269 0.00061515154 -0.0099586211
0.010274157 -8.7878791e-05 -0.0048206896
0.010445393 0.0011424243 -2.528728e-05
0.003253483 0.0029 -0.0017379309
0.0010274157 0.00061515154 0.001516092
0.0075343819 0.0027242424 -0.011157472
-0.010274157 0.0020212121 -0.0065333331
0.0092467414 0.0029 -0.0053344825
-0.0017123595 8.7878791e-05 -0.0048206896
0.0042808987 0.0020212121 -0.0056770113
0.01524 0.00061515154 -0.0017379309
0.014041347 0.0023727273 -0.0048206896
-0.0085617974 0.00061515154 -0.0044781608
0.00051370787 -8.7878791e-05 -0.0094448272
0.0087330332 0.00026363635 -0.010472414
0.00017123595 0.0029 -0.0056770113
0.0082193259 0.00061515154 -0.0087597705
-0.0066782022 0.00061515154 -0.0070471265
-0.0018835955 8.7878791e-05 -0.004135632
0.0017123595 0.0025484848 -0.011157472
0.010102921 0.0029 -0.0067045977
0.0023973032 -0.0029 -0.003108046
-0.0094179772 0.0018454546 -0.0068758619
0.0049658427 0.001669697 -0.0032793102
-0.003253483 0.00026363635 -2.528728e-05
-0.011472808 0.0011424243 -0.0034505746
-0.015068764 0.0018454546 -0.003108046
0.006506966 -0.0029 -0.0027655172
-0.0087330332 0.0021969697 -0.0091022989
-0.010274157 0.0029 -0.010301149
0.0077056177 8.7878791e-05 -0.0056770113
-0.006849438 0.0023727273 -0.011157472
0.011472808 0.0021969697 -0.010814942
-0.0082193259 -8.7878791e-05 -0.003621839
-0.008904269 0.0021969697 -0.0084172413
0.0025685392 0.0029 -0.0075609195
0.01267146 0.0018454546 -0.0073896553
0.0046233707 0.00061515154 -0.0094448272
0.0080480892 0.00061515154 -0.0067045977
-0.010616628 -0.0013181819 -0.003108046
0.0085617974 0.0029 -0.0077321837
0.010616628 0.0025484848 -0.011157472
0.010274157 0.00061515154 -0.0061908048
-0.0042808987 -8.7878791e-05 -0.0039643678
0.0011986516 0.0020212121 -0.010301149
0.010616628 0.0021969697 -2.528728e-05
-0.006506966 -0.00096666667 -2.528728e-05
0.0042808987 0.0020212121 -0.0067045977
0.0017123595 0.0029 -2.528728e-05
0.01524 -0.00026363635 -0.0012241378
-0.010959101 0.0029 -0.0089310342
0.0090755057 0.0029 -0.0080747129
0.003253483 -8.7878791e-05 -0.0053344825
-0.0056507862 0.0018454546 -0.0075609195
-0.0017123595 8.7878791e-05 -0.0091022989
0.0090755057 -0.00096666667 -2.528728e-05
-0.004109663 0.0020212121 -0.0060195401
-0.012500225 -0.0018454546 -0.0032793102
0.01524 -0.00026363635 -0.0019091953
-0.0047946065 0.0029 -0.0070471265
-0.0003424719 8.7878791e-05 -0.0091022989
0.0022260672 0.0029 -0.0015666666
0.0087330332 0.0029 -0.0017379309
-0.00017123595 8.7878791e-05 -0.010472414
0.0049658427 0.00061515154 -0.0068758619
-0.010274157 -0.0014939394 -2.528728e-05
-0.011644045 0.00026363635 0.0030574715
-0.00017123595 0.0025484848 -2.528728e-05
-0.008904269 0.0021969697 -0.0061908048
0.0070206737 0.00043939395 -2.528728e-05
-0.0011986516 0.0025484848 -0.00019655164
-0.006164494 0.0029 -0.0048206896
-0.0023973032 0.0029 -0.0077321837
0.00051370787 0.0011424243 -2.528728e-05
-0.0029110112 -8.7878791e-05 -0.0046494254
-0.0083905617 -0.0014939394 -0.0032793102
0.01524 -8.7878791e-05 -0.002251724
0.0058220224 -0.0021969697 -0.003108046
0.011815281 -0.0029 -0.0019091953
-0.014212584 8.7878791e-05 -0.0044781608
0.0023973032 -0.0021969697 -0.0032793102
-0.010616628 8.7878791e-05 -0.010301149
-0.010445393 0.0029 -0.005848276
-0.0015411235 0.0020212121 -0.0094448272
-0.010445393 0.0029 -0.00071034476
-0.0070206737 0.0029 -0.0032793102
0.012328988 0.00061515154 -0.0080747129
0.0025685392 -0.00061515154 -0.0034505746
0.0087330332 -0.0029 -0.0008816091
0.003424719 0.0018454546 -0.0068758619
-0.006506966 0.00026363635 0.0025436783
0.014041347 0.00061515154 0.001516092
-0.0097604487 0.0021969697 -2.528728e-05
0.006164494 0.0014939394 -0.0034505746
0.012157752 0.0029 -2.528728e-05
-0.0058220224 0.00061515154 -0.0044781608
0.0049658427 -0.0018454546 -0.0032793102
0.0003424719 0.001669697 -2.528728e-05
0.0056507862 0.0029 -0.0079034483
0.0018835955 -0.00026363635 -0.0034505746
-0.0071919099 0.0029 -0.0099586211
0.013870112 -0.0025484848 -0.0029367816
0.010787865 0.0029 -0.0046494254
0.013698876 0.0029 -0.0046494254
0.0029110112 -8.7878791e-05 -0.0049919542
-0.013013932 0.0021969697 -0.0056770113
0.014897527 0.0018454546 -2.528728e-05
-0.0003424719 -0.0029 -0.00053908041
0.006164494 -8.7878791e-05 -0.0085885059
0.0013698876 0.00061515154 -0.0048206896
0.01524 -0.0018454546 -0.0010528734
-0.0053083142 0.0021969697 -0.003621839
-0.010102921 -8.7878791e-05 -0.0084172413
0.0094179772 0.00079090911 -2.528728e-05
-0.0046233707 0.0025484848 -2.528728e-05
0.00068494381 0.0029 -0.0019091953
0.010959101 8.7878791e-05 -0.010301149
0.0095892129 0.0029 -0.0092735635
0.0075343819 0.0018454546 -0.0067045977
0.0015411235 0.00043939395 0.00048850582
-0.0042808987 0.0020212121 -0.010643678
-0.013013932 -0.00026363635 -2.528728e-05
-0.013185168 -0.0029 -0.0027655172
0.004109663 0.0029 -0.00019655164
0.012328988 0.0018454546 -0.0068758619
0.0051370785 0.0020212121 -0.0077321837
0.0085617974 0.0029 -0.0091022989
0.0020548315 -0.00043939395 -0.0032793102
-0.0071919099 -0.0013181819 -0.0032793102
-0.006506966 0.00061515154 -0.0067045977
-0.010274157 8.7878791e-05 -0.0085885059
-0.0051370785 0.0029 -0.0051632184
-0.0010274157 0.00043939395 0.0027149427
-0.0011986516 8.7878791e-05 0.00014597709
-0.0017123595 0.0029 -0.0025942528
0.0015411235 0.00061515154 -0.005848276
-0.003253483 0.00061515154 -0.0087597705
-0.004109663 0.0013181819 -2.528728e-05
0.0010274157 0.0029 -0.010301149
0.0029110112 -8.7878791e-05 -0.0051632184
-0.011815281 0.0029 -0.0072183907
-0.011472808 -0.0029 -0.0015666666
0.011472808 0.0029 -0.0044781608
0.003767191 0.00061515154 -0.0063620689
-0.0011986516 0.0029 -0.0032793102
-0.0078768535 -0.0025484848 -2.528728e-05
0.0075343819 -0.0021969697 -2.528728e-05
-0.0029110112 -8.7878791e-05 -0.0072183907
-0.003082247 0.0029 -0.0027655172
-0.011130337 0.0029 -0.0075609195
-0.006506966 0.0021969697 -0.0084172413
-0.012157752 0.00026363635 -0.005848276
0.0071919099 -0.0029 -0.00071034476
-0.013870112 8.7878791e-05 -0.0037931034
0.003595955 0.00061515154 -0.0099586211
-0.010787865 0.0029 -0.003108046
-0.0077056177 0.0020212121 -0.0034505746
-0.0027397752 0.0020212121 -0.0055057472
-0.010102921 0.00061515154 -0.0067045977
-0.0017123595 0.0018454546 -0.00053908041
-0.003767191 8.7878791e-05 -0.0080747129
0.013013932 0.0020212121 -0.0085885059
-0.0066782022 0.0029 -0.010643678
0.013013932 0.0020212121 -0.0087597705
-0.006849438 -0.00079090911 -2.528728e-05
-0.0051370785 0.0021969697 -0.0089310342
0.0066782022 0.0011424243 -0.0034505746
-0.0070206737 -0.0013181819 -0.0032793102
-0.0018835955 -8.7878791e-05 -0.0092735635
-0.011301572 -0.00079090911 -2.528728e-05
0.011986516 -0.0029 -0.0017379309
-0.013870112 0.0025484848 -0.0072183907
0.00085617974 0.00061515154 -0.0070471265
-0.013870112 0.00026363635 0.00014597709
-0.003767191 0.0029 -0.0082459766
-0.0013698876 0.0029 -0.0092735635
0.0054795505 0.0029 -0.00053908041
-0.0042808987 0.00061515154 -0.0061908048
0.015068764 -0.0027242424 -0.00019655164
0.00051370787 0.0020212121 -0.010301149
-0.011644045 0.00061515154 -0.0068758619
-0.0059932582 0.0029 -0.0080747129
0.003767191 0.00061515154 -0.0067045977
0.014041347 0.00043939395 0.0020298851
-0.0094179772 0.00079090911 -2.528728e-05
0.010445393 0.0029 -0.010986207
0.0017123595 0.0029 -0.0061908048
-0.012842696 0.00096666667 -2.528728e-05
0.0083905617 0.0029 -0.010129885
-0.0063357302 0.00061515154 -0.0063620689
0.003082247 0.0029 -0.0067045977
-0.014212584 0.00026363635 0.0016873564
-0.0023973032 0.0029 -0.0085885059
-0.00051370787 0.0011424243 -0.0034505746
-0.0044521345 0.0029 -0.0065333331
-0.0049658427 0.0029 -0.0039643678
-0.011130337 0.00043939395 -0.010301149
-0.003082247 0.0020212121 -0.0084172413
-0.01438382 -0.0029 -0.003108046
-0.010274157 0.00043939395 -2.528728e-05
-0.006506966 -0.00079090911 -0.0034505746
0.003253483 0.0029 -0.0085885059
-0.012157752 0.0013181819 -0.00019655164
-0.0044521345 8.7878791e-05 -0.0044781608
-0.0054795505 0.0021969697 -0.0089310342
-0.0010274157 0.0020212121 -0.010472414
0.0039384267 0.0029 -0.0077321837
-0.0087330332 0.00026363635 0.0028862071
-0.011301572 0.0021969697 -0.004135632
0.0017123595 -0.0029 -0.0013954022
-0.0085617974 0.00026363635 0.0016873564
0.006506966 0.0020212121 -0.010814942
-0.013356404 0.0029 -0.010301149
-0.0051370785 0.0029 -0.0096160918
0.011130337 0.00061515154 -0.0077321837
0.0029110112 8.7878791e-05 -0.003621839
-0.015068764 -8.7878791e-05 -0.0019091953
-0.0023973032 0.00061515154 -0.0079034483
-0.00085617974 -0.0029 -0.0027655172
0.004109663 0.0011424243 -0.0034505746
0.0011986516 0.0029 -0.0044781608
0.011644045 8.7878791e-05 0.00065977022
0.006506966 0.0029 -0.002251724
0.011644045 0.0029 -0.0070471265
0.0094179772 0.0027242424 -2.528728e-05
0.0097604487 -0.00079090911 -2.528728e-05
0.003595955 0.0020212121 -0.0046494254
-0.006164494 0.0029 -0.0099586211
-0.0049658427 0.0018454546 -0.0070471265
-0.003082247 0.0029 -0.0077321837
0.0099316854 0.0020212121 -0.0060195401
0.014555056 -0.0027242424 -0.0027655172
-0.0071919099 0.0029 -0.0027655172
-0.0083905617 -8.7878791e-05 -0.0048206896
-0.0097604487 0.0020212121 -2.528728e-05
-0.006164494 0.00026363635 0.0011735633
0.0011986516 0.0027242424 -0.00036781601
-0.0071919099 -0.001669697 -0.0032793102
-0.011644045 0.00061515154 -0.0089310342
0.0025685392 -0.0029 -0.0008816091
-0.012500225 0.0029 -0.00053908041
-0.011472808 0.00096666667 -0.0034505746
0.0080480892 -8.7878791e-05 -0.0092735635
0.0051370785 0.0029 -0.0060195401
0.0013698876 -0.0029 -0.0012241378
0.011986516 0.0011424243 -0.0034505746
-0.0003424719 -8.7878791e-05 -0.0060195401
0.0027397752 0.0029 -0.010472414
0.014041347 0.00061515154 -0.0073896553
0.0049658427 0.0029 -0.0017379309
0.0063357302 -0.0013181819 -0.0034505746
-0.0018835955 -0.0029 -0.0024229884
0.006164494 -0.00079090911 -0.00036781601
-0.0097604487 0.0029 -0.0094448272
0.010445393 0.0020212121 -0.0080747129
0.0017123595 0.0029 -0.0029367816
0.0018835955 0.00061515154 -0.0044781608
0.0017123595 0.0020212121 -0.0075609195
-0.0087330332 0.0021969697 -0.0096160918
-0.003424719 0.0029 -0.0020804596
-0.004109663 -0.00079090911 -0.0034505746
0.0085617974 0.00043939395 0.0013448277
0.0042808987 0.0029 -0.0044781608
0.01524 0.0011424243 -0.002251724
0.0029110112 -8.7878791e-05 -0.0094448272
0.0082193259 0.0025484848 -2.528728e-05
-0.00068494381 0.0020212121 -0.0087597705
-0.0029110112 0.00061515154 -0.0073896553
-0.0018835955 0.001669697 -0.00071034476
0.003082247 0.0020212121 -0.0077321837
0.010102921 0.0029 -0.010472414
-0.004109663 8.7878791e-05 -0.0051632184
-0.0023973032 -8.7878791e-05 -0.0094448272
-0.0094179772 0.00061515154 -0.0091022989
0.012328988 0.0029 -0.010643678
-0.004109663 8.7878791e-05 0.00014597709
0.0010274157 0.0020212121 -0.0097873565
0.014726291 0.0023727273 -0.003108046
-0.011644045 0.00061515154 -0.010129885
0.014726291 0.0027242424 -0.0019091953
-0.0025685392 0.0029 -0.0099586211
-0.011301572 -0.00096666667 -2.528728e-05
-0.013356404 0.0021969697 -0.0087597705
-0.014897527 0.0027242424 -0.003108046
-0.014212584 0.00043939395 -0.0099586211
-0.010274157 0.0021969697 -0.0037931034
0.013698876 -0.0029 -0.0020804596
0.0090755057 0.0020212121 -0.0053344825
-0.011986516 0.00026363635 -0.0091022989
-0.0015411235 0.0029 -2.528728e-05
0.003253483 -0.00026363635 -0.0034505746
0.0082193259 0.00026363635 -2.528728e-05
0.011301572 -8.7878791e-05 -0.005848276
0.0042808987 0.00061515154 -0.004135632
-0.0077056177 0.00061515154 -0.0092735635
-0.0042808987 0.00061515154 -0.0097873565
0.011301572 0.0023727273 -2.528728e-05
-0.0097604487 0.0021969697 -0.0060195401
0.0071919099 0.0029 -0.00036781601
0.010787865 0.0029 -0.004135632
0.003424719 8.7878791e-05 -2.528728e-05
-0.0054795505 0.0029 -0.0075609195
0.0010274157 0.0029 -0.0048206896
-0.012500225 0.0021969697 -0.0096160918
0.013698876 0.00043939395 -0.0065333331
0.0049658427 -0.0029 -0.0020804596
-0.014212584 -8.7878791e-05 -0.0032793102
0.012842696 0.00026363635 -2.528728e-05
-0.0095892129 0.00061515154 -0.0099586211
-0.0073631457 0.0029 -0.0089310342
-0.003253483 8.7878791e-05 -0.010472414
0.01352764 -8.7878791e-05 -0.0032793102
0.010616628 0.0029 -0.0013954022
0.0018835955 8.7878791e-05 -0.010643678
0.003595955 0.0020212121 -0.0037931034
-0.011986516 0.0029 -0.0024229884
-0.012500225 -0.0011424243 -0.0032793102
0.0070206737 0.0029 -0.0080747129
0.00051370787 0.00061515154 -0.0053344825
-0.0003424719 0.0029 -0.0082459766
-0.0018835955 0.0029 -0.0070471265
0.003253483 0.0021969697 -2.528728e-05
-0.0077056177 0.00061515154 -0.0091022989
-0.003082247 -8.7878791e-05 -0.0053344825
0.011644045 0.0029 -0.0017379309
0.014212584 0.00043939395 -0.0087597705
1.7347235e-18 0.0020212121 -0.004135632
-0.0056507862 0.00061515154 -0.0053344825
-0.00068494381 0.00061515154 -0.0065333331
-0.006164494 -8.7878791e-05 -0.0072183907
0.011301572 8.7878791e-05 0.00065977022
0.010787865 0.0029 -0.0063620689
-0.0025685392 -8.7878791e-05 -0.0056770113
0.0051370785 0.00061515154 -0.0055057472
-0.011130337 -8.7878791e-05 -0.010129885
0.0049658427 0.0014939394 -2.528728e-05
0.0077056177 0.0020212121 -0.0060195401
-0.0051370785 -0.0029 -0.00019655164
-0.010102921 0.00061515154 -0.010472414
-0.0097604487 0.00061515154 -0.0061908048
0.00068494381 0.0029 -0.003108046
-0.014212584 0.0029 -0.00071034476
0.0022260672 -0.0029 -0.00053908041
0.0054795505 0.00061515154 -0.0063620689
-0.0095892129 0.0029 -0.0089310342
0.011130337 0.0020212121 -0.010129885
-0.0042808987 -8.7878791e-05 -0.0096160918
-0.012328988 0.00043939395 -0.0056770113
-0.0049658427 0.00079090911 -0.0034505746
-0.014212584 0.00026363635 -0.0075609195
-0.010787865 -0.0029 -0.0010528734
0.0080480892 0.00061515154 -0.0039643678
-0.0039384267 -8.7878791e-05 0.0022011495
-0.0071919099 0.0021969697 -0.005848276
0.0051370785 0.0029 -0.010986207
-0.0020548315 -8.7878791e-05 -0.0085885059
-0.0054795505 -8.7878791e-05 -0.0089310342
-0.011301572 0.00061515154 -0.0061908048
0.010787865 0.0020212121 -0.0053344825
0.011130337 -0.0011424243 -2.528728e-05
0.003595955 0.0029 -0.0096160918
-0.0046233707 0.00061515154 -0.0077321837
0.0003424719 -0.0023727273 -2.528728e-05
0.01524 -0.0013181819 -0.0027655172
-0.0066782022 0.0029 -2.528728e-05
-0.0073631457 0.0021969697 -0.0055057472
0.0025685392 8.7878791e-05 -0.0072183907
0.014555056 -0.0013181819 -0.003108046
-0.006849438 -0.00026363635 -0.00019655164
0.011986516 0.0029 -0.0085885059
-0.0073631457 -0.0029 -0.0008816091
-0.0054795505 8.7878791e-05 -0.0094448272
-0.010787865 0.00026363635 -0.010472414
0.003424719 0.0029 -0.0091022989
-0.0054795505 0.00061515154 -0.0046494254
-0.0003424719 0.0020212121 -0.0060195401
-0.0047946065 0.0021969697 -0.0097873565
-0.01524 0.00061515154 -0.0013954022
-0.0022260672 0.00026363635 -0.010814942
0.013013932 0.0029 -0.005848276
0.006506966 0.0020212121 -0.0079034483
0.014041347 0.00061515154 -0.0039643678
0.006506966 0.00043939395 0.0023724139
0.003595955 -8.7878791e-05 -0.0091022989
0.0013698876 -8.7878791e-05 -0.0056770113
-0.011815281 0.0023727273 -0.011157472
0.0029110112 -0.00061515154 -0.0034505746
-0.0047946065 8.7878791e-05 -0.0077321837
-0.0071919099 -8.7878791e-05 -0.0085885059
-0.0029110112 0.0020212121 -0.004135632
-0.0056507862 0.00061515154 -0.0089310342
-0.0077056177 0.0029 -0.010643678
0.014041347 0.0029 -0.0019091953
-0.004109663 0.00061515154 -0.010472414
0.011130337 0.0020212121 -0.0037931034
-0.0018835955 0.0023727273 -0.011157472
-0.00017123595 0.0020212121 -0.0094448272
-0.003082247 -0.0027242424 -0.0032793102
0.0058220224 0.0029 -0.011157472
-0.0082193259 0.0029 -0.011157472
-0.008904269 0.00061515154 -0.0075609195
0.003767191 0.00061515154 -0.0053344825
0.00085617974 8.7878791e-05 -0.0061908048
0.01524 -0.00026363635 -0.002251724
0.008904269 -0.0013181819 -2.528728e-05
-0.01352764 0.0021969697 -0.0048206896
0.012842696 0.0029 -0.010986207
-0.0063357302 0.00043939395 -0.010643678
0.0025685392 0.0029 -0.0067045977
-0.013698876 0.0021969697 -0.0060195401
-0.0023973032 8.7878791e-05 -0.005848276
0.0023973032 8.7878791e-05 -0.0089310342
0.0017123595 0.00061515154 -0.003621839
-0.0044521345 0.0029 -0.0097873565
0.008904269 -8.7878791e-05 -0.0068758619
-0.00051370787 0.0029 -0.011157472
0.01524 0.0013181819 -0.0008816091
-0.0013698876 0.0020212121 -0.0084172413
-0.0018835955 -0.00096666667 -0.00019655164
-0.0095892129 0.00061515154 -0.0091022989
0.010787865 0.00061515154 -0.003621839
0.0095892129 0.0029 -0.0067045977
0.00017123595 0.0029 -0.0015666666
0.0010274157 0.00061515154 0.0016873564
0.014897527 0.0027242424 -0.0017379309
0.0027397752 8.7878791e-05 -0.0092735635
0.0042808987 0.0029 -0.0048206896
-0.0011986516 -0.00079090911 -2.528728e-05
-0.0039384267 0.0020212121 -0.010472414
-0.0025685392 0.00061515154 -0.0048206896
0.013185168 0.0029 -0.0070471265
0.003424719 -0.0023727273 -0.0032793102
0.0049658427 0.0020212121 -0.0097873565
-0.0095892129 0.0021969697 -0.0080747129
0.01524 -0.00026363635 -0.0015666666
-0.0018835955 -8.7878791e-05 -0.0080747129
0.011986516 0.00026363635 -0.0032793102
0.0027397752 0.0029 -0.0070471265
-0.011472808 0.00061515154 -0.003621839
-0.0049658427 0.0021969697 -0.0046494254
0.0025685392 -8.7878791e-05 -0.0063620689
-0.003082247 0.0025484848 -0.011157472
0.00085617974 0.00061515154 -0.0056770113
0.0013698876 -0.00043939395 -0.0034505746
0.011986516 0.0020212121 -0.0089310342
-0.0018835955 0.0029 -0.010814942
-0.010959101 -0.001669697 -0.0032793102
-0.01524 -0.0020212121 -0.0027655172
0.0078768535 0.0020212121 -0.0061908048
0.0082193259 0.00061515154 -0.0096160918
-0.0066782022 0.0018454546 -0.0068758619
-0.010274157 -0.0029 -0.00036781601
0.0056507862 -0.0013181819 -0.0034505746
0.0058220224 0.0018454546 -0.0070471265
0.010274157 -0.0021969697 -0.003108046
-0.0071919099 8.7878791e-05 -0.010643678
0.006506966 0.00026363635 0.0023724139
0.01524 0.00079090911 -0.002251724
-0.0056507862 -0.0023727273 -0.0032793102
-0.0010274157 8.7878791e-05 -0.0044781608
0.013698876 0.0029 -0.0029367816
-0.0099316854 -8.7878791e-05 -0.0079034483
-0.0017123595 -0.001669697 -2.528728e-05
0.0066782022 0.00096666667 -0.0032793102
-0.0082193259 0.0021969697 -2.528728e-05
0.0017123595 0.00061515154 -0.0063620689
0.00068494381 0.0020212121 -0.010814942
0.0020548315 0.00061515154 -0.0061908048
0.0017123595 0.0029 -0.0051632184
-0.004109663 -0.00026363635 -0.0034505746
-0.0083905617 0.0029 -0.004135632
-0.014041347 0.0023727273 -0.0068758619
0.0039384267 -8.7878791e-05 -0.0034505746
0.0013698876 0.00061515154 -0.0055057472
-0.0083905617 0.0029 -0.00071034476
-0.013013932 -0.0029 -0.00053908041
0.0056507862 -0.0029 -0.003108046
-0.01524 0.0014939394 -0.003108046
-0.0099316854 -8.7878791e-05 -0.0082459766
0.0058220224 -0.0023727273 -0.003108046
0.0058220224 0.0020212121 -0.0082459766
-0.0077056177 -0.0029 -0.002251724
0.0011986516 0.00061515154 -0.0077321837
-0.011644045 -0.0029 -0.0029367816
-0.011130337 -8.7878791e-05 -0.0048206896
-0.0022260672 -0.0029 -0.0029367816
-0.01524 -0.00061515154 -0.0029367816
0.0047946065 0.00061515154 -0.003621839
-0.011301572 0.0029 -0.0092735635
0.0099316854 0.00061515154 -0.0039643678
0.01524 0.0021969697 -0.00053908041
-0.0082193259 0.00061515154 -0.0084172413
0.01524 0.00079090911 -0.0008816091
0.0094179772 0.0020212121 -0.0085885059
-0.003595955 0.00061515154 -0.0053344825
0.0054795505 0.0029 -0.0061908048
0.0044521345 0.00061515154 -0.004135632
0.01524 -0.00043939395 -0.0019091953
0.010616628 -8.7878791e-05 -0.0037931034
-0.0090755057 8.7878791e-05 -0.0092735635
0.006506966 -8.7878791e-05 -0.005848276
0.00085617974 -0.00061515154 -0.00019655164
-0.011815281 0.0021969697 -0.010301149
-0.0022260672 8.7878791e-05 -0.010301149
-0.0051370785 0.0029 -2.528728e-05
0.0066782022 0.0029 -0.0070471265
0.006849438 0.0029 -0.0060195401
-0.011986516 0.0029 -0.0084172413
0.0020548315 8.7878791e-05 -2.528728e-05
-0.0046233707 -8.7878791e-05 -0.003621839
0.010102921 0.0011424243 -0.0034505746
0.00051370787 0.00061515154 -0.0063620689
0.00051370787 0.0029 -0.0096160918
0.011301572 0.00079090911 -2.528728e-05
0.004109663 0.0020212121 -0.0099586211
-0.003082247 -0.0021969697 -0.0032793102
-0.0042808987 -0.0018454546 -0.0032793102
0.010787865 0.0018454546 -0.0067045977
-0.0039384267 -0.0021969697 -0.00019655164
0.006506966 0.00043939395 0.0028862071
-0.0054795505 0.0029 -0.0029367816
-0.0095892129 0.00061515154 -0.010472414
-0.0073631457 -0.0013181819 -0.0032793102
-0.0047946065 0.0029 -0.0012241378
-0.010445393 0.0021969697 -0.0089310342
0.0094179772 0.0029 -0.0092735635
-0.003253483 -0.001669697 -2.528728e-05
-0.00085617974 0.00061515154 -0.0039643678
-0.0020548315 8.7878791e-05 -0.0099586211
-0.0025685392 0.0020212121 -0.0085885059
-0.0066782022 0.0021969697 -0.010814942
0.006849438 0.0029 -0.0027655172
-0.003595955 8.7878791e-05 -0.0099586211
0.012328988 -0.00026363635 -2.528728e-05
0.006849438 0.0011424243 -0.0034505746
0.012328988 0.0029 -0.0073896553
0.010274157 0.0021969697 -0.010986207
-0.006849438 0.00026363635 -0.010643678
-0.011644045 0.0018454546 -0.0072183907
-0.006506966 -0.0029 -0.0027655172
0.006164494 0.0029 -0.0044781608
-0.003767191 0.00061515154 -0.0067045977
-0.0070206737 0.0029 -0.0051632184
-0.0066782022 -0.00061515154 -0.0034505746
0.012157752 0.00043939395 -0.0034505746
0.0003424719 0.00061515154 -0.010129885
0.0020548315 0.00061515154 -0.0048206896
0.00017123595 0.00096666667 -2.528728e-05
-0.011130337 -0.0023727273 -0.003108046
-0.0018835955 -0.0029 -0.0015666666
-0.012157752 0.0029 -0.0017379309
0.010959101 0.0027242424 -0.011157472
0.013870112 0.0021969697 -0.0049919542
-0.0075343819 0.0029 -0.0079034483
0.014212584 0.00061515154 -0.0061908048
0.010959101 0.0023727273 -0.011157472
0.006506966 0.0029 -0.010472414
0.0011986516 0.00061515154 -0.0048206896
0.0029110112 -8.7878791e-05 -0.0070471265
-0.0099316854 0.00061515154 -0.0084172413
0.0039384267 0.0029 -0.010472414
-0.0020548315 0.00061515154 -0.010301149
0.003424719 0.00061515154 -0.0060195401
0.01524 -8.7878791e-05 -0.0012241378
0.0075343819 0.0020212121 -0.0063620689
-0.010959101 -0.0020212121 -0.0032793102
-0.0070206737 0.0029 -0.0020804596
-0.003595955 0.0020212121 -0.010472414
0.0063357302 8.7878791e-05 0.00031724147
-0.004109663 0.00079090911 -2.528728e-05
0.012157752 0.0029 -0.010472414
-0.0092467414 -0.00026363635 -2.528728e-05
0.0071919099 -0.0021969697 -0.003108046
0.0097604487 0.00061515154 -0.0094448272
0.0085617974 0.0020212121 -0.004135632
0.0056507862 -8.7878791e-05 -0.004135632
0.0082193259 0.0029 -0.0048206896
0.00085617974 0.0013181819 -2.528728e-05
-0.006164494 0.0029 -0.0073896553
-0.0029110112 0.0029 -0.0068758619
0.0094179772 8.7878791e-05 -0.0073896553
0.014555056 0.0013181819 -0.00019655164
0.011986516 0.00043939395 -0.0056770113
-0.01352764 0.00026363635 -0.0084172413
0.006506966 8.7878791e-05 -0.010301149
0.0087330332 -0.0014939394 -2.528728e-05
-0.0017123595 0.0029 -0.0013954022
0.0075343819 0.00061515154 -0.0089310342
-0.00017123595 0.0018454546 -2.528728e-05
0.0090755057 0.0029 -0.0039643678
0.0063357302 -0.00096666667 -2.528728e-05
-0.012328988 0.001669697 -0.0034505746
0.0056507862 0.0025484848 -0.011157472
0.006849438 0.0020212121 -0.0056770113
0.006849438 8.7878791e-05 -0.0084172413
1.7347235e-18 0.0021969697 -0.011157472
0.0059932582 -0.00043939395 -2.528728e-05
-0.0070206737 0.00061515154 -0.0053344825
1.7347235e-18 0.0025484848 -2.528728e-05
0.01267146 0.0020212121 -0.0061908048
-0.00085617974 0.0020212121 -0.0087597705
-0.0083905617 0.00061515154 -0.0056770113
-0.008904269 0.0029 -0.010814942
0.014555056 0.0018454546 -0.0032793102
0.0073631457 -8.7878791e-05 -0.0037931034
-0.0025685392 0.00096666667 -0.0034505746
-0.0080480892 -8.7878791e-05 -0.0089310342
0.008904269 0.0020212121 -0.0089310342
0.01352764 0.00026363635 -0.0048206896
0.0042808987 -0.0029 -0.00053908041
-0.00051370787 8.7878791e-05 -0.0051632184
-0.012157752 0.00026363635 -0.0084172413
0.003424719 0.0020212121 -0.0037931034
-0.011644045 8.7878791e-05 0.0020298851
-0.0058220224 0.0025484848 -0.011157472
0.0095892129 -0.0025484848 -0.003108046
-0.010616628 -8.7878791e-05 -0.0077321837
0.0073631457 0.0029 -0.0056770113
-0.0029110112 0.0029 -0.003108046
0.011130337 0.0018454546 -0.0075609195
-0.0063357302 -0.0020212121 -2.528728e-05
0.011472808 -8.7878791e-05 0.0022011495
-0.011986516 0.00026363635 -0.0075609195
0.004109663 -8.7878791e-05 -0.0051632184
-0.0090755057 0.0029 -0.010301149
-0.0058220224 0.00061515154 -0.0075609195
-0.0080480892 0.0029 -0.0043068966
-0.012842696 0.0029 -0.0072183907
0.013870112 0.0021969697 -0.0096160918
-0.003082247 0.0018454546 -2.528728e-05
0.0097604487 0.0018454546 -2.528728e-05
-0.003595955 -0.0029 -0.0012241378
