# .PCD v0.7 - Point Cloud Data file format
VERSION 0.7
FIELDS x y z
SIZE 4 4 4
TYPE F F F
COUNT 1 1 1
WIDTH 1214
HEIGHT 1
VIEWPOINT 0 0 0 1 0 0 0
POINTS 1214
DATA ascii
0.022519914 0.00028222223 -0.0006590244
0.0070461086 -0.0022577778 -0.0023478048
0.024177823 -0.0016933334 -0.0040365853
-0.021967279 -0.0019755557 -9.6097559e-05
-0.018927781 -0.0014111111 0.00018536585
0.0037302927 0.0014111111 0.0027185366
0.0064934725 -0.0016933334 -0.0060068294
-0.0073224264 -0.00028222223 -0.0006590244
-0.00096711289 0.0019755557 -9.6097559e-05
-0.0064934725 -0.0011288889 -0.0031921952
-0.0020723848 0.0022577778 -9.6097559e-05
0.014783012 0.00084666669 -0.0023478048
-0.03163841 -0.0014111111 0.0010297562
0.0015197488 -0.00254 -0.0017848781
-0.0053882007 0.0022577778 -9.6097559e-05
-0.018927781 0.0014111111 0.00018536585
-0.014230376 0.0014111111 -0.0074141463
0.011467196 -0.0016933334 0.0013112195
-0.030809455 0.00254 -0.0017848781
-0.019480417 0.00028222223 -0.0006590244
0.032191046 0.0022577778 -0.0023478048
-0.019204099 -0.0014111111 0.00046682928
0.018927781 -0.0016933334 0.0021556097
-0.0037302927 -0.0011288889 -0.003755122
-0.020033054 -0.00056444446 -0.0006590244
0.01367774 -0.00056444446 -0.0023478048
0.00069079496 0.00056444446 -0.0006590244
0.0064934725 0.0011288889 -0.0043180487
0.0012434309 -0.0011288889 -0.0068512196
-0.023901505 0.0016933334 -0.0060068294
-0.0062171547 -0.0016933334 -0.0045995121
-0.012019832 -0.00084666669 -9.6097559e-05
-0.011467196 -0.00084666669 -0.0051624388
0.026388368 0.00254 -9.6097559e-05
0.0070461086 -0.0011288889 -9.6097559e-05
-0.016164601 0.0011288889 0.0024370733
0.016717238 -0.0011288889 -0.0040365853
0.0015197488 0.00254 -0.00037756097
0.01367774 0.0011288889 0.0024370733
0.023625188 0 -0.0023478048
-0.033019997 -0.0019755557 -0.00037756097
0.023901505 -0.0011288889 -0.0071326829
0.00069079496 -0.0016933334 -9.6097559e-05
0.026664685 0.0011288889 -0.0034736586
-0.0020723848 0 -0.0023478048
-0.033019997 0.00056444446 -0.0015034146
-0.023901505 0.0014111111 -0.0074141463
-0.017546192 -0.00254 -0.00094048778
0.0056645186 0.00254 -0.0023478048
-0.030809455 -0.00254 -9.6097559e-05
-0.018098827 -0.00254 -9.6097559e-05
0.0056645186 0.00056444446 -0.0006590244
0.019204099 0.0011288889 0.00074829266
-0.025283094 0.0022577778 -9.6097559e-05
-0.021414643 0.0016933334 -0.0074141463
-0.0092566526 0.00254 -9.6097559e-05
0.021690961 -0.0014111111 -0.0065697562
-0.0089803338 -0.0016933334 0.0013112195
-0.0064934725 -0.0011288889 0.0021556097
0.016440921 -0.0014111111 -0.0040365853
0.012848786 0 -0.0023478048
0.01367774 0.0011288889 0.0013112195
0.020033054 0.00254 -0.0012219512
0.03136209 -0.00254 -0.0020663415
-0.0062171547 0.00254 -9.6097559e-05
-0.021414643 0.0011288889 -0.0040365853
0.031914726 -0.00084666669 -0.00037756097
0.020033054 0.00254 -0.00094048778
-0.0064934725 -0.0016933334 -0.0040365853
-0.0040066107 0.0016933334 -0.0045995121
-0.015611966 -0.00254 -0.0012219512
-0.0023487029 -0.0019755557 -9.6097559e-05
0.016993556 0.00254 -0.0006590244
-0.021690961 0.00056444446 -0.0006590244
0.02058569 -0.00254 -0.0023478048
-0.014783012 0.00254 -0.0006590244
0.026941003 -0.0011288889 -0.0057253661
0.0015197488 -0.0011288889 -0.0076956097
-0.029427866 -0.0014111111 -0.0074141463
0.033019997 -0.00056444446 -0.0023478048
-0.0089803338 0.0016933334 -0.0065697562
-0.018927781 -0.0011288889 0.00018536585
-0.0012434309 0.0011288889 -0.0065697562
-0.013954058 -0.00084666669 0.00046682928
0.012572468 -0.0011288889 -9.6097559e-05
-0.0089803338 -0.00254 -0.0023478048
0.00069079496 -0.0011288889 -0.0023478048
-0.025559412 -0.0016933334 -0.0023478048
-0.019204099 0.0011288889 -0.0076956097
-0.026941003 0.0011288889 0.0018741463
-0.023901505 -0.0014111111 0.0015926829
-0.0037302927 0.0011288889 -0.0026292682
-0.032743681 0.0019755557 -0.00037756097
-0.012848786 -0.0011288889 -0.0023478048
0.026388368 -0.0011288889 -0.0076956097
-0.019204099 -0.0011288889 -0.0068512196
0.015335647 0.00254 -0.00037756097
-0.0078750625 0.0016933334 -9.6097559e-05
0.020033054 -0.00254 -0.0015034146
-0.021690961 0.0011288889 -0.0051624388
-0.026388368 0.0014111111 -0.0051624388
-0.028875228 0.0016933334 -9.6097559e-05
-0.022519914 -0.00254 -0.0020663415
0.029427866 0.0019755557 -9.6097559e-05
0.024730459 0.00084666669 -0.00037756097
-0.0037302927 0.0011288889 -0.0051624388
0.015611966 -0.00028222223 -0.0023478048
0.026388368 -0.0011288889 -0.0065697562
0.0095329704 0.0019755557 -9.6097559e-05
-0.026388368 0.0011288889 -0.0076956097
0.032743681 0 -0.0023478048
-0.0048355646 0.0014111111 -9.6097559e-05
-0.0012434309 0.0011288889 -0.003755122
0.016164601 0.0011288889 -0.0057253661
-0.026664685 -0.0016933334 -0.0062882928
0.026941003 -0.0011288889 0.0024370733
0.019204099 0.0011288889 -0.0065697562
-0.013954058 -0.0016933334 0.00074829266
0.026941003 -0.00084666669 -0.00037756097
-0.01229615 0.0019755557 -9.6097559e-05
-0.01367774 0.0011288889 -9.6097559e-05
0.0026250207 0.0014111111 -9.6097559e-05
0.023625188 -0.00254 -9.6097559e-05
0.018651463 0.0014111111 -0.0026292682
0.015888283 0.00254 -0.00037756097
-0.0073224264 -0.00254 -0.0023478048
-0.018927781 -0.00084666669 0.0015926829
-0.021414643 -0.0011288889 -0.0051624388
0.031914726 0.0014111111 0.00018536585
0.019480417 0.00028222223 -0.0006590244
-0.017546192 0.0014111111 -0.0023478048
-0.029151546 0.00084666669 0.00018536585
-0.026388368 0.0011288889 -0.0068512196
0.0062171547 0.0014111111 -0.0040365853
-0.025559412 0.00254 -0.00094048778
-0.026388368 -0.0011288889 0.0018741463
0.013954058 0.00254 -0.0017848781
-0.028875228 -0.0011288889 0.00074829266
0.0012434309 -0.0019755557 -0.0023478048
0.0015197488 0.0014111111 -0.0023478048
-0.016440921 -0.0016933334 -0.0034736586
-0.0053882007 0.0016933334 -0.0023478048
-0.013954058 0.0019755557 -9.6097559e-05
0.026941003 -0.00254 -0.0015034146
-0.01367774 -0.0011288889 0.00074829266
0.025283094 0.00254 -0.0015034146
0.019204099 0.0011288889 -0.0079770731
-0.0081513803 -0.0016933334 -0.0023478048
-0.016440921 0.00084666669 -0.0031921952
-0.029151546 -0.0016933334 -0.0060068294
0.029980501 -0.0022577778 -0.00037756097
-0.0062171547 0.0011288889 -0.0043180487
-0.028322592 0.00056444446 -0.0023478048
-0.0042829285 -0.0019755557 -0.0023478048
-0.0040066107 -0.0011288889 -0.0062882928
0.021690961 -0.0016933334 -0.0060068294
-0.016717238 0.0016933334 -0.0054439022
-0.018927781 -0.0011288889 -0.0062882928
0.011190878 -0.0011288889 -0.0054439022
-0.03163841 -0.0014111111 -0.0031921952
-0.016717238 0.0011288889 -0.0045995121
0.01782251 0.00254 -0.00094048778
0.0040066107 -0.0014111111 -0.0034736586
-0.032191046 -0.00254 -0.0023478048
0.008704016 -0.00084666669 0.0013112195
0.0092566526 -0.00254 -0.0012219512
-0.008704016 0.0014111111 -0.0068512196
-0.021414643 -0.0022577778 -0.0023478048
-0.00041447696 -0.0022577778 -9.6097559e-05
-0.011190878 -0.0014111111 -0.0060068294
-0.029980501 0.00254 -0.00037756097
0.016717238 0.0019755557 -0.0023478048
0.023901505 0.0011288889 -0.0045995121
0.029427866 0.0014111111 0.00018536585
0.026388368 -0.0011288889 -0.0062882928
-0.026112048 -0.00254 -0.0020663415
-0.021690961 0 -0.0023478048
0.031914726 0.00028222223 -0.0023478048
-0.0095329704 -0.0011288889 -9.6097559e-05
-0.02334887 -0.00254 -0.00037756097
-0.023901505 0.0014111111 0.00074829266
-0.023072552 -0.00254 -0.00037756097
-0.021138325 -0.00254 -0.00094048778
-0.013125104 -0.0011288889 -9.6097559e-05
-0.03136209 -0.0022577778 -0.0023478048
-0.026941003 -0.0014111111 -0.0065697562
0.03136209 -0.00254 -0.0012219512
-0.0075987442 -0.0011288889 -0.0023478048
-0.019204099 -0.0022577778 -9.6097559e-05
-0.020033054 0.00254 -0.0017848781
-0.018927781 0.0016933334 -0.0040365853
-0.024454141 0.0011288889 0.0013112195
-0.029151546 0.00084666669 -0.003755122
0.021690961 0.00056444446 -0.0023478048
-0.014230376 -0.0011288889 -0.0068512196
0.008704016 -0.0011288889 -0.0074141463
-0.024177823 0.00254 -0.0020663415
-0.00096711289 -0.0014111111 -0.0048809755
-0.00041447696 -0.0014111111 -9.6097559e-05
0.030533137 0.0016933334 -0.0023478048
0.011190878 0.0014111111 0.0018741463
-0.033019997 -0.00084666669 -0.0012219512
-0.0051118825 -0.00084666669 -0.0023478048
-0.013954058 0.00084666669 -0.0026292682
-0.008704016 0.0019755557 -0.0023478048
-0.027217321 0.00028222223 -0.0023478048
-0.018098827 0.00056444446 -0.0006590244
-0.025283094 0 -0.0006590244
-0.029151546 0.00254 -0.0012219512
-0.0089803338 0.0011288889 -0.0040365853
0.008704016 0.0014111111 0.0015926829
0.0034539746 0.0011288889 -0.0029107316
-0.00096711289 -0.0011288889 -0.0026292682
-0.00069079496 0.00028222223 -0.0023478048
-0.00069079496 0.00056444446 -0.0006590244
-0.0084276982 -0.00254 -0.0020663415
0.0081513803 -0.00254 -0.0017848781
-0.0040066107 0.0011288889 -0.0065697562
0.013954058 -0.0016933334 -0.0060068294
-0.016717238 -0.00254 -0.00094048778
0.03136209 0.00254 -0.0006590244
0.0040066107 -0.0016933334 -0.0060068294
0.00013815898 0.00254 -0.00094048778
-0.014230376 -0.0014111111 0.00018536585
0.011467196 -0.0016933334 -0.0057253661
-0.01367774 -0.00254 -0.0023478048
-0.0089803338 0.0011288889 -0.0051624388
-0.020033054 -0.00056444446 -0.0023478048
0.0012434309 -0.0014111111 -0.003755122
0.014230376 0.0011288889 -0.0079770731
-0.023901505 0.0011288889 0.0024370733
0.0048355646 -0.00254 -0.00094048778
0.029980501 0.00254 -0.0006590244
0.0034539746 0.0011288889 -0.0026292682
0.01229615 0.00254 -0.0006590244
-0.0012434309 0.0011288889 -0.0034736586
-0.013954058 -0.0014111111 -0.0079770731
0.012019832 0.0014111111 -9.6097559e-05
-0.026388368 -0.0022577778 -0.0023478048
0.02334887 -0.0022577778 -9.6097559e-05
0.00096711289 0.0011288889 0.0021556097
-0.01091456 0.00028222223 -0.0006590244
0.020033054 0.0014111111 -0.0023478048
-0.0062171547 -0.00028222223 -0.0006590244
0.031914726 -0.00084666669 -0.0074141463
-0.029980501 0.0022577778 -0.00037756097
0.019204099 0.0011288889 -0.0051624388
0.016717238 -0.0014111111 0.0013112195
-0.010361924 -0.00254 -0.0012219512
-0.03163841 0.0022577778 -0.00094048778
-0.022243597 0.0019755557 -0.0023478048
0.014783012 -0.00254 -0.0015034146
-0.032743681 0.0016933334 -0.0020663415
-0.018375145 -0.0016933334 -9.6097559e-05
-0.016717238 -0.0019755557 -0.0023478048
-0.0017960669 0.00028222223 -0.0006590244
-0.021414643 0.0016933334 0.0010297562
-0.015611966 0.0014111111 -0.0023478048
0.028322592 -0.00254 -0.00094048778
-0.032467362 -0.0011288889 -0.0023478048
0.018098827 -0.00254 -0.00094048778
-0.0095329704 -0.0022577778 -0.0023478048
0.026388368 -0.0014111111 -0.0026292682
-0.026388368 0.0011288889 -0.0060068294
-0.025559412 -0.00028222223 -0.0006590244
-0.020862008 0.0011288889 -0.00037756097
-0.016164601 0.00084666669 -0.0023478048
0.02859891 0 -0.0006590244
0.026388368 0.0011288889 -0.0051624388
-0.0048355646 -0.0019755557 -9.6097559e-05
-0.019204099 -0.00084666669 0.0018741463
0.018651463 0.00254 -0.0012219512
-0.0012434309 -0.00084666669 -0.0071326829
-0.0062171547 0.0016933334 0.00074829266
0.024177823 -0.0011288889 -0.0060068294
-0.0062171547 0.0016933334 -0.0051624388
-0.018927781 -0.0011288889 0.00074829266
-0.01229615 -0.00084666669 -9.6097559e-05
-0.029704183 0.0011288889 -9.6097559e-05
-0.018927781 -0.0014111111 -0.0068512196
0.01367774 0.0019755557 -9.6097559e-05
0.021414643 -0.0016933334 -0.0065697562
0.022519914 -0.00056444446 -0.0023478048
0.02583573 -0.0022577778 -0.0023478048
-0.018375145 -0.0011288889 -9.6097559e-05
0.014230376 0.0011288889 -0.0051624388
-0.010361924 -0.0011288889 -0.0023478048
0.016717238 0.0016933334 -0.0062882928
0.02859891 -0.0011288889 -9.6097559e-05
0.012572468 0.00254 -0.0012219512
-0.0012434309 -0.0014111111 -0.0076956097
-0.022519914 -0.0019755557 -0.0023478048
0.0040066107 0.0022577778 -9.6097559e-05
-0.015611966 -0.00254 -0.00094048778
0.021690961 -0.0016933334 0.00018536585
0.0070461086 0.0016933334 -9.6097559e-05
-0.026112048 0.0019755557 -9.6097559e-05
0.029151546 0.0011288889 -0.0051624388
0.0037302927 0 -0.0023478048
0.008704016 0.00254 -0.0023478048
0.0095329704 0.0014111111 -9.6097559e-05
-0.016440921 0.00254 -0.0017848781
-0.010085606 0.00254 -0.00094048778
0.0015197488 0.0022577778 -9.6097559e-05
-0.011467196 -0.0016933334 -0.0071326829
0.011743514 0.0014111111 -0.0029107316
-0.021690961 -0.00084666669 0.0010297562
-0.0092566526 -0.0022577778 -9.6097559e-05
-0.015335647 0.00056444446 -0.0006590244
-0.016993556 -0.0014111111 -9.6097559e-05
0.019756736 -0.00254 -0.0006590244
-0.0062171547 -0.0011288889 -0.0062882928
-0.026664685 -0.0016933334 -0.0074141463
0.0026250207 -0.00056444446 -0.0023478048
-0.022519914 0.0011288889 -0.0023478048
0.025006777 -0.0019755557 -9.6097559e-05
-0.033019997 0 -0.00094048778
-0.0045592468 0.00254 -0.0006590244
-0.023072552 0.0011288889 -0.0023478048
0.0034539746 -0.00254 -0.00094048778
-0.014230376 -0.00254 -0.0017848781
-0.026664685 0.0016933334 0.00046682928
0.013125104 0.0011288889 -0.0023478048
-0.011190878 0.0014111111 -0.0029107316
0.032743681 0.0022577778 -9.6097559e-05
0.018098827 0 -0.0023478048
0.0062171547 -0.00084666669 -0.0043180487
0.024177823 0.0011288889 -9.6097559e-05
0.0078750625 0.0019755557 -9.6097559e-05
-0.021414643 0.0014111111 -0.0068512196
0.021690961 0.0011288889 0.0027185366
-0.013954058 -0.0019755557 -0.0023478048
-0.03163841 -0.00254 -0.0017848781
0.010085606 0.00056444446 -0.0023478048
0.019204099 0.0011288889 -0.0068512196
-0.0092566526 -0.0014111111 0.0015926829
0.01782251 -0.00254 -0.00037756097
-0.0078750625 0.00028222223 -0.0006590244
0.0067697903 0.0019755557 -0.0023478048
-0.014230376 0.0011288889 0.00018536585
-0.0012434309 -0.0014111111 -0.0071326829
0.024454141 0.0014111111 -0.0057253661
0.027217321 0.0022577778 -9.6097559e-05
-0.0078750625 -0.0016933334 -9.6097559e-05
-0.033019997 -0.0014111111 -0.0020663415
0.0051118825 -0.0022577778 -0.0023478048
0.0098092882 -0.0011288889 -9.6097559e-05
0.024730459 0.00084666669 -0.0023478048
-0.01367774 -0.0014111111 -0.0068512196
-0.016717238 -0.0014111111 0.0015926829
0.013954058 0.0016933334 -0.0076956097
0.031914726 0.0022577778 -0.0006590244
-0.021967279 -0.00254 -0.0015034146
-0.0026250207 -0.00254 -9.6097559e-05
0.01229615 0.00084666669 -0.00037756097
0.011743514 -0.00056444446 -0.0023478048
-0.024454141 -0.0014111111 -0.0040365853
0.0040066107 -0.0014111111 -0.0060068294
0.011743514 -0.0014111111 -0.0043180487
0.020862008 -0.00254 -0.0017848781
-0.0037302927 0.0011288889 -0.0034736586
0.029151546 -0.0014111111 -0.0076956097
0.026388368 -0.00254 -0.0012219512
-0.0059408364 0.00084666669 -0.0023478048
0.01367774 0.0011288889 -0.0074141463
0.011190878 -0.0011288889 -0.0068512196
0.020862008 -0.00028222223 -0.0023478048
0.023901505 -0.0011288889 -0.0074141463
0.010361924 -0.00254 -0.0020663415
0.02859891 -0.00254 -0.0012219512
-0.011190878 -0.0011288889 -0.0068512196
0.008704016 -0.00254 -0.0023478048
-0.0015197488 0.0011288889 -0.0079770731
0.0073224264 -0.0011288889 -0.0023478048
-0.013125104 -0.00254 -0.00037756097
0.02334887 0 -0.0006590244
-0.023901505 0.0011288889 0.00046682928
-0.0053882007 -0.00254 -0.00094048778
0.0062171547 0.0011288889 -0.0065697562
0.0078750625 0.00254 -0.0006590244
0.014230376 -0.0014111111 -0.0060068294
-0.0089803338 -0.0016933334 -0.0076956097
0.010085606 -0.0011288889 -0.0023478048
0.016717238 0.0011288889 0.0015926829
-0.016717238 0.0011288889 -9.6097559e-05
0.016717238 -0.0016933334 -0.003755122
-0.011467196 0.00254 -9.6097559e-05
-0.032191046 0.0022577778 -0.0015034146
0.0064934725 -0.0016933334 -0.0029107316
0.010638243 0.00254 -0.0023478048
-0.011467196 -0.00254 -0.0023478048
0.014230376 0.0014111111 0.0021556097
-0.0081513803 -0.00254 -0.00037756097
0.03163841 0.0014111111 -0.0074141463
0.011467196 -0.0011288889 0.0013112195
0.0062171547 -0.0016933334 0.0015926829
-0.030533137 0.0019755557 -0.0023478048
-0.0059408364 0.0011288889 -0.0023478048
0.013125104 0.00084666669 -0.0023478048
-0.018927781 -0.0011288889 0.0010297562
-0.0048355646 -0.00084666669 -0.00037756097
0.013125104 -0.00028222223 -0.0006590244
0.0012434309 0.0016933334 -0.0065697562
-0.01229615 0.00254 -0.00094048778
-0.008704016 -0.0016933334 -0.0057253661
-0.024454141 -0.0011288889 -0.0031921952
0.011743514 0.0014111111 0.0024370733
-0.017269874 0.0019755557 -0.0023478048
0.014230376 -0.0011288889 0.0018741463
0.0089803338 -0.0011288889 -0.0065697562
0.027769957 -0.00056444446 -0.0006590244
-0.0012434309 -0.00084666669 -0.0045995121
-0.016717238 0.0014111111 -0.0043180487
-0.0037302927 -0.0011288889 0.00074829266
-0.016717238 0.0014111111 0.00074829266
-0.021690961 -0.0011288889 0.0018741463
0.0089803338 -0.0014111111 -0.0076956097
-0.0015197488 0.0011288889 0.0010297562
-0.0095329704 0.00254 -0.0006590244
0.023901505 0.0011288889 -0.0031921952
-0.026388368 -0.0022577778 -9.6097559e-05
-0.02334887 0.00084666669 -0.0006590244
0.011467196 -0.00084666669 -0.0026292682
-0.029151546 -0.0016933334 0.0021556097
0.00041447696 0.0016933334 -0.0023478048
-0.02334887 0.0022577778 -9.6097559e-05
-0.00013815898 -0.00254 -0.0017848781
0.0037302927 -0.00254 -0.0006590244
-0.016440921 -0.0016933334 -0.003755122
0.0037302927 -0.0011288889 -0.003755122
0.015611966 -0.00056444446 -0.0023478048
0.010638243 0.00254 -0.0017848781
0.033019997 -0.0011288889 -0.0012219512
0.029151546 0.0016933334 -0.0051624388
0.00096711289 0.0011288889 -9.6097559e-05
0.014506694 0.00056444446 -0.0023478048
-0.024177823 -0.0016933334 -0.0031921952
0.028875228 0.0011288889 0.0015926829
-0.026941003 0.00028222223 -0.0023478048
0.011467196 0.00254 -0.00037756097
-0.0064934725 0.0016933334 0.00018536585
-0.0037302927 -0.00084666669 -0.0023478048
-0.019204099 0.0022577778 -9.6097559e-05
-0.0020723848 0.0019755557 -0.0023478048
0.019204099 -0.0011288889 0.0015926829
-0.0037302927 -0.0014111111 -0.0082585365
-0.013125104 -0.00028222223 -0.0023478048
-0.01367774 -0.0014111111 -0.0071326829
0.0037302927 -0.0014111111 0.0015926829
0.010085606 -0.0019755557 -9.6097559e-05
-0.011743514 -0.0011288889 0.0010297562
0.018098827 -0.0019755557 -0.0023478048
0.026664685 0.0016933334 -0.0031921952
-0.032743681 0.0014111111 -0.0017848781
-0.0040066107 0.0014111111 -0.0045995121
0.024730459 -0.00028222223 -0.0006590244
0.03136209 -0.00028222223 -0.0006590244
0.029427866 -0.0014111111 -0.0076956097
-0.0012434309 0.0011288889 -0.0031921952
-0.017546192 -0.00254 -0.00037756097
-0.029704183 0.00028222223 -0.0006590244
-0.0064934725 -0.0022577778 -0.0023478048
0.0040066107 -0.0011288889 -0.0026292682
-0.010638243 0.0016933334 -9.6097559e-05
0.018927781 0.0011288889 -0.0068512196
0.0053882007 0.0014111111 -9.6097559e-05
0.0037302927 0.0014111111 -0.0065697562
-0.026388368 0.0014111111 -0.0031921952
-0.00013815898 -0.00084666669 -0.00037756097
-0.00096711289 0.00056444446 -0.0023478048
-0.01505933 0.00254 -0.0012219512
0.0064934725 -0.0014111111 0.0015926829
-0.01367774 0.0022577778 -0.0023478048
0.01091456 -0.00254 -0.0015034146
0.021414643 -0.0016933334 -0.0045995121
-0.0012434309 0.0016933334 -0.0040365853
-0.0034539746 0.00254 -9.6097559e-05
0.027493639 -0.0019755557 -9.6097559e-05
-0.019204099 -0.0011288889 -0.0034736586
-0.023901505 -0.0011288889 -0.0076956097
0.011467196 0.0019755557 -0.0023478048
0.021690961 0.0014111111 0.0018741463
-0.00096711289 0.0022577778 -0.0023478048
-0.01367774 0.00254 -0.0020663415
0.0062171547 -0.0014111111 0.0010297562
-0.0092566526 -0.0011288889 -0.0040365853
-0.0037302927 0.00084666669 -0.0026292682
-0.026941003 0.0014111111 -0.0071326829
-0.022243597 0.0014111111 -9.6097559e-05
-0.0042829285 0.0011288889 -0.0023478048
-0.027769957 0.0016933334 -9.6097559e-05
0.0089803338 0 -0.0006590244
0.026388368 -0.0011288889 -0.003755122
0.00096711289 0.0011288889 0.0018741463
0.019204099 -0.0011288889 0.0010297562
0.021414643 0.0011288889 -0.0054439022
0.010085606 0.0016933334 -0.0023478048
0.019480417 0.00254 -0.00037756097
0.021414643 -0.0014111111 -0.0026292682
-0.01367774 -0.0011288889 0.0018741463
-0.02334887 -0.00254 -0.0017848781
-0.011467196 -0.0014111111 -0.0034736586
0.033019997 -0.0011288889 -0.0017848781
-0.00096711289 -0.0014111111 0.00046682928
0.016440921 0.0014111111 -0.0051624388
-0.019756736 -0.00254 -0.0006590244
0.020862008 0.00028222223 -0.0006590244
0.0040066107 -0.0014111111 -0.0057253661
0.0092566526 0.00254 -0.0020663415
0.021690961 -0.00028222223 -0.0023478048
-0.018375145 0.0011288889 -0.00037756097
-0.0089803338 0.00028222223 -0.0023478048
0.021414643 0.0014111111 -0.0057253661
-0.011190878 -0.00254 -0.0006590244
-0.0040066107 0.0014111111 -0.0057253661
-0.026664685 -0.00254 -9.6097559e-05
-0.026664685 -0.0016933334 -0.0071326829
-0.011467196 -0.0011288889 -0.0043180487
-0.026664685 -0.0016933334 0.0024370733
0.0012434309 0.0014111111 -0.0054439022
0.0020723848 -0.0011288889 -9.6097559e-05
0.020309372 -0.00254 -0.0020663415
-0.014783012 -0.0014111111 -0.0023478048
0.0040066107 -0.0011288889 -0.0076956097
0.01091456 0.00084666669 -0.00037756097
-0.03136209 -0.00254 -0.0006590244
0.023901505 -0.0011288889 -0.0060068294
-0.021414643 0.0014111111 -0.0079770731
0.01505933 0.00254 -0.0012219512
0.018927781 0.0014111111 0.0021556097
0.0051118825 -0.00254 -0.0015034146
0.008704016 0.0011288889 0.00046682928
-0.0062171547 0.0011288889 -0.0034736586
0.021690961 -0.0016933334 -0.0057253661
-0.030533137 -0.0019755557 -9.6097559e-05
0.0034539746 0.0011288889 -9.6097559e-05
0.016993556 0.00084666669 -0.00037756097
-0.00096711289 -0.0011288889 0.00074829266
0.016164601 -0.0011288889 -9.6097559e-05
0.0084276982 -0.0019755557 -0.0023478048
-0.0017960669 0.0022577778 -0.0023478048
0.025559412 0.00254 -0.00037756097
-0.018098827 -0.0011288889 -0.0023478048
0.027217321 0.00084666669 -0.0023478048
-0.021690961 -0.00084666669 -0.0045995121
0.0020723848 0.00084666669 -0.0023478048
0.024454141 -0.00254 -0.00094048778
0.0062171547 -0.0014111111 0.0024370733
-0.02859891 0.00254 -0.0020663415
-0.0012434309 -0.0019755557 -9.6097559e-05
0.015888283 -0.00084666669 -0.00037756097
0.0037302927 -0.00084666669 -0.0062882928
0.00013815898 -0.00254 -0.0015034146
0.014230376 0 -0.0023478048
-0.010361924 -0.00254 -0.00037756097
0.031085772 -0.00254 -0.0017848781
-0.03136209 -0.0016933334 -0.0023478048
0.0015197488 -0.00056444446 -0.0023478048
0.024177823 -0.0016933334 -0.0076956097
-0.023072552 0.0022577778 -0.0023478048
0.024177823 -0.0011288889 -0.0068512196
-0.020862008 -0.00028222223 -0.0006590244
0.026388368 -0.0014111111 0.0015926829
0.023901505 0.0011288889 -0.0076956097
-0.03163841 0.0011288889 0.0027185366
-0.03136209 0.00028222223 -0.0006590244
-0.00041447696 0 -0.0006590244
-0.021690961 -0.0014111111 -0.0060068294
-0.021690961 0.0014111111 -0.0057253661
0.03136209 0.00056444446 -0.0006590244
-0.029427866 -0.0014111111 -0.0060068294
-0.016164601 0.0011288889 -0.0068512196
0.0037302927 0.0011288889 -0.0054439022
0.02334887 0.0014111111 -9.6097559e-05
-0.017269874 -0.0014111111 -9.6097559e-05
0.01229615 -0.00254 -0.0006590244
0.029427866 0.00084666669 -0.00037756097
-0.016993556 0.00028222223 -0.0006590244
-0.011190878 0.0019755557 -9.6097559e-05
0.0012434309 -0.0014111111 -0.0074141463
0.026664685 0.0016933334 0.0015926829
-0.026664685 0.0011288889 -0.0051624388
0.027769957 -0.0014111111 -9.6097559e-05
-0.012848786 0.0022577778 -0.0023478048
-0.0067697903 0.00254 -0.0023478048
-0.025559412 0.00254 -0.0017848781
-0.028875228 0.0014111111 0.00018536585
0.026112048 -0.0019755557 -9.6097559e-05
0.023901505 0.0011288889 -9.6097559e-05
-0.00041447696 0.00254 -0.0012219512
-0.0017960669 -0.00084666669 -0.00037756097
-0.016440921 0.0014111111 0.00046682928
0.00096711289 -0.00254 -0.0006590244
0.01367774 0.00254 -0.0006590244
0.0040066107 -0.00084666669 0.00046682928
0.00041447696 0.00254 -0.0017848781
0.0012434309 -0.0014111111 -0.0029107316
-0.00096711289 -0.0011288889 -0.0079770731
0.023072552 0.00254 -0.00037756097
-0.026664685 -0.0019755557 -9.6097559e-05
-0.0089803338 0.0011288889 0.0021556097
-0.023901505 0.0014111111 -0.0060068294
-0.012572468 -0.0014111111 -9.6097559e-05
0.021690961 0.0011288889 0.0021556097
0.017269874 -0.00254 -0.0020663415
0.011190878 0.0011288889 -9.6097559e-05
-0.0037302927 0.0011288889 0.00046682928
-0.013954058 0.00254 -0.0020663415
0.013954058 -0.0014111111 -0.0071326829
0.0053882007 -0.00254 -0.0015034146
-0.022796232 0.00254 -0.0015034146
0.0098092882 -0.0019755557 -9.6097559e-05
0.028875228 -0.00056444446 -0.0006590244
-0.019204099 0.0014111111 0.0015926829
0.021967279 -0.00254 -0.0020663415
0.026664685 -0.0014111111 -0.0074141463
-0.028322592 0.0022577778 -9.6097559e-05
-0.0092566526 -0.00028222223 -0.0006590244
-0.029427866 -0.00028222223 -0.0023478048
-0.011743514 -0.0011288889 -0.0051624388
-0.010085606 -0.00084666669 -0.0023478048
-0.016440921 -0.0014111111 0.00074829266
-0.02334887 -0.00254 -0.0006590244
-0.020033054 0.00084666669 -0.0023478048
-0.0012434309 0.00254 -0.0006590244
0.029151546 0.0016933334 -0.0060068294
-0.026664685 -0.0016933334 -0.0054439022
-0.00041447696 0 -0.0023478048
-0.013954058 0.0014111111 -0.0071326829
-0.013954058 0.0016933334 0.00074829266
0.0037302927 -0.00084666669 0.00074829266
-0.016440921 0.00254 -0.0006590244
-0.0064934725 -0.0016933334 -0.0065697562
0.018927781 -0.0014111111 0.0021556097
-0.021690961 -0.0016933334 -0.0068512196
0.0062171547 -0.00084666669 -0.0065697562
-0.029151546 0.00084666669 0.0013112195
0.00069079496 -0.00254 -0.0006590244
0.016717238 0.0014111111 -0.0048809755
0.010085606 0.00254 -0.00037756097
-0.025006777 -0.0014111111 -9.6097559e-05
0.0070461086 -0.0016933334 -0.0023478048
-0.02334887 0.0014111111 -0.0023478048
-0.031085772 -0.0022577778 -9.6097559e-05
0.013954058 0.0011288889 -0.003755122
-0.0067697903 0.0016933334 -0.0023478048
0.011467196 0.0011288889 -0.0068512196
0.0075987442 0.00254 -0.0017848781
0.0037302927 -0.0011288889 -0.0062882928
-0.023072552 0.0019755557 -9.6097559e-05
-0.016717238 0.0011288889 0.0013112195
0.0048355646 0.0011288889 -9.6097559e-05
0.020862008 0.00254 -0.00037756097
0.0073224264 0.00254 -0.0006590244
-0.025283094 0.00254 -0.0012219512
-0.01229615 -0.0014111111 -0.0023478048
-0.016440921 -0.00084666669 -0.0040365853
0.00041447696 0.00254 -0.0012219512
0.026664685 0.0022577778 -0.0023478048
0.028875228 -0.0022577778 -0.00037756097
0.0012434309 -0.0014111111 0.0015926829
0.031085772 0.00254 -0.0006590244
0.032191046 -0.0022577778 -0.0023478048
-0.018927781 -0.0016933334 -0.0074141463
0.011190878 -0.0016933334 -0.0023478048
0.0056645186 -0.00084666669 -0.0023478048
0.032743681 -0.0022577778 -0.0006590244
-0.0062171547 0.0011288889 0.0015926829
-0.014230376 -0.0014111111 0.0015926829
-0.0012434309 -0.00254 -0.0017848781
-0.0062171547 0.0014111111 0.0010297562
0.012019832 -0.00254 -0.0017848781
-0.023901505 -0.0014111111 0.00018536585
-0.031914726 0.0014111111 0.0021556097
0.016440921 0.00254 -0.0012219512
-0.016164601 0.0011288889 0.0010297562
0.016164601 0.0011288889 0.0010297562
0.024454141 -0.00254 -0.0015034146
-0.021414643 0.00084666669 -0.0006590244
0.021690961 0.0011288889 0.0010297562
0.0023487029 -0.00028222223 -0.0023478048
-0.029704183 -0.00254 -0.00037756097
-0.0029013387 0.00056444446 -0.0006590244
0.0017960669 -0.00254 -9.6097559e-05
0.019480417 -0.00056444446 -0.0023478048
-0.01505933 -0.00254 -0.0023478048
0.024177823 -0.0011288889 -0.0071326829
-0.0012434309 -0.0014111111 -0.0062882928
0.01091456 -0.0016933334 -0.0023478048
0.010638243 0.00028222223 -0.0023478048
0.0017960669 -0.00056444446 -0.0023478048
0.031914726 0.0014111111 0.00074829266
0.0012434309 -0.0016933334 -0.0051624388
-0.012019832 -0.0011288889 -9.6097559e-05
-0.016440921 -0.00254 -0.0017848781
-0.016717238 0.0011288889 -0.0048809755
-0.0062171547 0.0014111111 -0.0065697562
-0.024454141 -0.0011288889 -0.0048809755
0.013401422 -0.0011288889 -0.0023478048
-0.0064934725 -0.0011288889 -0.0051624388
0.024730459 0.0014111111 -0.0023478048
-0.023901505 0.0011288889 -0.0031921952
-0.029427866 -0.00254 -0.0015034146
-0.016440921 -0.0014111111 -0.0060068294
-0.015611966 -0.0014111111 -0.0023478048
-0.03163841 0.0011288889 0.0018741463
0.026112048 -0.00254 -9.6097559e-05
0.0064934725 0.0011288889 -0.0060068294
-0.014230376 0.0014111111 -0.0031921952
0.023901505 -0.0016933334 -9.6097559e-05
0.0029013387 0.0016933334 -9.6097559e-05
0.0040066107 0.0011288889 -0.0026292682
-0.0012434309 -0.00084666669 -0.0026292682
0.0012434309 -0.00254 -0.0006590244
0.018098827 0.00254 -9.6097559e-05
0.0015197488 -0.00084666669 -9.6097559e-05
0.008704016 0.0011288889 -0.0031921952
0.015888283 -0.0016933334 -9.6097559e-05
0.015611966 -0.00254 -0.0023478048
0.023901505 -0.0011288889 -0.0062882928
-0.015611966 -0.0022577778 -9.6097559e-05
0.0075987442 0.0011288889 -9.6097559e-05
0.023901505 -0.0011288889 0.0024370733
0.017546192 -0.00254 -0.00094048778
-0.029427866 0.0014111111 -0.0029107316
-0.024177823 0.0022577778 -0.0023478048
0.014506694 -0.00254 -0.0006590244
0.0040066107 -0.0016933334 -0.0045995121
0.029980501 -0.0011288889 -9.6097559e-05
-0.019204099 0.0011288889 0.0024370733
-0.022796232 0.0019755557 -9.6097559e-05
0.015611966 0.00254 -0.00094048778
-0.0029013387 0.0014111111 -9.6097559e-05
-0.024454141 0.0011288889 -0.0031921952
0.012019832 0.00254 -9.6097559e-05
-0.028875228 -0.0014111111 0.0018741463
0.012848786 0.00254 -0.0006590244
0.012019832 0.00254 -0.00037756097
0.021414643 -0.0014111111 -0.0076956097
0.026388368 -0.0011288889 -0.0057253661
0.01367774 0.0011288889 -0.0068512196
-0.0081513803 -0.00084666669 -9.6097559e-05
-0.02334887 0.00056444446 -0.0023478048
-0.019204099 -0.0014111111 -0.0065697562
-0.0089803338 0.00084666669 -0.00037756097
-0.016717238 -0.00084666669 -9.6097559e-05
-0.029151546 -0.00254 -0.0012219512
-0.0012434309 0.0011288889 -9.6097559e-05
0.016717238 0.0014111111 -0.0040365853
-0.0067697903 -0.00028222223 -0.0023478048
0.010361924 0.0022577778 -9.6097559e-05
-0.026388368 -0.00254 -0.00094048778
0.0073224264 -0.00056444446 -0.0023478048
-0.0067697903 0.00084666669 -0.0023478048
0.011743514 0.0022577778 -9.6097559e-05
-0.023625188 -0.00084666669 -9.6097559e-05
0.022243597 0.00254 -0.0017848781
-0.016717238 0.0011288889 0.0015926829
-0.0062171547 0.0011288889 -9.6097559e-05
0.022243597 -0.00254 -0.0006590244
-0.021138325 0.00084666669 -0.0023478048
-0.022519914 -0.0022577778 -0.0023478048
-0.028875228 -0.0011288889 0.0015926829
0.024177823 0.0011288889 -0.0040365853
-0.0075987442 -0.0022577778 -0.0023478048
-0.029427866 0.0011288889 -0.0048809755
-0.03163841 -0.0014111111 -0.0057253661
0.026941003 0.0011288889 -0.0062882928
-0.032191046 0.00028222223 -0.0023478048
-0.019204099 -0.00254 -0.0012219512
-0.013125104 0.0022577778 -0.0023478048
0.026664685 -0.0016933334 -0.0048809755
0.014230376 -0.0014111111 -0.0054439022
-0.03163841 0.0014111111 -0.0076956097
-0.014506694 -0.00056444446 -0.0006590244
-0.00069079496 -0.00056444446 -0.0023478048
-0.011743514 0.0011288889 0.00074829266
0.012848786 0.0014111111 -0.0023478048
0.025006777 0.00254 -0.0023478048
-0.026664685 -0.0016933334 0.0015926829
0.011467196 0.0014111111 -0.0065697562
0.029151546 0.0016933334 0.0024370733
0.0015197488 -0.0014111111 0.0010297562
-0.012848786 0.0014111111 -9.6097559e-05
-0.0064934725 0.0014111111 -0.0074141463
0.023901505 -0.0014111111 -0.0060068294
0.02859891 -0.00254 -0.0023478048
0.00041447696 -0.0022577778 -9.6097559e-05
0.0081513803 -0.00254 -0.0020663415
-0.013401422 -0.0022577778 -0.0023478048
-0.024454141 -0.00254 -0.0020663415
-0.011467196 -0.0016933334 0.0010297562
0.0040066107 -0.00254 -0.0015034146
0.026388368 0.0014111111 -0.0068512196
-0.025283094 -0.00254 -0.00037756097
-0.0042829285 -0.00084666669 -0.0023478048
0.01367774 -0.00084666669 -0.00037756097
0.029151546 0.00028222223 -0.0006590244
-0.0089803338 -0.00084666669 -9.6097559e-05
0.024177823 -0.00056444446 -0.0023478048
-0.029427866 0.00254 -0.0012219512
-0.0012434309 0.0011288889 0.0021556097
-0.018927781 0.0011288889 -0.0029107316
0.029704183 -0.0022577778 -0.0023478048
-0.011467196 0.0014111111 -0.0043180487
-0.024177823 -0.0016933334 -0.0076956097
0.0012434309 0.0011288889 -0.0074141463
-0.0012434309 0.0014111111 -0.0029107316
0.0067697903 0.00254 -0.0015034146
0.011467196 -0.00056444446 -0.0023478048
0.0089803338 -0.0011288889 0.00074829266
-0.014230376 0.0011288889 0.0021556097
-0.026664685 0.0014111111 -0.0034736586
0.015335647 -0.0019755557 -9.6097559e-05
0.021967279 -0.00028222223 -0.0023478048
0.01782251 -0.00056444446 -0.0023478048
-0.018375145 0.00254 -0.0006590244
0.0023487029 0.0014111111 -0.0023478048
0.015611966 -0.0016933334 -0.0023478048
0.02859891 0.00056444446 -0.0006590244
0.011743514 -0.0014111111 -0.0068512196
0.018927781 -0.0016933334 -0.0051624388
-0.030809455 -0.0014111111 -0.0023478048
-0.027769957 0.00028222223 -0.0006590244
0.024454141 -0.0022577778 -9.6097559e-05
-0.019204099 0.0011288889 -0.0029107316
-0.015335647 0.0022577778 -0.0023478048
-0.013954058 -0.00254 -0.0017848781
0.00041447696 0.00254 -0.0020663415
-0.00013815898 -0.00028222223 -0.0006590244
-0.016993556 0.00254 -9.6097559e-05
-0.0089803338 0.0022577778 -9.6097559e-05
0.032743681 0.0022577778 -0.0017848781
0.023072552 -0.0019755557 -0.0023478048
-0.0023487029 -0.0011288889 -9.6097559e-05
0.015888283 0.00084666669 -0.00037756097
0.0062171547 0.0011288889 0.0010297562
-0.0067697903 -0.00028222223 -0.0006590244
-0.032191046 -0.00084666669 -0.0023478048
0.013954058 0.0016933334 -0.0051624388
-0.015335647 0.00254 -0.0012219512
-0.016717238 0.0014111111 -0.0057253661
-0.033019997 0.00028222223 -0.00094048778
-0.018651463 -0.0019755557 -0.0023478048
-0.014230376 -0.0014111111 -0.0057253661
-0.0037302927 -0.0011288889 -0.0062882928
-0.029980501 0.0022577778 -0.0023478048
-0.019204099 -0.00028222223 -0.0023478048
0.029151546 -0.00084666669 0.00046682928
-0.0084276982 0.0011288889 -9.6097559e-05
0.0051118825 -0.00254 -9.6097559e-05
0.03163841 0.0014111111 -0.0060068294
-0.012848786 -0.0016933334 -0.0023478048
-0.0023487029 0.0022577778 -0.0023478048
-0.024454141 0.0011288889 0.00074829266
0.016717238 0.0016933334 -0.0048809755
-0.0012434309 -0.0016933334 0.00074829266
-0.011467196 -0.0022577778 -9.6097559e-05
-0.011190878 0.0014111111 -0.0068512196
-0.017269874 0.00056444446 -0.0006590244
0.0026250207 -0.00084666669 -0.00037756097
-0.031914726 -0.00084666669 -9.6097559e-05
-0.031914726 -0.0011288889 0.00018536585
-0.013954058 -0.00084666669 -0.0040365853
0.0089803338 -0.0016933334 0.00074829266
-0.027769957 0 -0.0023478048
-0.018098827 0.00254 -0.0012219512
-0.0023487029 0.0022577778 -9.6097559e-05
0.026664685 0.0011288889 -0.0031921952
-0.008704016 -0.0016933334 -0.0034736586
-0.017546192 -0.0014111111 -0.0023478048
-0.015611966 0.00254 -0.0012219512
-0.0064934725 -0.0016933334 -0.0031921952
-0.011467196 -0.0014111111 -0.0060068294
-0.029704183 -0.00028222223 -0.0023478048
0.0040066107 -0.00254 -0.00094048778
0.018375145 0.00254 -0.0015034146
-0.026388368 0.0011288889 -0.0026292682
0.016717238 -0.0014111111 -0.0062882928
0.0012434309 0.00056444446 -0.0006590244
0.012019832 0.00254 -0.00094048778
-0.008704016 0.0011288889 -0.0065697562
-0.029980501 0.0019755557 -0.0023478048
-0.025006777 -0.00084666669 -0.0023478048
-0.011467196 0.0011288889 0.0013112195
0.023901505 -0.0014111111 -0.0074141463
-0.0089803338 0.0014111111 -0.0074141463
-0.026664685 -0.0016933334 -0.0060068294
0.019756736 -0.00254 -9.6097559e-05
0.0034539746 0 -0.0006590244
-0.0089803338 0.0014111111 -0.0043180487
0.021967279 0.0011288889 -0.0023478048
-0.03163841 0.0011288889 -0.0057253661
0.024177823 -0.0014111111 -0.0065697562
0.01367774 0.0011288889 -0.0031921952
0.0098092882 -0.00254 -0.00094048778
-0.0095329704 0.00254 -0.0023478048
-0.0020723848 0.00254 -0.00094048778
0.0040066107 -0.0016933334 -0.0040365853
0.026664685 -0.0014111111 -0.0045995121
-0.013954058 -0.0022577778 -9.6097559e-05
0.0095329704 0.0011288889 -0.0023478048
-0.019480417 0 -0.0006590244
-0.031914726 -0.0011288889 -0.0048809755
-0.013954058 -0.0011288889 0.0024370733
-0.0012434309 0.0014111111 -0.0068512196
0.011190878 -0.0011288889 -0.0057253661
0.031914726 -0.00028222223 -0.0006590244
0.0089803338 -0.0016933334 -0.0062882928
0.031914726 0.0014111111 -0.0045995121
0.026388368 -0.0014111111 -0.0034736586
0.029151546 0.0016933334 -0.0045995121
-0.02583573 0.0019755557 -0.0023478048
0.0073224264 0.0016933334 -0.0023478048
0.027769957 0.00254 -0.0006590244
0.013954058 0.0011288889 0.0015926829
0.019204099 0.00056444446 -0.0023478048
-0.016717238 0.0011288889 -0.0076956097
0.016717238 0.0011288889 -9.6097559e-05
-0.028875228 -0.00254 -0.0015034146
0.022519914 -0.00254 -0.00037756097
0.032191046 0 -0.0023478048
0.013125104 0.00254 -0.00094048778
-0.027217321 0.00028222223 -0.0006590244
0.018927781 -0.00084666669 -0.0029107316
0.03163841 0.0014111111 -0.003755122
0.0092566526 -0.00056444446 -0.0023478048
0.019480417 0.0016933334 -9.6097559e-05
0.00041447696 0.0019755557 -0.0023478048
-0.0037302927 0.0016933334 0.0013112195
-0.0064934725 -0.0016933334 0.0013112195
-0.019756736 -0.00056444446 -0.0023478048
-0.0040066107 -0.0011288889 0.0018741463
-0.011190878 -0.00254 -0.0012219512
0.0012434309 -0.0011288889 -0.003755122
0.019204099 0.0014111111 -0.0034736586
-0.021690961 0.00254 -0.00094048778
-0.00096711289 -0.0011288889 0.0013112195
-0.0037302927 -0.0011288889 -0.0040365853
-0.011190878 0.0014111111 0.0010297562
-0.0062171547 0.0011288889 0.0018741463
0.010638243 -0.0014111111 -9.6097559e-05
-0.0015197488 0.00254 -0.0006590244
-0.025559412 0.0019755557 -9.6097559e-05
0.014783012 0 -0.0023478048
-0.03163841 0.0014111111 -0.0043180487
0.0073224264 -0.00084666669 -0.00037756097
-0.008704016 0.0014111111 -0.0040365853
0.015611966 0.00084666669 -0.00037756097
-0.026664685 -0.0011288889 -0.0082585365
0.015888283 -0.0022577778 -0.0023478048
-0.014506694 0.00254 -0.0017848781
-0.017269874 -0.00084666669 -0.0023478048
-0.027217321 0.00056444446 -0.0023478048
0.016717238 0.0014111111 -0.0076956097
-0.0075987442 -0.00056444446 -0.0006590244
0.00096711289 0.00254 -0.0020663415
0.031085772 -0.00254 -0.00037756097
-0.030809455 -0.0014111111 -9.6097559e-05
-0.026941003 -0.0014111111 -0.0043180487
0.010638243 0.00084666669 -0.0023478048
0.011743514 -0.0014111111 0.0018741463
-0.0031776568 0.00254 -0.0015034146
-0.023901505 -0.0011288889 -0.0034736586
-0.0040066107 -0.0014111111 0.0010297562
0.0062171547 0.0016933334 0.0010297562
0.019204099 -0.0022577778 -0.0023478048
0.021690961 -0.00084666669 -0.0026292682
-0.010085606 -0.0019755557 -0.0023478048
0.018098827 0.0011288889 -0.0023478048
0.025283094 -0.00254 -0.0017848781
-0.026941003 0.0014111111 -0.0045995121
-0.021138325 0 -0.0006590244
0.02058569 0.00254 -0.0015034146
0.0012434309 0.0011288889 0.0015926829
0.0089803338 -0.0011288889 -0.0057253661
0.019480417 0.00254 -9.6097559e-05
0.01229615 0.00254 -0.00094048778
0.008704016 -0.00254 -0.0020663415
0.0062171547 0.0011288889 -0.0031921952
-0.023901505 -0.0011288889 -0.0060068294
-0.0059408364 -0.00254 -0.00094048778
-0.011190878 0.0014111111 -0.0043180487
0.0089803338 -0.0016933334 -0.0074141463
-0.0042829285 -0.00254 -0.00037756097
0.01367774 0.0011288889 -0.003755122
-0.016717238 -0.0011288889 -0.0074141463
0.0098092882 0.0019755557 -9.6097559e-05
0.021414643 -0.00084666669 -0.00037756097
0.00013815898 0.00254 -9.6097559e-05
0.020309372 -0.00084666669 -0.0023478048
-0.011743514 0.0019755557 -9.6097559e-05
-0.014783012 -0.0019755557 -0.0023478048
-0.023625188 -0.00056444446 -0.0023478048
0.03163841 -0.0014111111 -0.0065697562
0.029704183 0.00084666669 -0.0023478048
0.0012434309 -0.0014111111 -0.0079770731
0.014230376 -0.00254 -0.00094048778
-0.018375145 -0.0014111111 -0.0023478048
0.021414643 -0.0014111111 -0.0034736586
-0.01367774 -0.0014111111 -0.0048809755
0.015611966 -0.00254 -0.0012219512
-0.015335647 0.0019755557 -9.6097559e-05
-0.0078750625 0.0014111111 -0.0023478048
0.0081513803 0.0022577778 -0.0023478048
0.0098092882 -0.00028222223 -0.0006590244
-0.0031776568 0.00254 -0.00094048778
-0.0067697903 0.0014111111 -0.0023478048
-0.00041447696 0.0019755557 -0.0023478048
0.0042829285 0.00254 -0.0012219512
0.019204099 0.00084666669 0.0010297562
0.011743514 0.0014111111 0.0015926829
-0.0037302927 0.0011288889 -0.0062882928
-0.027769957 -0.00254 -0.00037756097
-0.025559412 0.0019755557 -0.0023478048
0.0012434309 0.0022577778 -9.6097559e-05
0.021414643 -0.0011288889 0.0013112195
-0.0053882007 0 -0.0023478048
-0.0015197488 0.0014111111 0.0024370733
-0.026112048 0.0016933334 -0.0023478048
-0.023901505 0.0016933334 -0.0040365853
-0.010638243 0.00056444446 -0.0006590244
0.015888283 0.0016933334 -9.6097559e-05
0.019480417 -0.00254 -0.0020663415
-0.0042829285 -0.00254 -9.6097559e-05
0.029151546 0.0016933334 0.0015926829
-0.016440921 -0.0014111111 -0.0031921952
0.018927781 0.00028222223 -0.0023478048
0.0064934725 0.0011288889 -0.0057253661
0.023072552 -0.0014111111 -9.6097559e-05
-0.024177823 -0.0016933334 -0.0026292682
0.011743514 -0.0011288889 0.0018741463
-0.0015197488 0.0014111111 -0.0060068294
0.0012434309 0.0016933334 0.00074829266
-0.016717238 -0.00254 -0.0017848781
0.024730459 0.00254 -0.0015034146
0.0098092882 -0.0016933334 -9.6097559e-05
-0.0045592468 0.00254 -0.0015034146
-0.013125104 0.00254 -0.00094048778
-0.024177823 0.00084666669 -0.0006590244
-0.019756736 0.00028222223 -0.0006590244
-0.024454141 -0.00254 -0.00094048778
-0.0092566526 -0.0014111111 -0.0043180487
0.021690961 -0.0011288889 -0.0079770731
0.022796232 -0.0016933334 -0.0023478048
0.023901505 -0.0014111111 -0.0051624388
0.0089803338 -0.0014111111 -0.0079770731
-0.021967279 -0.0019755557 -0.0023478048
-0.0012434309 0.0014111111 -0.0051624388
-0.026941003 -0.0014111111 -0.0029107316
0.008704016 0.0016933334 -0.0071326829
0.024454141 0.00254 -9.6097559e-05
-0.024177823 0.00084666669 -0.003755122
0.026112048 -0.00084666669 -0.0023478048
0.026112048 -0.00254 -0.0020663415
0.0056645186 0.0011288889 -9.6097559e-05
-0.011467196 0.0014111111 -0.0062882928
0.031914726 0.0022577778 -0.0015034146
-0.0026250207 -0.00028222223 -0.0006590244
0.012019832 -0.0022577778 -9.6097559e-05
-0.03136209 0.0011288889 -0.0023478048
-0.026388368 0.0011288889 -9.6097559e-05
0.008704016 -0.0014111111 -0.0048809755
0.021414643 -0.0014111111 0.0024370733
-0.018927781 0.0016933334 0.0018741463
0.011467196 0.00056444446 -0.0026292682
0.011467196 -0.0016933334 -0.0043180487
-0.00096711289 -0.0011288889 0.0018741463
0.026941003 0.0014111111 0.00018536585
0.029151546 -0.00056444446 -0.0023478048
0.027769957 -0.0022577778 -0.00037756097
0.021967279 -0.00254 -9.6097559e-05
0.033019997 0 -0.0017848781
-0.028046275 0.0022577778 -9.6097559e-05
0.029151546 0.00254 -0.0023478048
0.017546192 0.0019755557 -9.6097559e-05
-0.020309372 0.0011288889 -9.6097559e-05
-0.024177823 0.00254 -0.0023478048
-0.0051118825 -0.0016933334 -0.0023478048
-0.029151546 -0.0016933334 -0.0057253661
-0.0089803338 0.00254 -0.0023478048
0.0051118825 -0.0016933334 -9.6097559e-05
-0.016440921 -0.0014111111 -0.0082585365
-0.016440921 0.0011288889 0.0021556097
0.019756736 -0.0011288889 -9.6097559e-05
-0.021690961 -0.00084666669 -0.0040365853
-0.0012434309 0.0011288889 0.0013112195
-0.010361924 0.00254 -0.0023478048
0.00041447696 -0.00254 -0.00094048778
0.0040066107 0.0014111111 -0.0060068294
0.016993556 0.00254 -0.00037756097
0.011467196 0.0011288889 -0.0079770731
0.021414643 0.0011288889 -0.0051624388
0.021138325 -0.0011288889 -0.0023478048
0.026388368 -0.0011288889 -0.0043180487
-0.032191046 -0.0016933334 -0.0023478048
0.021690961 0.0016933334 -0.0060068294
-0.026664685 0.0022577778 -9.6097559e-05
-0.013125104 -0.00254 -0.0015034146
-0.015335647 -0.00254 -0.0015034146
-0.008704016 -0.00084666669 -0.00037756097
-0.018098827 -0.00254 -0.00094048778
-0.0062171547 0.0011288889 0.0013112195
0.013401422 -0.00254 -9.6097559e-05
0.0062171547 -0.00084666669 -0.0060068294
0.018927781 0.0016933334 -0.0076956097
0.0067697903 0.0022577778 -9.6097559e-05
-0.018927781 -0.0014111111 0.0013112195
-0.018927781 0.0014111111 0.0013112195
-0.018098827 0.0019755557 -9.6097559e-05
-0.015888283 0.0016933334 -9.6097559e-05
-0.030256819 -0.00084666669 -0.00037756097
-0.021967279 0.00056444446 -0.0006590244
0.0040066107 -0.0011288889 -0.0057253661
0.018098827 0.0022577778 -9.6097559e-05
0.011190878 -0.00028222223 -0.0023478048
-0.021690961 -0.00056444446 -0.0023478048
0.026388368 0.0014111111 -0.0043180487
0.016440921 0.00028222223 -0.0006590244
0.026388368 0.0016933334 -9.6097559e-05
-0.012019832 0.00028222223 -0.0023478048
0.00013815898 0.00254 -0.0023478048
-0.0089803338 -0.0016933334 -0.0031921952
-0.0089803338 0.0016933334 -0.0040365853
-0.0034539746 0.0011288889 -0.0023478048
-0.029427866 -0.00084666669 -0.00037756097
0.0062171547 0.0016933334 -0.0065697562
0.032743681 0.0022577778 -0.0023478048
0.021414643 -0.0014111111 -0.0051624388
0.029151546 0.0016933334 -0.003755122
-0.018927781 0.0011288889 -0.0074141463
-0.016440921 -0.00084666669 -0.00037756097
0.011743514 -0.0014111111 0.0015926829
-0.0073224264 0.00254 -0.00037756097
0.0084276982 -0.00084666669 -9.6097559e-05
0.025006777 0.00084666669 -0.00037756097
-0.0064934725 -0.0011288889 -0.0040365853
-0.018927781 -0.00084666669 -0.00037756097
0.024177823 0.0016933334 -0.0029107316
-0.023901505 -0.00254 -0.0012219512
0.014506694 0.00254 -0.0017848781
-0.0029013387 -0.0019755557 -9.6097559e-05
-0.030533137 -0.0014111111 -0.0023478048
0.012848786 -0.0022577778 -9.6097559e-05
0.023625188 0.00254 -9.6097559e-05
-0.024454141 -0.0014111111 -0.0054439022
0.029980501 -0.0022577778 -0.0023478048
0.011190878 -0.0011288889 0.0021556097
-0.033019997 0.00084666669 -0.00094048778
0.011467196 0.00028222223 -0.0006590244
-0.029151546 0.0016933334 -0.0045995121
-0.0048355646 -0.0016933334 -9.6097559e-05
-0.013125104 -0.0022577778 -9.6097559e-05
0.029980501 0.00254 -0.00037756097
0.0037302927 -0.0014111111 -0.0043180487
0.024177823 -0.0014111111 -0.0054439022
-0.0034539746 -0.0011288889 -0.0031921952
0.032191046 -0.00084666669 -0.00037756097
-0.0048355646 -0.00254 -0.0006590244
0.023625188 0 -0.0006590244
-0.032743681 0.0016933334 -0.0006590244
0.029427866 0.0016933334 -9.6097559e-05
-0.018651463 0.00254 -0.0017848781
0.016717238 0.0014111111 -0.0031921952
-0.031914726 -0.0011288889 -0.0062882928
-0.02058569 0.0022577778 -0.0023478048
0.0062171547 -0.0016933334 0.0018741463
-0.019204099 -0.00084666669 -0.0068512196
0.026664685 -0.0014111111 -0.0051624388
-0.030809455 -0.00056444446 -0.0006590244
0.019204099 0.0014111111 0.00018536585
0.0012434309 0.0011288889 0.00074829266
0.029151546 0.0016933334 0.0010297562
-0.0020723848 0.00084666669 -0.00037756097
0.013954058 -0.0016933334 0.00074829266
-0.016717238 0.0014111111 -0.0065697562
-0.031914726 0.0011288889 0.0021556097
0.0056645186 0.0019755557 -0.0023478048
-0.018375145 -0.00254 -0.00037756097
-0.026941003 -0.00254 -9.6097559e-05
-0.019204099 0.0011288889 -0.0026292682
-0.008704016 0.0011288889 0.00046682928
0.023901505 -0.0014111111 -0.0068512196
-0.023901505 0.0014111111 -0.0054439022
-0.0031776568 -0.00254 -0.0020663415
-0.0064934725 0.0014111111 -0.0040365853
0.026388368 0.0014111111 -0.003755122
0.010361924 -0.0022577778 -9.6097559e-05
0.021414643 0.0014111111 -0.0026292682
-0.00013815898 0.0019755557 -0.0023478048
-0.018927781 -0.00084666669 -0.0054439022
0.0012434309 -0.0011288889 0.0024370733
0.0078750625 -0.0016933334 -9.6097559e-05
0.0012434309 -0.00084666669 -0.0031921952
0.019204099 -0.0011288889 -0.0060068294
0.01782251 0.0022577778 -9.6097559e-05
0.0084276982 0.00084666669 -0.0023478048
0.023072552 0.00254 -0.0023478048
0.028046275 0 -0.0006590244
0.018927781 -0.0011288889 -0.0057253661
-0.033019997 -0.00084666669 -0.0017848781
0.0092566526 0.00254 -9.6097559e-05
-0.01367774 -0.0011288889 0.0021556097
-0.019204099 -0.00084666669 -0.00037756097
-0.016717238 -0.0011288889 -0.0029107316
0.0020723848 0.00254 -0.0020663415
-0.014506694 -0.0014111111 -0.0023478048
-0.030256819 -0.00056444446 -0.0006590244
0.011190878 0.0014111111 0.0021556097
0.0012434309 -0.00084666669 -0.0060068294
-0.028046275 0.00056444446 -0.0023478048
-0.00041447696 0.00084666669 -0.00037756097
0.029427866 0.0022577778 -9.6097559e-05
-0.019204099 -0.0014111111 -0.0045995121
