# .PCD v0.7 - Point Cloud Data file format
VERSION 0.7
FIELDS x y z
SIZE 4 4 4
TYPE F F F
COUNT 1 1 1
WIDTH 1237
HEIGHT 1
VIEWPOINT 0 0 0 1 0 0 0
POINTS 1237
DATA ascii
0.018403018 -0.00039076924 -0.000462
-0.0036422641 -0.00254 -0.001039
0.018786415 0.001563077 -0.0075783334
-0.0036422641 -0.0013676923 -0.0039240001
0.00019169811 -0.00078153849 -0.00065433333
0.0055592451 -0.00254 -0.0023853334
0.014569056 -0.00254 -0.0023853334
-0.016677735 0.001563077 0.0016536667
0.011693585 0.001563077 -0.0031546666
0.0015335849 -0.001563077 -0.0054626665
0.018978113 -0.00097692304 0.00088433333
0.0013418867 -0.00097692304 -7.733333e-05
-0.014569056 0.00254 -0.00026966666
0.0086264145 0.001563077 -0.0041163336
-0.0084347166 0.00254 -0.0018083333
0.0088181132 0.001563077 -0.004501
0.0082430188 0.00254 -0.001616
0.013227169 0.0013676923 -0.0023853334
-0.01418566 -0.0011723076 -0.0060396665
-0.01418566 -0.0011723076 0.001269
0.0061343396 0.0011723076 -0.0073859999
-0.0046007545 -0.001563077 -7.733333e-05
0.01418566 -0.001563077 0.00030733334
0.0028754717 0.0011723076 -0.0023853334
0.0024920753 0.0017584616 -0.0023853334
0.0013418867 0.001563077 -0.0027699999
-0.0059426413 -0.0021492308 -0.0023853334
-0.011693585 0.0013676923 -0.0060396665
0.0049841506 0.00254 -0.0023853334
-0.01418566 -0.0011723076 -0.0070013334
-0.01629434 0.00097692304 0.0022306666
0.018978113 0.001563077 -0.0046933335
-0.013802264 0.0013676923 0.00030733334
0.00095849053 0.001563077 0.0010766666
0.0093932077 0.00254 -0.0018083333
-0.017061131 0.00039076924 -0.0023853334
-0.0046007545 0.00254 -0.0014236667
-0.0040256605 0.001563077 -0.0035393334
0.01821132 -0.00078153849 -0.0023853334
0.013802264 -0.0013676923 -0.0046933335
0.011501887 0.00058615382 -0.0025776667
0.0065177358 0.0013676923 0.0022306666
-0.017636226 0.00019538462 -0.00065433333
-0.016677735 -0.0021492308 -7.733333e-05
-0.0049841506 -0.00254 -0.001039
0.0090098111 -0.0011723076 -0.0073859999
0.01111849 0.00097692304 -0.0043086666
0.003450566 -0.00078153849 -0.000462
0.0028754717 0.00058615382 -0.0023853334
-0.0040256605 0.0013676923 -0.0064243334
-0.02032 -0.00097692304 -0.0020006667
0.0028754717 0.0011723076 -7.733333e-05
-0.0070928298 0.00058615382 -0.0023853334
-0.017827924 0.00039076924 -0.00065433333
-0.0057509434 0.00254 -0.00065433333
0.0061343396 0.00097692304 -0.0058473335
-0.013035472 -0.0023446153 -0.0023853334
0.0063260375 0.00097692304 -0.0070013334
-0.0011501886 0.001563077 -0.0027699999
0.0036422641 -0.00097692304 -0.0058473335
-0.0076679243 0.00254 -0.00065433333
-0.0092015089 0.0011723076 -0.0035393334
-0.01629434 0.0013676923 -0.0079629999
0.0030671698 0.0021492308 -7.733333e-05
-0.0047924528 -0.00019538462 -0.000462
0.0030671698 -0.00097692304 -0.0023853334
-0.019169811 -0.00078153849 -0.00026966666
0.019553207 0.00019538462 -0.000462
0.0090098111 0.00097692304 -0.0035393334
-0.012843774 0 -0.0023853334
-0.0011501886 -0.00097692304 0.0022306666
0.02032 0.00078153849 -0.0018083333
-0.012268679 0.00019538462 -0.00065433333
-0.01418566 -0.00097692304 -0.0060396665
0.016869433 0.0011723076 -0.0025776667
-0.0019169811 0.00058615382 -0.0023853334
-0.0021086792 -0.00097692304 -7.733333e-05
0.013802264 0.001563077 -0.0033470001
0.01418566 0.0011723076 -0.0071936669
-0.016486038 -0.00097692304 -0.0060396665
-0.0092015089 -0.001563077 -0.0077706669
0.02032 0.0017584616 -0.00026966666
0.0013418867 0.0017584616 0.0020383333
-0.0090098111 0.00097692304 -0.005655
0.00019169811 0.00019538462 -0.00065433333
0.0092015089 -0.0013676923 -0.0037316666
0.0013418867 0.0011723076 -0.0033470001
-0.0065177358 0.00097692304 0.00088433333
0.01016 0.0013676923 -7.733333e-05
-0.013802264 0.0011723076 -0.004501
-0.011501887 0.001563077 -0.0054626665
-0.00076679245 0.00039076924 -0.0023853334
-0.016677735 -0.00097692304 0.001269
-0.0090098111 -0.00097692304 -0.0066166664
0.0090098111 -0.0017584616 -0.0025776667
0.0053675468 0.00254 -0.000462
0.01016 0.0021492308 -7.733333e-05
-0.02032 -0.00078153849 -0.0020006667
-0.0090098111 0.00097692304 -0.0068089999
-0.019169811 0.0013676923 -0.0075783334
-0.019169811 0.001563077 0.0010766666
-0.018594716 0.00097692304 -0.00026966666
-0.001725283 0.00097692304 -0.0023853334
0.0026837734 -0.0021492308 -0.0023853334
-0.0076679243 -0.0021492308 -7.733333e-05
-0.0067094336 -0.00254 -0.0018083333
-0.018019622 0.0017584616 -0.0023853334
0.0074762264 0.00019538462 -0.000462
-0.015335849 0.00058615382 -0.00065433333
0.0067094336 -0.0019538461 -7.733333e-05
-0.0092015089 -0.001563077 -0.004501
0.003450566 0.00254 -0.00065433333
-0.0092015089 -0.00097692304 -0.0066166664
0.001725283 -0.00254 -7.733333e-05
0.005175849 -0.001563077 -0.0023853334
-0.010735094 -0.00254 -0.001616
0.0084347166 -0.00097692304 -0.00026966666
-0.019169811 0.001563077 0.000115
0.0019169811 0.00019538462 -0.000462
-0.0036422641 -0.0011723076 0.00049966667
-0.01418566 -0.001563077 -0.0035393334
-0.0086264145 0.00097692304 -0.0043086666
0.0074762264 0.00254 -0.0021929999
-0.0099683013 -0.00097692304 -7.733333e-05
-0.01418566 -0.001563077 -0.006232
0.019744905 0.0013676923 -7.733333e-05
0.02032 0.001563077 -0.00065433333
0.018594716 -0.00039076924 -0.0023853334
0.01821132 -0.00039076924 -0.000462
-0.0088181132 0.0013676923 -0.0041163336
0.0086264145 0.001563077 -0.0037316666
0.0013418867 0.00097692304 0.000115
-0.0092015089 0.00254 -0.00026966666
0.01418566 -0.0013676923 0.00069199997
-0.015527546 0.00254 -0.0020006667
-0.016102642 0.00097692304 -7.733333e-05
-0.0024920753 -0.00254 -0.0021929999
0.019169811 0.00097692304 0.000115
-0.0015335849 0.0011723076 -0.004501
-0.019361509 0.0011723076 -0.0025776667
-0.018786415 -0.0019538461 -0.00026966666
-0.013802264 0.001563077 -0.004501
0.0092015089 0.00058615382 -0.0023853334
-0.017827924 -0.00254 -0.001039
0.00019169811 -0.00058615382 -0.00065433333
0.013993962 0.00254 -0.0018083333
-0.013993962 -0.00254 -0.000462
0.018978113 -0.0011723076 -0.0033470001
0.0040256605 -0.0021492308 -0.0023853334
0.0013418867 -0.0017584616 0.00030733334
-0.012268679 -0.00254 -0.000462
0.0036422641 -0.00097692304 -0.0052703335
0.011693585 0.0013676923 0.001846
0.001725283 -0.0017584616 -7.733333e-05
0.016677735 -0.0011723076 -0.005655
-0.01207698 -0.00254 -0.00065433333
-0.01629434 -0.0011723076 0.00069199997
0.0026837734 0.00254 -0.00084666669
0.011693585 -0.0011723076 -0.0046933335
-0.019361509 -0.0017584616 -0.00026966666
-0.01418566 -0.0013676923 -0.0073859999
-0.0040256605 -0.0013676923 -0.0066166664
-0.011310188 -0.001563077 -0.006232
-0.0084347166 -0.00039076924 -0.000462
0.005175849 -0.00019538462 -0.0023853334
0.0011501886 0.00097692304 -0.005655
0.011501887 -0.0017584616 -0.0054626665
-0.01629434 0 -0.0023853334
0.019361509 0.0023446153 -0.0018083333
-0.0038339621 0.0011723076 -0.0081553329
0.0092015089 0.0011723076 -0.0035393334
0.00095849053 0.00097692304 -0.0031546666
0.00019169811 -0.00039076924 -0.0023853334
0.018978113 -0.001563077 -0.0041163336
0.011693585 -0.0011723076 -0.0043086666
-0.013227169 0.00039076924 -0.00065433333
-0.0088181132 0.0013676923 -0.005655
0.017252829 -0.00254 -0.0014236667
0.0013418867 -0.0017584616 -0.0068089999
0.0021086792 0.0011723076 -0.0023853334
-0.013610566 -0.00019538462 -0.0023853334
-0.013610566 -0.00058615382 -0.0023853334
-0.019361509 -0.0013676923 -0.0070013334
-0.014377358 -0.0011723076 -0.0023853334
-0.005175849 0.00097692304 -0.00026966666
-0.012652075 -0.00254 -0.0023853334
0.016102642 -0.00254 -0.0014236667
0.0093932077 -0.00097692304 -7.733333e-05
0.0063260375 -0.00097692304 -0.0071936669
-0.013802264 0.0013676923 0.00088433333
-0.00038339623 -0.00097692304 -0.00026966666
-0.017636226 0.00254 -0.0012313334
-0.0092015089 0.0013676923 -0.0046933335
0.015335849 -0.00078153849 -0.0023853334
-0.003450566 0.00254 -0.000462
0.018786415 0.00097692304 -0.0068089999
-0.01629434 0.001563077 0.001269
-0.018786415 -0.0013676923 0.00049966667
-0.018786415 -0.00254 -0.00026966666
-0.0055592451 -0.00078153849 -0.0023853334
-0.0076679243 -0.0013676923 -7.733333e-05
0.01821132 -0.0019538461 -0.00026966666
0.019553207 -0.0011723076 -7.733333e-05
0.0088181132 -0.001563077 -0.005078
0.0024920753 -0.001563077 -7.733333e-05
0.013993962 -0.0017584616 -0.0066166664
-0.02032 0.00039076924 -0.0021929999
0.012843774 -0.0013676923 -0.0023853334
-0.011310188 0.001563077 -0.0060396665
0.0072845281 0.001563077 -7.733333e-05
0.0088181132 0.00097692304 0.00088433333
-0.018978113 0.001563077 0.00049966667
0.013227169 -0.00097692304 -0.00026966666
0.01016 0.00058615382 -0.0023853334
-0.011501887 0.0013676923 -0.0079629999
0.019553207 0.00058615382 -0.000462
-0.0038339621 0.00097692304 -0.0068089999
0.019361509 0.00097692304 -7.733333e-05
0.016677735 -0.0017584616 -0.00026966666
0.017252829 -0.00058615382 -0.0023853334
-0.0063260375 0.00097692304 0.0010766666
-0.0011501886 -0.0021492308 -0.0023853334
0.014760754 -0.0023446153 -0.0023853334
0.019361509 0.0023446153 -0.00084666669
-0.0011501886 0.00097692304 -0.0041163336
-0.00076679245 0.00254 -0.00026966666
0.013802264 0.0011723076 -0.0081553329
-0.01418566 0.0011723076 -0.0073859999
-0.014952453 -0.0023446153 -7.733333e-05
0.013418867 0.0011723076 -7.733333e-05
0.0036422641 0.00254 -0.001039
0.0088181132 0.00097692304 -0.0071936669
-0.00038339623 -0.00058615382 -0.000462
-0.0084347166 -0.0011723076 -7.733333e-05
-0.0040256605 0.00097692304 -0.0077706669
0.0038339621 0.00097692304 -0.0054626665
-0.0080513209 -0.0019538461 -7.733333e-05
0.011310188 0.00097692304 -0.0060396665
0.02032 0.0019538461 -0.00026966666
0.02032 -0.00097692304 -0.00084666669
0.018019622 -0.0023446153 -0.00026966666
0.01629434 0.001563077 -0.0066166664
0.013802264 -0.001563077 -0.0033470001
0.011310188 -0.0013676923 -0.0046933335
-0.013227169 -0.00254 -0.0018083333
0.017636226 0.0023446153 -0.0023853334
0.012843774 -0.00254 -0.00065433333
-0.0084347166 -0.00039076924 -0.0023853334
0.0011501886 -0.0013676923 -0.0058473335
-0.016486038 0.0021492308 -0.0023853334
0.01629434 -0.001563077 0.000115
0.0093932077 -0.0023446153 -0.0023853334
-0.0092015089 0.0013676923 -0.0060396665
-0.0090098111 0.00097692304 0.001846
-0.015144151 0.00254 -0.001039
-0.0065177358 -0.0017584616 -0.005655
0.0072845281 -0.00254 -0.000462
-0.013802264 -0.0013676923 -0.0031546666
-0.013802264 -0.001563077 -0.0031546666
0.013610566 0.001563077 -7.733333e-05
0.013993962 -0.00039076924 -0.0023853334
0.016677735 -0.00097692304 -0.0048856665
0.011693585 0.00097692304 0.00049966667
-0.00019169811 0.00254 -0.001616
0.019553207 -0.00097692304 -0.0023853334
0.014569056 0.00019538462 -0.000462
-0.016677735 -0.00097692304 0.0022306666
0.016677735 -0.00058615382 -0.000462
0.019553207 -0.00058615382 -0.0023853334
-0.0099683013 -0.0011723076 -7.733333e-05
0.0069011319 0.0019538461 -0.0023853334
0.012268679 0.0017584616 -7.733333e-05
-0.014760754 0.0021492308 -7.733333e-05
0.013227169 -0.00254 -0.001039
0.0030671698 -0.0013676923 -7.733333e-05
0.01016 -0.0023446153 -7.733333e-05
0.016677735 0.00097692304 0.0010766666
0.0092015089 -0.001563077 -0.0043086666
-0.017061131 -0.00254 -0.0018083333
0.010926792 0.00254 -0.0018083333
0.019361509 0.0011723076 -0.0052703335
-0.0086264145 0.00097692304 -0.0071936669
0.011693585 0.001563077 -0.0079629999
0.015144151 -0.00254 -0.0023853334
0.019169811 -0.001563077 0.001846
-0.0090098111 0.00097692304 -0.006232
-0.0011501886 0.001563077 -0.0060396665
-0.018978113 -0.001563077 0.0022306666
-0.011885283 -0.00254 -0.0021929999
0.0038339621 0.0013676923 -0.0081553329
-0.011501887 0.001563077 -0.006232
-0.0074762264 -0.00254 -0.001039
0.0070928298 -0.00254 -0.000462
0.019744905 0.0023446153 -0.001616
-0.014760754 0.00019538462 -0.00065433333
-0.0086264145 -0.0013676923 -0.0033470001
0.011501887 -0.00254 -0.0018083333
0.0065177358 0.001563077 -0.0048856665
-0.018786415 0.00254 -0.00084666669
-0.0040256605 -0.0013676923 -0.0043086666
-0.013993962 -0.00019538462 -0.0023853334
0.017252829 -0.00058615382 -0.000462
0.01629434 0.0013676923 0.001269
-0.0088181132 0.00097692304 0.00030733334
0.0013418867 0.0011723076 -0.0075783334
-0.0080513209 0.00078153849 -0.0023853334
-0.013993962 -0.00097692304 -0.0077706669
0.0046007545 -0.00058615382 -0.000462
0.0061343396 0.001563077 0.001269
0.0040256605 0.0013676923 -0.0046933335
0.00095849053 0.0011723076 -0.006232
-0.012652075 -0.0013676923 -0.0023853334
-0.0092015089 0.00097692304 -0.0039240001
0.016102642 -0.00254 -0.0012313334
-0.015719244 -0.0019538461 -0.00026966666
-0.0092015089 0.00078153849 -0.00065433333
-0.01111849 -0.0011723076 0.0014613334
0.0065177358 0.0013676923 -0.0037316666
0.020128302 0.0019538461 -0.0023853334
0.013227169 -0.00097692304 -7.733333e-05
-0.0019169811 0.0011723076 -7.733333e-05
-0.012652075 -0.00254 -7.733333e-05
-0.0038339621 0.0019538461 -0.00026966666
-0.0013418867 -0.0011723076 -0.0029623334
0.0042173583 -0.00097692304 -0.00026966666
0.017252829 0.00097692304 -0.00026966666
-0.01418566 -0.00097692304 -0.0039240001
-0.016486038 -0.00254 -0.0021929999
0.014760754 0.00019538462 -0.000462
0.011501887 0.00254 -0.000462
-0.0076679243 -0.0019538461 -7.733333e-05
-0.00038339623 -0.00039076924 -0.000462
-0.012268679 -0.0019538461 -7.733333e-05
0.014952453 -0.00254 -0.001616
-0.0042173583 0.00254 -0.0021929999
0.018978113 0.001563077 -0.0070013334
0.011501887 0.00097692304 -0.0073859999
-0.016486038 -0.0017584616 -0.0068089999
0.019169811 0.00254 -0.0021929999
0.017636226 -0.001563077 -0.0023853334
-0.0038339621 0.00097692304 -0.0037316666
-0.0026837734 -0.0017584616 -0.0023853334
0.0046007545 0.00254 -0.00026966666
-0.0036422641 0.001563077 -0.0025776667
-0.0067094336 0.0011723076 0.0010766666
0.0088181132 -0.0017584616 0.00088433333
-0.00095849053 -0.0013676923 -0.005655
0.0032588679 -0.00254 -7.733333e-05
-0.0021086792 -0.0013676923 -0.0023853334
-0.0036422641 -0.00254 -0.00026966666
0.01418566 0.00097692304 -0.0033470001
-0.013993962 -0.00097692304 -0.0035393334
0.0088181132 0.00097692304 -0.0064243334
-0.0080513209 -0.00254 -0.0020006667
-0.016869433 -0.00254 -0.00084666669
-0.012843774 0.00254 -0.0021929999
0.016677735 -0.00097692304 -0.0031546666
0.0061343396 0.001563077 -0.0035393334
-0.016486038 -0.0017584616 -0.0033470001
-0.016677735 -0.0011723076 -0.0027699999
-0.010351698 0.00254 -0.0020006667
0.011310188 -0.001563077 -0.005655
-0.0065177358 0.001563077 -0.0064243334
-0.01418566 0.0013676923 -0.0079629999
0.017061131 0.00097692304 -0.0023853334
0.011693585 0.0011723076 -0.0075783334
-0.016869433 -0.0011723076 0.00030733334
0.0053675468 -0.00058615382 -0.0023853334
-0.0038339621 -0.0017584616 0.00049966667
-0.016869433 -0.001563077 0.0020383333
-0.0038339621 0.0017584616 -0.004501
-0.01629434 -0.001563077 -0.0052703335
-0.01629434 0.0013676923 -0.0058473335
-0.0074762264 -0.00078153849 -0.0023853334
-0.0042173583 0.001563077 -0.0023853334
-0.0065177358 -0.0011723076 -0.0081553329
0.00076679245 0.001563077 -0.0023853334
-0.019169811 -0.001563077 -0.0025776667
-0.011501887 0.001563077 0.00030733334
0.011310188 0.0013676923 -0.0081553329
0.00076679245 -0.00097692304 -0.0023853334
-0.0015335849 0.0013676923 -0.0027699999
-0.0090098111 -0.00254 -0.00084666669
0.014569056 -0.00254 -0.000462
0.013227169 -0.00019538462 -0.0023853334
0.018978113 0.00254 -0.0018083333
-0.015335849 -0.00254 -0.00026966666
0.02032 0.00039076924 -0.000462
-0.01418566 -0.0013676923 0.0026153333
0.0024920753 -0.00097692304 -0.00026966666
0.0036422641 -0.0023446153 -0.0023853334
-0.0067094336 0.0023446153 -7.733333e-05
-0.0038339621 -0.00097692304 -0.0033470001
-0.018786415 -0.0013676923 -0.0054626665
0.0015335849 -0.0011723076 0.0024230001
-0.0065177358 -0.00254 -0.000462
0.0063260375 -0.001563077 0.00049966667
-0.019744905 0.00019538462 -0.00065433333
0.019936603 -0.0023446153 -0.001039
-0.014952453 -0.00078153849 -0.00026966666
-0.0011501886 -0.00039076924 -0.000462
-0.013993962 -0.0023446153 -7.733333e-05
-0.0036422641 0.00254 -7.733333e-05
0.0070928298 -0.00078153849 -0.000462
0.012652075 -0.0021492308 -7.733333e-05
-0.005175849 -0.00254 -0.00084666669
-0.013035472 0.0023446153 -7.733333e-05
-0.017061131 0.0021492308 -0.00026966666
0.013802264 0.00097692304 -0.0060396665
0.0047924528 -0.0011723076 -0.0023853334
0.018978113 -0.0013676923 0.0010766666
0.012843774 -0.00254 -0.00026966666
-0.0015335849 0.001563077 -0.0068089999
-0.012460377 0.00254 -0.00026966666
-0.016677735 0.0013676923 0.0022306666
0.013802264 -0.0013676923 0.00030733334
-0.0053675468 0.0023446153 -0.0023853334
0.0042173583 0.00254 -0.0018083333
0.0011501886 -0.0011723076 -0.0043086666
-0.016677735 0.0011723076 0.00030733334
-0.013802264 0.001563077 -0.0025776667
0.013227169 0.0021492308 -0.0023853334
-0.019744905 -0.00078153849 -0.00026966666
0.0090098111 -0.001563077 0.00049966667
-0.017444529 -0.0017584616 -7.733333e-05
-0.014377358 0.00254 -7.733333e-05
0.02032 0.001563077 -0.000462
-0.01016 0.0021492308 -7.733333e-05
-0.0063260375 -0.00097692304 -0.0070013334
-0.0082430188 -0.00097692304 -0.0023853334
0.013610566 0.0011723076 -0.0029623334
-0.016869433 0.0013676923 -7.733333e-05
0.015527546 -0.00058615382 -0.000462
0.013993962 -0.00097692304 0.0016536667
-0.018978113 0.0011723076 -0.0081553329
-0.0021086792 0.00019538462 -0.0023853334
-0.0044090566 -0.00254 -0.001616
-0.0011501886 0.00039076924 -0.0023853334
0.02032 -0.00058615382 -0.00065433333
0.017252829 -0.0019538461 -0.00026966666
-0.015527546 -0.00254 -0.0021929999
-0.0086264145 0.0011723076 -0.0029623334
0.01111849 0.0011723076 0.0014613334
-0.0090098111 0.00097692304 -0.0077706669
0.00019169811 0.001563077 -0.0023853334
0.0023003772 -0.00254 -0.001616
0.018019622 -0.0019538461 -0.0023853334
0.014760754 -0.00254 -0.001039
-0.01207698 -0.00254 -0.001039
-0.01418566 -0.0011723076 -0.005655
-0.011310188 -0.00097692304 0.00030733334
0.011885283 -0.00019538462 -0.000462
-0.0063260375 0.001563077 -0.005655
0.019169811 -0.0011723076 -0.005078
0.0038339621 0.00254 -0.0021929999
-0.013802264 0.0011723076 -0.0027699999
-0.0065177358 0.001563077 -0.0070013334
0.0013418867 0.0011723076 -0.0066166664
-0.012268679 -0.00254 -0.0012313334
0.010735094 -0.0019538461 -7.733333e-05
0.0036422641 0.0013676923 0.0022306666
0.0076679243 0.00254 -0.00084666669
0.0040256605 0.00097692304 -0.0041163336
-0.01418566 0.00254 -0.00065433333
-0.0036422641 -0.00254 -0.0012313334
-0.0047924528 0.00097692304 -0.000462
0.00095849053 0.0013676923 -0.0041163336
-0.02032 -0.00019538462 -0.001616
0.019553207 0.00097692304 -0.00026966666
0.016486038 -0.001563077 -0.0029623334
-0.0088181132 0.00078153849 -0.00065433333
-0.019936603 0.0013676923 -7.733333e-05
0.0015335849 -0.00254 -0.001616
-0.0040256605 -0.00097692304 -0.0066166664
-0.0011501886 0.00097692304 -0.0037316666
0.0099683013 -0.0021492308 -0.0023853334
-0.0036422641 -0.00097692304 -0.0048856665
-0.0038339621 -0.001563077 0.001269
-0.00057509431 -0.00097692304 -7.733333e-05
-0.0026837734 0.0011723076 -7.733333e-05
-0.01418566 0.001563077 -0.0058473335
0.011693585 0.0013676923 -0.0033470001
0.011693585 0.0011723076 -0.0048856665
-0.016677735 0.0021492308 -0.00026966666
0.01418566 0.0011723076 -0.0060396665
0.0090098111 0.0021492308 -7.733333e-05
-0.0088181132 0.0013676923 -0.0071936669
0.0030671698 0.00097692304 -7.733333e-05
-0.0084347166 -0.0021492308 -0.0023853334
0.012268679 -0.00254 -0.0012313334
0.0055592451 -0.00078153849 -0.0023853334
-0.019169811 0.0011723076 -0.005078
0.016102642 0.00254 -0.0018083333
-0.0061343396 0.0011723076 -0.0068089999
-0.0059426413 0.0021492308 -0.0023853334
-0.0092015089 0.00097692304 -0.004501
0.0019169811 -0.0021492308 -7.733333e-05
0.0015335849 -0.0011723076 -0.005078
-0.016486038 -0.00097692304 -0.0054626665
-0.011501887 0.00097692304 -0.0075783334
0.0036422641 -0.0013676923 -0.0068089999
0.02032 0.0019538461 -0.0012313334
0.018786415 0.00097692304 -0.0077706669
-0.01821132 0.00254 -0.0018083333
0.0065177358 0.00097692304 -0.0058473335
0.013227169 -0.00039076924 -0.0023853334
-0.014569056 -0.00254 -0.00026966666
0.01111849 0.001563077 -0.0073859999
-0.018786415 -0.0011723076 -0.0073859999
0.001725283 0.0019538461 -0.00026966666
-0.0011501886 -0.00097692304 0.00030733334
0.018403018 -0.00254 -0.0012313334
0.011501887 0.0017584616 0.001269
0.0082430188 0 -0.0023853334
0.00095849053 0.0011723076 -0.0058473335
-0.0042173583 -0.0013676923 -0.0023853334
0.0088181132 -0.001563077 -0.0052703335
-0.0090098111 0.00097692304 0.000115
0.015527546 0.0013676923 -0.0023853334
-0.0036422641 -0.0013676923 -0.0054626665
-0.0047924528 0.00254 -0.0023853334
0.01418566 -0.0011723076 0.00049966667
-0.014569056 -0.00058615382 -0.0023853334
0.016677735 -0.0011723076 -0.0046933335
-0.01418566 0.0011723076 -0.006232
-0.0028754717 0.00254 -0.0012313334
0.0072845281 -0.001563077 -0.0023853334
-0.0082430188 -0.00254 -0.001616
0.00095849053 -0.00254 -0.001039
-0.017444529 0.00078153849 -0.00065433333
0.019936603 -0.0023446153 -0.0021929999
0.017444529 0.00097692304 -7.733333e-05
0.019361509 -0.0011723076 0.0010766666
-0.0090098111 0.001563077 -0.0054626665
-0.013993962 -0.00097692304 -0.0070013334
0.01207698 -0.0021492308 -7.733333e-05
0.0038339621 -0.00254 -0.001039
0.016677735 -0.00097692304 0.0010766666
0.02032 -0.0011723076 -0.0018083333
-0.012652075 0.00254 -0.000462
-0.0095849056 -0.00254 -0.0012313334
-0.017444529 0.00254 -0.0014236667
0.0090098111 0.00254 -0.00065433333
-0.0084347166 0.00058615382 -0.00065433333
0.01629434 -0.00097692304 -0.0068089999
0.016486038 0.001563077 0.0026153333
-0.0065177358 -0.0013676923 -0.0054626665
-0.0078596221 -0.00254 -0.000462
-0.017444529 -0.00254 -0.0012313334
0.0088181132 0.00097692304 -0.0070013334
0.016102642 -0.0023446153 -0.00026966666
-0.0038339621 -0.00097692304 -0.0073859999
0.0057509434 -0.00254 -0.00084666669
0.01111849 -0.00254 -0.001616
0.0090098111 -0.00019538462 -0.0025776667
-0.013993962 -0.00097692304 -0.0039240001
0.013610566 -0.00254 -7.733333e-05
0.0065177358 0.001563077 -0.0037316666
0.0040256605 0.0011723076 0.0022306666
-0.02032 0.00097692304 -0.00084666669
-0.0090098111 -0.001563077 0.000115
0.0013418867 0.0017584616 -0.0070013334
-0.011693585 -0.00097692304 -0.0039240001
-0.016677735 -0.001563077 -0.0041163336
0.0057509434 -0.00254 -7.733333e-05
0.011693585 -0.001563077 -0.0054626665
0.00057509431 -0.00254 -7.733333e-05
0.0090098111 -0.001563077 0.0014613334
-0.0036422641 -0.0013676923 -0.0043086666
0.011885283 0.00058615382 -0.000462
-0.013227169 -0.00254 -0.0023853334
0.011501887 -0.0021492308 -7.733333e-05
-0.0042173583 0.00254 -0.0023853334
0.016677735 0.00254 -0.001039
-0.013610566 0.00254 -7.733333e-05
-0.0088181132 0.001563077 0.001846
0.018786415 0.001563077 -0.0054626665
0.018019622 -0.00254 -0.0020006667
-0.01418566 0.0011723076 0.000115
0.0049841506 0.0011723076 -7.733333e-05
0.01111849 0.00254 -0.0014236667
-0.0021086792 -0.00254 -0.00084666669
0.017827924 0.00097692304 -0.0023853334
-0.011310188 0.0017584616 -0.0058473335
0.013610566 0.00254 -0.0020006667
-0.0024920753 0.00254 -0.000462
-0.012460377 0.0021492308 -7.733333e-05
-0.0092015089 0.00019538462 -0.00065433333
0.015527546 0 -0.0023853334
0.013418867 0.00254 -0.00065433333
0.0088181132 0.00254 -0.00065433333
0.018594716 -0.001563077 -7.733333e-05
-0.0061343396 0.00097692304 -0.0054626665
0.0013418867 -0.00097692304 -0.0079629999
0.0013418867 -0.0017584616 -0.0035393334
0.013802264 -0.0019538461 -7.733333e-05
-0.0065177358 0.00254 -0.0020006667
0.0076679243 -0.0021492308 -0.0023853334
-0.0082430188 -0.00254 -0.0014236667
-0.0088181132 0.001563077 0.001269
-0.013802264 -0.001563077 -0.0043086666
0.0092015089 -0.0013676923 -0.005655
-0.018594716 -0.00039076924 -0.0023853334
-0.011501887 0.00097692304 -0.005655
-0.012268679 -0.00254 -7.733333e-05
-0.010926792 -0.001563077 -0.0023853334
0.0086264145 0.0011723076 -0.0068089999
0.0013418867 0.0017584616 -0.0071936669
0.0065177358 -0.00097692304 -0.0043086666
0.0040256605 -0.001563077 -0.0070013334
-0.013418867 -0.0011723076 -0.0023853334
-0.0093932077 -0.00254 -0.0020006667
-0.014569056 0.00039076924 -0.0023853334
0.012843774 0.00254 -0.0014236667
-0.0044090566 0.00254 -0.001039
0.0084347166 0.0013676923 -7.733333e-05
0.015335849 0.00254 -7.733333e-05
0.0040256605 0.00097692304 -7.733333e-05
-0.019361509 -0.0013676923 -0.0025776667
0.0090098111 0.001563077 -0.0046933335
-0.018978113 -0.0011723076 0.0024230001
0.0086264145 0.0011723076 -0.0029623334
0.02032 0.0019538461 -0.0014236667
-0.0080513209 0.0019538461 -0.0023853334
-0.014952453 -0.0013676923 -0.0023853334
-0.0063260375 0.001563077 -0.005078
-0.016486038 0.00097692304 -0.0031546666
-0.0065177358 -0.00039076924 -0.000462
-0.015144151 -0.0019538461 -0.00026966666
-0.01418566 -0.00254 -0.0012313334
-0.0086264145 -0.00097692304 -0.0039240001
0.019169811 -0.0011723076 -0.0052703335
0.0097766034 0.00097692304 -7.733333e-05
0.0036422641 -0.0013676923 0.0024230001
-0.0036422641 0.00097692304 -0.0041163336
0.0053675468 -0.00254 -0.0023853334
-0.0026837734 -0.0023446153 -7.733333e-05
-0.0057509434 0.00097692304 -0.00026966666
-0.016677735 -0.001563077 0.00069199997
-0.0057509434 0.0013676923 -0.0023853334
0.01016 0.00254 -7.733333e-05
-0.011310188 -0.001563077 0.000115
-0.0013418867 -0.0013676923 -0.0029623334
-0.018978113 -0.00254 -0.00065433333
0.013802264 0.001563077 -0.006232
0.016869433 -0.00019538462 -0.0023853334
-0.016677735 0.001563077 0.0022306666
0.013993962 -0.00254 -0.001039
-0.01418566 -0.00097692304 -0.0071936669
-0.0047924528 0 -0.0023853334
-0.00095849053 -0.0013676923 -0.006232
0.0092015089 -0.001563077 -0.0073859999
0.02032 -0.0013676923 -0.001039
0.0024920753 0.00019538462 -0.000462
0.0061343396 0.001563077 0.0020383333
0.0028754717 -0.0017584616 -7.733333e-05
0.0013418867 0.00097692304 -0.0081553329
-0.0065177358 -0.0017584616 -0.0046933335
0.017827924 -0.00058615382 -0.0023853334
0.01418566 -0.00254 -0.001616
-0.019169811 0.00097692304 -0.0035393334
0.0023003772 0 -0.000462
-0.011310188 0.00097692304 -0.0037316666
0.0099683013 -0.00254 -0.0014236667
-0.019169811 0.00097692304 0.0014613334
-0.0065177358 -0.0013676923 -0.005078
-0.0015335849 -0.0013676923 0.001269
-0.0030671698 0 -0.0023853334
0.0030671698 -0.00254 -0.0012313334
-0.019361509 0.0011723076 0.0022306666
0.017636226 -0.00254 -0.0021929999
0.015527546 0.0021492308 -0.0023853334
0.013035472 -0.0019538461 -0.0023853334
0.0024920753 -0.00254 -0.0012313334
0.015910942 -0.001563077 -7.733333e-05
0.0036422641 0.00097692304 0.0014613334
0.013802264 -0.001563077 0.0020383333
0.0044090566 -0.0013676923 -0.0023853334
0.019361509 0.0011723076 -0.0027699999
0.0070928298 0.0021492308 -0.0023853334
-0.0049841506 -0.00019538462 -0.0023853334
-0.02032 0.00078153849 -0.001616
0.01418566 0.00097692304 -0.0025776667
-0.011310188 -0.00019538462 -0.0023853334
-0.0059426413 0.00058615382 -0.0023853334
0.0021086792 0 -0.000462
-0.0036422641 0.0011723076 -0.006232
-0.0065177358 0.00097692304 -0.005078
0.011310188 -0.0017584616 -0.0041163336
0.00095849053 0.0013676923 -0.0033470001
-0.019936603 0.0013676923 -0.0023853334
0.0086264145 0.0013676923 -0.0039240001
-0.014377358 0.0011723076 -7.733333e-05
-0.01111849 -0.0013676923 0.0020383333
0.01016 -0.00254 -0.001616
-0.0036422641 -0.00254 -0.0021929999
-0.0086264145 0.00097692304 -0.0041163336
0.013418867 0.00254 -0.00026966666
-0.0067094336 0.0013676923 0.000115
0.00057509431 -0.0019538461 -0.0023853334
0.00057509431 -0.0023446153 -0.0023853334
-0.0026837734 0.0021492308 -0.0023853334
-0.013802264 -0.0023446153 -0.0023853334
-0.0067094336 0.00254 -0.0020006667
-0.0042173583 0.00097692304 -0.000462
0.010926792 -0.0023446153 -0.0023853334
-0.0047924528 -0.0023446153 -7.733333e-05
-0.0092015089 0.0011723076 -0.0041163336
-0.02032 0.0011723076 -0.0020006667
-0.0090098111 0.00097692304 -0.004501
-0.011693585 0.0013676923 0.00069199997
0.01207698 -0.001563077 -7.733333e-05
0.018786415 0.00097692304 -0.0058473335
0.012268679 0.0013676923 -0.0023853334
-0.018786415 0.0017584616 -0.00026966666
-0.01418566 0.0013676923 -0.0039240001
0.0065177358 -0.0013676923 -0.004501
0.0065177358 0.0013676923 0.0024230001
0.0011501886 0.00097692304 -0.004501
0.0011501886 -0.0011723076 -0.0058473335
0.0084347166 -0.00019538462 -0.000462
0.016486038 -0.00058615382 -0.0025776667
-0.0049841506 -0.0011723076 -7.733333e-05
-0.011310188 -0.00097692304 -0.0031546666
0.014760754 -0.001563077 -0.0023853334
-0.0065177358 -0.0017584616 -0.0048856665
-0.016869433 -0.0013676923 0.001846
-0.0078596221 -0.00254 -0.0014236667
0.010926792 0.00254 -0.0020006667
0.013993962 -0.00097692304 0.001846
0.00076679245 0.0019538461 -0.0023853334
-0.013802264 0.00097692304 -0.00026966666
-0.0013418867 0.0017584616 -0.0071936669
0.0047924528 -0.001563077 -7.733333e-05
-0.0013418867 -0.00097692304 -0.0075783334
0.011693585 0.0019538461 -7.733333e-05
-0.0086264145 -0.0013676923 -0.0070013334
-0.0065177358 -0.0013676923 0.0020383333
0.01111849 0.00097692304 0.0022306666
0.0092015089 0.0013676923 0.001269
0.0049841506 -0.00254 -7.733333e-05
0.0028754717 0.00039076924 -0.000462
0.013418867 0.00254 -0.001039
0.010926792 -0.00254 -0.0023853334
0.011310188 -0.0011723076 -0.0064243334
-0.0067094336 0.0013676923 0.00049966667
0.0047924528 0.00078153849 -0.0023853334
-0.0078596221 0.0013676923 -7.733333e-05
-0.01016 -0.00254 -0.00065433333
0.0099683013 0.0023446153 -7.733333e-05
-0.00019169811 0.00019538462 -0.00065433333
-0.0063260375 -0.0019538461 -0.0023853334
0.0057509434 -0.0023446153 -0.0023853334
-0.011310188 0.0011723076 -0.0054626665
-0.0076679243 0.00254 -0.0012313334
-0.0065177358 0.00097692304 0.00069199997
0.013802264 -0.0011723076 -0.0041163336
0.0055592451 -0.0013676923 -7.733333e-05
0.0036422641 0.001563077 0.001846
-0.0040256605 0.0011723076 -0.0037316666
0.0061343396 0.0011723076 -0.0079629999
0.0024920753 0.00097692304 -0.0023853334
0.0063260375 -0.001563077 -0.0052703335
0.013610566 0.0011723076 -0.0064243334
0.0097766034 -0.0019538461 -0.0023853334
-0.018019622 -0.00097692304 -7.733333e-05
-0.013802264 0.00097692304 -0.0073859999
-0.0046007545 -0.00254 -0.00084666669
0.0057509434 0.00254 -0.001039
-0.014377358 0.0011723076 -0.0023853334
0.017444529 0.0013676923 -0.0023853334
0.0065177358 -0.0019538461 -7.733333e-05
0.0095849056 -0.00254 -0.00084666669
0.016102642 -0.00254 -0.001039
-0.0011501886 -0.00097692304 -0.0073859999
-0.00038339623 0.00254 -7.733333e-05
-0.0011501886 0.00097692304 -0.0070013334
-0.0080513209 -0.0023446153 -0.0023853334
-0.00038339623 -0.0011723076 -7.733333e-05
-0.0076679243 0.0019538461 -0.0023853334
0.01418566 -0.001563077 0.001846
0.017827924 0.00254 -0.001039
-0.0030671698 0.00058615382 -0.0023853334
-0.011501887 0.001563077 0.00088433333
0.0040256605 0.0011723076 -0.0068089999
-0.00076679245 -0.00254 -0.0012313334
0.019361509 -0.0011723076 0.0024230001
0.00019169811 0.00254 -0.00026966666
0.013802264 0.00097692304 -0.0071936669
0.011693585 -0.0017584616 -0.0023853334
0.0082430188 -0.00058615382 -0.0023853334
0.00095849053 0.001563077 -0.0077706669
-0.00019169811 -0.0019538461 -0.0023853334
0.0011501886 -0.001563077 -0.0025776667
0.016102642 -0.001563077 -7.733333e-05
-0.0065177358 -0.0013676923 -0.0079629999
0.0070928298 -0.00254 -0.0012313334
0.018978113 0.001563077 -0.0066166664
0.016677735 -0.00097692304 0.001269
-0.0040256605 0.00097692304 -0.0058473335
0.016677735 0.0011723076 -0.0037316666
-0.0069011319 -0.00019538462 -0.000462
0.011501887 -0.00097692304 0.00088433333
-0.0026837734 -0.0017584616 -7.733333e-05
-0.0011501886 -0.00019538462 -0.000462
0.010735094 -0.00254 -0.001616
-0.0059426413 -0.00058615382 -0.0023853334
0.013993962 0.00097692304 -0.004501
-0.016869433 -0.001563077 -0.006232
0.0023003772 0.0017584616 -0.0023853334
0.016677735 -0.0011723076 0.001269
-0.003450566 0.00254 -0.0014236667
0.019744905 -0.00039076924 -0.0023853334
-0.010735094 -0.00254 -0.0012313334
-0.01016 -0.0013676923 -7.733333e-05
0.003450566 0.0013676923 -0.0077706669
0.019744905 -0.0019538461 -0.0021929999
-0.0042173583 0.00039076924 -0.00065433333
0.0086264145 -0.0011723076 -0.004501
-0.011310188 -0.0013676923 -0.0052703335
0.0036422641 -0.0013676923 -0.0041163336
0.018786415 0.0019538461 -0.00026966666
0.0038339621 -0.001563077 0.001269
-0.0072845281 0.00254 -7.733333e-05
0.018786415 -0.00097692304 0.0022306666
0.011310188 -0.0011723076 0.0016536667
-0.020128302 0.0017584616 -0.0014236667
-0.0080513209 0.00254 -0.001039
0.0032588679 -0.00019538462 -0.0023853334
0.0047924528 0.0023446153 -0.0023853334
0.0038339621 0.00097692304 -0.005655
-0.0015335849 0.00254 -0.000462
-0.0038339621 0.00097692304 -0.005078
-0.0036422641 -0.0017584616 -0.0046933335
-0.0036422641 0.0013676923 -0.0054626665
-0.019169811 -0.001563077 -0.0043086666
0.0092015089 -0.00097692304 -0.0046933335
0.0090098111 0.00097692304 -0.0075783334
-0.0065177358 0.00097692304 -0.0079629999
0.01418566 -0.00097692304 -0.0027699999
0.016869433 0.00254 -0.001039
0.0086264145 -0.0019538461 -0.0023853334
0.013993962 0.0017584616 -0.0052703335
0.01418566 -0.001563077 0.000115
-0.0040256605 0.001563077 -0.0071936669
-0.0090098111 -0.0013676923 0.0026153333
0.015144151 -0.00254 -0.001616
-0.0011501886 0.0011723076 0.0020383333
-0.018786415 0.0023446153 -0.0021929999
0.0076679243 -0.00058615382 -0.0023853334
0.0092015089 -0.0013676923 -0.0033470001
0.0063260375 0.00097692304 -0.0068089999
-0.0028754717 0.00097692304 -0.0023853334
-0.0021086792 -0.0013676923 -7.733333e-05
0.0036422641 -0.0011723076 -0.0041163336
0.0092015089 -0.001563077 -0.005655
0.0078596221 0.00254 -0.00065433333
-0.015910942 0 -0.00065433333
-0.00095849053 0.00254 -0.00026966666
-0.0024920753 -0.001563077 -0.0023853334
0.01111849 0.00097692304 -0.0035393334
0.0059426413 0.00254 -0.0014236667
-0.011693585 -0.0013676923 -0.0029623334
-0.020128302 -0.0019538461 -0.0023853334
-0.016677735 0.0013676923 0.0020383333
0.0088181132 0.001563077 -0.0081553329
-0.0086264145 -0.0023446153 -0.0023853334
-0.0019169811 -0.0023446153 -7.733333e-05
-0.0053675468 -0.00254 -0.00065433333
0.0088181132 0.00078153849 -0.000462
-0.0015335849 0.001563077 -0.0060396665
0.0019169811 0 -0.0023853334
-0.01418566 -0.00039076924 -0.000462
0.00076679245 0.00254 -0.000462
-0.0090098111 0.0017584616 -0.0041163336
-0.01821132 -0.0013676923 -7.733333e-05
0.0090098111 0.00019538462 -0.000462
-0.0019169811 0.00254 -0.0020006667
-0.011310188 0.00097692304 -0.0029623334
0.011693585 0.001563077 -0.0029623334
-0.013418867 -0.00254 -0.0018083333
0.018594716 0.00097692304 -0.00026966666
-0.0032588679 -0.00254 -0.0012313334
0.02032 -0.00058615382 -0.0023853334
-0.0070928298 0.00039076924 -0.00065433333
0.015910942 0.0021492308 -7.733333e-05
0.01207698 0.0023446153 -7.733333e-05
-0.0023003772 0 -0.00065433333
-0.017061131 0.001563077 -0.0023853334
-0.0090098111 -0.00254 -7.733333e-05
-0.016677735 0.0023446153 -0.0023853334
-0.013993962 -0.0017584616 -0.0064243334
-0.0015335849 0.00254 -0.00065433333
0.0097766034 -0.0011723076 -7.733333e-05
0.018786415 0.001563077 -0.0052703335
0.0099683013 -0.00254 -0.001616
0.018978113 0.00097692304 0.000115
0.013610566 0.0011723076 0.0020383333
-0.013802264 -0.00078153849 -0.0027699999
-0.0063260375 -0.00097692304 0.00069199997
-0.018978113 0.0011723076 -0.0079629999
-0.019169811 -0.001563077 -0.0071936669
-0.0086264145 -0.001563077 -0.0066166664
-0.015335849 0.00254 -0.001039
0.0036422641 0.00097692304 0.001269
-0.019744905 0.0019538461 -0.00026966666
0.0090098111 0.001563077 0.0014613334
-0.0049841506 0.0011723076 -7.733333e-05
0.0047924528 0.00097692304 -0.00026966666
-0.01629434 0.001563077 -0.006232
-0.019361509 -0.0013676923 -0.0039240001
-0.011885283 -0.00097692304 -0.0023853334
0.018786415 0.00097692304 -0.0027699999
-0.014952453 -0.00058615382 -0.000462
0.0040256605 0.00097692304 0.0020383333
-0.016869433 0.00254 -0.0018083333
-0.00038339623 0.0017584616 -0.0023853334
-0.0074762264 0.00039076924 -0.0023853334
0.0070928298 -0.00254 -0.0021929999
0.0013418867 -0.00097692304 0.0020383333
-0.0063260375 0.00254 -0.001039
-0.0086264145 0.00097692304 -0.0033470001
0.0086264145 0.0013676923 -0.005078
-0.020128302 -0.0017584616 -7.733333e-05
0.001725283 0.00254 -0.00026966666
-0.01111849 -0.00254 -0.0021929999
0.019169811 0.00097692304 0.0014613334
0.017827924 -0.001563077 -7.733333e-05
0.0021086792 0.00078153849 -0.000462
0.013993962 -0.00097692304 -0.0048856665
-0.016677735 0.0011723076 -0.0031546666
-0.013993962 -0.00254 -0.001039
0.019744905 0.0021492308 -0.00026966666
-0.0063260375 0.00097692304 -0.0033470001
-0.0042173583 -0.00254 -0.00084666669
0.0040256605 0.00019538462 -0.000462
0.0086264145 -0.00097692304 -0.005655
-0.018978113 0.0011723076 0.00069199997
-0.0015335849 -0.0021492308 -0.0023853334
-0.0011501886 -0.001563077 -0.0046933335
0.01111849 0.001563077 -0.006232
0.019361509 0.0013676923 -0.0064243334
-0.011885283 0.00254 -0.0012313334
0.0090098111 -0.00254 -0.0012313334
0.0042173583 -0.0021492308 -7.733333e-05
0.019169811 0.001563077 0.00030733334
0.01016 0.00254 -0.0014236667
0.013993962 -0.00097692304 -0.0071936669
0.01418566 -0.0011723076 -0.0071936669
0.016102642 0.0017584616 -0.0023853334
0.0055592451 0.001563077 -0.0023853334
0.00095849053 0.00254 -0.001039
0.018786415 -0.00097692304 -0.0039240001
-0.0040256605 0.001563077 -0.0048856665
0.0061343396 0.0013676923 -0.0077706669
0.013993962 0.0017584616 0.00088433333
0.0070928298 -0.00254 -0.001039
0.016677735 -0.00078153849 -0.0025776667
0.013802264 -0.0013676923 0.0022306666
0.01016 0.00078153849 -0.000462
0.00095849053 0.0013676923 -0.005655
-0.0080513209 -0.00058615382 -0.0023853334
-0.018403018 0.0021492308 -0.0023853334
-0.013227169 -0.001563077 -7.733333e-05
0 0.001563077 -7.733333e-05
-0.017636226 -0.0023446153 -7.733333e-05
0.018786415 0.0023446153 -0.00026966666
-0.0086264145 0.0011723076 -0.0039240001
-0.013802264 -0.00097692304 0.00069199997
0.0042173583 0.00254 -7.733333e-05
-0.013802264 -0.00097692304 -0.0075783334
0.010735094 0.0017584616 -0.0023853334
0.0038339621 -0.001563077 -0.005078
0.015144151 0.00097692304 -7.733333e-05
-0.016677735 0.0013676923 -0.0033470001
-0.0011501886 -0.001563077 -0.0037316666
0.0011501886 0.001563077 0.00049966667
0.0040256605 -0.00097692304 -0.0079629999
0.0032588679 0.0013676923 -0.0023853334
-0.0024920753 0.00254 -7.733333e-05
-0.019361509 0.00254 -0.0018083333
-0.003450566 0 -0.0023853334
-0.0032588679 0.00254 -0.0014236667
0.011310188 0.001563077 -0.0029623334
0.0067094336 -0.00254 -7.733333e-05
0.019361509 -0.0011723076 -0.0071936669
-0.015144151 -0.00254 -0.0018083333
-0.0080513209 0.00097692304 -0.00026966666
0.018786415 -0.00097692304 -0.004501
0.017252829 -0.00097692304 -0.00026966666
-0.016486038 0.001563077 -0.0060396665
-0.02032 0.00078153849 -0.0018083333
-0.01629434 -0.00019538462 -0.0023853334
0.0011501886 -0.0013676923 -0.0046933335
0.0090098111 -0.0011723076 -0.0081553329
-0.0013418867 0.0017584616 -0.0068089999
-0.015719244 -0.001563077 -0.0023853334
0.00095849053 -0.00254 -0.00084666669
0.010926792 -0.00254 -0.001616
-0.0078596221 0.00254 -0.001616
0.0053675468 -0.0021492308 -7.733333e-05
0.018978113 -0.0011723076 -0.0027699999
-0.0059426413 0.0019538461 -0.0023853334
-0.018978113 0.0011723076 0.00049966667
-0.011310188 0.0013676923 0.0020383333
0.011501887 -0.00097692304 -0.0070013334
-0.019936603 0.0023446153 -0.001039
0.016486038 0.00254 -7.733333e-05
-0.0095849056 -0.0019538461 -0.0023853334
-0.0061343396 0.0011723076 -0.0031546666
0.01418566 0.0013676923 -0.0073859999
-0.003450566 0.00019538462 -0.00065433333
-0.018019622 -0.00254 -0.0018083333
0.0097766034 0.0021492308 -7.733333e-05
0.019169811 0 -0.000462
-0.013418867 -0.0013676923 -7.733333e-05
-0.0076679243 -0.0021492308 -0.0023853334
-0.0088181132 0.00097692304 -0.0064243334
-0.01629434 0.0023446153 -0.0023853334
-0.016677735 0.00058615382 -0.00065433333
-0.016677735 0.0013676923 -0.0043086666
-0.0092015089 0.00097692304 -0.0071936669
-0.0097766034 -0.0013676923 -0.0023853334
0.017061131 -0.001563077 -0.0023853334
0.0082430188 -0.00254 -0.001039
0.00019169811 -0.0021492308 -7.733333e-05
0.001725283 -0.001563077 -0.0023853334
0.0042173583 -0.00254 -0.0018083333
0.011885283 -0.0021492308 -7.733333e-05
-0.011310188 -0.00097692304 -0.0058473335
0.00095849053 0.0017584616 -7.733333e-05
-0.013610566 -0.00019538462 -0.000462
-0.011310188 0.0017584616 -0.0046933335
0.0061343396 0.0013676923 -0.0075783334
-0.01418566 0.0011723076 -0.0066166664
-0.00095849053 0.00019538462 -0.00065433333
-0.011693585 0.0019538461 -0.0023853334
-0.010926792 0.00254 -7.733333e-05
0.0090098111 -0.0011723076 -0.0043086666
0.0092015089 -0.001563077 -0.0039240001
-0.018978113 -0.00254 -0.0014236667
0.0047924528 -0.00058615382 -0.0023853334
-0.011885283 0.00019538462 -0.00065433333
0.01111849 0.0011723076 -0.0041163336
-0.001725283 -0.00097692304 -0.0023853334
-0.011693585 -0.001563077 -0.0048856665
0.019361509 0.0011723076 0.000115
0.01629434 -0.00097692304 -0.0039240001
0.0049841506 0.00058615382 -0.0023853334
0.02032 0.0013676923 -7.733333e-05
0.0078596221 -0.00019538462 -0.000462
-0.0028754717 0.00058615382 -0.0023853334
-0.011885283 0.0019538461 -0.00026966666
-0.0099683013 0.0019538461 -0.0023853334
-0.013802264 -0.00097692304 0.00088433333
-0.00095849053 -0.0023446153 -0.0023853334
-0.0061343396 -0.00254 -0.001039
-0.013418867 0 -0.0023853334
0.0063260375 -0.00019538462 -0.000462
-0.012652075 0.0013676923 -7.733333e-05
-0.001725283 0.0017584616 -7.733333e-05
0.011501887 0.00254 -0.0018083333
0.011693585 0.00097692304 -0.0054626665
0.0024920753 -0.00254 -0.000462
0.016677735 0.001563077 -0.0071936669
0.015144151 0.0021492308 -0.0023853334
-0.0059426413 0.0013676923 -7.733333e-05
-0.011501887 0.001563077 0.0022306666
0.0059426413 -0.00097692304 -0.00026966666
-0.012460377 0.0011723076 -0.0023853334
0.011310188 0.0011723076 0.0026153333
-0.012268679 -0.00254 -0.00026966666
-0.01418566 -0.0013676923 -0.0043086666
0.0065177358 -0.0011723076 -0.0060396665
0.0028754717 0.0019538461 -0.0023853334
0.0049841506 -0.00254 -0.00026966666
0.0040256605 0.00254 -0.0014236667
-0.013035472 -0.00254 -0.0012313334
0.011693585 0.001563077 -0.0035393334
-0.011310188 -0.0021492308 -0.0023853334
0.01629434 0.00097692304 -0.0025776667
0.011885283 0.00097692304 -7.733333e-05
0.017636226 -0.0019538461 -0.00026966666
-0.00095849053 0.00254 -0.0021929999
-0.0069011319 -0.001563077 -0.0023853334
-0.0093932077 0.00254 -0.0012313334
-0.011310188 0.0017584616 -7.733333e-05
0.011693585 0.0011723076 -0.0037316666
0.0032588679 0 -0.000462
0.018978113 0.0019538461 -0.0023853334
0.015335849 0.00254 -0.0020006667
-0.014569056 -0.00254 -0.001616
0.01629434 0.00097692304 -0.00026966666
0.0030671698 -0.00078153849 -0.000462
-0.016677735 -0.00097692304 0.00069199997
0.0055592451 0.00097692304 -0.00026966666
0.0038339621 0.0017584616 0.00069199997
0.011693585 -0.0023446153 -7.733333e-05
0.013418867 -0.00078153849 -0.0023853334
-0.0038339621 0.0017584616 0.0020383333
0.0038339621 0.00097692304 -0.0073859999
0.011310188 0.00019538462 -0.000462
0.012843774 0 -0.000462
0.0040256605 0.00097692304 0.0010766666
0.0063260375 -0.0019538461 -7.733333e-05
0.0015335849 0.0021492308 -0.0023853334
-0.010543396 -0.0021492308 -0.0023853334
-0.01418566 -0.0013676923 0.0022306666
-0.0065177358 -0.0017584616 -0.0073859999
-0.012843774 -0.0023446153 -7.733333e-05
0.0053675468 -0.0011723076 -0.0023853334
0.0036422641 -0.00078153849 -0.000462
-0.011310188 0.001563077 -0.0025776667
0.0038339621 0.0017584616 -0.0031546666
-0.011693585 -0.0011723076 0.0016536667
0.01207698 0.00254 -0.00065433333
-0.0061343396 -0.0011723076 0.0014613334
-0.0067094336 -0.00097692304 0.00030733334
0.011310188 -0.001563077 -0.0035393334
-0.0019169811 0.00254 -0.0014236667
-0.0065177358 -0.0013676923 -0.0031546666
-0.0061343396 0.00039076924 -0.0023853334
0 -0.00058615382 -0.00065433333
0.0013418867 -0.0017584616 -0.0031546666
-0.0044090566 0.00254 -0.00026966666
0.0055592451 -0.0023446153 -7.733333e-05
-0.019169811 -0.0019538461 -0.00026966666
-0.013993962 -0.0017584616 0.001269
0.0036422641 0.00097692304 -0.0064243334
-0.0038339621 0.001563077 -0.0031546666
-0.018786415 -0.0023446153 -0.0023853334
-0.00095849053 -0.0013676923 -0.0029623334
0.0057509434 0.0021492308 -7.733333e-05
-0.012460377 0.00019538462 -0.0023853334
-0.0015335849 -0.001563077 0.000115
-0.013802264 0.0023446153 -7.733333e-05
-0.017061131 0.00058615382 -0.0023853334
-0.013802264 -0.001563077 -0.0037316666
-0.0063260375 0.00097692304 -0.0043086666
-0.01418566 0.0013676923 -0.005655
0.0078596221 0.001563077 -0.0023853334
0.0030671698 0.00254 -0.000462
-0.012843774 -0.0021492308 -7.733333e-05
-0.0059426413 -0.00254 -0.0012313334
-0.017636226 0.00254 -0.00084666669
-0.017444529 0.0019538461 -0.00026966666
-0.0065177358 -0.00039076924 -0.0023853334
0.013802264 -0.00254 -0.0012313334
0.019169811 0.001563077 0.000115
0.015719244 -0.00254 -0.001616
0.0092015089 -0.00097692304 0.0016536667
0.018978113 -0.0011723076 0.001846
0.011310188 0.001563077 -0.0060396665
-0.0038339621 -0.00097692304 -0.0070013334
-0.0092015089 -0.001563077 -0.0075783334
-0.0011501886 0.001563077 0.00049966667
-0.00038339623 -0.00254 -0.000462
0.0086264145 0.0011723076 -0.0048856665
0.011693585 0.00254 -0.0021929999
0.018786415 0.00254 -0.0018083333
0.013802264 -0.0013676923 -0.0064243334
0.0023003772 0.00254 -0.00026966666
-0.0082430188 0.001563077 -7.733333e-05
-0.016677735 0.00097692304 -0.0054626665
0.010543396 0.00058615382 -0.0023853334
0.0040256605 -0.00097692304 0.00030733334
0.01629434 0.0011723076 0.00088433333
0.01418566 0.001563077 0.0016536667
-0.0019169811 0.00078153849 -0.00065433333
0.0061343396 0.00254 -0.0014236667
0.0011501886 -0.00254 -7.733333e-05
-0.00095849053 -0.0011723076 -0.0035393334
0.014377358 -0.0013676923 -7.733333e-05
0.011693585 -0.0011723076 0.0010766666
0.0069011319 -0.00097692304 -0.0023853334
-0.0061343396 -0.0013676923 0.00069199997
-0.017061131 0.00039076924 -0.00065433333
0.0015335849 -0.001563077 -0.0035393334
0.0013418867 0.0017584616 -7.733333e-05
-0.013802264 -0.0013676923 -0.0035393334
-0.0011501886 0.0013676923 -0.0052703335
0.0019169811 0.0021492308 -7.733333e-05
0.02032 0.0013676923 -0.00065433333
-0.01111849 0.00097692304 -0.000462
0.0093932077 -0.00254 -0.001039
-0.01629434 -0.001563077 0.0014613334
0.0065177358 0.001563077 0.0022306666
-0.013227169 -0.00254 -0.000462
-0.011501887 0.00058615382 -0.0023853334
-0.011310188 0.00097692304 -7.733333e-05
0.0038339621 0.0017584616 0.00030733334
-0.016869433 -0.0011723076 -0.0075783334
-0.0086264145 0.0011723076 0.00030733334
-0.0069011319 -0.00254 -0.0012313334
0.016677735 -0.001563077 0.00049966667
-0.0088181132 -0.00097692304 0.00069199997
0.0057509434 0.00254 -0.00026966666
0.00095849053 0.0011723076 -0.0046933335
0.01111849 0.00097692304 0.0020383333
-0.018978113 -0.0013676923 0.0026153333
0.014760754 0.00078153849 -0.0023853334
-0.017636226 0.00254 -0.001616
0.0015335849 -0.0013676923 -0.004501
-0.0049841506 0.00058615382 -0.00065433333
0.0040256605 -0.0011723076 -0.0073859999
0.0061343396 0.001563077 0.00049966667
-0.016486038 -0.00097692304 0.0014613334
-0.010543396 -0.0021492308 -7.733333e-05
0.013610566 -0.00254 -0.0021929999
-0.0082430188 -0.0017584616 -7.733333e-05
0.00057509431 0.00097692304 -0.0023853334
-0.0013418867 -0.00254 -0.00084666669
0.013802264 0.0021492308 -0.0023853334
-0.0011501886 0.0011723076 0.0016536667
0.0065177358 0.0013676923 0.00088433333
0.016486038 -0.00097692304 -0.0073859999
-0.0038339621 -0.001563077 -0.006232
0.0065177358 0.0011723076 -0.0058473335
-0.013802264 -0.0011723076 0.001269
0.018786415 0.00097692304 -0.0037316666
0.0042173583 0.00254 -0.001616
0.0040256605 -0.0011723076 -0.0043086666
-0.015144151 -0.00254 -0.0012313334
0.014569056 -0.0011723076 -0.0023853334
0.02032 -0.00058615382 -0.001039
-0.011501887 0.00097692304 -0.0058473335
-0.01629434 -0.00254 -0.0012313334
0.016486038 0.00097692304 -0.0060396665
-0.016486038 -0.00039076924 -0.000462
-0.0036422641 -0.0013676923 0.00030733334
-0.019553207 0.001563077 -7.733333e-05
-0.0070928298 -0.00254 -0.00026966666
0.010543396 -0.00254 -0.00084666669
0.013993962 0.00019538462 -0.0023853334
-0.0011501886 0.00097692304 -0.006232
0.01821132 -0.00254 -0.001039
0.011310188 -0.0019538461 -0.0023853334
