# .PCD v0.7 - Point Cloud Data file format
VERSION 0.7
FIELDS x y z
SIZE 4 4 4
TYPE F F F
COUNT 1 1 1
WIDTH 1201
HEIGHT 1
VIEWPOINT 0 0 0 1 0 0 0
POINTS 1201
DATA ascii
-0.001072931 -0.0029312498 -0.00052880001
0.001861207 -0.00118125 -0.00052880001
0.001072931 -0.0028437499 0.001564
0.00028465517 0.0028875 -0.0004852
0.00028465517 -0.001925 -0.0012264
-0.0015546551 -0.00266875 -0.0002672
0.001072931 -0.0027999999 0.0012588
0.000635 -0.00266875 -0.00065960002
0.0011167241 -0.0022749999 -0.0012264
0.00028465517 -0.0027562499 -5.5999999e-06
-0.00024086206 -0.0029312498 -0.000398
0.0013794828 -0.0027124998 0.000474
0.001072931 -0.0027562499 0.001564
0.0011605172 0.0029312498 -0.00065960002
-0.00076637929 -0.0016187499 -0.0012264
-0.00085396552 -0.0027562499 -0.00079040002
-0.0014232759 -0.00065624999 -5.5999999e-06
-0.0016422414 -0.0022749999 -0.00079040002
-0.001861207 -0.0017062499 -0.00096480001
-0.00024086206 0.0020999999 -0.00087759999
0.0015984483 -0.00061250001 -5.5999999e-06
0.000635 -0.0027562499 -5.5999999e-06
-0.001072931 -0.0027999999 0.00073560001
-0.0017298276 -0.0023624999 -0.0011391999
0.0013356897 -0.0021875 -5.5999999e-06
0.0013356897 0.0027562499 -0.0004852
0.00010948276 0.00144375 -0.00092119997
-0.0015546551 0.0018812499 -0.00065960002
0.00019706896 -0.0028875 -0.00052880001
-0.00037224137 -0.0023624999 -5.5999999e-06
0.0017736207 -0.00091874995 -4.92e-05
0.0016422414 -0.0025374999 -0.00061599998
0.001861207 -0.00048125 -0.0010956
0.00019706896 0.001575 -0.00092119997
6.5689652e-05 -0.00026249999 -5.5999999e-06
-0.001510862 -0.00039375 -5.5999999e-06
-0.00081017241 0.00105 -0.00035439999
-0.00050362071 -0.00153125 -5.5999999e-06
0.0014670689 -0.00096249999 -5.5999999e-06
-0.000635 0.0029749998 -0.00065960002
-0.0011605172 0.0011374999 -0.00083400001
-0.0012918966 -4.3749998e-05 -0.00013640001
-0.00015327586 -0.0025812499 0.00064839999
-0.0012043103 -0.00043749998 -0.0012264
-0.00028465517 0.00013125 -0.0002672
-0.00041603448 0.0017062499 -0.00035439999
0.0015546551 -0.00214375 -0.00079040002
-0.00076637929 -0.0024937498 -5.5999999e-06
0.00067879312 -0.0029312498 -0.0002672
0.0013356897 -0.0025374999 0.001346
0.00089775864 -0.0013125 -5.5999999e-06
0.00054741377 -0.00061250001 -5.5999999e-06
-0.00032844828 -0.00069999998 -5.5999999e-06
0.0011167241 -0.0028875 0.0010408
-0.0011605172 -0.0018374999 -0.0012264
-0.0013794828 -0.0022312498 -5.5999999e-06
0.0018174138 0.00039375 -0.00079040002
0.0011167241 -0.0025374999 0.0014768
-0.00010948276 -0.0028875 -0.00044159999
2.1896552e-05 0.00017499999 -0.0002672
-0.0009415517 0.0029312498 -0.00061599998
-0.00037224137 0.0027999999 -0.0004852
-0.0013356897 0.00069999998 -0.00035439999
0.00015327586 0.0024937498 -0.00079040002
-0.00032844828 -0.0013125 -0.0012264
0.00019706896 -0.0029312498 3.7999998e-05
-0.00010948276 0.00052499998 -0.00092119997
-0.00037224137 -0.00039375 -5.5999999e-06
-0.0013794828 -0.0016625 -5.5999999e-06
-0.0011605172 -0.00245 -0.0010084
0.0011605172 -0.00030625 -5.5999999e-06
0.00054741377 -0.0014874999 -0.0012264
-0.0018174138 0.00030625 -0.00057239999
-0.0011605172 0.0020999999 -0.00079040002
0.000635 0.00266875 -0.00079040002
-0.0017298276 -0.00061250001 -0.0011391999
-0.0016422414 0.00069999998 -0.00079040002
0.00015327586 -0.0020562499 -5.5999999e-06
-0.0015546551 -0.00266875 -0.0002236
0.00024086206 0.00214375 -0.00035439999
0.00089775864 -0.00240625 -0.00079040002
-0.0014232759 -0.0012687499 -0.0012264
0.00076637929 0.0029749998 -0.0004852
-0.0017298276 0.00030625 -0.00035439999
0.00067879312 -0.0023187499 -0.0012264
0.001510862 -0.00056874997 -0.0012264
-0.0014232759 0.001925 -0.00035439999
0.00059120689 0.001225 -0.00035439999
-0.00059120689 -0.0028875 -0.00065960002
0.0016860345 -0.0014874999 -0.0011391999
-0.00085396552 -0.0010062499 -5.5999999e-06
0.00067879312 -0.00074374996 -0.0012264
-0.00072258624 -0.0024937498 -5.5999999e-06
-0.0011605172 -0.0029749998 0.0013024
-0.001072931 0.0027562499 -0.0004852
0.001861207 -0.0007875 -0.00031080001
0.00015327586 0.00048125 -0.00035439999
-0.0004598276 -0.0029312498 -0.000398
0.001029138 -0.00109375 -0.0012264
0.0016860345 0.001225 -0.00057239999
0.0013356897 -0.0022749999 -0.00079040002
0.0009415517 0.00096249999 -0.00079040002
-0.0009415517 -0.0027999999 -5.5999999e-06
-0.0017736207 -0.0017499999 -0.00013640001
-0.00019706896 -0.0028437499 0.00012519999
-0.00041603448 0.0028875 -0.00074679998
0.001029138 0.0029312498 -0.0004852
0.00059120689 -0.0027562499 -5.5999999e-06
0.0012481035 -0.0028437499 0.00082279998
0.00019706896 0.00214375 -0.00079040002
-0.001861207 -0.00048125 -0.00044159999
0.0017298276 -0.0023624999 -0.0004852
0.00041603448 0.0023187499 -0.00079040002
0.0011167241 0.00065624999 -0.00087759999
0.0011167241 -0.0025374999 8.1600003e-05
-0.00041603448 0.0016187499 -0.00092119997
-0.001072931 -0.00043749998 -5.5999999e-06
-0.0016860345 0.00043749998 -0.00079040002
0.0012481035 -0.0028437499 0.00069199997
0.0014232759 -0.0027124998 -0.00057239999
-0.0012918966 4.3749998e-05 -0.0002672
0.00019706896 -0.001575 -5.5999999e-06
-0.00019706896 -0.0023187499 -5.5999999e-06
0.0013356897 -0.0025374999 0.0016512
-0.00076637929 -0.00030625 -5.5999999e-06
-0.0012043103 0.00091874995 -0.00087759999
-0.0011167241 0.00030625 -0.00035439999
-0.00024086206 0.0020124998 -0.00035439999
0.0011167241 0.0018374999 -0.0004852
-0.00098534487 -0.0027999999 -0.00065960002
0.001072931 0.00061250001 -0.00035439999
2.1896552e-05 -0.0011374999 -5.5999999e-06
-0.00037224137 -0.0028875 -0.00061599998
-0.0015984483 -0.0022749999 -0.00087759999
0.0014232759 0.0018374999 -0.00079040002
0.00010948276 0.00074374996 -0.00035439999
-0.00067879312 -0.00065624999 -0.0012264
0.0014670689 -0.0027124998 0.0014332
0.0012918966 0.0023624999 -0.0004852
0.001029138 0.00118125 -0.00035439999
0.00010948276 -0.0029749998 -9.2800001e-05
0.00041603448 0.00240625 -0.00035439999
0.00098534487 0.00105 -0.00083400001
-0.00059120689 0.00074374996 -0.00035439999
0.0014670689 -0.00214375 -0.00079040002
-0.001029138 0.0011374999 -0.00087759999
-2.1896552e-05 -0.0013125 -5.5999999e-06
0.0011605172 -0.0028875 -0.0002672
-0.00085396552 -0.0027999999 -0.00079040002
6.5689652e-05 -0.0029749998 0.00060480001
-0.00010948276 0.0023624999 -0.00087759999
-0.00019706896 -0.00052499998 -0.0012264
6.5689652e-05 0.001925 -0.00083400001
-0.0004598276 0.00061250001 -0.00035439999
-0.00067879312 -0.0016625 -0.0012264
0.00072258624 0.00069999998 -0.00092119997
-0.0017736207 0.00026249999 -0.00035439999
0.00089775864 0.0011374999 -0.00035439999
0.00081017241 -0.0012687499 -5.5999999e-06
-0.0012918966 -0.00021874999 -5.5999999e-06
0.00015327586 8.7499997e-05 -0.0012264
0.00054741377 -0.0010062499 -5.5999999e-06
0.001072931 0.0018812499 -0.00079040002
-0.001510862 -0.00017499999 -9.2800001e-05
-0.0016422414 -0.00245 -0.0004852
0.00010948276 0.0016187499 -0.00035439999
0.00019706896 -0.00069999998 -0.0012264
-0.0012918966 -0.0029749998 0.00073560001
-0.001861207 -0.0010062499 -0.00083400001
0.0013356897 0.0016625 -0.0004852
-0.00037224137 0.00118125 -0.00092119997
-0.00050362071 0.00026249999 -0.00031080001
0.0012481035 -0.00030625 -5.5999999e-06
0.0016860345 -0.0014 -0.0011391999
0.001905 -0.00196875 -0.00096480001
0.00010948276 0.0018374999 -0.00035439999
-0.0012481035 -0.0029312498 -0.0002672
-0.00041603448 -0.0028875 -5.5999999e-06
-2.1896552e-05 -0.0029749998 -5.5999999e-06
-0.0012043103 0.00061250001 -0.00035439999
-0.0004598276 0.001575 -0.00083400001
0.0013356897 0.0025812499 -0.00074679998
-0.001072931 -0.0023624999 -5.5999999e-06
0.00098534487 -8.7499997e-05 -0.0012264
-0.0015546551 -0.00043749998 -0.0012264
-0.00028465517 -0.0027999999 -0.00065960002
-2.1896552e-05 0.0025374999 -0.00079040002
-0.0016422414 0.00048125 -0.00079040002
-0.0018174138 -0.00061250001 -0.00013640001
-0.00028465517 -0.0025812499 -5.5999999e-06
-0.00010948276 0.0007875 -0.00092119997
2.1896552e-05 0.0016625 -0.00083400001
-0.0013356897 -0.0027562499 0.0017819999
0.0013794828 -0.0025812499 0.000256
-0.00085396552 0.00013125 -0.0002672
0.0013356897 0.00179375 -0.00079040002
-0.00032844828 0.0027124998 -0.0004852
-0.00081017241 -0.00118125 -0.0012264
0.001861207 -0.00118125 -0.0011391999
0.0004598276 -0.00266875 -0.00065960002
0.0013794828 -0.0025374999 0.00095359999
0.001510862 0.0010062499 -0.00035439999
-0.0015984483 -0.00109375 -5.5999999e-06
0.0015984483 -0.0025812499 -0.00061599998
-0.00081017241 0.00096249999 -0.00092119997
-0.00059120689 -0.0029312498 -9.2800001e-05
0.001861207 -0.00109375 -0.0007032
-0.0017736207 -0.0022312498 -0.00035439999
-0.0017736207 0.00061250001 -0.00044159999
0.00076637929 -0.0020562499 -5.5999999e-06
-0.00054741377 8.7499997e-05 -0.001052
0.00015327586 -0.00245 -0.0010956
0.0014232759 0.001925 -0.0004852
-0.00098534487 0.00083124998 -0.00087759999
-0.00028465517 0.0014 -0.00035439999
0.0014232759 0.00017499999 -0.0011391999
0.0012918966 -0.0028437499 -0.00031080001
0.00081017241 -0.00048125 -5.5999999e-06
-0.0013794828 -0.00061250001 -5.5999999e-06
0.0015546551 0.0011374999 -0.00079040002
-0.00081017241 -0.00069999998 -5.5999999e-06
-0.00098534487 0.0017062499 -0.00079040002
-0.0011167241 -0.0029312498 0.0002124
0.00050362071 -0.0018812499 -0.0012264
0.0012918966 -0.0028437499 0.0010844
0.00010948276 -0.0024937498 0.00056120002
0.00098534487 -0.00017499999 -0.0012264
0.0017736207 -0.00179375 -5.5999999e-06
-0.00054741377 -0.00043749998 -0.0011828
0.001861207 0 -0.00044159999
-0.0014232759 -0.0007875 -5.5999999e-06
0.00098534487 0.0014 -0.00035439999
0.0012481035 -0.0020562499 -5.5999999e-06
0.00015327586 -0.0025374999 0.00060480001
0.0017298276 -0.0020124998 -0.0012264
-0.00072258624 0.00214375 -0.00044159999
0.0017736207 -0.00118125 -5.5999999e-06
0.00028465517 0.00052499998 -0.00092119997
-0.0012481035 -0.00240625 -0.00079040002
0.001072931 -0.0022749999 -0.0012264
-0.0015984483 -0.0020124998 -0.0012264
-0.00085396552 0.0027562499 -0.00079040002
-0.00081017241 -8.7499997e-05 -0.0012264
0.0013356897 -0.00013125 -5.5999999e-06
-0.00085396552 -0.0017062499 -0.0012264
-0.0011167241 -0.0016625 -5.5999999e-06
-0.00076637929 -0.00245 -0.001052
-0.0016860345 -0.0018374999 -0.0011828
0.0012918966 0.00266875 -0.0004852
-0.001861207 -0.00091874995 -0.00031080001
0.00072258624 -0.0014 -0.0012264
0.00059120689 -0.0029749998 -9.2800001e-05
0.0014670689 -0.00266875 0.0013896
-0.00067879312 8.7499997e-05 -0.00013640001
-0.0018174138 -0.00013125 -0.0002672
0.0013794828 -0.0025374999 0.000256
0.0012043103 -0.0024937498 0.0011716
0.0013356897 -0.00021874999 -5.5999999e-06
-0.001072931 0.00196875 -0.0004852
0.00098534487 4.3749998e-05 -0.0012264
-0.001861207 -0.0016187499 -0.00092119997
0.001029138 -4.3749998e-05 -0.0012264
0.0017298276 -0.001925 -0.0012264
0.00032844828 0.0028875 -0.00079040002
0.001510862 0.00214375 -0.00074679998
0.001072931 0.001575 -0.00079040002
-0.0017736207 -0.0022312498 -0.0007032
-2.1896552e-05 -0.00034999999 -5.5999999e-06
2.1896552e-05 0.00240625 -0.00035439999
-0.0011605172 0.00118125 -0.00079040002
-2.1896552e-05 0.0020999999 -0.00035439999
0.00024086206 0.0016625 -0.00035439999
0.0018174138 -0.0017499999 -0.0011828
-0.0017298276 -0.0022749999 -0.0011391999
0.0011605172 -0.0024937498 0.0013896
-0.0012043103 0.0027999999 -0.00052880001
0.00054741377 0.00118125 -0.00092119997
-0.0012043103 -0.0029749998 0.00086640002
0.0011167241 -0.0028437499 -0.00031080001
-0.0014232759 -0.0028875 -0.00013640001
0.0014670689 -0.0020999999 -5.5999999e-06
-0.0016422414 0.0012687499 -0.00061599998
-0.00019706896 -0.0027124998 0.0007792
-0.00059120689 0.00087499997 -0.00035439999
-0.0009415517 -0.0022312498 -5.5999999e-06
0.000635 0.0020562499 -0.00079040002
-0.00019706896 -0.001925 -5.5999999e-06
0.00019706896 -0.0013125 -0.0012264
0.00041603448 0.0029749998 -0.0007032
0.00059120689 -0.00074374996 -5.5999999e-06
0.0018174138 0.00048125 -0.00061599998
0.0016860345 0.00074374996 -0.00044159999
0.00072258624 0 -0.0011391999
0.0011605172 4.3749998e-05 -5.5999999e-06
-0.001510862 -0.00214375 -0.0012264
0.0016860345 -0.0020562499 -0.00087759999
0.00081017241 0.00043749998 -0.0002672
0.0013356897 0.00144375 -0.0004852
-0.001072931 -0.0028437499 0.00073560001
-0.00098534487 -0.00240625 -5.5999999e-06
-0.0016422414 0.0013125 -0.0004852
0.001905 -0.00043749998 -0.0010084
-0.00054741377 -0.0021875 -0.0012264
-2.1896552e-05 -0.0024937498 0.0010844
0.0011167241 0.00144375 -0.00079040002
-6.5689652e-05 -0.00026249999 -5.5999999e-06
0.0014232759 -0.0028437499 0.0002124
0.00041603448 0.0028875 -0.00079040002
-0.0011167241 0.001925 -0.00035439999
0.001072931 -0.0027999999 0.00091
-0.001861207 -0.0014874999 -0.00083400001
-0.0004598276 0.00052499998 -0.00092119997
0.001861207 0.00013125 -0.00013640001
-0.0018174138 -0.0020562499 -0.00035439999
0.001072931 0.0017499999 -0.00079040002
-0.001861207 -0.0018374999 -0.00065960002
-0.00059120689 -0.00069999998 -5.5999999e-06
-0.00089775864 -0.00240625 -0.00079040002
-0.0012918966 0.0023187499 -0.00079040002
0.00076637929 0.0025812499 -0.00079040002
-0.001029138 -0.0020124998 -0.0012264
0.00098534487 -0.00061250001 -0.0012264
0.0013356897 -0.00026249999 -5.5999999e-06
0.00037224137 0.0029749998 -0.00074679998
0.0011167241 -0.0027999999 0.0016512
-0.0009415517 -0.00074374996 -5.5999999e-06
0.00010948276 -0.0024937498 -0.00079040002
0.00089775864 0.00144375 -0.00087759999
0.00050362071 -0.002625 -0.00074679998
0.0016860345 -0.0023624999 -5.5999999e-06
0.0014232759 -0.0027999999 0.0010844
-0.001861207 -0.001575 -0.001052
0.00098534487 -0.0021875 -5.5999999e-06
0.0011167241 -0.0025812499 0.0010844
-0.0017736207 -0.00065624999 -0.0011391999
0.00032844828 0.0016625 -0.00092119997
-0.00019706896 0.00083124998 -0.00035439999
0.0017298276 0.0007875 -0.00065960002
0.00028465517 -0.0020562499 -0.0012264
-0.000635 -0.00214375 -5.5999999e-06
0.00010948276 -0.002625 -0.00079040002
0.0011167241 -0.00109375 -5.5999999e-06
-6.5689652e-05 0.00030625 -0.00031080001
0.001861207 -0.00087499997 -0.0007032
-0.0009415517 -0.0029749998 -9.2800001e-05
-0.00024086206 8.7499997e-05 -0.001052
0.0014670689 0.00196875 -0.0004852
0.001861207 -0.001575 -0.0004852
-0.0017736207 -0.0012687499 -0.0011391999
0.001072931 -0.0027562499 8.1600003e-05
0.00010948276 -0.0028875 -0.00031080001
-0.00081017241 -0.0013125 -0.0012264
-0.0004598276 0.0010062499 -0.00035439999
0.00067879312 -4.3749998e-05 -5.5999999e-06
-0.0013356897 -0.0023624999 -0.00079040002
0.00089775864 -0.0023187499 -0.0010084
-0.0015546551 -0.00021874999 -4.92e-05
-6.5689652e-05 0.00039375 -0.00092119997
0.00050362071 0.0007875 -0.00092119997
0.00019706896 -0.0028437499 0.00038680001
0.00010948276 -0.0024937498 0.00064839999
0.00019706896 -0.0028437499 -0.00057239999
-0.0012918966 -0.0020124998 -5.5999999e-06
-0.0013794828 0.0018812499 -0.000398
-0.0009415517 0.00118125 -0.00035439999
0.0004598276 0.00196875 -0.00079040002
0.0015546551 0.00091874995 -0.00035439999
0.0012918966 0.0023624999 -0.00079040002
-0.00054741377 -0.00266875 -5.5999999e-06
0.0011605172 0.00043749998 -0.0002672
0.0014232759 0.00043749998 -0.0002672
-0.00067879312 0.0027124998 -0.0004852
0.0012043103 -0.002625 -0.00065960002
0.00015327586 -0.0029312498 0.0016076
-0.00015327586 8.7499997e-05 -0.0010956
0.00041603448 -0.00118125 -0.0012264
0.000635 0.00069999998 -0.00035439999
-0.0013794828 0.0014874999 -0.00079040002
-0.0004598276 0.0028875 -0.00079040002
0.0016422414 0.00118125 -0.0004852
-0.0016422414 0.0014 -0.00061599998
0.0013356897 -0.0012687499 -0.0012264
-0.0014670689 0.0023624999 -0.00065960002
-0.00098534487 0 -0.0012264
0.00037224137 0.0012687499 -0.00083400001
0.0014232759 0.001925 -0.00079040002
0.00050362071 -0.001575 -0.0012264
0.0015546551 0.0007875 -0.00079040002
-0.0013794828 0.0024937498 -0.0004852
-0.0014232759 0.00266875 -0.00074679998
0.00072258624 0.0016625 -0.00035439999
0.00067879312 -0.0029312498 -0.00018
0.000635 -0.0010062499 -0.0012264
0.00050362071 0.00017499999 -5.5999999e-06
-0.00050362071 -0.0027999999 -0.00074679998
0.001905 -0.00065624999 -0.00096480001
-6.5689652e-05 -0.0025374999 0.001564
-0.00019706896 0.0014 -0.00035439999
-0.0015984483 0.0017499999 -0.0004852
0.001029138 -0.00030625 -0.0012264
-0.0012043103 -0.00052499998 -5.5999999e-06
0.0018174138 -0.00065624999 -0.0012264
-0.00041603448 -0.00245 -0.0011391999
0.00032844828 8.7499997e-05 -0.0012264
0.0018174138 0.00039375 -0.00035439999
-0.00054741377 0.0029749998 -0.00065960002
2.1896552e-05 -0.00245 -0.00096480001
0.00059120689 0.00043749998 -0.00092119997
-2.1896552e-05 0.00091874995 -0.00035439999
0.00010948276 -0.0014 -5.5999999e-06
0.001861207 -0.00034999999 -0.001052
-0.0004598276 0.0024937498 -0.000398
-0.0004598276 -0.0022312498 -5.5999999e-06
-0.0011167241 0.00109375 -0.00087759999
-0.00037224137 -0.00083124998 -5.5999999e-06
-0.0013356897 -0.0024937498 -5.5999999e-06
-0.001072931 -0.0029749998 8.1600003e-05
0.00085396552 -0.00048125 -0.0012264
-0.00010948276 -0.0025374999 0.00056120002
0.00050362071 -0.00034999999 -0.0012264
-0.00054741377 -0.0020999999 -5.5999999e-06
0.0012918966 -0.0028437499 0.00069199997
0.001029138 -0.00052499998 -0.0012264
0.001861207 -0.00087499997 -0.0010956
0.0012043103 -0.0024937498 0.00082279998
-0.000635 0.00144375 -0.00083400001
-0.00050362071 -0.00074374996 -5.5999999e-06
0.00085396552 -0.00245 -0.00079040002
0.00019706896 0.0013125 -0.00087759999
-0.00015327586 -0.00118125 -5.5999999e-06
-0.0013794828 -0.002625 0.0011716
0.0012918966 0.00065624999 -0.00087759999
0.001861207 -0.00153125 -0.00031080001
-0.0012043103 0.00074374996 -0.00079040002
0.0017736207 -0.00105 -0.0011391999
-0.00050362071 0.00061250001 -0.00035439999
0.001029138 -0.0017499999 -5.5999999e-06
-0.00098534487 0.00021874999 -0.00031080001
-0.001905 -0.00043749998 -0.00092119997
2.1896552e-05 -0.0029749998 0.001564
0.0011167241 -0.00266875 0.001128
0.00032844828 0.00061250001 -0.00092119997
-0.0013356897 -0.0029749998 -0.00018
-0.00085396552 -0.0022749999 -5.5999999e-06
-0.001861207 0.00013125 -0.00079040002
-0.00054741377 0.00096249999 -0.00035439999
0.0013356897 -0.0010062499 -0.0012264
0.00037224137 0.0029749998 -0.00065960002
0.0018174138 -0.0016187499 -0.0012264
-0.0004598276 0.0021875 -0.00035439999
-0.0014232759 -0.0027999999 0.001128
0.0012481035 -0.0025374999 0.00012519999
0.0014232759 -0.0022312498 -0.0010956
-0.0012918966 -0.002625 0.00051759998
0.00024086206 0.00017499999 -0.0010084
-0.00041603448 0.00118125 -0.00035439999
-2.1896552e-05 -0.00061250001 -5.5999999e-06
0.00037224137 -0.0011374999 -5.5999999e-06
0.001861207 -0.00048125 -0.001052
0.001861207 -0.0014 -0.00035439999
-0.0012918966 -0.00266875 0.0001688
-0.0014232759 -0.0028875 0.00043039999
-0.0013356897 0.001925 -0.00079040002
-0.00089775864 -0.00074374996 -5.5999999e-06
0.0009415517 0.00013125 -0.0011391999
0.0016860345 -0.00196875 -0.0011828
0.00028465517 0.0029312498 -0.00079040002
-0.00015327586 -0.0025812499 0.00095359999
0.00089775864 0.00144375 -0.00035439999
0.0016422414 4.3749998e-05 -0.0012264
0.0016860345 -0.00048125 -0.0012264
0.0014670689 0.00034999999 -0.00096480001
0.00098534487 0.001925 -0.00079040002
-0.0012043103 -0.002625 0.00012519999
-0.0016422414 0.0014874999 -0.0007032
-0.001510862 0.00214375 -0.00057239999
-0.0016860345 -0.0020562499 -0.0011391999
0.00010948276 -0.0007875 -5.5999999e-06
0.0012918966 -0.0022312498 -0.001052
0.00041603448 -0.0023624999 -0.0012264
0.0015984483 -0.00240625 -0.00074679998
-0.0012481035 -0.0029749998 0.0001688
0.00041603448 0.0027124998 -0.00079040002
0.0009415517 -0.0011374999 -5.5999999e-06
-0.0014232759 -0.0027124998 0.00064839999
-0.0004598276 -0.0013125 -5.5999999e-06
0.0016860345 0.00118125 -0.00074679998
0.001029138 0.00240625 -0.0004852
0.00054741377 0 -5.5999999e-06
-0.00024086206 -0.0023624999 -0.0011391999
-0.0013356897 0.00144375 -0.00079040002
0.00054741377 -0.0029749998 -0.00013640001
-0.001861207 -0.0020124998 -0.0011391999
0.00037224137 -0.00266875 -0.0007032
0.001510862 -0.00266875 3.7999998e-05
-0.0011167241 -0.00056874997 -0.0012264
-0.00041603448 -0.0016625 -0.0012264
2.1896552e-05 0.0028875 -0.0004852
0.000635 -0.0017499999 -5.5999999e-06
0.00041603448 -0.0016187499 -0.0012264
-0.00010948276 -0.00069999998 -0.0012264
0.00072258624 0.00087499997 -0.00092119997
-0.0014670689 0.0018374999 -0.00035439999
0.001861207 -0.00056874997 -0.00083400001
-0.00059120689 -0.0016187499 -5.5999999e-06
0.0017298276 -0.00061250001 -5.5999999e-06
0.001861207 4.3749998e-05 -0.0002672
0.001510862 0.00214375 -0.00057239999
-0.0013794828 -0.00026249999 -5.5999999e-06
0.0014232759 -0.0027124998 -0.00035439999
-0.0014670689 -0.0028437499 0.00012519999
-0.001905 -0.00052499998 -0.00065960002
0.00019706896 0.00043749998 -0.00092119997
-0.00059120689 -0.00096249999 -0.0012264
0.001861207 -0.00017499999 -0.00087759999
-0.001861207 -0.0020124998 -0.0010084
0.00019706896 -0.0027562499 0.00043039999
0.00085396552 -0.0029312498 -0.00018
0.0013356897 0.0011374999 -0.00079040002
-0.00089775864 0.00179375 -0.00035439999
0.0012481035 -0.00026249999 -0.0012264
0.0017298276 -0.00105 -0.0012264
0.001072931 -0.0027999999 0.0007792
-0.00067879312 -0.0029312498 -0.000398
-0.0012918966 8.7499997e-05 -0.0010084
-0.00032844828 8.7499997e-05 -5.5999999e-06
0.00081017241 0.0010062499 -0.00035439999
0.00098534487 0.0023624999 -0.00079040002
0.0011167241 -0.00021874999 -0.0012264
-6.5689652e-05 -0.0025812499 -0.00079040002
-0.001861207 -0.0014874999 -0.00013640001
-0.001029138 0.00196875 -0.00044159999
0.0011167241 -0.0021875 -5.5999999e-06
0.00085396552 0.0029749998 -0.0004852
0.00059120689 0.0007875 -0.00035439999
0.00076637929 0.0028437499 -0.0004852
0.0009415517 -0.00048125 -0.0012264
0.001861207 -4.3749998e-05 -0.00083400001
-0.00072258624 0.00179375 -0.00079040002
0.001510862 -0.00017499999 -5.5999999e-06
-0.0017298276 -0.0021875 -0.00018
-0.0011167241 0.0027999999 -0.0007032
0.00072258624 0.00021874999 -0.0002236
-0.001072931 0.0020999999 -0.00079040002
-6.5689652e-05 -0.0024937498 0.00038680001
0.00019706896 -0.0027999999 0.0016076
-0.0017298276 -0.00105 -4.92e-05
-0.00041603448 0.00026249999 -0.00031080001
0.001510862 -0.0027999999 -0.0002672
0.00032844828 -0.0014 -5.5999999e-06
-0.0017736207 -0.00034999999 -0.00013640001
-0.001510862 8.7499997e-05 -0.00092119997
-0.0012918966 -0.00039375 -5.5999999e-06
0.0012481035 -0.00065624999 -5.5999999e-06
0.00024086206 -0.0018812499 -0.0012264
-0.000635 0.0014 -0.00035439999
-0.00010948276 -0.0020124998 -0.0012264
0.00089775864 -0.0014874999 -0.0012264
0.000635 -0.00087499997 -5.5999999e-06
0.001072931 -0.0028875 8.1600003e-05
-0.0011167241 -0.0029749998 -9.2800001e-05
-0.0012481035 -0.0017062499 -0.0012264
0.00085396552 -8.7499997e-05 -0.0012264
-0.0016860345 0.001225 -0.0004852
-6.5689652e-05 -0.00065624999 -0.0012264
0.0014232759 -0.0027999999 0.0013024
0.00041603448 -0.00017499999 -5.5999999e-06
0.00028465517 -0.00048125 -5.5999999e-06
-0.0012481035 0 -0.0010956
0.00010948276 0.0007875 -0.00092119997
-0.00041603448 0.0011374999 -0.00035439999
-0.0011167241 -0.00021874999 -0.0012264
-0.00072258624 0.00039375 -0.00092119997
-0.0016422414 -0.00179375 -0.0012264
0.00024086206 -0.00109375 -0.0012264
-0.00037224137 0.00196875 -0.00035439999
-0.00067879312 -0.00105 -5.5999999e-06
-0.00019706896 -0.0027124998 0.0014332
-0.001861207 0 -0.00057239999
0.00054741377 0.00179375 -0.00083400001
-0.0012043103 0.00039375 -0.00087759999
0.0014670689 0.00056874997 -0.00035439999
-0.0009415517 0.00196875 -0.00079040002
-0.001861207 -0.00056874997 -0.00018
-0.00054741377 0.0025812499 -0.00079040002
-0.0012043103 -0.0028875 0.0017384
0.001861207 0.00013125 -0.0010084
0.0011605172 -0.00074374996 -5.5999999e-06
-0.001861207 -4.3749998e-05 -0.00079040002
-0.001510862 0.00048125 -0.00035439999
-0.001861207 -0.0018374999 -0.00083400001
0.00037224137 0.00048125 -0.00035439999
-0.0012918966 -0.00048125 -0.0012264
0.00081017241 0.0022749999 -0.00044159999
-0.0013356897 -0.0027562499 -0.00061599998
-0.00050362071 -0.0014874999 -0.0012264
-0.0011605172 0.0024937498 -0.0004852
-2.1896552e-05 -0.0029749998 0.001128
-6.5689652e-05 -0.00083124998 -0.0012264
-0.0015546551 0.0018812499 -0.00044159999
-0.001861207 -0.00013125 -0.00035439999
-0.00010948276 0.001575 -0.00035439999
0.0012043103 -0.0027562499 -0.00052880001
-0.001029138 0.0025812499 -0.0004852
0.0012043103 0.0020999999 -0.0004852
-0.001510862 -0.00240625 -5.5999999e-06
-0.0009415517 0.0013125 -0.00092119997
0.0012043103 -0.0028437499 0.00069199997
-0.001861207 -0.0018812499 -0.00031080001
-0.0014232759 -0.0022749999 -5.5999999e-06
0.001861207 -0.0018812499 -0.0002236
0.001905 -0.0018812499 -0.0010084
0.001905 -0.0007875 -0.00096480001
0.00015327586 0.00083124998 -0.00035439999
0.001861207 -0.00056874997 -0.00079040002
-0.00081017241 0.00043749998 -0.00035439999
0.00050362071 0.00096249999 -0.00092119997
0.001861207 -0.0020999999 -0.0002672
-0.001510862 -0.0027562499 -0.00013640001
0.0012043103 -0.0028437499 0.00095359999
0.0009415517 0.00091874995 -0.00035439999
0.00041603448 -0.00061250001 -0.0012264
0.0013794828 -0.00074374996 -0.0012264
-2.1896552e-05 -0.0025374999 -0.00079040002
0.0012918966 0.00030625 -0.0002236
-0.00085396552 0.00017499999 -0.00096480001
-0.00050362071 0.00144375 -0.00035439999
0.0014670689 -0.00105 -0.0012264
0.00059120689 -0.0027562499 -0.00065960002
-0.00081017241 0.00245 -0.0004852
-0.00037224137 -0.0020562499 -5.5999999e-06
-0.0013794828 0.00061250001 -0.00079040002
0.001510862 0.00034999999 -0.0010956
-0.00032844828 0.00017499999 -0.0002672
0.0014232759 0.00179375 -0.00079040002
0.0014232759 -0.0027562499 0.0016948
-0.00076637929 -0.002625 -0.00079040002
0.001861207 -0.00021874999 -0.0011391999
-2.1896552e-05 -0.0029749998 0.00029960001
0.00059120689 0.0020124998 -0.00079040002
0.00032844828 0.00245 -0.00035439999
0.00019706896 -0.00266875 0.000474
-0.0004598276 0.0011374999 -0.00092119997
0.00015327586 0.0020562499 -0.00035439999
-0.001510862 -0.0027562499 -0.0002236
0.001072931 -0.00021874999 -5.5999999e-06
-0.00028465517 -0.00245 -5.5999999e-06
0.00032844828 -0.0029312498 -0.00031080001
-0.00059120689 0.0028437499 -0.00079040002
-0.00032844828 0.0018374999 -0.00035439999
-0.00037224137 0.0025374999 -0.00044159999
0.00081017241 -4.3749998e-05 -0.0011391999
0.00072258624 0.00048125 -0.00035439999
0.0017298276 -0.002625 -0.00018
-0.0013356897 -0.0027562499 0.0016948
0.0018174138 0.00048125 -0.00074679998
-0.0014670689 -0.0027999999 0.00099720003
0.001861207 0.00021874999 -0.0007032
0.0013356897 -0.00266875 0.0017819999
-0.0014670689 -0.0016625 -0.0012264
-0.0018174138 -0.00030625 -0.0011391999
0.0012918966 -0.0025374999 0.0001688
0.0015984483 -0.002625 -0.00061599998
0.0011605172 0.00240625 -0.00079040002
0.001072931 -0.00021874999 -0.0012264
-2.1896552e-05 -0.00013125 -5.5999999e-06
-2.1896552e-05 -0.00118125 -0.0012264
0.00098534487 0.00026249999 -0.00018
-0.001072931 -0.0027124998 0.00069199997
-0.0011605172 0 -0.0011391999
-0.0014670689 -0.00065624999 -5.5999999e-06
-0.00024086206 0.0028875 -0.00074679998
-0.00010948276 -0.0022312498 -5.5999999e-06
-0.0012043103 0.00087499997 -0.00087759999
0.0012918966 0.00179375 -0.00035439999
-0.0011167241 -0.00266875 -0.00079040002
-0.00028465517 0.00087499997 -0.00035439999
-0.0012481035 -0.00034999999 -0.0012264
0.0016860345 -0.0020999999 -0.0011828
-0.00059120689 0.0029312498 -0.0004852
0.0014232759 0.00034999999 -0.0010084
-0.0012918966 -0.0027562499 -0.00065960002
0.00076637929 -0.0025812499 -0.00079040002
-0.0013794828 -0.0025374999 -0.00079040002
-0.0013356897 -0.00266875 0.000256
-0.001510862 0.00043749998 -0.00035439999
-0.00032844828 0.0018812499 -0.00087759999
0.0016422414 -0.00052499998 -5.5999999e-06
0.00037224137 -8.7499997e-05 -0.0012264
-0.0012918966 0.0014874999 -0.00079040002
-0.001029138 0.0011374999 -0.00035439999
-0.0011605172 -0.00043749998 -0.0012264
0.00010948276 0.0027562499 -0.0004852
0.00032844828 0.0023187499 -0.00035439999
0.001861207 0 -0.00083400001
0.00041603448 -0.00144375 -0.0012264
-0.000635 -0.0013125 -0.0012264
0.0015546551 -0.00013125 -5.5999999e-06
2.1896552e-05 -0.00026249999 -0.00127
0.001072931 -0.0028437499 0.0012152001
0.00010948276 0.00013125 -9.2800001e-05
0.001072931 -0.0020562499 -5.5999999e-06
-0.00067879312 0.00096249999 -0.00092119997
0.00037224137 0.0029749998 -0.00057239999
0.0009415517 -0.0022312498 -0.0012264
0.00037224137 -0.0016187499 -5.5999999e-06
0.00067879312 0.0028437499 -0.0004852
0.0012918966 0.0025374999 -0.0004852
0.001072931 -0.0028437499 0.0011716
0.0012481035 -0.0025374999 8.1600003e-05
-0.0004598276 -0.00179375 -5.5999999e-06
-0.0012043103 -4.3749998e-05 -0.0011391999
0.0013794828 -0.0025812499 0.00086640002
0.0015546551 -8.7499997e-05 -5.5999999e-06
0.0015984483 -0.00056874997 -5.5999999e-06
0.001510862 0.00214375 -0.00079040002
0.00085396552 0.00179375 -0.00079040002
0.0011605172 -0.001225 -0.0012264
-0.001029138 0.0025374999 -0.00079040002
-0.00098534487 0 -0.0011828
0.001510862 0.0016625 -0.00079040002
0.0017736207 -0.0007875 -0.0012264
-0.0015984483 0.00034999999 -0.00035439999
0.0017298276 -0.00065624999 -9.2800001e-05
-0.00059120689 -0.0016625 -5.5999999e-06
-0.00028465517 -0.00065624999 -5.5999999e-06
0.001861207 -8.7499997e-05 -0.00087759999
0.001861207 -0.00179375 -0.00065960002
-0.00037224137 0.00153125 -0.00035439999
-0.00085396552 -0.002625 -0.00079040002
0.0013794828 -0.0020999999 -0.00092119997
0.001861207 -0.00056874997 -0.00013640001
-0.0014232759 0.00087499997 -0.00079040002
0.0013794828 0.0014 -0.00079040002
-0.001072931 0.0021875 -0.00079040002
-0.0012481035 -0.0027999999 -0.00057239999
0.00085396552 0.00196875 -0.00035439999
-0.0016860345 4.3749998e-05 -0.00035439999
-0.0012043103 -8.7499997e-05 -0.0011828
0.0011167241 -0.002625 0.000474
-0.0012918966 -0.0022749999 -0.0012264
-0.0009415517 -0.00144375 -0.0012264
-0.0009415517 -0.00179375 -5.5999999e-06
-0.0013794828 0.0007875 -0.00035439999
-0.0011167241 0.00266875 -0.0004852
0.001861207 -0.0007875 -0.0004852
-2.1896552e-05 0.0027562499 -0.0004852
0.00054741377 -0.0018812499 -0.0012264
-0.0011167241 -0.0025812499 0.00056120002
0.0015546551 0.00179375 -0.00065960002
-0.0012918966 -0.0027999999 0.0016948
-0.001861207 -0.00056874997 -0.0010956
-0.0017298276 -0.0022312498 -9.2800001e-05
0.00072258624 -0.0014 -5.5999999e-06
-0.0014670689 -4.3749998e-05 -0.00013640001
0.00015327586 0.00017499999 -0.0002672
-0.00054741377 -0.00048125 -5.5999999e-06
-0.0016860345 -0.00240625 -0.0002672
0.0015984483 -0.00266875 -0.00035439999
-0.0013794828 -0.00026249999 -0.0012264
0.0012918966 4.3749998e-05 -5.5999999e-06
-0.00076637929 0.00052499998 -0.00035439999
0.00037224137 -0.00026249999 -0.0012264
0.0014670689 0.00069999998 -0.00083400001
0.0014670689 -0.00109375 -0.0012264
0.001861207 4.3749998e-05 -0.00061599998
0.0016422414 0.0013562499 -0.00061599998
-0.0014670689 -0.0014 -0.0012264
0.00024086206 0.00056874997 -0.00035439999
0.00010948276 0.001575 -0.00092119997
0.0012481035 -0.0022749999 -0.0011828
-0.00010948276 -0.0027562499 -0.00065960002
0.0012918966 0.00013125 -5.5999999e-06
-0.00015327586 -0.0025374999 0.0007792
2.1896552e-05 0.0028437499 -0.00079040002
-0.0009415517 -0.00245 -0.0010956
-0.00072258624 0.00013125 -0.0010084
-0.00037224137 -0.0007875 -5.5999999e-06
-0.00054741377 -0.0013562499 -0.0012264
6.5689652e-05 -0.001925 -5.5999999e-06
-0.0012043103 0.00266875 -0.0004852
0.00028465517 0.0022312498 -0.00035439999
0.001510862 -0.0022749999 -5.5999999e-06
-0.0004598276 0.0022312498 -0.00035439999
0.00072258624 -0.00109375 -0.0012264
0.0014670689 -0.00017499999 -0.0012264
-0.0013356897 -0.0025812499 3.7999998e-05
2.1896552e-05 0.001925 -0.00035439999
0.0011167241 0.00017499999 -0.0011391999
0.0004598276 0.00021874999 -0.0010084
0.0017736207 -0.0022749999 -0.00035439999
0.00098534487 -0.0022312498 -0.0012264
-0.0009415517 -4.3749998e-05 -0.0012264
0.00059120689 -0.00043749998 -5.5999999e-06
0.00072258624 0.0013125 -0.00035439999
-0.0012043103 0.0017499999 -0.00035439999
-0.00076637929 -0.00118125 -5.5999999e-06
0.00015327586 -0.0010062499 -0.0012264
-0.0018174138 -0.0020124998 -0.0011391999
-0.0014232759 -0.00266875 0.00029960001
-0.001072931 0.001925 -0.00079040002
0.001029138 0.0017062499 -0.00035439999
0.00015327586 -0.0028875 0.0016512
0.0014232759 8.7499997e-05 -5.5999999e-06
-0.00076637929 -0.0021875 -5.5999999e-06
0.0004598276 0.00052499998 -0.00092119997
0.00024086206 -0.0024937498 -5.5999999e-06
0.0013356897 0.00109375 -0.00035439999
0.0009415517 0.001925 -0.00079040002
-0.001072931 -0.0027999999 0.00060480001
-2.1896552e-05 -0.0029749998 0.0010408
0.00089775864 0.0029312498 -0.0004852
0.00019706896 -0.0027124998 0.0014768
0.0016422414 0.001225 -0.0004852
0.00072258624 0.0022749999 -0.00079040002
0.0009415517 -0.00026249999 -0.0012264
0.00010948276 -0.001925 -0.0012264
-0.0013356897 -0.0029749998 0.00056120002
0.00067879312 0.0010062499 -0.00035439999
-0.0014232759 0.00179375 -0.000398
0.00037224137 0.0016187499 -0.00092119997
0.00028465517 0.00048125 -0.00092119997
-0.00010948276 0.00030625 -0.0002672
-0.0015984483 -0.0025374999 -0.00052880001
0.001861207 -0.00026249999 -0.00013640001
-2.1896552e-05 0.0018374999 -0.00083400001
-0.00081017241 0.0024937498 -0.00079040002
0.00072258624 -0.0017062499 -0.0012264
0.001861207 -0.00039375 -0.00013640001
-0.001510862 -0.0012687499 -5.5999999e-06
-0.0013356897 -0.0011374999 -5.5999999e-06
0.00037224137 0.00118125 -0.00035439999
0.0015546551 0.00013125 -0.0011391999
-0.0009415517 -0.0029749998 -0.0002236
-0.00081017241 0.0018374999 -0.00035439999
6.5689652e-05 -0.0024937498 0.00099720003
0.0012043103 0.0027999999 -0.00079040002
-0.000635 -0.002625 -0.00079040002
0.0014232759 -0.002625 -0.00065960002
0.00098534487 -0.00118125 -5.5999999e-06
-0.0013356897 0.00196875 -0.00079040002
-0.00015327586 -0.0028875 0.0001688
-0.00081017241 8.7499997e-05 -0.00013640001
0.00072258624 -0.00039375 -5.5999999e-06
-0.00059120689 0.0016187499 -0.00083400001
0.0013794828 -0.0028437499 0.00060480001
0.001072931 -0.0023187499 -0.00079040002
0.0012043103 -0.0028437499 -0.00031080001
0.0013794828 -0.0025374999 0.00091
0.0014670689 -0.00266875 0.00073560001
-0.001072931 -0.0028437499 0.0010408
0.00024086206 0.0029312498 -0.00079040002
-0.0013356897 -0.00144375 -5.5999999e-06
0.00089775864 0.0017062499 -0.00079040002
-0.0017298276 -0.0023624999 -0.000398
-0.00010948276 -0.0010062499 -0.0012264
-0.00085396552 0.00083124998 -0.00035439999
-0.0009415517 0.0022749999 -0.000398
0.0013794828 -0.0025374999 0.0014332
0.0012918966 -0.0025374999 8.1600003e-05
-0.00076637929 -0.00048125 -0.0012264
-0.0004598276 -0.0013562499 -0.0012264
-0.00041603448 0.00083124998 -0.00035439999
-0.0012918966 0.0017499999 -0.00079040002
0.00037224137 0.00266875 -0.00035439999
-0.00072258624 -0.00061250001 -0.0012264
0.00085396552 -0.001225 -0.0012264
-0.00081017241 0.00052499998 -0.00035439999
0.0012918966 0.0011374999 -0.00087759999
0.001861207 0.00013125 -0.00035439999
0.00037224137 -0.00030625 -0.0012264
-0.00037224137 0.0022749999 -0.00035439999
-0.001861207 -0.0013562499 -0.00092119997
0.0012043103 -0.0028437499 0.0014768
-0.00076637929 0.0029312498 -0.00065960002
-0.001861207 -0.00196875 -0.0010956
2.1896552e-05 -0.00214375 -5.5999999e-06
0.0009415517 -0.00087499997 -0.0012264
0.00050362071 0.0029749998 -0.0007032
-0.001072931 -0.0027562499 0.00056120002
-0.0012481035 -0.00039375 -0.0012264
-0.00089775864 0.00013125 -0.0010084
-0.001072931 -0.0028875 0.0015204001
0.0011167241 -0.0010062499 -5.5999999e-06
0.0017736207 0.00056874997 -0.0007032
-0.001072931 -0.00056874997 -5.5999999e-06
-0.00067879312 0.002625 -0.0004852
0.001861207 -0.00083124998 -0.00044159999
-0.001072931 0.0023187499 -0.00079040002
0.00085396552 -0.00144375 -0.0012264
-6.5689652e-05 -0.0024937498 0.0001688
-0.00085396552 -0.00048125 -0.0012264
0.00098534487 0.0017499999 -0.00035439999
0.00041603448 0.00043749998 -0.00092119997
-0.0015984483 -0.0023187499 -5.5999999e-06
0.00024086206 -0.0011374999 -0.0012264
-0.00067879312 0.00153125 -0.00079040002
-0.0016422414 -0.0016625 -0.0012264
0.0012043103 -0.0027999999 -0.00031080001
-0.0012043103 -0.0022312498 -5.5999999e-06
-0.0014670689 -0.0028437499 0.0014768
-0.00072258624 -0.00087499997 -0.0012264
-0.0015984483 0.00153125 -0.00044159999
0.0018174138 -0.00034999999 -0.0012264
0.0009415517 0.00069999998 -0.00092119997
-0.00037224137 0.0018374999 -0.00035439999
0.00085396552 -0.0010062499 -5.5999999e-06
0.0015546551 -0.00043749998 -0.0012264
-0.0015546551 0.0013125 -0.00079040002
0.001861207 -0.00091874995 -0.00057239999
0.00085396552 -0.0024937498 -0.00079040002
-2.1896552e-05 0.0013125 -0.00035439999
0.0016422414 0.00109375 -0.0004852
0.0013356897 0.00069999998 -0.00035439999
0.00098534487 -0.0018812499 -0.0012264
0.00098534487 -0.0010062499 -0.0012264
-0.00050362071 0.00144375 -0.00079040002
-0.0013356897 -0.001925 -5.5999999e-06
6.5689652e-05 -0.00021874999 -0.00127
-0.0012918966 0.0020562499 -0.00079040002
-0.0014670689 -0.0027124998 0.00051759998
-2.1896552e-05 -0.0024937498 0.0013896
-0.0012481035 -0.0029749998 0.0007792
-6.5689652e-05 -0.0013562499 -5.5999999e-06
-0.00015327586 -0.0025812499 0.00082279998
0.001861207 -0.0018374999 -0.0002236
0.0017298276 0 -9.2800001e-05
-0.0016422414 -0.0025374999 -0.0002672
0.00037224137 -0.00266875 -0.00074679998
2.1896552e-05 -0.00021874999 -5.5999999e-06
0.001861207 -0.00069999998 -0.00083400001
0.0016422414 0.0012687499 -0.0004852
0.001861207 -0.00052499998 -0.00044159999
0.0011167241 -0.0025374999 -0.00079040002
-0.0014232759 0.00118125 -0.00079040002
-0.00019706896 -0.0027124998 0.0011716
-0.00024086206 0.00083124998 -0.00092119997
0.00019706896 -0.0027999999 0.0011716
-0.0009415517 -0.0028875 -5.5999999e-06
0.0014232759 0.00056874997 -0.00087759999
0.001029138 0.00214375 -0.00079040002
0.00010948276 0.0029749998 -0.00065960002
-0.001861207 -0.00074374996 -0.00013640001
-0.0004598276 -0.0029749998 -4.92e-05
0.001029138 -0.00074374996 -0.0012264
0.0017736207 -0.0020999999 -4.92e-05
0.0016422414 -0.0014874999 -0.0011828
-0.00032844828 0.0011374999 -0.00035439999
-0.00072258624 8.7499997e-05 -0.0011391999
0.0018174138 -0.0022749999 -0.00018
-0.0009415517 -0.00069999998 -5.5999999e-06
2.1896552e-05 -0.00056874997 -5.5999999e-06
0.001861207 -0.0016625 -0.00087759999
0.00019706896 -0.00266875 0.00086640002
0.00019706896 -0.00245 -0.0010956
-0.0014670689 -0.0021875 -5.5999999e-06
-0.00098534487 0.0022749999 -0.000398
-0.001072931 0.00245 -0.00079040002
-0.0017736207 0.00069999998 -0.00065960002
0.001510862 0.00026249999 -0.00013640001
-0.00019706896 0.001925 -0.00092119997
0.00037224137 8.7499997e-05 -5.5999999e-06
-0.0012043103 0.00118125 -0.00079040002
-0.00089775864 0.0012687499 -0.00092119997
0.00028465517 0.0027562499 -0.00079040002
0.0004598276 -0.002625 -0.0007032
-0.000635 -0.0029312498 -0.000398
-0.00019706896 -0.00240625 -5.5999999e-06
-0.0015984483 0.0016625 -0.0007032
0.0013794828 0.00052499998 -0.00087759999
-0.00015327586 0.0010062499 -0.00035439999
-0.0014670689 -0.0027562499 -0.00057239999
-0.001861207 -0.0007875 -0.001052
0.00024086206 -0.0013562499 -5.5999999e-06
0.00072258624 0.00034999999 -0.0002672
0.00015327586 -0.0029749998 0.00091
0.0016860345 -0.0020999999 -5.5999999e-06
-0.00081017241 0.0028875 -0.00065960002
-0.0012918966 -0.0023187499 -0.0012264
0.001861207 -0.00109375 -0.00052880001
0.0004598276 -0.00240625 -0.00079040002
0.001861207 -0.0012687499 -0.00074679998
0.00041603448 -0.001225 -5.5999999e-06
0.00015327586 -0.0014 -5.5999999e-06
-0.00054741377 -0.001225 -0.0012264
-0.0012918966 -0.00266875 0.0014768
-0.0004598276 0.00105 -0.00035439999
-0.001861207 -0.00144375 -0.00079040002
-0.0017298276 -0.00179375 -9.2800001e-05
-0.0018174138 -0.0022312498 -0.0010956
0.00015327586 4.3749998e-05 -5.5999999e-06
-0.001905 -0.00013125 -0.00083400001
0.00067879312 -0.00017499999 -5.5999999e-06
-0.0004598276 0 -5.5999999e-06
-0.00059120689 0.00245 -0.000398
0.00019706896 -0.0027999999 0.00095359999
0.0009415517 -0.00034999999 -5.5999999e-06
0.0015546551 -0.0022749999 -5.5999999e-06
-0.00085396552 -0.0022749999 -0.0012264
0.00081017241 -0.0018374999 -5.5999999e-06
0.0012043103 -0.00153125 -5.5999999e-06
0.00015327586 0.00091874995 -0.00035439999
0.0012043103 -0.0013562499 -0.0012264
-0.001510862 0.0020999999 -0.00044159999
0.00076637929 -0.00052499998 -5.5999999e-06
-0.001029138 0.00039375 -0.00092119997
-0.00050362071 0.00179375 -0.00035439999
-0.00089775864 -0.0018812499 -5.5999999e-06
0.0014670689 0.00034999999 -0.0010084
0.00032844828 -0.0020562499 -0.0012264
-0.0014670689 0 -0.0010084
-0.00024086206 0.0020999999 -0.00035439999
0.00085396552 -0.00083124998 -5.5999999e-06
2.1896552e-05 0.001225 -0.00083400001
0.00010948276 -0.0023624999 -5.5999999e-06
0.00089775864 0.0023624999 -0.00035439999
-0.001861207 -0.0020124998 -0.00052880001
0.0017736207 -0.00096249999 -0.0012264
-0.0018174138 0 -0.00035439999
0.001905 -0.00069999998 -0.0010084
0.001029138 0.0018812499 -0.00035439999
0.0011605172 -0.00017499999 -0.0012264
0.000635 0.0016625 -0.00087759999
-0.0013356897 -0.0016187499 -5.5999999e-06
0.00076637929 0.00240625 -0.00035439999
0.00085396552 -0.002625 -0.00065960002
6.5689652e-05 0.0018812499 -0.00079040002
0.00085396552 -0.00091874995 -0.0011828
-0.001510862 0.0017499999 -0.00079040002
-0.0013356897 0.00240625 -0.0004852
-0.0015984483 -0.00013125 -0.00013640001
-0.0011167241 -0.002625 0.00091
0.00072258624 0.001575 -0.00087759999
-0.0014670689 -0.0027562499 0.001346
0.00015327586 0.0029749998 -0.00079040002
0.0012043103 0.0027124998 -0.00079040002
0.00050362071 -0.0029749998 -0.00013640001
-0.001510862 0.0020562499 -0.00074679998
0.0013794828 -0.00091874995 -5.5999999e-06
-0.0004598276 -0.0016187499 -0.0012264
-0.0014232759 -0.0028875 -0.0002236
-0.0018174138 -0.00214375 -0.0007032
-0.00089775864 0.00196875 -0.00079040002
-0.0012918966 -0.0029749998 -9.2800001e-05
-0.00032844828 -0.0021875 -0.0012264
-2.1896552e-05 -0.00240625 -0.0011828
-0.00089775864 -0.0022749999 -0.0012264
-0.00015327586 8.7499997e-05 -9.2800001e-05
0.0016422414 0.0014 -0.00079040002
0.000635 -0.0020562499 -0.0012264
0.0014232759 0.00030625 -0.00018
-0.00019706896 0.00061250001 -0.00035439999
-0.001029138 0.00056874997 -0.00035439999
0.00089775864 0.00245 -0.00079040002
0.0014670689 -0.0027562499 0.0010844
-0.00037224137 -0.0016625 -0.0012264
-0.0011167241 -0.00196875 -5.5999999e-06
-0.0014232759 -0.00153125 -5.5999999e-06
0.00076637929 0.0018374999 -0.00035439999
-0.0013356897 -0.0021875 -0.0012264
0.0016422414 -0.00214375 -0.0012264
-0.00019706896 0.00069999998 -0.00035439999
-0.00081017241 0.0029312498 -0.00065960002
-0.0016422414 -0.00074374996 -0.0012264
-0.00010948276 -0.0024937498 0.0001688
-0.00076637929 0.001225 -0.00087759999
-0.0013794828 -0.0027999999 0.0016512
0.0011167241 0.00109375 -0.00087759999
0.0014670689 -0.0027999999 -0.00013640001
0.001029138 -0.0022312498 -0.00087759999
-0.00019706896 -0.0028437499 0.00060480001
0.001861207 0.00013125 -0.00061599998
-0.0011167241 -0.0025812499 0.00073560001
0.0015984483 -0.0018812499 -5.5999999e-06
-0.00037224137 0.0013562499 -0.00087759999
-0.0012918966 -0.002625 0.00073560001
-0.00067879312 0.001925 -0.00079040002
-2.1896552e-05 -0.0013562499 -5.5999999e-06
0.00041603448 -0.00021874999 -0.0012264
-0.00050362071 0.0029312498 -0.00052880001
0.00076637929 0.00065624999 -0.00035439999
-0.00024086206 -0.00039375 -0.0012264
-0.0011605172 -0.0027999999 -0.00065960002
0.001510862 -0.0027124998 -0.0004852
0.0012918966 0.00056874997 -0.00087759999
-0.00085396552 0.0029312498 -0.00057239999
-0.00098534487 0 -4.92e-05
-6.5689652e-05 -0.00087499997 -0.0012264
-0.00028465517 0.00069999998 -0.00035439999
0.0017736207 -0.0024937498 -0.00018
-0.001861207 -0.0013562499 -0.00061599998
0.0011167241 0.00179375 -0.00035439999
-0.0013794828 -8.7499997e-05 -0.00013640001
-0.0018174138 -8.7499997e-05 -0.00092119997
-0.001072931 -0.00266875 0.00034319999
0.00028465517 -0.00245 -0.001052
-0.0017298276 0.00013125 -0.00087759999
0.001072931 -0.0022312498 -0.00083400001
-0.0014232759 0.0022749999 -0.00079040002
-0.001861207 -0.0018374999 -0.00052880001
0.00054741377 0.0020562499 -0.00035439999
-0.00041603448 -0.0024937498 -5.5999999e-06
-0.0009415517 -0.0025374999 -0.00079040002
0.0012918966 -0.0027124998 -0.00065960002
-2.1896552e-05 0.0022749999 -0.00087759999
0.0015984483 -0.00266875 -0.00044159999
0.00024086206 0.00039375 -0.00031080001
0.0011605172 -0.0028875 0.0007792
-0.00015327586 -0.0029749998 -0.00013640001
-0.00054741377 0.0018374999 -0.00087759999
-0.00076637929 0.0013562499 -0.00035439999
0.0013794828 -0.0028437499 0.0012588
0.0012918966 -0.0013562499 -0.0012264
-0.001510862 -0.00061250001 -0.0012264
0.00019706896 -0.0029749998 -0.00018
-0.0016860345 0.00065624999 -0.00079040002
-0.0017298276 0.00096249999 -0.00044159999
0.0012043103 -0.0024937498 0.0014332
-0.00054741377 -0.0028875 -5.5999999e-06
-0.0014670689 -0.00021874999 -0.0012264
-0.0017736207 0.00074374996 -0.00057239999
-0.001029138 -0.0013125 -5.5999999e-06
0.00019706896 -0.0011374999 -5.5999999e-06
-0.0012918966 -0.0029749998 -5.5999999e-06
0.0012918966 -0.0025374999 0.0010408
0.00054741377 -0.0020562499 -0.0012264
0.0014670689 -0.0027124998 0.00012519999
0.0009415517 -0.0020562499 -0.0012264
0.00098534487 0.0007875 -0.00035439999
-6.5689652e-05 0.00013125 -0.0010084
-0.0013356897 -0.0017499999 -0.0012264
-0.0004598276 -0.0023624999 -0.00079040002
-0.001861207 -0.00065624999 -0.00057239999
-0.0011605172 -0.002625 0.0014768
0.00019706896 0.00017499999 -0.0010084
-0.00081017241 -0.0023187499 -0.00092119997
-0.00089775864 0.00109375 -0.00035439999
-0.0013356897 -0.0027562499 0.0017384
0.00019706896 0.00026249999 -0.0010084
0.0013794828 -0.0024937498 -0.00065960002
0.00019706896 -0.00266875 0.0014768
0.00067879312 -0.00083124998 -5.5999999e-06
2.1896552e-05 -0.0027562499 0.0018256
0.000635 -0.0017062499 -5.5999999e-06
-0.0015984483 0.0016187499 -0.00035439999
0.001861207 -0.00074374996 -0.00065960002
-0.0016860345 -0.0016187499 -0.0012264
-0.00050362071 0.0027124998 -0.0004852
0.00098534487 0.00091874995 -0.00079040002
0.0014232759 -0.0027562499 0.0012588
-0.0011167241 -0.0029749998 0.00060480001
0.0004598276 0.0029749998 -0.00079040002
-0.00037224137 0.00013125 -0.0002672
0.00081017241 0.0029749998 -0.0004852
0.00028465517 -0.00013125 -0.00127
0.00015327586 -0.0029312498 0.00082279998
0.001072931 -0.00118125 -0.0012264
-0.0011605172 -8.7499997e-05 -5.5999999e-06
-0.0016422414 -0.00013125 -0.00013640001
0.0012043103 -0.0027562499 -0.00061599998
-0.00037224137 0.00083124998 -0.00092119997
-0.00010948276 0.0016625 -0.00079040002
-0.0012481035 -0.00245 -0.0010956
-0.001510862 0.0020562499 -0.000398
-0.00041603448 -0.0012687499 -5.5999999e-06
-0.0014670689 -0.00061250001 -5.5999999e-06
-0.001510862 -0.0027999999 -0.0002236
-0.00019706896 0.0029312498 -0.00079040002
0.00085396552 0.0029749998 -0.0007032
-0.0011167241 -0.00091874995 -5.5999999e-06
-0.00076637929 0.00083124998 -0.00035439999
-0.0004598276 -0.00240625 -0.00096480001
-0.0015984483 -0.0022749999 -0.0011391999
-0.001905 -0.00048125 -0.00061599998
-0.00041603448 0.0027999999 -0.00079040002
-0.0013794828 0.001925 -0.00079040002
0.001905 -0.00087499997 -0.0010084
-0.0013356897 -0.00240625 -0.0011828
0.0009415517 0.0027999999 -0.00079040002
2.1896552e-05 -4.3749998e-05 -0.00127
0.00054741377 -0.00030625 -5.5999999e-06
-0.000635 0.00266875 -0.00079040002
-0.0017298276 -0.0022312498 -0.00096480001
0.0011605172 -0.0027999999 0.0016948
-0.00041603448 -0.00118125 -5.5999999e-06
-0.0009415517 0.00214375 -0.00079040002
0.001861207 0.00017499999 -0.00057239999
-0.00019706896 -0.0027124998 0.001346
-0.001510862 -0.0027999999 -0.00031080001
0.00015327586 0.00266875 -0.0004852
0.00098534487 0.00105 -0.00087759999
0.0015984483 -0.00179375 -0.0011391999
0.00010948276 -0.0016187499 -5.5999999e-06
0.00028465517 0.0013125 -0.00035439999
-0.0011167241 0.00034999999 -0.00035439999
-0.0009415517 0.0020999999 -0.0004852
-0.001029138 -0.0029312498 -0.0004852
-0.00010948276 -0.00266875 -0.00079040002
-0.00089775864 -0.0020124998 -0.0012264
-0.0017298276 -0.00214375 -9.2800001e-05
-0.00019706896 -0.0029749998 -5.5999999e-06
