# .PCD v0.7 - Point Cloud Data file format
VERSION 0.7
FIELDS x y z
SIZE 4 4 4
TYPE F F F
COUNT 1 1 1
WIDTH 1201
HEIGHT 1
VIEWPOINT 0 0 0 1 0 0 0
POINTS 1201
DATA ascii
0.0086303866 0.00127 -0.0053031705
0.0037187843 0.0022577778 -9.6097559e-05
-0.0035784529 -0.0018344445 -0.00051829265
-0.0065254141 0.00098777784 -0.0069919513
0.0039994475 -0.0015522222 0.0018741463
0.0054027624 -0.0018344445 -0.00051829265
-0.011156353 -0.0015522222 -0.0045995121
-0.010314364 -0.00028222223 -0.0023478048
0.0087707182 -0.00127 0.002014878
-0.0080690607 -0.00014111112 -0.00051829265
-0.011156353 -0.00127 0.0017334146
-0.0063850828 -0.0015522222 4.4634147e-05
0.0094723757 -0.0019755557 -0.0023478048
0.0039994475 0.00254 -0.00037756097
-0.0087707182 0.0014111111 0.00046682928
0.010875691 0 -0.00051829265
-0.0016138121 -0.00098777784 -9.6097559e-05
0.011998342 -0.0015522222 -0.00023682926
-0.0097530382 -0.00254 -0.0010812195
-0.0091917124 0.0011288889 -0.0071326829
0.0014734806 -0.00084666669 0.00088902441
0.0090513807 0.00098777784 -0.0030514635
-0.008911049 -0.00084666669 0.00046682928
-0.0096127065 0.0016933334 -0.0023478048
0.0077883974 0.00254 -0.00094048778
-0.011577347 0.0015522222 -0.0038958536
0.010735359 0.00014111112 -0.00051829265
-0.0061044195 0.00098777784 0.00074829266
0.0049817679 -0.0021166666 -0.0024885365
0.0087707182 0.00254 -0.00023682926
-0.0011928177 0.0015522222 -0.0055846344
-0.0080690607 0.0011288889 -9.6097559e-05
0.012419336 -0.0022577778 -0.0013626829
0.011296685 0.00098777784 -0.0064290245
-0.0037187843 0.0014111111 -0.0072734146
-0.0073674032 0.00127 -9.6097559e-05
-0.0018944751 0.00056444446 -0.0024885365
0.011577347 -0.00042333335 -0.0023478048
0.0041397787 -0.0011288889 0.0024370733
0.012559668 0.0016933334 -0.0023478048
-0.0052624308 0.0021166666 -0.0024885365
-7.0165741e-05 0.00254 -0.0020663415
0.0049817679 0.0021166666 -9.6097559e-05
-0.0070867403 0.0016933334 -9.6097559e-05
0.0077883974 -0.0016933334 -9.6097559e-05
-0.011717679 -0.00098777784 4.4634147e-05
0.012559668 0.0016933334 -9.6097559e-05
0.011156353 -0.0011288889 -0.0057253661
0.0087707182 0.00056444446 -0.00051829265
0.0066657458 0.0023988888 -9.6097559e-05
-0.010314364 0.0016933334 -0.0023478048
-0.0086303866 0.00098777784 -0.0076956097
0.0045607733 0.00070555555 -0.0024885365
-0.0079287291 -0.00254 -0.0012219512
-0.0090513807 -0.0014111111 -0.0031921952
0.0066657458 -0.00098777784 -0.0043180487
0.0127 -0.00056444446 -0.0012219512
0.0041397787 -0.00127 0.0015926829
0.0023154696 0.00254 -0.00079975609
-0.0031574585 -0.0014111111 -0.0024885365
-0.0086303866 0.00098777784 -0.0031921952
0.0062447512 -0.00254 -0.0019256098
-0.0091917124 -0.00127 -0.0061475611
-0.008911049 -0.00042333335 -0.00051829265
-0.0041397787 0.0014111111 4.4634147e-05
-0.011717679 -0.00098777784 -0.0069919513
-0.008911049 -0.0015522222 -0.0033329269
0.0086303866 0.00098777784 0.00018536585
-0.00021049724 0.00254 -0.00023682926
0.010595027 -0.00098777784 -9.6097559e-05
0.0035784529 0.00127 -0.0078363419
0.0098933699 -0.00084666669 -0.0024885365
0.011717679 0.0011288889 -0.0062882928
-0.0013331492 0.0015522222 0.00046682928
0.0011928177 -0.00098777784 0.0010297562
-0.0011928177 0.0014111111 -0.0057253661
0.0028767956 -0.00084666669 -0.00037756097
-0.002455801 -0.00028222223 -0.0024885365
-0.00063149171 0.00254 -0.0019256098
0.0042801104 0.00084666669 -0.0023478048
0.0094723757 0.0023988888 -9.6097559e-05
-0.011156353 -0.0015522222 -0.0061475611
-0.0041397787 0.00056444446 -0.00051829265
-0.0098933699 -0.00254 -0.0010812195
0.00063149171 0.0016933334 -0.0024885365
0.0037187843 -0.00084666669 -0.0047402438
0.0014734806 -0.0015522222 0.0024370733
-0.0035784529 0.0011288889 -0.0055846344
-0.0090513807 0.00254 -0.00079975609
-0.0096127065 -0.00084666669 -9.6097559e-05
0.0065254141 -0.00070555555 -0.0026292682
0.0058237566 0 -0.00051829265
-0.0034381214 -0.0023988888 -0.0024885365
-0.006806077 0.0022577778 -9.6097559e-05
-0.0011928177 -0.0015522222 0.0013112195
-0.0020348066 -0.00254 -0.0017848781
-0.0073674032 0.0016933334 -0.00023682926
0.0049817679 -0.0014111111 -9.6097559e-05
0.008911049 -0.0018344445 -0.00037756097
-0.0097530382 0.00028222223 -0.00051829265
-0.0055430937 -0.00056444446 -0.00051829265
0.0069464087 -0.00084666669 -0.0024885365
0.0013331492 0.00098777784 -0.0071326829
0.0066657458 -0.00098777784 -0.0054439022
0.011156353 -0.00254 -0.0016441464
0.0073674032 -0.00070555555 -0.00051829265
-0.0080690607 0.00254 -0.0023478048
0.0084900549 -0.00254 -0.00094048778
0.012559668 0.0019755557 -0.0016441464
0.0090513807 -0.00098777784 -0.0079770731
-0.011437017 0.00098777784 -0.0072734146
0.0023154696 0.0022577778 -0.0024885365
-0.012138674 0.0011288889 -0.0023478048
-0.0035784529 -0.0014111111 -0.0079770731
0.0096127065 0.00254 -0.0012219512
0.0039994475 -0.0015522222 0.00018536585
0.003859116 0.00254 -0.0012219512
0.0010524861 -0.00098777784 -0.0031921952
0.0066657458 -0.00127 -0.0065697562
0.0091917124 -0.00098777784 -0.0071326829
-0.0072270716 -0.00254 -0.00037756097
0.0011928177 0.00098777784 -0.0074141463
-0.0027364639 0.00127 -0.0024885365
7.0165741e-05 -0.0014111111 -9.6097559e-05
-0.003859116 -0.0015522222 -9.6097559e-05
0.0035784529 -0.00098777784 0.00074829266
-0.0048414362 0.0014111111 -9.6097559e-05
-0.0087707182 0.0014111111 0.0014519512
-0.0047011049 -0.00127 -9.6097559e-05
-0.0062447512 -0.0014111111 0.0027185366
-0.0010524861 -0.0015522222 -0.0044587804
0.0025961325 -0.0014111111 -9.6097559e-05
0.011156353 0.00127 -0.0038958536
0.0098933699 0.00254 -0.00094048778
0.00091215468 -0.0016933334 -0.0024885365
-0.011016021 -0.0018344445 -9.6097559e-05
-0.0025961325 -0.0021166666 -9.6097559e-05
-7.0165741e-05 -0.0022577778 -0.0024885365
-0.011717679 0.0011288889 0.0017334146
0.008911049 0.0015522222 -0.0036143903
-0.0013331492 0.00098777784 -0.0067104879
-0.0039994475 -0.0011288889 -0.0048809755
0.0086303866 -0.00098777784 -0.0040365853
-0.0011928177 -0.0015522222 -0.0060068294
0.0058237566 -0.0015522222 -0.0024885365
-0.0080690607 0.0018344445 -0.00037756097
-0.0010524861 0.00254 -0.0020663415
-0.0014734806 0.0023988888 -0.0024885365
0.010454696 -0.00254 -0.0015034146
0.0020348066 -0.00084666669 -9.6097559e-05
-0.0094723757 -0.00056444446 -0.0024885365
0.0025961325 0 -0.00051829265
0.0098933699 -0.00127 -0.0024885365
-0.0086303866 -0.00098777784 -0.004177317
0.0062447512 0.00084666669 -0.00037756097
-0.012279005 -0.0015522222 -9.6097559e-05
-0.010875691 0.00056444446 -0.0023478048
0.00063149171 0.00254 -0.0016441464
0.0052624308 0.00070555555 -0.00051829265
-0.0047011049 -0.0023988888 -0.0024885365
0.0062447512 -0.00084666669 -0.0061475611
0.0039994475 0.0015522222 0.0014519512
0.0013331492 0.0011288889 -0.0044587804
-0.0127 0 -0.0016441464
0.0016138121 0.00014111112 -0.00051829265
0.0047011049 0 -0.0024885365
0.0011928177 0.00254 -0.0020663415
-0.011156353 0.0011288889 -0.0069919513
0.003859116 0.0015522222 -0.0072734146
0.0096127065 0 -0.00051829265
0.0048414362 -0.0016933334 -0.00037756097
-0.0087707182 -0.00084666669 0.00046682928
0.0054027624 0.00254 -0.0006590244
0.011016021 0.0018344445 -0.0024885365
-0.00021049724 0.0016933334 -9.6097559e-05
0.0086303866 -0.0014111111 -0.0024885365
-0.00021049724 -0.00127 -9.6097559e-05
0.0090513807 0.00098777784 -0.0051624388
-0.011717679 0.00127 -0.0068512196
0.0086303866 0.00127 -0.007554878
-0.011577347 0.0015522222 -0.0024885365
-0.011577347 -0.0015522222 -0.0055846344
0.0037187843 -0.0015522222 -0.0061475611
-0.0051220991 -0.0022577778 -9.6097559e-05
-0.0041397787 0.00014111112 -0.00051829265
-0.003859116 0.0015522222 0.0011704878
0.0062447512 -0.0015522222 -0.0071326829
-0.00077182316 0.00254 -0.00023682926
0.0010524861 0.00098777784 -0.0040365853
0.0014734806 0.00098777784 0.00018536585
-0.011156353 -0.00254 -0.00023682926
-0.010454696 0.0015522222 -0.0023478048
-0.0073674032 -0.00014111112 -0.00051829265
-0.0016138121 -0.00254 -0.0013626829
-0.0037187843 0.00127 -0.0031921952
0.011156353 0.00098777784 -0.0071326829
-0.0127 -0.0011288889 -0.00051829265
0.0016138121 -0.0016933334 -9.6097559e-05
0.0014734806 0.00084666669 -0.0026292682
0.0063850828 -0.00098777784 4.4634147e-05
0.010875691 0.0023988888 -9.6097559e-05
-0.0084900549 -0.00127 -0.0060068294
0.0086303866 0.0022577778 -9.6097559e-05
0.0082093924 0.0018344445 -0.0023478048
-0.0004911602 0.00070555555 -0.0024885365
0.0054027624 0.00070555555 -0.0024885365
0.0010524861 -0.00098777784 0.00018536585
-0.0070867403 0.00127 -0.0024885365
0.0047011049 -0.0019755557 -0.00023682926
-0.0010524861 -0.00127 -0.0030514635
0.011437017 0.0015522222 0.002577805
-0.0098933699 -0.00254 -0.0023478048
-0.0086303866 -0.0014111111 -0.0054439022
-0.011296685 0.00098777784 -0.0050217072
0.0062447512 -0.0015522222 -0.0061475611
-0.0087707182 -0.00084666669 0.0018741463
0.011717679 -0.00127 0.0024370733
-0.0086303866 -0.0011288889 -0.0078363419
-0.0037187843 -0.0015522222 0.0017334146
-0.0127 -0.0014111111 -0.0006590244
0.0014734806 -0.00084666669 -0.0050217072
0.010174033 0.00098777784 -0.00037756097
-0.0094723757 0.00084666669 -0.00037756097
-0.0045607733 0.0019755557 -9.6097559e-05
-0.011717679 -0.0014111111 -0.0044587804
-0.0066657458 -0.0011288889 0.0013112195
-0.0070867403 0.00042333335 -0.00051829265
-0.0087707182 0.00098777784 -0.0078363419
0.008911049 0.00084666669 4.4634147e-05
0.0075077345 0.00254 -0.00051829265
-0.0059640883 0.00127 -9.6097559e-05
-0.008911049 -0.00254 -0.00094048778
7.0165741e-05 0.00042333335 -0.0024885365
-0.0031574585 -0.0011288889 -9.6097559e-05
0.0039994475 -0.00098777784 0.0017334146
0.0011928177 -0.0014111111 -0.003755122
0.0037187843 -0.0015522222 -0.0076956097
0.003859116 -0.0015522222 -0.0034736586
0.011156353 -0.00254 -0.0020663415
-0.0042801104 -0.00084666669 -0.0024885365
0.0039994475 0.00098777784 -0.0054439022
-0.0031574585 0.00098777784 -9.6097559e-05
0.0065254141 -0.0014111111 -0.0026292682
-0.0069464087 0.0016933334 -0.00023682926
0.0063850828 0.0015522222 0.00018536585
-0.011717679 -0.00127 -0.0074141463
0.0090513807 -0.00254 -0.0013626829
-0.0048414362 -0.0016933334 -0.00023682926
-0.0034381214 -0.0011288889 0.0017334146
-0.003859116 0.0015522222 -0.0061475611
0.003017127 0.0011288889 -0.0024885365
0.0069464087 0.0016933334 -0.0024885365
0.0090513807 -0.0014111111 -0.0050217072
-0.0090513807 0.0015522222 -0.0076956097
-0.0080690607 0.0014111111 -9.6097559e-05
0.0004911602 -0.00070555555 -0.00051829265
0.011016021 -0.00042333335 -0.0023478048
-0.0087707182 0.00127 0.0011704878
0.0066657458 0.00127 0.0021556097
0.0014734806 -0.0015522222 -0.0045995121
0.012138674 -0.0023988888 -0.00079975609
0.0075077345 0.0015522222 -9.6097559e-05
0.0039994475 -0.0015522222 -0.0047402438
0.0039994475 0.0014111111 -0.0068512196
0.0086303866 0.00098777784 -0.007554878
-0.010595027 -0.0014111111 -9.6097559e-05
0.011156353 0.00098777784 0.00018536585
0.0049817679 -0.00254 -0.0019256098
-0.0010524861 0.00254 -0.00037756097
-0.0013331492 -0.0011288889 -0.0082585365
-0.0093320441 0.00254 -0.0019256098
0.011577347 0.0015522222 0.0013112195
0.010875691 -0.00254 -0.0017848781
-0.0127 0.00056444446 -0.0015034146
-0.0091917124 -0.0016933334 -0.0024885365
-0.0093320441 -0.0022577778 -0.0024885365
-0.011296685 0.0015522222 -0.0031921952
-0.011156353 0.0011288889 -0.0058660978
0.0004911602 0.0023988888 -0.0024885365
0.0090513807 -0.0019755557 -9.6097559e-05
0.011016021 -0.00254 -0.00079975609
-0.0035784529 0.0011288889 -0.0051624388
-0.010033702 0.0018344445 -0.0023478048
-0.0035784529 -0.00127 0.002014878
-0.0066657458 -0.00028222223 -0.0023478048
0.0011928177 -0.00084666669 -0.0036143903
-0.011156353 -0.00127 -0.0029107316
-0.0054027624 0.00254 -9.6097559e-05
0.0037187843 -0.00084666669 0.0015926829
-0.010033702 0.00014111112 -0.0023478048
0.0021751381 -0.00254 -0.00079975609
-0.0086303866 -0.00070555555 -0.0024885365
-0.0087707182 -0.0011288889 -0.0081178052
-0.003859116 0.00098777784 -0.0033329269
0.0045607733 0.0014111111 -0.0024885365
-0.00035082872 -0.0015522222 -0.0024885365
0.012559668 -0.00098777784 -0.00037756097
-0.0066657458 -0.00127 -0.0055846344
-0.0090513807 -0.00254 -0.00094048778
0.0010524861 -0.00098777784 -0.0069919513
0.0014734806 0.00098777784 0.0024370733
0.0090513807 -0.00056444446 -0.00051829265
0.0011928177 0.0016933334 0.0024370733
-0.0063850828 0.00098777784 -0.0079770731
-0.008911049 0.0015522222 -0.0057253661
0.0031574585 -0.00254 -0.0022070732
-0.0034381214 -0.0019755557 -9.6097559e-05
0.0087707182 0.00098777784 -0.0040365853
0.0011928177 -0.00127 0.00018536585
-0.003859116 0.00084666669 -0.0064290245
-0.003859116 0.00098777784 -0.0058660978
0.0096127065 -0.0014111111 -0.0024885365
-0.0035784529 -0.00127 -0.0034736586
0.00021049724 -0.0019755557 -9.6097559e-05
0.0034381214 0.0021166666 -9.6097559e-05
-0.0018944751 -0.00254 -0.0012219512
-0.0087707182 0.0014111111 0.0015926829
-0.0082093924 -0.00254 -9.6097559e-05
0.0010524861 0.00098777784 -0.0048809755
0.0010524861 -0.00254 -0.0022070732
-0.0087707182 -0.00084666669 -0.004177317
-0.0011928177 0.00254 -0.0006590244
-0.0041397787 0.0014111111 -0.0055846344
-0.0052624308 -0.0021166666 -9.6097559e-05
-0.0090513807 -0.00127 -0.0076956097
-0.0070867403 -0.00254 -0.0022070732
-0.008911049 -0.00098777784 -0.0047402438
0.011437017 -0.00042333335 -0.00051829265
0.0039994475 0.00098777784 0.0013112195
0.0041397787 -0.0011288889 -0.0029107316
-0.0054027624 0.0023988888 -0.0024885365
0.002455801 0.00070555555 -0.0024885365
0.010314364 0.00098777784 -0.00023682926
7.0165741e-05 -0.0023988888 -0.0024885365
0.0065254141 -0.0014111111 0.0017334146
0.0090513807 0.0014111111 -0.0044587804
-0.0010524861 0.0011288889 -0.0034736586
0.0035784529 0.00254 -0.0020663415
-0.0063850828 -0.00084666669 0.0013112195
0.0127 -0.00127 -0.00051829265
-0.0013331492 -0.0015522222 -0.0064290245
-0.0035784529 -0.0015522222 0.00018536585
0.0037187843 -0.00070555555 -0.0026292682
-0.0127 0.0016933334 -0.00023682926
-0.00329779 -0.00042333335 -0.0024885365
0.011858011 -0.0023988888 -0.00094048778
-0.010735359 -0.00254 -0.0015034146
-0.0011928177 0.0014111111 -0.0043180487
-0.011717679 -0.0011288889 -0.0040365853
0.0077883974 -0.00254 -0.0017848781
0.0023154696 0.00028222223 -0.0024885365
0.0069464087 -0.00056444446 -0.0024885365
-0.0086303866 0.00254 -0.0023478048
0.0035784529 -0.00098777784 0.0013112195
-0.0091917124 -0.0011288889 -0.0026292682
-0.0086303866 -0.00014111112 -0.0024885365
0.0058237566 0.00254 -0.0023478048
-0.0075077345 -0.0018344445 -0.0023478048
-0.00063149171 0.00254 -0.0023478048
-0.00077182316 0.0014111111 -9.6097559e-05
0.0061044195 0.00127 0.0017334146
0.0090513807 -0.0014111111 -0.0030514635
-0.0052624308 0.00254 -0.0006590244
0.0054027624 0.0015522222 -0.0024885365
-0.0010524861 0.00056444446 -0.00051829265
0.0065254141 -0.00254 -0.0020663415
-0.0013331492 -0.0011288889 -0.0029107316
0.0004911602 0.00254 -0.00094048778
0.011998342 0.00254 -0.0015034146
0.00077182316 -0.00254 -0.0022070732
0.0090513807 -0.0014111111 0.00088902441
0.0010524861 0.0011288889 0.00088902441
0.0062447512 -0.00098777784 -0.0074141463
0.0039994475 0.00098777784 0.00032609756
0.0055430937 -0.00254 -0.0023478048
-0.0011928177 -0.0015522222 -0.0030514635
0.0070867403 -0.00028222223 -0.0024885365
0.0063850828 -0.00028222223 -0.0024885365
-0.0062447512 0.0014111111 -0.0036143903
-0.011016021 -0.00254 -0.00094048778
-0.0086303866 0.0011288889 -0.0024885365
0.0045607733 -0.00070555555 -0.00051829265
0.0083497232 0.00127 -0.0024885365
0.011717679 0.00127 -0.0060068294
-0.0069464087 0.00084666669 -0.00037756097
-0.0054027624 -0.0014111111 -9.6097559e-05
0.0023154696 -0.00254 -0.0024885365
0.0063850828 -0.00098777784 -0.003755122
0.0063850828 -0.0015522222 -0.0058660978
0.0037187843 0.0015522222 -0.004177317
0.011437017 0.0015522222 0.0014519512
-0.0061044195 0.00098777784 -0.0061475611
-0.0027364639 0.00042333335 -0.0024885365
0.0059640883 0.00084666669 -0.0024885365
-0.00063149171 0.00014111112 -0.00051829265
-0.0013331492 0.00098777784 0.00046682928
-0.0066657458 -0.0011288889 -0.0048809755
0.011717679 0.0011288889 -0.0055846344
0.0062447512 -0.00014111112 -0.0024885365
-0.011296685 0.00254 -0.0006590244
0.0031574585 0.00028222223 -0.00051829265
-0.0065254141 -0.0014111111 -0.0065697562
0.0061044195 -0.00098777784 -0.0047402438
0.0087707182 -0.00127 -0.0055846344
0.011437017 -0.0023988888 -0.00079975609
0.0011928177 -0.00127 0.0014519512
-0.0025961325 0.00254 -0.0013626829
0.0011928177 0 -0.00051829265
0.0055430937 0.00028222223 -0.0024885365
-0.011156353 -0.0015522222 -0.0036143903
0.011998342 -0.00042333335 -0.0024885365
-0.0077883974 0.0011288889 -9.6097559e-05
0.011717679 -0.0014111111 -0.0067104879
0.0021751381 -0.00254 -0.0006590244
0.012419336 0.0022577778 -0.0023478048
0.012559668 0.0022577778 -0.0023478048
0.0010524861 -0.0011288889 0.00046682928
-0.0091917124 -0.00098777784 -0.0068512196
-0.0035784529 -0.00127 -0.0062882928
-0.0077883974 -0.00084666669 -0.00023682926
-0.011577347 0.00098777784 -0.0036143903
-0.011156353 -0.0011288889 0.0017334146
0.0041397787 0.00098777784 -0.0024885365
-0.0011928177 0.00254 -0.00079975609
0.010033702 0.00254 -0.0013626829
0.0065254141 -0.00098777784 -0.0034736586
-0.0090513807 -0.00084666669 -0.0051624388
0.0090513807 -0.00127 -0.0060068294
0.0090513807 0.00098777784 -0.0065697562
0.0061044195 0.00056444446 -0.00051829265
-7.0165741e-05 0.0016933334 -0.0024885365
0.0056834253 -0.00254 -0.0017848781
-0.0086303866 0.00098777784 -0.003755122
0.00329779 -0.00014111112 -0.00051829265
0.0051220991 0.00098777784 -0.00023682926
0.0087707182 -0.00098777784 -0.0062882928
7.0165741e-05 0.0015522222 -0.0024885365
-0.011717679 0.0023988888 -0.0016441464
-0.0062447512 0.0015522222 4.4634147e-05
0.0083497232 -0.0011288889 -0.0024885365
-0.0065254141 0.0015522222 -0.0068512196
0.008911049 -0.0011288889 -0.0079770731
0.0072270716 -0.00254 -0.0022070732
0.006806077 -0.0022577778 -9.6097559e-05
-0.006806077 0.00014111112 -0.00051829265
0.0028767956 0.00098777784 -0.00023682926
-0.0016138121 0.0014111111 -0.0045995121
-0.0004911602 0.00254 -0.0024885365
0.0011928177 -0.00127 -0.0043180487
-0.003859116 0.00084666669 0.0010297562
-0.0035784529 0.0022577778 -9.6097559e-05
-0.0096127065 -0.0011288889 -9.6097559e-05
-0.0062447512 0.00098777784 0.0013112195
-0.010595027 -0.0019755557 -9.6097559e-05
-0.011998342 0.00084666669 -0.00037756097
-0.0013331492 -0.0011288889 -0.0074141463
0.011577347 0.0015522222 -0.0045995121
-0.0011928177 0.0015522222 -0.004177317
-0.011717679 -0.0011288889 0.00032609756
-0.0098933699 0.00056444446 -0.0024885365
0.011296685 -0.0014111111 0.0014519512
-0.0091917124 -0.00254 -0.0016441464
0.0087707182 -0.0014111111 -0.0026292682
0.0039994475 0.00127 0.0011704878
-0.0014734806 0.00056444446 -0.0024885365
0.00329779 -0.00042333335 -0.0024885365
-0.0011928177 0.0014111111 -0.003755122
0.0086303866 -0.00254 -0.0023478048
-0.0087707182 0.00070555555 -0.00051829265
-0.0058237566 0.00254 -0.00037756097
0.011998342 -0.00127 -0.0024885365
-0.011296685 -0.00098777784 -0.0068512196
-0.002455801 -0.0016933334 -0.00023682926
0.0080690607 -0.00042333335 -0.00051829265
-0.011156353 0.0011288889 -0.0027699999
-0.0021751381 0.00254 -9.6097559e-05
0.0127 -0.00056444446 -0.0006590244
-0.0087707182 0.0015522222 0.00074829266
0.0037187843 -0.00084666669 -0.007554878
0.002455801 -0.0023988888 -9.6097559e-05
0.0127 0.00056444446 -0.0017848781
-0.0035784529 -0.00014111112 -0.00051829265
0.0058237566 -0.0019755557 -9.6097559e-05
0.0086303866 -0.00098777784 -0.0045995121
0.0013331492 0.0016933334 -0.0026292682
0.0049817679 0.0016933334 -0.0024885365
0.010454696 0.0022577778 -9.6097559e-05
-0.0061044195 -0.00084666669 -0.0048809755
-0.00035082872 0.00254 -0.0017848781
0.0023154696 0.00254 -0.00023682926
0.0090513807 -0.0014111111 -0.0058660978
-0.0031574585 0.0018344445 -0.00037756097
0.0086303866 0.0011288889 -0.0078363419
-0.00021049724 -0.0015522222 -0.0024885365
-0.0079287291 0 -0.0024885365
-0.0028767956 -0.00254 -0.0015034146
0.011858011 -0.00042333335 -0.0024885365
0.0041397787 -0.00127 -0.003755122
0.0035784529 0.0014111111 -0.007554878
-0.0039994475 -0.0021166666 -0.0024885365
-0.0065254141 -0.0014111111 0.00032609756
0.0059640883 0.00014111112 -0.0024885365
-0.0034381214 -0.0016933334 -0.00037756097
0.0018944751 -0.00084666669 -0.00037756097
-0.011858011 0.00028222223 -0.0023478048
-0.0056834253 -0.00042333335 -0.00051829265
0.0127 -0.00042333335 -0.0023478048
-0.0065254141 -0.00098777784 -0.0067104879
0.0127 0.0011288889 -0.00023682926
0.0039994475 0.0015522222 0.0015926829
0.0066657458 0.00098777784 -0.0058660978
0.0066657458 0.00098777784 0.00032609756
-0.00091215468 0.00056444446 -0.0024885365
-0.011296685 0.00127 -0.0045995121
0.00021049724 -0.00254 -9.6097559e-05
-0.010174033 0.0018344445 -0.0023478048
-0.0072270716 0.0011288889 -0.0024885365
-0.0020348066 0.00254 -0.0010812195
-0.0013331492 -0.00127 -0.0072734146
-0.0073674032 -0.00084666669 -0.00023682926
0.0039994475 0.00254 -0.0015034146
0.0037187843 -0.00084666669 -0.0029107316
-0.0039994475 0.00098777784 0.00046682928
-0.0080690607 0.0023988888 -0.0023478048
-0.0014734806 0.00254 -0.0012219512
-0.0127 0.00014111112 -0.0015034146
0.0031574585 0.0015522222 -9.6097559e-05
-0.0025961325 0.00254 -0.0010812195
-0.0013331492 0.0015522222 -0.0081178052
-0.008911049 -0.00084666669 0.00060756097
0.0017541436 0.00254 -0.0015034146
0.0061044195 -0.00098777784 -0.0064290245
0.0096127065 -0.0015522222 -0.0024885365
-0.0090513807 0.00098777784 -0.0055846344
0.011437017 0.00070555555 -0.00051829265
0.0014734806 0.0011288889 0.002014878
-0.010174033 -0.00254 -0.0016441464
-0.0010524861 -0.0014111111 -0.003755122
-0.0061044195 0.00254 -0.0023478048
0.0037187843 0.0015522222 -0.0068512196
-0.008911049 -0.0015522222 -0.0078363419
-0.0065254141 -0.00098777784 0.0018741463
-0.0028767956 -0.00254 -0.0010812195
-0.0037187843 0.0016933334 -0.0024885365
-0.0047011049 -0.00084666669 -0.00037756097
0.0035784529 -0.0016933334 -0.00037756097
-0.0059640883 -0.0011288889 -0.0048809755
0.0063850828 -0.00098777784 -0.0064290245
-0.0063850828 -0.0021166666 -9.6097559e-05
0.0090513807 -0.00098777784 -0.0068512196
0.0011928177 0.0015522222 -0.0051624388
-0.002455801 -0.0019755557 -0.00037756097
0.008911049 0.00098777784 -9.6097559e-05
0.011998342 0 -0.00051829265
0.0094723757 -0.0022577778 -0.0023478048
-0.0021751381 0 -0.00051829265
0.0065254141 -0.0023988888 -9.6097559e-05
0.0039994475 0.00254 -0.0024885365
0.0062447512 -0.0015522222 -0.0050217072
0.0063850828 0.0015522222 -0.0053031705
0.011016021 -0.00254 -0.0022070732
0.0028767956 0.00254 -0.0020663415
0.011717679 0.00098777784 -0.0064290245
0.012279005 0.0021166666 -9.6097559e-05
-0.012559668 -0.00127 -9.6097559e-05
-0.0037187843 0.0014111111 -0.0045995121
-0.0087707182 0.00254 -0.00051829265
0.011717679 -0.00127 -0.0072734146
-0.0084900549 0 -0.00051829265
0.010033702 0.00254 -0.00079975609
-0.0072270716 -0.0014111111 -9.6097559e-05
0.0091917124 -0.00098777784 -0.0055846344
-0.0017541436 0.0023988888 -0.0024885365
0.0077883974 0.00254 -0.0016441464
-0.008911049 -0.00098777784 -0.0061475611
-0.0023154696 -0.0019755557 -0.00023682926
0.011998342 -0.00084666669 -0.0024885365
0.0062447512 0.00098777784 -0.0038958536
-0.0025961325 0.00254 -0.00094048778
0.011717679 0.0011288889 -0.0068512196
-0.0048414362 -0.00070555555 -0.0024885365
0.010454696 0.0021166666 -0.0024885365
-0.00329779 -0.00014111112 -0.0024885365
-0.0013331492 -0.00098777784 0.0024370733
-0.00091215468 0.0022577778 -0.0024885365
0.00063149171 0.00254 -0.0022070732
0.0075077345 -0.00084666669 -9.6097559e-05
-0.0014734806 -0.00098777784 -0.0067104879
0.0031574585 0.0018344445 -0.0024885365
-0.0011928177 0.0014111111 0.0015926829
-0.0058237566 -0.00254 -0.0006590244
0.0041397787 -0.00084666669 -0.0024885365
-0.0062447512 -0.0015522222 -0.0068512196
0.0016138121 0.00254 -0.0022070732
-0.011296685 0.0014111111 0.0017334146
0.0018944751 -0.0019755557 -0.00023682926
0.003859116 0.0015522222 0.0013112195
0.010454696 -0.0016933334 -0.00023682926
-0.012279005 -0.0023988888 -9.6097559e-05
0.011437017 -0.0015522222 -0.0057253661
-0.0062447512 -0.00056444446 -0.0024885365
-0.00091215468 -0.00014111112 -0.00051829265
0.0069464087 -0.00254 -0.00079975609
-0.0127 -0.0015522222 -0.00051829265
0.0072270716 0.0018344445 -0.00023682926
0.0039994475 0.00098777784 -0.0055846344
-0.0063850828 0.00098777784 -0.003755122
-0.012419336 -0.0014111111 -0.0023478048
-0.0035784529 -0.00127 0.0022963414
-0.010033702 -0.0014111111 -0.0023478048
0.011296685 -0.00098777784 -0.0068512196
0.0065254141 -0.0014111111 -0.0072734146
0.0031574585 -0.00042333335 -0.0024885365
0.0020348066 -0.00254 -0.0022070732
0.010875691 0.00254 -0.0017848781
0.0034381214 -0.00254 -0.0012219512
-0.011577347 -0.0015522222 0.0018741463
-0.0011928177 -0.00098777784 -0.0038958536
-0.0061044195 -0.0014111111 -0.0051624388
0.012138674 0.00098777784 -0.00023682926
-0.0087707182 -0.00098777784 4.4634147e-05
0.0056834253 -0.0019755557 -9.6097559e-05
-0.0077883974 0.00070555555 -0.0024885365
-0.0017541436 0.00254 -0.0016441464
0.0086303866 0.0015522222 -0.0055846344
-0.0039994475 -0.0014111111 -0.0060068294
-0.0090513807 0.0015522222 -0.0031921952
0.0086303866 0.00127 0.0024370733
0.0010524861 0.0018344445 -0.00037756097
0.0039994475 0.0015522222 -0.0054439022
0.011717679 0.0011288889 -0.0040365853
-0.011296685 0.0015522222 0.00060756097
-0.0031574585 -0.00254 -0.0017848781
-0.011717679 -0.00098777784 -0.0060068294
0.0091917124 -0.00098777784 0.0015926829
0.0011928177 -0.00098777784 -0.0074141463
0.0037187843 0.00098777784 0.0015926829
-0.0037187843 0.0014111111 -0.0061475611
-0.0011928177 0.00127 0.00060756097
-0.0016138121 -0.00042333335 -0.00051829265
-0.011016021 -0.00254 -0.0023478048
-0.011577347 0.0014111111 0.00060756097
0.0047011049 0.0019755557 -0.00023682926
0.010314364 -0.0019755557 -9.6097559e-05
-0.0096127065 0.00254 -0.0016441464
0.0055430937 0.00014111112 -0.0024885365
0.0069464087 -0.00098777784 -0.0024885365
0.0087707182 -0.0014111111 0.00046682928
0.0039994475 -0.0015522222 -0.0079770731
0.011156353 0.0018344445 -0.0024885365
-0.00035082872 0.00042333335 -0.0024885365
0.0013331492 0.0011288889 -0.0081178052
0.0054027624 0.0023988888 -9.6097559e-05
0.0010524861 -0.00254 -0.00094048778
-0.0041397787 0.00254 -0.0006590244
0.0059640883 0 -0.0024885365
0.010033702 0.0018344445 -0.0024885365
0.0061044195 -0.00254 -0.00037756097
0.011156353 0.0011288889 -0.0068512196
-0.003859116 -0.00084666669 -0.0036143903
-0.0051220991 -0.00098777784 -9.6097559e-05
-0.0013331492 -0.00127 -0.0051624388
0.011296685 0.00098777784 0.0024370733
-0.0011928177 -0.0015522222 -0.0076956097
-0.0086303866 -0.0011288889 -0.0069919513
-0.011437017 0.0015522222 -0.0031921952
-0.011437017 0.00098777784 -0.0027699999
0.0087707182 -0.0014111111 -0.0033329269
0.003859116 0.0015522222 -0.0048809755
0.0016138121 -0.0014111111 0.0015926829
0.011998342 -0.0016933334 -0.00023682926
-0.0042801104 -0.0019755557 -9.6097559e-05
0.0025961325 -0.00084666669 -9.6097559e-05
-0.0048414362 0.0016933334 -0.0024885365
-0.010875691 0.00254 -0.00023682926
-0.011437017 0.00098777784 -0.007554878
0.010875691 0.00254 -0.0022070732
-0.0016138121 0.00098777784 -0.0053031705
-0.0090513807 0.00098777784 0.00060756097
0.0090513807 0.0015522222 -0.0072734146
0.003859116 -0.0016933334 -0.0024885365
0.0013331492 0.00254 -0.00037756097
0.0066657458 -0.0018344445 -0.0024885365
-0.0020348066 0.00254 -0.0012219512
-0.0090513807 0.0014111111 -0.0078363419
-0.0014734806 0.0015522222 -0.0055846344
0.0061044195 0.00098777784 -0.0055846344
-0.003017127 0.00254 -0.00079975609
0.0076480662 -0.0018344445 -0.00037756097
-0.0013331492 0.00098777784 -0.0071326829
-0.0016138121 0.00098777784 0.00018536585
-0.0037187843 -0.0015522222 -0.0055846344
-0.0066657458 -0.00098777784 0.00060756097
0.0039994475 -0.00098777784 -0.0064290245
0.003017127 -0.0023988888 -9.6097559e-05
-0.0127 0.00084666669 -0.00079975609
0.010454696 0.0014111111 -9.6097559e-05
-0.0063850828 0.00254 -0.0012219512
-0.0072270716 -0.00127 -9.6097559e-05
0.0090513807 0.00254 -0.0012219512
0.0031574585 0.00084666669 -0.0024885365
-0.0010524861 -0.0014111111 -0.0038958536
0.0039994475 0.0011288889 -0.0029107316
-0.0004911602 -0.0018344445 -0.00051829265
0.011577347 -0.0014111111 -0.0061475611
-0.0042801104 0.00254 -0.00079975609
-0.011577347 -0.00254 -0.00023682926
-0.003859116 -0.0015522222 0.002014878
-0.0018944751 -0.00254 -0.0023478048
0.0090513807 0.0015522222 -0.0067104879
0.010314364 0.0011288889 -0.0023478048
0.0077883974 -0.00084666669 -9.6097559e-05
0.0042801104 -0.00254 -0.00094048778
-0.011717679 0.00127 4.4634147e-05
-0.0041397787 0.00098777784 -0.0031921952
0.0091917124 0.00056444446 -0.00051829265
-0.0082093924 -0.00254 -0.00051829265
0.010454696 0.0019755557 -9.6097559e-05
0.012138674 -0.0023988888 -0.0010812195
0.0039994475 0.0014111111 -0.0036143903
-0.0017541436 0.0015522222 -9.6097559e-05
0.0087707182 -0.00127 -0.0076956097
-0.011296685 -0.00028222223 -0.0023478048
0.0013331492 0.00098777784 0.0024370733
-0.0035784529 -0.0014111111 -0.0044587804
-0.0039994475 -0.0015522222 0.002577805
0.0086303866 -0.0011288889 0.00060756097
0.0090513807 -0.0016933334 -9.6097559e-05
-0.0013331492 -0.00098777784 -0.0058660978
-0.012559668 -0.0021166666 -0.0017848781
-0.0076480662 0.00254 -0.0020663415
-0.0028767956 0.00254 -0.0012219512
0.008911049 0.00098777784 -0.0061475611
-0.0062447512 0.0014111111 -0.0060068294
0.003017127 0.00127 -0.0024885365
-0.0055430937 0.00056444446 -0.0024885365
-0.0098933699 -0.00084666669 -0.00023682926
0.010595027 -0.0022577778 -9.6097559e-05
-0.0042801104 -0.00254 -0.0016441464
-0.0096127065 -0.0016933334 -9.6097559e-05
0.0047011049 -0.00042333335 -0.00051829265
-0.011437017 0.00098777784 -0.004177317
-0.0063850828 0.00084666669 -0.0026292682
-0.002455801 0.0015522222 -0.0024885365
-0.0042801104 -0.00056444446 -0.00051829265
-0.0127 0.0015522222 -0.0010812195
-0.0011928177 -0.00084666669 -0.0074141463
0.0013331492 -0.0011288889 -0.0082585365
-0.011577347 0.00098777784 0.0011704878
0.010735359 -0.0019755557 -0.00023682926
-0.0091917124 0.00098777784 -0.0072734146
-0.0062447512 0.00014111112 -0.00051829265
0.0011928177 -0.00084666669 0.00060756097
0.0010524861 -0.0016933334 -9.6097559e-05
-0.002455801 -0.00254 -0.0015034146
0.0083497232 0.00014111112 -0.0024885365
-0.011156353 0.00098777784 -0.0024885365
-0.011296685 -0.0016933334 0.00074829266
0.0010524861 0.00127 -0.007554878
-0.0063850828 -0.00084666669 0.00046682928
-0.0076480662 -0.00254 -0.0022070732
-0.0037187843 0.00084666669 -0.0047402438
0.0013331492 0.00127 -0.0045995121
-0.0062447512 -0.00098777784 -0.0043180487
0.0062447512 0.00254 -0.0012219512
0.0091917124 -0.0011288889 -0.0053031705
-0.00091215468 0.00070555555 -0.00051829265
-0.008911049 -0.0015522222 0.002577805
-0.0014734806 -0.0011288889 -0.0055846344
-0.0087707182 0.00098777784 0.0018741463
0.0004911602 -0.0018344445 -0.0024885365
-0.0075077345 0.0016933334 -9.6097559e-05
-0.0037187843 0.00084666669 -0.0064290245
-0.00063149171 0.00028222223 -0.0024885365
-0.0035784529 -0.0015522222 -0.0078363419
-0.0090513807 -0.0014111111 -0.0030514635
-0.0039994475 -0.0014111111 -0.0071326829
-0.011437017 -0.0019755557 -0.0023478048
0.0066657458 -0.00127 -0.0051624388
-0.011156353 -0.0014111111 -0.0062882928
-0.0039994475 -0.0021166666 -9.6097559e-05
0.011437017 0.0015522222 4.4634147e-05
-0.011577347 0.00098777784 0.00032609756
-0.0055430937 -0.00254 -0.00051829265
0.010875691 0.00254 -0.0015034146
-0.0020348066 0.0011288889 -0.0024885365
0.0065254141 -0.0022577778 -0.0024885365
-0.011577347 0.00098777784 -0.0029107316
0.0073674032 -0.00028222223 -0.00051829265
-0.0091917124 -0.0011288889 -0.0048809755
0.0061044195 0.0015522222 -0.0027699999
-0.011858011 -0.0015522222 -9.6097559e-05
-0.0127 0.00028222223 -0.0016441464
0.0052624308 -0.00254 -0.0022070732
0.0084900549 0.0018344445 -0.0023478048
-0.0087707182 0.00098777784 0.0022963414
-0.0080690607 -0.00084666669 -9.6097559e-05
0.002455801 -0.00056444446 -0.0024885365
-0.011296685 -0.00098777784 -0.0050217072
0.0028767956 -0.0023988888 -9.6097559e-05
-0.0037187843 -0.0015522222 -0.003755122
-0.0086303866 -0.00254 -0.0006590244
-0.0062447512 0.0016933334 0.0018741463
-0.0087707182 -0.00070555555 -0.0026292682
0.0061044195 0.00254 -0.00079975609
-0.0018944751 -0.00056444446 -0.0024885365
0.0096127065 0.00254 -0.0019256098
0.0098933699 -0.00028222223 -0.0024885365
-0.0090513807 -0.0011288889 -0.0081178052
0.00021049724 0.0021166666 -0.0024885365
-0.0127 -0.0014111111 -0.00079975609
-0.011717679 -0.00127 0.0014519512
-0.0066657458 0.00127 0.0015926829
-0.0037187843 0.00098777784 -0.0033329269
0.011016021 0.0014111111 -9.6097559e-05
0.0080690607 -0.00127 -0.0023478048
0.0063850828 -0.0015522222 -0.0030514635
-0.011156353 -0.0011288889 -0.0061475611
0.011577347 0.00098777784 -0.0069919513
0.0028767956 -0.0016933334 -0.00037756097
-0.0010524861 -0.00127 -0.0068512196
-0.0076480662 -0.0011288889 -0.0024885365
0.0037187843 0.00254 -0.0012219512
-0.0011928177 0.00098777784 0.00060756097
-0.0086303866 -0.0015522222 -0.0058660978
-0.0014734806 -0.00098777784 -0.0064290245
-0.0037187843 0.0015522222 -0.0029107316
-0.0031574585 0.0014111111 -0.0024885365
0.0069464087 0.00070555555 -0.0024885365
0.0077883974 0.0016933334 -0.0024885365
0.0087707182 -0.00098777784 -0.0038958536
-0.0004911602 0.00254 -0.00094048778
0.010735359 0.0015522222 -9.6097559e-05
-0.0127 -0.00014111112 -0.0013626829
0.0037187843 0.0015522222 -0.0061475611
-0.0014734806 0.0015522222 0.0021556097
-0.0065254141 -0.00098777784 -0.0069919513
-0.011296685 0.00127 -0.0044587804
-0.010595027 0.00254 -0.00023682926
-0.0025961325 -0.0019755557 -0.00037756097
0.0041397787 0.00254 -9.6097559e-05
0.0010524861 -0.00098777784 0.0018741463
-0.0097530382 0.0016933334 -9.6097559e-05
-0.0045607733 -0.00127 -9.6097559e-05
-0.0091917124 0.0011288889 -0.0043180487
0.0091917124 0.0016933334 -0.0024885365
0.011296685 -0.00098777784 0.0013112195
0.0059640883 -0.0023988888 -9.6097559e-05
-0.0041397787 0.00098777784 -0.0047402438
-0.0025961325 0.00254 -0.00023682926
-0.0049817679 -0.00254 -9.6097559e-05
-0.0080690607 -0.00254 -0.0019256098
0.0066657458 -0.0011288889 -0.0078363419
-0.0041397787 0.00127 -0.0029107316
0.0093320441 0.0011288889 -0.0024885365
0.0061044195 0.00070555555 -0.0024885365
0.011577347 -0.00098777784 -0.0060068294
-0.00063149171 -0.00254 -0.0013626829
-0.0058237566 -0.00254 -0.0019256098
-0.0087707182 0.0015522222 -0.0069919513
0.0037187843 -0.0015522222 0.002014878
0.0082093924 0.0019755557 -0.0023478048
-0.0054027624 0.00014111112 -0.0024885365
0.011717679 0.0011288889 0.0011704878
0.0076480662 -0.0016933334 -0.00023682926
-0.011858011 0.00254 -0.00037756097
0.011717679 -0.00127 -0.0061475611
0.0084900549 -0.00254 -0.0013626829
-0.011577347 -0.00098777784 -0.0057253661
0.0013331492 0.00098777784 -0.0079770731
-0.0010524861 -0.0016933334 -9.6097559e-05
0.0052624308 0.00254 -0.00023682926
0.0061044195 -0.0011288889 -0.003755122
-0.0039994475 -0.0011288889 0.00088902441
0.008911049 0.0015522222 -0.0079770731
0.0061044195 -0.0011288889 0.0013112195
0.0086303866 -0.0011288889 -0.0033329269
0.0066657458 -0.0011288889 -0.0072734146
0.011577347 -0.00098777784 -9.6097559e-05
-0.0045607733 -0.00014111112 -0.0024885365
0.012419336 -0.00028222223 -0.0024885365
-0.0091917124 0.00098777784 -0.003755122
-0.011998342 -0.00070555555 -0.00051829265
-0.0087707182 -0.0015522222 -0.0027699999
0.0061044195 -0.00254 -0.0013626829
0.0097530382 0.0022577778 -0.0024885365
-0.0041397787 0.00127 -0.0054439022
0.0011928177 0.0015522222 -0.0069919513
0.0127 0.00127 -0.0006590244
0.0039994475 0.00127 -0.003755122
0.012559668 -0.0021166666 -0.00023682926
0.010735359 0.0011288889 -0.0023478048
0.011296685 0.0015522222 -0.0071326829
-0.0079287291 0.00254 -0.00079975609
0.0028767956 -0.0019755557 -0.0024885365
-0.0035784529 0.00056444446 -0.0024885365
0.0039994475 -0.00028222223 -0.0024885365
-0.011577347 0.0014111111 -0.0058660978
0.0037187843 0.0015522222 -0.0065697562
-0.0035784529 0.00254 -0.0023478048
0.011717679 -0.00098777784 -9.6097559e-05
-0.011156353 -0.00056444446 -0.0024885365
0.0087707182 -0.0015522222 0.0010297562
0.0039994475 0.00098777784 -0.0048809755
0.002455801 -0.00028222223 -0.0024885365
0.0061044195 0.0011288889 -0.0054439022
0.011717679 0.0011288889 -0.0051624388
0.00035082872 -0.0014111111 -0.0024885365
-0.012559668 0.0021166666 -0.00079975609
-0.0072270716 -0.00254 -0.0016441464
0.002455801 -0.00254 -0.0023478048
-0.0037187843 0.0015522222 -0.0050217072
-0.0070867403 -0.00254 -0.0019256098
-0.0037187843 -0.0015522222 0.002577805
-0.0041397787 0.00127 -0.0036143903
-0.00035082872 -0.00028222223 -0.0024885365
0.0086303866 -0.0011288889 0.0014519512
-0.011437017 -0.00098777784 -0.0057253661
-0.00021049724 -0.00014111112 -0.00051829265
0.0065254141 -0.0015522222 -0.0040365853
0.011437017 -0.00098777784 0.0010297562
-0.0076480662 0.00254 -0.0017848781
0.0039994475 0.00098777784 0.00018536585
0.0087707182 -0.0014111111 -0.0074141463
-0.011577347 0.00098777784 0.00060756097
0.0083497232 -0.00028222223 -0.0024885365
-0.0014734806 0.00084666669 4.4634147e-05
0.0045607733 0.0015522222 -0.0024885365
0.010595027 0.00014111112 -0.00051829265
-0.0017541436 -0.00084666669 -0.00037756097
0.008911049 0.0015522222 -0.0045995121
-0.010735359 -0.00084666669 -0.00023682926
0.011016021 -0.00254 -0.00051829265
0.0087707182 -0.0014111111 -0.0057253661
-0.0041397787 0.0014111111 -0.0031921952
0.0041397787 -0.00098777784 -0.0074141463
-0.011296685 0.00127 -0.0053031705
-0.0091917124 0.00254 -0.00079975609
0.0035784529 0.0015522222 -0.0031921952
-0.011577347 0.00070555555 -0.00051829265
0.0098933699 0.00070555555 -0.0024885365
0.002455801 0.00254 -0.00051829265
-0.0091917124 0.00098777784 -0.0050217072
-0.0025961325 -0.0014111111 -0.0024885365
-0.012559668 0.0018344445 -0.0013626829
-0.0058237566 -0.0015522222 -9.6097559e-05
0.0010524861 0.00098777784 -0.00023682926
0.0011928177 0.00127 0.0028592683
-0.011437017 -0.00098777784 -0.0055846344
-0.0031574585 -0.00254 -0.0024885365
-0.0059640883 0.00254 -0.0015034146
-0.0062447512 0.00098777784 -0.0034736586
0.010735359 0.00254 -0.0019256098
0.0025961325 0.00254 -0.00037756097
0.0020348066 0.00254 -0.0015034146
-0.012559668 0.0014111111 -0.00023682926
0.0021751381 -0.0016933334 -0.0024885365
0.00077182316 0.0021166666 -0.0024885365
-0.0018944751 -0.00014111112 -0.0024885365
-0.0013331492 -0.0015522222 0.0014519512
0.011296685 -0.0014111111 -0.0026292682
-0.0062447512 -0.00084666669 -0.0069919513
0.010595027 0.00254 -0.0012219512
0.0083497232 0.00254 -0.00094048778
-0.0027364639 -0.00070555555 -0.0024885365
0.0063850828 -0.00084666669 -0.00023682926
-0.0021751381 0.00254 -0.0006590244
0.0018944751 0.0023988888 -9.6097559e-05
-0.0011928177 -0.00254 -0.0023478048
-0.0079287291 -0.00254 -0.00079975609
-0.0037187843 -0.00254 -0.00094048778
-0.011998342 0.00056444446 -0.00051829265
0.0082093924 -0.00254 -0.0006590244
0.0086303866 0.0015522222 0.0021556097
0.0086303866 0.00127 -0.0038958536
0.0013331492 0.0015522222 -0.0029107316
0.00035082872 0.0011288889 -9.6097559e-05
-0.0023154696 0 -0.0024885365
0.0090513807 0.0015522222 -0.0078363419
0.0010524861 -0.0011288889 -0.0033329269
-0.0090513807 0.0015522222 -0.0038958536
-0.0090513807 0.0015522222 0.0011704878
-0.0035784529 0.00014111112 -0.00051829265
0.0014734806 -0.00098777784 -0.0043180487
0.0061044195 0.00098777784 -0.0074141463
0.010735359 0.00084666669 -0.00051829265
0.0087707182 -0.00254 -0.00094048778
0.0070867403 0.00056444446 -0.0024885365
0.008911049 -0.00098777784 -0.007554878
0.0052624308 -0.00014111112 -0.0024885365
0.0034381214 0.0011288889 -0.0057253661
0.003859116 0.00254 -0.0006590244
0.0087707182 0.0016933334 0.00046682928
0.0035784529 -0.00098777784 -0.0074141463
0.004420442 -0.00014111112 -0.00051829265
0.011717679 0.0014111111 -0.0053031705
-0.0010524861 0.00098777784 -0.0031921952
-0.011858011 -0.00028222223 -0.0024885365
0.0061044195 -0.0011288889 0.0024370733
0.006806077 -0.0016933334 -0.00023682926
-0.006806077 0.00127 -9.6097559e-05
0.0025961325 0.00084666669 -0.0024885365
0.0016138121 -0.0022577778 -0.0024885365
-0.0011928177 0.00098777784 0.00018536585
-0.0020348066 0.00070555555 -0.0024885365
0.0037187843 0.00098777784 0.0013112195
0.0055430937 0.0022577778 -9.6097559e-05
0.004420442 0.0018344445 -0.0024885365
-0.012138674 0.0022577778 -0.0022070732
-0.0062447512 0.00098777784 -0.007554878
0.004420442 -0.00254 -0.0019256098
-0.0031574585 -0.00014111112 -0.00051829265
-0.011156353 -0.0011288889 0.0021556097
0.0070867403 0.00254 -0.0020663415
0.0052624308 -0.0016933334 -9.6097559e-05
0.0084900549 0.0011288889 -0.0036143903
0.0018944751 -0.0021166666 -9.6097559e-05
-0.0051220991 -0.0015522222 -9.6097559e-05
-0.0127 -0.00056444446 -0.0023478048
-0.0082093924 -0.0022577778 -0.0023478048
-0.0014734806 -0.00127 -0.0062882928
0.0091917124 -0.00098777784 -0.0053031705
0.011296685 -0.0018344445 -0.0023478048
0.0041397787 -0.00127 -0.0069919513
0.0127 -0.0014111111 -0.00079975609
-0.0010524861 -0.0015522222 -0.0038958536
-0.0056834253 -0.0019755557 -0.00023682926
-0.011296685 -0.0016933334 -0.0053031705
-0.0070867403 0.0011288889 -9.6097559e-05
0.0027364639 0.0014111111 -0.0024885365
0.003859116 -0.00254 -0.0012219512
0.011577347 0.00098777784 -0.004177317
0.0055430937 0 -0.00051829265
-0.0011928177 0.0014111111 -0.0064290245
0.00063149171 -0.00098777784 -0.00023682926
0.0037187843 -0.0015522222 -0.0064290245
0.011296685 0.0014111111 0.0027185366
0.0014734806 -0.0015522222 -0.0071326829
0.0041397787 -0.00127 0.00032609756
0.0127 0.0014111111 -0.0012219512
0.0034381214 -0.00028222223 -0.0024885365
-0.0018944751 -0.00254 -0.0006590244
0.011577347 -0.0023988888 -0.0019256098
-0.008911049 0.0015522222 0.0015926829
0.0091917124 -0.0011288889 -0.0055846344
0.00063149171 0.0014111111 -0.0024885365
-0.0011928177 -0.0015522222 -0.0071326829
-0.011717679 0.00254 -0.0022070732
-0.0013331492 0.0015522222 -0.0078363419
-0.0023154696 -0.00254 -0.0010812195
0.0077883974 -0.00070555555 -0.00051829265
0.0065254141 -0.0015522222 4.4634147e-05
0.0017541436 -0.00042333335 -0.0024885365
-0.0017541436 0.00254 -0.00079975609
0.0066657458 -0.0011288889 -0.0054439022
0.0039994475 0.0016933334 -9.6097559e-05
0.0066657458 -0.0011288889 -0.0074141463
0.00329779 0.00254 -0.0015034146
0.0094723757 0.00254 -0.0022070732
-0.0045607733 -0.00084666669 -0.0024885365
-0.0058237566 0.0022577778 -9.6097559e-05
-0.010314364 -0.00254 -0.00051829265
-0.003017127 -0.00254 -9.6097559e-05
0.0062447512 -0.0023988888 -0.0024885365
0.0027364639 -0.00084666669 -9.6097559e-05
-0.0062447512 0.00084666669 -0.0043180487
-0.0093320441 0.00254 -0.00094048778
-0.0011928177 0.00254 -0.0016441464
-0.0061044195 0.0014111111 -0.0040365853
-0.0061044195 -0.0014111111 0.0010297562
-0.00329779 0.0016933334 -0.0024885365
-0.0086303866 -0.0011288889 0.0018741463
-0.0087707182 -0.00098777784 -0.0033329269
-0.010454696 -0.00084666669 -0.00023682926
0.0080690607 -0.0016933334 -9.6097559e-05
0.0091917124 -0.00254 -0.0010812195
-0.0010524861 -0.0015522222 -0.007554878
-0.0039994475 -0.0011288889 0.002014878
-0.0077883974 0.00254 -0.0015034146
-0.0054027624 -0.00254 -0.00023682926
0.0014734806 -0.00084666669 -0.0027699999
0.011437017 -0.00098777784 -0.004177317
0.0004911602 -0.00084666669 -0.00023682926
-0.00329779 -0.00254 -0.0022070732
-0.0090513807 -0.00098777784 0.0024370733
0.0037187843 -0.0014111111 -0.0065697562
0.0090513807 -0.00127 -0.0065697562
-0.0020348066 -0.0021166666 -0.0024885365
0.011156353 0.0011288889 -0.0040365853
0.0093320441 0.0019755557 -9.6097559e-05
0.0039994475 0.00254 -0.0023478048
0.0035784529 0.0015522222 -0.0036143903
-0.0010524861 0.0011288889 -0.0033329269
0.0010524861 0.0011288889 -0.0057253661
0.003859116 -0.00098777784 0.00046682928
-0.0045607733 0.00254 -0.0019256098
-0.010735359 0.00070555555 -0.0023478048
-0.011858011 0.00070555555 -0.0023478048
0.011156353 0.0014111111 0.0010297562
0.0097530382 0.00254 -0.00023682926
0.0061044195 -0.0014111111 0.0010297562
-0.00021049724 -0.00254 -0.0006590244
-0.0087707182 -0.00254 -0.0016441464
-0.0039994475 -0.0015522222 0.00018536585
0.0127 -0.00042333335 -0.0019256098
-0.0035784529 -0.00254 -0.0023478048
0.0010524861 -0.00042333335 -0.00051829265
0.008911049 -0.0019755557 -0.00023682926
0.0054027624 0.00127 -0.0024885365
0.011016021 -0.00254 -0.0010812195
0.0014734806 -0.00098777784 0.00074829266
0.0087707182 0.00098777784 0.0017334146
0.0028767956 0.0011288889 -0.0024885365
-0.011717679 -0.0015522222 0.00018536585
-0.0010524861 0.00098777784 -0.0033329269
0.010595027 0.0022577778 -9.6097559e-05
-0.0086303866 0.00098777784 -0.0044587804
0.0062447512 -0.0014111111 0.002014878
-0.0066657458 -0.0011288889 0.0018741463
-0.011998342 0.00254 -0.00079975609
0.003859116 0.0015522222 0.00060756097
0.011998342 0.0023988888 -0.0023478048
-0.0054027624 -0.00127 -0.0024885365
0.0061044195 0.0014111111 -0.0038958536
0.0065254141 -0.0015522222 -0.0036143903
0.012559668 0.00028222223 -0.0023478048
0.0086303866 0.00028222223 -0.00051829265
-0.0018944751 0.0019755557 -0.00023682926
0.0023154696 0.00042333335 -0.0024885365
0.011296685 0.00098777784 0.0018741463
0.011717679 0.0011288889 -0.0074141463
0.0034381214 -0.00014111112 -0.00051829265
-0.0027364639 -0.00254 -0.00023682926
-0.0086303866 0.0021166666 -9.6097559e-05
-0.0025961325 0.00070555555 -0.00051829265
0.0028767956 -0.0011288889 -0.0023478048
0.0014734806 -0.00098777784 -0.0079770731
-0.0079287291 -0.00084666669 -0.00023682926
-0.0091917124 0.00127 -0.0057253661
0.010595027 0.0018344445 -0.00023682926
0.0063850828 0.00098777784 -0.0040365853
0.0090513807 0.0014111111 -0.0053031705
-0.0016138121 0.0011288889 -0.0078363419
-0.003859116 0.00084666669 -0.0054439022
0.003017127 -0.00056444446 -0.0023478048
0.0010524861 0.00098777784 -0.007554878
-0.0096127065 0.00254 -0.0013626829
-0.010595027 -0.00056444446 -0.00051829265
0.011717679 -0.00127 -0.0065697562
-0.011717679 -0.0011288889 -0.0071326829
-0.011156353 0.0018344445 -0.00037756097
-0.011577347 -0.0015522222 -0.003755122
-0.011858011 -0.0021166666 -0.0023478048
0.010875691 0.00098777784 -0.00023682926
0.0065254141 0.00098777784 -0.0040365853
0.00077182316 0.0014111111 -0.0024885365
-0.0031574585 0 -0.0024885365
0.010875691 0.00014111112 -0.00051829265
-0.0090513807 0.0015522222 -0.0048809755
-0.0039994475 -0.00254 -0.0013626829
-0.0013331492 -0.00098777784 -0.0036143903
0.008911049 -0.00098777784 -0.0071326829
0.00091215468 -0.0018344445 -0.0024885365
-0.0079287291 0.00014111112 -0.00051829265
0.0093320441 -0.00254 -0.0015034146
-0.0062447512 -0.0015522222 -0.0051624388
0.0066657458 -0.0011288889 0.00018536585
-0.0004911602 0.0011288889 -0.0024885365
-0.0054027624 0.00254 -0.0012219512
0.0010524861 -0.0011288889 0.0018741463
-0.0052624308 0.00254 -0.00023682926
-0.00077182316 0.00254 -0.0010812195
0.0035784529 0.00127 0.0015926829
0.0010524861 -0.00098777784 -0.0047402438
0.0048414362 -0.0019755557 -0.0024885365
0.0035784529 0.0015522222 -0.0074141463
0.0096127065 -0.00254 -0.0023478048
0.0127 -0.0014111111 -0.0019256098
0.0013331492 -0.0021166666 -0.0024885365
0.0086303866 -0.0023988888 -0.0023478048
-0.00063149171 -0.00254 -0.0020663415
-0.0049817679 0.0022577778 -9.6097559e-05
0.0066657458 0.00254 -0.0012219512
0.0041397787 -0.0019755557 -0.00023682926
-0.003859116 -0.00084666669 -9.6097559e-05
0.0087707182 -0.0014111111 -0.007554878
0.0025961325 -0.00254 -0.0022070732
-0.0061044195 0.00084666669 0.00074829266
-0.0063850828 -0.0015522222 -0.0071326829
-0.004420442 -0.00014111112 -0.0024885365
0.00063149171 0.00014111112 -0.0024885365
-0.010033702 -0.00254 -0.0012219512
0.00035082872 -0.0023988888 -0.0024885365
-0.0079287291 0.0023988888 -0.00023682926
-0.0090513807 -0.0014111111 -0.0048809755
0.0069464087 -0.0022577778 -0.0023478048
-0.0062447512 0.00098777784 -0.0030514635
-0.0010524861 -0.0011288889 0.0021556097
-0.0058237566 -0.0023988888 -0.0024885365
0.0127 -0.0015522222 -0.0017848781
0.0010524861 0.0015522222 -0.0071326829
