# .PCD v0.7 - Point Cloud Data file format
VERSION 0.7
FIELDS x y z
SIZE 4 4 4
TYPE F F F
COUNT 1 1 1
WIDTH 1237
HEIGHT 1
VIEWPOINT 0 0 0 1 0 0 0
POINTS 1237
DATA ascii
0.0069085648 -0.0019115909 -0.00205
-0.010730324 -0.0026468183 -0.0025000002
0.0073495372 -0.003235 -0.00235
-0.0019108796 0.0030879546 -0.001
0.0023518519 -0.003235 0.00079999998
-0.0049976851 0.002940909 -0.00115
0.0095543982 -0.0019115909 -0.00205
0.0029398147 -0.0011763637 -0.0019
0.0097013889 0.0019115909 -0.00115
-0.0032337962 0.00088227272 -0.00085000007
-0.012494213 -0.00014704546 -0.00025000004
0.012200232 -0.00014704546 -0.00010000004
-0.0073495372 -0.003235 -0.00070000003
-0.011318287 -0.0026468183 0.00185
0.011465278 0.0027938636 -0.0022
0.0042627314 0.00073522725 -0.00205
0.0041157408 -0.0023527273 -0.0026500002
-0.0077905091 -0.0026468183 -0.0013000001
-0.0099953702 -0.003235 0.00049999997
-0.010142361 -0.002940909 -0.0025000002
-0.00044097222 -0.0017645454 -0.00205
0.014405092 -0.0027938636 -0.00085000007
-0.0049976851 0.00029409092 -0.0031000001
0.0027928241 0.0010293182 -0.0026500002
-0.014846065 0.00014704546 -0.0031000001
0.0060266205 -0.00014704546 -0.00010000004
-0.0051446757 0.0027938636 -0.001
-0.00014699074 -0.003235 -0.00205
0.010289351 -0.0014704545 -0.00025000004
0.0027928241 0.0019115909 -0.0026500002
-0.0085254628 -0.00014704546 -0.0032500001
-0.0066145831 -0.0017645454 -0.00205
0.0076435185 -0.003235 -0.00070000003
0.0042627314 -0.0030879546 -0.00010000004
0.0023518519 -0.003235 0.00049999997
-0.0076435185 0.0030879546 -0.001
-0.010436342 -0.00044113636 -0.00010000004
0.001175926 -0.0016175 0.0014
-0.013670139 0.0011763637 -0.0022
0.0061736112 -0.0027938636 0.00019999997
-0.0070555555 -0.0026468183 -0.00115
0.011759259 -0.00029409092 -0.0032500001
0.01396412 -0.0011763637 -0.00010000004
-0.0019108796 -0.0016175 -0.00115
0.0076435185 -0.0014704545 0.0011
-0.0064675924 0.0022056818 -0.0025000002
0.0054386575 0.00029409092 -0.0017500001
0.015875001 -0.00058818184 -0.00115
0.012200232 0.00044113636 -0.0013000001
0.00044097222 -0.0016175 -0.00040000005
0.010289351 0.003235 -0.001
-0.011465278 -0.0019115909 -0.00115
0.0064675924 0.0024997727 -0.00115
-0.0074965279 0.0026468183 -0.0025000002
0.014846065 0.0010293182 -0.0022
0.0033807871 0.00058818184 -0.0026500002
0.0088194441 -0.0020586364 -0.00070000003
-0.0055856481 0.00058818184 -0.0026500002
0.014699074 0.00014704546 -0.00040000005
0.011465278 -0.0026468183 -0.00025000004
-0.0055856481 0.0026468183 -0.0022
0.00014699074 0.00029409092 -0.00055000006
-0.014993056 -0.00029409092 -0.0031000001
0.015875001 -0.00058818184 -0.0017500001
-0.014846065 -0.00088227272 -0.00025000004
-0.0060266205 -0.0030879546 -0.00235
0.00073495368 0.0022056818 -0.0013000001
-0.0033807871 -0.0023527273 -0.0022
0.0014699074 0.0020586364 -0.00085000007
-0.010583334 0.00088227272 -0.0013000001
-0.0026458334 -0.003235 -0.0017500001
0.0095543982 -0.0017645454 -0.0013000001
0.012053241 -0.003235 -0.00010000004
0.0029398147 0.0020586364 -0.00205
0.012347222 -0.003235 -0.00025000004
-0.0042627314 -0.0026468183 -0.0019
0.01396412 -0.0020586364 -0.001
0.0085254628 -0.00014704546 -0.00010000004
-0.01381713 0.0023527273 -0.001
-0.010436342 -0.003235 -0.0017500001
-0.012347222 0.00029409092 -0.0017500001
0.0077905091 -0.0026468183 -0.00085000007
0.012494213 -0.0026468183 -0.00040000005
-0.012347222 0.0019115909 -0.0022
-0.0051446757 0.002940909 -0.00115
-0.012494213 -0.0013234091 -0.0026500002
-0.0048506944 -0.0011763637 -0.00085000007
-0.0064675924 0.00044113636 -0.0019
-0.0085254628 -0.0017645454 -0.0026500002
0.0088194441 -0.0014704545 0.00034999996
0.00044097222 0.00073522725 -0.00205
-0.0072025461 -0.0030879546 -0.00235
-0.00073495368 -0.0020586364 -0.00010000004
-0.014846065 -0.0017645454 -0.0025000002
-0.011024306 -0.0026468183 -0.0014500001
0.011171296 0.0019115909 -0.0022
-0.0085254628 -0.00029409092 -0.0032500001
-0.0089664347 -0.0016175 0.00049999997
0.0063206018 -0.00058818184 -0.0032500001
0.0098483795 0.00029409092 -0.0031000001
0.011318287 0.002940909 -0.00085000007
0.0079375003 -0.0011763637 -0.00040000005
-0.0048506944 -0.0010293182 -0.0028000001
0.0063206018 -0.0019115909 -0.0026500002
-0.0066145831 -0.00029409092 -0.00010000004
0.0089664347 -0.00029409092 -0.00010000004
0.0048506944 -0.0027938636 4.9999959e-05
0.0076435185 0.00088227272 -0.0013000001
0.0066145831 -0.0013234091 -0.00205
0.00014699074 -0.002940909 0.00019999997
0.0020578704 0.0019115909 -0.0013000001
0.0058796294 -0.0017645454 -0.00205
0.0076435185 0.003235 -0.001
0.0089664347 -0.0022056818 -0.0025000002
0.0013229167 -0.0017645454 -0.00115
-0.0058796294 0.0026468183 -0.00115
-0.0045567132 0.0022056818 -0.00085000007
0.00044097222 -0.0027938636 -0.0016000001
-0.0095543982 0.0011763637 -0.0026500002
0.0088194441 0.00014704546 -0.00010000004
-0.0063206018 0.00088227272 -0.0026500002
0.013376158 -0.0024997727 -0.00235
0.0048506944 -0.0017645454 -0.0026500002
0.0085254628 0.00073522725 -0.0026500002
-0.012494213 -0.0019115909 -0.00115
-0.0086724535 -0.002940909 0.00094999996
0.013082176 -0.003235 -0.00040000005
0.010436342 -0.00014704546 -0.0031000001
0.0044097221 -0.003235 -0.0022
0.0010289352 0.0026468183 -0.00205
-0.0020578704 -0.003235 -0.00115
-0.0010289352 -0.0010293182 -0.0016000001
0.0035277777 -0.0027938636 -0.0016000001
-0.0088194441 -0.0017645454 0.00094999996
0.012935185 0.0024997727 -0.0025000002
-0.0089664347 0.00029409092 -0.0014500001
-0.0044097221 -0.0011763637 -0.00085000007
0.011318287 -0.0024997727 -0.0019
0.0086724535 0.00029409092 -0.0031000001
0.0035277777 -0.0011763637 -0.00070000003
-0.0095543982 0.0024997727 -0.0022
-0.0089664347 -0.0019115909 0.0020000001
-0.012641204 -0.0016175 0.0014
0.00044097222 0.0019115909 -0.0013000001
0.015140046 0.0011763637 -0.0022
-0.0013229167 -0.002940909 0.00125
-0.0064675924 -0.00088227272 -0.00010000004
0.0051446757 0.0023527273 -0.00115
-0.0097013889 -0.0017645454 -0.00205
0.0039687501 -0.002940909 0.0020000001
0.0088194441 0.0014704545 -0.00085000007
-0.00058796298 0.00044113636 -0.00070000003
-0.0039687501 0.00088227272 -0.0026500002
0.00014699074 -0.003235 0.00019999997
-0.013376158 0.0026468183 -0.001
-0.014699074 -0.0022056818 -0.00040000005
0.0082314815 -0.0013234091 -0.00085000007
-0.01381713 0.0026468183 -0.00115
-0.0097013889 0.00044113636 -0.0013000001
0.0088194441 -0.002940909 0.00155
0.011318287 -0.00073522725 -0.00010000004
-0.011465278 -0.0030879546 0.0017
0.0060266205 -0.0019115909 -0.00115
-0.01381713 0.0020586364 -0.00115
-0.01190625 0.00044113636 -0.0019
-0.012641204 0.00014704546 -0.0032500001
0.010583334 -0.0020586364 -0.00055000006
0.010730324 0.00044113636 -0.00085000007
0.011759259 0.00014704546 -0.00010000004
-0.0017638889 0.0011763637 -0.0026500002
-0.0020578704 -0.002940909 -0.00010000004
0.015581018 -0.0017645454 -0.00040000005
0.012788194 -0.0020586364 0.0011
-0.012053241 -0.0014704545 -0.00040000005
0.0069085648 0.00073522725 -0.00205
-0.001175926 -0.0020586364 -0.00040000005
0.001175926 -0.002940909 0.0011
0.0066145831 -0.0011763637 -0.0019
0.0017638889 0.0013234091 -0.00205
0.014405092 0.003235 -0.00115
0.012935185 -0.0030879546 0.00019999997
0.013376158 0.0016175 -0.0022
-0.0077905091 -0.0019115909 0.00019999997
0.0014699074 -0.0017645454 -0.0026500002
-0.0051446757 -0.0030879546 0.00185
-0.0089664347 -0.0026468183 -0.0017500001
0.014993056 -0.00058818184 -0.0031000001
0.0060266205 0.0030879546 -0.0025000002
-0.0049976851 -0.0030879546 0.00125
0.014258102 0.0013234091 -0.00115
-0.0085254628 0.0030879546 -0.001
-0.0067615742 -0.0020586364 -0.00205
-0.011024306 0.0023527273 -0.0025000002
-0.00073495368 0.0026468183 -0.0026500002
0.014993056 -0.002940909 -0.00235
0.0039687501 -0.0013234091 -0.0028000001
0.00073495368 0 -0.0032500001
0.011612268 0.0027938636 -0.0025000002
-0.0020578704 0.00044113636 -0.00070000003
-0.0055856481 0.00044113636 -0.0013000001
-0.0061736112 -0.0027938636 0.00155
-0.0060266205 0.0020586364 -0.00205
0.010289351 0.0017645454 -0.0025000002
0.0038217593 -0.00073522725 -0.00010000004
-0.00014699074 -0.00073522725 -0.00010000004
0.011171296 -0.0014704545 -0.00070000003
-0.014258102 0.00014704546 -0.0019
-0.0049976851 -0.0027938636 0.0011
0.0082314815 -0.0020586364 -0.00070000003
-0.0035277777 -0.0027938636 -0.00070000003
0.01396412 -0.0027938636 0.00019999997
-0.0039687501 0.00058818184 -0.00085000007
0.0014699074 0.0019115909 -0.00085000007
0.014405092 -0.0027938636 -0.0016000001
0.0099953702 -0.00044113636 -0.0032500001
-0.0042627314 -0.0010293182 -0.0017500001
0.0079375003 0.00014704546 -0.0032500001
0.0069085648 -0.00044113636 -0.0032500001
0.0049976851 0.0020586364 -0.0013000001
-0.011612268 -0.0026468183 -0.00085000007
0.0049976851 0.0014704545 -0.00085000007
0.013082176 0.003235 -0.00115
0.0077905091 -0.003235 -0.00010000004
-0.0035277777 0.00073522725 -0.0013000001
-0.0080844909 -0.0010293182 -0.0032500001
0.010730324 0.00014704546 -0.0032500001
0.0026458334 0.0027938636 -0.00115
-0.00029398149 0.00088227272 -0.00205
0.0041157408 0.00014704546 -0.00040000005
-0.0061736112 -0.0030879546 0.0017
0.0095543982 -0.00058818184 -0.00010000004
0.0063206018 -0.00044113636 -0.0032500001
-0.0048506944 -0.0013234091 -0.0026500002
0.014552083 -0.0026468183 -0.00115
-0.009260417 -0.0019115909 -0.00115
0.0035277777 -0.0019115909 -0.0026500002
0.011759259 -0.00073522725 -0.00010000004
-0.014552083 0.00014704546 -0.0029500001
-0.00058796298 -0.0026468183 -0.0019
-0.0051446757 0.0020586364 -0.00085000007
-0.0041157408 0.00088227272 -0.0013000001
0.0099953702 0.0014704545 -0.00115
0.010289351 0.00029409092 -0.00055000006
0.014111111 0.0030879546 -0.00115
0.013670139 -0.0020586364 -0.00085000007
0.01381713 0.00044113636 -0.0028000001
0.011612268 -0.0011763637 -0.00055000006
0.0080844909 -0.0011763637 -0.0029500001
0.0010289352 -0.0027938636 -0.00085000007
0.011318287 0.0019115909 -0.0022
-0.0099953702 -0.0013234091 -0.0013000001
0.013229166 -0.003235 -0.0017500001
0.014405092 0.00073522725 -0.00115
0.013082176 -0.0026468183 -0.00025000004
0.0083784722 -0.0016175 -0.0026500002
-0.0077905091 0.00029409092 -0.0014500001
-0.012053241 -0.002940909 -0.00010000004
-0.0044097221 -0.00044113636 -0.00010000004
0.012641204 -0.0013234091 -0.0019
0.011465278 -0.0010293182 -0.00010000004
0.015875001 -0.00088227272 -0.0017500001
0.013523148 0.0019115909 -0.00115
-0.013229166 -0.0014704545 -0.00055000006
0.010142361 -0.0011763637 -0.0017500001
-0.001175926 -0.0011763637 -0.00085000007
0.010436342 -0.003235 -0.0016000001
0.0035277777 -0.0014704545 -0.00055000006
-0.010730324 -0.0011763637 -0.00085000007
-0.015287037 0.00014704546 -0.0031000001
-0.0098483795 0.0022056818 -0.001
0.011465278 0.002940909 -0.0025000002
-0.0095543982 0.0014704545 -0.0025000002
0.0099953702 -0.0023527273 -0.00235
0.00058796298 0.0030879546 -0.0022
-0.012788194 -0.0011763637 -0.0029500001
-0.0035277777 0.0022056818 -0.00085000007
-0.01190625 0.00014704546 -0.00040000005
0.015581018 -0.00088227272 -0.0031000001
-0.0077905091 0.002940909 -0.001
-0.015140046 -0.00029409092 -0.00025000004
0.00014699074 -0.0019115909 -0.00085000007
-0.0023518519 0.0030879546 -0.0025000002
-0.0029398147 -0.0014704545 -0.00010000004
-0.014699074 0.0017645454 -0.0022
0.014552083 -0.0026468183 -0.00085000007
0.012641204 0.0030879546 -0.00085000007
-0.0086724535 0.0020586364 -0.0022
0.013670139 0.0022056818 -0.00115
-0.0098483795 -0.0024997727 -0.0019
0.0042627314 -0.0027938636 -0.0016000001
-0.0091134263 -0.0019115909 0.00034999996
-0.0020578704 0.0010293182 -0.00205
-0.014111111 -0.003235 -0.0016000001
0.0055856481 -0.0026468183 -0.0014500001
0.015581018 -0.0013234091 -0.0014500001
-0.002204861 -0.00088227272 -0.00010000004
-0.0019108796 -0.0020586364 -0.00025000004
0.014405092 0 -0.00010000004
0.0089664347 -0.003235 -0.0013000001
-0.0013229167 -0.0017645454 0.00019999997
-0.0099953702 -0.0026468183 0.00064999994
-0.0016168981 -0.0023527273 -0.0022
0.0074965279 -0.0016175 0.00155
0.011171296 -0.00014704546 -0.00010000004
0.00073495368 -0.002940909 -0.00010000004
-0.0077905091 0.00029409092 -0.0016000001
0.00044097222 -0.00088227272 -0.00010000004
-0.012641204 -0.0014704545 -0.00055000006
-0.0076435185 0.0026468183 -0.0025000002
0.0076435185 -0.0026468183 -0.00010000004
0.0077905091 -0.0030879546 0.00019999997
-0.0051446757 0.00058818184 -0.00205
0.0039687501 -0.003235 -0.00085000007
-0.00044097222 0.0010293182 -0.00085000007
0.0029398147 0.00014704546 -0.00025000004
0.0020578704 0.0020586364 -0.0026500002
0.011759259 -0.0014704545 -0.00070000003
0.0091134263 0.0016175 -0.0013000001
0.0082314815 0 -0.0032500001
-0.0017638889 0.0019115909 -0.0013000001
-0.014846065 0 -0.00025000004
-0.0098483795 0.002940909 -0.00115
0.014258102 -0.00073522725 -0.0032500001
-0.0098483795 -0.00088227272 -0.0032500001
0.011024306 -0.0026468183 -0.00040000005
-0.014552083 -0.0014704545 -0.00025000004
-0.0041157408 0.0024997727 -0.0025000002
-0.0020578704 -0.0011763637 -0.00010000004
-0.010730324 -0.003235 -0.00070000003
-0.00014699074 -0.0014704545 -0.0013000001
-0.010436342 -0.003235 -0.001
0.014111111 -0.0020586364 0.00064999994
-0.014258102 0.00014704546 -0.00205
0.01396412 -0.0026468183 -0.00085000007
0.0024988425 -0.0026468183 -0.0019
0.01396412 -0.003235 -0.0022
-0.013670139 0.0013234091 -0.0022
0.0029398147 -0.0022056818 -0.0026500002
-0.010583334 -0.0019115909 -0.0025000002
-0.009260417 -0.003235 -0.00040000005
0.0080844909 -0.00014704546 -0.00010000004
-0.0048506944 0.002940909 -0.00115
-0.01572801 0 -0.0014500001
0.0083784722 0.00073522725 -0.00085000007
-0.00029398149 0.00058818184 -0.00205
0.00073495368 -0.0030879546 -0.0025000002
-0.0058796294 -0.003235 -0.00235
0.014846065 -0.0014704545 -0.00070000003
0.013229166 0.00088227272 -0.00115
-0.0026458334 -0.0027938636 -0.00010000004
-0.0088194441 0.0017645454 -0.0025000002
0.0057326388 -0.00014704546 -0.00010000004
0.0079375003 0.003235 -0.00115
-0.0089664347 -0.0030879546 0.00155
0.0080844909 0.00088227272 -0.00085000007
0.010583334 -0.003235 -0.00070000003
0.00044097222 -0.0010293182 -0.00055000006
-0.0057326388 -0.0013234091 -0.00010000004
0.012788194 -0.0027938636 -0.00235
-0.0013229167 -0.002940909 0.00064999994
-0.010289351 -0.0017645454 0.00185
-0.0080844909 0.0022056818 -0.0022
0.0036747686 -0.0014704545 0.0011
0.0026458334 -0.0020586364 0.00034999996
-0.012494213 -0.003235 -0.00070000003
0.00014699074 -0.00044113636 -0.00010000004
-0.011465278 -0.0016175 -0.00205
0.0088194441 -0.003235 0.00019999997
0.014111111 -0.0027938636 0.00064999994
-0.0058796294 0.0014704545 -0.00205
-0.0088194441 -0.0011763637 -0.00040000005
0.01381713 -0.0017645454 0.00019999997
-0.0047037038 0.0030879546 -0.00115
-0.0085254628 0 -0.0032500001
0.0054386575 -0.0016175 -0.00010000004
-0.0038217593 -0.003235 -0.00085000007
-0.001175926 -0.0014704545 4.9999959e-05
-0.0038217593 0.0024997727 -0.0025000002
-0.0076435185 0.00044113636 -0.0013000001
-0.010142361 -0.003235 4.9999959e-05
0.012200232 0.0024997727 -0.00115
-0.011024306 -0.0020586364 -0.001
-0.011171296 -0.0013234091 -0.0031000001
0.001175926 0.00029409092 -0.0032500001
-0.002204861 0.0011763637 -0.0013000001
0.0061736112 0.0030879546 -0.0025000002
0.012788194 -0.0019115909 0.00019999997
0.012935185 -0.0020586364 -0.00010000004
-0.0074965279 -0.00088227272 -0.00010000004
0.0099953702 -0.003235 -0.00055000006
0.015140046 -0.00073522725 -0.00010000004
-0.0039687501 -0.0019115909 -0.00085000007
0.01190625 0.00029409092 -0.0017500001
0.013229166 -0.0026468183 -0.00070000003
0.0032337962 0.0011763637 -0.0026500002
-0.0057326388 0.0027938636 -0.001
-0.01190625 -0.0010293182 -0.00055000006
-0.012200232 -0.00044113636 -0.0032500001
-0.0091134263 -0.0011763637 -0.00040000005
0.0013229167 -0.0014704545 -0.00205
-0.0054386575 0.0022056818 -0.0025000002
-0.0088194441 0.0019115909 -0.0022
-0.0098483795 0.0024997727 -0.00235
0.00029398149 -0.0011763637 -0.00205
-0.0051446757 -0.0027938636 0.00094999996
0.0088194441 -0.002940909 0.0020000001
0.0016168981 0.00088227272 -0.00085000007
0.0072025461 -0.0013234091 -0.00085000007
0.0038217593 0.0020586364 -0.0013000001
0.0072025461 -0.003235 -0.00115
-0.01190625 0.0020586364 -0.001
0.010436342 0.00029409092 -0.00055000006
-0.0074965279 -0.0019115909 0.00094999996
0.012053241 0.0011763637 -0.00115
0.01396412 -0.0011763637 -0.0032500001
0.0020578704 0.00014704546 -0.0032500001
-0.01396412 0.00014704546 -0.00205
0.00044097222 -0.0010293182 -0.00070000003
-0.014111111 0.00014704546 -0.00055000006
-0.0079375003 -0.0026468183 -0.0016000001
0.015434028 -0.00014704546 -0.00010000004
-0.011612268 -0.0026468183 -0.00010000004
-0.0076435185 -0.0014704545 -0.00205
0.014258102 -0.0030879546 -0.00025000004
-0.010877315 -0.0030879546 -0.00010000004
-0.0033807871 -0.00029409092 -0.0032500001
-0.014405092 -0.0010293182 -0.00055000006
0.0073495372 0.00029409092 -0.00055000006
-0.0089664347 -0.0011763637 -0.0026500002
-0.01396412 -0.0013234091 -0.00085000007
0.0095543982 -0.0024997727 -0.00205
0.0058796294 0.0027938636 -0.00115
0.0095543982 -0.002940909 -0.00235
0.0041157408 -0.0011763637 -0.00040000005
0.01190625 -0.003235 -0.00010000004
-0.011612268 0.00058818184 -0.00205
0.0060266205 0.00044113636 -0.0028000001
-0.014699074 -0.0014704545 -0.00070000003
0.0036747686 0.0017645454 -0.00205
0.0098483795 -0.003235 -0.00025000004
-0.0026458334 -0.00073522725 -0.0032500001
-0.0039687501 -0.0017645454 0.00034999996
-0.014846065 -0.0014704545 -0.0025000002
0.011612268 -0.003235 -0.00085000007
-0.013523148 0.00073522725 -0.0025000002
-0.0019108796 0.0014704545 -0.0013000001
-0.0088194441 -0.0017645454 0.00034999996
0.0061736112 -0.0016175 -0.0026500002
-0.014699074 -0.0013234091 -0.00085000007
-0.0029398147 -0.0022056818 -0.0026500002
-0.010730324 0.0030879546 -0.001
-0.0063206018 -0.0017645454 -0.0026500002
0.011612268 -0.0026468183 0.00034999996
0.010730324 0.0019115909 -0.0025000002
0.0067615742 -0.0020586364 -0.00055000006
0.012641204 -0.0027938636 0.00064999994
0.0086724535 -0.0014704545 -0.0013000001
0.0080844909 0.00058818184 -0.0013000001
-0.011465278 -0.003235 -0.00085000007
0.012494213 -0.00058818184 -0.00010000004
-0.0063206018 -0.003235 0.00125
-0.0013229167 0.0026468183 -0.00085000007
0.00044097222 0.00088227272 -0.0026500002
0.0064675924 0.0030879546 -0.0022
-0.0063206018 -0.0027938636 0.0020000001
-0.012641204 -0.0020586364 -0.00055000006
-0.00058796298 -0.0014704545 -0.00010000004
0.00058796298 0.00088227272 -0.00085000007
0.0048506944 -0.0014704545 -0.00055000006
0.0029398147 -0.0014704545 -0.00025000004
0.013376158 0.0010293182 -0.00085000007
0.0026458334 -0.0011763637 -0.00040000005
0.00073495368 -0.0016175 -0.0026500002
-0.014846065 0.0013234091 -0.001
-0.014846065 0.0014704545 -0.00235
0.0074965279 -0.002940909 0.00094999996
0.0069085648 -0.0014704545 -0.00055000006
0.0076435185 -0.003235 -0.00055000006
0.015875001 -0.00029409092 -0.00115
-0.012641204 -0.003235 0.0014
-0.0074965279 -0.0030879546 0.0011
-0.0097013889 -0.00029409092 -0.00010000004
0.0051446757 0.0016175 -0.0026500002
-0.009260417 0.002940909 -0.001
-0.012788194 -0.0030879546 0.0014
-0.0098483795 -0.0013234091 -0.00205
-0.0079375003 -0.0024997727 -0.0025000002
-0.013082176 -0.0020586364 -0.00070000003
0.0054386575 0.0022056818 -0.00205
0.01381713 -0.0024997727 -0.00235
0.0019108796 -0.0027938636 -0.00085000007
0.0047037038 0.002940909 -0.00085000007
-0.014111111 -0.0016175 0.00034999996
-0.015140046 0.0027938636 -0.001
-0.011612268 -0.00088227272 -0.0032500001
-0.012788194 0.00044113636 -0.0019
0.015287037 -0.0019115909 -0.00025000004
0.010142361 -0.0020586364 0.0011
-0.01572801 -0.00058818184 -0.0028000001
-0.013229166 0 -0.0032500001
0.014111111 -0.0030879546 -0.0014500001
0.0033807871 0.0026468183 -0.00115
0.01572801 -0.00088227272 -0.0019
-0.014699074 -0.00058818184 -0.00025000004
0.0016168981 -0.003235 -0.0013000001
0.0032337962 -0.0027938636 -0.00010000004
-0.012200232 0.0027938636 -0.0022
0.010289351 0.0026468183 -0.00115
0.012347222 -0.0011763637 -0.0017500001
-0.01381713 -0.003235 -0.0019
0.0083784722 0.0014704545 -0.00085000007
-0.0039687501 0.0022056818 -0.00115
-0.012347222 -0.0019115909 -0.00010000004
0.012347222 0.0019115909 -0.00115
-0.0023518519 -0.0011763637 -0.00010000004
-0.0058796294 -0.0014704545 -0.00070000003
-0.00044097222 0.00073522725 -0.00085000007
0.0064675924 -0.0019115909 -0.00205
-0.0051446757 -0.002940909 0.0014
-0.0029398147 -0.0022056818 -0.00205
-0.0067615742 -0.0013234091 -0.00010000004
0.015875001 -0.00044113636 -0.00085000007
0.00014699074 -0.0030879546 0.00094999996
-0.0032337962 -0.0019115909 -0.0022
-0.0013229167 -0.00058818184 -0.0032500001
0.0089664347 0.0014704545 -0.0013000001
-0.012788194 -0.0026468183 -0.00055000006
-0.0033807871 0.00029409092 -0.0016000001
-0.00088194443 0.00029409092 -0.0029500001
-0.013082176 0.0011763637 -0.0025000002
0.013670139 0.0016175 -0.0022
0.0074965279 -0.0017645454 0.00019999997
-0.010142361 -0.0026468183 0.0020000001
-0.011612268 0.0016175 -0.0025000002
0.014846065 -0.0020586364 -0.00085000007
0.0088194441 0.003235 -0.00115
-0.00058796298 0.0027938636 -0.00085000007
0.0027928241 0.00058818184 -0.0026500002
0.012788194 0.0016175 -0.00085000007
0.00058796298 -0.0023527273 -0.0026500002
-0.014258102 0.0010293182 -0.0022
0.0088194441 -0.0019115909 -0.00115
-0.0051446757 -0.003235 0.00185
0.012935185 -0.0019115909 -0.00010000004
-0.0013229167 -0.0030879546 0.0011
0.010436342 -0.0010293182 -0.0032500001
0.0020578704 -0.0014704545 -0.0026500002
0.0038217593 -0.003235 4.9999959e-05
0.0083784722 0.0019115909 -0.00115
-0.0073495372 0.0023527273 -0.001
-0.0064675924 0.002940909 -0.00115
-0.0024988425 -0.0010293182 -0.0019
0.0020578704 0.00058818184 -0.00085000007
0.009260417 -0.003235 -0.00010000004
-0.00014699074 0.00044113636 -0.0013000001
-0.0019108796 -0.0027938636 -0.0014500001
-0.0099953702 -0.003235 -0.00205
-0.015287037 -0.0019115909 0.00185
-0.00014699074 -0.003235 -0.00085000007
0.010436342 0.0022056818 -0.00085000007
-0.0041157408 -0.003235 -0.0014500001
0.014405092 -0.002940909 -0.0014500001
0.0027928241 -0.003235 -0.0014500001
0.0077905091 -0.0020586364 -0.00205
0.0032337962 -0.0022056818 -0.0022
-0.0016168981 -0.0020586364 -0.00055000006
-0.0017638889 -0.0026468183 -0.0019
0.0024988425 -0.002940909 0.00094999996
-0.0079375003 -0.0027938636 -0.0025000002
0.0074965279 0.0011763637 -0.00205
0.013670139 -0.0026468183 -0.00085000007
-0.0089664347 0.00014704546 -0.0032500001
-0.0099953702 -0.003235 0.00034999996
-0.0023518519 0.0023527273 -0.00115
-0.0033807871 -0.00044113636 -0.0032500001
-0.009260417 -0.0019115909 -0.001
-0.0041157408 0.00044113636 -0.0019
-0.0047037038 -0.003235 -0.0019
-0.012788194 0.0016175 -0.0025000002
-0.0066145831 0.00014704546 -0.00025000004
-0.0064675924 -0.0030879546 0.00019999997
0.00088194443 -0.0022056818 -0.0026500002
-0.011465278 -0.0026468183 -0.00010000004
0.0073495372 -0.0020586364 -0.00040000005
-0.015140046 0.0010293182 -0.00115
0.011024306 -0.0023527273 -0.00235
-0.010730324 0.0014704545 -0.0025000002
0.013523148 0.00073522725 -0.0013000001
0.0070555555 0.0014704545 -0.00085000007
0.01396412 0.0014704545 -0.00085000007
0.01190625 0.0030879546 -0.00235
-0.001175926 -0.0016175 0.0014
-0.0024988425 -0.002940909 0.0020000001
-0.002204861 -0.002940909 -0.00010000004
0.00058796298 -0.0019115909 -0.0022
-0.0054386575 -0.003235 -0.0022
-0.012347222 -0.0019115909 -0.00115
-0.0099953702 -0.0026468183 0.00034999996
0.0049976851 0.0013234091 -0.0026500002
0.0073495372 0.00014704546 -0.0032500001
-0.015434028 0.00014704546 -0.0031000001
-0.0014699074 -0.0011763637 -0.00205
-0.010877315 -0.0020586364 -0.00205
-0.013082176 0 -0.0032500001
0.00073495368 -0.0027938636 -0.00040000005
-0.0058796294 -0.00058818184 -0.00010000004
0.011612268 -0.0020586364 -0.00025000004
0.012494213 -0.0019115909 -0.00235
-0.013082176 0.0019115909 -0.0025000002
-0.011465278 -0.003235 0.00049999997
-0.014552083 0.0023527273 -0.001
0.010142361 -0.003235 -0.0022
-0.015287037 -0.0030879546 -0.0017500001
0.011612268 -0.0027938636 -0.00235
-0.0036747686 0.00088227272 -0.0013000001
0.013082176 -0.003235 -0.00115
-0.009260417 0.00044113636 -0.00070000003
0.01190625 -0.0011763637 -0.00010000004
-0.0091134263 -0.00044113636 -0.00010000004
-0.015581018 -0.0019115909 -0.00040000005
0.0054386575 -0.0020586364 -0.00025000004
-0.013670139 0.00073522725 -0.0013000001
0.013523148 0.0013234091 -0.00085000007
0.00044097222 -0.0019115909 -0.0022
0.0041157408 0.0016175 -0.00085000007
0.015434028 -0.0017645454 -0.0022
-0.0019108796 -0.003235 -0.00070000003
-0.010583334 -0.003235 -0.00025000004
-0.012641204 0.0020586364 -0.0022
0.0063206018 -0.0014704545 -0.00055000006
0.012641204 -0.0017645454 -0.0013000001
-0.0057326388 0.00073522725 -0.00085000007
-0.0032337962 -0.0011763637 -0.00205
-0.0049976851 -0.0020586364 0.00155
-0.0072025461 0.0017645454 -0.00085000007
-0.0099953702 -0.0017645454 0.00049999997
0.0058796294 0.0030879546 -0.0025000002
0.00073495368 0.0019115909 -0.00085000007
0.010583334 0.002940909 -0.0025000002
0.0038217593 -0.00029409092 -0.00010000004
-0.0085254628 0.0023527273 -0.0025000002
-0.015434028 -0.0019115909 0.00049999997
0.0089664347 -0.002940909 0.0017
0.0083784722 0.0030879546 -0.00085000007
0.0094074076 0.002940909 -0.00235
0.0098483795 0.00014704546 -0.00025000004
-0.0013229167 -0.0020586364 0.0011
0.0017638889 0.0017645454 -0.0026500002
0.012200232 -0.0020586364 -0.00010000004
-0.0082314815 -0.0014704545 -0.00205
-0.0041157408 0.003235 -0.001
0.012641204 -0.003235 -0.001
0.011318287 -0.003235 -0.00010000004
-0.0086724535 -0.0013234091 -0.00085000007
-0.012788194 -0.0019115909 0.00034999996
0.001175926 0.0023527273 -0.00085000007
-0.010289351 -0.00029409092 -0.00010000004
-0.0023518519 0.0017645454 -0.0026500002
-0.0017638889 -0.0013234091 -0.00010000004
-0.0073495372 -0.0014704545 -0.00010000004
-0.010877315 -0.00058818184 -0.00010000004
0.0055856481 0.0030879546 -0.0025000002
-0.015875001 -0.00088227272 -0.00025000004
0.01381713 -0.0030879546 0.00064999994
0.00088194443 -0.00044113636 -0.0032500001
0.0027928241 -0.0027938636 -0.00115
-0.0044097221 -0.0023527273 -0.0026500002
0.013229166 0.00073522725 -0.0013000001
-0.0089664347 -0.0010293182 -0.0017500001
-0.0027928241 0.0013234091 -0.0013000001
0.0082314815 -0.003235 -0.00115
-0.0080844909 -0.0017645454 -0.0013000001
-0.0048506944 0.0023527273 -0.0025000002
-0.0042627314 -0.0020586364 -0.00010000004
0.0055856481 0.00044113636 -0.00085000007
-0.0019108796 -0.003235 -0.0016000001
0.0060266205 0.00014704546 -0.00040000005
0.00014699074 -0.0017645454 -0.00205
-0.0089664347 -0.003235 0.00034999996
-0.013229166 0.0010293182 -0.0025000002
-0.0089664347 -0.0027938636 0.00079999998
0.0042627314 0.0023527273 -0.00085000007
0.0076435185 0.0017645454 -0.0025000002
0.0014699074 0.003235 -0.00235
-0.0058796294 0.00029409092 -0.0017500001
-0.0069085648 -0.0016175 -0.00040000005
-0.011759259 0.0013234091 -0.0022
0.01381713 -0.002940909 0.00049999997
0.011612268 -0.0017645454 -0.0013000001
0.0014699074 0.00073522725 -0.0026500002
-0.01190625 -0.0026468183 -0.00010000004
0.0098483795 0.00029409092 -0.0014500001
0.0076435185 -0.0024997727 -0.00235
-0.0027928241 0.0020586364 -0.0026500002
-0.0067615742 0.0011763637 -0.00205
-0.0054386575 -0.0017645454 -0.00010000004
-0.015287037 -0.0017645454 0.0017
-0.014993056 0.00014704546 -0.00055000006
-0.0041157408 0.0019115909 -0.00205
0.012641204 -0.0020586364 0.00155
-0.0097013889 -0.0011763637 -0.00040000005
-0.0013229167 -0.0027938636 0.00019999997
0.0010289352 -0.0020586364 -0.00070000003
0.0036747686 -0.0014704545 0.00034999996
0.012641204 -0.0014704545 -0.0013000001
-0.0020578704 -0.00073522725 -0.0032500001
0.0054386575 0.0027938636 -0.00115
-0.0085254628 -0.0016175 -0.0013000001
-0.00088194443 -0.0027938636 -0.00070000003
0.0080844909 -0.0022056818 -0.00205
-0.0023518519 -0.0011763637 -0.00025000004
-0.0064675924 -0.0010293182 -0.00070000003
0.0085254628 0.0020586364 -0.00085000007
0.0016168981 0.00029409092 -0.0028000001
-0.011759259 -0.0019115909 -0.0025000002
-0.011612268 -0.0019115909 0.0020000001
-0.0038217593 -0.0014704545 0.00034999996
-0.015287037 0.0019115909 -0.00115
0.0042627314 0.00088227272 -0.00085000007
-0.0026458334 -0.0027938636 -0.0017500001
0.0055856481 -0.0011763637 -0.00040000005
-0.010730324 0.0026468183 -0.001
0.0048506944 -0.0016175 -0.00205
0.012788194 0.0016175 -0.00115
-0.0060266205 0.002940909 -0.0022
-0.0029398147 -0.0024997727 -0.0026500002
-0.0010289352 0.00029409092 -0.0028000001
0.012053241 0.0016175 -0.00085000007
-0.0047037038 -0.003235 -0.00025000004
-0.0047037038 0.00073522725 -0.00205
-0.011465278 -0.003235 0.00155
0.015140046 0.00044113636 -0.0025000002
0.0032337962 0.0022056818 -0.00085000007
0.015287037 -0.0016175 0.00019999997
0.012935185 -0.0011763637 -0.0016000001
0.011318287 0.0026468183 -0.00085000007
-0.01572801 -0.0010293182 -0.00055000006
-0.012053241 0.0023527273 -0.0025000002
-0.010730324 -0.003235 -0.00205
-0.001175926 -0.0019115909 0.0014
0.0019108796 -0.0013234091 -0.00085000007
-0.0010289352 -0.0027938636 -0.00025000004
-0.0088194441 -0.002940909 0.00064999994
-0.0083784722 -0.00058818184 -0.0032500001
-0.0024988425 -0.0030879546 -0.0025000002
0.014699074 0.00088227272 -0.0025000002
0.01396412 0.0020586364 -0.0022
-0.011465278 -0.002940909 4.9999959e-05
0.001175926 -0.0010293182 -0.0028000001
0.0029398147 -0.003235 -0.00055000006
-0.00073495368 -0.0027938636 -0.00010000004
0.010583334 -0.0020586364 -0.00025000004
-0.010436342 -0.002940909 -0.00235
-0.0095543982 0.00088227272 -0.00085000007
0.0049976851 0.0022056818 -0.00115
-0.0076435185 -0.0010293182 -0.0017500001
-0.009260417 0.00058818184 -0.0026500002
0.0076435185 0.0024997727 -0.0025000002
0.0041157408 0.0026468183 -0.0022
-0.012347222 -0.0020586364 -0.00025000004
0.012053241 -0.0026468183 -0.0014500001
-0.0042627314 0.0011763637 -0.0013000001
0.014258102 0.003235 -0.00115
-0.00088194443 -0.0016175 -0.0026500002
0.010436342 0.0017645454 -0.00085000007
-0.0027928241 -0.0020586364 0.0014
0.0085254628 0.0030879546 -0.0022
0.012935185 -0.0026468183 -0.0014500001
0.015875001 -0.00058818184 -0.00205
-0.0061736112 -0.002940909 0.00049999997
0.0083784722 -0.0027938636 -0.00235
0.010583334 -0.0026468183 -0.00085000007
0.0058796294 0.0022056818 -0.00085000007
-0.014258102 0.0019115909 -0.00235
-0.0095543982 -0.0014704545 -0.00025000004
0.014699074 0.0024997727 -0.001
-0.0038217593 0.0017645454 -0.00205
0.0048506944 0.0014704545 -0.00205
-0.00014699074 -0.00014704546 -0.00010000004
-0.0014699074 0.00088227272 -0.0026500002
0.001175926 -0.0024997727 -0.0026500002
0.0035277777 0.00088227272 -0.0026500002
-0.0019108796 -0.0026468183 -0.0026500002
0.00058796298 -0.0016175 -0.00010000004
-0.011024306 -0.0023527273 -0.0025000002
-0.0030868056 0.0024997727 -0.0026500002
-0.0051446757 -0.0027938636 -0.00010000004
-0.010436342 0.00014704546 -0.0032500001
0.001175926 -0.0030879546 0.0014
0.013670139 -0.0019115909 -0.0013000001
-0.0027928241 -0.0022056818 -0.00205
-0.0099953702 -0.0020586364 -0.00025000004
-0.002204861 0.0023527273 -0.0013000001
-0.0072025461 0.0026468183 -0.0025000002
0.015287037 -0.0014704545 -0.00040000005
0.0023518519 -0.00014704546 -0.0032500001
0.0010289352 -0.0011763637 -0.0029500001
0.0079375003 0.00014704546 -0.00010000004
0.011171296 -0.0023527273 -0.0019
-0.0061736112 0.0026468183 -0.0025000002
0.0066145831 0.00058818184 -0.0026500002
-0.0016168981 0.00029409092 -0.0017500001
-0.0061736112 -0.0016175 0.00094999996
-0.01381713 0.0030879546 -0.001
-0.0044097221 -0.0016175 -0.00010000004
0.010142361 -0.0016175 0.00094999996
0.013376158 0.003235 -0.001
-0.010436342 -0.003235 -0.0019
-0.011759259 0.0026468183 -0.00235
0.0095543982 -0.0020586364 -0.00205
0.0099953702 -0.003235 -0.00025000004
-0.00029398149 -0.0020586364 -0.00055000006
-0.010583334 0.00073522725 -0.00085000007
-0.011171296 0.0016175 -0.001
0.0044097221 -0.0027938636 -0.0014500001
0.0091134263 0.003235 -0.001
0.0085254628 0.00044113636 -0.0013000001
0.0099953702 0.00044113636 -0.0013000001
-0.010142361 -0.0026468183 0.00094999996
0.0080844909 0.0010293182 -0.0026500002
-0.0094074076 -0.00029409092 -0.0032500001
-0.014993056 -0.0011763637 -0.00040000005
0.0019108796 -0.0011763637 -0.0032500001
-0.0072025461 -0.0013234091 -0.00085000007
0.011759259 -0.0019115909 -0.00235
0.0051446757 0.0024997727 -0.00115
-0.015581018 0.00014704546 -0.0017500001
0.0070555555 0.00029409092 -0.0017500001
-0.0060266205 0.0026468183 -0.00115
-0.0099953702 -0.003235 -0.00055000006
0.009260417 0.0020586364 -0.0022
-0.0016168981 0.0030879546 -0.00235
-0.0073495372 -0.00073522725 -0.00010000004
-0.0032337962 0.0024997727 -0.00115
-0.0088194441 -0.003235 -0.00040000005
-0.0041157408 0.0026468183 -0.001
0.00088194443 -0.0016175 -0.00040000005
-0.0024988425 -0.0027938636 4.9999959e-05
0.0027928241 0.0026468183 -0.0025000002
0.012347222 -0.0026468183 -0.0014500001
0.0049976851 -0.003235 -0.0017500001
0.014699074 0.0013234091 -0.0022
0.00088194443 0.0026468183 -0.00205
-0.0063206018 -0.0013234091 -0.0013000001
0.0019108796 -0.0027938636 -0.00010000004
-0.013376158 0.0019115909 -0.0022
-0.00014699074 0.0010293182 -0.00205
-0.0077905091 -0.0017645454 0.0014
-0.014699074 -0.0010293182 -0.0026500002
-0.0067615742 0.0024997727 -0.001
-0.014552083 -0.003235 -0.00205
0 -0.0019115909 0.00094999996
0.0039687501 -0.0019115909 0.00019999997
-0.0076435185 0.0023527273 -0.00115
-0.011612268 -0.00058818184 -0.0032500001
0.0091134263 0.0030879546 -0.00115
-0.013082176 -0.0026468183 -0.00040000005
0.0036747686 -0.0013234091 -0.00205
-0.012200232 -0.0026468183 -0.00055000006
0.010583334 0.0010293182 -0.00085000007
-0.014405092 -0.00073522725 -0.00010000004
0.0026458334 0.0023527273 -0.00205
-0.012788194 0.002940909 -0.00115
0.011024306 0.0011763637 -0.00205
-0.014405092 0.0030879546 -0.001
-0.0073495372 -0.003235 0.00019999997
0.0051446757 -0.0017645454 -0.0026500002
0.001175926 0.0020586364 -0.0026500002
0.014993056 0.00014704546 -0.00040000005
0.0095543982 -0.0011763637 -0.0016000001
0.0098483795 0.0014704545 -0.00085000007
-0.015287037 -0.0017645454 0.00019999997
-0.0083784722 -0.0016175 -0.00205
-0.012788194 -0.003235 -0.0017500001
-0.0083784722 0.00058818184 -0.00085000007
0.00058796298 -0.0011763637 -0.0031000001
0.011465278 -0.003235 0.00185
-0.013376158 -0.0026468183 -0.0017500001
0.0010289352 0.0011763637 -0.00085000007
-0.0098483795 0.0022056818 -0.0025000002
0.012788194 -0.003235 0.00079999998
0.0083784722 -0.0026468183 -0.0013000001
0.011318287 -0.003235 -0.00040000005
-0.013670139 0.0019115909 -0.00235
0.00014699074 -0.003235 -0.00025000004
-0.0049976851 -0.0016175 0.00079999998
0.0020578704 0.0011763637 -0.00085000007
0.0038217593 -0.0027938636 0.00094999996
0.0027928241 0.0027938636 -0.0022
0.0045567132 -0.0016175 -0.00040000005
0.010289351 -0.0019115909 0.00019999997
-0.015140046 -0.0030879546 0.0014
-0.0051446757 0.0030879546 -0.001
-0.0088194441 -0.003235 0.0017
-0.00088194443 0.00014704546 -0.00010000004
-0.00029398149 -0.0027938636 -0.00070000003
-0.0063206018 -0.0026468183 0.0011
0.0024988425 -0.0024997727 -0.0026500002
0.0036747686 -0.0016175 0.00125
0.0016168981 0.0011763637 -0.00205
-0.014552083 -0.0024997727 -0.0025000002
0.014111111 -0.0017645454 0.00185
-0.0055856481 0.0030879546 -0.001
0.0097013889 -0.0014704545 -0.00205
-0.01190625 -0.0010293182 -0.00070000003
0.0045567132 0.0014704545 -0.00085000007
-0.0027928241 0.00058818184 -0.00085000007
-0.0074965279 -0.0016175 0.00034999996
0.013670139 0.0010293182 -0.00115
-0.0076435185 0.00029409092 -0.0016000001
0.0077905091 -0.0019115909 0.00049999997
0.0029398147 -0.0027938636 -0.00025000004
0.0013229167 0.0019115909 -0.0013000001
0.0099953702 -0.0019115909 0.00125
-0.015140046 0.0017645454 -0.00235
-0.0026458334 -0.00044113636 -0.0032500001
0.0026458334 0.0030879546 -0.0025000002
0.012641204 0.0023527273 -0.00115
0.012053241 -0.0026468183 -0.0017500001
-0.0099953702 -0.0026468183 -0.00070000003
-0.00058796298 0.0024997727 -0.0026500002
-0.0057326388 0.0027938636 -0.0022
-0.011318287 0.0019115909 -0.001
0.0060266205 -0.0019115909 -0.00205
-0.001175926 -0.0020586364 0.00094999996
0.00058796298 -0.0011763637 -0.0029500001
0.0085254628 0.0023527273 -0.0022
0.0010289352 -0.0017645454 -0.00205
0.012200232 -0.0026468183 -0.0014500001
0.0038217593 -0.0027938636 0.0017
0 -0.0010293182 -0.00040000005
-0.0051446757 -0.0017645454 0.00049999997
-0.012641204 -0.0026468183 0.00125
-0.00044097222 0.00029409092 -0.00055000006
-0.0030868056 0.0017645454 -0.0026500002
-0.0091134263 0.0024997727 -0.00115
0.011465278 -0.0011763637 -0.0016000001
0.012788194 0.003235 -0.0022
-0.014993056 0.00014704546 -0.00070000003
0.014258102 -0.0016175 -0.0013000001
-0.01381713 0.00044113636 -0.0022
0.0044097221 0.0027938636 -0.0022
0.010877315 0.00014704546 -0.00040000005
0.015875001 -0.00029409092 -0.0013000001
-0.0035277777 0.00014704546 -0.00010000004
0.015287037 0.00088227272 -0.00115
0.012641204 -0.003235 0.00019999997
0.0072025461 -0.0017645454 -0.00205
-0.0036747686 -0.0019115909 -0.00085000007
-0.0080844909 -0.003235 -0.0014500001
-0.0091134263 -0.0011763637 -0.0013000001
0.00014699074 -0.0014704545 -0.00055000006
-0.0085254628 -0.0013234091 -0.0032500001
0.010436342 -0.0026468183 0.00019999997
0.00088194443 -0.0027938636 -0.0014500001
0.0077905091 -0.003235 0.00019999997
0.012053241 0.0020586364 -0.00085000007
0.0048506944 -0.0019115909 0.0017
0.0036747686 -0.002940909 0.00079999998
-0.0039687501 0.0027938636 -0.00115
0.0089664347 0.0010293182 -0.0013000001
-0.012347222 -0.0013234091 -0.00205
-0.014552083 -0.0014704545 -0.00040000005
0.0086724535 -0.0013234091 -0.00010000004
-0.0051446757 0.0027938636 -0.0022
0.01396412 0 -0.00010000004
0 0.0017645454 -0.0013000001
-0.00058796298 0.00058818184 -0.00085000007
0.0017638889 0.002940909 -0.0022
-0.00029398149 0.0014704545 -0.00205
0.0032337962 0.0022056818 -0.00205
-0.00014699074 -0.0011763637 -0.0013000001
0.010142361 -0.0020586364 0.00064999994
0.012641204 -0.0016175 0.0020000001
0.010730324 -0.0017645454 -0.00010000004
0.0027928241 -0.0014704545 -0.0013000001
-0.0054386575 -0.003235 -0.001
0.0061736112 0.0014704545 -0.0026500002
0.0077905091 -0.0019115909 -0.0026500002
-0.0095543982 0.00029409092 -0.0014500001
0.010877315 0.0023527273 -0.0025000002
0.014846065 0.0030879546 -0.00115
0.0069085648 -0.0011763637 -0.0031000001
-0.010289351 0.002940909 -0.0022
0.0064675924 0.0027938636 -0.0025000002
-0.0035277777 0.0023527273 -0.0022
0.013082176 -0.003235 -0.0022
-0.0044097221 0.00029409092 -0.0031000001
0.015434028 -0.00073522725 -0.00010000004
0.012053241 -0.0022056818 -0.00235
-0.0013229167 -0.0013234091 -0.0013000001
0.011171296 -0.0027938636 -0.00010000004
0.0048506944 0.00014704546 -0.00010000004
-0.0074965279 -0.0026468183 -0.00025000004
0.0055856481 0.0010293182 -0.00205
-0.0047037038 -0.002940909 -0.00010000004
0.0066145831 -0.0016175 -0.0026500002
0.014111111 0.0020586364 -0.00085000007
-0.0064675924 -0.0014704545 0.00019999997
-0.0060266205 0.0026468183 -0.001
0.015875001 -0.00073522725 -0.00070000003
0.011759259 0.003235 -0.001
-0.013376158 0.0017645454 -0.0022
0.012641204 0.0020586364 -0.00085000007
-0.011759259 0.0022056818 -0.0022
0.0014699074 -0.003235 -0.00115
0.0095543982 0.0022056818 -0.0022
-0.001175926 -0.0011763637 -0.0032500001
0.0049976851 -0.0020586364 -0.00010000004
-0.013376158 0.00029409092 -0.00055000006
0.0019108796 0.00029409092 -0.0029500001
0.010730324 -0.0011763637 -0.00070000003
-0.00014699074 -0.0017645454 4.9999959e-05
-0.0048506944 -0.0027938636 0.00019999997
-0.00073495368 0.0017645454 -0.0013000001
0.002204861 0.00014704546 -0.0032500001
0.0064675924 0.0026468183 -0.00085000007
-0.0039687501 -0.0020586364 -0.00040000005
0.012935185 0.00014704546 -0.0031000001
0.010142361 0.0027938636 -0.00085000007
0.013376158 -0.0022056818 -0.00235
-0.012641204 0.0013234091 -0.0022
-0.012494213 -0.0030879546 0.00064999994
-0.01381713 -0.0030879546 0.00064999994
0.0089664347 -0.0026468183 0.0011
0.002204861 -0.003235 -0.0014500001
-0.011318287 0.0020586364 -0.001
-0.0095543982 0.0017645454 -0.00115
-0.0070555555 0.00029409092 -0.0016000001
-0.0080844909 0.0013234091 -0.00085000007
-0.01572801 0.00014704546 -0.0022
0.0048506944 0.0026468183 -0.00085000007
0.010142361 -0.003235 -0.0014500001
-0.0060266205 -0.00029409092 -0.0032500001
0.013523148 0.00014704546 -0.00040000005
-0.01190625 0.00073522725 -0.0013000001
-0.0074965279 -0.0014704545 4.9999959e-05
-0.00044097222 -0.003235 -0.00040000005
0.0014699074 0.002940909 -0.00115
0.015140046 0.0016175 -0.001
-0.013523148 -0.003235 -0.00025000004
-0.0023518519 -0.0013234091 -0.00085000007
-0.0066145831 -0.0013234091 -0.00085000007
-0.011612268 -0.0020586364 0.00079999998
-0.00029398149 -0.003235 -0.0014500001
0.014699074 0.0010293182 -0.00115
0.00058796298 -0.0027938636 -0.00055000006
-0.0041157408 -0.0019115909 -0.001
0.011318287 0.00058818184 -0.0019
-0.0019108796 0.0023527273 -0.00085000007
0.0041157408 -0.0027938636 -0.00085000007
0.0072025461 -0.0016175 -0.0026500002
-0.0032337962 0.0023527273 -0.00115
-0.013082176 0.00058818184 -0.00205
-0.011318287 -0.00014704546 -0.0032500001
0.0029398147 -0.00058818184 -0.00010000004
-0.0049976851 -0.0019115909 0.00185
0.010289351 -0.0030879546 0.00094999996
-0.015287037 0.00088227272 -0.001
-0.015875001 -0.00073522725 -0.00055000006
-0.015140046 -0.002940909 0.00125
-0.0063206018 0.0017645454 -0.0026500002
0.0074965279 0.0014704545 -0.00085000007
0.0076435185 0.00029409092 -0.0014500001
0.0080844909 0.002940909 -0.0022
0.0051446757 -0.0026468183 -0.0025000002
-0.0073495372 -0.0026468183 -0.00040000005
-0.012641204 -0.0013234091 -0.00085000007
0.0077905091 -0.0011763637 -0.00040000005
-0.012788194 -0.0016175 0.00064999994
-0.014846065 0.00044113636 -0.0013000001
0.0026458334 -0.0027938636 -0.00010000004
-0.0086724535 0 -0.00010000004
-0.0030868056 0.0023527273 -0.00115
-0.002204861 -0.00044113636 -0.00010000004
0.011612268 -0.0017645454 0.00125
0.0035277777 0.003235 -0.0025000002
-0.0038217593 -0.002940909 0.00094999996
0.013670139 -0.002940909 -0.0014500001
0.0048506944 -0.0016175 0.00019999997
0.0049976851 -0.0014704545 0.00019999997
0.0049976851 0.00058818184 -0.0026500002
-0.0080844909 -0.0019115909 -0.00010000004
0.0039687501 -0.00029409092 -0.00010000004
-0.00058796298 -0.0011763637 -0.0029500001
-0.012641204 0.00088227272 -0.00085000007
-0.0041157408 -0.00088227272 -0.0032500001
-0.015434028 0.00014704546 -0.0029500001
0.013670139 0.0013234091 -0.0025000002
0.013523148 0.0026468183 -0.00085000007
-0.011318287 -0.003235 -0.00205
-0.0042627314 -0.0017645454 -0.00115
-0.0094074076 -0.0013234091 -0.00010000004
-0.00088194443 0.002940909 -0.001
0.012200232 0.00029409092 -0.0017500001
-0.014699074 0.0019115909 -0.001
-0.0072025461 -0.0013234091 -0.00205
0.0047037038 -0.00088227272 -0.00010000004
0.01396412 -0.0017645454 -0.0019
0.0086724535 -0.0020586364 -0.00040000005
-0.010289351 -0.003235 -0.001
0.0049976851 0.0014704545 -0.00205
-0.0097013889 -0.0013234091 -0.00205
0.011612268 -0.0026468183 -0.00025000004
-0.012347222 -0.0013234091 -0.0026500002
0.0019108796 0.0014704545 -0.0026500002
-0.0038217593 -0.0014704545 0.00064999994
-0.010583334 -0.00073522725 -0.00010000004
-0.011171296 0.00058818184 -0.00085000007
0.013229166 -0.0020586364 -0.00040000005
-0.012641204 -0.0024997727 -0.0025000002
-0.0073495372 0.00044113636 -0.0019
0.0076435185 0.0010293182 -0.00085000007
0.0063206018 0.0026468183 -0.0022
-0.013082176 0.00014704546 -0.00040000005
-0.0038217593 -0.0030879546 0.00125
0.00073495368 0.00044113636 -0.00070000003
-0.013082176 0.0011763637 -0.0022
-0.012641204 -0.0019115909 0.00019999997
0.0097013889 -0.0019115909 -0.0025000002
0.0049976851 0.0011763637 -0.0013000001
0.0033807871 -0.0010293182 -0.0032500001
0.00088194443 -0.0013234091 -0.00085000007
-0.012641204 -0.0020586364 0.0017
0.0099953702 -0.0020586364 -0.00010000004
0.0047037038 0.00088227272 -0.00205
-0.0095543982 0.0027938636 -0.00115
0.0052916668 -0.0027938636 0.00094999996
0.0061736112 0 -0.00010000004
-0.012347222 0.00073522725 -0.00205
-0.010142361 0.0023527273 -0.0022
0.010730324 -0.0017645454 -0.0019
0.0085254628 0.00029409092 -0.00055000006
-0.013082176 -0.0026468183 -0.001
0.0024988425 0.0030879546 -0.001
0.0074965279 -0.003235 0.00094999996
-0.011465278 -0.003235 0.00034999996
-0.0086724535 -0.00044113636 -0.0032500001
0.0085254628 0.0016175 -0.00085000007
-0.011318287 0.00058818184 -0.0026500002
-0.0089664347 0.0024997727 -0.0025000002
0.0029398147 -0.0011763637 -0.00010000004
0.011759259 0.002940909 -0.00115
-0.0074965279 -0.0016175 0.00079999998
0.0027928241 -0.003235 -0.00235
-0.0060266205 0.00088227272 -0.00085000007
-0.011318287 0.00014704546 -0.0032500001
0.012788194 -0.0024997727 -0.00235
0.011465278 -0.0010293182 -0.0032500001
0 -0.0017645454 0.00094999996
-0.0061736112 -0.003235 -0.0016000001
0.015140046 -0.0017645454 0.0020000001
-0.0058796294 -0.0017645454 -0.0026500002
0.00044097222 0.0019115909 -0.0026500002
0.0048506944 -0.0027938636 -0.00070000003
-0.01396412 -0.003235 -0.00205
0.0038217593 -0.0016175 -0.0026500002
0.0033807871 -0.0019115909 -0.001
-0.0017638889 -0.0017645454 -0.0026500002
-0.014405092 0.00014704546 -0.0032500001
-0.0026458334 0.00044113636 -0.00070000003
-0.013082176 -0.0024997727 -0.0019
0.0036747686 0.002940909 -0.00085000007
-0.0026458334 -0.0011763637 -0.00025000004
-0.015140046 -0.0010293182 -0.00055000006
0.014111111 0.0011763637 -0.00115
0.0060266205 0.0024997727 -0.0022
0.0024988425 0.00029409092 -0.0029500001
-0.0016168981 -0.0027938636 -0.0016000001
-0.0029398147 -0.0013234091 -0.00085000007
-0.01381713 -0.003235 0.00019999997
0.015434028 0.0013234091 -0.00235
-0.015140046 -0.0027938636 -0.0019
0.01381713 -0.0027938636 -0.001
-0.0063206018 -0.0014704545 0.00049999997
-0.0094074076 0.00029409092 -0.0016000001
-0.010583334 -0.0014704545 -0.0013000001
0.0089664347 -0.003235 -0.00205
-0.013376158 -0.00073522725 -0.00025000004
0.002204861 0 -0.00010000004
-0.011465278 -0.0014704545 0.00155
-0.01396412 -0.0013234091 -0.0013000001
-0.0072025461 0.0019115909 -0.00085000007
0.009260417 0.0014704545 -0.00205
0.011024306 -0.003235 -0.0016000001
-0.0094074076 -0.0024997727 -0.0019
-0.013670139 -0.0011763637 -0.0014500001
-0.012053241 0.0013234091 -0.001
0.0039687501 -0.0016175 0.00064999994
-0.0023518519 0.00073522725 -0.0026500002
0.0052916668 0.00029409092 -0.0014500001
-0.012788194 -0.0026468183 -0.0025000002
0.011465278 0.0022056818 -0.00115
0.015434028 0.0017645454 -0.00235
-0.011171296 0.002940909 -0.00115
-0.0030868056 0.0030879546 -0.001
0.011759259 0.003235 -0.00235
0.013376158 0.0022056818 -0.00115
-0.00044097222 0.00044113636 -0.00070000003
-0.013082176 0.00088227272 -0.00085000007
0.012200232 -0.0026468183 -0.001
0.015140046 -0.0020586364 0.00185
-0.011465278 -0.0022056818 -0.0025000002
-0.0029398147 0.0011763637 -0.00205
-0.0026458334 -0.0022056818 -0.00205
0.0079375003 -0.0016175 -0.00040000005
0.0088194441 0.0017645454 -0.0025000002
-0.0024988425 -0.0022056818 -0.00205
-0.0030868056 0.00014704546 -0.00040000005
0.0010289352 -0.0027938636 -0.00115
0.01190625 -0.0011763637 -0.00040000005
0.011759259 -0.0020586364 -0.0019
-0.0052916668 -0.0020586364 -0.00205
0.014111111 0.0030879546 -0.00235
-0.0044097221 0.0016175 -0.00085000007
-0.013082176 -0.0010293182 -0.00010000004
0.0089664347 -0.0020586364 0.00094999996
-0.011465278 -0.0013234091 -0.00085000007
-0.0058796294 0.00044113636 -0.00070000003
-0.009260417 0.0030879546 -0.0022
0.0098483795 0.002940909 -0.00115
0.012935185 -0.0017645454 0.00064999994
0.0033807871 -0.003235 -0.00040000005
0.0044097221 -0.0016175 -0.00010000004
-0.012200232 -0.0010293182 -0.0019
-0.0095543982 -0.0026468183 -0.00055000006
0.010436342 0.0014704545 -0.00205
0.0038217593 -0.003235 -0.00235
-0.014846065 0.00014704546 -0.0019
0.0082314815 0.0020586364 -0.00085000007
0.0097013889 -0.0026468183 -0.0019
-0.0058796294 -0.003235 -0.00205
-0.0014699074 -0.0027938636 -0.00085000007
0.0066145831 -0.003235 -0.0016000001
-0.0080844909 0.0016175 -0.00085000007
-0.0048506944 0.00029409092 -0.0014500001
-0.0074965279 -0.0014704545 0.00079999998
