# .PCD v0.7 - Point Cloud Data file format
VERSION 0.7
FIELDS x y z
SIZE 4 4 4
TYPE F F F
COUNT 1 1 1
WIDTH 1182
HEIGHT 1
VIEWPOINT 0 0 0 1 0 0 0
POINTS 1182
DATA ascii
-0.0074294643 0.00253125 -0.0063688527
-0.0036446429 0.0022499999 -0.012221311
0.0075696427 -0.00014062499 -0.0016311476
-0.0032241072 -0.001828125 -9.8360659e-05
-0.0077098212 0.001265625 -0.0051147542
-0.0032241072 0.0022499999 -0.012221311
-0.0053267856 -0.00056249998 -0.012360656
0.0074294643 -0.00098437502 -9.8360659e-05
-0.0075696427 0.0022499999 -0.0083196722
0.0046258927 -0.0044999998 -0.0033032787
-0.0067285714 0.0014062501 -0.012221311
0.0012616072 0.00253125 -9.8360659e-05
0.0035044642 0.001828125 -9.8360659e-05
-0.0057473215 -0.0044999998 -0.0044180327
-0.0018223214 -0.0044999998 -0.0084590167
0.0078499997 -0.0033750001 -0.011942623
0.0071491068 0.0044999998 -0.0062295082
0.0078499997 -0.001828125 -0.0041393442
0.0070089283 -0.00014062499 -9.8360659e-05
-0.0022428571 0.0044999998 -0.0069262297
-0.0021026786 0.003234375 -9.8360659e-05
0.0058875 -0.0042187502 -0.012221311
0.0014017856 -0.00056249998 -9.8360659e-05
0.00084107142 -0.002390625 -9.8360659e-05
0.0075696427 -0.00028124999 -0.011385246
-0.0074294643 -0.0021093751 -0.0092950817
0.0021026786 -0.0039375001 -0.012221311
-0.0014017856 -0.0042187502 -0.012221311
-0.0050464286 -0.00056249998 -0.012360656
0.0075696427 0 -0.0038606557
-0.0033642857 -0.0014062501 -9.8360659e-05
0.0021026786 -0.0044999998 -0.0060901637
-0.0036446429 0.00014062499 0.0035245901
0.0026633928 -0.003234375 -9.8360659e-05
0.0044857142 0 -0.012360656
0.0022428571 -0.00196875 -9.8360659e-05
-0.0040651783 0.0044999998 -0.0076229507
-0.0078499997 -0.00196875 -0.0080409832
0 -0.0044999998 -0.0042786887
0.0078499997 -0.0042187502 -0.0098524587
0.0078499997 -0.0022499999 -0.0046967212
-0.0056071426 0.00309375 -9.8360659e-05
-0.0026633928 -0.0044999998 -0.012221311
-0.00014017857 -0.0044999998 -0.0084590167
0.0042053573 0.00028124999 0.00045901639
0.0078499997 -0.0035156249 -0.0014918033
-0.0032241072 0.003234375 -0.010409836
-0.0075696427 -0.0029531249 -0.00051639345
-0.0074294643 0.0028125001 -0.0042786887
-0.0042053573 0.0016875 -0.012221311
-0.0077098212 0.0014062501 -0.0021885247
-0.00056071428 0.0044999998 -0.0010737705
0.0075696427 0 -0.011106557
0.0067285714 0.0028125001 -0.012221311
0.0070089283 0.0042187502 -0.0080409832
0.0044857142 0.00070312503 0.00018032787
-0.0072892858 -0.0042187502 -0.0026065574
0.0014017856 -0.0044999998 -0.010827869
0.0078499997 -0.0040781251 -0.0085983602
-0.0026633928 -0.00084375002 -0.012360656
0.0021026786 0.0040781251 -0.0084590167
0.0078499997 0.0021093751 -0.0094344262
-0.0015419642 0.0014062501 -9.8360659e-05
-0.0023830356 0.0044999998 -0.0021885247
-0.0050464286 0.0044999998 -0.0076229507
-0.00056071428 0.00042187501 -0.012360656
0.00070089282 -0.0044999998 -0.0065081967
-0.0071491068 0.0042187502 -0.0074836067
-0.0071491068 0.00098437502 -0.012221311
-0.0067285714 0.0043593752 -0.0079016397
-0.0067285714 -0.00042187501 -0.012221311
-0.0078499997 -0.00098437502 -0.0073442622
-0.0037848214 -0.0044999998 -0.0033032787
0.0012616072 -0.001828125 -0.012360656
0.0058875 0.0044999998 -0.0037213115
-0.00028035714 0.0044999998 -0.0065081967
-0.0071491068 -0.00365625 -0.011663934
0.0063080355 0.00042187501 -0.012360656
-0.0023830356 -0.0044999998 -0.0073442622
0.0022428571 0.00014062499 -9.8360659e-05
0.0047660712 -0.0043593752 -0.012081968
-0.0037848214 0.0044999998 -0.0063688527
0.0077098212 0.0039375001 -0.0060901637
-0.00056071428 0.0044999998 -0.0052540982
0.0039249999 -0.003234375 -0.012221311
0.0068687499 -0.0044999998 -0.011385246
-0.0078499997 -0.00253125 -0.0052540982
0.0072892858 0.0014062501 -0.012221311
0.0078499997 -0.002390625 -0.002885246
-0.0054669641 -0.0044999998 -0.0092950817
0.0078499997 -0.00309375 -0.0070655737
-0.0033642857 -0.0044999998 -0.0077622952
0.0050464286 -0.0044999998 -0.0065081967
-0.0078499997 -0.0016875 -0.0073442622
0.0078499997 -0.0039375001 -0.0051147542
0.0077098212 0.0042187502 -0.002885246
-0.00028035714 -0.00365625 -0.012221311
-0.0030839285 -0.00253125 -0.012360656
0.0078499997 0.0033750001 -0.0081803277
0.0025232143 0.00028124999 -0.012360656
0.0067285714 -0.0044999998 -0.011803279
-0.0078499997 -0.00028124999 -0.0053934427
0.0075696427 0.00084375002 -0.0084590167
-0.0064482144 0.003796875 -0.0095737707
-0.0012616072 0.0044999998 -0.002885246
-0.0025232143 0.0044999998 -0.00093442621
0.0078499997 0.00365625 -0.0076229507
0.0037848214 -0.0040781251 -0.012221311
-0.00042053571 -0.0022499999 -0.012360656
-0.0037848214 -0.0033750001 -0.012360656
0.0078499997 0.001828125 -0.0051147542
0.0075696427 -0.00084375002 -0.0070655737
-0.0025232143 -0.003796875 -0.012360656
-0.0030839285 0.001546875 -0.012221311
0.0075696427 0.0035156249 -0.0092950817
-0.0074294643 0.00253125 -0.0053934427
0.0023830356 -0.0028125001 -0.012360656
-0.0070089283 -0.00070312503 -0.01054918
0.0078499997 -0.0022499999 -0.003442623
0.0039249999 -0.0044999998 -0.01152459
-0.00028035714 -0.0044999998 -0.0021885247
-0.00070089282 0.0014062501 -0.012360656
0.0071491068 0.002390625 -0.0094344262
0.0014017856 0.0044999998 -0.0026065574
-0.0023830356 0.0044999998 -0.0026065574
-0.0051866071 -0.0044999998 -0.0035819672
-0.0065883929 -0.00056249998 -0.012221311
-0.00056071428 -0.0040781251 -0.012221311
0.0051866071 0.00056249998 -9.8360659e-05
-0.0070089283 0.001546875 -0.01054918
-0.0071491068 0.0029531249 -0.0091557382
0.0051866071 0.00042187501 -0.012360656
-0.00028035714 -0.0033750001 -0.012221311
0.00056071428 -0.0044999998 -0.0065081967
-0.0068687499 -0.0043593752 -0.0063688527
0.0077098212 0.0043593752 -0.003442623
0.0078499997 0.00098437502 -9.8360659e-05
-0.0051866071 -0.00196875 -0.012360656
-0.0032241072 -0.0044999998 -0.010270492
0.0077098212 -0.0014062501 -0.0081803277
-0.0033642857 -0.0044999998 -0.0010737705
-0.00070089282 -0.0044999998 -0.0045573772
-0.0071491068 0.0042187502 -0.0060901637
-0.00294375 0.00309375 -0.010409836
0.0075696427 0.00084375002 -0.0087377047
0.0054669641 -0.00084375002 -0.012360656
-0.0050464286 -0.00098437502 -9.8360659e-05
0.0071491068 -0.0043593752 -0.0049754097
0.0078499997 -0.00070312503 -0.00065573771
-0.0049062502 -0.0021093751 -0.012360656
-0.0071491068 0.0040781251 -0.0035819672
0.00028035714 0.0044999998 -0.0072049182
0.00042053571 -0.0044999998 -0.0091557382
-0.0077098212 -0.0026718751 -0.0031639345
-0.0014017856 0.0044999998 -0.0038606557
-0.0043455358 -0.0044999998 -0.0063688527
0.0025232143 0.00196875 -0.012221311
-0.0015419642 -0.0044999998 -0.0090163937
0.0078499997 -0.00196875 -0.0045573772
0.0078499997 0.0021093751 -0.010270492
0.0078499997 0.003234375 -0.0072049182
0.0050464286 -0.0044999998 -0.0044180327
-0.0047660712 0.00098437502 -9.8360659e-05
0.0070089283 0.00365625 -0.0092950817
0.0058875 0.0044999998 -0.0066475412
0.0071491068 0.0028125001 -0.0095737707
-0.0051866071 -0.0044999998 -0.00093442621
-0.0011214286 0.0044999998 -0.0072049182
0.0022428571 -0.00014062499 -9.8360659e-05
0.00084107142 0.0044999998 -0.0020491802
-0.00098124996 -0.0044999998 -0.00093442621
0 -0.0044999998 -0.0046967212
-0.0074294643 -0.0039375001 -0.0088770492
-0.0016821428 -0.0044999998 -0.012221311
-0.0071491068 0.0040781251 -0.0062295082
0.0078499997 0.0028125001 -0.0063688527
0.0039249999 0.00084375002 0.0025491803
-0.0070089283 0.00056249998 -0.0099918032
-0.0036446429 0.0021093751 -9.8360659e-05
-0.0025232143 -0.0044999998 -0.001352459
0.0042053573 -0.0042187502 -0.00023770492
0.0022428571 0.0028125001 -0.011245902
0.00084107142 0.0022499999 -9.8360659e-05
-0.0019624999 0.0044999998 -0.0044180327
0.0078499997 0.00309375 -0.0012131147
-0.0077098212 -0.0022499999 -0.0024672132
0.0077098212 -0.001125 -0.0021885247
0.00056071428 -0.0043593752 -0.00023770492
0.0022428571 -0.003234375 -9.8360659e-05
-0.0067285714 0.001546875 -0.011385246
0.0037848214 0.0044999998 -0.0062295082
-0.0033642857 0.0044999998 -0.0021885247
0.0078499997 0.00309375 -0.0055327867
-0.0077098212 0.00196875 -0.0030245902
-0.0077098212 0.00098437502 -0.0059508197
0.0028035713 -0.0044999998 -0.011663934
-0.00028035714 -0.0044999998 -0.0088770492
-0.0065883929 0.0033750001 -9.8360659e-05
0.0051866071 -0.0044999998 -0.00093442621
-0.0070089283 0.0042187502 -0.0090163937
0.0016821428 -0.0040781251 -0.00023770492
-0.0065883929 -0.0028125001 -9.8360659e-05
-0.0032241072 -0.0044999998 -0.0016311476
0.0077098212 -0.0016875 -0.0084590167
-0.0058875 0.00028124999 -0.012221311
0.0042053573 -0.00196875 -9.8360659e-05
0.0035044642 -0.0044999998 -0.0074836067
0.0077098212 0.002390625 -0.0097131152
-0.0035044642 0.0016875 -9.8360659e-05
-0.0026633928 0.00098437502 -0.012360656
-0.0057473215 -0.0044999998 -0.011663934
0.0012616072 -0.0044999998 -0.0070655737
0.0039249999 -0.0028125001 -0.012221311
0.00294375 -0.0044999998 -0.0073442622
-0.0071491068 -0.00014062499 -0.0099918032
0.0050464286 -0.00196875 -0.012360656
0.0067285714 -0.0044999998 -0.0073442622
0.0036446429 -0.0044999998 -0.0069262297
0.0077098212 -0.0042187502 -0.012221311
0.0033642857 0.003796875 -0.0094344262
0.0018223214 0.0044999998 -0.0080409832
0.0068687499 0.0022499999 -0.012221311
0.0078499997 0.0033750001 -0.0021885247
0.0037848214 -0.0044999998 -0.0066475412
0.0016821428 0.0044999998 -0.0041393442
0.0075696427 -0.00070312503 -0.0091557382
0.0078499997 -0.00196875 -0.0024672132
0.0077098212 0.001546875 -9.8360659e-05
0.0075696427 0.001546875 -0.012221311
-0.0063080355 -0.0043593752 -0.0041393442
-0.0057473215 -0.0044999998 -0.010967213
0.0070089283 0.0044999998 -0.0055327867
-0.0053267856 0.0044999998 -0.00065573771
0.0070089283 0.0042187502 -0.0081803277
0.00056071428 0.0044999998 -0.0046967212
0.0028035713 0.0044999998 -0.0031639345
-0.0046258927 -0.0044999998 -0.012221311
-0.0078499997 -0.00070312503 -0.0087377047
0.0033642857 -0.0044999998 -0.0041393442
0.0021026786 -0.0044999998 -0.0052540982
-0.0043455358 0.0044999998 -0.0066475412
0.0016821428 0.0044999998 -0.00023770492
-0.0033642857 0.0044999998 -0.0066475412
-0.0071491068 0.0040781251 -0.0048360657
-0.0072892858 0.0035156249 -0.0081803277
0.0053267856 -0.0044999998 -0.0092950817
-0.006167857 0.001546875 -9.8360659e-05
0.0075696427 0.00056249998 -0.01054918
-0.0015419642 -0.0044999998 -0.0052540982
-0.0053267856 0.0044999998 -0.0040000002
0.0077098212 0.0043593752 -0.0031639345
-0.0023830356 0.0026718751 -0.010967213
0 -0.0021093751 -9.8360659e-05
0.0078499997 -0.0033750001 -0.01054918
-0.0043455358 0.001546875 -0.012221311
-0.0051866071 0.0044999998 -0.0055327867
0.0035044642 0.0044999998 -0.0077622952
-0.0074294643 0.00309375 -0.0017704918
-0.0019624999 0.0022499999 -0.012221311
-0.0015419642 -0.0044999998 -0.0091557382
-0.0053267856 -0.001125 -9.8360659e-05
-0.00294375 0.003234375 -0.0098524587
0.0056071426 -0.0016875 -0.012360656
-0.0077098212 -0.001546875 -0.0010737705
-0.0072892858 0.0039375001 -0.0010737705
0.0039249999 0.0033750001 -0.010827869
-0.0074294643 0.0033750001 -9.8360659e-05
-0.00098124996 0.0044999998 -0.0051147542
-0.0078499997 -0.001828125 -0.0048360657
0.0063080355 -0.0035156249 -0.012221311
0.00014017857 -0.00253125 -9.8360659e-05
0.0032241072 0.001828125 -9.8360659e-05
0.00028035714 0.0044999998 -0.00051639345
-0.0035044642 0.00084375002 0.0017131148
0.0077098212 0.0039375001 -0.0051147542
-0.0065883929 0.0043593752 -0.0072049182
0.0033642857 0.0029531249 -0.011385246
-0.0051866071 0.0021093751 -9.8360659e-05
-0.0039249999 -0.0044999998 -0.012081968
0.00294375 0.0044999998 -0.0049754097
0.0012616072 -0.003234375 -0.012221311
0.0067285714 0.001828125 -0.012221311
0.0056071426 0.0043593752 -0.0088770492
-0.00098124996 0.0022499999 -0.012081968
0.0075696427 0.001125 -0.002885246
0.0042053573 0.0044999998 -0.0042786887
0.0030839285 -0.0044999998 -0.0037213115
0.0044857142 -0.00070312503 -9.8360659e-05
0.0030839285 0.0044999998 -0.001352459
-0.0053267856 -0.0044999998 -0.0026065574
0.0077098212 0.00253125 -0.0014918033
0.0032241072 0.00014062499 -9.8360659e-05
0.0018223214 -0.0043593752 -0.00023770492
-0.0028035713 0.0044999998 -0.0042786887
-0.0046258927 0.0043593752 -0.0083196722
0.0070089283 -0.0043593752 -0.002885246
-0.00014017857 0.0042187502 -0.0083196722
-0.0074294643 0.0028125001 -0.0049754097
0.0040651783 0.00014062499 0.0026885245
-0.00098124996 -0.0044999998 -0.00065573771
0.0019624999 0.0044999998 -0.00023770492
-0.00014017857 -0.0044999998 -0.0012131147
-0.00098124996 0.0044999998 -0.0026065574
0.0068687499 -0.001546875 -9.8360659e-05
0.0070089283 -0.0044999998 -0.011803279
0 -0.0044999998 -0.0045573772
-0.0074294643 0.0033750001 -0.0019098361
0.0078499997 -0.001265625 -0.00023770492
0.0074294643 0.00028124999 -0.0042786887
0.0074294643 -0.0022499999 -9.8360659e-05
-0.0070089283 -0.001828125 -0.011385246
0.0012616072 0.0044999998 -0.0067868852
0.00028035714 -0.00056249998 -0.012360656
0.0075696427 -0.00084375002 -0.010270492
0.0040651783 0.0044999998 -0.0040000002
-0.0067285714 -0.003796875 -9.8360659e-05
-0.0063080355 0.0043593752 -0.0080409832
-0.0014017856 -0.0044999998 -0.0058114752
0.0050464286 -0.0044999998 -0.0056721312
0.0063080355 0.0021093751 -0.012221311
0.0018223214 -0.0044999998 -0.010827869
0.0075696427 0.0043593752 -0.0042786887
0.00056071428 0.0040781251 -9.8360659e-05
-0.0071491068 -0.0043593752 -0.0083196722
-0.0026633928 -0.0044999998 -0.0062295082
-0.0077098212 -0.00253125 -0.0051147542
-0.00042053571 -0.00042187501 -9.8360659e-05
-0.0036446429 0.0044999998 -0.0044180327
-0.0039249999 0.0044999998 -0.001352459
0.0075696427 0.00084375002 -0.0055327867
0.00098124996 0.0044999998 -0.0083196722
-0.006167857 0.0026718751 -9.8360659e-05
-0.0014017856 -0.00014062499 -9.8360659e-05
0.0075696427 0.00084375002 -0.0056721312
0.0077098212 0.0026718751 -0.01054918
0.0078499997 -0.0026718751 -0.010967213
0.0030839285 0.0044999998 -0.0038606557
-0.0028035713 -0.002390625 -9.8360659e-05
-0.0077098212 0.001265625 -0.0079016397
-0.0026633928 0.0026718751 -0.011942623
-0.0063080355 -0.00309375 -0.012221311
-0.0018223214 -0.001546875 -9.8360659e-05
-0.00070089282 0.0044999998 -0.0031639345
-0.00014017857 -0.00014062499 -0.012360656
-0.0060276785 0.0043593752 -0.0042786887
0.0075696427 -0.00014062499 -0.0041393442
-0.0065883929 -0.003796875 -9.8360659e-05
-0.0075696427 -0.0016875 -9.8360659e-05
-0.00014017857 0.0044999998 -0.0070655737
-0.0054669641 -0.001546875 -9.8360659e-05
0.0026633928 -0.003796875 -0.012221311
0.0032241072 0.0035156249 -0.010131148
-0.0044857142 0.0044999998 -0.0059508197
-0.0060276785 -0.0043593752 -0.0066475412
-0.0071491068 -0.0035156249 -0.010827869
-0.00084107142 -0.0044999998 -0.0035819672
-0.0036446429 -0.0044999998 -0.0010737705
-0.0078499997 -0.00196875 -0.0060901637
0.00084107142 -0.0044999998 -0.0058114752
0.0018223214 -0.00056249998 -0.012360656
-0.00014017857 -0.0044999998 -0.0097131152
-0.0050464286 -0.0044999998 -0.0063688527
-0.0056071426 -0.0044999998 -0.011106557
-0.0035044642 -0.0044999998 -0.00093442621
-0.0037848214 0.0044999998 -0.0069262297
-0.00098124996 -0.0044999998 -0.0033032787
-0.0054669641 0.0044999998 -0.0072049182
0.0037848214 0.00042187501 0.0038032788
0.0075696427 -0.00084375002 -0.0040000002
-0.00084107142 -0.0044999998 -0.011106557
-0.0071491068 0.0033750001 -9.8360659e-05
0.0023830356 0.001125 -0.012360656
0.0032241072 0.00196875 -0.012221311
0.0047660712 -0.0044999998 -0.0021885247
-0.0015419642 0.00014062499 -9.8360659e-05
-0.0037848214 0.00042187501 0.0038032788
0.0042053573 -0.0016875 -0.012360656
0 -0.0035156249 -9.8360659e-05
0.0040651783 0.00014062499 4.0983607e-05
-0.0077098212 -0.0014062501 -0.002885246
-0.0077098212 -0.003234375 -0.0079016397
0.0075696427 0.00028124999 -0.0081803277
-0.0049062502 -0.0044999998 -0.0056721312
0.0043455358 0.00309375 -0.011245902
0.0047660712 0.0021093751 -0.012221311
0.0074294643 0.00014062499 -0.012221311
0.00070089282 0.0044999998 -0.00023770492
0.0039249999 0.00014062499 0.0010163934
0.0077098212 0.0016875 -0.0049754097
-0.0077098212 -0.00042187501 -0.0023278689
0.0077098212 0.0040781251 -0.0046967212
-0.0078499997 -0.002390625 -0.0069262297
-0.0033642857 0.00014062499 0.0021311475
-0.0074294643 -0.0035156249 -0.0042786887
0.0025232143 -0.0044999998 -0.010967213
0.0075696427 -0.0043593752 -0.00037704917
-0.0015419642 -0.0044999998 -0.0073442622
0.0065883929 -0.0044999998 -0.0083196722
0.0063080355 0.0044999998 -0.0056721312
-0.0026633928 -0.0026718751 -0.012360656
0.00056071428 -0.0044999998 -0.0056721312
-0.0065883929 0.00253125 -0.011385246
0.00042053571 0.0044999998 -0.0016311476
-0.0035044642 -0.0044999998 -0.0058114752
-0.0042053573 0.0044999998 -0.001352459
-0.0057473215 -0.0043593752 -9.8360659e-05
0.0075696427 -0.00084375002 -0.010131148
0.0047660712 0.003796875 -0.0099918032
-0.00014017857 -0.0044999998 -0.0079016397
-0.0037848214 0.00056249998 0.0022704918
0.0022428571 -0.0022499999 -0.012360656
-0.0071491068 -0.0016875 -0.011245902
-0.0046258927 0.0044999998 -0.0024672132
0.0032241072 -0.0044999998 -0.0070655737
0.0049062502 -0.0044999998 -0.010270492
-0.0035044642 0.0044999998 -0.0058114752
-0.0053267856 -0.0044999998 -0.0056721312
0.0030839285 0.003796875 -9.8360659e-05
0.0070089283 -0.001125 -0.012360656
0.0056071426 -0.0044999998 -0.0060901637
-0.00014017857 -0.0044999998 -0.0035819672
0.0058875 0.0044999998 -0.0063688527
0.0078499997 -0.0042187502 -0.0079016397
0.0051866071 -0.0044999998 -0.0024672132
-0.0067285714 0.0043593752 -0.0060901637
0.00042053571 -0.001546875 -9.8360659e-05
-0.0012616072 0.001546875 -9.8360659e-05
-0.0050464286 0.0029531249 -0.011385246
0.0075696427 0.0014062501 -0.012221311
-0.0070089283 0.00070312503 -0.011942623
0.0078499997 0.0026718751 -0.00037704917
0.0012616072 -0.00253125 -9.8360659e-05
-0.0047660712 -0.00056249998 -0.012360656
-0.0075696427 -0.0033750001 -0.0063688527
0.00294375 0 -9.8360659e-05
-0.0075696427 -0.0026718751 -0.0012131147
0.0044857142 -0.0044999998 -0.0091557382
0.0075696427 -0.00070312503 -0.012221311
-0.0018223214 -0.0044999998 -0.011803279
0.0078499997 -0.0042187502 -0.0016311476
-0.0040651783 0.0040781251 -0.0084590167
-0.0035044642 0.0044999998 -0.0010737705
0.0075696427 0.001546875 -0.01054918
0.0028035713 -0.0044999998 -0.0069262297
0.0077098212 0.0039375001 -0.0037213115
0.0036446429 0.0040781251 -0.0084590167
0.0078499997 0.00196875 -0.0010737705
0.0056071426 0.0044999998 -0.00079508196
-0.0035044642 -0.002390625 -9.8360659e-05
0.0040651783 0.00014062499 0.0015737705
0.0077098212 -0.0014062501 -0.0020491802
0.0043455358 0.00084375002 0.0039426228
-0.0040651783 -0.0044999998 -0.0010737705
-0.0040651783 0.0044999998 -0.003442623
0.0019624999 0.0044999998 -0.0056721312
0.0070089283 0.0029531249 -0.011942623
-0.0077098212 -0.0029531249 -0.0031639345
0.0075696427 -0.00070312503 -0.0085983602
-0.0019624999 0.00309375 -0.0097131152
0.0033642857 -0.0044999998 -0.0060901637
0.0065883929 0.0026718751 -0.012221311
0.00070089282 -0.0044999998 -0.011663934
0.0047660712 0.0044999998 -0.002885246
0.00014017857 -0.001265625 -0.012360656
-0.0035044642 -0.0016875 -9.8360659e-05
-0.0071491068 -0.0029531249 -0.010967213
-0.0033642857 0.00309375 -0.010409836
0.0078499997 -0.00365625 -0.0074836067
0.0067285714 -0.0035156249 -0.012221311
0.00028035714 0.0028125001 -0.010827869
0.0018223214 0.00028124999 -0.012360656
-0.0077098212 0.00056249998 -0.0074836067
0.0077098212 0.0039375001 -0.0040000002
-0.0044857142 -0.0040781251 -9.8360659e-05
-0.00042053571 -0.0044999998 -0.0098524587
0.0078499997 -0.0035156249 -0.0058114752
-0.0015419642 -0.0044999998 -0.0042786887
0.00056071428 0.001546875 -0.012360656
-0.0071491068 -0.002390625 -0.011385246
0.0039249999 -0.0044999998 -0.010688525
-0.0032241072 0.001828125 -0.012221311
-0.006167857 0.0043593752 -0.0027459017
0.0075696427 -0.00070312503 -0.0020491802
-0.0047660712 0.0044999998 -0.0037213115
-0.006167857 0.0043593752 -0.0030245902
0.0064482144 -0.001828125 -9.8360659e-05
-0.0036446429 0.00253125 -9.8360659e-05
0.0078499997 0.001546875 -0.0095737707
0.0078499997 0.0021093751 -0.0016311476
-0.0030839285 -0.0044999998 -0.0027459017
0.0019624999 0.0016875 -9.8360659e-05
0.0074294643 -0.0043593752 -0.0074836067
0.0064482144 0.0044999998 -0.0026065574
-0.00070089282 -0.0033750001 -9.8360659e-05
-0.0078499997 -0.00028124999 -0.0056721312
0.0078499997 -0.00309375 -0.0094344262
-0.0036446429 -0.0044999998 -0.00093442621
0 0.0039375001 -9.8360659e-05
0.0026633928 0.00056249998 -0.012360656
0.0040651783 0.0044999998 -0.0067868852
-0.0071491068 0.00056249998 -9.8360659e-05
-0.0074294643 -0.003796875 -0.0024672132
-0.00084107142 -0.001546875 -9.8360659e-05
0.0078499997 0.0014062501 -0.0052540982
-0.0050464286 -0.0044999998 -0.010688525
0.0014017856 0.00196875 -9.8360659e-05
-0.0012616072 -0.0044999998 -0.00093442621
0.0026633928 0.0044999998 -0.0083196722
0.0015419642 -0.0040781251 -0.012221311
0.0012616072 0.0029531249 -0.01054918
-0.0071491068 -0.0016875 -0.010270492
0.00014017857 0.0043593752 -0.0081803277
-0.00028035714 -0.001125 -9.8360659e-05
0.00098124996 -0.0044999998 -0.0052540982
0.0071491068 0.0022499999 -0.0099918032
-0.0025232143 -0.00028124999 -0.012360656
0.0075696427 -0.00070312503 -0.011106557
-0.0070089283 -0.0044999998 -0.01152459
0.00042053571 -0.0044999998 -0.0097131152
-0.0060276785 0.0033750001 -0.010688525
-0.00056071428 -0.0044999998 -0.0083196722
-0.0033642857 0.0044999998 -0.0038606557
-0.0033642857 0.00014062499 0.0040819673
-0.0077098212 -0.00196875 -0.0016311476
-0.0011214286 -0.00196875 -0.012360656
0.0036446429 -0.0040781251 -0.012221311
0.0022428571 0.00309375 -0.010967213
0.0074294643 0.0029531249 -9.8360659e-05
0.00070089282 0.0044999998 -0.0020491802
-0.00056071428 -0.0044999998 -0.001352459
-0.0043455358 -0.0044999998 -0.010270492
0.0060276785 -0.003234375 -9.8360659e-05
0.0074294643 0.00056249998 -0.0065081967
0.0075696427 0.0043593752 -0.0051147542
-0.0063080355 -0.00098437502 -9.8360659e-05
0.0078499997 0.003234375 -0.0052540982
-0.0011214286 -0.0044999998 -0.0027459017
-0.00014017857 -0.0014062501 -0.012360656
0.0054669641 -0.0044999998 -0.0087377047
0.0043455358 0.0044999998 -0.00065573771
-0.0050464286 0.0044999998 -0.0065081967
-0.0036446429 0.0044999998 -0.0045573772
0.0077098212 -0.0014062501 -0.0035819672
-0.0077098212 0.00042187501 -0.0055327867
-0.0049062502 -0.0016875 -9.8360659e-05
-0.0078499997 -0.001828125 -0.0052540982
0.0018223214 -0.0044999998 -0.0053934427
0.0053267856 -0.0016875 -9.8360659e-05
-0.0074294643 0.0028125001 -0.0044180327
0.0077098212 0.001265625 -0.0091557382
-0.0077098212 -0.0028125001 -0.0044180327
0.00014017857 0.0044999998 -0.0024672132
-0.0077098212 0.00042187501 -0.002885246
-0.0036446429 0.00070312503 0.0036639345
0.00014017857 -0.0044999998 -0.0016311476
-0.0039249999 -0.00309375 -9.8360659e-05
-0.006167857 0.0043593752 -0.0038606557
-0.0077098212 0.00042187501 -0.0060901637
-0.0077098212 0.001125 -0.00023770492
-0.0074294643 0.00309375 -0.0020491802
0.0036446429 -0.0044999998 -0.0019098361
-0.00098124996 -0.0044999998 -0.0052540982
-0.0063080355 0.0035156249 -9.8360659e-05
-0.0063080355 0.0039375001 -0.0092950817
0.0011214286 0.001546875 -9.8360659e-05
0.0044857142 -0.0044999998 -0.010409836
-0.0068687499 0.0043593752 -0.0058114752
0.0070089283 -0.001828125 -0.012221311
0.0058875 -0.0039375001 -0.00023770492
-0.0072892858 -0.0042187502 -0.0079016397
-0.0067285714 -0.0043593752 -0.012221311
0.0074294643 0.0044999998 -0.0049754097
0.0078499997 0.0026718751 -0.0019098361
-0.0035044642 0.00084375002 0.0026885245
0.0077098212 0.0042187502 -0.0060901637
-0.0070089283 -0.0043593752 -0.01054918
-0.00042053571 -0.00365625 -0.012221311
0.0028035713 0.0044999998 -0.00023770492
0.0078499997 -0.0042187502 -0.00093442621
0.0018223214 0.0016875 -9.8360659e-05
-0.0067285714 -0.0043593752 -0.0094344262
-0.0035044642 0.00014062499 0.0022704918
0.0021026786 0.0028125001 -0.011245902
-0.0054669641 -0.0014062501 -9.8360659e-05
-0.0051866071 0.0044999998 -0.0023278689
0.0075696427 0.0039375001 -0.0088770492
0.0078499997 -0.00042187501 -0.00023770492
-0.0058875 0.0044999998 -0.0045573772
0.0047660712 -0.0044999998 -0.011106557
-0.0050464286 0.00070312503 -9.8360659e-05
0.0030839285 -0.00042187501 -0.012360656
-0.0071491068 -0.0014062501 -0.010827869
-0.0053267856 -0.0044999998 -0.0049754097
0.00098124996 0.0039375001 -0.0084590167
-0.0016821428 -0.0044999998 -0.0037213115
-0.0022428571 0.0044999998 -0.0074836067
-0.0075696427 -0.00365625 -0.0063688527
-0.0077098212 0.00070312503 -0.0059508197
-0.0077098212 -0.0028125001 -0.0072049182
0.0078499997 0.002390625 -0.0033032787
0.00084107142 -0.0044999998 -0.003442623
0.0060276785 -0.0044999998 -0.0012131147
0.0015419642 0.00253125 -9.8360659e-05
-0.0075696427 -0.0033750001 -0.0060901637
0.0037848214 -0.0044999998 -0.0037213115
-0.0035044642 -0.0044999998 -0.010688525
-0.0042053573 -0.00084375002 -0.012360656
0.0028035713 -0.00253125 -0.012221311
-0.00042053571 0.0044999998 -0.0076229507
0.0071491068 -0.001828125 -0.012221311
0.00014017857 -0.0044999998 -0.0046967212
-0.0054669641 -0.0044999998 -0.0083196722
-0.0058875 0.00014062499 -9.8360659e-05
-0.0028035713 -0.00253125 -9.8360659e-05
0.0018223214 -0.0044999998 -0.0098524587
0.0060276785 -0.0029531249 -0.012360656
0.0026633928 0.0044999998 -0.003442623
0.0042053573 0.002390625 -0.012221311
-0.0074294643 -0.00365625 -0.001352459
-0.0028035713 0.003234375 -0.0099918032
0.0019624999 0.00014062499 -0.012360656
0.0078499997 0.001828125 -0.0044180327
-0.0047660712 -0.0044999998 -0.0058114752
0.0014017856 0.0044999998 -0.0014918033
-0.0056071426 -0.0044999998 -0.011942623
0.0046258927 0.0044999998 -0.0041393442
-0.00056071428 -0.0044999998 -0.0095737707
0.0053267856 0.00309375 -9.8360659e-05
0.0033642857 -0.0044999998 -0.0051147542
-0.0014017856 -0.00070312503 -0.012360656
-0.0016821428 0.0016875 -0.012360656
0.0078499997 -0.0035156249 -0.0012131147
0.0018223214 -0.0044999998 -0.011385246
0.00014017857 0.0044999998 -0.0045573772
0.0075696427 0.001546875 -0.0045573772
0.0023830356 0.00084375002 -0.012360656
-0.0012616072 0.0022499999 -9.8360659e-05
0.0077098212 -0.001125 -0.0044180327
0.0078499997 -0.0021093751 -0.011942623
0.00070089282 -0.0026718751 -9.8360659e-05
0.0050464286 -0.0044999998 -0.0052540982
0.0015419642 -0.0039375001 -0.00023770492
0.0078499997 -0.003796875 -0.0099918032
-0.00098124996 -0.0028125001 -9.8360659e-05
0.0068687499 0.0026718751 -9.8360659e-05
0.0071491068 0.0044999998 -0.0074836067
0.0030839285 0.00365625 -9.8360659e-05
0.0011214286 -0.0044999998 -0.010409836
-0.0039249999 -0.0044999998 -0.0044180327
-0.0026633928 0.001125 -9.8360659e-05
0.0077098212 0.0040781251 -0.0048360657
-0.0043455358 -0.0044999998 -0.0038606557
-0.0070089283 0.001125 -0.0099918032
0.0021026786 0.0044999998 -0.00023770492
0.0021026786 -0.0044999998 -0.0063688527
-0.0051866071 -0.0044999998 -0.010967213
0.0057473215 -0.0044999998 -0.0059508197
0.00084107142 0 -9.8360659e-05
0.0044857142 0.00070312503 0.0028278688
-0.00028035714 -0.0044999998 -0.0026065574
-0.0033642857 0.0044999998 -0.0031639345
0.0071491068 0.003796875 -0.0083196722
0.0026633928 0.00253125 -0.012221311
-0.0063080355 -0.001546875 -0.012221311
-0.0071491068 0.0042187502 -0.002885246
0.00014017857 0.0044999998 -0.0055327867
-0.0060276785 -0.00056249998 -0.012221311
0.0056071426 0.0044999998 -0.0080409832
-0.0037848214 -0.0044999998 -0.0077622952
-0.0075696427 0.0026718751 -0.0076229507
-0.0078499997 -0.001265625 -0.0048360657
0.0011214286 0.0044999998 -0.00079508196
0.0044857142 -0.0044999998 -0.0038606557
0.0030839285 -0.00014062499 -0.012360656
-0.0077098212 0.00014062499 -0.0017704918
0.0075696427 -0.00084375002 -0.0042786887
-0.0072892858 -0.00014062499 -0.0094344262
-0.0044857142 0.003796875 -0.0091557382
0.0043455358 -0.0044999998 -0.0097131152
0.0067285714 0.0044999998 -0.0042786887
-0.0030839285 -0.0026718751 -0.012360656
-0.0016821428 0.0044999998 -0.0080409832
0.0042053573 0.0026718751 -9.8360659e-05
0.0028035713 0.0035156249 -0.0099918032
0.00028035714 -0.0044999998 -0.010827869
-0.0068687499 0.00098437502 -0.012221311
-0.00294375 -0.0035156249 -0.012360656
0.0040651783 -0.0044999998 -0.011663934
0.00070089282 -0.0028125001 -0.012360656
-0.0023830356 0.0044999998 -0.0010737705
-0.0070089283 0.0014062501 -0.0099918032
-0.0015419642 -0.002390625 -9.8360659e-05
0.0042053573 -0.0044999998 -0.0079016397
-0.00084107142 -0.0044999998 -0.0021885247
0.0014017856 -0.0044999998 -0.0027459017
-0.0044857142 0.0044999998 -0.0046967212
-0.00070089282 0.0029531249 -0.0099918032
0.006167857 0.002390625 -9.8360659e-05
0.0063080355 0.0044999998 -0.0065081967
0.0072892858 -0.0043593752 -0.00079508196
0.0044857142 0.003234375 -9.8360659e-05
-0.0042053573 -0.0044999998 -0.0066475412
0.0046258927 -0.00056249998 -9.8360659e-05
0.0040651783 0.0044999998 -0.0051147542
0.0056071426 -0.003234375 -9.8360659e-05
-0.0051866071 0.0044999998 -0.0073442622
0.0047660712 -0.0044999998 -0.003442623
0.0040651783 -0.0044999998 -0.001352459
0.0025232143 -0.0044999998 -0.011663934
0.0051866071 0.0044999998 -0.0076229507
-0.0037848214 0.0043593752 -0.0081803277
-0.00070089282 0.0044999998 -0.0021885247
-0.0014017856 0.0044999998 -0.0076229507
0.00294375 0.0028125001 -0.011803279
-0.0012616072 -0.001265625 -0.012360656
0.0075696427 0.001125 -0.0019098361
-0.0070089283 0.0021093751 -0.012081968
0.0051866071 0.0016875 -0.012360656
-0.0030839285 0.00056249998 0.00018032787
0.0051866071 -0.0044999998 -0.011245902
-0.00294375 0.0044999998 -0.00093442621
-0.0075696427 -0.00309375 -0.00051639345
-0.0033642857 -0.0044999998 -0.0080409832
0.0057473215 -0.0044999998 -0.010131148
-0.0065883929 0.002390625 -9.8360659e-05
0.0078499997 -0.003234375 -0.011663934
0.0016821428 0.0035156249 -0.0094344262
-0.0039249999 0.002390625 -0.012221311
0.0071491068 -0.0021093751 -9.8360659e-05
-0.0021026786 -0.0044999998 -0.0062295082
0.0032241072 0.0029531249 -9.8360659e-05
-0.0074294643 0.003234375 -0.0019098361
0.0077098212 -0.001546875 -0.003442623
0 0.0029531249 -0.010131148
0.00294375 0.00070312503 -0.012360656
0.0011214286 -0.0029531249 -9.8360659e-05
-0.0064482144 -0.0043593752 -0.0083196722
0.0071491068 0.0026718751 -0.01054918
-0.0064482144 0.00084375002 -0.012221311
-0.0023830356 0.00253125 -0.011663934
-0.0077098212 -0.0026718751 -0.0035819672
0.0051866071 -0.0044999998 -0.00079508196
0.0078499997 -0.002390625 -0.01152459
0.0012616072 0.00056249998 -9.8360659e-05
0.0078499997 0.002390625 -0.0083196722
-0.0021026786 -0.0044999998 -0.0059508197
-0.00294375 0.00028124999 0.0014344262
-0.0044857142 0.00365625 -9.8360659e-05
0.0011214286 0.00253125 -0.011942623
-0.0071491068 -0.003234375 -0.010688525
0.0068687499 -0.0033750001 -0.012221311
0.0078499997 -0.0028125001 -0.00093442621
-0.0077098212 0.001265625 -0.0020491802
-0.0074294643 0.0026718751 -0.0056721312
0.0077098212 -0.0014062501 -0.0030245902
0.0014017856 -0.0044999998 -0.0019098361
0.0074294643 0.00014062499 -0.0017704918
-0.0074294643 -0.003796875 -0.0048360657
0.00098124996 0.00365625 -0.0087377047
-0.0032241072 -0.002390625 -0.012360656
-0.0015419642 -0.00253125 -9.8360659e-05
0.006167857 0.0044999998 -0.0046967212
0.0014017856 -0.002390625 -0.012360656
0.0025232143 0.0033750001 -0.010409836
-0.0070089283 -0.0043593752 -0.01152459
0.0044857142 0.002390625 -0.012221311
-0.0033642857 0.00014062499 0.0035245901
0.0046258927 0.0044999998 -0.0014918033
-0.0074294643 -0.003796875 -0.0085983602
-0.0015419642 -0.0043593752 -0.00023770492
0.0057473215 0.002390625 -9.8360659e-05
0.0043455358 -0.001265625 -9.8360659e-05
0.0078499997 -0.0029531249 -0.0040000002
-0.0042053573 0.00042187501 -0.012360656
-0.0033642857 0.00014062499 0.0022704918
0.0065883929 0.0042187502 -0.0090163937
-0.0077098212 -0.00309375 -0.0048360657
-0.0021026786 0.0044999998 -0.0059508197
0.006167857 -0.0044999998 -0.0088770492
0.00294375 -0.0044999998 -0.010270492
0.0056071426 -0.0044999998 -0.0020491802
-0.0072892858 0.0039375001 -0.00037704917
-0.00014017857 -0.0044999998 -0.0092950817
-0.0057473215 0.0040781251 -0.0090163937
0.0019624999 0.003796875 -0.0085983602
-0.0071491068 -0.001828125 -0.012221311
0.00014017857 0.0014062501 -0.012360656
0.0078499997 -0.00309375 -0.0044180327
-0.0077098212 0.001265625 -0.0076229507
-0.0065883929 -0.00098437502 -0.012221311
0.0074294643 0.0044999998 -0.0042786887
0.00084107142 -0.0044999998 -0.010409836
-0.0030839285 0.00056249998 0.0014344262
0.0042053573 -0.0040781251 -0.00023770492
-0.0070089283 0.00056249998 -0.0097131152
-0.0040651783 0.0044999998 -0.0037213115
-0.0021026786 -0.0044999998 -0.0052540982
0.0018223214 0.0044999998 -0.0017704918
0.0075696427 0.00084375002 -0.0010737705
0.0063080355 -0.0040781251 -0.00023770492
-0.0050464286 0.0044999998 -0.0073442622
-0.0077098212 -0.00098437502 -0.002885246
0.0074294643 -0.0043593752 -0.011803279
0.0077098212 -0.001265625 -0.011385246
-0.0067285714 -0.0043593752 -0.0069262297
-0.0028035713 -0.0026718751 -9.8360659e-05
-0.0070089283 0.0043593752 -0.0055327867
0.0075696427 0.00084375002 -0.0077622952
0.006167857 -0.0044999998 -0.0077622952
-0.0064482144 -0.0043593752 -0.011106557
0.0012616072 0.0035156249 -9.8360659e-05
-0.0043455358 0.00365625 -9.8360659e-05
-0.00028035714 -0.0044999998 -0.0060901637
-0.0044857142 -0.0044999998 -0.0037213115
-0.0021026786 -0.0044999998 -0.0017704918
-0.0070089283 -0.0044999998 -0.0016311476
0.0025232143 -0.0044999998 -0.0090163937
0.0036446429 -0.0044999998 -0.0026065574
0.0057473215 0.0044999998 -9.8360659e-05
-0.0047660712 0.00309375 -0.011245902
0.0075696427 -0.0016875 -0.012221311
0.00294375 -0.001546875 -0.012360656
0.0015419642 0.0044999998 -0.0060901637
0.00294375 -0.0044999998 -0.0026065574
-0.0077098212 0.00014062499 -0.0060901637
0.0075696427 0.0033750001 -0.010131148
-0.0077098212 0.00070312503 -0.003442623
-0.0067285714 0.0043593752 -0.0072049182
-0.0051866071 0.0044999998 -0.0027459017
0.00294375 -0.0016875 -0.012360656
0.0054669641 0.0033750001 -0.010967213
0.0072892858 0.00196875 -0.012081968
-0.0077098212 -0.0014062501 -0.0092950817
-0.0037848214 -0.0044999998 -0.0021885247
0.0078499997 0.00196875 -0.0056721312
-0.0018223214 0.002390625 -0.011663934
-0.0042053573 -0.0044999998 -0.0040000002
-0.00056071428 0.0044999998 -0.0074836067
0.0070089283 0.0044999998 -0.0021885247
0.0078499997 -0.0026718751 -0.00023770492
-0.0056071426 0.0044999998 -0.0033032787
-0.0014017856 0.00098437502 -0.012360656
-0.00014017857 -0.0044999998 -0.0060901637
0.0077098212 -0.0042187502 -0.0070655737
-0.0057473215 -0.0033750001 -9.8360659e-05
-0.0054669641 0.0042187502 -0.0087377047
0.0040651783 -0.0044999998 -0.0016311476
0.0077098212 0.003234375 -0.0092950817
-0.0072892858 0.0035156249 -0.0058114752
0.0075696427 -0.00084375002 -0.0049754097
0.0078499997 0.00014062499 -0.00037704917
0.0050464286 -0.001828125 -0.012360656
0.0077098212 -0.001546875 -0.011106557
-0.0028035713 -0.0044999998 -0.0073442622
0.0015419642 0.00056249998 -0.012360656
-0.0058875 -0.00365625 -0.012221311
-0.0023830356 0.0039375001 -0.0084590167
0.0043455358 -0.0044999998 -0.0069262297
-0.0033642857 -0.003796875 -0.012221311
0.0077098212 0.002390625 -0.010827869
0.0078499997 -0.0028125001 -0.012081968
-0.00056071428 0.00309375 -0.0095737707
0.0032241072 0.0044999998 -0.00037704917
0.0060276785 -0.0026718751 -9.8360659e-05
-0.0011214286 0.0029531249 -0.0098524587
-0.0049062502 -0.0044999998 -0.0053934427
0.0025232143 -0.0044999998 -0.0042786887
0.0033642857 -0.0044999998 -0.0099918032
-0.0068687499 0.0016875 -0.010967213
0.00084107142 -0.0044999998 -0.0065081967
0.0067285714 -0.0044999998 -0.011245902
0.0026633928 -0.00253125 -9.8360659e-05
0.006167857 -0.00056249998 -0.012360656
0.0057473215 0.00098437502 -9.8360659e-05
0.0077098212 0.00098437502 -0.011663934
-0.0015419642 -0.0044999998 -0.0012131147
-0.0051866071 -0.0044999998 -0.0055327867
0.0074294643 0.00042187501 -0.0069262297
0.0074294643 0.00196875 -0.012221311
0.0054669641 -0.0044999998 -0.0019098361
0.0064482144 -0.0044999998 -0.0067868852
-0.00056071428 0.00070312503 -9.8360659e-05
0.0063080355 0.0022499999 -9.8360659e-05
-0.0070089283 -0.00098437502 -0.011245902
0.0051866071 -0.0028125001 -9.8360659e-05
0.0028035713 0.001125 -0.012360656
0.0042053573 0.0044999998 -0.0074836067
0.0012616072 0.0044999998 -0.003442623
-0.006167857 -0.0026718751 -0.012221311
-0.0014017856 0.001265625 -0.012360656
-0.0033642857 -0.0044999998 -0.0037213115
0.0037848214 0.00028124999 0.0012950819
0.0071491068 -0.0043593752 -0.01152459
-0.0071491068 0.0040781251 -0.00093442621
-0.00098124996 -0.0043593752 -0.00023770492
-0.00098124996 0.0043593752 -9.8360659e-05
0.0072892858 -0.0043593752 -0.0076229507
-0.0023830356 0.0044999998 -9.8360659e-05
-0.0077098212 0.001828125 -0.0062295082
0.0072892858 -0.00042187501 -9.8360659e-05
0.00084107142 0.002390625 -0.012081968
0.0015419642 -0.0044999998 -0.012081968
-0.0074294643 -0.00365625 -0.0073442622
-0.0044857142 0.0044999998 -0.00037704917
0.0021026786 0.0039375001 -0.0084590167
-0.0067285714 -0.0043593752 -0.0024672132
-0.00294375 0.00028124999 0.0032459015
-0.0058875 -0.0044999998 -0.0085983602
0.0058875 0.0044999998 -0.0038606557
0.0014017856 -0.001265625 -0.012360656
0.0074294643 0.0022499999 -9.8360659e-05
0.0075696427 0.001125 -0.0053934427
-0.0019624999 -0.0044999998 -0.0059508197
-0.0039249999 0.0044999998 -0.0040000002
0.0078499997 0.0029531249 -0.0069262297
-0.0021026786 0.00365625 -9.8360659e-05
0.006167857 -0.0044999998 -0.001352459
-0.0042053573 -0.001125 -9.8360659e-05
-0.0033642857 0.0044999998 -0.0016311476
0.0077098212 0.0039375001 -0.0027459017
-0.0077098212 0.00070312503 -0.0081803277
-0.0042053573 0.0044999998 -0.00065573771
-0.0071491068 -0.0042187502 -0.0099918032
0.0043455358 -0.0044999998 -0.0030245902
-0.0053267856 -0.0044999998 -0.0062295082
-0.0074294643 -0.00014062499 -9.8360659e-05
0.0075696427 -0.00014062499 -0.0021885247
-0.00056071428 0.0044999998 -0.0033032787
-0.0065883929 0.0039375001 -0.0095737707
-0.0075696427 -0.0026718751 -0.0010737705
0.0019624999 -0.0044999998 -0.0058114752
0.0078499997 0.0022499999 -0.0074836067
0.0058875 0.00365625 -0.010131148
-0.0068687499 -0.0044999998 -0.0021885247
0.00070089282 -0.0044999998 -0.0094344262
-0.00042053571 -0.0035156249 -0.012221311
-0.0063080355 0.00253125 -0.012221311
-0.0074294643 0.00014062499 -0.0094344262
0.00098124996 0.0044999998 -0.0019098361
0.0057473215 0.00042187501 -0.012360656
0.0040651783 -0.0044999998 -0.0012131147
-0.0022428571 -0.001828125 -9.8360659e-05
0.0075696427 -0.00070312503 -0.0024672132
-0.00084107142 0.0044999998 -0.0045573772
0.0016821428 -0.0029531249 -0.012221311
-0.0058875 -0.0044999998 -0.0088770492
0.0077098212 -0.0014062501 -9.8360659e-05
-0.0077098212 0.00098437502 -0.0070655737
-0.0036446429 0.0044999998 -0.0056721312
-0.0077098212 0.00084375002 -0.00051639345
0.0032241072 0.001265625 -0.012360656
0.0011214286 0.0033750001 -0.0099918032
0.006167857 -0.0044999998 -0.0037213115
0.0030839285 0.0044999998 -0.0012131147
0.0078499997 0 -0.011663934
0.0043455358 -0.0044999998 -0.0095737707
-0.0071491068 -0.00253125 -0.010409836
0.0026633928 -0.0044999998 -0.0056721312
0.0050464286 -0.0016875 -9.8360659e-05
-0.0019624999 -0.0044999998 -0.0024672132
-0.0025232143 0.0044999998 -0.0065081967
-0.0043455358 0.00028124999 -9.8360659e-05
0.0032241072 -0.0044999998 -0.0076229507
0.0075696427 0.0014062501 -0.0049754097
0.0077098212 -0.0016875 -0.0051147542
-0.0056071426 -0.0044999998 -0.012081968
0.0077098212 -0.00098437502 -0.0065081967
0.0078499997 -0.0022499999 -0.0026065574
-0.0019624999 0.0044999998 -0.0014918033
-0.00014017857 -0.001546875 -0.012360656
0.0070089283 0.0033750001 -0.01054918
-0.0037848214 0.00098437502 -9.8360659e-05
0.0078499997 0.00309375 -0.0040000002
-0.0070089283 -0.001125 -9.8360659e-05
-0.0046258927 0.0044999998 -0.0019098361
-0.0070089283 -0.0043593752 -0.0058114752
-0.0077098212 0.001265625 -0.0027459017
0.0049062502 0.0044999998 -0.0038606557
0.0056071426 -0.0044999998 -0.00051639345
0.0018223214 0.0044999998 -0.00037704917
-0.0075696427 0.002390625 -0.0069262297
0.0050464286 -0.0029531249 -9.8360659e-05
-0.0036446429 0.0044999998 -0.0010737705
-0.0032241072 -0.0014062501 -9.8360659e-05
-0.0015419642 -0.0044999998 -0.00093442621
-0.00084107142 -0.0044999998 -0.00065573771
0.0060276785 -0.0044999998 -0.0040000002
0.00014017857 -0.0044999998 -0.01054918
0.0033642857 -0.0044999998 -0.011245902
-0.0070089283 -0.00084375002 -0.011245902
0.0068687499 -0.0026718751 -0.00023770492
-0.0074294643 0.001125 -0.0094344262
-0.0025232143 0.002390625 -0.012221311
-0.0065883929 0.0043593752 -0.0012131147
0.0018223214 -0.003796875 -0.012221311
0.0078499997 0.001828125 -0.011106557
0.00056071428 -0.0021093751 -0.012360656
0.0049062502 0.0035156249 -9.8360659e-05
-0.0064482144 -0.00098437502 -0.012221311
-0.0077098212 -0.0022499999 -0.00065573771
-0.0077098212 0.00028124999 -0.0056721312
0.0078499997 -0.0028125001 -0.0056721312
0.00042053571 0.0026718751 -9.8360659e-05
-0.0037848214 -0.0044999998 -0.0088770492
0.00014017857 -0.0026718751 -9.8360659e-05
0.0028035713 0.0044999998 -0.0024672132
0.0035044642 -0.0035156249 -0.012221311
-0.0026633928 0.00042187501 -9.8360659e-05
0 0.00014062499 -9.8360659e-05
0.0033642857 -0.0044999998 -0.0017704918
-0.0044857142 0.00309375 -0.011106557
-0.0032241072 -0.0044999998 -0.0098524587
-0.0046258927 -0.0028125001 -9.8360659e-05
0.0036446429 -0.001546875 -0.012360656
0.0037848214 -0.0044999998 -0.01054918
-0.0074294643 0.003234375 -0.00065573771
0.0072892858 0.001828125 -0.010827869
0.0071491068 0.001828125 -9.8360659e-05
-0.0063080355 0.0014062501 -9.8360659e-05
-0.0077098212 -0.0026718751 -0.0081803277
-0.0036446429 0.001125 -0.012221311
-0.006167857 -0.0043593752 -0.0055327867
-0.0074294643 0.0033750001 -0.0067868852
0.0078499997 0.001828125 -0.0090163937
0.0049062502 -0.0044999998 -0.0017704918
-0.0077098212 -0.00309375 -0.0091557382
0.0050464286 0.003796875 -0.010270492
0.0039249999 -0.00070312503 -9.8360659e-05
0.0050464286 -0.0044999998 -0.0048360657
0.0078499997 0.002390625 -0.0081803277
-0.00014017857 -0.0035156249 -0.012221311
-0.0075696427 -0.00056249998 -0.0094344262
-0.0054669641 0.0044999998 -0.0044180327
0.0043455358 0.00253125 -9.8360659e-05
-0.0077098212 0.001265625 -0.0035819672
-0.006167857 0.003796875 -0.0097131152
0.0074294643 -0.001546875 -0.012221311
0.0078499997 0.00196875 -0.0040000002
-0.0022428571 -0.0044999998 -0.0040000002
-0.0023830356 0.0033750001 -0.0092950817
0.0067285714 -0.0044999998 -0.0063688527
-0.0018223214 -0.00196875 -0.012360656
0.0043455358 -0.0028125001 -0.012221311
0.0077098212 0.00253125 -0.010270492
-0.0077098212 -0.00084375002 -0.002885246
0.0078499997 -0.003234375 -0.0074836067
0.0030839285 0.0044999998 -0.0058114752
-0.0075696427 0.0026718751 -0.0023278689
0.0044857142 0.0044999998 -0.0072049182
0.00098124996 0.00309375 -0.010270492
-0.0049062502 -0.0044999998 -0.0060901637
-0.0033642857 0.00084375002 0.0012950819
-0.0057473215 -0.0044999998 -0.010270492
-0.0053267856 -0.0044999998 -0.010688525
-0.0072892858 -0.0040781251 -0.00037704917
-0.0058875 0.00309375 -0.01152459
-0.00042053571 0.00042187501 -0.012360656
-0.0053267856 0.0033750001 -0.01054918
-0.0046258927 -0.001828125 -9.8360659e-05
-0.00014017857 0.00014062499 -0.012360656
-0.0025232143 0.0044999998 -0.0070655737
-0.0022428571 0.001125 -9.8360659e-05
0.0077098212 0.0022499999 -0.0087377047
-0.0023830356 0.0044999998 -0.0069262297
0.0033642857 0.00014062499 -0.012360656
-0.0054669641 -0.0044999998 -0.010827869
-0.0044857142 -0.00084375002 -9.8360659e-05
-0.0044857142 0.00196875 -0.012221311
0.0077098212 -0.001265625 -0.0098524587
0.0071491068 0.00042187501 -9.8360659e-05
-0.0070089283 0 -0.010131148
-0.0051866071 0.00014062499 -0.012360656
0.0056071426 0.0044999998 -0.0042786887
0.0064482144 -0.00098437502 -0.012360656
-0.0077098212 0.00098437502 -0.0023278689
0.0077098212 -0.001265625 -0.0041393442
-0.00070089282 -0.0028125001 -0.012360656
-0.0037848214 -0.0044999998 -0.0058114752
0.0046258927 0.0044999998 -0.0021885247
0.0057473215 -0.0044999998 -0.0056721312
0.0021026786 0.0026718751 -0.011663934
-0.0026633928 0.0026718751 -9.8360659e-05
-0.0040651783 -0.0044999998 -0.00065573771
0.0035044642 0.0044999998 -0.0049754097
-0.0074294643 0.00309375 -0.0077622952
-0.00294375 -0.0044999998 -0.0053934427
0.0035044642 -0.00056249998 -0.012360656
-0.0078499997 -0.00196875 -0.0070655737
-0.0026633928 -0.0044999998 -0.0065081967
-0.0015419642 -0.0035156249 -9.8360659e-05
-0.0018223214 0.0044999998 -0.0073442622
0.0043455358 -0.0044999998 -0.0065081967
0 -0.0044999998 -0.0030245902
0.0042053573 0.0044999998 -0.0059508197
0.0051866071 0.0044999998 -0.0016311476
-0.0071491068 -0.0022499999 -0.0098524587
-0.0023830356 0.00084375002 -9.8360659e-05
-0.0067285714 0.002390625 -0.010270492
0.0040651783 0.00084375002 0.00031967214
0.0078499997 -0.0022499999 -0.010409836
-0.0075696427 0.0022499999 -0.0084590167
-0.0074294643 -0.003234375 -9.8360659e-05
-0.0070089283 -0.0028125001 -9.8360659e-05
0.0012616072 0.0044999998 -0.00023770492
0.0077098212 0.0040781251 -0.0077622952
0.0053267856 0.0040781251 -0.0094344262
-0.00028035714 -0.0044999998 -0.011385246
-0.0078499997 -0.0022499999 -0.0052540982
0.0074294643 -0.0043593752 -0.0077622952
-0.0065883929 0.0033750001 -0.010131148
0.0057473215 -0.0044999998 -0.0037213115
0.0053267856 0.0044999998 -0.002885246
-0.0025232143 0.00253125 -9.8360659e-05
0.0078499997 -0.0021093751 -0.0055327867
0.0078499997 0.003234375 -0.0031639345
0.0078499997 0.001546875 -0.0044180327
0.0075696427 0.0039375001 -0.0095737707
-0.00084107142 0.002390625 -0.011245902
-0.0074294643 0.00309375 -0.0019098361
0.0058875 -0.001125 -0.012360656
-0.0012616072 -0.0044999998 -0.0083196722
0.0056071426 -0.0028125001 -9.8360659e-05
-0.0033642857 0.003796875 -0.0090163937
-0.0071491068 0.0042187502 -0.00037704917
-0.0014017856 -0.0044999998 -0.00037704917
0.0043455358 -0.0044999998 -0.011803279
0.0075696427 0.003796875 -0.0088770492
0.00042053571 0.0044999998 -0.0046967212
-0.0036446429 -0.00070312503 -0.012360656
-0.0072892858 -0.0040781251 -0.0012131147
-0.00056071428 -0.001265625 -9.8360659e-05
-0.0068687499 -0.002390625 -0.012221311
-0.0070089283 -0.00042187501 -0.011385246
-0.0051866071 -0.0044999998 -0.0081803277
0.0039249999 0.0033750001 -0.010409836
0.00014017857 -0.0016875 -0.012360656
-0.0015419642 -0.00253125 -0.012360656
0.0050464286 -0.0044999998 -0.0077622952
0.0077098212 0.0035156249 -0.0088770492
0.0074294643 0.001546875 -0.012221311
0.0033642857 -0.0022499999 -9.8360659e-05
0.0070089283 -0.00309375 -0.012221311
0 0.0044999998 -0.0010737705
-0.0074294643 0.0026718751 -0.0063688527
0.0042053573 0.00084375002 0.00087704917
-0.0026633928 -0.0044999998 -0.010688525
-0.0057473215 -0.0044999998 -0.002885246
0.0016821428 0.0044999998 -0.0076229507
-0.0028035713 0.0044999998 -0.0059508197
0.0078499997 0.00070312503 -0.011942623
0.0040651783 -0.0042187502 -0.012221311
-0.0053267856 0.0042187502 -0.0084590167
0.0023830356 -0.0044999998 -0.001352459
0.0039249999 0.0044999998 -0.0067868852
-0.0070089283 -0.00028124999 -9.8360659e-05
-0.0064482144 -0.0043593752 -0.0044180327
-0.0077098212 0.00084375002 -0.0080409832
-0.0077098212 0.00042187501 -0.00023770492
0.0044857142 0.001125 -9.8360659e-05
0.0075696427 -0.00014062499 -0.010409836
0.00098124996 0.00253125 -0.011942623
-0.0014017856 0.0044999998 -0.0062295082
-0.0025232143 -0.0044999998 -0.012081968
0.0014017856 0.0044999998 -0.0027459017
0.0065883929 -0.00253125 -0.012360656
0.00084107142 0.0044999998 -0.00093442621
-0.00014017857 -0.0044999998 -0.0070655737
0.0044857142 -0.0044999998 -0.010270492
0.0033642857 0.003796875 -0.0092950817
-0.00014017857 -0.0044999998 -0.0037213115
0.0015419642 0.0044999998 -0.0056721312
-0.0078499997 -0.0016875 -0.0056721312
-0.0067285714 -0.003234375 -9.8360659e-05
-0.0030839285 0.0039375001 -0.0085983602
0.0057473215 -0.0044999998 -0.0076229507
0.0078499997 -0.00253125 -0.0038606557
-0.0072892858 -0.0040781251 -0.0010737705
-0.0015419642 0.0044999998 -0.0053934427
-0.0078499997 -0.001546875 -0.0087377047
-0.0077098212 0.001265625 -0.003442623
0.0040651783 -0.0042187502 -0.00023770492
0.0018223214 -0.00253125 -0.012360656
