# .PCD v0.7 - Point Cloud Data file format
VERSION 0.7
FIELDS x y z
SIZE 4 4 4
TYPE F F F
COUNT 1 1 1
WIDTH 1204
HEIGHT 1
VIEWPOINT 0 0 0 1 0 0 0
POINTS 1204
DATA ascii
0.0067240195 -0.0010796611 -0.00019999997
0.011919853 -0.0010796611 -0.00019999997
-0.00091691175 -0.00046271188 -0.00019999997
-0.014976226 0.0020050847 -0.0072916667
0.0042789215 -0.003238983 -0.00019999997
0.028729903 -0.0078661013 0.002575
0.0045845588 0.0078661013 -0.0029749998
0.02017206 0.0091000004 -0.0029749998
-0.008557843 -0.0066322032 0.0019583334
-0.027201716 -0.0091000004 -0.0066749998
0.006112745 0.003238983 -0.0072916667
0.016198775 -0.003238983 -0.00019999997
0.011614216 0.00015423729 0.00072500005
-0.0064183823 0.0069406778 0.0031916667
-0.0088634808 0.0029305085 -0.0072916667
0.008557843 0.00015423729 0.00072500005
0.010697304 0.0053983051 -0.00575
0.024756618 -0.0081745759 0.00041666671
0.031175001 0.0010796611 -0.0035916667
-0.014976226 0.0013881356 0.0031916667
0.0015281863 0.0091000004 -0.0023583332
0.028729903 0.00046271188 0.002575
-0.0076409313 0.0050898306 -0.0051333332
-0.0094747553 0.0050898306 -0.0054416666
-0.019255146 -0.0016966101 -0.0069833333
-0.029035538 0.0091000004 -0.00205
-0.029341176 -0.0087915258 -0.0066749998
-0.025367891 -0.00046271188 -0.00019999997
-0.0006112745 0.00015423729 0.0019583334
0.019560784 0.0081745759 0.0031916667
0.0079465685 0.0075576273 0.0031916667
-0.014059314 0.0026220339 -0.0072916667
-0.025367891 0.00015423729 0.0019583334
0.0067240195 0.0091000004 0.00041666671
0.008557843 0.0075576273 -0.0029749998
-0.021700244 0.0075576273 0.0031916667
0.018643873 -0.0075576273 0.00041666671
-0.0082522063 -0.0010796611 -0.0072916667
-0.0088634808 -0.00015423729 -0.00019999997
0.021088971 0.0013881356 -0.0063666664
0.030563725 -0.0069406778 -0.0045166668
-0.010697304 -0.0078661013 -0.0042083333
-0.02017206 -0.0087915258 -0.0029749998
-0.02445098 -0.0010796611 -0.00019999997
0.023839707 -0.0026220339 -0.00019999997
-0.023534069 -0.0084830504 0.00041666671
-0.021700244 0.0072491528 -0.0054416666
0.0058071078 0.0060152542 0.0031916667
0.024756618 -0.0016966101 -0.0069833333
0.018338235 0.0044728816 0.0031916667
-0.027812989 -0.0050898306 -0.00019999997
-0.030563725 -0.0063237287 -0.001125
0.02017206 -0.0026220339 -0.0069833333
0.021700244 0.0038559323 0.0031916667
-0.01008603 0.0091000004 -0.00205
0.025367891 -0.0066322032 -0.0066749998
-0.0088634808 0.0050898306 0.0031916667
-0.0045845588 0.0026220339 0.0031916667
-0.016504413 -0.0078661013 0.00165
-0.028729903 -0.0053983051 -0.00019999997
-0.030563725 -0.0010796611 -0.0051333332
0.028424265 -0.0060152542 -0.0066749998
0.0067240195 -0.0069406778 -0.0066749998
0.030869363 0.0047813561 -0.00050833332
0.0155875 -0.0023135594 -0.00019999997
-0.011308579 -0.0091000004 0.0013416667
0.0015281863 -0.0026220339 -0.00019999997
-0.020477695 0.0078661013 -0.0029749998
-0.0055014705 -0.0069406778 0.0022666666
-0.015281863 0.0044728816 0.0031916667
0.002445098 0.0091000004 -0.0023583332
-0.003667647 0.0038559323 -0.0066749998
-0.011919853 -0.0081745759 0.0028833332
-0.030869363 0.0038559323 -0.0026666666
-0.020477695 0.0091000004 0.0028833332
0.030869363 -0.0035474575 -0.00575
0.006112745 -0.00015423729 -0.0069833333
0.016810048 0.003238983 -0.0072916667
-0.0027507353 0.0013881356 -0.0063666664
-0.004890196 0.0084830504 0.0031916667
-0.008557843 -0.0072491528 -0.0069833333
-0.028424265 0.0084830504 -0.0045166668
0.023534069 -0.0066322032 0.0022666666
0.030563725 0.0060152542 -0.0029749998
0.018032597 0.0066322032 0.0031916667
-0.019560784 -0.0066322032 0.00165
0.02231152 0.0072491528 -0.0060583334
-0.013753677 0.0035474575 -0.0072916667
-0.0079465685 -0.0078661013 -0.0063666664
0.0015281863 -0.0066322032 -0.00050833332
0.012531128 -0.0072491528 0.0022666666
0.030869363 -0.0057067797 -0.00050833332
-0.018643873 0.0029305085 0.0031916667
-0.018032597 -0.0020050847 -0.0069833333
-0.017115686 -0.0084830504 -0.0042083333
0.026896078 0.0091000004 0.0028833332
-0.021700244 0.0069406778 -0.0063666664
0.014059314 0.0091000004 0.00010833336
-0.025673529 -0.0020050847 -0.0069833333
0.019866422 0.0091000004 -0.00205
0.010697304 -0.0029305085 -0.00019999997
-0.020477695 0.0020050847 0.0031916667
0.014059314 -0.0078661013 -0.0060583334
0.029341176 0.0010796611 0.0028833332
-0.010391667 -0.0081745759 -0.00050833332
-0.018643873 0.0091000004 0.0010333334
-0.022617158 0.0050898306 -0.0072916667
0.004890196 0.0091000004 -0.0014333333
0.027507354 0.0029305085 -0.0072916667
-0.0021394608 0.0091000004 -0.0026666666
0.018032597 -0.0072491528 0.0010333334
-0.028729903 -0.0047813561 -0.0066749998
0.013142402 0.0078661013 -0.0029749998
0.01222549 -0.0060152542 -0.00019999997
0.003667647 -0.0069406778 0.002575
-0.00091691175 0.0010796611 0.0028833332
-0.0055014705 0.0081745759 -0.0072916667
0.02231152 -0.0087915258 -0.00019999997
-0.028424265 0.0044728816 0.0031916667
-0.030563725 0.0066322032 0.00041666671
0.019560784 -0.0020050847 -0.0069833333
0.030563725 -0.0066322032 -0.0026666666
-0.021088971 0.0091000004 0.0013416667
-0.02445098 -0.00077118643 -0.0069833333
0.030258087 0.0035474575 -0.0066749998
-0.004890196 -0.0087915258 -0.0066749998
-0.018949511 -0.0016966101 -0.0069833333
-0.027812989 0.0029305085 -0.0072916667
0.024756618 0.0091000004 -0.00019999997
0.018338235 -0.0069406778 0.0013416667
-0.01222549 0.0020050847 0.0031916667
0 -0.00015423729 -0.00019999997
0.029035538 -0.0013881356 -0.0066749998
0.017726962 -0.00015423729 -0.0063666664
-0.002445098 -0.0069406778 0.0019583334
-0.02231152 -0.0091000004 -0.00050833332
0.024756618 0.0078661013 -0.0054416666
0.02445098 -0.0038559323 -0.0069833333
-0.030869363 0.0010796611 -0.0032833333
0.016198775 0.0091000004 0.00072500005
0.0045845588 -0.0029305085 -0.00019999997
-0.0097803921 0.0084830504 -0.0029749998
0.023839707 -0.0091000004 -0.0038999999
-0.022922793 0.0057067797 -0.0072916667
0.023839707 -0.0091000004 -0.0045166668
0.003667647 0.0041644066 -0.0069833333
-0.020477695 0.0029305085 0.0031916667
-0.02231152 0.0084830504 -0.0029749998
0.018643873 0.0020050847 0.0031916667
0.030869363 -0.0038559323 -0.0038999999
0.001222549 -0.0063237287 -0.00081666664
-0.003667647 -0.0075576273 0.0031916667
0.027812989 -0.0091000004 -0.0014333333
0.007335294 -0.0026220339 -0.00019999997
0.0079465685 0.0057067797 -0.0035916667
0.021088971 -0.0038559323 -0.0069833333
0.021088971 0.00046271188 -0.00575
-0.013753677 -0.0084830504 -0.0060583334
-0.025367891 0.0038559323 -0.0072916667
-0.023839707 0.0020050847 0.0031916667
0.029646814 0.0013881356 0.0031916667
-0.030563725 -0.0081745759 -0.0023583332
0.0051958333 -0.00077118643 -0.0072916667
0.0006112745 -0.0013881356 -0.00019999997
0.015893137 -0.00015423729 -0.00019999997
-0.0055014705 0.0057067797 -0.0032833333
-0.016810048 0.0075576273 -0.0029749998
-0.011308579 -0.0010796611 -0.0072916667
0.0006112745 0.00015423729 -0.00575
-0.028729903 0.0060152542 -0.0072916667
0.015893137 0.0072491528 -0.0029749998
-0.0015281863 0.0091000004 -0.00205
0.028729903 -0.0038559323 -0.00019999997
0.017115686 0.0047813561 0.0031916667
-0.016810048 0.0013881356 -0.0069833333
-0.010697304 0.0053983051 -0.00575
-0.004890196 -0.0087915258 -0.00019999997
-0.01008603 -0.0066322032 0.0010333334
-0.016504413 -0.0091000004 -0.00019999997
-0.025367891 -0.0010796611 -0.00019999997
-0.010697304 -0.0072491528 -0.0026666666
0.018643873 -0.0078661013 -0.0066749998
0.020477695 0.00015423729 0.00072500005
-0.012531128 -0.0087915258 0.00165
-0.0091691175 0.0091000004 -0.00205
0.030563725 0.0026220339 0.0028833332
-0.018338235 -0.0047813561 -0.0069833333
-0.0055014705 -0.0087915258 0.0028833332
0.025673529 -0.0060152542 -0.0066749998
0.006112745 -0.0087915258 -0.00050833332
0.029341176 -0.0091000004 -0.0045166668
-0.028729903 0.0010796611 0.0028833332
0.018338235 -0.003238983 -0.0069833333
-0.0094747553 -0.0084830504 -0.0066749998
0.01008603 0.00015423729 0.002575
0.023839707 -0.0075576273 -0.00019999997
0.014364951 -0.0084830504 0.0022666666
-0.019255146 0.0069406778 -0.0045166668
0.0018338235 0.0091000004 -0.00205
-0.013448039 -0.0066322032 0.0013416667
0.0039732843 -0.0072491528 0.0031916667
0.0006112745 0.0020050847 0.0031916667
0.014364951 -0.0016966101 -0.0069833333
-0.030869363 0.00046271188 -0.00019999997
0.022005882 0.0013881356 -0.0066749998
0.011002941 -0.0087915258 -0.0066749998
0.0067240195 -0.0038559323 -0.00019999997
0.026284805 -0.0020050847 -0.0069833333
0.030869363 -0.0057067797 -0.00019999997
-0.030563725 -0.0047813561 -0.00019999997
-0.011002941 -0.0066322032 0.0010333334
-0.0094747553 -0.0044728816 -0.0069833333
0.0055014705 -0.0029305085 -0.00019999997
-0.015281863 -0.0023135594 -0.0069833333
0.02445098 0.0091000004 -0.0029749998
0.011614216 -0.0038559323 -0.0069833333
0.030563725 0.0050898306 -0.0026666666
0.0039732843 -0.00015423729 -0.0066749998
-0.014059314 -0.0075576273 0.0028833332
-0.016504413 -0.0081745759 -0.0032833333
-0.019560784 0.00015423729 0.00041666671
0.01008603 -0.0020050847 -0.0069833333
-0.003667647 -0.0057067797 -0.00019999997
0.0155875 0.0066322032 -0.0042083333
-0.0067240195 -0.0020050847 -0.0072916667
-0.008557843 0.0047813561 -0.00575
0.025673529 -0.0057067797 -0.0066749998
0.030258087 -0.0091000004 -0.00050833332
-0.019255146 -0.0066322032 0.002575
0.0079465685 -0.0087915258 -0.00050833332
0.016198775 -0.0081745759 -0.0066749998
0.016198775 -0.0078661013 0.0010333334
-0.023228431 -0.0020050847 -0.0069833333
0.018643873 0.0069406778 -0.0051333332
0.026284805 -0.0053983051 -0.00019999997
0.015893137 0.0026220339 -0.0072916667
0.011919853 0.0013881356 0.0031916667
-0.023839707 0.00015423729 0.0013416667
0.027201716 0.0066322032 -0.0072916667
-0.011002941 -0.0084830504 -0.00019999997
0.023839707 0.0041644066 0.0031916667
-0.01222549 0.00015423729 0.002575
0.010391667 -0.0063237287 -0.0069833333
-0.0045845588 -0.0016966101 -0.00019999997
-0.016810048 0.0069406778 -0.0038999999
0.001222549 0.0078661013 0.002575
0.012531128 0.0069406778 -0.0029749998
-0.0064183823 -0.0091000004 0.0010333334
-0.029952452 0.0066322032 -0.0069833333
-0.01222549 -0.0023135594 -0.00019999997
-0.020477695 -0.0075576273 0.0022666666
-0.028424265 0.0084830504 0.0031916667
-0.030563725 -0.0020050847 -0.00019999997
-0.008557843 -0.0069406778 -0.0014333333
0.01008603 0.003238983 0.0031916667
-0.016198775 0.0091000004 -0.0029749998
0.019560784 -0.00046271188 -0.00019999997
-0.0094747553 -0.0091000004 0.00010833336
-0.030258087 0.0016966101 -0.0038999999
0.029952452 0.0091000004 0.0013416667
0.0030563725 0.0047813561 0.0035000001
0.0021394608 -0.0020050847 -0.0072916667
-0.014670588 0.0091000004 -0.0014333333
0.020783333 0.0084830504 -0.0029749998
-0.0079465685 -0.0069406778 -0.0042083333
0.023228431 -0.0026220339 -0.00019999997
0.011919853 0.00015423729 0.00165
0.017726962 -0.0029305085 -0.0069833333
0.027507354 0.0078661013 -0.0072916667
-0.00030563725 0.0078661013 -0.0029749998
0.016504413 -0.0091000004 -0.0066749998
-0.030563725 0.003238983 -0.0032833333
-0.013448039 -0.0072491528 0.0019583334
-0.019866422 -0.0029305085 -0.0069833333
0.016198775 -0.0072491528 0.0010333334
0.02659044 0.0029305085 0.0031916667
0.0079465685 -0.0066322032 -0.0045166668
0.029952452 0.0072491528 -0.0032833333
-0.030869363 0.0026220339 -0.0014333333
-0.02017206 0.0066322032 -0.0063666664
-0.0079465685 0.0091000004 -0.0014333333
0.027201716 0.0091000004 -0.00050833332
-0.019255146 0.0091000004 0.0010333334
0.006112745 -0.0057067797 -0.0069833333
0.006112745 0.0091000004 -0.00019999997
0.0079465685 -0.0069406778 -0.0060583334
0.02659044 0.0084830504 -0.0032833333
0.020783333 -0.0084830504 0.00165
0.025673529 0.00015423729 0.002575
-0.021394609 -0.0087915258 -0.0023583332
-0.026284805 0.0081745759 -0.0038999999
0.0091691175 -0.0023135594 -0.00019999997
0.028424265 0.0069406778 -0.0072916667
0.010391667 -0.0081745759 0.00072500005
-0.017726962 0.0010796611 0.0028833332
0.01008603 -0.0035474575 -0.00019999997
-0.016504413 0.00015423729 0.0028833332
0.0018338235 0.0091000004 0.0013416667
-0.003667647 -0.0023135594 -0.0072916667
0.023534069 0.00015423729 0.00072500005
0.020783333 0.0091000004 0.00072500005
-0.006112745 0.0091000004 -0.00081666664
0.003667647 0.0026220339 0.0031916667
0.028729903 -0.0091000004 -0.0054416666
-0.010697304 0.0026220339 -0.0072916667
0.026284805 0.0091000004 -0.00019999997
-0.027201716 -0.0091000004 -0.0038999999
-0.0018338235 -0.0047813561 -0.0069833333
-0.0042789215 0.0081745759 -0.0029749998
-0.023839707 0.0075576273 0.0031916667
-0.024145342 0.0091000004 0.0022666666
0.020477695 -0.0091000004 -0.00019999997
0.0027507353 0.0091000004 -0.0017416666
0.018032597 -0.0084830504 -0.0029749998
-0.024756618 0.0026220339 0.0031916667
-0.014976226 0.0060152542 -0.00575
-0.0082522063 0.0078661013 0.0031916667
0.0094747553 -0.0035474575 -0.00019999997
0.027812989 0.0069406778 0.0031916667
-0.015893137 -0.0047813561 -0.00019999997
0.019560784 0.0091000004 -0.0014333333
0.008557843 -0.0044728816 -0.0069833333
0.0097803921 0.0013881356 -0.0066749998
0.019255146 0.00077118643 0.0028833332
-0.0039732843 0.0057067797 0.0035000001
0.0058071078 0.00077118643 0.0028833332
0.02445098 0.0050898306 -0.0072916667
0.015281863 0.0084830504 0.0031916667
-0.014976226 0.0069406778 0.0031916667
-0.012531128 -0.0081745759 -0.00205
0.0018338235 -0.003238983 -0.0072916667
-0.0042789215 -0.0091000004 0.0019583334
-0.002445098 -0.0066322032 -0.0042083333
-0.0027507353 -0.0060152542 -0.00019999997
0.01222549 0.0013881356 -0.0063666664
-0.030563725 -0.00046271188 -0.00019999997
-0.0088634808 0.0081745759 0.0028833332
-0.027812989 -0.00077118643 -0.00019999997
0.031175001 0.0016966101 -0.001125
0.023534069 0.0084830504 0.0031916667
0.023839707 0.0081745759 -0.0038999999
0.011919853 -0.0075576273 0.0028833332
0.0015281863 0.0013881356 0.0031916667
0.030563725 -0.0081745759 -0.00019999997
-0.02017206 -0.0084830504 0.00165
0.023839707 0.0016966101 -0.0069833333
0.0045845588 -0.0010796611 -0.0072916667
0.023534069 -0.00077118643 -0.00019999997
0.001222549 -0.0069406778 0.00165
-0.027507354 0.0044728816 0.0031916667
0.013448039 0.0063237287 -0.0048249997
0.018643873 -0.0069406778 0.0019583334
0.030869363 -0.0035474575 -0.0038999999
0.002445098 -0.0060152542 -0.0069833333
0.014059314 0.0020050847 -0.0072916667
-0.007335294 -0.00015423729 -0.0066749998
-0.010697304 0.0091000004 0.0010333334
-0.0006112745 0.0078661013 0.002575
0.0155875 0.0020050847 -0.0072916667
-0.0088634808 -0.0029305085 -0.0072916667
0.015281863 -0.0078661013 -0.0032833333
0.002445098 -0.0081745759 0.0031916667
0.012531128 0.00077118643 -0.0060583334
0.0042789215 0.0081745759 0.0031916667
-0.024756618 0.00077118643 -0.0051333332
0.029952452 0.0078661013 -0.0054416666
-0.016198775 0.0016966101 -0.0072916667
0.0042789215 -0.0072491528 0.0028833332
-0.003667647 0.0072491528 0.0031916667
0.0079465685 -0.0084830504 0.0031916667
-0.0067240195 -0.0066322032 -0.0060583334
-0.030563725 -0.0013881356 -0.0063666664
0 0.0084830504 -0.0029749998
-0.022005882 -0.0091000004 -0.0063666664
-0.011614216 -0.0072491528 -0.0035916667
-0.030258087 0.0029305085 -0.0042083333
0.013753677 0.00015423729 0.00165
-0.022617158 0.0010796611 -0.0054416666
0.029952452 0.0087915258 -0.0032833333
0.017726962 -0.00015423729 -0.0066749998
-0.0064183823 -0.0081745759 0.0031916667
-0.015893137 0.0057067797 -0.0069833333
-0.024145342 0.003238983 0.0031916667
-0.003667647 -0.0063237287 -0.0042083333
-0.0051958333 -0.00077118643 -0.00019999997
0.002445098 -0.0081745759 -0.00050833332
0.024145342 -0.0091000004 -0.0054416666
-0.028424265 -0.0075576273 0.0013416667
0.0091691175 0.0091000004 -0.00081666664
-0.004890196 -0.0069406778 -0.00575
0.011614216 -0.0057067797 -0.00019999997
-0.0051958333 -0.0081745759 0.0031916667
0.0058071078 0.00015423729 -0.0060583334
-0.00030563725 -0.0063237287 -0.0048249997
-0.014059314 0.003238983 -0.0072916667
0.0039732843 0.0091000004 -0.00050833332
-0.010391667 -0.0023135594 -0.0072916667
-0.030869363 0.0047813561 -0.0032833333
-0.017726962 -0.0047813561 -0.0069833333
0.004890196 -0.0029305085 -0.00019999997
0.0051958333 -0.0029305085 -0.00019999997
0.013753677 -0.0087915258 0.0013416667
-0.024756618 -0.0016966101 -0.00019999997
0.021088971 0.0091000004 0.0022666666
-0.024756618 0.0010796611 0.0028833332
-0.026896078 -0.0091000004 -0.0023583332
0.022617158 0.0072491528 -0.0069833333
-0.030258087 0.0013881356 0.0010333334
0.015281863 0.00015423729 0.0010333334
-0.0027507353 0.003238983 0.0031916667
-0.004890196 0.0091000004 -0.00019999997
-0.0088634808 -0.0066322032 0.00165
-0.02231152 -0.0050898306 -0.0069833333
0.011002941 0.0050898306 0.0031916667
-0.018949511 -0.0072491528 -0.0069833333
0.018032597 -0.00046271188 -0.0069833333
0.029646814 -0.00015423729 -0.00575
0.028729903 0.0078661013 -0.0072916667
0.012836765 -0.00015423729 -0.0069833333
0.0033620098 0.0057067797 0.0031916667
0.0021394608 0.0047813561 0.0035000001
0.025367891 0.003238983 -0.0072916667
0.017115686 0.0069406778 -0.0042083333
-0.012531128 -0.00015423729 -0.0072916667
0.023534069 -0.0087915258 0.00041666671
-0.028729903 0.00015423729 0.0013416667
0.016198775 -0.0081745759 -0.00081666664
0.0018338235 0.0020050847 0.0031916667
0.00091691175 0.0047813561 0.0031916667
-0.0033620098 0.0078661013 -0.0029749998
0.017115686 0.0013881356 -0.0069833333
0.0070296568 -0.0020050847 -0.0072916667
-0.01008603 0.00015423729 0.00010833336
0.0055014705 0.0044728816 -0.0060583334
0.001222549 0.0026220339 0.0031916667
0.020783333 0.0091000004 -0.001125
-0.026284805 -0.0016966101 -0.00019999997
-0.020477695 0.0050898306 -0.0072916667
0.0051958333 0.00015423729 0.00010833336
-0.015281863 0.0020050847 -0.0072916667
0.025367891 0.0044728816 -0.0072916667
0.021394609 0.0020050847 -0.0072916667
-0.019560784 0.0066322032 -0.0069833333
-0.014059314 -0.0091000004 0.00165
-0.02017206 -0.0078661013 0.0019583334
-0.00091691175 0.0016966101 0.0031916667
-0.019866422 0.0069406778 -0.0048249997
-0.013142402 0.0081745759 -0.0029749998
-0.022005882 0.00046271188 -0.00575
-0.024756618 0.00015423729 0.0010333334
0.0015281863 -0.0075576273 -0.0069833333
-0.01008603 -0.0091000004 0.0028833332
0.012836765 -0.0044728816 -0.0069833333
-0.030258087 0.0084830504 0.0019583334
-0.030869363 -0.0044728816 -0.0014333333
0.011002941 0.0084830504 0.0031916667
0.025062256 0.0091000004 0.002575
0.010697304 0.0020050847 0.0031916667
0.016504413 -0.0069406778 0.00165
-0.0155875 0.00015423729 0.002575
-0.00091691175 0.0050898306 -0.0032833333
0.0006112745 -0.0091000004 0.0010333334
0.006112745 -0.003238983 -0.00019999997
-0.030563725 0.0026220339 0.00041666671
0.006112745 -0.0069406778 0.00072500005
-0.0033620098 -0.0060152542 -0.0017416666
0.0070296568 -0.0069406778 0.0019583334
0.030258087 -0.0091000004 -0.0051333332
0.030563725 0.0053983051 -0.00205
-0.010391667 -0.0078661013 -0.0048249997
-0.019866422 0.0084830504 0.0031916667
-0.022005882 0.00015423729 0.0013416667
-0.001222549 0.0091000004 -0.0023583332
-0.011614216 0.0050898306 -0.0069833333
0.017115686 -0.0084830504 0.00010833336
0.018643873 -0.0035474575 -0.0069833333
-0.022922793 -0.0075576273 -0.0066749998
0.026896078 -0.0069406778 -0.0066749998
0.017421324 -0.0081745759 -0.0048249997
0.014364951 -0.0081745759 0.0019583334
0.021700244 0.0091000004 0.0031916667
0.0055014705 -0.0063237287 -0.0051333332
0.030869363 0.0044728816 -0.0026666666
-0.027507354 -0.0078661013 -0.00019999997
0.021088971 0.0078661013 -0.0032833333
-0.017726962 0.0091000004 -0.00081666664
0.0079465685 -0.0091000004 -0.00019999997
-0.028118627 -0.0078661013 0.00041666671
0.0018338235 0.0016966101 0.0031916667
-0.0021394608 -0.0060152542 -0.00575
0.02017206 0.0075576273 -0.0038999999
-0.014364951 0.0016966101 0.0031916667
-0.0027507353 -0.0060152542 -0.0023583332
0.018032597 -0.0029305085 -0.00019999997
0.003667647 -0.0069406778 0.00072500005
-0.02659044 -0.00046271188 -0.00019999997
-0.015281863 -0.0084830504 0.0028833332
0.0082522063 0.0063237287 -0.0032833333
0.027812989 0.0081745759 -0.0066749998
-0.025673529 -0.0075576273 0.00041666671
0.0064183823 -0.0069406778 0.0010333334
0.016198775 -0.00046271188 -0.0072916667
0.028729903 -0.0078661013 -0.0066749998
0.030258087 0.0053983051 -0.0060583334
0.027201716 0.0063237287 -0.0072916667
-0.026284805 -0.0013881356 -0.0069833333
-0.030563725 -0.0013881356 -0.0042083333
-0.010697304 -0.0072491528 -0.0023583332
-0.018949511 0.0013881356 0.0031916667
0.0045845588 0.003238983 -0.0072916667
0.026896078 0.0063237287 -0.0072916667
0.002445098 -0.0026220339 -0.0072916667
0.0079465685 -0.00077118643 -0.00019999997
0.022922793 -0.0060152542 -0.0066749998
-0.013448039 0.0091000004 -0.0023583332
-0.017115686 0.0091000004 -0.0014333333
0.017726962 -0.0078661013 -0.0066749998
0.024756618 -0.0050898306 -0.00019999997
0.019560784 -0.0081745759 0.00165
0.02659044 -0.0091000004 -0.0051333332
0.027507354 0.0091000004 0.00041666671
-0.022005882 0.0016966101 0.0031916667
-0.017726962 0.0029305085 -0.0072916667
-0.012531128 -0.0023135594 -0.0072916667
0.0155875 0.00015423729 0.0019583334
-0.021088971 0.0066322032 -0.0069833333
-0.014364951 0.0010796611 0.0028833332
-0.029035538 -0.0081745759 -0.00019999997
-0.00091691175 0.0084830504 0.002575
-0.0042789215 -0.0050898306 -0.0069833333
-0.030563725 -0.0072491528 -0.0060583334
0.013448039 -0.0078661013 -0.001125
0.02231152 0.0091000004 -0.00050833332
0.013448039 -0.0038559323 -0.00019999997
0.030869363 -0.0038559323 -0.0048249997
0.02445098 0.0081745759 -0.0035916667
-0.006112745 0.00015423729 0.0010333334
0.030258087 0.00077118643 0.00010833336
0.0042789215 -0.0091000004 -0.00050833332
0.001222549 -0.0057067797 -0.00019999997
0.030563725 0.0063237287 -0.00050833332
-0.025367891 0.00015423729 0.0028833332
0.031175001 0.0020050847 -0.00081666664
-0.029646814 -0.0063237287 -0.0066749998
0.014670588 -0.0072491528 0.00010833336
0.022005882 0.0091000004 -0.0026666666
0.002445098 0.0091000004 -0.0026666666
-0.029035538 -0.00077118643 -0.0066749998
0.0094747553 0.0057067797 0.0031916667
0.021700244 0.0091000004 -0.0029749998
0.0006112745 -0.0069406778 0.00072500005
0.006112745 0.0041644066 -0.0072916667
-0.026896078 -0.0081745759 -0.0066749998
0.0018338235 0.0013881356 0.0031916667
0.0018338235 -0.0060152542 -0.00019999997
-0.025062256 0.0029305085 0.0031916667
-0.028424265 0.0050898306 0.0031916667
-0.029952452 0.0066322032 -0.0051333332
-0.0067240195 0.0013881356 -0.0063666664
-0.013142402 0.0026220339 -0.0072916667
0.019255146 -0.0081745759 0.0022666666
-0.02445098 -0.0023135594 -0.00019999997
0.016198775 -0.0084830504 0.0019583334
-0.023228431 0.0091000004 -0.0014333333
0.01222549 -0.00015423729 -0.0069833333
-0.016810048 -0.0084830504 0.00072500005
0.023534069 -0.0091000004 -0.0035916667
-0.013142402 -0.0044728816 -0.00019999997
0.02445098 -0.0075576273 0.0022666666
0.028729903 -0.0091000004 -0.001125
-0.024756618 -0.00077118643 -0.00019999997
-0.022922793 0.0081745759 -0.0032833333
-0.022922793 -0.0072491528 -0.00019999997
-0.030869363 -0.0057067797 -0.0029749998
0.025979167 -0.0081745759 -0.00019999997
0.004890196 0.00077118643 -0.00575
0.030258087 0.0069406778 0.00072500005
0.001222549 -0.0091000004 0.0028833332
0.022922793 0.0091000004 -0.0029749998
-0.007335294 0.0081745759 0.002575
-0.020783333 0.0091000004 -0.00019999997
0.0079465685 0.0063237287 0.0031916667
0.022617158 0.0010796611 0.0028833332
-0.013142402 0.0091000004 -0.0014333333
0.010697304 -0.0072491528 -0.0054416666
-0.0076409313 0.0053983051 -0.0038999999
-0.024756618 0.0038559323 -0.0072916667
0.011919853 -0.0091000004 -0.0066749998
-0.0094747553 0.0053983051 0.0031916667
0.014670588 0.0091000004 -0.00205
-0.017115686 0.00015423729 0.00010833336
0.0082522063 0.00077118643 -0.00575
-0.0091691175 -0.0020050847 -0.00019999997
-0.0055014705 0.0013881356 0.0031916667
-0.017726962 -0.0050898306 -0.0069833333
-0.014976226 0.0069406778 -0.0032833333
-0.011002941 0.0069406778 0.0031916667
-0.030258087 0.0035474575 -0.0048249997
-0.013753677 0.0013881356 -0.0072916667
0.019866422 -0.0013881356 -0.0069833333
0.012531128 0.00015423729 0.0019583334
-0.012836765 0.0035474575 -0.0072916667
0.0030563725 -0.0072491528 -0.00050833332
-0.025979167 -0.0010796611 -0.0069833333
0.017726962 -0.0072491528 0.0019583334
-0.008557843 -0.0066322032 0.00165
0.0079465685 -0.003238983 -0.00019999997
-0.02445098 -0.0029305085 -0.00019999997
-0.024756618 -0.0084830504 0.0022666666
0.0097803921 0.0053983051 -0.0054416666
0.030258087 0.003238983 -0.0045166668
-0.0076409313 -0.0047813561 -0.00019999997
-0.0006112745 -0.0063237287 -0.00575
0.027812989 0.0084830504 0.0031916667
-0.0033620098 0.00015423729 0.0022666666
0.016504413 -0.0060152542 -0.0069833333
-0.0079465685 0.0091000004 0.00165
0.016198775 0.0078661013 -0.0029749998
-0.014059314 -0.0053983051 -0.00019999997
0.01222549 0.0069406778 0.0031916667
0.018032597 0.0026220339 0.0031916667
-0.0067240195 -0.0066322032 -0.0069833333
0.0033620098 0.0091000004 -0.001125
0.021394609 -0.0044728816 -0.0069833333
-0.021394609 -0.0087915258 -0.0014333333
-0.0018338235 -0.0057067797 -0.0023583332
0.017421324 -0.0072491528 0.00072500005
0.0088634808 -0.0091000004 0.00010833336
-0.029952452 0.0081745759 -0.0038999999
0.025673529 0.0084830504 -0.0032833333
-0.0094747553 -0.0081745759 -0.0066749998
0.012836765 0.0072491528 -0.0029749998
-0.016810048 -0.0066322032 0.0013416667
0.027201716 0.0041644066 0.0031916667
-0.02231152 0.0091000004 0.002575
-0.0042789215 -0.0050898306 -0.00019999997
0.02445098 0.00077118643 0.0028833332
0.021700244 0.0041644066 -0.0072916667
0.01222549 -0.0081745759 0.0031916667
0.0045845588 0.0069406778 -0.0029749998
0.007335294 -0.0047813561 -0.0069833333
-0.0058071078 0.0091000004 -0.00081666664
0.010697304 -0.0072491528 -0.0051333332
-0.030869363 -0.0060152542 -0.0014333333
-0.018032597 -0.0010796611 -0.00019999997
-0.0079465685 0.00015423729 0.0022666666
-0.030869363 -0.0038559323 -0.00081666664
0.016504413 0.0026220339 -0.0072916667
-0.022922793 -0.0078661013 -0.0066749998
-0.015893137 0.0091000004 -0.00050833332
0.00030563725 -0.0035474575 -0.0069833333
0.02659044 0.0044728816 0.0031916667
0.015281863 -0.0075576273 0.00072500005
0.018643873 0.0091000004 0.00072500005
0.019866422 -0.0060152542 -0.0069833333
-0.02445098 0.0081745759 0.0031916667
-0.021700244 -0.0026220339 -0.0069833333
0.016810048 -0.0078661013 -0.0048249997
-0.024756618 0.0044728816 -0.0072916667
0.013448039 -0.00015423729 -0.0069833333
0.002445098 -0.0063237287 -0.0069833333
-0.030563725 -0.0075576273 -0.0048249997
-0.0021394608 0.0041644066 -0.0048249997
0.027507354 -0.0053983051 -0.00019999997
-0.010391667 0.0081745759 -0.0029749998
0.004890196 0.0023135594 -0.0072916667
-0.001222549 0.0044728816 0.0035000001
-0.027507354 0.0078661013 -0.0063666664
-0.02017206 0.0075576273 -0.0032833333
0.021700244 0.00015423729 0.00041666671
-0.030563725 -0.0063237287 -0.0035916667
0.024756618 0.0091000004 0.0022666666
-0.029952452 0.0072491528 -0.0038999999
0.016198775 0.0066322032 -0.0051333332
0.016198775 0.0050898306 -0.0072916667
-0.017726962 0.0063237287 -0.0066749998
0.014059314 -0.0091000004 0.00072500005
0.026896078 -0.0044728816 -0.00019999997
0.0039732843 -0.0026220339 -0.0072916667
-0.016810048 -0.0075576273 0.002575
0.023534069 -0.0026220339 -0.00019999997
-0.0027507353 0.0050898306 -0.0032833333
-0.003667647 0.0084830504 0.002575
-0.0042789215 -0.0063237287 -0.0054416666
0.027201716 -0.0047813561 -0.0066749998
-0.030869363 -0.0047813561 -0.0045166668
0.015893137 -0.0066322032 0.00041666671
-0.0027507353 -0.0087915258 0.0028833332
0.0027507353 -0.0050898306 -0.0069833333
-0.025062256 -0.0091000004 -0.00050833332
0.012531128 -0.0084830504 -0.0066749998
-0.0067240195 -0.00046271188 -0.00019999997
0.027507354 0.0084830504 -0.0042083333
-0.008557843 -0.003238983 -0.0072916667
-0.0064183823 -0.0057067797 -0.00019999997
-0.003667647 0.0091000004 0.0010333334
-0.0088634808 0.0087915258 -0.0029749998
-0.0070296568 0.0081745759 -0.0072916667
-0.030258087 0.0041644066 -0.0051333332
-0.029952452 0.00015423729 0.00041666671
0.020783333 -0.0057067797 -0.0069833333
0.024145342 0.00015423729 0.00165
-0.02445098 0.0075576273 -0.0072916667
-0.0015281863 0.00015423729 0.0028833332
-0.028729903 0.0029305085 -0.0072916667
0.017726962 -0.0078661013 0.0019583334
0.016810048 -0.003238983 -0.00019999997
-0.028424265 0.0047813561 -0.0072916667
0.023534069 0.0057067797 0.0031916667
0.029035538 0.0091000004 0.0031916667
-0.0045845588 -0.0069406778 -0.0054416666
0.0021394608 0.0016966101 0.0031916667
0.00091691175 0.0038559323 -0.0060583334
0.0088634808 -0.0069406778 0.0028833332
0.0067240195 -0.00046271188 -0.00019999997
0.02659044 -0.0084830504 -0.0066749998
-0.022005882 0.00015423729 0.00041666671
0.010391667 0.0038559323 0.0031916667
0.0067240195 -0.0016966101 -0.0072916667
-0.019866422 0.0050898306 -0.0072916667
0.011308579 -0.0081745759 0.0028833332
-0.012531128 0.0091000004 0.00010833336
-0.013753677 -0.0078661013 -0.0051333332
0.0006112745 -0.00015423729 -0.0066749998
0.030258087 0.0010796611 0.0022666666
-0.030258087 0.0016966101 -0.0069833333
0.018032597 -0.0044728816 -0.00019999997
0.030563725 -0.0066322032 -0.0017416666
-0.0091691175 0.0072491528 -0.0029749998
-0.004890196 0.0044728816 0.0031916667
0.0076409313 0.00015423729 0.0013416667
-0.013753677 0.0041644066 -0.0072916667
-0.027201716 0.0078661013 -0.0060583334
-0.016198775 -0.0091000004 -0.00081666664
-0.0076409313 -0.00015423729 -0.0069833333
0.007335294 0.0047813561 -0.0060583334
0.021700244 -0.0072491528 0.0013416667
-0.019866422 0.0013881356 -0.0072916667
-0.0055014705 0.0041644066 -0.0060583334
-0.0097803921 0.0091000004 -0.0029749998
0.0045845588 -0.0069406778 -0.0066749998
0.024756618 -0.0047813561 -0.0066749998
-0.0018338235 -0.0029305085 -0.0072916667
-0.025673529 -0.0072491528 0.0010333334
-0.02017206 0.00015423729 0.00072500005
0.023228431 -0.00015423729 -0.0063666664
-0.01008603 0.00015423729 0.00165
0.025367891 -0.0069406778 -0.00019999997
-0.029341176 0.0057067797 0.0031916667
0.01222549 0.0013881356 -0.0072916667
-0.025979167 0.0091000004 0.00041666671
-0.0042789215 0.0010796611 -0.0060583334
0.015281863 0.0047813561 0.0031916667
-0.017421324 -0.0013881356 -0.00019999997
0.021088971 -0.0063237287 -0.00019999997
-0.0155875 -0.0041644066 -0.00019999997
0.02445098 -0.0023135594 -0.00019999997
-0.0015281863 0.0010796611 0.0028833332
0.019866422 0.0091000004 0.0031916667
-0.02659044 0.0091000004 -0.0023583332
0.025367891 -0.003238983 -0.0066749998
0.0088634808 -0.0072491528 -0.00081666664
-0.011919853 -0.0026220339 -0.00019999997
-0.0076409313 0.0013881356 -0.0069833333
-0.0042789215 -0.0066322032 -0.0069833333
0.0064183823 0.0075576273 -0.0029749998
0.030869363 -0.0023135594 -0.0042083333
0.020477695 -0.0044728816 -0.00019999997
0.0027507353 0.0060152542 -0.0029749998
0.025367891 -0.0072491528 0.0010333334
-0.020477695 -0.0075576273 0.00010833336
0.017115686 0.0075576273 0.0031916667
-0.017421324 -0.0081745759 -0.0038999999
0.0091691175 0.0053983051 -0.00575
0.0039732843 0.0075576273 -0.0029749998
-0.0155875 -0.0072491528 -0.0069833333
-0.029646814 -0.0072491528 -0.00019999997
0.025979167 0.0063237287 0.0031916667
-0.011002941 0.0035474575 0.0031916667
0.0021394608 -0.00015423729 -0.0072916667
-0.0055014705 -0.0038559323 -0.0069833333
-0.0051958333 -0.0044728816 -0.00019999997
0.02659044 0.0084830504 -0.0042083333
-0.013753677 0.0081745759 0.0031916667
0.0076409313 0.0041644066 0.0031916667
-0.027201716 -0.0091000004 -0.00019999997
-0.019560784 -0.0091000004 -0.0063666664
0.030563725 -0.00015423729 -0.0063666664
-0.030258087 0.00077118643 0.00072500005
0.02659044 -0.0026220339 -0.00019999997
-0.011614216 -0.0084830504 -0.00019999997
0.017726962 -0.0047813561 -0.00019999997
-0.003667647 -0.0091000004 0.00165
0.023228431 0.0047813561 -0.0072916667
-0.0033620098 0.0041644066 -0.00575
0.011919853 -0.0075576273 -0.00081666664
0.024756618 0.00015423729 0.00041666671
-0.027812989 0.0026220339 -0.0072916667
-0.016198775 0.0084830504 0.0031916667
0.019560784 -0.0069406778 -0.0066749998
0.013448039 0.0026220339 -0.0072916667
-0.011919853 0.0072491528 -0.0029749998
0.0079465685 -0.00015423729 -0.0063666664
0.029952452 0.0078661013 -0.0066749998
0.004890196 -0.0091000004 0.0022666666
0.0018338235 0.0091000004 -0.00050833332
0.021088971 0.0072491528 -0.0051333332
0.023839707 -0.0091000004 -0.00205
-0.025673529 -0.00046271188 -0.0069833333
0.0155875 -0.0013881356 -0.00019999997
-0.02017206 -0.0091000004 -0.0066749998
-0.026284805 0.00015423729 0.00041666671
0.029035538 -0.0091000004 -0.0045166668
-0.028729903 0.00015423729 0.0028833332
0.018949511 -0.00015423729 -0.00019999997
-0.00091691175 -0.0063237287 -0.0026666666
-0.0030563725 0.0016966101 -0.0072916667
-0.013448039 -0.0075576273 -0.00205
-0.011614216 0.0091000004 -0.0023583332
0.0058071078 -0.0069406778 0.00072500005
0.015893137 -0.0020050847 -0.0069833333
-0.022005882 0.0091000004 -0.0017416666
0.024145342 0.0020050847 -0.0072916667
0.030258087 0.0091000004 0.00165
0.0045845588 0.0066322032 -0.0029749998
-0.011308579 0.0023135594 -0.0072916667
-0.001222549 0.00046271188 -0.00575
-0.01008603 0.0050898306 -0.0060583334
-0.01222549 0.0081745759 -0.0029749998
-0.012836765 0.0026220339 0.0031916667
0.0155875 -0.0069406778 0.002575
0.002445098 0.00015423729 0.0022666666
-0.025367891 0.0081745759 -0.0032833333
0.017421324 0.0013881356 0.0031916667
-0.004890196 -0.0091000004 0.00072500005
-0.017421324 0.0066322032 -0.0051333332
0.0045845588 -0.0023135594 -0.00019999997
0.0088634808 0.00077118643 -0.0060583334
-0.029952452 -0.0035474575 -0.0066749998
0.001222549 0.0041644066 -0.0051333332
-0.0030563725 0.0044728816 -0.0048249997
0.014059314 0.0091000004 -0.0014333333
-0.004890196 -0.0069406778 0.0022666666
-0.011614216 -0.0050898306 -0.00019999997
-0.013448039 -0.0038559323 -0.0069833333
-0.028118627 -0.0091000004 -0.0035916667
0.0079465685 -0.0069406778 -0.001125
-0.01008603 0.0047813561 -0.0069833333
-0.003667647 -0.0069406778 0.002575
0.030563725 -0.0069406778 -0.00575
0.0021394608 -0.0038559323 -0.00019999997
0.013448039 0.00015423729 0.00041666671
-0.010697304 0.0081745759 0.0028833332
0.025367891 0.0081745759 -0.0038999999
0.0039732843 -0.0063237287 -0.0060583334
-0.0030563725 -0.0060152542 -0.00575
-0.026896078 -0.0066322032 -0.0066749998
0.025979167 0.0091000004 0.0013416667
0.029341176 0.0081745759 0.0031916667
-0.025673529 -0.0091000004 -0.0051333332
-0.029646814 -0.0050898306 -0.0066749998
0.02659044 -0.0020050847 -0.0069833333
0.026896078 -0.0091000004 -0.0060583334
0.022922793 -0.0091000004 -0.0014333333
-0.030563725 -0.0091000004 -0.00050833332
-0.029952452 0.0050898306 -0.0038999999
-0.02445098 0.003238983 -0.0072916667
-0.027507354 -0.0075576273 -0.0066749998
0.028729903 0.0091000004 -0.0032833333
-0.022005882 -0.0075576273 0.00165
0.0067240195 -0.0063237287 -0.0014333333
-0.003667647 -0.0053983051 -0.0069833333
-0.0091691175 0.0026220339 0.0031916667
-0.021394609 -0.0081745759 0.0022666666
-0.0079465685 -0.0087915258 0.0019583334
-0.0067240195 0.0075576273 0.0031916667
0.024145342 -0.0078661013 0.0013416667
-0.027507354 0.0084830504 -0.0035916667
0.010391667 0.00046271188 -0.0060583334
-0.023839707 0.0075576273 -0.0051333332
0.001222549 -0.0075576273 -0.00050833332
-0.025979167 0.0050898306 -0.0072916667
-0.0030563725 -0.0023135594 -0.0072916667
-0.011614216 0.00046271188 0.0028833332
0.0045845588 0.0041644066 -0.0066749998
0.023228431 -0.0038559323 -0.00019999997
0.0039732843 -0.0063237287 -0.0023583332
0.0088634808 -0.003238983 -0.00019999997
0.006112745 0.0013881356 -0.0063666664
0.0055014705 -0.0091000004 0.00072500005
0.0033620098 -0.00015423729 -0.0069833333
-0.02659044 0.0091000004 0.00041666671
-0.0033620098 0.0081745759 -0.0029749998
0.016198775 0.00046271188 -0.0060583334
0.012531128 -0.0050898306 -0.00019999997
0.0091691175 -0.0060152542 -0.0069833333
-0.014364951 -0.0038559323 -0.0069833333
0.0155875 -0.0069406778 0.0019583334
0.019255146 0.0091000004 0.00041666671
-0.01008603 0.0057067797 -0.0035916667
0.025062256 0.0069406778 0.0031916667
0.024756618 0.0035474575 0.0031916667
-0.018032597 0.0053983051 0.0031916667
-0.024756618 0.0075576273 -0.0060583334
0.02017206 0.0029305085 0.0031916667
-0.0155875 -0.0066322032 -0.0069833333
-0.029646814 0.00015423729 0.00010833336
-0.004890196 -0.0072491528 -0.00081666664
0.011919853 0.0038559323 -0.0072916667
0.0155875 0.0020050847 0.0031916667
0.011919853 0.0091000004 -0.00050833332
-0.027507354 -0.0087915258 -0.00019999997
-0.0079465685 0.0013881356 0.0031916667
-0.006112745 0.0063237287 0.0031916667
-0.016198775 0.00077118643 -0.0060583334
0.018949511 -0.0072491528 -0.0066749998
-0.030563725 -0.0075576273 -0.0038999999
0.030563725 -0.0072491528 -0.0035916667
-0.0051958333 0.0091000004 0.00010833336
0.0045845588 0.0075576273 0.002575
-0.011002941 -0.0091000004 0.00165
-0.025367891 -0.003238983 -0.0069833333
0.018032597 0.0013881356 -0.0069833333
0.0070296568 0.0060152542 0.0031916667
-0.0091691175 0.00046271188 0.0028833332
-0.028424265 0.0010796611 -0.0054416666
0.024145342 -0.0078661013 0.00072500005
0.0094747553 0.0041644066 -0.0072916667
0.0045845588 -0.0053983051 -0.0069833333
-0.019866422 0.0078661013 -0.0029749998
-0.0067240195 0.0035474575 0.0031916667
-0.0030563725 0.0057067797 0.0035000001
-0.0055014705 0.0063237287 0.0031916667
-0.031175001 -0.00046271188 -0.0023583332
-0.011002941 0.0016966101 0.0031916667
0.027812989 -0.00077118643 -0.00019999997
0.030563725 -0.0050898306 -0.0051333332
-0.030563725 0.0060152542 -0.0026666666
0.030869363 0.0044728816 -0.00081666664
-0.017726962 0.00015423729 0.00041666671
0.013753677 -0.0087915258 0.0022666666
0.020783333 -0.0087915258 -0.00575
0.022922793 0.0041644066 0.0031916667
-0.0039732843 0.0091000004 0.0031916667
0.014670588 -0.003238983 -0.0069833333
-0.001222549 -0.00046271188 -0.00019999997
-0.030869363 -0.00015423729 -0.00019999997
-0.013753677 0.0020050847 0.0031916667
0.0097803921 0.0091000004 0.0010333334
-0.016198775 0.0053983051 0.0031916667
0.019560784 -0.0078661013 -0.0066749998
0.025979167 -0.0069406778 0.00165
-0.027507354 0.0084830504 -0.0038999999
-0.01008603 0.0029305085 0.0031916667
-0.02017206 0.0013881356 -0.0063666664
-0.019560784 0.0060152542 0.0031916667
-0.0082522063 0.0069406778 -0.0029749998
0.018032597 -0.00015423729 -0.0066749998
-0.022005882 -0.0069406778 0.0022666666
-0.0027507353 0.0087915258 -0.0029749998
-0.0006112745 -0.0016966101 -0.0072916667
0.010391667 0.0075576273 0.0031916667
-0.014670588 -0.0091000004 0.00165
0.010697304 -0.0047813561 -0.0069833333
-0.011919853 -0.0087915258 -0.00019999997
0.0039732843 0.0013881356 -0.0063666664
0.027812989 0.0081745759 -0.0060583334
-0.023228431 0.0091000004 -0.0017416666
0.028424265 -0.0091000004 -0.0023583332
0.017726962 -0.0038559323 -0.00019999997
0.020477695 -0.0087915258 -0.001125
-0.030563725 0.0060152542 -0.0023583332
-0.022922793 -0.00015423729 -0.00019999997
0.002445098 -0.0066322032 -0.0066749998
-0.029035538 -0.0072491528 0.0022666666
0.025062256 -0.0010796611 -0.0069833333
-0.0027507353 0.0013881356 -0.0066749998
0.029952452 -0.0091000004 -0.0060583334
-0.030563725 -0.0016966101 -0.0066749998
-0.02445098 -0.0091000004 -0.0066749998
0.0091691175 0.0091000004 -0.0017416666
0.014364951 0.0091000004 0.0031916667
0.026284805 0.0050898306 -0.0072916667
0.0094747553 -0.0066322032 0.0022666666
-0.00030563725 -0.0044728816 -0.00019999997
0.014976226 0.0041644066 -0.0072916667
0.0021394608 -0.0069406778 0.002575
-0.027812989 0.0010796611 -0.00575
-0.0079465685 0.0091000004 0.0019583334
-0.029341176 0.0091000004 -0.0023583332
-0.0097803921 -0.0075576273 -0.0060583334
0.0091691175 0.0069406778 0.0031916667
0.0027507353 -0.0091000004 0.00041666671
0.02017206 -0.0060152542 -0.00019999997
-0.029646814 -0.0047813561 -0.00019999997
0.01222549 0.00015423729 0.00041666671
-0.015281863 0.0081745759 0.0031916667
-0.0097803921 -0.00015423729 -0.00019999997
-0.02445098 -0.0063237287 -0.00019999997
0.018643873 -0.0029305085 -0.00019999997
0.018643873 -0.0081745759 -0.0066749998
0.0015281863 0.0069406778 -0.0029749998
0.029341176 0.0091000004 0.00041666671
0.017115686 0.0069406778 -0.0045166668
0.00030563725 0.0044728816 -0.0038999999
-0.028118627 -0.0084830504 0.0010333334
0.0097803921 0.0081745759 0.002575
0.025062256 0.0053983051 -0.0072916667
0.0076409313 0.0084830504 -0.0029749998
0.007335294 0.0047813561 -0.0066749998
-0.026284805 -0.00015423729 -0.0060583334
0.004890196 0.0069406778 0.0031916667
-0.016198775 0.0091000004 -0.00205
-0.031175001 0.0016966101 -0.0026666666
-0.0045845588 -0.0063237287 -0.0023583332
0.0076409313 0.0091000004 0.00010833336
0.019255146 0.0091000004 -0.001125
0.0045845588 0.0013881356 -0.0072916667
-0.0064183823 -0.0069406778 0.0013416667
-0.018643873 0.0060152542 0.0031916667
-0.016198775 -0.0016966101 -0.00019999997
0.0045845588 -0.0060152542 -0.0042083333
0.017421324 0.00015423729 0.00041666671
-0.019255146 0.0050898306 -0.0072916667
0.017726962 -0.0084830504 -0.0054416666
-0.014059314 -0.0081745759 0.00041666671
-0.010391667 -0.00077118643 -0.00019999997
-0.0045845588 0.0084830504 0.0031916667
-0.024145342 -0.0087915258 -0.0066749998
-0.016810048 -0.0035474575 -0.00019999997
-0.023534069 0.0026220339 0.0031916667
-0.029646814 0.00046271188 0.002575
-0.016198775 0.0035474575 0.0031916667
0.001222549 -0.0091000004 0.0019583334
0.004890196 0.00015423729 0.00010833336
-0.030563725 -0.0010796611 -0.0032833333
-0.02231152 0.0013881356 -0.0060583334
-0.0064183823 0.0047813561 -0.0054416666
-0.014670588 -0.0060152542 -0.00019999997
0.006112745 -0.0063237287 -0.0023583332
-0.004890196 -0.0075576273 0.0031916667
0.012531128 -0.0087915258 0.00041666671
0.003667647 0.0091000004 0.0019583334
-0.001222549 0.0057067797 -0.0032833333
0.02231152 0.0078661013 -0.0072916667
0.008557843 -0.0023135594 -0.00019999997
0.021088971 -0.0016966101 -0.0069833333
-0.016810048 -0.0078661013 0.0031916667
0.013142402 -0.0066322032 0.0010333334
-0.0064183823 -0.0020050847 -0.00019999997
0.02017206 0.0016966101 -0.0072916667
-0.002445098 0.0023135594 0.0031916667
0.028729903 0.0091000004 -0.0017416666
-0.014059314 -0.0087915258 0.00010833336
0.0091691175 0.0016966101 0.0031916667
-0.027201716 -0.0063237287 -0.00019999997
-0.022617158 0.0063237287 -0.0072916667
-0.023228431 -0.0087915258 0.00041666671
-0.003667647 0.0013881356 -0.0066749998
0.001222549 0.0013881356 -0.0072916667
-0.029952452 0.0072491528 -0.0060583334
-0.023534069 0.0050898306 0.0031916667
-0.008557843 0.0047813561 0.0031916667
0.0076409313 -0.0047813561 -0.0069833333
-0.00091691175 -0.0023135594 -0.0072916667
0.002445098 -0.0072491528 -0.00050833332
0.02231152 0.0057067797 0.0031916667
0.030258087 0.003238983 0.00010833336
-0.013753677 -0.0072491528 0.0019583334
-0.0055014705 0.0020050847 0.0031916667
0.029952452 0.0069406778 -0.0072916667
-0.002445098 0.0038559323 0.0031916667
-0.0088634808 -0.0069406778 -0.0045166668
-0.026284805 0.0081745759 -0.0045166668
0.019866422 0.003238983 -0.0072916667
0.0064183823 -0.0063237287 -0.0032833333
-0.002445098 -0.0066322032 -0.0060583334
0.021088971 -0.0087915258 -0.00575
-0.024145342 0.0013881356 -0.0063666664
0.021088971 0.0035474575 -0.0072916667
-0.02231152 0.0013881356 -0.0072916667
0.028424265 0.0072491528 -0.0072916667
-0.013753677 -0.003238983 -0.00019999997
0.023534069 -0.0010796611 -0.0069833333
0.01008603 -0.0091000004 0.00041666671
-0.011308579 -0.0091000004 -0.00019999997
0.030258087 0.0016966101 0.0031916667
-0.008557843 -0.0060152542 -0.00019999997
-0.015281863 -0.0075576273 0.00072500005
0.021394609 0.0091000004 -0.00205
-0.012531128 -0.0053983051 -0.00019999997
-0.025062256 0.0091000004 0.0022666666
-0.030869363 -0.0060152542 -0.0063666664
0.019866422 -0.0087915258 0.00072500005
-0.0015281863 -0.003238983 -0.0069833333
0.0079465685 -0.0044728816 -0.00019999997
-0.0058071078 -0.0016966101 -0.00019999997
0.018338235 -0.0078661013 0.00041666671
0.027201716 0.0087915258 -0.0032833333
-0.030869363 -0.0047813561 -0.0054416666
0.024756618 -0.00015423729 -0.0063666664
-0.017421324 0.0091000004 0.0031916667
0.012531128 -0.0072491528 -0.0035916667
0.0033620098 -0.0091000004 0.00072500005
-0.011308579 -0.0081745759 -0.00050833332
-0.0155875 0.0078661013 -0.0029749998
0.014670588 0.0023135594 0.0031916667
0.001222549 0.0091000004 0.0019583334
-0.013753677 -0.0075576273 -0.0026666666
0.0082522063 0.0081745759 0.002575
-0.0006112745 -0.0078661013 -0.0069833333
-0.0094747553 0.0023135594 0.0031916667
-0.0039732843 -0.0060152542 -0.00205
-0.030563725 -0.0029305085 -0.0038999999
0.0042789215 -0.0091000004 0.00010833336
0.030258087 0.003238983 0.00041666671
0.0155875 0.0010796611 -0.0060583334
0.013753677 0.0091000004 0.002575
-0.027812989 -0.0091000004 -0.0026666666
0.0076409313 -0.0084830504 -0.00050833332
-0.00030563725 0.0091000004 -0.00081666664
-0.023839707 -0.0087915258 -0.0066749998
0.025673529 -0.0078661013 -0.00019999997
-0.01008603 0.0013881356 -0.0072916667
0.024756618 0.0091000004 -0.0017416666
0.020783333 0.0081745759 -0.0029749998
0.010697304 0.0087915258 0.002575
0.0033620098 0.0057067797 -0.0032833333
0.030258087 0.0053983051 -0.00575
0.01008603 0.0010796611 -0.0060583334
-0.0030563725 0.0044728816 -0.0042083333
-0.019560784 -0.0084830504 0.0028833332
-0.0091691175 0.003238983 -0.0072916667
-0.0039732843 0.0066322032 -0.0032833333
-0.029952452 -0.0053983051 -0.00019999997
-0.017726962 -0.0081745759 -0.0032833333
-0.0064183823 0.0044728816 -0.0072916667
0.0027507353 -0.0029305085 -0.0072916667
0.0155875 0.0081745759 0.0031916667
0.030258087 0.0044728816 -0.0051333332
-0.014976226 -0.0091000004 -0.0063666664
-0.0015281863 0.0069406778 0.0028833332
-0.011002941 -0.0066322032 0.00165
0.013142402 -0.0069406778 0.002575
-0.024756618 -0.0035474575 -0.0069833333
0.0006112745 -0.0035474575 -0.0069833333
0.008557843 0.0035474575 -0.0072916667
0.011919853 -0.0069406778 0.0028833332
-0.0064183823 -0.0029305085 -0.0072916667
-0.02017206 0.0072491528 -0.0042083333
-0.015893137 0.0020050847 -0.0072916667
0.001222549 -0.0069406778 0.0019583334
0.028118627 -0.0069406778 -0.0066749998
0.0042789215 0.0091000004 -0.00081666664
-0.001222549 0.0091000004 0.0022666666
-0.0018338235 -0.0060152542 -0.0048249997
-0.030563725 0.0063237287 -0.0029749998
-0.025062256 -0.003238983 -0.0069833333
-0.022005882 0.0044728816 0.0031916667
-0.019560784 0.0060152542 -0.0072916667
0.0051958333 -0.0069406778 0.0010333334
-0.017726962 0.0091000004 0.0019583334
0.006112745 -0.0038559323 -0.0069833333
-0.013448039 0.00015423729 0.0013416667
-0.023228431 0.00015423729 0.002575
0.030563725 -0.0053983051 -0.0023583332
0.020477695 0.0013881356 -0.0072916667
0.002445098 0.0038559323 0.0031916667
0.011919853 0.0053983051 -0.0066749998
0.0039732843 -0.0069406778 -0.0069833333
-0.028118627 0.0013881356 -0.0072916667
0.02659044 0.0010796611 -0.0060583334
0.014059314 0.0016966101 -0.0072916667
0.028118627 -0.0091000004 -0.00050833332
-0.011002941 -0.0081745759 -0.0060583334
-0.022617158 0.0091000004 0.0022666666
-0.0058071078 0.0050898306 -0.0042083333
-0.01222549 0.0050898306 -0.0069833333
0.011919853 0.0057067797 0.0031916667
-0.0021394608 -0.0072491528 -0.0066749998
0.025673529 0.0091000004 -0.00081666664
0.02445098 0.0016966101 0.0031916667
0.013142402 -0.0075576273 -0.0014333333
-0.019866422 -0.0084830504 0.0019583334
-0.018643873 -0.0084830504 -0.0023583332
0.0094747553 -0.0081745759 -0.00050833332
-0.012531128 0.0091000004 -0.0023583332
-0.0030563725 -0.0069406778 0.00010833336
0.014976226 -0.0066322032 0.0019583334
-0.019255146 -0.0084830504 -0.0017416666
-0.0045845588 0.0091000004 0.00041666671
0.0094747553 0.0091000004 -0.00050833332
-0.010391667 0.0084830504 0.0028833332
-0.0076409313 0.00046271188 -0.0060583334
-0.011308579 -0.0081745759 -0.0066749998
-0.018338235 0.0063237287 -0.0063666664
0.017726962 0.0063237287 -0.0066749998
-0.02445098 -0.0075576273 0.00041666671
-0.021700244 0.0091000004 -0.00050833332
-0.001222549 -0.0047813561 -0.0069833333
0.021088971 0.0050898306 -0.0072916667
-0.019255146 0.0047813561 0.0031916667
0.025062256 0.0084830504 -0.0032833333
-0.012836765 0.0084830504 0.002575
