# .PCD v0.7 - Point Cloud Data file format
VERSION 0.7
FIELDS x y z
SIZE 4 4 4
TYPE F F F
COUNT 1 1 1
WIDTH 1194
HEIGHT 1
VIEWPOINT 0 0 0 1 0 0 0
POINTS 1194
DATA ascii
-0.024041826 0.0038054546 0.0031636364
0.020725712 0.0044672727 -0.0072636362
0.013430261 -0.002150909 -0.0072636362
0.0018238627 0.0091000004 -0.0012090908
0.033990167 0.0084381821 0.0031636364
-0.034653392 -0.0064527271 -0.0028909091
-0.034653392 -0.005129091 -0.0025545454
0.012435427 -0.0047981818 -0.0069272728
0.026694717 -0.001489091 -0.00019999997
-0.017409598 0.0091000004 -0.00019999997
0.02271538 0.0041363635 0.0031636364
0.0094509246 0.0038054546 -0.0072636362
-0.014425095 -0.0031436363 -0.0072636362
-0.0087877018 -0.005129091 -0.0069272728
0.031337276 -0.0091000004 -0.0049090907
0.031005664 -0.0064527271 -0.00019999997
-0.023378603 -0.0041363635 -0.00019999997
0.0048083649 0.0041363635 -0.0055818181
0.024705049 -0.0074454546 0.0021545454
-0.031668887 -0.0091000004 -0.00087272725
-0.021057323 0.0041363635 0.0031636364
0.032332111 0.00016545455 0.00047272729
-0.024705049 -0.0084381821 0.0014818182
0.0051399763 -0.0071145454 -0.0069272728
-0.014425095 -0.0084381821 -0.0065909089
-0.003813531 -0.0044672727 -0.00019999997
0.018404432 -0.0081072729 -0.0032272728
-0.0054715881 0.0034745454 -0.0069272728
-0.034321778 0.0028127274 0.0031636364
0.010114147 0.00049636362 -0.0062545454
0.0074612563 -0.0067836363 -0.0059181815
-0.021720545 0.006121818 0.0031636364
0.0087877018 0.0091000004 -0.0025545454
0.019067654 -0.0074454546 0.00013636367
0.030010831 0.0091000004 0.0024909091
-0.034985002 0.00016545455 -0.0018818182
-0.033990167 0.0038054546 0.0021545454
0.034321778 0.0041363635 -0.0035636362
0.030342441 -0.002150909 -0.00019999997
-0.0077928677 0.0091000004 -0.00053636357
0.0203941 -0.0084381821 -0.0035636362
0.017409598 -0.0064527271 0.00013636367
-0.023046991 0.0057909093 -0.0072636362
-0.014093484 0.005129091 -0.0059181815
-0.0028186969 -0.0064527271 -0.0069272728
-0.023710214 -0.0024818182 -0.00019999997
0.007129645 0.0024818182 -0.0072636362
0.0024870853 -0.00049636362 -0.00019999997
-0.013761872 0.0091000004 -0.00019999997
-0.029679218 0.001489091 0.0031636364
0.012767038 0.0081072729 0.0031636364
-0.016746376 0.0028127274 -0.0072636362
-0.022052158 0.0091000004 0.0028272728
-0.0081244791 0.006121818 -0.0032272728
-0.010114147 0.0047981818 -0.0049090907
0.030674053 0.002150909 -0.0072636362
0.013761872 -0.0067836363 0.0028272728
0.034321778 -0.0038054546 -0.0065909089
-0.024041826 0.0028127274 0.0031636364
-0.021720545 0.0091000004 -0.00053636357
-0.030674053 -0.001489091 -0.00019999997
0.007129645 -0.0024818182 -0.0072636362
0.0064664222 -0.0087690912 0.0031636364
0.0034819196 -0.0091000004 0.0028272728
-0.025368271 -0.0091000004 -0.0038999999
-0.019399267 -0.0084381821 -0.0042363633
0.010114147 -0.0044672727 -0.00019999997
0.023378603 -0.0091000004 -0.0062545454
0.021388935 0.0044672727 0.0031636364
0.026694717 0.0044672727 0.0031636364
-0.011108981 -0.00016545455 -0.0065909089
0.0203941 0.0081072729 -0.0028909091
-0.032000497 -0.00016545455 -0.0038999999
0.0077928677 -0.0067836363 0.00080909091
-0.023378603 0.001489091 0.0031636364
0.015419929 -0.0081072729 -0.0062545454
-0.029015996 -0.0071145454 -0.0069272728
-0.0028186969 -0.0084381821 -0.00053636357
0.025036659 0.0091000004 -0.0028909091
0.021057323 0.0038054546 0.0031636364
0.020725712 -0.0031436363 -0.00019999997
-0.00082902849 0.001489091 -0.0072636362
-0.01309865 0.00182 0.0031636364
-0.0203941 0.0091000004 -0.0025545454
-0.0074612563 0.0091000004 -0.0025545454
0.0031503083 -0.0057909093 -0.0052454546
0.025036659 0.0031436363 0.0031636364
0.023046991 0.0011581818 -0.0062545454
-0.034653392 0.002150909 -0.0032272728
0.032663722 -0.0077763638 0.00080909091
0.031005664 0.0011581818 -0.0065909089
-0.034653392 -0.0071145454 -0.0062545454
0.0091193132 0.0074454546 0.0031636364
-0.015751541 -0.005129091 -0.00019999997
-0.0018238627 0.0054600001 0.0035000001
0.031668887 0.0091000004 0.0014818182
-0.034321778 -0.002150909 -0.0015454545
0.033658557 0.0031436363 0.0031636364
0.034321778 0.0031436363 -0.0049090907
0.00016580569 -0.00016545455 -0.00019999997
0.015419929 -0.0057909093 -0.0069272728
-0.02735794 -0.0084381821 0.00080909091
0.028352773 0.0091000004 -0.0025545454
-0.018072821 -0.0028127274 -0.0072636362
-0.020062489 0.00016545455 0.00080909091
0.034653392 0.005129091 -0.0032272728
-0.0061348109 -0.0024818182 -0.00019999997
0.0091193132 -0.0091000004 0.0024909091
-0.0051399763 0.0064527271 -0.0032272728
-0.0064664222 -0.0091000004 0.0021545454
-0.030674053 -0.0067836363 -0.0065909089
0.02768955 0.0024818182 -0.0072636362
-0.031005664 -0.0091000004 -0.0065909089
0.033990167 0.0038054546 0.0021545454
0.009782536 -0.0038054546 -0.0069272728
-0.033990167 0.0087690912 0.00080909091
0.0021554739 -0.0067836363 0.0018181818
0.034985002 0.00182 -0.00087272725
0.034321778 0.0084381821 0.0011454546
0.030342441 -0.00082727271 -0.0052454546
-0.016083153 0.0071145454 -0.0032272728
0.020725712 0.0091000004 -0.0025545454
0.020062489 -0.0087690912 -0.0065909089
-0.01309865 -0.00016545455 -0.0069272728
-0.030010831 -0.0091000004 -0.0049090907
0.028352773 -0.0047981818 -0.00019999997
0.012103816 0.0054600001 -0.0052454546
-0.033990167 0.0031436363 -0.0069272728
0.013761872 -0.0067836363 0.00047272729
0.0021554739 0.0091000004 -0.00053636357
0.023378603 0.0031436363 -0.0072636362
0.0074612563 -0.005129091 -0.0069272728
-0.023378603 -0.0071145454 0.00080909091
-0.016414763 0.0087690912 0.0031636364
-0.018404432 0.00016545455 0.0028272728
-0.0064664222 -0.0057909093 -0.0069272728
-0.0064664222 0.0044672727 -0.0045727273
-0.016083153 0.00049636362 0.0028272728
-0.0031503083 -0.0034745454 -0.0072636362
-0.014756707 0.0064527271 0.0031636364
0.00082902849 0.0091000004 -0.00019999997
-0.0087877018 0.0074454546 -0.0028909091
-0.034653392 0.0024818182 -0.0015454545
0.0024870853 -0.0084381821 0.0031636364
0.0087877018 0.005129091 -0.0045727273
-0.0014922513 -0.0057909093 -0.0049090907
0.017409598 0.0041363635 0.0031636364
-0.0028186969 -0.0044672727 -0.0072636362
0.030674053 -0.0057909093 -0.00019999997
-0.017741209 -0.0084381821 -0.0042363633
-0.014093484 -0.0091000004 0.0024909091
0.034653392 -0.005129091 -0.0065909089
-0.02735794 0.0084381821 -0.0028909091
0.016746376 0.0091000004 -0.00019999997
0.029015996 -0.0067836363 -0.0065909089
-0.013430261 -0.0084381821 0.0028272728
-0.003813531 -0.006121818 -0.0032272728
-0.031337276 -0.00016545455 -0.0055818181
-0.018736044 -0.00049636362 -0.0072636362
0.026031494 -0.0071145454 0.0014818182
-0.029347608 0.0031436363 -0.0072636362
-0.012103816 0.0074454546 0.0031636364
-0.00082902849 -0.0034745454 -0.00019999997
-0.0014922513 -0.0038054546 -0.00019999997
0.020062489 0.006121818 0.0031636364
0.00016580569 -0.0084381821 0.0031636364
0.033990167 0.0057909093 -0.0059181815
0.0064664222 -0.0084381821 0.0031636364
0.0051399763 -0.006121818 -0.0055818181
0.024041826 0.0074454546 0.0031636364
-0.021720545 0.0071145454 -0.0038999999
0.028021162 -0.0041363635 -0.00019999997
0.034321778 -0.0074454546 -0.0022181817
0.026031494 -0.0071145454 0.00013636367
-0.032663722 -0.00016545455 -0.0065909089
-0.031668887 -0.001489091 -0.0052454546
-0.022383768 -0.006121818 -0.00019999997
0.0034819196 -0.001489091 -0.00019999997
0.026363105 0.0091000004 0.0014818182
-0.034985002 0.001489091 -0.00019999997
-0.0018238627 0.00182 0.0031636364
0.018072821 -0.0077763638 0.00013636367
-0.034653392 -0.0091000004 -0.00019999997
-0.0081244791 -0.0067836363 -0.0032272728
-0.011440593 -0.0067836363 0.0028272728
-0.0031503083 -0.0077763638 0.0031636364
-0.029679218 -0.0044672727 -0.0069272728
-0.0061348109 -0.0071145454 0.0028272728
0.033990167 -0.0091000004 -0.0025545454
0.034321778 -0.0024818182 -0.00019999997
-0.019067654 0.001489091 -0.0062545454
0.01309865 -0.0054600001 -0.0069272728
-0.033990167 0.0074454546 -0.0069272728
-0.00016580569 -0.0081072729 -0.00053636357
-0.022383768 -0.0041363635 -0.00019999997
-0.01309865 0.0047981818 -0.0072636362
0.019399267 -0.0081072729 0.0024909091
0.026031494 0.0091000004 0.00013636367
-0.013430261 0.00016545455 0.0011454546
-0.0041451422 0.0074454546 0.0031636364
0.0074612563 0.005129091 0.0031636364
0.028684385 0.00016545455 0.0028272728
-0.025699882 -0.006121818 -0.00019999997
0.025036659 0.00049636362 -0.0052454546
-0.029347608 -0.0077763638 0.0011454546
-0.030342441 -0.00049636362 -0.0055818181
0.021720545 -0.0084381821 -0.0065909089
0.033326946 -0.0031436363 -0.00019999997
0.019067654 0.0087690912 0.0031636364
-0.003813531 0.0038054546 -0.0042363633
0.015419929 -0.0064527271 0.00080909091
0.0077928677 0.005129091 -0.0042363633
0.009782536 -0.0067836363 0.0011454546
0.034321778 -0.0024818182 -0.0055818181
0.0021554739 0.00016545455 0.00013636367
0.032000497 0.0084381821 -0.0049090907
-0.015751541 0.0091000004 -0.0015454545
-0.031668887 -0.0067836363 -0.00019999997
0.019730877 -0.00016545455 -0.0072636362
-0.0044767535 -0.0064527271 -0.0025545454
-0.010114147 0.002150909 0.0031636364
0.0081244791 0.0091000004 0.0018181818
0.032995332 -0.0031436363 -0.00019999997
-0.014425095 0.001489091 -0.0069272728
0.0077928677 -0.00016545455 -0.00019999997
0.011108981 -0.0071145454 -0.0028909091
-0.034321778 -0.0011581818 -0.0028909091
-0.016083153 -0.0081072729 -0.0052454546
-0.029347608 -0.0011581818 -0.0065909089
0.026363105 0.0091000004 0.0011454546
0.012435427 -0.0071145454 -0.0025545454
0.027026327 -0.00182 -0.00019999997
0.031668887 0.0091000004 -0.0025545454
-0.019730877 0.00016545455 0.0021545454
-0.025036659 0.00182 0.0031636364
0.011440593 -0.0054600001 -0.00019999997
-0.033326946 0.005129091 0.0031636364
-0.017741209 -0.0067836363 0.0018181818
0.012103816 -0.0091000004 0.0011454546
-0.025699882 -0.0034745454 -0.00019999997
-0.025368271 -0.0081072729 -0.0065909089
-0.019399267 -0.0044672727 -0.00019999997
0.032000497 -0.00016545455 -0.0059181815
0.018072821 -0.0091000004 0.0011454546
-0.031005664 0.002150909 -0.0072636362
-0.0034819196 -0.0074454546 -0.00053636357
-0.024373436 -0.0044672727 -0.00019999997
0.033990167 -0.0071145454 -0.0065909089
-0.024041826 0.0011581818 -0.0065909089
-0.025699882 0.0074454546 -0.0042363633
0.025368271 0.0081072729 -0.0072636362
-0.033990167 0.00016545455 0.00013636367
0.034653392 -0.0071145454 -0.0049090907
0.029015996 -0.0028127274 -0.0069272728
0.019399267 0.0041363635 0.0031636364
-0.024373436 0.0047981818 -0.0072636362
0.029679218 0.0091000004 -0.00019999997
-0.0041451422 -0.0064527271 -0.0035636362
0.034653392 0.006121818 -0.00087272725
-0.00016580569 -0.0091000004 0.0031636364
0.0048083649 -0.006121818 -0.00087272725
-0.019067654 -0.0071145454 0.0028272728
-0.010445759 -0.0091000004 0.0028272728
0.026031494 -0.0064527271 -0.0069272728
-0.022383768 0.00016545455 0.0011454546
-0.016083153 -0.0074454546 0.0028272728
0.0021554739 -0.0091000004 0.0024909091
-0.023710214 -0.00016545455 -0.0059181815
-0.033990167 0.0024818182 -0.0072636362
0.020725712 -0.0064527271 0.0018181818
0.033990167 0.0071145454 -0.0072636362
-0.030674053 0.0011581818 -0.0059181815
-0.020062489 -0.00016545455 -0.0062545454
-0.020062489 0.0041363635 -0.0072636362
0.024041826 -0.0057909093 -0.00019999997
-0.028684385 -0.0044672727 -0.0069272728
0.028684385 0.006121818 0.0031636364
-0.0067980336 0.0074454546 -0.0028909091
0.028684385 -0.0047981818 -0.00019999997
-0.027026327 -0.0091000004 -0.0059181815
-0.032663722 -0.0091000004 -0.0042363633
0.01077737 0.00016545455 0.0014818182
0.0067980336 0.0087690912 0.0031636364
0.0067980336 0.006121818 -0.0032272728
-0.010114147 -0.0034745454 -0.00019999997
0.011108981 -0.0064527271 -0.0069272728
0.0067980336 0.00182 0.0031636364
-0.010445759 -0.0091000004 0.00047272729
-0.032995332 -0.0024818182 -0.00019999997
0.026694717 0.0077763638 0.0031636364
0.007129645 0.00182 0.0031636364
-0.02735794 0.0081072729 -0.0035636362
0.025368271 0.0044672727 -0.0072636362
0.0203941 -0.0071145454 -0.0069272728
0.009782536 0.0084381821 0.0028272728
-0.0024870853 -0.0091000004 0.0011454546
0.027026327 0.0024818182 0.0031636364
-0.028352773 0.0031436363 -0.0072636362
-0.023710214 0.0084381821 0.0031636364
0.034985002 -0.00049636362 -0.00053636357
-0.026031494 0.0091000004 0.0018181818
0.003813531 -0.0091000004 0.0024909091
-0.014425095 0.0091000004 0.0024909091
-0.011108981 -0.00016545455 -0.0072636362
-0.019399267 -0.0081072729 0.00047272729
0.00016580569 0.0024818182 0.0031636364
0.024373436 0.0067836363 -0.0072636362
-0.017741209 -0.0067836363 0.00013636367
0.024705049 0.00049636362 -0.0052454546
0.019730877 -0.005129091 -0.0069272728
-0.030342441 -0.0074454546 -0.0065909089
0.011772204 -0.0028127274 -0.00019999997
0.018736044 -0.0067836363 0.0011454546
-0.011772204 0.0091000004 -0.00053636357
0.024705049 -0.0087690912 -0.00019999997
-0.018404432 -0.00049636362 -0.0072636362
-0.0058031995 -0.0091000004 0.00080909091
0.034653392 -0.0038054546 -0.00019999997
-0.023710214 0.0091000004 -0.0025545454
0.026363105 0.0038054546 -0.0072636362
0.034653392 -0.0067836363 -0.0045727273
-0.0077928677 -0.0067836363 -0.0012090908
0.021057323 -0.0054600001 -0.0069272728
-0.032995332 0.0091000004 0.00013636367
-0.033990167 0.00182 0.0018181818
-0.0058031995 0.0077763638 -0.0028909091
0.0094509246 0.0091000004 0.00080909091
0.0028186969 -0.0084381821 0.0031636364
-0.030342441 0.0011581818 0.0031636364
-0.019067654 0.0091000004 0.0011454546
0.00049741706 -0.005129091 -0.00019999997
0.021720545 0.0054600001 0.0031636364
0.00016580569 0.0054600001 0.0035000001
0.0021554739 -0.0091000004 0.0021545454
0.021388935 -0.0074454546 0.00080909091
0.014756707 -0.00182 -0.00019999997
0.025699882 -0.0071145454 0.0018181818
0.0058031995 -0.0064527271 -0.0059181815
0.0081244791 0.00049636362 0.0028272728
0.033990167 0.0071145454 -0.0052454546
0.0044767535 0.0091000004 0.0014818182
-0.015419929 0.0091000004 0.0018181818
-0.016083153 0.0057909093 -0.0049090907
-0.016414763 -0.005129091 -0.0069272728
0.02271538 0.0011581818 -0.0055818181
0.010114147 0.0084381821 -0.0028909091
0.034321778 -0.0077763638 -0.0042363633
0.015751541 -0.0054600001 -0.00019999997
0.012767038 -0.0057909093 -0.00019999997
0.017077986 -0.0081072729 -0.00087272725
-0.00016580569 0.0034745454 -0.0055818181
0.032000497 0.001489091 -0.0069272728
-0.011108981 -0.00049636362 -0.0072636362
-0.010114147 -0.0067836363 0.0028272728
-0.010114147 -0.0047981818 -0.0069272728
-0.033990167 0.005129091 -0.0055818181
-0.016083153 0.00016545455 0.00013636367
0.013430261 0.001489091 -0.0072636362
-0.034321778 0.0077763638 -0.00019999997
0.017409598 -0.001489091 -0.00019999997
0.010114147 0.00016545455 0.0024909091
0.028021162 -0.0091000004 -0.00087272725
-0.029347608 -0.0091000004 -0.0035636362
-0.0084560905 0.00182 0.0031636364
-0.023378603 0.0064527271 0.0031636364
0.029347608 0.0091000004 0.0014818182
-0.018736044 0.0041363635 -0.0072636362
-0.018404432 0.0044672727 0.0031636364
0.016083153 -0.00182 -0.00019999997
0.013430261 -0.0047981818 -0.00019999997
-0.00016580569 0.0091000004 -0.00053636357
-0.032663722 0.0091000004 -0.00019999997
-0.026363105 0.0071145454 -0.0055818181
-0.030010831 -0.00016545455 -0.0069272728
-0.034321778 0.0044672727 -0.0032272728
0.023046991 -0.0064527271 0.0011454546
0.033658557 0.005129091 0.0031636364
-0.025036659 0.0077763638 -0.0035636362
-0.033658557 0.0044672727 0.0031636364
-0.014425095 -0.0074454546 0.0031636364
-0.003813531 -0.0071145454 -0.0062545454
0.027026327 -0.00082727271 -0.0069272728
0.01309865 -0.0074454546 -0.0032272728
0.010445759 0.0024818182 0.0031636364
0.026363105 -0.0074454546 0.00013636367
-0.01309865 -0.001489091 -0.0072636362
-0.034321778 0.0067836363 -0.00053636357
0.012103816 -0.0074454546 -0.0042363633
-0.010114147 -0.0011581818 -0.0072636362
0.02768955 0.00082727271 0.0031636364
0.011440593 -0.00016545455 -0.0072636362
0.015751541 0.0028127274 -0.0072636362
0.018736044 -0.0084381821 0.0014818182
0.034653392 -0.00182 -0.0022181817
0.022383768 -0.0071145454 -0.0069272728
0.00082902849 -0.0034745454 -0.00019999997
-0.019399267 -0.0024818182 -0.0069272728
0.0203941 0.0038054546 -0.0072636362
-0.019067654 -0.00082727271 -0.00019999997
0.026694717 0.0034745454 -0.0072636362
-0.017409598 -0.0047981818 -0.0069272728
-0.021388935 0.006121818 -0.0062545454
0.033658557 0.0011581818 -0.0062545454
0.0014922513 -0.0057909093 -0.0049090907
-0.0091193132 0.0091000004 -0.00087272725
0.021057323 0.0034745454 -0.0072636362
-0.0024870853 0.0091000004 0.0018181818
0.0011606398 -0.0011581818 -0.00019999997
-0.028021162 -0.0091000004 -0.0062545454
-0.028021162 0.0081072729 0.0031636364
-0.032663722 -0.0047981818 -0.00019999997
-0.0018238627 0.0074454546 -0.0028909091
0.0081244791 -0.0064527271 -0.00019999997
-0.025699882 -0.006121818 -0.0069272728
0.0018238627 -0.0091000004 0.0021545454
0.00016580569 -0.0077763638 -0.00053636357
0.033990167 0.0091000004 -0.0025545454
-0.010114147 -0.0067836363 0.0024909091
-0.022383768 -0.0034745454 -0.0069272728
-0.018404432 0.00016545455 0.00013636367
0.011440593 -0.0064527271 -0.00019999997
-0.013761872 -0.0091000004 -0.00019999997
0.013430261 -0.0064527271 -0.0069272728
-0.00082902849 -0.0057909093 -0.0052454546
0.0084560905 -0.0067836363 0.0018181818
-0.011108981 -0.0054600001 -0.0069272728
-0.0058031995 -0.00016545455 -0.0069272728
-0.01309865 -0.0077763638 0.0031636364
0.026363105 0.00049636362 0.0031636364
-0.028021162 -0.0077763638 0.0014818182
-0.0054715881 -0.002150909 -0.00019999997
0.010445759 -0.0031436363 -0.00019999997
0.019730877 0.00016545455 0.0018181818
-0.031337276 0.00016545455 0.0021545454
0.021057323 -0.0077763638 0.0031636364
0.0058031995 0.0047981818 0.0031636364
-0.0058031995 0.0084381821 -0.0028909091
-0.0014922513 0.00082727271 0.0028272728
-0.017741209 -0.0077763638 -0.0069272728
-0.0024870853 0.0081072729 -0.0028909091
0.026694717 -0.0084381821 -0.00019999997
0.0074612563 0.0091000004 0.0021545454
-0.030342441 -0.0028127274 -0.0069272728
-0.012767038 0.006121818 0.0031636364
0.0041451422 -0.0087690912 0.0028272728
-0.017077986 0.0054600001 -0.0062545454
-0.012435427 -0.0077763638 -0.0028909091
0.018404432 -0.0084381821 0.00080909091
-0.007129645 0.0044672727 -0.0045727273
0.0081244791 0.00082727271 0.0028272728
-0.021057323 0.0034745454 -0.0072636362
-0.0021554739 0.0031436363 -0.0065909089
-0.012103816 -0.0077763638 -0.0059181815
-0.015419929 -0.0044672727 -0.0069272728
-0.029015996 0.0077763638 -0.0049090907
-0.026694717 0.0031436363 -0.0072636362
-0.017409598 0.0091000004 -0.0025545454
0.014093484 0.0077763638 -0.0028909091
0.009782536 0.00016545455 0.0024909091
0.025368271 0.0038054546 -0.0072636362
-0.026363105 -0.00016545455 -0.0062545454
-0.017409598 0.0091000004 -0.00087272725
0.016414763 -0.0084381821 0.0014818182
-0.020062489 -0.00082727271 -0.0072636362
-0.0203941 -0.0077763638 -0.0069272728
-0.00082902849 0.0091000004 0.0018181818
0.0044767535 -0.001489091 -0.00019999997
0.027026327 -0.0044672727 -0.0069272728
-0.033658557 0.001489091 -0.0069272728
-0.015419929 0.00182 0.0031636364
-0.0091193132 -0.0071145454 -0.0042363633
-0.0074612563 0.0038054546 -0.0065909089
0.0084560905 -0.00049636362 -0.0072636362
0.017741209 0.0011581818 -0.0062545454
0.013430261 -0.0077763638 -0.0059181815
0.033990167 0.0047981818 0.0011454546
-0.0091193132 -0.0091000004 0.00080909091
-0.020725712 -0.0087690912 -0.0015454545
0.0021554739 -0.0057909093 -0.00087272725
0.025036659 -0.0028127274 -0.00019999997
0.01077737 -0.0031436363 -0.0069272728
-0.028352773 -0.0084381821 0.00047272729
-0.015751541 -0.0077763638 -0.0069272728
0.029679218 0.0057909093 -0.0072636362
-0.010445759 -0.0091000004 -0.00019999997
-0.00049741706 -0.0067836363 0.00080909091
0.031005664 -0.00049636362 -0.0069272728
0.0054715881 -0.0067836363 0.0014818182
0.033990167 0.0031436363 0.0018181818
-0.0203941 -0.0081072729 0.0031636364
-0.018736044 -0.0087690912 0.0028272728
-0.031337276 -0.0057909093 -0.00019999997
-0.010114147 0.00049636362 -0.0059181815
-0.030674053 -0.0091000004 -0.00053636357
0.017409598 -0.0084381821 -0.00019999997
0.026031494 0.0074454546 -0.0062545454
0.031337276 -0.0091000004 -0.0028909091
-0.025699882 0.0067836363 -0.0069272728
-0.0014922513 0.00082727271 -0.0059181815
0.019730877 0.00016545455 0.0011454546
0.0051399763 -0.006121818 -0.0028909091
-0.003813531 0.00049636362 -0.0059181815
0.031668887 -0.00082727271 -0.0069272728
0.0087877018 0.00082727271 -0.0062545454
0.0041451422 0.0038054546 -0.0059181815
-0.0031503083 0.006121818 0.0035000001
0.020062489 0.001489091 -0.0065909089
-0.007129645 0.0041363635 0.0031636364
-0.031005664 0.0071145454 0.0031636364
0.015751541 -0.005129091 -0.0069272728
0.031005664 0.0028127274 0.0031636364
0.0021554739 0.0047981818 -0.0032272728
-0.018736044 -0.0067836363 0.0011454546
0.020725712 -0.0074454546 -0.0069272728
-0.023710214 -0.0091000004 -0.0012090908
0.009782536 0.0087690912 -0.0028909091
-0.033990167 0.00082727271 0.0018181818
-0.022052158 -0.0091000004 -0.0055818181
0.025699882 -0.0091000004 -0.0055818181
-0.032332111 -0.00016545455 -0.0065909089
-0.013430261 0.006121818 -0.0032272728
0.017409598 0.0077763638 -0.0028909091
-0.0084560905 -0.0087690912 0.0028272728
-0.013761872 -0.0041363635 -0.00019999997
0.0044767535 0.0091000004 0.0021545454
0.012767038 0.0024818182 -0.0072636362
0.013761872 -0.0074454546 -0.0018818182
-0.025036659 0.0091000004 0.0018181818
0.00049741706 0.0091000004 -0.0018818182
0.02271538 -0.0091000004 -0.0045727273
-0.0064664222 -0.0028127274 -0.00019999997
-0.0051399763 0.00049636362 0.0028272728
0.007129645 -0.0034745454 -0.0069272728
-0.01309865 -0.0077763638 -0.0045727273
0.025699882 -0.0091000004 -0.0025545454
0.018404432 -0.0071145454 0.0028272728
-0.026694717 0.0024818182 -0.0072636362
0.0203941 -0.0054600001 -0.00019999997
-0.021388935 -0.0044672727 -0.0069272728
-0.00082902849 -0.0041363635 -0.00019999997
-0.034653392 -0.0028127274 -0.0022181817
-0.033990167 0.0031436363 0.0024909091
-0.032000497 0.0084381821 -0.0049090907
0.00016580569 -0.0028127274 -0.0072636362
0.0011606398 0.0091000004 -0.00087272725
-0.0048083649 0.00016545455 0.0024909091
0.018404432 -0.0091000004 0.0018181818
0.013430261 -0.0071145454 -0.0069272728
0.034321778 0.0024818182 -0.0065909089
-0.033990167 0.005129091 -0.0052454546
0.016083153 0.0067836363 0.0031636364
0.013430261 0.0087690912 -0.0028909091
-0.003813531 -0.006121818 -0.0018818182
-0.028684385 0.0054600001 -0.0072636362
-0.018404432 0.0024818182 -0.0072636362
0.032000497 0.0091000004 0.0024909091
0.0041451422 -0.005129091 -0.00019999997
-0.030674053 -0.0074454546 -0.0065909089
0.0028186969 -0.0091000004 -0.00053636357
0.018404432 -0.0081072729 -0.0018818182
0.015751541 0.002150909 0.0031636364
0.018736044 -0.0038054546 -0.0069272728
-0.023710214 -0.0081072729 0.00047272729
0.034985002 0.00082727271 -0.0025545454
0.024705049 0.0071145454 -0.0065909089
-0.029347608 0.0038054546 -0.0072636362
0.0041451422 0.0074454546 -0.0032272728
0.01309865 -0.0074454546 -0.0069272728
0.031668887 -0.0081072729 -0.0065909089
-0.018072821 -0.001489091 -0.0072636362
0.033658557 -0.00016545455 -0.0042363633
0.023378603 -0.002150909 -0.0069272728
0.0018238627 -0.0084381821 0.0031636364
0.031005664 0.0091000004 0.00080909091
-0.031668887 0.006121818 -0.0072636362
0.003813531 -0.0044672727 -0.0069272728
0.012435427 -0.0074454546 -0.0052454546
-0.018736044 0.0091000004 0.0024909091
0.033990167 0.0041363635 0.0018181818
0.015088318 0.0091000004 -0.00053636357
0.033326946 -0.00016545455 -0.0055818181
-0.029347608 -0.0091000004 -0.0052454546
0.025368271 0.0057909093 0.0031636364
-0.0061348109 -0.0071145454 -0.0069272728
0.019067654 0.00016545455 0.0018181818
-0.030010831 0.001489091 0.0031636364
-0.0024870853 -0.0038054546 -0.00019999997
-0.034321778 0.005129091 0.0021545454
-0.0077928677 0.0084381821 0.0031636364
-0.014425095 0.0084381821 -0.0028909091
0.0084560905 0.0031436363 -0.0072636362
-0.0021554739 -0.006121818 -0.00019999997
-0.0031503083 -0.00182 -0.0072636362
-0.0014922513 -0.0067836363 0.00047272729
-0.016083153 -0.00016545455 -0.0069272728
-0.033326946 -0.0077763638 -0.00019999997
-0.032000497 0.0087690912 -0.0032272728
-0.0011606398 0.0057909093 0.0035000001
0.015088318 0.0067836363 -0.0032272728
0.034653392 -0.002150909 -0.00087272725
0.0034819196 -0.0074454546 -0.0069272728
0.031005664 0.0091000004 -0.0012090908
-0.032332111 0.0084381821 -0.0045727273
-0.032332111 -0.0091000004 -0.0015454545
-0.024705049 0.0057909093 0.0031636364
0.027026327 0.00016545455 0.0011454546
-0.0018238627 0.0064527271 0.0035000001
-0.017077986 0.0091000004 0.0011454546
-0.017409598 -0.0067836363 -0.0069272728
-0.011772204 -0.0084381821 0.0031636364
0.0051399763 -0.006121818 -0.0032272728
0.0014922513 -0.0067836363 0.0021545454
-0.0061348109 0.0091000004 0.0018181818
-0.031668887 -0.0044672727 -0.00019999997
0.033990167 0.00082727271 0.0024909091
0.032332111 0.0091000004 -0.0012090908
0.026031494 0.0034745454 -0.0072636362
-0.029347608 -0.0087690912 -0.0065909089
0.032663722 -0.0074454546 0.0024909091
-0.00049741706 -0.0044672727 -0.00019999997
-0.015419929 0.005129091 -0.0062545454
0.028352773 -0.005129091 -0.00019999997
0.02271538 0.00016545455 0.00047272729
-0.034653392 -0.0077763638 -0.0032272728
-0.014425095 0.0044672727 -0.0072636362
0.02271538 0.0031436363 0.0031636364
-0.016083153 0.0081072729 -0.0032272728
-0.030010831 -0.0067836363 0.0028272728
0.033326946 -0.0057909093 -0.00019999997
0.028684385 -0.00016545455 -0.00019999997
0.0051399763 -0.0071145454 0.0028272728
-0.009782536 0.005129091 -0.0035636362
-0.034653392 -0.0091000004 -0.0038999999
-0.015088318 0.0071145454 0.0031636364
0.0064664222 -0.00082727271 -0.00019999997
0.015419929 -0.00049636362 -0.0072636362
0.020725712 0.0011581818 -0.0059181815
-0.031005664 0.0031436363 0.0031636364
-0.00082902849 0.0091000004 -0.00087272725
-0.026694717 -0.0074454546 -0.0069272728
-0.024041826 0.0091000004 -0.0012090908
-0.022383768 -0.0091000004 0.00080909091
-0.023378603 -0.0091000004 -0.0062545454
0.033658557 0.006121818 0.0031636364
-0.02735794 -0.0041363635 -0.00019999997
0.025699882 -0.00016545455 -0.00019999997
-0.0041451422 -0.0011581818 -0.00019999997
-0.034653392 -0.0044672727 -0.0045727273
-0.028352773 -0.0024818182 -0.00019999997
-0.030010831 -0.001489091 -0.0062545454
0.018404432 0.0091000004 0.0031636364
-0.02735794 0.00016545455 0.0021545454
-0.017409598 -0.0067836363 0.0024909091
0.0084560905 0.0091000004 -0.00019999997
-0.0048083649 0.0087690912 0.0024909091
0.023378603 0.0077763638 0.0031636364
0.0064664222 -0.0064527271 -0.00087272725
0.015751541 -0.00082727271 -0.00019999997
-0.0061348109 -0.0067836363 0.0024909091
-0.019730877 -0.00082727271 -0.0072636362
0.018736044 0.002150909 -0.0072636362
0.00082902849 -0.0077763638 -0.0069272728
0.0054715881 -0.0091000004 0.0011454546
0.009782536 -0.00016545455 -0.0065909089
0.015088318 0.0091000004 0.0021545454
-0.016746376 0.0091000004 0.00047272729
0.013430261 -0.0091000004 0.0018181818
0.024041826 -0.0028127274 -0.0069272728
0.032995332 0.0087690912 -0.0032272728
0.0061348109 0.0077763638 0.0031636364
-0.032663722 0.00182 -0.0072636362
0.024041826 -0.0091000004 -0.0065909089
-0.032000497 -0.0081072729 0.0018181818
-0.003813531 -0.0067836363 -0.0062545454
-0.025368271 0.00049636362 0.0028272728
0.023710214 0.0074454546 0.0031636364
0.00082902849 -0.0034745454 -0.0072636362
0.033990167 0.0067836363 -0.0045727273
-0.034653392 -0.0041363635 -0.0062545454
0.034985002 0.001489091 -0.0022181817
-0.024041826 -0.0077763638 0.0018181818
-0.0051399763 0.00016545455 0.00047272729
-0.027026327 -0.0071145454 -0.0069272728
0.028684385 -0.00016545455 -0.0059181815
0.025036659 -0.0067836363 -0.00019999997
-0.032663722 0.00016545455 0.0018181818
-0.021388935 0.0034745454 0.0031636364
0.034985002 0.002150909 -0.0022181817
-0.0028186969 0.00049636362 0.0028272728
-0.012435427 -0.00082727271 -0.0072636362
0.033990167 0.0041363635 0.0021545454
-0.026694717 0.00016545455 0.00047272729
-0.00082902849 -0.00049636362 -0.0072636362
-0.021057323 -0.0091000004 -0.0045727273
0.0054715881 -0.006121818 -0.0045727273
0.026363105 -0.0091000004 -0.0059181815
0.018072821 0.0091000004 0.00013636367
0.020062489 0.0064527271 -0.0059181815
0.025036659 0.00016545455 0.0028272728
-0.018404432 0.0091000004 0.00047272729
-0.00049741706 -0.0054600001 -0.0012090908
-0.026031494 0.0071145454 -0.0059181815
0.019399267 0.0071145454 0.0031636364
0.02271538 -0.0087690912 -0.00087272725
-0.020725712 -0.0087690912 -0.0042363633
-0.011440593 -0.00016545455 -0.0072636362
-0.012767038 0.0031436363 0.0031636364
-0.027026327 -0.0067836363 0.00047272729
0.0081244791 -0.00182 -0.0072636362
-0.015751541 -0.002150909 -0.00019999997
0.031005664 0.00049636362 -0.0052454546
0.017409598 0.002150909 0.0031636364
-0.028684385 0.0081072729 -0.0035636362
-0.016746376 -0.0071145454 0.0011454546
0.0018238627 0.0038054546 -0.0055818181
-0.017741209 0.00082727271 0.0028272728
-0.015751541 -0.0041363635 -0.0069272728
-0.016083153 -0.0067836363 -0.0069272728
-0.017409598 -0.0084381821 0.00013636367
-0.029347608 -0.00082727271 -0.0059181815
-0.022383768 -0.0067836363 0.00080909091
-0.013430261 0.0047981818 -0.0065909089
-0.012767038 0.0024818182 -0.0072636362
-0.012103816 0.0091000004 -0.0012090908
-0.023378603 -0.0034745454 -0.00019999997
-0.0031503083 0.0084381821 0.0031636364
-0.00016580569 -0.00016545455 -0.0062545454
-0.0094509246 0.0031436363 -0.0072636362
-0.019730877 -0.0034745454 -0.0069272728
-0.029347608 0.0084381821 -0.0032272728
0.0081244791 -0.0024818182 -0.0072636362
-0.033990167 0.0038054546 -0.0069272728
-0.0048083649 -0.0067836363 0.0021545454
0.033990167 -0.0044672727 -0.0065909089
-0.010114147 -0.0054600001 -0.00019999997
0.0058031995 -0.0081072729 0.0031636364
0.014093484 0.0091000004 -0.0015454545
0.023378603 -0.00082727271 -0.0069272728
-0.032000497 -0.00049636362 -0.0055818181
0.0064664222 0.0047981818 -0.0045727273
-0.021388935 0.0028127274 -0.0072636362
-0.009782536 0.0031436363 -0.0072636362
-0.034653392 -0.0038054546 -0.0012090908
0.0041451422 0.00182 -0.0072636362
0.0054715881 0.0041363635 -0.0055818181
-0.016083153 -0.0031436363 -0.00019999997
0.009782536 0.00016545455 0.0021545454
-0.016414763 0.00016545455 0.0011454546
-0.016746376 -0.0038054546 -0.00019999997
0.00049741706 0.00016545455 0.00013636367
0.00082902849 -0.0067836363 -0.00053636357
-0.033326946 0.001489091 -0.0069272728
0.0203941 0.00049636362 -0.0055818181
0.014756707 0.0028127274 0.0031636364
0.01077737 0.0034745454 -0.0072636362
0.0011606398 -0.0091000004 0.0024909091
0.016746376 0.0038054546 0.0031636364
-0.020725712 0.0011581818 -0.0055818181
0.0084560905 0.0091000004 -0.00053636357
-0.0051399763 -0.0087690912 0.0031636364
-0.016746376 0.0071145454 -0.0032272728
-0.031668887 -0.0091000004 -0.0018818182
0.016414763 0.00082727271 -0.0055818181
-0.019067654 0.0064527271 -0.0049090907
-0.015751541 -0.00016545455 -0.0065909089
-0.029679218 0.0041363635 0.0031636364
-0.02271538 0.00016545455 0.00013636367
-0.013761872 0.0091000004 0.00080909091
0.024373436 0.0064527271 -0.0072636362
-0.014756707 -0.0054600001 -0.00019999997
0.0014922513 0.00016545455 0.00013636367
0.024373436 0.006121818 -0.0072636362
0.0203941 0.0071145454 -0.0042363633
0.034321778 0.00016545455 -0.0042363633
-0.0018238627 -0.0034745454 -0.0072636362
0.024373436 0.0024818182 0.0031636364
0.0058031995 0.0091000004 -0.0022181817
0.027026327 0.0091000004 0.0011454546
-0.030674053 -0.0011581818 -0.0049090907
0.0203941 0.0024818182 0.0031636364
-0.0014922513 0.0081072729 0.0031636364
0.022052158 0.001489091 -0.0069272728
-0.0048083649 0.0081072729 0.0031636364
0.0041451422 -0.0091000004 0.0028272728
-0.0084560905 0.00082727271 -0.0059181815
0.0048083649 0.0067836363 0.0031636364
-0.00049741706 -0.0091000004 0.0011454546
0.013761872 -0.0077763638 -0.0065909089
-0.02271538 0.0038054546 0.0031636364
-0.02735794 0.0024818182 0.0031636364
0.016414763 -0.0081072729 -0.0045727273
0.011772204 -0.0071145454 -0.0032272728
0.030342441 0.0067836363 0.0031636364
0.024373436 0.00016545455 0.00080909091
-0.016746376 0.0091000004 -0.00019999997
-0.007129645 0.0081072729 0.0028272728
-0.023710214 -0.0038054546 -0.00019999997
0.007129645 -0.0064527271 -0.00087272725
-0.0051399763 0.00016545455 0.00080909091
0.028352773 0.006121818 -0.0072636362
-0.028352773 0.0054600001 -0.0072636362
0.0024870853 -0.0024818182 -0.0072636362
0.0031503083 -0.0077763638 -0.0069272728
0.032332111 -0.0028127274 -0.0069272728
0.016083153 -0.0087690912 0.00013636367
0.025699882 0.0067836363 0.0031636364
0.014756707 0.0024818182 -0.0072636362
0.00049741706 -0.0054600001 -0.0018818182
0.0011606398 0.0091000004 -0.0022181817
0.019067654 0.00016545455 0.0021545454
-0.018736044 0.0091000004 0.00013636367
-0.028021162 0.0091000004 -0.00019999997
0.0081244791 -0.0067836363 0.0021545454
-0.0021554739 -0.006121818 -0.0035636362
0.0094509246 0.00016545455 -0.0062545454
0.0048083649 -0.0041363635 -0.00019999997
-0.00049741706 -0.001489091 -0.0072636362
0.015419929 0.0091000004 0.00013636367
-0.023378603 -0.0091000004 0.0011454546
-0.014425095 -0.00016545455 -0.0072636362
0.0028186969 -0.0057909093 -0.0049090907
0.031005664 0.0034745454 -0.0072636362
-0.010114147 0.00182 0.0031636364
0.022052158 -0.0081072729 -0.00019999997
0.0011606398 -0.0057909093 -0.00087272725
0.032000497 -0.0057909093 -0.00019999997
-0.0061348109 -0.00016545455 -0.0072636362
-0.017741209 -0.0084381821 -0.0049090907
-0.0014922513 -0.0091000004 0.00047272729
0.016083153 0.0091000004 0.0018181818
-0.0067980336 -0.0067836363 -0.0059181815
0.033658557 -0.0011581818 -0.00019999997
0.028352773 -0.0038054546 -0.00019999997
0.023046991 0.00016545455 0.0011454546
-0.027026327 0.00182 0.0031636364
-0.0014922513 0.0054600001 0.0035000001
0.0028186969 0.0064527271 -0.0032272728
0.0028186969 -0.00016545455 -0.00019999997
0.022052158 -0.0087690912 -0.0052454546
0.025368271 -0.0084381821 -0.0065909089
0.014093484 -0.00016545455 -0.0072636362
0.0084560905 -0.0091000004 0.00080909091
-0.015088318 -0.0064527271 0.0018181818
0.00049741706 0.0074454546 -0.0032272728
-0.027026327 -0.0034745454 -0.00019999997
-0.020725712 0.002150909 0.0031636364
0.003813531 -0.0091000004 0.0014818182
0.012103816 -0.0074454546 0.0028272728
-0.027026327 0.0087690912 0.0031636364
0.0034819196 -0.00016545455 -0.0072636362
0.022052158 0.0091000004 0.0031636364
0.016083153 -0.0077763638 -0.0035636362
-0.024705049 -0.006121818 -0.00019999997
-0.026031494 0.001489091 -0.0059181815
-0.034653392 0.0044672727 -0.00019999997
0.0018238627 -0.0057909093 -0.00019999997
0.025699882 0.0031436363 0.0031636364
0.032000497 -0.005129091 -0.00019999997
-0.013761872 -0.0077763638 -0.0035636362
0.010114147 0.0091000004 0.0024909091
0.021388935 -0.00016545455 -0.0069272728
-0.0064664222 0.0011581818 -0.0069272728
-0.021057323 -0.0034745454 -0.0069272728
-0.021720545 -0.006121818 -0.0069272728
-0.003813531 -0.0024818182 -0.00019999997
0.023378603 -0.00049636362 -0.0069272728
0.033658557 0.0091000004 -0.0015454545
0.027026327 -0.0087690912 0.0011454546
-0.007129645 -0.0064527271 -0.0069272728
-0.00016580569 0.0028127274 -0.0072636362
-0.033658557 0.0011581818 0.0031636364
0.026031494 -0.0091000004 -0.0045727273
-0.029015996 0.0091000004 -0.0018818182
-0.025368271 -0.0081072729 0.0011454546
0.016083153 -0.0067836363 -0.0069272728
0.010445759 0.0091000004 -0.0028909091
-0.022383768 -0.0091000004 -0.00087272725
0.02271538 0.00016545455 0.0028272728
-0.021720545 0.00016545455 0.0024909091
-0.0074612563 -0.00049636362 -0.0072636362
0.015419929 0.0091000004 0.0024909091
0.019730877 -0.0064527271 0.0018181818
-0.0074612563 0.0057909093 0.0031636364
0.0024870853 0.00182 0.0031636364
-0.013430261 0.0071145454 0.0031636364
0.032332111 0.0091000004 -0.0015454545
0.0011606398 -0.0067836363 0.00080909091
0.020725712 -0.0084381821 -0.00087272725
-0.033990167 0.0024818182 0.00080909091
-0.030342441 0.00082727271 0.0031636364
-0.033326946 -0.002150909 -0.0065909089
0.016083153 0.0091000004 -0.00019999997
0.019067654 0.0091000004 0.00013636367
0.025368271 -0.00016545455 -0.0055818181
0.033658557 0.0091000004 0.0021545454
0.016414763 -0.0074454546 0.0028272728
0.031337276 0.001489091 -0.0072636362
0.019067654 -0.0067836363 0.00047272729
-0.020725712 -0.0084381821 0.0011454546
0.025699882 0.00016545455 0.00080909091
-0.018404432 -0.0077763638 0.00013636367
-0.0031503083 -0.0091000004 -0.00019999997
0.034653392 -0.006121818 -0.0018818182
0.0081244791 -0.005129091 -0.0069272728
0.0028186969 -0.005129091 -0.0069272728
-0.026031494 -0.0091000004 -0.0038999999
0.019730877 0.0071145454 -0.0038999999
0.026363105 -0.0074454546 -0.0065909089
0.011772204 -0.0077763638 -0.0065909089
0.034653392 -0.0064527271 -0.0022181817
0.0081244791 -0.0031436363 -0.0072636362
-0.019399267 -0.0041363635 -0.00019999997
-0.015751541 0.0084381821 0.0031636364
0.019730877 0.0091000004 0.0011454546
-0.0064664222 0.00182 0.0031636364
0.015419929 0.0091000004 0.00080909091
-0.02735794 0.0041363635 -0.0072636362
0.015419929 0.0011581818 -0.0062545454
-0.014425095 0.0057909093 0.0031636364
-0.018404432 -0.0041363635 -0.0069272728
-0.02735794 -0.0091000004 -0.00053636357
0.02271538 -0.0071145454 0.0018181818
0.0031503083 0.0091000004 0.0021545454
-0.0058031995 -0.001489091 -0.00019999997
-0.012103816 0.0011581818 -0.0062545454
-0.010445759 -0.0067836363 0.0024909091
-0.020062489 -0.0031436363 -0.0069272728
-0.0014922513 0.0084381821 -0.0028909091
-0.023378603 -0.0087690912 0.0011454546
0.033990167 0.0028127274 0.0014818182
-0.031668887 -0.0091000004 -0.0035636362
-0.030342441 -0.005129091 -0.00019999997
0.0084560905 -0.0024818182 -0.00019999997
0.016746376 -0.0044672727 -0.0069272728
-0.031337276 -0.00016545455 -0.0059181815
0.030010831 -0.0031436363 -0.00019999997
0.0054715881 0.0031436363 0.0031636364
-0.013430261 -0.00049636362 -0.0072636362
-0.015088318 0.0054600001 -0.0055818181
-0.014425095 0.00049636362 0.0028272728
-0.00049741706 -0.0064527271 -0.0065909089
-0.023710214 0.0091000004 0.0024909091
-0.015751541 0.005129091 -0.0065909089
0.017077986 0.0054600001 -0.0072636362
0.0028186969 0.0084381821 -0.0028909091
0.032995332 0.0038054546 0.0031636364
0.013761872 -0.00016545455 -0.0072636362
0.021388935 -0.00016545455 -0.00019999997
-0.028352773 0.005129091 0.0031636364
-0.0067980336 -0.0074454546 -0.0059181815
0.026363105 -0.0038054546 -0.0069272728
0.032995332 -0.0041363635 -0.0065909089
-0.027026327 -0.0057909093 -0.0069272728
0.029015996 -0.0054600001 -0.00019999997
0.0048083649 -0.0091000004 0.0024909091
0.0014922513 -0.0067836363 0.0018181818
-0.0061348109 -0.0064527271 -0.0055818181
0.023378603 0.0091000004 0.0021545454
-0.0087877018 -0.0067836363 0.00047272729
-0.025699882 0.0071145454 -0.0059181815
-0.023046991 0.0091000004 -0.0012090908
-0.010445759 -0.002150909 -0.00019999997
-0.033658557 0.00082727271 0.0028272728
0.024041826 0.0031436363 -0.0072636362
-0.02271538 0.00049636362 -0.0055818181
-0.016083153 -0.0064527271 0.0024909091
0.00016580569 0.0038054546 -0.0042363633
0.0081244791 0.0067836363 -0.0032272728
0.0054715881 0.0091000004 0.0024909091
-0.018072821 0.005129091 -0.0072636362
0.0074612563 -0.0024818182 -0.0072636362
-0.033326946 -0.0047981818 -0.00019999997
0.0074612563 -0.0064527271 -0.00087272725
0.026363105 -0.0044672727 -0.00019999997
0.018736044 -0.0084381821 0.0011454546
0.003813531 -0.0081072729 0.0031636364
-0.014093484 0.0077763638 -0.0032272728
-0.031337276 -0.0091000004 -0.0055818181
0.034653392 0.0041363635 -0.0018818182
-0.007129645 -0.001489091 -0.00019999997
0.025368271 0.0024818182 -0.0072636362
0.0058031995 0.00049636362 -0.0059181815
-0.028021162 -0.00082727271 -0.00019999997
0.011108981 -0.0071145454 0.0031636364
-0.017077986 0.0091000004 -0.00053636357
-0.0018238627 0.0091000004 0.00013636367
0.030342441 0.0084381821 -0.0042363633
-0.033326946 0.0084381821 -0.0045727273
-0.016746376 -0.0077763638 0.0031636364
0.017741209 -0.0091000004 0.0024909091
-0.01309865 0.0044672727 0.0031636364
-0.0058031995 -0.0044672727 -0.0069272728
0.033326946 -0.0091000004 -0.0042363633
0.019067654 -0.0084381821 -0.0042363633
-0.014756707 0.0028127274 0.0031636364
-0.0203941 0.0091000004 -0.00019999997
-0.01077737 -0.0077763638 -0.0062545454
0.014756707 -0.006121818 -0.00019999997
-0.01309865 0.0091000004 0.00080909091
0.020062489 -0.00016545455 -0.0062545454
-0.0011606398 0.0091000004 -0.0012090908
0.021388935 -0.0087690912 -0.0038999999
-0.021720545 -0.0087690912 -0.0042363633
0.024041826 0.0054600001 0.0031636364
0.01309865 0.006121818 0.0031636364
0.026694717 -0.00049636362 -0.0069272728
-0.009782536 -0.0091000004 0.00080909091
-0.030674053 -0.0064527271 -0.00019999997
0.02271538 -0.0084381821 -0.00019999997
0.019730877 -0.006121818 -0.0069272728
-0.028352773 -0.00016545455 -0.0059181815
0.011772204 0.0091000004 0.0021545454
0.029015996 0.0077763638 -0.0069272728
0.023378603 0.0067836363 0.0031636364
-0.028021162 0.0038054546 -0.0072636362
0.012767038 0.0091000004 -0.00053636357
0.0067980336 0.0074454546 -0.0028909091
0.034985002 0.00082727271 -0.0018818182
-0.025368271 0.0091000004 0.00013636367
-0.0064664222 0.0087690912 -0.0072636362
0.00016580569 0.0071145454 0.0031636364
0.012103816 0.0038054546 -0.0072636362
-0.0041451422 -0.0031436363 -0.0072636362
-0.0041451422 -0.0047981818 -0.00019999997
0.033990167 0.0074454546 -0.0072636362
-0.025036659 -0.0071145454 0.00013636367
-0.014425095 -0.0091000004 0.0028272728
-0.031337276 -0.0047981818 -0.0065909089
0.0021554739 0.00016545455 0.0021545454
-0.0058031995 0.0071145454 0.0031636364
-0.034321778 -0.001489091 -0.0035636362
-0.0061348109 -0.0064527271 -0.0052454546
-0.026363105 0.0071145454 -0.0062545454
-0.0021554739 -0.00016545455 -0.0062545454
0.0021554739 0.0077763638 0.0028272728
-0.015088318 -0.0084381821 -0.00087272725
-0.032995332 -0.0011581818 -0.00019999997
-0.015751541 -0.0081072729 -0.0025545454
-0.0058031995 0.0067836363 0.0031636364
0.029347608 -0.0091000004 -0.0052454546
-0.021057323 -0.0091000004 -0.00087272725
0.0024870853 0.0034745454 -0.0072636362
-0.0084560905 0.001489091 0.0031636364
-0.014093484 -0.0091000004 0.0021545454
-0.017741209 -0.0091000004 0.0014818182
-0.010445759 0.0044672727 -0.0062545454
-0.012103816 0.0087690912 -0.0028909091
-0.026031494 -0.0041363635 -0.0069272728
0.033990167 0.0071145454 -0.0042363633
-0.032995332 0.00016545455 0.00080909091
0.028352773 -0.0077763638 0.0018181818
0.00016580569 -0.0077763638 -0.0069272728
-0.033990167 0.0071145454 0.0028272728
-0.032995332 0.0091000004 0.00080909091
-0.00082902849 -0.0077763638 0.0031636364
0.032332111 0.0091000004 -0.00019999997
-0.02271538 -0.0057909093 -0.0069272728
-0.010114147 0.0077763638 0.0031636364
0.007129645 -0.0091000004 0.0024909091
0.017077986 0.0064527271 -0.0045727273
-0.0028186969 0.00182 0.0031636364
-0.0084560905 0.0091000004 -0.0022181817
-0.0011606398 -0.0034745454 -0.0072636362
0.026363105 0.0077763638 -0.0072636362
0.02271538 0.0091000004 0.0011454546
0.012435427 -0.0071145454 -0.0038999999
0.016414763 0.0044672727 0.0031636364
-0.032332111 -0.0011581818 -0.00019999997
-0.031005664 -0.005129091 -0.0069272728
-0.021388935 -0.00016545455 -0.00019999997
0.0064664222 0.00016545455 0.0024909091
0.0084560905 0.0091000004 -0.00087272725
0.0084560905 -0.0011581818 -0.00019999997
0.033990167 0.0074454546 -0.0059181815
0.024373436 -0.0044672727 -0.00019999997
0.024041826 -0.0081072729 -0.0065909089
-0.027026327 -0.0091000004 -0.0015454545
0.030674053 -0.0091000004 -0.0062545454
-0.033326946 0.002150909 0.0031636364
0.028021162 -0.00016545455 -0.0055818181
0.007129645 0.0028127274 -0.0072636362
0.032663722 -0.0024818182 -0.0065909089
-0.016414763 0.00082727271 -0.0059181815
-0.011772204 0.0044672727 -0.0072636362
-0.025368271 -0.0091000004 -0.0025545454
-0.0014922513 -0.0057909093 -0.00019999997
0.024041826 -0.00016545455 -0.0062545454
0.032995332 -0.006121818 -0.00019999997
-0.0067980336 0.006121818 -0.0032272728
0.028021162 0.0084381821 0.0031636364
-0.009782536 0.0044672727 0.0031636364
0.022383768 0.0038054546 -0.0072636362
0.00082902849 0.0091000004 0.0018181818
0.015088318 0.0091000004 -0.0028909091
0.016414763 -0.0071145454 0.0028272728
-0.022383768 0.00016545455 0.0021545454
-0.020062489 -0.0011581818 -0.0072636362
0.0094509246 -0.0091000004 0.00080909091
0.021720545 0.0091000004 -0.0015454545
0.023710214 0.0057909093 -0.0072636362
0.00016580569 0.0034745454 0.0031636364
-0.034653392 -0.0028127274 -0.0018818182
0.034321778 -0.0091000004 -0.0015454545
0.013761872 -0.0074454546 -0.0052454546
-0.010445759 -0.0091000004 0.00080909091
-0.01309865 -0.005129091 -0.00019999997
-0.0058031995 -0.0091000004 0.0028272728
0.022052158 -0.0087690912 -0.0049090907
0.0067980336 -0.0064527271 -0.0042363633
0.014093484 0.0087690912 0.0031636364
0.020062489 0.00016545455 0.0018181818
-0.031668887 -0.0054600001 -0.00019999997
0.020725712 0.0074454546 0.0031636364
0.033990167 -0.0074454546 -0.00019999997
-0.0064664222 0.002150909 0.0031636364
0.003813531 0.0054600001 -0.0032272728
-0.0058031995 0.0044672727 -0.0038999999
-0.003813531 0.00016545455 0.0018181818
-0.016083153 0.0084381821 0.0031636364
-0.029679218 0.00016545455 0.00013636367
-0.0064664222 0.0028127274 -0.0072636362
0.032332111 -0.00049636362 -0.0055818181
0.0054715881 0.0041363635 -0.0065909089
0.016083153 0.0031436363 0.0031636364
0.014756707 -0.0024818182 -0.00019999997
-0.024373436 -0.0084381821 0.0028272728
0.02271538 0.0071145454 0.0031636364
-0.033990167 0.001489091 -0.0069272728
0.033658557 0.0091000004 0.00047272729
0.020062489 -0.0074454546 -0.0069272728
-0.021057323 0.0091000004 0.0028272728
0.0024870853 0.0038054546 -0.0052454546
0.023710214 0.0091000004 -0.0025545454
0.003813531 -0.006121818 -0.00019999997
0.034321778 0.0011581818 0.0014818182
-0.014093484 0.0028127274 0.0031636364
0.016414763 0.0057909093 -0.0062545454
0.011440593 0.0024818182 -0.0072636362
0.017077986 -0.0064527271 0.00047272729
-0.0041451422 -0.0067836363 0.0021545454
-0.00016580569 0.0084381821 0.0031636364
0.00049741706 0.0047981818 -0.0032272728
0.024041826 0.0091000004 0.0028272728
0.032995332 0.0011581818 -0.0065909089
-0.00016580569 -0.0067836363 0.00013636367
-0.029015996 0.0074454546 -0.0069272728
0.027026327 0.001489091 0.0031636364
0.033658557 -0.00016545455 -0.0059181815
-0.033990167 0.0041363635 -0.0059181815
-0.033990167 -0.0091000004 -0.0049090907
-0.0054715881 0.00016545455 0.00047272729
0.031337276 -0.0034745454 -0.00019999997
0.026694717 -0.0011581818 -0.0069272728
-0.030674053 -0.00049636362 -0.0055818181
-0.014756707 -0.0044672727 -0.00019999997
0.033326946 0.0091000004 -0.0015454545
-0.012435427 -0.0081072729 0.0028272728
-0.017409598 -0.0087690912 -0.0065909089
0.017741209 0.001489091 -0.0065909089
-0.019067654 0.0081072729 0.0031636364
0.017741209 0.0087690912 -0.0028909091
0.0018238627 -0.0031436363 -0.00019999997
0.032995332 0.00016545455 0.00080909091
-0.029015996 0.0091000004 0.0031636364
-0.017077986 0.0091000004 -0.0012090908
-0.0018238627 -0.00182 -0.00019999997
-0.015751541 0.00082727271 -0.0062545454
0.034653392 -0.0047981818 -0.0065909089
-0.023710214 0.0091000004 0.0021545454
0.013761872 0.0084381821 0.0031636364
0.023046991 0.0074454546 -0.0038999999
0.030010831 -0.0067836363 0.0028272728
-0.034653392 0.0028127274 -0.0015454545
-0.0081244791 -0.0067836363 0.0021545454
0.028021162 0.00016545455 0.0028272728
0.030010831 0.0011581818 -0.0062545454
-0.010114147 -0.0067836363 0.00013636367
0.029015996 0.005129091 -0.0072636362
0.00082902849 -0.006121818 -0.0059181815
0.017409598 0.0091000004 0.00080909091
0.015419929 0.0057909093 -0.0055818181
-0.0203941 0.0057909093 -0.0072636362
0.017077986 -0.00082727271 -0.0072636362
-0.024041826 -0.0024818182 -0.0069272728
0.011108981 -0.0071145454 -0.00087272725
-0.024373436 0.0031436363 -0.0072636362
-0.015419929 0.0047981818 -0.0072636362
0.018072821 0.001489091 -0.0069272728
-0.033658557 -0.0047981818 -0.00019999997
0.00049741706 -0.00182 -0.00019999997
0.013761872 0.0054600001 -0.0059181815
0.023046991 0.0028127274 -0.0072636362
-0.009782536 0.0047981818 -0.0045727273
-0.003813531 0.0054600001 -0.0032272728
