# .PCD v0.7 - Point Cloud Data file format
VERSION 0.7
FIELDS x y z
SIZE 4 4 4
TYPE F F F
COUNT 1 1 1
WIDTH 1279
HEIGHT 1
VIEWPOINT 0 0 0 1 0 0 0
POINTS 1279
DATA ascii
-0.028750001 -0.0088 -0.0044575217
0.037164636 -0.0088 -0.0086757271
-0.044878047 -0.0066880002 -0.013596966
0.046280488 -0.0088 -0.0037544875
-0.083445124 -0.0052800002 -0.013596966
0.075030491 0.0024639999 -0.013596966
0.022439023 -0.0080960002 -0.010784829
-0.016829269 0.0073919999 -0.00094235083
0.079939023 -0.0052800002 -0.0079726921
-0.01472561 0.0088 -0.0079726921
-0.023841463 -0.0045759999 0.0018697859
-0.0021036586 -0.0059839999 -0.0037544875
-0.083445124 -0.0088 -0.0016453849
-0.052591462 -0.0088 -0.0058635902
-0.051890243 0.0088 -0.0016453849
-0.082042687 0.0024639999 -0.013596966
-0.082042687 -0.0088 -0.010081795
0.073628046 0.0059839999 -0.012893932
-0.05609756 0.0080960002 -0.00094235083
0.054695122 -0.00176 -0.0072696586
0.0084146345 -0.000352 -0.00094235083
0.011920732 0.0031679999 -0.013596966
-0.076432928 0.000352 -0.013596966
-0.042073172 0.0066880002 -0.0016453849
0.020335365 -0.000352 -0.013596966
-0.032256097 -0.0088 -0.0044575217
-0.071524389 0.0024639999 -0.0065666242
0.033658538 0.0080960002 -0.012893932
0.018231707 0.0066880002 -0.00094235083
-0.0091158533 0.0073919999 -0.00023931662
-0.024542684 0.0045759999 -0.00094235083
0.057500001 0.0045759999 -0.00023931662
0.050487805 -0.0088 -0.012190898
0.084847562 -0.0038719999 -0.0093787611
0.065914631 -0.0045759999 -0.0065666242
-0.0098170731 -0.001056 -0.013596966
0.052591462 -0.0066880002 -0.013596966
0.076432928 -0.0052800002 -0.0016453849
-0.084847562 -0.0052800002 -0.0016453849
0.060304876 -0.001056 -0.013596966
0.068018295 -0.0024639999 -0.0016453849
0.023841463 0.0088 -0.010081795
0.023140244 -0.0088 -0.0016453849
-0.02804878 0.0052800002 -0.013596966
-0.02804878 -0.0052800002 -0.013596966
-0.078536585 0.0088 -0.0086757271
0.067317076 -0.0052800002 -0.00023931662
0.085548781 0.001056 -0.0079726921
0.0063109756 -0.001056 -0.013596966
-0.07573171 -0.00176 -0.00023931662
-0.007012195 0.0066880002 -0.0044575217
-0.066615857 0.0088 -0.010784829
-0.065914631 -0.0088 -0.00094235083
-0.082042687 -0.0073919999 -0.0016453849
-0.032256097 -0.0080960002 -0.013596966
-0.007012195 -0.0038719999 -0.00094235083
-0.039268292 0.000352 -0.0044575217
-0.01402439 0.000352 -0.013596966
-0.072926827 0.0052800002 -0.0016453849
0.011219512 0.0073919999 -0.0023484193
0.077835366 0.0045759999 -0.0065666242
-0.04557927 0.00176 -0.0058635902
0.054695122 0.0045759999 -0.0016453849
0.061707318 -0.0024639999 -0.0016453849
-0.0028048779 0.0024639999 -0.013596966
0.021737805 -0.0080960002 -0.013596966
0.030152438 0.0088 -0.012893932
0.0084146345 -0.0059839999 -0.00094235083
-0.077134147 0.0088 -0.0079726921
-0.060304876 -0.0031679999 -0.0065666242
0.065213412 -0.0045759999 -0.0058635902
0.063109756 -0.0066880002 -0.0016453849
-0.078536585 0.001056 -0.0016453849
-0.076432928 -0.0059839999 -0.0044575217
-0.025945121 0.0088 -0.0058635902
-0.053292684 0.0088 -0.0044575217
0.085548781 0.0059839999 -0.0093787611
0.007012195 0.0073919999 -0.012893932
-0.036463413 -0.0059839999 -0.00094235083
-0.015426829 0.0088 -0.0016453849
0.0084146345 -0.0066880002 -0.00094235083
0.077835366 0.0045759999 -0.012893932
-0.038567074 -0.0059839999 -0.00094235083
0.025243903 -0.0088 -0.0065666242
0.048384145 0.0038719999 -0.013596966
0.080640242 0.0080960002 -0.0016453849
-0.053292684 0.0088 -0.0093787611
-0.061006099 0.0024639999 -0.0072696586
-0.062408537 -0.001056 -0.0016453849
-0.069420733 0.0088 -0.0086757271
0.031554878 -0.0073919999 -0.0016453849
-0.056798782 -0.0073919999 -0.013596966
0.068018295 0.0038719999 -0.0072696586
-0.01402439 -0.0024639999 -0.013596966
0.037865855 0.0088 -0.0072696586
-0.027347561 -0.0038719999 -0.00094235083
0.05609756 -0.0088 -0.0030514533
0.057500001 0.0052800002 -0.00023931662
0.017530488 -0.0073919999 -0.011487863
0.027347561 -0.0088 -0.0072696586
0.080640242 0.0052800002 -0.0016453849
-0.084146343 -0.000352 -0.013596966
0.067317076 0.0052800002 -0.0030514533
0.061707318 -0.0045759999 0.0039788885
0.032957315 0.0066880002 -0.012893932
0.033658538 -0.0088 -0.0093787611
0.050487805 -0.0088 -0.0086757271
0.05820122 -0.0031679999 -0.0037544875
0.076432928 -0.0088 -0.0079726921
0.032256097 0.0052800002 -0.012893932
-0.063810974 0.0073919999 -0.012893932
-0.05820122 -0.001056 -0.0072696586
0.001402439 -0.0059839999 -0.0044575217
-0.0084146345 -0.0073919999 -0.0086757271
0.047682926 0.0088 -0.0037544875
0.0063109756 0.0038719999 -0.00094235083
-0.013323171 -0.0080960002 -0.0016453849
0.061006099 -0.0088 -0.0037544875
0.001402439 0.00176 -0.00094235083
-0.07573171 0.0045759999 -0.013596966
-0.082743905 0.0088 -0.011487863
-0.077134147 0.0059839999 -0.0065666242
-0.046280488 0.0066880002 -0.012893932
-0.08134146 -0.0088 -0.0086757271
0.049085367 -0.0080960002 -0.013596966
-0.050487805 -0.0045759999 -0.00094235083
0.049786586 0.000352 -0.00094235083
-0.084146343 0.0052800002 -0.0016453849
0.037164636 -0.00176 -0.013596966
0.065914631 0.0088 -0.012893932
-0.016128048 0.0059839999 -0.012893932
0.063109756 0.0088 -0.0079726921
-0.08134146 0.0088 -0.012893932
0.050487805 -0.0088 -0.0044575217
-0.043475609 0.0080960002 -0.00094235083
0.053292684 0.0088 -0.010784829
0.072926827 -0.0066880002 -0.0016453849
-0.047682926 -0.0088 -0.0016453849
-0.063810974 0.0052800002 -0.012893932
0.049085367 0.000352 -0.0016453849
-0.072926827 0.0088 -0.0079726921
-0.079939023 0.0088 -0.0016453849
-0.059603658 -0.0045759999 -0.013596966
0.012621951 0.0031679999 -0.013596966
-0.062408537 0.000352 -0.013596966
0.029451219 0.0088 -0.0065666242
-0.028750001 0.00176 -0.013596966
-0.0077134147 -0.0073919999 -0.0093787611
0.032957315 -0.001056 -0.013596966
0.049085367 0.00176 -0.0016453849
-0.08134146 -0.0031679999 -0.0072696586
-0.05609756 0.0059839999 -0.00094235083
0.060304876 0.00176 -0.013596966
-0.051890243 0.00176 -0.0016453849
0.010518293 -0.0073919999 -0.0072696586
-0.084847562 -0.0088 -0.00094235083
-0.071524389 -0.0052800002 -0.013596966
0.071524389 -0.0052800002 -0.0037544875
0.072926827 -0.0073919999 -0.0016453849
0.074329272 0.0088 -0.0051605557
-0.011219512 0.001056 -0.00094235083
0.053993903 0.001056 -0.0072696586
-0.069420733 0.0052800002 -0.00094235083
-0.023140244 0.0088 -0.0044575217
0.007012195 -0.0052800002 -0.013596966
0.084847562 -0.0059839999 -0.0086757271
-0.012621951 0.0080960002 -0.0037544875
0.044878047 0.00176 -0.0030514533
-0.038567074 0.0088 -0.0016453849
0.068719514 0.000352 -0.0016453849
0.076432928 0.0024639999 -0.013596966
0.012621951 0.0038719999 -0.00094235083
-0.016128048 0.0088 -0.012893932
0.069420733 0.0052800002 -0.0044575217
-0.035762195 -0.0088 -0.0023484193
-0.063810974 -0.001056 -0.013596966
-0.050487805 0.0088 -0.0072696586
-0.063810974 -0.00176 -0.0072696586
-0.021036586 0.0088 -0.0044575217
0.054695122 0.0031679999 -0.0037544875
0.085548781 -0.00176 -0.0086757271
-0.054695122 0.0073919999 -0.012893932
0.012621951 -0.0073919999 -0.0072696586
0.044878047 -0.0038719999 -0.0016453849
0.059603658 -0.0059839999 -0.0016453849
-0.036463413 -0.0066880002 -0.013596966
0.015426829 -0.0059839999 -0.0016453849
-0.067317076 -0.0080960002 -0.013596966
0.011920732 -0.0031679999 -0.00094235083
-0.08134146 0.0088 -0.011487863
0.039268292 -0.0088 -0.010784829
-0.082743905 -0.00176 -0.0072696586
-0.056798782 0.001056 -0.00023931662
0.054695122 0.0088 -0.0093787611
-0.035060976 0.0052800002 -0.00094235083
-0.074329272 -0.0052800002 -0.0051605557
0.069420733 0.0031679999 -0.013596966
-0.061707318 -0.0038719999 -0.0030514533
-0.075030491 -0.0073919999 -0.00094235083
0.026646342 -0.0045759999 -0.013596966
-0.085548781 -0.000352 -0.010081795
-0.011920732 -0.0073919999 -0.0030514533
0.00070121948 0.0088 -0.010784829
0.063810974 0.0045759999 -0.0037544875
0.068719514 -0.00176 -0.0072696586
-0.076432928 -0.001056 -0.0072696586
-0.051890243 0.0088 -0.0079726921
0.046280488 -0.001056 -0.013596966
0.084847562 -0.0052800002 -0.0079726921
-0.08134146 0.0066880002 -0.0016453849
-0.01402439 0.0066880002 -0.0016453849
-0.010518293 0.0080960002 -0.0016453849
0.01402439 -0.0073919999 -0.0030514533
0.084146343 -0.0073919999 -0.0058635902
0.084847562 0.0080960002 -0.0016453849
0.078536585 0.0066880002 -0.0016453849
0.026646342 0.0080960002 -0.0016453849
-0.072926827 -0.0088 -0.0051605557
0.0049085366 0.00176 -0.013596966
-0.041371953 -0.0038719999 -0.00094235083
-0.067317076 -0.0045759999 -0.00094235083
-0.077835366 0.0088 -0.0072696586
-0.024542684 -0.0088 -0.010081795
-0.0028048779 0.0059839999 -0.0044575217
0.070121951 0.0088 -0.011487863
0.039969511 -0.0059839999 -0.013596966
-0.068018295 -0.0059839999 -0.013596966
0.052591462 -0.0045759999 0.0032758543
-0.065914631 -0.0088 -0.0016453849
0.071524389 0.0024639999 -0.013596966
-0.075030491 -0.00176 -0.0072696586
0.044878047 0.0088 -0.0079726921
-0.039268292 0.0059839999 -0.00094235083
-0.023841463 -0.0088 -0.011487863
0.035060976 0.0088 -0.0016453849
0.0063109756 0.0038719999 -0.013596966
-0.021036586 0.0038719999 -0.013596966
-0.061707318 -0.0088 -0.0016453849
-0.074329272 0.001056 -0.0072696586
0.0035060975 0.0024639999 -0.00094235083
0.074329272 -0.0088 -0.0023484193
0.079939023 0.0088 -0.0058635902
0.021036586 0.0088 -0.0065666242
-0.042073172 0.0088 -0.0016453849
0.012621951 -0.000352 -0.00094235083
0.032256097 0.0080960002 -0.012893932
0.0035060975 -0.0059839999 -0.0072696586
0.037164636 -0.0088 -0.0037544875
-0.0028048779 -0.000352 -0.00094235083
0.079237804 -0.0088 -0.0072696586
-0.061006099 0.0066880002 -0.012893932
0.010518293 0.0088 -0.0086757271
-0.013323171 0.0080960002 -0.0030514533
0.030152438 -0.0088 -0.0058635902
-0.011219512 0.0073919999 -0.0037544875
0.08134146 -0.001056 -0.0072696586
-0.036463413 -0.0066880002 -0.00094235083
-0.036463413 -0.0088 -0.0086757271
0.061006099 0.0031679999 -0.0058635902
-0.053292684 -0.0088 -0.0086757271
0.037865855 0.0031679999 -0.013596966
-0.036463413 0.0088 -0.0072696586
-0.021737805 0.0088 -0.012190898
0 -0.0066880002 -0.00023931662
-0.012621951 -0.0073919999 -0.010081795
0.031554878 0.0066880002 -0.012893932
0.048384145 -0.0073919999 -0.013596966
-0.021737805 0.0088 -0.0016453849
0.037865855 0.0088 -0.0065666242
0.065914631 0.0088 -0.011487863
-0.084146343 -0.0080960002 -0.013596966
-0.066615857 0.0088 -0.0086757271
-0.0049085366 -0.00176 -0.00094235083
-0.050487805 0.0088 -0.0079726921
-0.04067073 0.0038719999 -0.012893932
0.063109756 0.0045759999 -0.012893932
-0.077134147 0.0080960002 -0.012893932
-0.070121951 -0.00176 -0.0072696586
0.065914631 0.0088 -0.012190898
-0.066615857 0.0088 -0.0093787611
-0.0056097559 0.000352 -0.00094235083
-0.056798782 0.0088 -0.0072696586
-0.0021036586 0.00176 -0.013596966
-0.053993903 0.0024639999 -0.00094235083
0.043475609 0.0031679999 -0.013596966
0.08134146 0.0045759999 -0.0016453849
-0.079939023 -0.0088 -0.010081795
0.029451219 0.0088 -0.0086757271
-0.029451219 -0.001056 -0.00094235083
0.08134146 0.0088 -0.0030514533
-0.0049085366 0.0059839999 -0.012893932
0.0063109756 0.0073919999 -0.0037544875
0.049085367 -0.0088 -0.0058635902
-0.049085367 0.0024639999 -0.0058635902
-0.061707318 -0.0088 -0.0065666242
-0.034359757 -0.0031679999 -0.0016453849
0.0084146345 -0.0066880002 -0.0072696586
-0.052591462 0.0059839999 -0.00094235083
-0.075030491 -0.000352 -0.0072696586
0.046280488 -0.0073919999 -0.00094235083
-0.029451219 -0.0059839999 -0.00094235083
0.02804878 -0.0088 -0.012893932
0.018932927 -0.0088 -0.0058635902
0.08134146 -0.0088 -0.0093787611
-0.041371953 -0.0088 -0.013596966
-0.026646342 0.0073919999 -0.00094235083
-0.064512193 -0.001056 -0.013596966
0.051189024 0.0080960002 -0.012893932
0.007012195 -0.0059839999 -0.011487863
0.021036586 0.001056 -0.00094235083
0.01472561 0.0059839999 -0.00094235083
-0.051189024 -0.0088 -0.0072696586
0.071524389 -0.000352 -0.013596966
0.010518293 0.0088 -0.0072696586
-0.068719514 0.0080960002 -0.0016453849
-0.04067073 0.0088 -0.0058635902
-0.023140244 -0.000352 -0.013596966
0.01402439 0.0052800002 -0.00094235083
-0.023841463 -0.0045759999 -0.00023931662
-0.022439023 0.0059839999 -0.012893932
-0.024542684 0.000352 -0.013596966
-0.049786586 -0.001056 -0.0016453849
-0.076432928 -0.0088 -0.0030514533
-0.08625 0.0066880002 -0.00094235083
-0.001402439 0.0080960002 -0.0058635902
0.04277439 -0.0080960002 -0.00094235083
-0.043475609 0.0080960002 -0.012893932
0.068018295 0.0024639999 -0.013596966
0.001402439 -0.0059839999 -0.0072696586
0.034359757 -0.0052800002 -0.013596966
-0.051189024 -0.0038719999 -0.00094235083
0.025243903 0.0088 -0.0079726921
0.079939023 -0.0052800002 -0.013596966
0.061006099 0.00176 -0.0072696586
-0.034359757 -0.001056 -0.00094235083
0.080640242 0.0088 -0.0030514533
-0.066615857 -0.0066880002 -0.013596966
-0.062408537 0.0045759999 -0.0058635902
0.058902439 -0.00176 -0.013596966
0.076432928 0.000352 -0.0016453849
-0.04557927 0.000352 -0.00094235083
0.058902439 0.0024639999 -0.0016453849
-0.0091158533 -0.0059839999 -0.013596966
-0.073628046 0.0088 -0.0086757271
0.07082317 -0.0066880002 -0.00094235083
0.049085367 0.001056 -0.00094235083
-0.046280488 0.0038719999 -0.00094235083
-0.016128048 0.0080960002 -0.012893932
0.035762195 -0.0080960002 -0.013596966
-0.065914631 0.0088 -0.010784829
0.063109756 0.0073919999 -0.012893932
0.048384145 0.0088 -0.0051605557
-0.028750001 0.00176 -0.00023931662
-0.068719514 0.0031679999 -0.0065666242
0.011920732 0.0073919999 -0.0044575217
0.037164636 0.00176 -0.00094235083
-0.084847562 -0.0088 -0.0079726921
-0.077134147 0.0066880002 -0.0051605557
0.039969511 -0.0088 -0.0023484193
0.012621951 -0.00176 -0.00094235083
0.082743905 -0.0024639999 -0.0016453849
-0.044176828 0.0088 -0.0058635902
0.04067073 -0.0088 -0.0030514533
-0.085548781 -0.0059839999 -0.0079726921
0.049786586 0.0088 -0.00094235083
-0.037865855 -0.0024639999 -0.013596966
-0.022439023 -0.0088 -0.00094235083
-0.019634146 0.000352 -0.013596966
-0.080640242 -0.00176 -0.0016453849
-0.085548781 -0.0045759999 -0.011487863
-0.065914631 -0.0073919999 -0.00094235083
0.060304876 -0.0024639999 -0.0072696586
-0.056798782 -0.0066880002 -0.013596966
0.068018295 0.0088 -0.0058635902
0.056798782 0.0080960002 -0.00023931662
0.056798782 -0.0088 -0.0023484193
0.035060976 0.0088 -0.0058635902
-0.08134146 0.0066880002 -0.0023484193
-0.032256097 -0.0045759999 -0.00094235083
0.059603658 0.000352 -0.013596966
0.07573171 0.0066880002 -0.0023484193
0.042073172 -0.0052800002 -0.00094235083
-0.032957315 0.0080960002 -0.012893932
0.01472561 0.0088 -0.0037544875
0.071524389 0.0073919999 -0.012893932
0.033658538 -0.0088 -0.0051605557
-0.046981707 -0.0080960002 -0.00023931662
-0.0042073173 -0.0066880002 -0.011487863
-0.082743905 0.0031679999 -0.0072696586
0.070121951 0.0031679999 -0.013596966
-0.082042687 -0.0045759999 -0.0016453849
0.052591462 0.0024639999 -0.0037544875
-0.01402439 -0.0080960002 -0.00094235083
0.04557927 0.0052800002 -0.012893932
-0.055396341 -0.0080960002 -0.0016453849
-0.018932927 -0.0088 -0.011487863
-0.017530488 -0.0080960002 -0.012190898
0.065213412 -0.0088 -0.013596966
0.061006099 0.0052800002 -0.012893932
-0.0049085366 -0.0066880002 -0.0051605557
-0.079237804 0.0052800002 -0.0016453849
0.084847562 -0.0073919999 -0.0072696586
0.049786586 0.0088 -0.0044575217
-0.080640242 0.001056 -0.0072696586
0.065213412 -0.0045759999 -0.00094235083
0.034359757 -0.0088 -0.012893932
0.037865855 -0.0088 -0.011487863
-0.067317076 -0.0088 -0.013596966
-0.017530488 0.00176 -0.00094235083
0.030152438 -0.0088 -0.0086757271
0.017530488 0.0024639999 -0.013596966
0.084146343 -0.0024639999 -0.0016453849
0.0028048779 0.001056 -0.013596966
0.037164636 -0.0080960002 -0.00094235083
-0.048384145 -0.0088 -0.010784829
0.028750001 0.001056 -0.00094235083
-0.0077134147 -0.001056 -0.00094235083
0.050487805 -0.0066880002 -0.013596966
0.072926827 -0.0045759999 -0.013596966
0.041371953 -0.0088 -0.0058635902
0.077835366 -0.0066880002 -0.0016453849
0.072225608 0.0059839999 -0.012893932
-0.041371953 -0.000352 -0.0065666242
0.085548781 0.0052800002 -0.011487863
0.043475609 0.001056 -0.0051605557
0.064512193 -0.0052800002 -0.013596966
0.041371953 -0.0088 -0.0030514533
0.063109756 -0.0052800002 -0.013596966
0.041371953 0.000352 -0.0058635902
-0.042073172 -0.0080960002 -0.00094235083
-0.044176828 -0.0073919999 -0.00094235083
0.04067073 -0.0059839999 -0.0016453849
-0.016829269 -0.0088 -0.0079726921
0.018932927 -0.0080960002 -0.011487863
-0.039969511 -0.0031679999 -0.00094235083
-0.032957315 -0.000352 -0.00094235083
-0.010518293 -0.0031679999 -0.013596966
-0.065213412 0.001056 -0.00094235083
0.082743905 -0.0073919999 -0.0051605557
-0.057500001 -0.0073919999 -0.013596966
-0.017530488 -0.0080960002 -0.0023484193
-0.021737805 -0.0088 -0.0093787611
-0.063109756 -0.0052800002 -0.00094235083
-0.011920732 0.0088 -0.012893932
-0.0098170731 0.0073919999 -0.013596966
0.079237804 0.0024639999 -0.0016453849
-0.082042687 -0.0073919999 -0.0065666242
-0.044176828 -0.0059839999 -0.013596966
0.079237804 0.000352 -0.013596966
0.063810974 -0.0031679999 -0.0016453849
0.039268292 -0.0038719999 -0.00094235083
-0.061006099 0.0045759999 -0.012893932
0.0063109756 -0.0024639999 -0.013596966
0.026646342 -0.0088 -0.012190898
0.065213412 -0.0038719999 -0.0072696586
-0.0028048779 0.0080960002 -0.0058635902
0.062408537 -0.0088 -0.0086757271
-0.079237804 -0.0059839999 -0.0044575217
0.077835366 -0.0059839999 -0.0023484193
0.05609756 0.0038719999 -0.013596966
-0.072926827 -0.0059839999 -0.013596966
-0.084847562 -0.0080960002 -0.0037544875
0.075030491 0.0045759999 -0.00094235083
-0.025243903 -0.0052800002 -0.00094235083
0.051189024 0.0059839999 -0.012893932
0.067317076 0.0059839999 -0.00023931662
-0.085548781 -0.0073919999 -0.0023484193
0.017530488 -0.0080960002 -0.0058635902
0.075030491 -0.0031679999 -0.0072696586
0.0091158533 -0.0073919999 -0.00023931662
-0.0084146345 0.0066880002 -0.0037544875
0.015426829 -0.0080960002 -0.0044575217
0.071524389 -0.0088 -0.0044575217
0.025243903 -0.0088 -0.0072696586
-0.030152438 -0.0031679999 -0.013596966
-0.051189024 -0.0080960002 -0.00094235083
-0.077134147 0.0038719999 -0.0065666242
0.046280488 -0.00176 -0.013596966
0.013323171 -0.0073919999 -0.00094235083
-0.082743905 0.0073919999 -0.0030514533
-0.079939023 -0.0045759999 -0.00094235083
-0.055396341 -0.000352 -0.0016453849
0.04557927 -0.00176 -0.0051605557
-0.071524389 -0.0059839999 -0.0030514533
0.050487805 -0.0038719999 -0.013596966
-0.075030491 0.0073919999 -0.00094235083
0.084847562 0.0088 -0.00023931662
0.011219512 0.0052800002 -0.013596966
-0.017530488 0.0088 -0.012190898
0.028750001 -0.0024639999 -0.00023931662
-0.01402439 0.0052800002 -0.00094235083
0.068018295 0.000352 -0.013596966
-0.077134147 -0.0038719999 -0.013596966
-0.0098170731 0.0088 -0.0065666242
-0.035762195 0.000352 -0.013596966
0.065213412 -0.0088 -0.0058635902
0.08134146 -0.0031679999 -0.013596966
-0.056798782 -0.0088 -0.0065666242
0.068018295 -0.0024639999 -0.0072696586
0.032256097 -0.0088 -0.0030514533
0.04277439 -0.0059839999 -0.013596966
0.0056097559 -0.0059839999 -0.0079726921
0.011920732 0.0080960002 -0.0016453849
-0.028750001 -0.0024639999 -0.00023931662
-0.072926827 -0.0031679999 -0.0016453849
-0.044878047 -0.0024639999 -0.013596966
-0.058902439 0.0038719999 -0.012893932
-0.050487805 -0.00176 -0.0044575217
-0.07573171 -0.001056 -0.0072696586
0.016829269 0.0031679999 -0.013596966
0.074329272 -0.0052800002 -0.0030514533
0.028750001 -0.0038719999 -0.00023931662
0.07573171 -0.0088 -0.011487863
0.080640242 -0.0052800002 -0.0016453849
0.062408537 0.0038719999 -0.013596966
0.072926827 -0.0088 -0.0086757271
0.057500001 0.0088 -0.0037544875
-0.077835366 0.000352 -0.0016453849
-0.04067073 -0.0031679999 -0.00094235083
-0.025243903 0.0088 -0.0058635902
-0.062408537 -0.000352 -0.0072696586
-0.039268292 0.000352 -0.0023484193
0.041371953 -0.0088 -0.011487863
-0.07573171 -0.000352 -0.0016453849
-0.0035060975 -0.0066880002 -0.0051605557
0.051189024 -0.0088 -0.0058635902
-0.058902439 0.0024639999 -0.00094235083
0.084146343 -0.0073919999 -0.0072696586
0.082042687 0.000352 -0.0072696586
0.04557927 -0.0088 -0.0023484193
-0.074329272 -0.0052800002 -0.0016453849
-0.077835366 0.0088 -0.0093787611
0.016829269 0.0059839999 -0.012893932
0.052591462 -0.0052800002 -0.013596966
-0.039268292 -0.0038719999 -0.013596966
-0.077835366 0.0059839999 -0.012893932
0.043475609 -0.0031679999 -0.00094235083
0.053993903 -0.000352 -0.0016453849
-0.057500001 -0.0088 -0.0079726921
0.011920732 0.0073919999 -0.012893932
0.012621951 0.0088 -0.011487863
0.04277439 -0.0088 -0.0086757271
-0.049085367 0.0052800002 -0.00094235083
-0.017530488 -0.000352 -0.00094235083
0.018932927 0.0088 -0.012893932
0.063109756 -0.0066880002 -0.013596966
-0.01472561 0.0088 -0.011487863
0.070121951 -0.0088 -0.011487863
-0.075030491 0.0052800002 -0.0016453849
-0.079939023 -0.0073919999 -0.0058635902
-0.052591462 -0.0088 -0.010081795
-0.023841463 0.0088 -0.0030514533
-0.04557927 0.0088 -0.0086757271
0.084847562 -0.0052800002 -0.00023931662
-0.080640242 -0.0045759999 0.0039788885
-0.077134147 -0.0073919999 -0.013596966
0.023841463 0.0038719999 -0.013596966
0.030152438 0.0073919999 -0.012893932
0.082042687 0.0088 -0.0079726921
0.037164636 0.000352 -0.00094235083
0.032256097 0.0059839999 -0.0016453849
0.08134146 0.0038719999 -0.0072696586
-0.071524389 -0.0088 -0.0037544875
0.07082317 0.0038719999 -0.00094235083
0.050487805 0.0073919999 -0.00094235083
0.044878047 -0.0088 -0.0037544875
0.072225608 0.0059839999 -0.0023484193
0.066615857 -0.0045759999 -0.0030514533
0.042073172 -0.0088 -0.0058635902
0.050487805 0.0031679999 -0.013596966
-0.017530488 -0.00176 -0.00094235083
0.070121951 -0.0088 -0.0079726921
0.078536585 0.0088 -0.0051605557
0.068018295 0.0066880002 -0.012893932
0.042073172 0.001056 -0.0044575217
0.071524389 0.0088 -0.0044575217
-0.072225608 -0.0045759999 -0.0072696586
-0.041371953 0.0073919999 -0.0016453849
0.073628046 -0.0073919999 -0.0016453849
0.053993903 0.0073919999 -0.012893932
0.061006099 -0.0088 -0.0044575217
-0.076432928 0.0066880002 -0.0030514533
0.035762195 -0.0088 -0.0051605557
-0.075030491 0.0088 -0.0030514533
0.04067073 0.0088 -0.0072696586
0.046981707 0.000352 -0.013596966
0.083445124 -0.0038719999 -0.0016453849
-0.068719514 -0.0024639999 -0.0072696586
-0.0042073173 -0.0024639999 -0.013596966
-0.08134146 -0.001056 -0.00094235083
0.021036586 0.00176 -0.013596966
-0.0084146345 -0.0073919999 -0.0016453849
0.037865855 -0.0088 -0.0016453849
-0.065213412 0.0038719999 -0.0072696586
-0.07573171 -0.000352 -0.0072696586
0.053292684 0.001056 -0.0072696586
-0.083445124 -0.000352 -0.0072696586
-0.08134146 0.0052800002 -0.0016453849
0.04067073 -0.00176 -0.0016453849
-0.052591462 -0.0088 -0.0051605557
-0.044878047 0.001056 -0.0016453849
0.0077134147 -0.0073919999 -0.0016453849
0.032256097 -0.0059839999 -0.013596966
-0.053993903 0.0031679999 -0.0044575217
-0.011219512 -0.0052800002 -0.013596966
0.067317076 -0.0024639999 -0.0072696586
0.030853659 0.0059839999 -0.0016453849
0.066615857 -0.0073919999 -0.00023931662
-0.049085367 -0.00176 -0.013596966
0.030152438 0.0052800002 -0.013596966
0.053993903 0.0088 -0.011487863
-0.05820122 -0.0045759999 -0.013596966
0.079237804 0.0024639999 -0.013596966
-0.061707318 0.0031679999 -0.0016453849
0.039268292 -0.0088 -0.0016453849
0.051890243 0.0052800002 -0.00094235083
-0.076432928 0.001056 -0.0016453849
-0.075030491 0.0038719999 -0.0016453849
-0.082743905 0.0088 -0.0079726921
0.072926827 0.0088 -0.012190898
-0.08134146 -0.001056 -0.0072696586
-0.064512193 -0.0088 -0.013596966
0.011920732 -0.0066880002 -0.012893932
-0.073628046 0.001056 -0.013596966
-0.051890243 0.0080960002 -0.00094235083
0.063810974 -0.0038719999 -0.0037544875
-0.083445124 -0.0088 -0.010784829
0.011920732 0.0088 -0.012893932
0.061006099 -0.0031679999 -0.0016453849
-0.0021036586 0.0088 -0.0093787611
0.013323171 0.0080960002 -0.0037544875
0.061006099 0.001056 -0.0016453849
0.0028048779 0.001056 -0.00094235083
0.079939023 0.0066880002 -0.0044575217
-0.042073172 0.0088 -0.010784829
0.035762195 0.0088 -0.0079726921
-0.070121951 0.0088 -0.0037544875
-0.035060976 0.0088 -0.012893932
-0.023841463 -0.0088 -0.0044575217
-0.043475609 -0.0031679999 -0.0016453849
-0.0077134147 0.0088 -0.0093787611
-0.015426829 -0.0024639999 -0.00094235083
-0.046280488 0.0088 -0.0037544875
-0.046280488 0.0088 -0.0093787611
0.025243903 -0.0088 -0.0051605557
0.0042073173 0.0080960002 -0.0058635902
0.048384145 -0.000352 -0.0016453849
0.076432928 0.00176 -0.013596966
-0.07573171 0.0031679999 -0.00094235083
0.047682926 -0.0031679999 -0.013596966
-0.068719514 -0.0088 -0.0072696586
-0.053993903 -0.0088 -0.0093787611
0.058902439 0.000352 -0.013596966
0.025945121 0.0088 -0.0051605557
-0.013323171 0.0088 -0.0072696586
0.033658538 0.0059839999 -0.0016453849
-0.079939023 0.0031679999 -0.0016453849
0.01402439 0.0088 -0.0093787611
-0.019634146 -0.0080960002 -0.0023484193
-0.05609756 -0.0024639999 -0.0065666242
0.065213412 0.0045759999 -0.0037544875
0.0042073173 -0.0059839999 -0.0065666242
-0.059603658 -0.00176 -0.0016453849
-0.061707318 0.0080960002 -0.012893932
-0.023841463 0.0024639999 -0.00094235083
-0.079939023 0.0024639999 -0.0016453849
0.079237804 0.00176 -0.0016453849
-0.065213412 -0.0052800002 -0.00094235083
0.07082317 -0.0038719999 -0.013596966
-0.075030491 -0.0066880002 -0.00094235083
0.063109756 0.0031679999 -0.0065666242
0.071524389 0.0088 -0.0086757271
-0.035762195 0.001056 -0.013596966
0.044878047 -0.000352 -0.0016453849
-0.085548781 -0.0031679999 -0.010784829
0.085548781 0.0073919999 -0.012893932
-0.015426829 0.0080960002 -0.0030514533
0.056798782 -0.0031679999 -0.0044575217
-0.038567074 -0.0088 -0.0044575217
0.018231707 -0.000352 -0.00094235083
0.077134147 0.0088 -0.0079726921
-0.051890243 0.0024639999 -0.0058635902
0.084847562 -0.0080960002 -0.0030514533
-0.084146343 -0.0088 -0.0044575217
-0.022439023 -0.000352 -0.013596966
-0.07573171 -0.0031679999 -0.00023931662
0.08134146 0.0045759999 -0.012893932
-0.027347561 0.000352 -0.013596966
0.084847562 -0.00176 -0.0072696586
-0.047682926 0.0073919999 -0.013596966
-0.012621951 -0.00176 -0.00094235083
0.025945121 -0.0088 -0.010081795
0.052591462 -0.0088 -0.00094235083
-0.031554878 -0.000352 -0.00094235083
-0.044878047 -0.0059839999 -0.013596966
0.084847562 -0.0080960002 -0.0086757271
-0.07573171 -0.0059839999 -0.0037544875
-0.082042687 -0.0066880002 -0.0044575217
-0.023140244 0.0066880002 -0.012893932
-0.068719514 0.0088 -0.0072696586
-0.070121951 -0.0088 -0.010784829
-0.011219512 -0.0073919999 -0.0093787611
0.039969511 -0.000352 -0.013596966
0 0.0031679999 -0.00023931662
-0.037865855 -0.0088 -0.00023931662
-0.077134147 -0.0045759999 -0.013596966
-0.058902439 -0.0088 -0.0093787611
-0.064512193 0.0031679999 -0.0072696586
-0.061006099 -0.000352 -0.0072696586
-0.064512193 0.0038719999 -0.012893932
-0.061006099 -0.0088 -0.0058635902
-0.058902439 0.0088 -0.0065666242
0.018231707 -0.0080960002 -0.0023484193
-0.082042687 -0.0038719999 -0.0016453849
0.049786586 -0.0073919999 -0.0016453849
-0.067317076 -0.0080960002 -0.00023931662
0.068719514 -0.0052800002 -0.0051605557
0.034359757 -0.0031679999 -0.013596966
-0.057500001 0.0088 -0.0051605557
-0.070121951 0.0038719999 -0.0016453849
0.047682926 -0.00176 -0.0051605557
0.084847562 -0.0088 -0.0079726921
-0.039268292 0.0052800002 -0.00094235083
0.085548781 0.0080960002 -0.012893932
0.077835366 0.0066880002 -0.012893932
-0.029451219 -0.0088 -0.0065666242
-0.075030491 -0.001056 -0.0016453849
0.049786586 -0.00176 -0.0023484193
-0.011920732 -0.0073919999 -0.012190898
-0.082042687 -0.0052800002 -0.013596966
0.033658538 -0.0066880002 -0.00094235083
-0.076432928 0.001056 -0.00094235083
0.076432928 0.001056 -0.00094235083
-0.065914631 0.0024639999 -0.0016453849
-0.071524389 -0.00176 -0.0072696586
0.063810974 -0.0088 -0.0086757271
0.046981707 0.00176 -0.013596966
0.050487805 -0.00176 -0.0023484193
-0.053993903 0.0059839999 -0.012893932
-0.025243903 0.0024639999 -0.00094235083
-0.084146343 -0.0073919999 -0.0065666242
0.039969511 -0.0088 -0.010784829
-0.07082317 -0.0066880002 -0.00023931662
-0.085548781 -0.0059839999 -0.011487863
-0.030853659 0.0059839999 -0.012893932
0.0091158533 -0.00176 -0.00023931662
0.043475609 -0.001056 -0.013596966
0.049085367 -0.0031679999 -0.00094235083
-0.0021036586 -0.0059839999 -0.00094235083
-0.032256097 -0.0031679999 -0.013596966
0.053292684 -0.0038719999 -0.013596966
-0.052591462 0.0088 -0.0058635902
0.00070121948 0.0059839999 -0.013596966
0.039969511 0.0088 -0.0072696586
-0.05609756 -0.0088 -0.012893932
-0.029451219 -0.0031679999 -0.013596966
0.0028048779 -0.0038719999 -0.00094235083
0.057500001 -0.0031679999 -0.0044575217
-0.018932927 -0.0045759999 -0.013596966
-0.074329272 0.0088 -0.0058635902
-0.08134146 -0.000352 -0.013596966
-0.026646342 -0.0088 -0.0051605557
0.015426829 0.0080960002 -0.0051605557
-0.051189024 -0.00176 -0.0044575217
-0.062408537 0.0031679999 -0.0016453849
-0.084847562 0.0031679999 -0.011487863
0.054695122 0.000352 -0.0072696586
-0.027347561 0.00176 -0.013596966
0.028750001 0.0024639999 -0.013596966
-0.085548781 -0.0080960002 -0.0086757271
0.054695122 -0.0088 -0.0072696586
-0.083445124 0.0088 -0.0093787611
-0.065213412 -0.0088 -0.0079726921
-0.05820122 -0.0031679999 -0.00094235083
0.077134147 0.0080960002 -0.0016453849
0.055396341 0.0038719999 -0.013596966
0.029451219 -0.0088 -0.0065666242
0.048384145 0.0045759999 -0.00094235083
-0.053993903 0.00176 -0.013596966
0.049786586 -0.0038719999 -0.0016453849
0.085548781 -0.0024639999 -0.012190898
0.043475609 -0.00176 -0.00094235083
0.044878047 0.0088 -0.0065666242
0.04277439 -0.0080960002 -0.013596966
0.0035060975 0.0088 -0.0065666242
-0.050487805 -0.0031679999 -0.00094235083
0.019634146 0.0031679999 -0.013596966
-0.061006099 0.0038719999 -0.0065666242
0.077134147 0.0088 -0.0030514533
0.046981707 0.0045759999 -0.00023931662
-0.00070121948 0.0059839999 -0.0037544875
-0.024542684 0.00176 -0.00094235083
0.026646342 -0.00176 -0.013596966
0.034359757 -0.0073919999 -0.013596966
-0.039969511 -0.00176 -0.013596966
0.00070121948 0.0045759999 -0.00023931662
0.030152438 -0.0031679999 -0.013596966
0.051189024 -0.0088 -0.0065666242
0.029451219 -0.0088 -0.0051605557
0.082042687 0.0073919999 -0.0030514533
0.077835366 0.0059839999 -0.012893932
-0.035762195 0.0031679999 -0.00094235083
-0.033658538 -0.0059839999 -0.00023931662
0.030853659 0.0031679999 -0.013596966
-0.053993903 0.00176 -0.00094235083
-0.063109756 0.0088 -0.0086757271
0.0042073173 -0.0059839999 -0.0037544875
0.0056097559 -0.0059839999 -0.0072696586
0.032256097 -0.0073919999 -0.013596966
0.023841463 0.00176 -0.00094235083
0.049085367 0.00176 -0.013596966
0.061707318 0.0031679999 -0.0058635902
-0.041371953 -0.0066880002 -0.013596966
-0.038567074 0.0088 -0.012893932
0.035762195 -0.0088 -0.0030514533
0.032256097 0.0038719999 -0.013596966
-0.064512193 0.0059839999 -0.012893932
-0.056798782 0.00176 -0.0072696586
-0.033658538 -0.0066880002 -0.013596966
0.0035060975 0.00176 -0.013596966
-0.00070121948 0.0066880002 -0.013596966
-0.072225608 0.001056 -0.0016453849
-0.035060976 -0.0088 -0.0093787611
0.08134146 0.000352 -0.0072696586
0.068719514 -0.0088 -0.0044575217
-0.05820122 0.001056 -0.00094235083
0.038567074 0.0088 -0.0023484193
0.027347561 -0.0073919999 -0.013596966
0.037865855 0.000352 -0.0030514533
-0.084847562 -0.0088 -0.012893932
-0.064512193 -0.0088 -0.0023484193
-0.016128048 0.0088 -0.010081795
-0.026646342 0.0045759999 -0.012893932
-0.08134146 -0.0038719999 -0.0016453849
-0.028750001 0.0080960002 -0.013596966
-0.042073172 -0.0088 -0.0023484193
-0.032957315 -0.0052800002 -0.013596966
-0.065914631 0.0066880002 -0.013596966
0.046280488 0.0088 -0.0065666242
-0.025945121 -0.0031679999 -0.00094235083
-0.068018295 -0.0045759999 -0.0044575217
-0.054695122 -0.00176 -0.013596966
-0.016128048 0.0024639999 -0.013596966
-0.043475609 -0.001056 -0.0030514533
0.058902439 0.0052800002 -0.0016453849
0.038567074 0.000352 -0.0023484193
0.058902439 0.0038719999 -0.013596966
-0.046280488 0.0052800002 -0.013596966
0.0056097559 0.0066880002 -0.0058635902
-0.020335365 0.001056 -0.013596966
0.025243903 -0.0088 -0.0044575217
0.079237804 0.00176 -0.0072696586
-0.066615857 -0.0088 -0.00094235083
-0.011920732 0.000352 -0.00094235083
-0.049786586 -0.0073919999 -0.00094235083
0.053292684 -0.0024639999 -0.0051605557
0.084146343 -0.0031679999 -0.0016453849
0.061707318 -0.0045759999 0.0018697859
0.061707318 0.000352 -0.013596966
0.079939023 -0.0066880002 -0.0065666242
0.04277439 -0.0059839999 -0.00094235083
-0.019634146 -0.0088 -0.0072696586
0.066615857 0.0024639999 -0.0072696586
0.027347561 0.0024639999 -0.013596966
0.064512193 0.0088 -0.0030514533
-0.070121951 0.0059839999 -0.012893932
-0.051189024 -0.0088 -0.0016453849
0.063810974 0.0088 -0.0044575217
-0.072926827 0.0059839999 -0.012893932
-0.04557927 -0.0059839999 -0.0016453849
-0.084146343 0.0073919999 -0.0016453849
-0.021737805 0.0088 -0.0086757271
-0.071524389 -0.0045759999 0.0046819225
0.021036586 -0.0088 -0.0023484193
-0.070121951 0.000352 -0.00094235083
0.085548781 0.0024639999 -0.0093787611
0.079939023 0.0088 -0.011487863
0.082743905 0.001056 -0.0072696586
-0.021036586 -0.000352 -0.00094235083
0.053292684 0.0073919999 -0.0016453849
-0.064512193 0.001056 -0.012893932
0.08134146 0.000352 -0.0016453849
-0.0077134147 -0.0073919999 -0.0058635902
-0.023140244 -0.00176 -0.00094235083
-0.062408537 0.0088 -0.0023484193
-0.057500001 -0.001056 -0.0016453849
0.072926827 -0.0059839999 -0.0058635902
0.0098170731 -0.00176 -0.00023931662
-0.0056097559 0.0088 -0.0065666242
-0.037164636 -0.0073919999 -0.00094235083
0.013323171 0.000352 -0.00094235083
0.034359757 -0.00176 -0.00094235083
0.04277439 -0.0088 -0.013596966
-0.039268292 0.00176 -0.00094235083
0.046280488 0.0088 -0.0051605557
-0.016829269 0.001056 -0.013596966
-0.035762195 0.0088 -0.0051605557
0.084146343 0.0080960002 -0.012893932
0.07082317 -0.001056 -0.0072696586
0.023140244 -0.0088 -0.010081795
0.084847562 -0.0080960002 -0.0016453849
0.085548781 -0.0024639999 -0.00023931662
0.039268292 -0.0045759999 -0.00094235083
0.049085367 0.0080960002 -0.012893932
-0.065914631 0.0088 -0.00094235083
0.0056097559 0.000352 -0.00094235083
-0.084847562 0.0059839999 -0.0065666242
-0.063109756 -0.001056 -0.013596966
0.080640242 0.0066880002 -0.012893932
-0.063810974 -0.0038719999 -0.0044575217
-0.024542684 -0.000352 -0.013596966
-0.0056097559 -0.0052800002 -0.00094235083
-0.023140244 -0.0088 -0.013596966
0.024542684 0.0088 -0.010784829
0.051189024 0.0052800002 -0.012893932
-0.022439023 -0.0038719999 -0.00094235083
0.0077134147 0.0066880002 -0.0023484193
0.085548781 -0.0059839999 -0.00094235083
0.021036586 0.0088 -0.012190898
0.062408537 -0.000352 -0.0016453849
0.044878047 -0.0024639999 -0.00094235083
-0.061707318 -0.0088 -0.0037544875
0.04557927 -0.0088 -0.0037544875
0.053292684 0.0080960002 -0.0016453849
-0.054695122 -0.001056 -0.00094235083
0.084146343 0.0088 -0.00094235083
-0.016829269 0.000352 -0.00094235083
-0.060304876 -0.0038719999 -0.013596966
-0.066615857 0.0059839999 -0.00094235083
-0.053292684 0.0024639999 -0.0016453849
0.023140244 -0.0045759999 -0.013596966
0.049786586 -0.000352 -0.013596966
-0.082743905 -0.0066880002 -0.0044575217
0.044176828 -0.0088 -0.0023484193
-0.00070121948 0.0088 -0.012893932
-0.027347561 0.0073919999 -0.00094235083
-0.049786586 -0.0080960002 -0.00094235083
0.07082317 -0.0088 -0.0037544875
0.041371953 -0.0088 -0.012190898
-0.029451219 0.0059839999 -0.00094235083
-0.012621951 0.0073919999 -0.0051605557
0.022439023 -0.0088 -0.0058635902
-0.049085367 -0.00176 -0.0058635902
0.030853659 0.00176 -0.013596966
-0.080640242 -0.000352 -0.013596966
-0.07082317 0.0045759999 -0.0065666242
-0.079237804 0.0073919999 -0.012893932
0.08134146 -0.0088 -0.010784829
-0.025243903 -0.0045759999 -0.00094235083
0.066615857 0.0088 -0.00094235083
0.035762195 -0.0052800002 -0.0016453849
-0.018231707 0.0088 -0.0072696586
-0.073628046 -0.0088 -0.0023484193
-0.076432928 0.0038719999 -0.00094235083
-0.04557927 -0.0066880002 -0.0016453849
0.0021036586 -0.0038719999 -0.00094235083
-0.011219512 -0.0080960002 -0.0065666242
-0.07082317 0.0059839999 -0.0030514533
-0.051890243 0.0038719999 -0.00094235083
-0.043475609 0.0031679999 -0.0016453849
-0.073628046 -0.0038719999 -0.0079726921
-0.033658538 -0.00176 -0.013596966
0.047682926 -0.000352 -0.0072696586
-0.065914631 0.000352 -0.0072696586
-0.022439023 -0.0073919999 -0.013596966
-0.077134147 0.0059839999 -0.012893932
0.075030491 0.001056 -0.00094235083
0.007012195 0.001056 -0.00094235083
0.051890243 -0.0024639999 -0.013596966
0.031554878 -0.0073919999 -0.013596966
-0.023140244 0.0088 -0.0093787611
0.04557927 0.0045759999 -0.0016453849
-0.085548781 -0.0024639999 -0.0072696586
-0.046981707 0.0024639999 -0.0037544875
0.061006099 0.0038719999 -0.0037544875
0.043475609 -0.001056 -0.0065666242
0.018231707 -0.0080960002 -0.012893932
0.084847562 -0.0088 -0.011487863
-0.079939023 0.0073919999 -0.0023484193
0.078536585 0.0045759999 -0.0016453849
0.084847562 -0.0052800002 -0.012190898
0.078536585 -0.0088 -0.0037544875
0.019634146 -0.00176 -0.00094235083
-0.042073172 0.0088 -0.0093787611
0.0035060975 0.0038719999 -0.013596966
0.021036586 -0.0073919999 -0.013596966
0.012621951 0.0088 -0.012190898
-0.030853659 0.0024639999 -0.013596966
0.0063109756 0.0073919999 -0.0016453849
-0.07573171 0.0066880002 -0.00094235083
-0.0056097559 -0.0066880002 -0.010784829
-0.046981707 -0.001056 -0.0016453849
0.047682926 0.0080960002 -0.013596966
0.044878047 -0.001056 -0.0030514533
0.079237804 0.0066880002 -0.00094235083
0.033658538 -0.001056 -0.00094235083
-0.050487805 0.0066880002 -0.012893932
-0.028750001 0.0088 -0.010784829
0.074329272 -0.0052800002 -0.013596966
0.020335365 -0.0066880002 -0.013596966
0.073628046 -0.0045759999 -0.0079726921
0.021036586 -0.001056 -0.00094235083
0.010518293 0.0080960002 -0.012893932
0.04557927 0.0080960002 -0.0016453849
-0.018231707 -0.0088 -0.010081795
0.044878047 0.0052800002 -0.0016453849
0.020335365 -0.001056 -0.00094235083
0.052591462 -0.0031679999 -0.00023931662
0.04067073 0.000352 -0.0044575217
0.036463413 -0.0024639999 -0.013596966
0.047682926 -0.0024639999 -0.013596966
-0.037164636 -0.001056 -0.00094235083
0.072926827 0.000352 -0.013596966
-0.056798782 0.0038719999 -0.0044575217
-0.011219512 0.0088 -0.010784829
0.073628046 -0.0059839999 -0.0072696586
0.049085367 -0.0031679999 -0.013596966
0.035762195 -0.0073919999 -0.0016453849
-0.0042073173 0.0066880002 -0.0037544875
0.077134147 -0.0031679999 -0.00094235083
-0.078536585 -0.0088 -0.011487863
0.080640242 -0.0088 -0.0086757271
0.071524389 0.0088 -0.0016453849
0.01472561 0.0088 -0.0058635902
-0.063810974 -0.0024639999 -0.0072696586
-0.054695122 0.0031679999 -0.00094235083
0.04557927 -0.0088 -0.0016453849
-0.0091158533 0.0088 -0.00094235083
0.032256097 -0.0088 -0.00094235083
0.058902439 -0.0088 -0.013596966
-0.012621951 -0.0066880002 -0.013596966
-0.053993903 0.0088 -0.012893932
-0.011920732 -0.0080960002 -0.0086757271
0.079939023 0.0088 -0.0079726921
-0.04067073 -0.0059839999 -0.00094235083
0.024542684 0.0088 -0.0079726921
0.020335365 0.000352 -0.013596966
0.072225608 -0.000352 -0.0016453849
-0.037164636 0.0073919999 -0.00094235083
-0.064512193 0.0073919999 -0.012893932
-0.082042687 0.0066880002 -0.0065666242
-0.05609756 0.00176 -0.013596966
0.049786586 -0.0052800002 -0.0016453849
-0.046981707 0.0088 -0.0093787611
0.037865855 0.0080960002 -0.013596966
-0.066615857 -0.000352 -0.013596966
0.047682926 -0.000352 -0.00023931662
-0.011920732 -0.0066880002 -0.013596966
0.077835366 0.0088 -0.0051605557
-0.065914631 -0.000352 -0.0072696586
0.085548781 0.0045759999 -0.0093787611
0.085548781 0.0073919999 -0.011487863
0.058902439 0.0088 -0.0016453849
-0.012621951 -0.0073919999 -0.0093787611
-0.035060976 -0.00176 -0.00094235083
0.046981707 -0.0059839999 -0.013596966
0.020335365 -0.0088 -0.0044575217
0.046280488 0.001056 -0.0065666242
0.084146343 0.0088 -0.012190898
0.080640242 0.0088 -0.0086757271
-0.044176828 -0.0073919999 -0.013596966
0.013323171 0.0088 -0.0058635902
0.011920732 0.0088 -0.011487863
0.08134146 -0.0088 -0.0065666242
-0.063109756 -0.0088 -0.0079726921
-0.061707318 -0.0088 -0.011487863
-0.085548781 -0.0059839999 -0.010784829
0.037164636 0.0088 -0.0016453849
0.046981707 0.0066880002 -0.013596966
0.078536585 -0.0066880002 -0.0058635902
0.077134147 -0.0059839999 -0.0023484193
-0.0049085366 0.0059839999 -0.00094235083
0.0028048779 0.00176 -0.00094235083
-0.013323171 -0.0080960002 -0.0065666242
-0.039268292 -0.0045759999 -0.013596966
0.051890243 0.0088 -0.010081795
-0.084847562 0.0045759999 -0.011487863
-0.075030491 -0.0052800002 -0.0072696586
-0.015426829 0.0073919999 -0.00094235083
0.0056097559 0.0088 -0.0093787611
-0.018231707 0.0045759999 -0.013596966
0.0098170731 -0.0080960002 -0.00023931662
-0.082042687 0.00176 -0.0016453849
-0.063810974 -0.000352 -0.0016453849
-0.053292684 -0.0031679999 -0.0030514533
0.08134146 0.0031679999 -0.013596966
-0.013323171 0.001056 -0.013596966
0.065213412 -0.0080960002 -0.0016453849
-0.00070121948 0.0045759999 -0.00023931662
-0.001402439 -0.001056 -0.00094235083
0.058902439 -0.0088 -0.0058635902
-0.051189024 -0.0024639999 -0.0058635902
0.007012195 -0.0045759999 -0.0016453849
0.0091158533 -0.0066880002 -0.0086757271
0.063810974 0.0031679999 -0.013596966
-0.075030491 -0.0052800002 -0.013596966
-0.063810974 -0.0031679999 -0.00094235083
0.053292684 0.0031679999 -0.0023484193
-0.037164636 0.0066880002 -0.00023931662
-0.032256097 0.0045759999 -0.00094235083
0.047682926 -0.00176 -0.013596966
-0.042073172 0.0088 -0.0023484193
-0.075030491 0.0088 -0.0044575217
0.04067073 -0.000352 -0.013596966
0.030853659 0.0088 -0.0030514533
-0.082042687 -0.001056 -0.0016453849
-0.046981707 0.001056 -0.00023931662
-0.022439023 0.0080960002 -0.012893932
-0.042073172 0.0088 -0.0086757271
0.036463413 0.0088 -0.0030514533
0.066615857 -0.0088 -0.00094235083
-0.030853659 -0.0088 -0.0079726921
-0.04277439 0.001056 -0.013596966
-0.049786586 -0.0088 -0.0058635902
-0.067317076 0.0052800002 -0.0023484193
0.064512193 0.000352 -0.0072696586
-0.078536585 0.0059839999 -0.0016453849
0.030853659 0.0031679999 -0.00094235083
-0.064512193 -0.0045759999 -0.0023484193
-0.05609756 0.0052800002 -0.00094235083
0.028750001 -0.0088 -0.011487863
0.068719514 -0.0088 -0.0065666242
-0.023841463 -0.0045759999 0.00046371756
0.074329272 -0.0031679999 -0.00094235083
-0.0021036586 -0.0024639999 -0.00094235083
-0.018231707 0.0038719999 -0.00094235083
-0.020335365 -0.0080960002 -0.012893932
-0.013323171 0.0088 -0.012190898
-0.01402439 0.0080960002 -0.0023484193
-0.037164636 -0.0088 -0.0023484193
-0.079939023 -0.0052800002 -0.013596966
0.080640242 -0.0088 -0.0058635902
0.053993903 -0.0088 -0.012893932
0.082743905 0.0088 -0.010081795
-0.08134146 0.0088 -0.0058635902
0.049786586 0.0088 -0.012893932
0.084146343 0.0038719999 -0.0016453849
0.085548781 0.00176 -0.00023931662
0.015426829 0.0073919999 -0.00094235083
-0.07573171 0.0024639999 -0.0016453849
-0.0028048779 -0.0031679999 -0.013596966
-0.083445124 -0.0045759999 -0.0072696586
-0.013323171 -0.0080960002 -0.0044575217
0.075030491 -0.0080960002 -0.013596966
-0.061006099 -0.00176 -0.013596966
0.018231707 -0.001056 -0.013596966
-0.062408537 0.000352 -0.0072696586
0.068719514 -0.000352 -0.0016453849
-0.049085367 -0.0045759999 -0.013596966
0.048384145 -0.00176 -0.0037544875
-0.060304876 -0.0052800002 -0.013596966
-0.068719514 -0.0024639999 -0.0016453849
-0.0056097559 0.0038719999 -0.012893932
-0.028750001 -0.0059839999 -0.013596966
-0.078536585 -0.000352 -0.0072696586
-0.062408537 0.0038719999 -0.0065666242
-0.075030491 0.0024639999 -0.0016453849
0.036463413 0.0059839999 -0.0016453849
0.065914631 -0.0059839999 -0.00094235083
-0.07082317 -0.0045759999 0.0018697859
-0.025945121 -0.0052800002 -0.00094235083
0.077134147 -0.0073919999 -0.013596966
0.033658538 0.001056 -0.013596966
-0.058902439 0.0088 -0.0093787611
0.058902439 0.0031679999 -0.0065666242
0.065213412 -0.0088 -0.0037544875
0.07573171 -0.0088 -0.0093787611
0.080640242 0.0052800002 -0.00094235083
0.012621951 0.0080960002 -0.0058635902
-0.051890243 0.0088 -0.012893932
-0.0084146345 0.0073919999 -0.012893932
0.084146343 -0.0045759999 -0.00094235083
0.068719514 -0.0066880002 -0.013596966
-0.07573171 -0.0066880002 -0.00094235083
-0.077835366 0.0088 -0.0023484193
0.055396341 0.00176 -0.0072696586
-0.085548781 0.000352 -0.0079726921
-0.060304876 -0.000352 -0.00094235083
-0.037865855 0.0073919999 -0.00023931662
0.01402439 0.0088 -0.0065666242
-0.074329272 -0.0031679999 -0.0016453849
-0.061006099 -0.001056 -0.0016453849
0.05820122 -0.0052800002 -0.0016453849
-0.043475609 -0.000352 -0.0037544875
0.04557927 0.0024639999 -0.013596966
0.019634146 -0.0088 -0.00094235083
-0.0021036586 0.0031679999 -0.013596966
-0.067317076 0.0080960002 -0.00094235083
-0.023841463 0.0088 -0.0093787611
0.042073172 0.00176 -0.0016453849
0.07573171 0.0066880002 -0.00094235083
0.049786586 0.0088 -0.0030514533
0.04277439 0.0073919999 -0.012893932
-0.063810974 0.0038719999 -0.00094235083
0.0021036586 0.0059839999 -0.012893932
0.051890243 -0.0045759999 -0.00094235083
0.044878047 0.001056 -0.013596966
-0.046280488 0.000352 -0.013596966
-0.085548781 -0.0080960002 -0.00094235083
-0.076432928 0.001056 -0.013596966
0.01402439 -0.00176 -0.00094235083
-0.077835366 -0.0059839999 -0.0016453849
-0.030152438 0.0088 -0.0072696586
-0.068018295 -0.0088 -0.0072696586
-0.074329272 -0.0024639999 -0.0072696586
-0.01472561 0.0052800002 -0.012893932
0.084847562 0.0088 -0.0093787611
0.025243903 0.0024639999 -0.00094235083
0.00070121948 0.0088 -0.011487863
0.019634146 -0.0045759999 -0.00023931662
0.046981707 0.00176 -0.0023484193
0.025945121 0.0073919999 -0.0016453849
-0.035060976 0.0088 -0.0065666242
-0.0042073173 -0.0066880002 -0.0065666242
0.019634146 0.00176 -0.013596966
-0.05609756 -0.0038719999 -0.00094235083
0.013323171 0.0088 -0.011487863
-0.065914631 -0.0080960002 -0.00023931662
-0.071524389 -0.0059839999 -0.00023931662
0.025243903 -0.0088 -0.0058635902
0.063810974 0.0088 -0.0065666242
-0.084847562 -0.0088 -0.0051605557
0.016128048 -0.0080960002 -0.0051605557
-0.060304876 -0.0080960002 -0.013596966
0.032256097 0.0031679999 -0.00094235083
0.057500001 0.0031679999 -0.0016453849
0.085548781 -0.0024639999 -0.012893932
-0.046981707 0.0066880002 -0.013596966
0.0098170731 0.0080960002 -0.00023931662
0.018231707 -0.0080960002 -0.011487863
-0.075030491 -0.001056 -0.00094235083
-0.075030491 -0.0045759999 -0.0072696586
-0.078536585 0.0052800002 -0.012893932
-0.046981707 -0.0088 -0.0086757271
0.082042687 0.0052800002 -0.012893932
-0.079939023 0.000352 -0.013596966
-0.056798782 0.0088 -0.0065666242
-0.078536585 -0.000352 -0.0016453849
-0.049085367 -0.0088 -0.00094235083
-0.072225608 0.0088 -0.0023484193
-0.04067073 0.0073919999 -0.012893932
-0.048384145 -0.0024639999 -0.00094235083
0.00070121948 0.000352 -0.00023931662
0.047682926 -0.0088 -0.0058635902
-0.059603658 0.001056 -0.00094235083
0.0091158533 -0.00176 -0.013596966
0.056798782 -0.0031679999 -0.013596966
0.082042687 -0.0088 -0.0016453849
0.057500001 -0.0073919999 -0.013596966
0.074329272 0.0080960002 -0.012893932
-0.0091158533 -0.0024639999 -0.00023931662
-0.051890243 -0.0045759999 0.0011667517
0.063109756 -0.0080960002 -0.0016453849
-0.065914631 -0.0024639999 -0.0016453849
-0.082042687 0.0088 -0.0016453849
-0.015426829 0.0088 -0.0086757271
0.030853659 0.0024639999 -0.00094235083
0.025243903 0.0088 -0.0065666242
0.032256097 0.0088 -0.0044575217
0.026646342 0.0031679999 -0.00094235083
0.025243903 -0.0038719999 -0.0016453849
0.07082317 0.0088 -0.0044575217
0.011920732 -0.0073919999 -0.0023484193
0.026646342 0.0088 -0.0058635902
0.07082317 0.0052800002 -0.012893932
0.076432928 0.0066880002 -0.0044575217
0.084146343 -0.0045759999 -0.0016453849
0.011219512 -0.0045759999 -0.013596966
0.079237804 -0.0024639999 -0.0016453849
-0.047682926 0.000352 -0.00023931662
0.016128048 0.0031679999 -0.013596966
-0.061006099 0.000352 -0.0016453849
-0.07082317 0.0088 -0.010784829
0.058902439 0.001056 -0.013596966
-0.037164636 -0.0088 -0.0037544875
-0.023140244 0.0045759999 -0.012893932
0.084146343 0.0024639999 -0.00094235083
0.0063109756 0.0080960002 -0.0058635902
0.072926827 -0.0088 -0.0037544875
