# .PCD v0.7 - Point Cloud Data file format
VERSION 0.7
FIELDS x y z
SIZE 4 4 4
TYPE F F F
COUNT 1 1 1
WIDTH 1191
HEIGHT 1
VIEWPOINT 0 0 0 1 0 0 0
POINTS 1191
DATA ascii
0.00047058825 -0.0037692308 -0.045185294
-0.0017254902 -0.0018846154 -0.033226471
0.0042352942 -0.0059679486 -0.0011264706
-0.0020392158 -0.0081666671 -0.0077352943
-0.0042352942 -0.0056538461 -0.00081176468
-0.0067450982 0.0034551283 0.0013911765
0.0080000004 -0.0084807696 0.0070558824
-0.00078431371 -0.0094230771 0.0076852939
-0.0026666666 -0.0047115386 -0.03102353
-0.0045490195 -0.011621795 0.0076852939
-0.0023529411 0.011307692 0.0064264708
-0.0020392158 -0.002198718 -0.019694118
0.0039215689 0.0065961541 0.0064264708
-0.0026666666 -0.0031410255 -0.014344118
0.0026666666 -0.0034551283 -0.042667646
-0.0042352942 -0.002826923 -0.0077352943
0.0048627453 0.0056538461 0.0051676473
0.0064313724 -0.011935897 0.0070558824
-0.0026666666 -0.0037692308 -0.041723531
0.006117647 -0.011935897 0.0010764706
0.0045490195 0.0037692308 0.00076176471
0.0029803922 -0.010679487 0.00076176471
0.0045490195 0.0056538461 0.0073705884
-0.0010980392 -0.0034551283 -0.044870589
-0.0014117646 -0.0018846154 -0.022526471
-0.0045490195 -0.004397436 -0.0077352943
-0.0073725488 -0.0065961541 0.0064264708
-0.0073725488 -0.0062820511 0.0045382353
0.0023529411 -0.0025128205 -0.011511764
0.00015686275 -0.0015705128 -0.027247058
0.0010980392 0.010051282 0.0064264708
0.0010980392 -0.010051282 0.0076852939
0.0073725488 -0.0056538461 0.0051676473
0.0020392158 -0.0081666671 -0.0030147058
-0.0048627453 -0.0087948721 0.00013235294
-0.0014117646 -0.0065961541 -0.023785295
0.0026666666 -0.0047115386 -0.038261764
0.0051764706 -0.0087948721 0.00013235294
-0.0010980392 -0.0084807696 -0.0077352943
0.0010980392 0.0034551283 0.00076176471
-0.0026666666 -0.0040833335 -0.0096235294
-0.0029803922 -0.0081666671 0.00013235294
0.0076862746 -0.0053397436 0.0073705884
-0.0026666666 -0.0037692308 -0.014344118
-0.0014117646 -0.0018846154 -0.040464707
0.0023529411 -0.0025128205 -0.020952942
-0.0051764706 -0.011621795 0.00076176471
0.0070588235 -0.0015705128 0.0076852939
0.0042352942 0.0012564103 0.00044705882
0.0076862746 -0.0009423077 0.0017058824
-0.0073725488 -0.0050256411 0.0045382353
-0.0042352942 0.0025128205 0.0076852939
0.0073725488 -0.0056538461 0.0026499999
0.0039215689 -0.0069102566 -0.0039588236
-0.0045490195 0.0056538461 0.0076852939
-0.0051764706 0.0065961541 0.0064264708
-0.0017254902 0.0056538461 0.0054823528
0.00047058825 0.004397436 0.0042235292
-0.0020392158 -0.0059679486 0.0080000004
-0.00078431371 -0.0069102566 -0.011511764
0.0058039217 0.0053397436 0.0054823528
-0.0026666666 -0.0050256411 -0.02787647
-0.0014117646 0.0040833335 0.0076852939
0.0014117646 -0.0015705128 -0.01654706
0.0032941177 -0.0047115386 0.0080000004
0.0076862746 0.0040833335 0.0070558824
0.0010980392 -0.0015705128 -0.041094117
-0.0026666666 -0.0040833335 -0.040464707
0.0039215689 -0.0015705128 -0.00018235295
-0.0017254902 -0.0065961541 -0.043611765
-0.0010980392 -0.0069102566 -0.0241
-0.0020392158 -0.0059679486 -0.011511764
-0.0045490195 -0.0040833335 -0.0064764707
0.0020392158 -0.002198718 -0.040464707
-0.0048627453 0.0053397436 0.0076852939
0.0070588235 -0.0047115386 0.0023352941
-0.0039215689 -0.0075384616 0.0076852939
-0.00015686275 -0.0072243591 -0.020638235
-0.0036078431 -0.0012564103 -0.00049705885
0.00015686275 0 -0.00049705885
-0.0023529411 -0.0056538461 -0.040464707
0.0042352942 -0.0056538461 -0.0020705883
-0.0023529411 -0.002826923 -0.042667646
0.00078431371 0.0031410255 0.00076176471
0.0051764706 -0.0084807696 0.00013235294
-0.0054901959 -0.011621795 0.00076176471
-0.00047058825 -0.0015705128 -0.015917648
0.0039215689 -0.0065961541 -0.0030147058
-0.0017254902 0.0056538461 0.0057970588
0.0054901959 -0.0025128205 0.00013235294
-0.0020392158 0.0047115386 0.0042235292
0.0067450982 -0.0094230771 0.00076176471
-0.0026666666 -0.0050256411 -0.016861765
-0.0029803922 -0.0075384616 -0.0023852941
-0.0042352942 0.0009423077 0.00013235294
-0.0029803922 -0.0087948721 0.00013235294
0.0042352942 -0.0040833335 0.0076852939
0.0032941177 0.0081666671 0.0064264708
0.00078431371 -0.0084807696 -0.0052176472
-0.00047058825 0 -0.0045882352
-0.0039215689 0.0018846154 0.0076852939
-0.0020392158 0 -0.00018235295
-0.0026666666 -0.0037692308 -0.010882352
0.0023529411 -0.002198718 0.0080000004
-0.0010980392 -0.0059679486 -0.0077352943
0.0064313724 -0.0012564103 0.0076852939
-0.0036078431 -0.011935897 0.0045382353
-0.0010980392 -0.0015705128 -0.039520588
-0.0048627453 0.0053397436 0.0042235292
0.0017254902 -0.0078525646 0.0076852939
-0.0076862746 -0.0094230771 0.0042235292
0.0076862746 -0.0078525646 0.0076852939
0.0039215689 -0.0075384616 0.0076852939
-0.0032941177 -0.010365385 0.0076852939
-0.00047058825 -0.0084807696 -0.0052176472
-0.00015686275 0 -0.00049705885
0.0070588235 -0.0084807696 0.00076176471
0.00015686275 -0.0069102566 -0.01182647
-0.0076862746 0.0037692308 0.0073705884
-0.0020392158 -0.0062820511 -0.012141176
0.0026666666 -0.0047115386 -0.015288236
-0.00078431371 0 -0.0074205883
-0.0032941177 0.004397436 0.0076852939
-0.0045490195 0.0037692308 0.0026499999
0.0036078431 -0.01225 0.0076852939
-0.0023529411 -0.0056538461 -0.0093088234
0.00015686275 0 -0.0027000001
0.0026666666 -0.0037692308 -0.028820587
0.0020392158 -0.0062820511 -0.036058825
-0.0076862746 0.0031410255 0.0061117648
0.0023529411 -0.0059679486 -0.027561765
-0.0048627453 -0.0031410255 0.0076852939
0.00015686275 -0.0015705128 -0.01654706
0.0026666666 -0.0009423077 0.0080000004
-0.0064313724 -0.0053397436 0.0076852939
0.0042352942 -0.0062820511 -0.0033294118
0.0010980392 -0.0034551283 -0.0080500003
-0.0036078431 -0.0015705128 -0.00081176468
-0.0020392158 0.00031410257 0.0080000004
0.0039215689 -0.0018846154 -0.0058470587
-0.00047058825 0.0031410255 0.00076176471
0.00047058825 -0.0072243591 -0.0241
-0.0067450982 -0.0081666671 0.00076176471
0.0054901959 -0.011935897 0.0035941177
0.0023529411 -0.0056538461 -0.042667646
-0.0023529411 -0.011621795 0.0076852939
-0.0020392158 -0.0056538461 -0.0086794114
-0.0042352942 0.0012564103 0.0076852939
0.0017254902 -0.0018846154 -0.044241175
-0.0023529411 0.0012564103 0.00013235294
0.0039215689 0.0025128205 0.0076852939
-0.00047058825 -0.0069102566 -0.024414705
0.0076862746 0 0.0070558824
-0.0014117646 -0.0018846154 -0.030708823
-0.00047058825 -0.0072243591 -0.0348
0.0026666666 -0.0031410255 -0.030394118
0.0026666666 -0.0040833335 -0.012141176
0.0076862746 -0.0087948721 0.0048529413
-0.0020392158 -0.0062820511 -0.014029412
0.0017254902 -0.0018846154 -0.027247058
-0.0026666666 -0.0040833335 -0.037947059
0.0039215689 -0.0069102566 -0.0077352943
0.0032941177 -0.011935897 0.0039088237
0.0048627453 -0.0087948721 0.00013235294
0.00078431371 -0.0069102566 -0.010567647
0.0073725488 -0.0050256411 0.0032794117
0.0029803922 -0.0018846154 0.0080000004
0.0054901959 0.0031410255 0.00076176471
-0.0023529411 -0.0059679486 -0.025044117
0.0032941177 -0.0037692308 0.0080000004
0.0032941177 -0.01225 0.0076852939
0.0026666666 -0.0031410255 -0.017805882
0.0023529411 -0.0025128205 -0.04329706
0.00047058825 -0.0062820511 -0.0077352943
0.00047058825 -0.0072243591 -0.044555884
0.00015686275 -0.0031410255 0.0080000004
-0.0026666666 -0.0034551283 -0.042667646
0.0032941177 -0.011935897 0.0026499999
-0.0020392158 -0.0050256411 -0.0086794114
-0.0032941177 -0.01225 0.00076176471
-0.0023529411 -0.002826923 -0.012141176
-0.0010980392 -0.011621795 0.0013911765
-0.0017254902 -0.00031410257 -0.0020705883
0.0017254902 -0.0065961541 -0.018120589
0.006117647 0.0034551283 0.0026499999
0.0073725488 -0.0062820511 0.0010764706
-0.0032941177 -0.0031410255 -0.0077352943
0.00047058825 -0.0015705128 -0.020952942
-0.0051764706 -0.0050256411 0.00013235294
-0.0023529411 -0.002826923 -0.019694118
-0.0073725488 -0.0062820511 0.0064264708
-0.0026666666 -0.0034551283 -0.0077352943
-0.0054901959 -0.0069102566 0.00013235294
-0.0045490195 0.0040833335 0.0042235292
0.00015686275 -0.0012564103 -0.043611765
-0.0023529411 -0.0025128205 -0.038576469
-0.00015686275 0.0031410255 0.00076176471
0.0073725488 -0.0009423077 0.0048529413
0.0076862746 -0.0091089746 0.00076176471
0.0010980392 0 -0.0067911763
-0.0039215689 -0.0037692308 -0.0077352943
-0.0014117646 -0.010365385 0.00013235294
0.0039215689 -0.011621795 0.00076176471
-0.0017254902 -0.0084807696 -0.00018235295
-0.0026666666 -0.0047115386 -0.034170587
0.0058039217 -0.011621795 0.0051676473
0.00078431371 -0.0050256411 -0.044870589
0.0026666666 -0.0047115386 -0.042982355
0.0039215689 0.0050256411 0.0076852939
0.0023529411 -0.002826923 -0.036688235
0.0017254902 -0.010051282 0.00013235294
-0.0026666666 0.011621795 0.0064264708
0.00078431371 -0.0018846154 -0.0077352943
0.0058039217 -0.0075384616 0.0076852939
-0.0029803922 -0.0078525646 -0.0071058823
0.0020392158 -0.0050256411 -0.0086794114
0.0039215689 -0.0072243591 -0.00018235295
-0.0026666666 -0.0034551283 -0.014344118
-0.0045490195 -0.0047115386 -0.0058470587
-0.0058039217 0.0034551283 0.00076176471
-0.0045490195 -0.0040833335 -0.0067911763
-0.0051764706 -0.011935897 0.0029647059
0.0032941177 -0.0009423077 -0.00049705885
0.0036078431 0.0056538461 0.0051676473
0.0080000004 0 0.0039088237
0.0073725488 -0.0056538461 0.0020205881
0.0014117646 -0.0065961541 -0.022841176
-0.0064313724 -0.010679487 0.0017058824
0.0054901959 -0.0087948721 0.00076176471
0.0029803922 -0.004397436 -0.037632354
0.0020392158 -0.011935897 0.00076176471
0.0070588235 -0.0078525646 0.00076176471
-0.0076862746 -0.010365385 0.0017058824
-0.0023529411 -0.002826923 -0.02787647
-0.00015686275 -0.0062820511 -0.0077352943
0.0054901959 -0.002198718 0.00013235294
-0.0073725488 -0.0097371796 0.0076852939
-0.0036078431 0.0056538461 0.0051676473
0.0026666666 -0.0050256411 -0.042352941
0.0073725488 -0.002826923 0.0026499999
-0.0058039217 0.0053397436 0.0057970588
-0.006117647 -0.010679487 0.0061117648
-0.0067450982 -0.010365385 0.0073705884
0.0036078431 -0.0081666671 0.00013235294
-0.0010980392 -0.0015705128 -0.025358824
0.00078431371 -0.0069102566 -0.038891178
-0.0010980392 -0.0069102566 -0.039205883
0.0026666666 -0.0034551283 -0.041723531
-0.0070588235 -0.0018846154 0.0073705884
0.006117647 -0.010051282 0.00076176471
0.0080000004 0.00031410257 0.0073705884
0.0048627453 0.0037692308 0.0017058824
-0.0020392158 -0.0062820511 -0.010567647
0.0026666666 -0.0034551283 -0.016861765
0.0073725488 -0.002826923 0.0042235292
0.0048627453 0.0087948721 0.0064264708
-0.0026666666 -0.004397436 -0.028191177
-0.00078431371 -0.0015705128 -0.011511764
-0.0048627453 -0.011935897 0.0026499999
0.0073725488 -0.0053397436 0.0057970588
-0.0010980392 -0.0015705128 -0.028191177
-0.0048627453 0.0018846154 0.00076176471
-0.0036078431 0.0037692308 0.0010764706
0.0023529411 0.0037692308 0.0023352941
0.00015686275 -0.0015705128 -0.033541176
0.00078431371 0.011307692 0.0064264708
0.0014117646 -0.0015705128 -0.022211764
0.006117647 0.0012564103 0.00076176471
-0.0045490195 -0.0056538461 -0.00049705885
-0.0026666666 -0.0031410255 -0.015288236
-0.0023529411 -0.004397436 -0.0077352943
-0.0017254902 -0.0065961541 -0.039205883
-0.0032941177 -0.0059679486 -0.0077352943
-0.0039215689 -0.010365385 0.00076176471
0.0026666666 0.0056538461 0.0048529413
-0.0014117646 -0.0065961541 -0.041723531
0.00015686275 -0.0059679486 -0.0083647063
0.0070588235 0.0050256411 0.0048529413
-0.0054901959 0.010679487 0.0064264708
-0.0042352942 -0.0040833335 -0.0061617647
0.0039215689 -0.0094230771 0.0076852939
-0.00047058825 -0.0015705128 -0.013085295
0.0023529411 -0.0025128205 -0.032282352
-0.0023529411 -0.0056538461 -0.028820587
0.0036078431 -0.0040833335 0.0080000004
0.0029803922 -0.002198718 0.0080000004
0.0010980392 -0.0069102566 -0.015288236
0.0017254902 -0.0065961541 -0.019694118
-0.0017254902 -0.01099359 0.00076176471
0.0014117646 -0.01099359 0.00044705882
-0.0026666666 -0.0031410255 -0.043611765
-0.0032941177 0.0037692308 0.0026499999
-0.0036078431 0.002198718 0.0076852939
-0.0017254902 -0.0062820511 -0.0134
-0.0023529411 -0.0056538461 -0.039205883
-0.0014117646 -0.0084807696 -0.0027000001
-0.0026666666 -0.0018846154 0.0080000004
0.00078431371 -0.0084807696 -0.0039588236
0.0014117646 -0.010051282 0.00013235294
-0.0017254902 -0.0059679486 0.0080000004
0.0051764706 0.0040833335 0.0042235292
-0.0054901959 0.0087948721 0.0064264708
0.0017254902 -0.0018846154 -0.018120589
-0.0026666666 -0.0050256411 -0.030079411
-0.0032941177 -0.004397436 -0.0077352943
0.00078431371 -0.0084807696 -0.0030147058
-0.0067450982 -0.0069102566 0.0076852939
-0.0036078431 0.0034551283 0.00076176471
0.00047058825 -0.0069102566 -0.0086794114
0.0048627453 -0.0031410255 0.0076852939
-0.0070588235 -0.010365385 0.0057970588
-0.0073725488 -0.0018846154 0.0020205881
-0.0010980392 -0.0069102566 -0.040779412
0.0020392158 -0.0062820511 -0.04392647
0.0073725488 -0.002826923 0.0035941177
-0.00015686275 -0.011307692 0.0010764706
0.00047058825 -0.0015705128 -0.029764706
0.0023529411 0.0053397436 0.0042235292
0.0032941177 0.0034551283 0.00076176471
-0.0023529411 -0.00031410257 -0.0033294118
-0.00015686275 -0.0072243591 -0.02032353
-0.0010980392 -0.0069102566 -0.031652942
0.0026666666 -0.0050256411 -0.023785295
0.0026666666 -0.0037692308 -0.0077352943
0.0020392158 0.0012564103 0.00013235294
0.0067450982 0.0056538461 0.0067411764
-0.0017254902 -0.0018846154 -0.018435294
-0.0045490195 -0.0040833335 -0.0039588236
-0.0058039217 -0.0072243591 0.00013235294
-0.0014117646 -0.010679487 0.00013235294
-0.0067450982 -0.0018846154 0.0076852939
-0.00078431371 0 -0.0061617647
-0.0020392158 -0.0081666671 -0.0055323527
-0.0014117646 -0.01099359 0.00076176471
-0.0026666666 -0.0037692308 -0.042038236
0.0026666666 -0.0050256411 -0.019064706
0.00078431371 0.004397436 0.0076852939
-0.0042352942 -0.0034551283 -0.0017558824
0.0054901959 -0.0072243591 0.00013235294
0.0051764706 -0.010365385 0.0076852939
0.0020392158 0.0037692308 0.0026499999
0.0058039217 -0.011621795 0.0054823528
0.0076862746 -0.0078525646 0.0017058824
-0.0045490195 -0.0037692308 -0.0014411765
-0.0039215689 -0.0056538461 0.0076852939
0.0023529411 -0.0012564103 -0.0077352943
0.0067450982 0.0053397436 0.0076852939
-0.0073725488 -0.0059679486 0.0017058824
-0.0080000004 0.002198718 0.0073705884
0.0014117646 0 -0.0045882352
-0.0023529411 -0.0025128205 -0.019064706
-0.0010980392 0.0047115386 0.0076852939
-0.0048627453 0.0056538461 0.0076852939
0.0017254902 0.0072243591 0.0064264708
-0.0036078431 -0.0087948721 0.0076852939
0.00078431371 -0.002198718 0.0080000004
0.0010980392 -0.0069102566 -0.029764706
-0.0045490195 -0.0040833335 -0.0045882352
-0.0020392158 -0.0062820511 -0.019064706
-0.0020392158 -0.002198718 -0.04329706
0.0070588235 0.00062820513 0.00076176471
0.00047058825 -0.0025128205 -0.0077352943
0.00047058825 -0.0015705128 -0.013085295
-0.0036078431 0.0081666671 0.0064264708
0.0039215689 0.002198718 0.0076852939
-0.00047058825 0.002198718 0.0080000004
-0.0023529411 -0.002826923 -0.021267647
0.0023529411 -0.002826923 -0.039835293
-0.0032941177 -0.0037692308 0.0076852939
0.00047058825 -0.0072243591 0.0080000004
-0.00078431371 0.0056538461 0.0042235292
-0.0014117646 -0.00031410257 -0.00081176468
0.00015686275 -0.0040833335 -0.045185294
0.0058039217 -0.011621795 0.00076176471
0.00078431371 -0.0069102566 -0.0348
0.0023529411 -0.0025128205 -0.0099382354
0.0039215689 -0.002198718 -0.0030147058
0.0026666666 0.0053397436 0.0042235292
-0.0042352942 -0.0012564103 0.0076852939
0.0042352942 -0.0025128205 -0.0039588236
0.0042352942 0.004397436 0.0042235292
0.0020392158 -0.0062820511 -0.036688235
-0.0017254902 -0.0065961541 -0.030394118
0.0039215689 -0.010051282 0.00076176471
-0.0026666666 -0.0053397436 -0.0241
-0.0026666666 -0.0040833335 -0.02032353
-0.0010980392 -0.0018846154 -0.01182647
0.00078431371 -0.0015705128 -0.035114706
-0.0042352942 -0.01225 0.0076852939
-0.0023529411 -0.0031410255 -0.011511764
-0.00015686275 -0.0072243591 -0.023785295
0.0010980392 -0.0015705128 -0.036058825
-0.0014117646 -0.0084807696 -0.00081176468
-0.00078431371 0 -0.00018235295
-0.0073725488 0.0031410255 0.0010764706
0.0054901959 0.004397436 0.0042235292
-0.0020392158 -0.01099359 0.00076176471
0.0076862746 -0.010365385 0.0070558824
-0.0017254902 -0.0018846154 -0.035114706
0.0020392158 -0.0062820511 -0.038261764
0.00015686275 -0.0084807696 -0.0074205883
0.0026666666 -0.0078525646 -0.0017558824
-0.0064313724 -0.0062820511 0.00013235294
0.0017254902 0.004397436 0.0076852939
-0.0026666666 -0.0037692308 -0.029449999
-0.0014117646 -0.0065961541 -0.024414705
0.0014117646 -0.004397436 -0.044870589
0.0023529411 -0.0050256411 -0.0077352943
0.0029803922 -0.004397436 -0.018435294
0.0010980392 0 -0.0058470587
0.0014117646 -0.0015705128 -0.041094117
-0.0026666666 -0.004397436 -0.040464707
0.0036078431 0.0056538461 0.0048529413
0.0029803922 0.0059679486 0.0067411764
-0.0054901959 -0.0062820511 0.00013235294
-0.0020392158 -0.002198718 -0.036688235
0.0039215689 -0.0062820511 -0.0061617647
0.0036078431 0.0025128205 0.00076176471
0.00047058825 0.0087948721 0.0064264708
0.0064313724 -0.0025128205 0.0076852939
-0.0039215689 -0.0065961541 -0.0064764707
-0.0058039217 -0.010679487 0.00076176471
-0.00015686275 0 -0.0074205883
0.0076862746 -0.010365385 0.0035941177
0.0073725488 -0.0059679486 0.0070558824
-0.0014117646 -0.0084807696 -0.0023852941
-0.0054901959 0.002198718 0.00076176471
0.0070588235 -0.0015705128 0.0064264708
-0.0026666666 -0.0078525646 -0.0064764707
0.0051764706 0.00031410257 0.0076852939
-0.0067450982 0 0.0076852939
0.0045490195 -0.0047115386 -0.0061617647
-0.0023529411 -0.0025128205 -0.018750001
-0.0026666666 -0.0047115386 -0.029449999
0.0029803922 -0.0040833335 -0.022841176
-0.0026666666 -0.0034551283 -0.042352941
-0.0039215689 -0.0025128205 -0.0049029412
0.0014117646 -0.0015705128 -0.040150002
-0.006117647 -0.0072243591 0.00013235294
0.006117647 0.0050256411 0.0076852939
-0.0054901959 0.0081666671 0.0064264708
0.0014117646 0.0034551283 0.0026499999
0.00015686275 -0.0015705128 -0.013085295
0.0026666666 -0.0053397436 -0.037632354
0.0076862746 -0.0091089746 0.0076852939
0.0026666666 -0.0037692308 -0.042982355
-0.0048627453 0.0031410255 0.0076852939
0.0064313724 -0.0059679486 0.0076852939
-0.0020392158 -0.0062820511 -0.025988236
0.0073725488 -0.0062820511 0.0023352941
-0.0070588235 -0.010365385 0.0023352941
0.0023529411 0.00031410257 0.00013235294
-0.0023529411 -0.00031410257 -0.0039588236
-0.0070588235 -0.002198718 0.0064264708
0.0020392158 -0.004397436 0.0080000004
0.0076862746 0.00062820513 0.0032794117
-0.0017254902 -0.002198718 -0.0093088234
0.0014117646 -0.011621795 0.0045382353
0.0064313724 -0.0094230771 0.00076176471
0.0026666666 -0.0050256411 -0.012455883
-0.0026666666 -0.0053397436 -0.01717647
-0.0076862746 0.0009423077 0.0054823528
-0.0042352942 0.0040833335 0.0042235292
0.0076862746 -0.00031410257 0.0076852939
0.0026666666 -0.0047115386 -0.038576469
0.0026666666 0 0.0080000004
-0.0039215689 -0.002198718 -0.0067911763
0.0026666666 -0.0031410255 -0.035744119
-0.0017254902 -0.0018846154 -0.026617646
0.0023529411 -0.0059679486 -0.019064706
0.0014117646 -0.0065961541 0.0080000004
-0.0039215689 0.0056538461 0.0054823528
-0.0058039217 0.0053397436 0.0067411764
-0.0039215689 -0.002198718 -0.0033294118
-0.00015686275 -0.0015705128 -0.0348
0.0064313724 0.0072243591 0.0064264708
-0.0023529411 0.0018846154 0.00013235294
0.0026666666 -0.0040833335 -0.028820587
0.0036078431 -0.011935897 0.0061117648
0.0029803922 0.0050256411 0.0042235292
-0.0036078431 -0.0072243591 -0.0058470587
-0.0042352942 -0.0031410255 -0.0064764707
-0.00015686275 -0.0069102566 -0.0089941174
-0.0026666666 0.004397436 0.0076852939
0.0076862746 -0.0018846154 0.0026499999
-0.0026666666 -0.0047115386 -0.012455883
-0.0014117646 -0.0065961541 -0.0099382354
0.0058039217 0.0065961541 0.0064264708
0.0020392158 -0.0062820511 -0.039205883
-0.0014117646 -0.0018846154 -0.031338234
0.0036078431 -0.0069102566 -0.0030147058
0.0064313724 -0.0040833335 0.00013235294
-0.0058039217 -0.0078525646 0.0076852939
0.00078431371 -0.0015705128 -0.037632354
-0.0029803922 0.0037692308 0.00076176471
-0.0023529411 -0.00031410257 -0.0064764707
0.0010980392 -0.0015705128 -0.021897059
0.0023529411 -0.0056538461 -0.02032353
-0.0023529411 -0.0012564103 0.0080000004
0.0017254902 -0.0018846154 -0.04392647
0.00078431371 -0.0015705128 -0.028820587
0.0029803922 -0.011935897 0.0048529413
-0.00015686275 -0.0069102566 -0.042038236
-0.0026666666 -0.0034551283 -0.01654706
0.00015686275 -0.0015705128 -0.010882352
0.0058039217 -0.0097371796 0.0076852939
-0.0014117646 -0.0065961541 -0.042038236
-0.0058039217 0.0053397436 0.0070558824
0.00047058825 -0.0015705128 -0.042038236
0.00078431371 -0.0031410255 0.0080000004
0.0029803922 0.0056538461 0.0073705884
0.0026666666 -0.0069102566 -0.0077352943
-0.0010980392 -0.01099359 0.00013235294
-0.0051764706 -0.011935897 0.0076852939
-0.0073725488 -0.0050256411 0.0035941177
-0.00047058825 -0.0084807696 -0.0036441176
0.0032941177 -0.0012564103 -0.0023852941
0.0023529411 -0.0056538461 -0.023155883
-0.0020392158 -0.002198718 -0.044241175
-0.0080000004 0.00062820513 0.00076176471
0.0032941177 -0.01099359 0.00076176471
0.0014117646 -0.0018846154 0.0080000004
0.00078431371 -0.0084807696 -0.0027000001
0.00047058825 -0.0084807696 -0.0027000001
0.0073725488 0.0031410255 0.0029647059
0.00047058825 -0.0072243591 -0.027561765
-0.0073725488 0.00031410257 0.0042235292
-0.0020392158 -0.002198718 -0.026617646
-0.00015686275 -0.0012564103 -0.028820587
-0.0073725488 -0.0012564103 0.0035941177
0.0029803922 -0.004397436 -0.015288236
-0.0020392158 -0.0056538461 -0.0077352943
-0.0076862746 0.0018846154 0.0064264708
0.0026666666 0.002826923 0.00076176471
-0.0023529411 0.010679487 0.0064264708
-0.00078431371 0.0053397436 0.0076852939
-0.00015686275 -0.01099359 0.00013235294
0.00078431371 -0.0015705128 -0.014344118
0.006117647 -0.0034551283 0.0076852939
0.006117647 -0.0053397436 0.0076852939
-0.0023529411 -0.004397436 -0.0086794114
0.006117647 -0.0069102566 0.0076852939
-0.00015686275 -0.0072243591 -0.018435294
-0.0026666666 -0.0031410255 -0.030708823
-0.0045490195 0.0078525646 0.0064264708
-0.0023529411 -0.0025128205 -0.020008823
-0.00047058825 0 -0.0039588236
-0.0045490195 -0.0050256411 -0.00018235295
-0.0026666666 -0.0037692308 -0.01717647
-0.0020392158 -0.0062820511 -0.035744119
0.0029803922 -0.00062820513 -0.0039588236
0.0058039217 0.0034551283 0.0023352941
-0.0036078431 0.0034551283 0.0076852939
-0.0023529411 -0.0025128205 -0.033541176
-0.0023529411 -0.0025128205 -0.041408822
-0.0020392158 -0.0062820511 -0.039835293
-0.00015686275 -0.0072243591 -0.042982355
-0.0076862746 -0.0078525646 0.0017058824
0.00078431371 -0.0069102566 -0.036058825
0.0070588235 -0.002826923 0.0045382353
0.0017254902 -0.0062820511 -0.011511764
-0.0076862746 0.0025128205 0.0076852939
0.0026666666 -0.0031410255 -0.015917648
0.0010980392 -0.0056538461 0.0080000004
-0.0036078431 -0.0015705128 -0.0027000001
-0.0036078431 0.004397436 0.0076852939
-0.0073725488 -0.0037692308 0.0073705884
-0.0054901959 -0.011935897 0.0039088237
-0.0017254902 -0.0062820511 0.0080000004
0.0032941177 -0.011935897 0.0076852939
-0.0026666666 -0.004397436 -0.010252941
-0.0020392158 0.0037692308 0.0076852939
-0.0058039217 0.0034551283 0.0023352941
-0.0026666666 -0.011935897 0.0067411764
-0.0017254902 -0.0034551283 0.0080000004
0.0045490195 -0.002826923 -0.0077352943
-0.0014117646 -0.0018846154 -0.042982355
0.0014117646 -0.0050256411 -0.0083647063
0.0026666666 -0.0053397436 -0.021582354
-0.0064313724 -0.0059679486 0.00013235294
-0.0080000004 -0.0097371796 0.0023352941
-0.0026666666 -0.011935897 0.0064264708
0.0010980392 -0.011621795 0.0010764706
-0.0042352942 -0.0031410255 -0.0049029412
-0.0073725488 0.0025128205 0.0076852939
-0.00078431371 -0.0062820511 -0.0086794114
-0.0026666666 -0.0037692308 -0.027561765
-0.0023529411 -0.0081666671 -0.00049705885
0.0029803922 -0.004397436 -0.030394118
-0.0014117646 -0.0065961541 -0.013714706
-0.0017254902 0.00031410257 0.00013235294
0.0026666666 -0.0047115386 -0.012770589
-0.0073725488 0.0031410255 0.0023352941
-0.0026666666 -0.0050256411 -0.011197058
-0.0026666666 -0.0040833335 -0.0241
-0.0014117646 0.0034551283 0.0029647059
0.0067450982 -0.010365385 0.0032794117
-0.0026666666 -0.011935897 0.0042235292
-0.0039215689 -0.0062820511 -0.0023852941
-0.0058039217 -0.01099359 0.0070558824
0.0058039217 0.0087948721 0.0064264708
0.0023529411 -0.0025128205 -0.023470588
0.0067450982 -0.0025128205 0.00044705882
0.0042352942 0.0056538461 0.0057970588
0.006117647 -0.004397436 0.00013235294
0.00078431371 -0.0078525646 0.0076852939
-0.0014117646 -0.00031410257 -0.0067911763
-0.00078431371 0 -0.0020705883
0.0045490195 -0.0087948721 0.00013235294
-0.0064313724 -0.010679487 0.0039088237
-0.0026666666 -0.0034551283 -0.04392647
0.0076862746 -0.00062820513 0.0026499999
-0.0023529411 -0.002826923 -0.0096235294
-0.00015686275 0.0034551283 0.0023352941
-0.0073725488 -0.002826923 0.0017058824
0.0032941177 0.0031410255 0.0076852939
-0.00047058825 -0.0015705128 -0.023470588
-0.0010980392 -0.0015705128 -0.025988236
-0.0026666666 -0.0031410255 -0.016232353
0.0010980392 -0.0015705128 -0.035744119
-0.0020392158 0.0037692308 0.0010764706
0.0070588235 -0.0034551283 0.0070558824
0.0045490195 -0.004397436 -0.0064764707
-0.00078431371 -0.011307692 0.0023352941
-0.0042352942 -0.0059679486 -0.0071058823
-0.0076862746 -0.00062820513 0.0026499999
-0.0026666666 -0.002198718 -0.0077352943
-0.0045490195 0.0037692308 0.0017058824
-0.006117647 -0.00062820513 0.00076176471
-0.0010980392 -0.0018846154 -0.011511764
-0.0029803922 -0.00031410257 0.00013235294
0.0070588235 -0.0031410255 0.00076176471
0.0064313724 -0.010679487 0.0051676473
0.0067450982 -0.011935897 0.00076176471
0.00047058825 -0.0015705128 -0.0077352943
0.0036078431 0.0056538461 0.0045382353
0.00078431371 -0.0053397436 -0.044870589
-0.0029803922 0.0037692308 0.0017058824
-0.00078431371 -0.0091089746 0.00013235294
-0.0036078431 -0.0018846154 -0.0017558824
-0.00015686275 -0.0015705128 -0.037317649
0.0023529411 -0.00031410257 -0.0045882352
0.0073725488 -0.0062820511 0.0045382353
0.0054901959 0.0034551283 0.0032794117
0.0076862746 0.0031410255 0.0064264708
-0.0039215689 -0.0034551283 0.0076852939
0.00015686275 -0.0018846154 -0.0086794114
0.0036078431 -0.0084807696 0.00013235294
0.0067450982 -0.010365385 0.0045382353
0.00015686275 -0.0072243591 -0.016861765
0.0014117646 -0.00031410257 -0.0074205883
-0.00078431371 -0.0015705128 -0.0089941174
0.0010980392 -0.0069102566 -0.035429411
-0.0023529411 -0.0075384616 -0.0077352943
0.0020392158 -0.002198718 -0.035114706
0.0017254902 -0.0018846154 -0.019694118
-0.0054901959 0.002826923 0.0076852939
-0.0058039217 0.0053397436 0.0076852939
-0.00078431371 0.0034551283 0.0013911765
0.0020392158 -0.01099359 0.0076852939
-0.0054901959 -0.011935897 0.00076176471
-0.0026666666 -0.0040833335 -0.019694118
-0.0017254902 0.0012564103 0.00013235294
-0.0026666666 -0.0053397436 -0.035429411
0.0045490195 0.0031410255 0.0076852939
-0.0051764706 -0.0009423077 0.00013235294
-0.00015686275 -0.0015705128 -0.02787647
-0.0076862746 -0.00062820513 0.0076852939
-0.0026666666 -0.0047115386 -0.018435294
-0.0042352942 -0.0094230771 0.00044705882
-0.0045490195 -0.0091089746 0.0076852939
-0.00047058825 -0.0069102566 -0.034485295
0.0039215689 0.0040833335 0.0042235292
-0.0032941177 0.0015705128 0.00044705882
0.0048627453 -0.010051282 0.0076852939
-0.00015686275 -0.0012564103 -0.039835293
-0.0042352942 -0.002826923 -0.0014411765
-0.0073725488 -0.00062820513 0.0073705884
0.0026666666 -0.004397436 -0.01182647
0.0076862746 0 0.0026499999
-0.00047058825 -0.0015705128 -0.021267647
0.00078431371 -0.0015705128 -0.01717647
-0.0054901959 -0.011935897 0.0035941177
-0.00078431371 -0.0015705128 -0.037317649
-0.00047058825 -0.0069102566 -0.029449999
0.0017254902 -0.0018846154 -0.038261764
0.0020392158 -0.002198718 -0.028505882
0.0076862746 0.0034551283 0.0054823528
-0.0026666666 -0.004397436 -0.012455883
-0.0010980392 -0.011621795 0.0057970588
0.0073725488 -0.004397436 0.0073705884
0.0070588235 -0.0034551283 0.0051676473
-0.00015686275 -0.0015705128 -0.012455883
-0.0054901959 -0.0059679486 0.00013235294
-0.0026666666 -0.0040833335 -0.026932353
-0.0058039217 0.0040833335 0.0042235292
-0.0067450982 0.0050256411 0.0076852939
0.0039215689 -0.0069102566 0.0076852939
-0.0020392158 -0.0062820511 -0.038261764
-0.0039215689 -0.011935897 0.0070558824
-0.0054901959 0.010051282 0.0064264708
0.0029803922 0.0087948721 0.0064264708
0.0010980392 -0.0069102566 -0.042982355
0.0026666666 -0.0050256411 -0.043611765
0.0017254902 -0.0018846154 -0.04329706
-0.0023529411 -0.0059679486 -0.036688235
0.0051764706 -0.011935897 0.00076176471
0.0058039217 -0.010365385 0.0076852939
0.0076862746 0.00031410257 0.0023352941
0.0080000004 -0.0091089746 0.0076852939
-0.00047058825 -0.0015705128 -0.035429411
0.0076862746 -0.0087948721 0.0035941177
0.0020392158 -0.0081666671 -0.0067911763
0.0032941177 -0.0025128205 -0.0077352943
0.0010980392 0.0034551283 0.0023352941
0.0023529411 -0.0056538461 -0.014658824
0.0076862746 0.0050256411 0.0076852939
-0.00047058825 -0.0015705128 -0.033855882
0.0054901959 0.0034551283 0.0023352941
0.0014117646 -0.0084807696 -0.0020705883
0.00078431371 -0.0069102566 -0.027247058
0.0023529411 -0.0059679486 -0.022841176
-0.0058039217 -0.0087948721 0.00076176471
0.0039215689 -0.0062820511 -0.0049029412
0.0076862746 0.0012564103 0.0029647059
0.0014117646 -0.0015705128 -0.042038236
0.0036078431 -0.0015705128 -0.0039588236
0.0073725488 -0.00062820513 0.0048529413
0.0014117646 -0.0065961541 -0.037317649
0.0073725488 -0.0025128205 0.0039088237
0.0036078431 -0.0012564103 -0.0052176472
0.0080000004 -0.0094230771 0.0054823528
-0.0076862746 -0.00062820513 0.0023352941
-0.00078431371 -0.011621795 0.00076176471
0.0023529411 -0.002826923 -0.016861765
-0.0014117646 -0.0065961541 -0.010882352
0.0020392158 0.0059679486 0.0067411764
-0.0036078431 0.0037692308 0.0035941177
-0.0045490195 -0.0087948721 0.0076852939
0.0045490195 -0.004397436 -0.0067911763
0.0017254902 -0.011621795 0.0010764706
-0.0067450982 -0.0062820511 0.0076852939
-0.0010980392 -0.0015705128 -0.032911766
-0.0076862746 0.0034551283 0.0042235292
0.0042352942 0.010679487 0.0064264708
-0.00078431371 -0.0012564103 0.0080000004
0.0023529411 0 -0.00049705885
-0.0070588235 -0.010365385 0.0029647059
0.0064313724 0.0037692308 0.0076852939
0.0039215689 0.0081666671 0.0064264708
0.0029803922 -0.0097371796 0.00013235294
0.0017254902 -0.011621795 0.0013911765
0.0045490195 0.0037692308 0.0035941177
0.006117647 0.0037692308 0.0076852939
-0.0026666666 -0.0009423077 -0.0077352943
-0.0036078431 -0.0069102566 -0.00081176468
0.0010980392 -0.0015705128 -0.028191177
-0.0010980392 -0.0069102566 -0.024729412
-0.0036078431 0.00062820513 0.00013235294
-0.0017254902 -0.0081666671 -0.0061617647
0.0020392158 0.010679487 0.0064264708
0.00078431371 0 -0.0030147058
-0.0026666666 -0.0047115386 -0.033541176
-0.00015686275 -0.0018846154 -0.0086794114
0.0054901959 -0.011935897 0.0048529413
-0.006117647 0.0034551283 0.0032794117
-0.00078431371 -0.0015705128 -0.010882352
-0.0073725488 -0.0072243591 0.0039088237
-0.00047058825 0.004397436 0.0042235292
0.0045490195 0.00062820513 0.0076852939
0.00047058825 -0.0047115386 0.0080000004
0.0048627453 -0.010365385 0.00076176471
0.0023529411 -0.00031410257 -0.0039588236
-0.0058039217 0.0025128205 0.00076176471
-0.0026666666 -0.0053397436 -0.014658824
0.006117647 -0.0087948721 0.00076176471
-0.0042352942 -0.0053397436 -0.0049029412
0.0017254902 -0.002198718 -0.044870589
0.006117647 -0.0009423077 0.00044705882
-0.006117647 0.002198718 0.00076176471
-0.00047058825 0.0069102566 0.0064264708
-0.0073725488 0.0031410255 0.0017058824
0.0032941177 0.0050256411 0.0042235292
-0.00078431371 -0.011621795 0.0057970588
-0.0014117646 -0.0084807696 -0.0058470587
-0.0029803922 -0.0025128205 0.0076852939
-0.0042352942 -0.0056538461 -0.0052176472
-0.0032941177 -0.011935897 0.0054823528
0.0029803922 0.00031410257 0.00013235294
-0.0042352942 -0.0031410255 -0.0017558824
-0.00078431371 0.0037692308 0.0076852939
0.0073725488 0.0031410255 0.0010764706
-0.0023529411 -0.0069102566 0.0080000004
0.0042352942 -0.0094230771 0.0076852939
-0.0042352942 -0.0053397436 -0.0033294118
-0.00078431371 -0.0084807696 -0.0042735296
0.00015686275 -0.0072243591 -0.025988236
-0.0026666666 -0.0040833335 -0.034170587
-0.0026666666 -0.0037692308 -0.019379411
0.0010980392 -0.011621795 0.0051676473
0.0039215689 0.0056538461 0.0073705884
0.0036078431 -0.0075384616 0.0076852939
-0.0023529411 -0.0025128205 -0.0241
-0.0073725488 0.0050256411 0.0061117648
0.0048627453 0.0037692308 0.0023352941
0.0064313724 0.0056538461 0.0064264708
-0.0029803922 0.00031410257 0.00013235294
0.0023529411 -0.0025128205 -0.0077352943
-0.0054901959 0.0037692308 0.0076852939
-0.0026666666 -0.0050256411 -0.01717647
-0.006117647 0.0018846154 0.0076852939
-0.0045490195 -0.0065961541 0.00013235294
0.0076862746 -0.010365385 0.0026499999
-0.0032941177 -0.0091089746 0.00013235294
0.0042352942 -0.011935897 0.0048529413
0.0026666666 -0.0053397436 -0.0348
-0.0039215689 -0.0025128205 -0.0074205883
0.0070588235 -0.010365385 0.0029647059
-0.00015686275 -0.0015705128 -0.020638235
0.0020392158 -0.0062820511 -0.011197058
0.0020392158 -0.0050256411 0.0080000004
-0.0017254902 -0.0031410255 -0.0086794114
-0.0026666666 -0.0031410255 -0.033855882
-0.00078431371 -0.011621795 0.0051676473
-0.00047058825 -0.0084807696 0.0076852939
0.0014117646 -0.0018846154 -0.01717647
0.0026666666 -0.0078525646 -0.0077352943
-0.00047058825 -0.0069102566 -0.01182647
0.0076862746 -0.0069102566 0.0023352941
0.0023529411 -0.002826923 -0.042982355
0.0020392158 0.0094230771 0.0064264708
-0.0026666666 -0.0053397436 -0.0099382354
-0.00078431371 -0.0040833335 -0.044870589
0.0010980392 -0.002826923 -0.0077352943
-0.00078431371 -0.0015705128 -0.013085295
-0.0076862746 -0.00031410257 0.0029647059
0.0042352942 -0.0087948721 0.00013235294
0.0026666666 -0.0031410255 -0.034485295
-0.0051764706 0.0037692308 0.0076852939
0.0042352942 -0.0091089746 0.00013235294
-0.0023529411 -0.00031410257 -0.0077352943
-0.0029803922 0.004397436 0.0076852939
-0.0029803922 0.0053397436 0.0076852939
-0.0023529411 -0.002826923 -0.0241
0.0017254902 -0.0018846154 -0.032597058
-0.0023529411 -0.002826923 -0.039520588
-0.0023529411 -0.0025128205 -0.023155883
-0.0020392158 -0.002198718 -0.041723531
0.0036078431 0.002198718 0.0076852939
-0.0023529411 -0.002826923 -0.0134
0.0039215689 0.0053397436 0.0076852939
-0.0080000004 -0.0097371796 0.0029647059
0.0045490195 0.0097371796 0.0064264708
-0.0014117646 -0.0065961541 -0.025044117
0.0020392158 -0.0075384616 0.0076852939
0.00047058825 -0.0072243591 -0.040779412
-0.0026666666 -0.011621795 0.0076852939
0.0023529411 -0.00031410257 -0.0064764707
-0.0045490195 -0.00062820513 0.0076852939
0.0067450982 0.00062820513 0.0076852939
0.0051764706 0.0031410255 0.0076852939
-0.0036078431 -0.011935897 0.0067411764
-0.0076862746 -0.0072243591 0.0017058824
0.0032941177 -0.010679487 0.0076852939
-0.0023529411 -0.002826923 -0.0077352943
-0.0058039217 -0.011307692 0.0064264708
-0.00078431371 -0.0069102566 -0.018120589
0.0073725488 -0.0062820511 0.0061117648
-0.0076862746 -0.0069102566 0.0010764706
0.0029803922 -0.0040833335 -0.017491177
-0.00078431371 -0.0015705128 -0.022526471
0.0051764706 -0.002826923 0.0076852939
-0.0014117646 -0.0065961541 -0.038891178
0.0073725488 -0.0050256411 0.0029647059
0.0026666666 -0.0034551283 -0.025044117
-0.0017254902 -0.0065961541 -0.025988236
-0.0014117646 -0.0018846154 -0.033226471
0.0020392158 -0.002198718 -0.024414705
-0.0029803922 -0.0065961541 0.0076852939
-0.0023529411 0.0037692308 0.0035941177
-0.0070588235 -0.0037692308 0.0048529413
-0.0032941177 -0.0075384616 0.0076852939
-0.0042352942 0.0025128205 0.00076176471
0.0026666666 -0.0053397436 -0.019064706
-0.00047058825 -0.0015705128 -0.012770589
-0.0054901959 -0.011935897 0.0073705884
0.0039215689 0.004397436 0.0076852939
0.0073725488 -0.0053397436 0.0076852939
-0.0029803922 0.0037692308 0.0029647059
-0.00078431371 0.00031410257 0.00013235294
0.0020392158 -0.00031410257 -0.0074205883
0.0076862746 -0.002198718 0.0023352941
-0.0051764706 0.00062820513 0.0076852939
0.0010980392 -0.0025128205 -0.0086794114
-0.0070588235 -0.002198718 0.0073705884
-0.0023529411 0.0034551283 0.0076852939
-0.0051764706 0.010051282 0.0064264708
0.0076862746 0.0034551283 0.0048529413
-0.0064313724 -0.0031410255 0.0076852939
-0.0070588235 -0.010365385 0.0017058824
-0.00078431371 0 -0.0033294118
-0.0026666666 -0.0053397436 -0.016861765
-0.0032941177 -0.011621795 0.00076176471
0.0029803922 0.0037692308 0.00076176471
0.00047058825 -0.0018846154 -0.044870589
-0.0042352942 -0.0031410255 -0.0042735296
0.0039215689 -0.0018846154 -0.0052176472
-0.0026666666 -0.0040833335 -0.032597058
-0.0023529411 -0.0025128205 -0.031967647
-0.0073725488 -0.0056538461 0.0039088237
0.0070588235 -0.0040833335 0.0051676473
0.0080000004 -0.0009423077 0.0076852939
-0.0036078431 0.010051282 0.0064264708
0.00047058825 0.01099359 0.0064264708
-0.0023529411 -0.002826923 -0.022841176
-0.0029803922 -0.011621795 0.0026499999
-0.0014117646 0.002198718 0.00013235294
0.0026666666 0.0094230771 0.0064264708
0.0045490195 -0.0050256411 -0.0064764707
-0.0051764706 -0.011935897 0.0042235292
-0.0026666666 -0.0050256411 -0.015917648
0.0045490195 -0.0050256411 -0.0011264706
-0.0017254902 -0.011307692 0.00076176471
0.0076862746 0.004397436 0.0067411764
-0.0080000004 0.002826923 0.0051676473
0.0026666666 -0.0047115386 -0.035114706
-0.0017254902 -0.0065961541 -0.039520588
0.0073725488 -0.010365385 0.0023352941
0.0014117646 -0.0015705128 -0.040779412
0.0076862746 0.0047115386 0.0045382353
0.0036078431 -0.01099359 0.0076852939
-0.0045490195 -0.00031410257 0.0076852939
-0.0023529411 0.0031410255 0.0076852939
-0.0070588235 -0.0037692308 0.0067411764
-0.0073725488 -0.0075384616 0.0032794117
0.006117647 -0.01099359 0.0026499999
-0.0070588235 0.0040833335 0.0076852939
0.0042352942 -0.0069102566 0.0076852939
0.0045490195 0.0047115386 0.0042235292
-0.0026666666 -0.0047115386 -0.025358824
-0.0073725488 -0.0062820511 0.0054823528
-0.0042352942 -0.002826923 -0.0064764707
-0.0045490195 -0.0037692308 -0.0052176472
0.00078431371 0.0053397436 0.0042235292
0.0017254902 0 -0.0011264706
0.0014117646 -0.0018846154 -0.012141176
0.0036078431 -0.0072243591 -0.0027000001
0.0042352942 0.0009423077 0.0076852939
-0.0026666666 -0.0040833335 -0.039520588
0.0045490195 0.0018846154 0.00076176471
-0.00047058825 -0.002198718 -0.0077352943
0.0026666666 -0.0047115386 -0.029764706
0.0010980392 -0.0015705128 -0.028505882
-0.0026666666 -0.0053397436 -0.043611765
0.0076862746 -0.0078525646 0.00076176471
-0.006117647 -0.0087948721 0.0076852939
-0.0067450982 0.002198718 0.00076176471
-0.00047058825 -0.011621795 0.0035941177
-0.0067450982 -0.010365385 0.0017058824
0.0023529411 -0.0050256411 0.0080000004
0.0026666666 -0.0031410255 -0.034170587
-0.0073725488 -0.00031410257 0.0042235292
0.0026666666 -0.0053397436 -0.013714706
-0.00015686275 -0.0015705128 -0.010567647
-0.0054901959 0.0025128205 0.00076176471
-0.006117647 -0.0053397436 0.00013235294
-0.0023529411 -0.0059679486 -0.016861765
0.0023529411 -0.00031410257 -0.0030147058
0.00015686275 -0.0097371796 0.0076852939
0.0073725488 -0.00062820513 0.0045382353
0.0014117646 -0.0065961541 -0.016861765
-0.0076862746 -0.0087948721 0.0054823528
0.0045490195 0.00031410257 0.00013235294
0.0020392158 -0.002826923 -0.044870589
-0.0014117646 0.010679487 0.0064264708
0.0058039217 -0.011307692 0.0045382353
0.0029803922 0.0040833335 0.0039088237
-0.0036078431 0.0056538461 0.0073705884
-0.00078431371 -0.0069102566 -0.0241
0.0010980392 0.002198718 0.0080000004
0.0067450982 -0.0053397436 0.0076852939
-0.00047058825 -0.0069102566 -0.036688235
0.00078431371 -0.0034551283 -0.044870589
-0.00047058825 -0.011621795 0.00076176471
0.00078431371 -0.011621795 0.00076176471
0.0045490195 0.0056538461 0.0057970588
-0.0026666666 -0.0040833335 -0.010567647
-0.0076862746 0.0031410255 0.0054823528
0.00078431371 0.00031410257 0.00013235294
0.0076862746 0.0037692308 0.0045382353
0.00047058825 -0.0015705128 -0.041723531
0.0080000004 0 0.0073705884
-0.0070588235 -0.0040833335 0.0035941177
0.0070588235 0.0053397436 0.0061117648
0.0067450982 -0.0078525646 0.0076852939
0.0073725488 -0.002826923 0.0039088237
0.0073725488 0.00062820513 0.0064264708
-0.00015686275 0.0059679486 0.0067411764
0.00078431371 -0.0069102566 -0.023155883
-0.0076862746 -0.0094230771 0.0013911765
0.0010980392 -0.011621795 0.00076176471
-0.0070588235 -0.0084807696 0.0076852939
-0.00078431371 -0.0069102566 -0.012455883
0.0076862746 0.0018846154 0.0048529413
0.0042352942 -0.0031410255 -0.0011264706
-0.0032941177 0.0097371796 0.0064264708
-0.0039215689 -0.0062820511 -0.0033294118
0.0023529411 -0.0025128205 -0.018120589
0.0029803922 -0.0040833335 -0.034485295
0.006117647 -0.0097371796 0.00076176471
0.0023529411 -0.0081666671 -0.0061617647
-0.0020392158 -0.0062820511 -0.020008823
-0.0010980392 -0.0012564103 -0.0077352943
-0.0010980392 -0.0015705128 -0.022841176
-0.0014117646 -0.0065961541 -0.021582354
0.006117647 -0.011935897 0.0073705884
0.0014117646 -0.0018846154 -0.0241
0.0026666666 -0.0031410255 -0.016861765
0.0017254902 -0.0065961541 -0.038261764
0.0032941177 -0.002826923 0.0080000004
0.0010980392 -0.0015705128 -0.030079411
0.0026666666 -0.0034551283 -0.028191177
-0.0076862746 -0.0091089746 0.0048529413
-0.0020392158 -0.002198718 -0.020952942
-0.0014117646 -0.0009423077 0.0080000004
0.0026666666 -0.0034551283 -0.038576469
0.0023529411 -0.010365385 0.0076852939
-0.0070588235 -0.010365385 0.0067411764
0.0070588235 -0.0069102566 0.00076176471
-0.0073725488 -0.002826923 0.0010764706
0.0048627453 -0.011935897 0.0020205881
0.0010980392 -0.0084807696 -0.0052176472
-0.0026666666 -0.0031410255 0.0076852939
-0.0026666666 -0.0050256411 -0.037632354
0.0023529411 -0.0056538461 -0.026617646
0.0017254902 -0.0062820511 -0.012141176
0.0014117646 -0.0015705128 -0.019379411
-0.0045490195 0.011621795 0.0064264708
0.0048627453 -0.0081666671 0.00013235294
0.0026666666 -0.0037692308 -0.013085295
0.0010980392 -0.00062820513 0.0080000004
0.0036078431 0.0081666671 0.0064264708
0.0014117646 -0.0015705128 -0.031338234
-0.00047058825 0.0025128205 0.00044705882
0.00047058825 -0.0069102566 -0.0096235294
0.00015686275 0.0018846154 0.00013235294
0.0017254902 -0.0018846154 -0.016861765
0.00047058825 -0.0015705128 -0.022211764
0.0029803922 -0.0047115386 0.0080000004
-0.0042352942 0.0015705128 0.0076852939
0.0020392158 -0.002198718 -0.018750001
0.00015686275 -0.0018846154 -0.0077352943
0.00015686275 -0.0025128205 -0.0077352943
0.0020392158 -0.0072243591 0.0080000004
-0.0054901959 0.0056538461 0.0054823528
0.0045490195 -0.0047115386 -0.0058470587
-0.0026666666 -0.0009423077 -0.0074205883
-0.0048627453 -0.0069102566 0.00013235294
0.0073725488 -0.0040833335 0.0026499999
0.0073725488 -0.0050256411 0.0010764706
0.0017254902 -0.0084807696 -0.0058470587
0.0070588235 -0.0015705128 0.0057970588
-0.0023529411 -0.011621795 0.0029647059
0.0010980392 -0.0069102566 -0.022841176
0.0045490195 -0.0037692308 -0.0014411765
-0.0064313724 -0.010365385 0.00076176471
-0.0026666666 -0.0037692308 -0.0096235294
-0.0070588235 0.0031410255 0.0026499999
0.0026666666 -0.0034551283 -0.019064706
-0.0029803922 0 0.00013235294
0.00078431371 -0.0015705128 -0.044241175
-0.0010980392 -0.0015705128 -0.023155883
0.0076862746 0.002198718 0.0017058824
-0.0023529411 -0.0025128205 -0.020638235
-0.0026666666 -0.004397436 -0.024729412
-0.0032941177 -0.0072243591 -0.0020705883
0.0042352942 -0.0059679486 0.0080000004
-0.00015686275 -0.0069102566 -0.011197058
0.0010980392 -0.0084807696 -0.0027000001
-0.0073725488 -0.010365385 0.0048529413
-0.0017254902 0.0040833335 0.0076852939
0.0045490195 -0.0084807696 0.00013235294
0.0067450982 -0.010365385 0.0064264708
-0.0017254902 -0.011935897 0.00076176471
0.0076862746 -0.0009423077 0.0029647059
-0.0026666666 -0.0037692308 -0.015917648
-0.0051764706 0.0056538461 0.0042235292
-0.0058039217 -0.011935897 0.0013911765
-0.0020392158 -0.0062820511 -0.012455883
0.0026666666 -0.0040833335 -0.012770589
0.0036078431 -0.0015705128 -0.0017558824
0.0036078431 0.0097371796 0.0064264708
-0.0042352942 -0.0056538461 -0.0061617647
0.00015686275 0.0078525646 0.0064264708
0.0045490195 -0.0034551283 -0.0023852941
0.00078431371 -0.0015705128 -0.0241
0.0029803922 -0.0040833335 -0.032282352
-0.00047058825 -0.0015705128 -0.017805882
0.0054901959 0.0034551283 0.00076176471
0.0039215689 -0.01225 0.00076176471
-0.0042352942 -0.011307692 0.00076176471
-0.00015686275 0 -0.0077352943
0.0029803922 -0.0075384616 -0.0030147058
0.0010980392 -0.0069102566 -0.040464707
0.0073725488 -0.0015705128 0.0048529413
0.0048627453 0.0056538461 0.0048529413
-0.00047058825 -0.0069102566 -0.014344118
0.00078431371 -0.0015705128 -0.025358824
0.0010980392 -0.0069102566 -0.019064706
-0.0036078431 0.002198718 0.00076176471
-0.0042352942 -0.0037692308 -0.0042735296
0.00015686275 -0.011307692 0.0010764706
0.0045490195 0.0081666671 0.0064264708
0.0076862746 -0.0087948721 0.0013911765
-0.0032941177 0.0065961541 0.0064264708
-0.00015686275 -0.0072243591 -0.022211764
-0.00015686275 -0.0084807696 -0.0036441176
0.0026666666 -0.0047115386 -0.0093088234
-0.0076862746 -0.0078525646 0.0010764706
0.006117647 -0.0078525646 0.0076852939
0.0076862746 -0.0091089746 0.0023352941
-0.0020392158 -0.0062820511 -0.020638235
0.0036078431 -0.010051282 0.0076852939
0.0023529411 0.002198718 0.0080000004
0.0023529411 -0.0031410255 -0.0077352943
0.0054901959 -0.00031410257 0.00013235294
-0.0026666666 -0.0037692308 -0.028820587
0.00047058825 -0.0015705128 -0.026932353
0.0014117646 -0.0065961541 -0.033541176
-0.0076862746 -0.0087948721 0.0020205881
-0.0051764706 -0.011935897 0.0020205881
0.00078431371 -0.0015705128 -0.018120589
0.0014117646 -0.0065961541 -0.023470588
0.0070588235 -0.0025128205 0.0045382353
0.0026666666 -0.0037692308 -0.017805882
-0.0076862746 0.0009423077 0.0026499999
0.0026666666 -0.0034551283 -0.040150002
-0.0073725488 -0.0012564103 0.0020205881
-0.0026666666 0.0056538461 0.0070558824
-0.006117647 0.0050256411 0.0045382353
0.0010980392 -0.0075384616 0.0080000004
0.0029803922 -0.004397436 -0.041094117
0.00015686275 -0.0015705128 -0.019379411
0.0073725488 -0.00031410257 0.0051676473
0.0014117646 -0.002826923 -0.044870589
0.0036078431 -0.0050256411 0.0080000004
0.00015686275 -0.0072243591 -0.038261764
0.0039215689 0.010365385 0.0064264708
-0.0029803922 -0.0009423077 -0.0023852941
-0.0032941177 -0.01099359 0.0076852939
0.0076862746 -0.0078525646 0.0035941177
0.0054901959 -0.0018846154 0.0076852939
0.00047058825 -0.0072243591 -0.027247058
-0.0070588235 -0.0031410255 0.0067411764
0.0017254902 -0.0065961541 -0.035429411
-0.0029803922 0.0072243591 0.0064264708
0.0048627453 0.0009423077 0.00076176471
0.0010980392 -0.0031410255 -0.0077352943
0.0045490195 -0.004397436 -0.0020705883
0.0058039217 0.0031410255 0.0076852939
0.0039215689 -0.0062820511 -0.0011264706
-0.00015686275 -0.011307692 0.0032794117
0.00047058825 0.0056538461 0.0057970588
0.0032941177 -0.0078525646 -0.00049705885
-0.0020392158 -0.0025128205 -0.0077352943
-0.0039215689 0.0075384616 0.0064264708
-0.0020392158 -0.002198718 -0.029764706
-0.0020392158 -0.0050256411 -0.0077352943
0.0023529411 -0.00062820513 -0.0074205883
-0.0026666666 -0.0053397436 -0.0348
-0.0029803922 0.00031410257 0.0080000004
-0.00047058825 -0.0015705128 -0.036688235
-0.00047058825 -0.0015705128 -0.037632354
0.0026666666 -0.00062820513 -0.0074205883
0.0026666666 -0.0034551283 -0.039205883
0.0014117646 -0.0084807696 -0.0017558824
-0.0070588235 -0.004397436 0.0032794117
-0.0076862746 -0.0091089746 0.0023352941
0.0067450982 0 0.0076852939
-0.0026666666 -0.0037692308 -0.026617646
-0.0080000004 0.002826923 0.0048529413
0.0073725488 -0.0084807696 0.0076852939
-0.0076862746 -0.0094230771 0.0029647059
-0.0070588235 -0.0050256411 0.00076176471
0.0076862746 -0.0018846154 0.0076852939
0.0073725488 -0.0050256411 0.0061117648
0.0017254902 -0.0062820511 -0.01182647
-0.0036078431 -0.0034551283 -0.0077352943
-0.0042352942 -0.0031410255 -0.0020705883
0.0054901959 -0.011935897 0.0064264708
0.0023529411 -0.0059679486 -0.028505882
