# .PCD v0.7 - Point Cloud Data file format
VERSION 0.7
FIELDS x y z
SIZE 4 4 4
TYPE F F F
COUNT 1 1 1
WIDTH 1224
HEIGHT 1
VIEWPOINT 0 0 0 1 0 0 0
POINTS 1224
DATA ascii
0.0076250001 0.0003164557 -0.001625
-0.0055 -0.0017088607 -0.00075000001
0.0077499999 0.001329114 -0.003
-0.0017500001 -0.00044303798 -0.00062499999
-0.0023749999 0.0039873417 -0.00075000001
0.001125 -0.0049999999 -0.0021250001
0.0080000004 -0.0023417722 -0.0015
0.003 0.0032278481 -0.0078750001
-0.004375 0.004493671 -0.00012500001
-0.0080000004 -0.0034810128 -0.004125
-0.0024999999 0.0049999999 -0.00087500003
-0.00012500001 -0.0049999999 -0.0046250001
0.0044999998 0.0049999999 -0.00050000002
-0.0080000004 -0.0041139242 -0.0067500002
-0.0022499999 0.0049999999 -0.0055
0.0049999999 -0.0048734178 -0.0077499999
0.00025000001 -0.0049999999 -0.0035000001
-0.0055 0.0010759494 -0.0078750001
0.0023749999 -0.001329114 -0.00062499999
-0.0080000004 -0.0015822785 -0.0072499998
-0.0080000004 -0.0015822785 -0.0035000001
0.0077499999 -0.0012025316 -0.0051250001
0.0067500002 -0.00082278479 -0.0078750001
0.0077499999 0.0012025316 -0.0051250001
0.006875 0.0048734178 -0.006875
-0.0060000001 -0.0049999999 -0.001125
0.0067500002 0.0036075949 -0.00062499999
-0.0038749999 0.0018354431 -0.00062499999
0.0066249999 0.0010759494 -0.00062499999
-0.0063749999 -0.0031012658 -0.00062499999
0.002875 0.00056962023 -0.00062499999
-0.00075000001 -0.0049999999 -0.0015
0.0060000001 -0.001329114 -0.0078750001
0.007375 -0.001329114 -0.0078750001
0.0078750001 -0.0033544304 -0.003
0.0076250001 0.0048734178 -0.00087500003
-0.0080000004 0.0022151899 -0.0053750002
-0.0024999999 0.0031012658 -0.00075000001
0.0078750001 0.0039873417 -0.0036249999
-0.0074999998 0.0023417722 -0.0077499999
-0.0048750001 -0.0039873417 -0.00062499999
0.006875 0.0043670884 -0.0077499999
-0.001125 -0.0014556962 -0.00075000001
-0.001125 -0.0037341772 0.00125
-0.00012500001 0.0031012658 -0.0078750001
-0.0066249999 0.001329114 -0.00075000001
0.0052499999 0.001329114 -0.00075000001
0.0020000001 -0.0014556962 -0.0078750001
0.0044999998 -0.0049999999 -0.0066249999
-0.0063749999 0.0037341772 0.0022499999
0.0055 0.0047468352 -0.00012500001
0.007375 0.0046202531 -0.004125
-0.0020000001 0.0046202531 -0.0077499999
-0.006875 -0.0049999999 -0.003
-0.0049999999 0.0049999999 -0.0021250001
0.0077499999 0.0018354431 -0.0070000002
-0.0052499999 0.0049999999 -0.00275
-0.0076250001 -0.0015822785 -0.0077499999
0.0062500001 0.0038607595 0.001
-0.004125 -0.0049999999 -0.0056250002
-0.0036249999 0.00082278479 -0.0078750001
0.00275 0.0017088607 -0.00062499999
-0.00125 -0.0039873417 0.00025000001
-0.0067500002 -0.0023417722 -0.00062499999
0.0080000004 0.0024683545 -0.0076250001
-0.0067500002 -0.00044303798 -0.0078750001
-0.0017500001 0.0049999999 -0.0077499999
0.0078750001 0.0038607595 -0.0035000001
-0.0072499998 0.001329114 -0.00075000001
-0.0076250001 -0.0049999999 -0.002875
0.002875 -0.0049999999 -0.001375
0.0047499998 -0.0037341772 -0.00075000001
0.0033750001 0.0025949366 -0.0078750001
0.0062500001 0.0049999999 -0.0042500002
-0.0044999998 -0.004493671 -0.000375
-0.00575 -0.0049999999 -0.0055
-0.00275 -0.0003164557 -0.0078750001
-0.0033750001 0.0049999999 -0.001875
-0.0022499999 0.0017088607 -0.00062499999
0.0077499999 0.0034810128 -0.00075000001
-0.0080000004 0.00056962023 -0.003
-0.0061249998 -0.0049999999 -0.00087500003
-0.0080000004 -0.00082278479 -0.0060000001
-0.00025000001 -0.00069620251 -0.00075000001
0.003125 -0.0049999999 -0.002625
0.0080000004 0.0028481013 -0.0062500001
0.007125 -0.0031012658 -0.0078750001
-0.0063749999 0.0049999999 -0.0048750001
0.004125 -0.0019620254 -0.0078750001
-0.003125 -0.0049999999 -0.0070000002
0.0056250002 0.0049999999 -0.0040000002
-0.0038749999 -0.0020886075 -0.00075000001
-0.0080000004 0.00094936707 -0.0022499999
0.003125 -0.0049999999 -0.0023749999
-0.0070000002 -0.00056962023 -0.00075000001
0.0080000004 0.0029746837 -0.0053750002
0.0080000004 -0.0022151899 -0.0061249998
-0.0076250001 -0.0049999999 -0.0070000002
-0.0022499999 0.00044303798 -0.00075000001
-0.0076250001 0.0017088607 -0.0077499999
0.0078750001 -0.0036075949 -0.0070000002
0.0046250001 -0.0049999999 -0.00050000002
-0.0024999999 0.0049999999 -0.0053750002
0.0080000004 -0.0028481013 -0.0020000001
-0.0052499999 0.0049999999 -0.0022499999
0.0037499999 0.0019620254 -0.0078750001
-0.0044999998 0.0020886075 -0.00062499999
0.0080000004 0.0019620254 -0.00075000001
0.003125 -0.0033544304 -0.00062499999
-0.0076250001 -0.0049999999 -0.0058749998
0.0061249998 0.0049999999 -0.007375
-0.001625 -0.0049999999 -0.0049999999
-0.0080000004 -0.00056962023 -0.0015
0.0065000001 0.0037341772 0.002625
-0.0058749998 0.0022151899 -0.0078750001
-0.00025000001 -0.00094936707 -0.00062499999
-0.0023749999 0.0049999999 -0.0049999999
-0.0015 0.0049999999 -0.0062500001
-0.004375 0.0042405063 -0.0077499999
-0.0038749999 0.0014556962 -0.0078750001
-0.0067500002 0.0046202531 -0.00075000001
0.0056250002 -6.329114e-05 -0.00075000001
-0.00025000001 -0.0049999999 -0.004375
0.0077499999 0.0017088607 -0.0048750001
0.0080000004 -0.0024683545 -0.004375
0.0072499998 0.0034810128 -0.00075000001
-0.0017500001 0.0049999999 -0.0044999998
0.00062499999 -0.0049999999 -0.0020000001
0.006875 0.0047468352 -0.0061249998
0.0063749999 0.0043670884 -0.00075000001
0.00062499999 -0.0022151899 -0.00062499999
-0.0076250001 -0.0037341772 -0.00075000001
-0.0033750001 -0.001329114 -0.0078750001
0.0080000004 -0.0020886075 -0.0066249999
0.0066249999 -0.004493671 -0.00062499999
0.001 0.0043670884 -0.0077499999
0.0078750001 0.0038607595 -0.0053750002
-0.006875 0.002721519 -0.0078750001
-0.0074999998 6.329114e-05 -0.0078750001
-0.0047499998 0.0012025316 -0.00075000001
-0.002875 0.0024683545 -0.0078750001
-0.0080000004 -0.002721519 -0.002875
-0.0062500001 0.0034810128 -0.0078750001
-0.0052499999 0.0012025316 -0.00075000001
0.001 0.004493671 -0.0077499999
-0.0080000004 -0.00069620251 -0.004375
0.0042500002 -0.0049999999 -0.0048750001
0.0074999998 0.0014556962 -0.00075000001
-0.004375 0.0049999999 -0.0024999999
0.002875 0.0032278481 -0.0078750001
-0.0047499998 -0.0019620254 -0.0078750001
-0.001875 0.0049999999 -0.004125
0.00275 0.0049999999 -0.0062500001
-0.0080000004 -0.0039873417 -0.0065000001
-0.0040000002 0.0043670884 -0.00062499999
-0.001875 -0.0049999999 -0.0021250001
-0.00125 -0.0049999999 -0.0021250001
-0.00025000001 0.0049999999 -0.007375
0.001375 0.0048734178 -0.0077499999
-0.0065000001 -0.0049999999 -0.0046250001
0.0021250001 0.0049999999 -0.00275
-0.0080000004 -0.002721519 -0.006875
-0.0024999999 -0.0042405063 -0.00075000001
-0.0049999999 -0.0024683545 -0.0078750001
0.002875 -0.0049999999 -0.00087500003
0.0058749998 -0.0025949366 -0.00062499999
-0.0021250001 0.0049999999 -0.007125
0.0053750002 0.0033544304 -0.00062499999
-0.0065000001 0.0019620254 -0.00075000001
0.00575 -0.0003164557 -0.00075000001
0.0062500001 -0.0034810128 -0.0078750001
0.0078750001 -0.0014556962 -0.003
0.0080000004 0.0031012658 -0.0053750002
-0.000375 -0.0049999999 -0.0038749999
-0.00575 0.0031012658 -0.00062499999
-0.00087500003 0.0049999999 -0.0055
0.0053750002 0.0032278481 -0.00062499999
0.00062499999 0.0049999999 -0.004125
-0.0080000004 -0.0031012658 -0.0047499998
0.0061249998 -0.0049999999 -0.0053750002
0.0077499999 0.0017088607 -0.0015
0.0049999999 0.0014556962 -0.0078750001
-0.0038749999 -0.0046202531 -0.0077499999
0.0058749998 0.0036075949 -0.00062499999
0.00075000001 -0.0031012658 -0.00062499999
0.00275 -0.0049999999 -0.0074999998
-0.0049999999 -0.0049999999 -0.0022499999
0.0020000001 0.0022151899 -0.00075000001
0.0061249998 0.0003164557 -0.0078750001
-0.0033750001 -0.0014556962 -0.00062499999
0.0046250001 -0.002721519 -0.0078750001
0.00062499999 -0.0049999999 -0.006875
-0.0037499999 -0.0036075949 -0.00075000001
0.0022499999 -0.0049999999 -0.0040000002
0.001125 0.00056962023 -0.00062499999
0.0049999999 -0.0049999999 -0.0044999998
0.0056250002 -0.0041139242 -0.00062499999
0.0023749999 -0.00044303798 -0.00062499999
-0.0076250001 -0.0049999999 -0.0077499999
0.001 -0.0020886075 -0.00062499999
0.0061249998 -0.0038607595 -0.00012500001
0.0051250001 0.0049999999 -0.0070000002
-0.0032500001 -0.0025949366 -0.0078750001
0.001375 -0.0046202531 -0.00075000001
-0.004375 0.0049999999 -0.0060000001
-0.0053750002 0.0049999999 -0.000375
-0.0080000004 0.002721519 -0.0077499999
0.003125 -0.0049999999 -0.0036249999
0 -0.0020886075 -0.0078750001
0.0024999999 0.0049999999 -0.007375
0.0049999999 0.004493671 -0.000375
-0.00087500003 -0.0047468352 -0.00075000001
-0.0038749999 -0.0049999999 -0.0061249998
0.001375 -0.0017088607 -0.0078750001
0.0076250001 0.00082278479 -0.0046250001
-0.0017500001 0.0049999999 -0.0042500002
-0.0051250001 -0.0049999999 -0.00087500003
0.0052499999 0.0041139242 -0.00062499999
0.0055 -0.0024683545 -0.0078750001
0.0076250001 -0.0047468352 -0.0042500002
0.0036249999 -0.00094936707 -0.0078750001
0.002625 -0.0049999999 -0.0021250001
0.004375 0.0042405063 -0.0078750001
0.0062500001 -0.0049999999 -0.0046250001
0.0053750002 0.0049999999 -0.0066249999
0.0078750001 0.0042405063 -0.006875
-0.0035000001 0.0024683545 -0.00062499999
0.00062499999 0.0049999999 -0.0033750001
0.0056250002 -0.0049999999 -0.0020000001
-0.0080000004 -0.0014556962 -0.0066249999
-0.0074999998 -0.0038607595 -0.00075000001
0.0044999998 0.0020886075 -0.00075000001
0.0072499998 -0.0049999999 -0.00087500003
0.001375 -0.0049999999 -0.0049999999
-0.001625 -0.0049999999 -0.0035000001
0.0077499999 0.00018987342 -0.001375
0.0056250002 0.0033544304 -0.00062499999
-0.0032500001 0.0049999999 -0.0023749999
-0.0080000004 0.0024683545 -0.0077499999
-0.0024999999 -0.00069620251 -0.00062499999
-0.0056250002 0.0024683545 -0.0078750001
-0.007125 0.002721519 -0.0078750001
-0.0022499999 0.0015822785 -0.00062499999
0.0078750001 -0.0032278481 -0.0037499999
-0.007125 -0.0025949366 -0.0078750001
-0.001625 0.0049999999 -0.0074999998
-0.0022499999 -0.0020886075 -0.00075000001
-0.0080000004 -0.0024683545 -0.0047499998
0.0056250002 0.0042405063 -0.00062499999
0.00012500001 -0.0049999999 -0.001125
0.00275 -0.004493671 -0.0077499999
-0.001875 0.0031012658 -0.00075000001
-0.000375 -0.0049999999 -0.0032500001
-0.0042500002 0.001329114 -0.0078750001
-0.007125 0.0049999999 -0.001625
0.0076250001 -0.00044303798 -0.00075000001
0.004375 -0.00044303798 -0.00062499999
0.0062500001 0.0020886075 -0.0078750001
0.004125 0.0023417722 -0.0078750001
0.0072499998 0.0028481013 -0.0078750001
-0.0049999999 -0.0049999999 -0.000375
0.0032500001 0.0036075949 -0.0078750001
-0.001 0.0049999999 -0.0040000002
-0.0021250001 0.0010759494 -0.0078750001
-0.0063749999 -0.0049999999 -0.0070000002
0.0040000002 0.00069620251 -0.00062499999
-0.0076250001 -0.0023417722 -0.00075000001
-0.00050000002 -0.0049999999 -0.007125
-0.0032500001 -0.0049999999 -0.002875
0.0077499999 0.004493671 -0.0067500002
0.0048750001 -0.0049999999 -0.0048750001
-0.0063749999 -0.0037341772 0.001875
0.0077499999 -0.0047468352 -0.0063749999
0.003 0.0049999999 -0.003
-0.0042500002 0.0047468352 -0.00012500001
0.0061249998 -0.0049999999 -0.0055
0.0077499999 0.00044303798 -0.001
0.001125 -0.0046202531 -0.00075000001
0.0077499999 -0.0047468352 -0.0020000001
0.0062500001 0.0037341772 0.00012500001
-0.0080000004 0.0033544304 -0.0044999998
-0.0056250002 -0.0049999999 -0.006875
-0.007375 0.0049999999 -0.0061249998
-0.00125 0.0003164557 -0.0078750001
-0.0061249998 -0.0049999999 -0.0063749999
-0.00087500003 0.0049999999 -0.0040000002
-0.0078750001 0.0041139242 -0.0044999998
-0.0080000004 -0.0018354431 -0.0076250001
-0.001 0.0025949366 -0.00062499999
-0.0053750002 -0.0041139242 -0.00062499999
0.0078750001 -0.00082278479 -0.001125
0.0040000002 -0.0049999999 -0.00125
0.007125 0.001329114 -0.0078750001
-0.00575 0.0049999999 -0.0046250001
-0.0080000004 -0.0017088607 -0.004125
-0.0032500001 0.0049999999 -0.0033750001
-0.0024999999 -0.0043670884 -0.0077499999
-0.00275 -0.0024683545 -0.0078750001
0.0060000001 0.0015822785 -0.00062499999
0.0022499999 -0.0034810128 -0.00075000001
0.0060000001 -0.0049999999 -0.0053750002
-0.0044999998 -0.0049999999 -0.0051250001
0.0047499998 0.0049999999 -0.00050000002
-0.00125 0.0018354431 -0.00062499999
0.0077499999 -0.0012025316 -0.00125
-0.0070000002 -0.0041139242 -0.0077499999
-0.00012500001 -0.0049999999 -0.0072499998
0.0062500001 -0.0049999999 -0.0044999998
-0.007125 -0.0023417722 -0.0078750001
-0.0020000001 0.004493671 -0.0077499999
-0.0080000004 -0.00018987342 -0.00125
-0.0080000004 0.0029746837 -0.0070000002
0.0020000001 0.00018987342 -0.00062499999
-0.0077499999 -0.0048734178 -0.0015
0.00012500001 0.0049999999 -0.00575
-0.0021250001 -0.0049999999 -0.0065000001
0.007375 0.0046202531 -0.0049999999
0.0077499999 -0.0012025316 -0.0042500002
0.0080000004 0.0028481013 -0.0055
0.000375 0.0049999999 -0.0048750001
-0.0080000004 -0.0033544304 -0.001
-0.0077499999 -0.0048734178 -0.0074999998
-0.0080000004 -0.0012025316 -0.006875
-0.001125 -0.0049999999 -0.001375
-0.00075000001 -0.0049999999 -0.0024999999
0.001625 0.0049999999 -0.0066249999
-0.001 -0.0037341772 0.002875
0.0038749999 -0.00082278479 -0.00075000001
-0.0048750001 -0.0015822785 -0.0078750001
-0.000375 0.0047468352 -0.0077499999
0.0051250001 -0.001329114 -0.0078750001
-0.0065000001 -0.0049999999 -0.0060000001
0.0044999998 0.0019620254 -0.0078750001
0.0047499998 0.0022151899 -0.0078750001
0.001875 0.0049999999 -0.0070000002
0.006875 0.00069620251 -0.0078750001
0.0062500001 -0.0038607595 0.00125
-0.000375 0.0041139242 -0.00075000001
0.0037499999 0.0049999999 -0.0042500002
-0.000375 -0.0003164557 -0.0078750001
-0.0070000002 0.0020886075 -0.0078750001
0.001125 0.00094936707 -0.0078750001
-0.004375 0.0049999999 -0.00062499999
0.0076250001 0.00069620251 -0.003
-0.0065000001 0.0049999999 -0.0062500001
-0.001375 0.0049999999 -0.0049999999
-0.0044999998 -0.0025949366 -0.0078750001
-0.004375 -6.329114e-05 -0.00062499999
-0.0080000004 0.0010759494 -0.001875
-0.0052499999 0.00044303798 -0.00075000001
-0.0017500001 0.0015822785 -0.0078750001
0.0049999999 -0.0029746837 -0.00062499999
0.003125 0.0049999999 -0.0051250001
0.0072499998 0.0029746837 -0.00075000001
0.004375 -0.001329114 -0.0078750001
-0.0065000001 0.0037341772 -0.0078750001
0.0035000001 -0.0048734178 -0.0077499999
0.0046250001 0.0036075949 -0.0078750001
-0.0067500002 0.0049999999 -0.002875
0.0040000002 0.0049999999 -0.007375
0.001625 0.0039873417 -0.0078750001
0.006875 0.0042405063 -0.00075000001
-0.0035000001 -0.0049999999 -0.003125
-0.00050000002 -0.0049999999 -0.0035000001
0.0063749999 0.0049999999 -0.00275
0.0078750001 0.0038607595 -0.0024999999
0.0078750001 0.001329114 -0.001125
-0.0023749999 0.0019620254 -0.0078750001
0.000375 -0.0049999999 -0.0051250001
0.0076250001 0.0025949366 -0.0077499999
0.0032500001 -0.0049999999 -0.006875
0.0047499998 0.0049999999 -0.002875
0.00025000001 0.0049999999 -0.0053750002
-0.0038749999 -0.0049999999 -0.007125
-0.001 -0.0049999999 -0.00075000001
0.0053750002 0.001329114 -0.00075000001
-0.0072499998 0.0020886075 -0.00075000001
0.0023749999 -0.0024683545 -0.00062499999
0.0070000002 0.0024683545 -0.00062499999
0.0066249999 0.0049999999 -0.0070000002
-0.0056250002 -0.00044303798 -0.0078750001
-0.0077499999 -0.0048734178 -0.0048750001
-0.0047499998 0.0028481013 -0.00062499999
0.004375 6.329114e-05 -0.00062499999
0.0055 0.0023417722 -0.00075000001
0.0077499999 0.0022151899 -0.00075000001
0.0040000002 0.0049999999 -0.0058749998
-0.002625 -0.00069620251 -0.00062499999
0.0033750001 0.0049999999 -0.0072499998
-0.00275 0.0048734178 -0.0077499999
-0.0080000004 -0.0033544304 -0.0072499998
0.0035000001 -0.00056962023 -0.00062499999
0.000375 -0.0012025316 -0.00075000001
0.0067500002 -0.0049999999 -0.003
-0.0017500001 -0.0049999999 -0.0077499999
0.00012500001 -0.0039873417 -0.00075000001
-0.0077499999 0.0015822785 -0.0077499999
-0.00075000001 -0.00069620251 -0.0078750001
-0.0078750001 0.0047468352 -0.0038749999
0.00025000001 -0.0049999999 -0.0044999998
0.0048750001 0.0018354431 -0.00075000001
0.0060000001 0.0039873417 -0.0078750001
-0.00275 -0.0049999999 -0.001875
-0.0080000004 -0.0023417722 -0.0038749999
0.00012500001 0.0032278481 -0.0078750001
-0.0046250001 0.0038607595 -0.00062499999
0.0023749999 0.0049999999 -0.0056250002
0.0061249998 -0.0038607595 -0.00025000001
-0.0080000004 0.00069620251 -0.00075000001
-0.0021250001 0.00044303798 -0.00062499999
0.0078750001 0.00044303798 -0.00087500003
0.00062499999 -0.0036075949 -0.0078750001
-0.0044999998 0.0023417722 -0.0078750001
-0.0053750002 0.0034810128 -0.0078750001
-0.0058749998 -0.00018987342 -0.0078750001
-0.0077499999 -0.0048734178 -0.0036249999
-0.001375 0.0033544304 -0.0078750001
-0.0038749999 -0.0049999999 -0.0047499998
0.0078750001 0.0025949366 -0.0058749998
-0.0040000002 -0.0046202531 -0.00012500001
-0.0046250001 0.0049999999 -0.003
-0.0056250002 -0.0036075949 -0.0078750001
0.0078750001 0.0015822785 -0.0076250001
-0.0015 -0.0049999999 -0.00125
-0.0036249999 -0.0012025316 -0.0078750001
0.00075000001 0.0003164557 -0.0078750001
-0.0080000004 0.0014556962 -0.00087500003
-0.001125 -0.0010759494 -0.00075000001
0.0052499999 0.0049999999 -0.004125
-0.006875 -0.0049999999 -0.001375
0.00087500003 0.0049999999 -0.0070000002
-0.0077499999 -0.0049999999 -0.0072499998
-0.0080000004 0.0012025316 -0.0076250001
0.0065000001 -0.0049999999 -0.0040000002
0.0076250001 -6.329114e-05 -0.0047499998
0.002875 0.0049999999 -0.0051250001
-0.0080000004 0.0034810128 -0.0033750001
-0.0020000001 0.0049999999 -0.007375
0.0078750001 0.00018987342 -0.0076250001
0.001 0.0042405063 -0.0077499999
0.0052499999 0.0049999999 -0.001
0.0065000001 -0.0038607595 0.001
0.0076250001 0.00056962023 -0.0017500001
-0.00050000002 -0.00018987342 -0.0078750001
0.0070000002 -0.0032278481 -0.00075000001
-0.0080000004 -0.00018987342 -0.0063749999
-0.0063749999 -0.0049999999 -0.0066249999
-0.0063749999 0.0038607595 0
0.0078750001 0.0033544304 -0.002625
0.0058749998 0.0019620254 -0.00062499999
-0.0015 0.0015822785 -0.00075000001
-0.0080000004 0.0020886075 -0.003
0.0040000002 -0.0017088607 -0.0078750001
-0.007375 -0.0014556962 -0.00075000001
-0.0032500001 -0.0049999999 -0.001875
-0.001875 0.0036075949 -0.0077499999
-0.0024999999 0.0041139242 -0.00062499999
-0.006875 0.0037341772 -0.00075000001
-0.001625 0.001329114 -0.00062499999
0.0062500001 -0.002721519 -0.0078750001
0.0077499999 0.001329114 -0.001875
-0.0017500001 0.0049999999 -0.00275
-0.004125 -0.0049999999 -0.00062499999
-0.0067500002 -0.0049999999 -0.0048750001
0.00025000001 -0.0049999999 -0.0062500001
0.0035000001 0.0049999999 -0.00275
-0.0072499998 0.0049999999 -0.0060000001
-0.0033750001 0.00044303798 -0.0078750001
0.0080000004 0.0033544304 -0.00087500003
0.00275 -0.0047468352 -0.0077499999
0.006875 0.0003164557 -0.00075000001
-0.0058749998 -0.0049999999 -0.003125
-0.00012500001 0.00018987342 -0.00062499999
0.004375 0.0049999999 -0.0017500001
0.00125 0.0025949366 -0.0078750001
0.00025000001 0.004493671 -0.00075000001
-0.001625 -0.0049999999 -0.003125
0.0067500002 -0.0049999999 -0.0032500001
-0.0044999998 0.0003164557 -0.0078750001
0.0058749998 0.0049999999 -0.0051250001
-0.002875 0.0049999999 -0.0062500001
-0.0056250002 0.0023417722 -0.00075000001
-0.00125 -0.0039873417 -0.00050000002
0.0035000001 0.0036075949 -0.0078750001
0.0062500001 0.0049999999 -0.0049999999
0.0023749999 0.0049999999 -0.0066249999
-0.00575 0.0037341772 -0.0078750001
0.001625 -0.0041139242 -0.00075000001
0.0047499998 0.0028481013 -0.0078750001
-0.0056250002 0.0046202531 -0.00012500001
0.0023749999 -0.0049999999 -0.0035000001
-0.0020000001 -0.0028481013 -0.00062499999
0.00087500003 0.0049999999 -0.007125
0.003 -0.00094936707 -0.00062499999
0.006875 0.00069620251 -0.00062499999
-0.0015 -0.0038607595 0.00087500003
0.0060000001 -0.0049999999 -0.002875
-0.002625 0.0038607595 -0.00075000001
-0.0044999998 0.0032278481 -0.0078750001
-0.0080000004 0.0029746837 -0.0061249998
-0.006875 -0.0023417722 -0.00075000001
0.0074999998 0.004493671 -0.0036249999
0.0078750001 -0.0043670884 -0.0074999998
0.0080000004 -0.001329114 -0.0072499998
-0.0065000001 0.0038607595 0.002875
-0.0078750001 0.0039873417 -0.0061249998
0.004375 0.0049999999 -0.0032500001
-0.0053750002 0.0024683545 -0.0078750001
-0.0078750001 0.0038607595 -0.0056250002
0.004125 -0.00094936707 -0.0078750001
-0.0060000001 0.00094936707 -0.0078750001
-0.0035000001 -0.0049999999 -0.0070000002
-0.007125 0.0049999999 -0.0047499998
-0.0080000004 -0.0031012658 -0.001
0.0076250001 0.00056962023 -0.0055
-0.001875 -0.0049999999 -0.0047499998
0.0023749999 -0.0049999999 -0.001375
-0.0065000001 0.0038607595 0.00012500001
-0.0080000004 0.0023417722 -0.003
-0.0080000004 -0.0036075949 -0.0051250001
-0.0053750002 -0.0047468352 -0.0077499999
0.00575 -0.00069620251 -0.00075000001
0.00012500001 0.0017088607 -0.00062499999
0.0076250001 -0.0047468352 -0.0053750002
0.0023749999 -0.0043670884 -0.00075000001
0.0076250001 -0.0047468352 -0.0036249999
0.0078750001 0.0033544304 -0.0023749999
0.003125 -0.00044303798 -0.00062499999
-0.003125 0.0012025316 -0.0078750001
-0.001875 0.0049999999 -0.0023749999
-0.0074999998 0.0048734178 -0.00075000001
0.004375 0.0049999999 -0.00062499999
0.001875 -0.0043670884 -0.0077499999
0.002875 -0.0049999999 -0.0036249999
-0.001875 -0.0049999999 -0.0040000002
-0.0049999999 -0.0049999999 -0.00275
0.0044999998 -0.0037341772 -0.00075000001
-0.001875 0.0049999999 -0.0040000002
0.0078750001 0.0023417722 -0.0044999998
0.0056250002 0.0020886075 -0.0078750001
0.0077499999 -0.00044303798 -0.006875
0.0077499999 -0.0024683545 -0.0077499999
-0.0066249999 -0.0015822785 -0.00075000001
0.00050000002 -0.0049999999 -0.001125
-0.0078750001 0.0037341772 -0.0076250001
-0.001875 -0.0017088607 -0.0078750001
0.0040000002 -0.0032278481 -0.00075000001
0.0033750001 -0.0014556962 -0.0078750001
0.00575 0.00094936707 -0.0078750001
0.001875 -0.0049999999 -0.0047499998
0.007375 -0.0020886075 -0.00075000001
-0.00275 -0.0012025316 -0.00062499999
0.001875 0.0049999999 -0.0042500002
-0.0078750001 0.0041139242 -0.0040000002
0.003125 0.0028481013 -0.00075000001
-0.0066249999 -0.0049999999 -0.0070000002
-0.00125 -0.0049999999 -0.0070000002
-0.0048750001 0.0020886075 -0.00062499999
-0.006875 -0.0024683545 -0.0078750001
-0.0047499998 0.0031012658 -0.00062499999
-0.0070000002 0.0019620254 -0.00075000001
-0.0052499999 0.0049999999 -0.0046250001
0.0055 0.0049999999 -0.0055
0.00087500003 -0.0049999999 -0.0021250001
0.0076250001 -0.0033544304 -0.0077499999
0.0055 0.0049999999 -0.0070000002
0.001875 -0.001329114 -0.00062499999
-0.0022499999 -0.0049999999 -0.00575
0.0076250001 -0.0003164557 -0.00575
-0.0078750001 0.0047468352 -0.00125
-0.0035000001 -0.0010759494 -0.00075000001
0.007375 0.0048734178 -0.0021250001
0.0067500002 0.0025949366 -0.0078750001
-0.0078750001 -0.0037341772 -0.001
-0.0080000004 -0.00094936707 -0.0040000002
-0.001875 -0.001329114 -0.00062499999
-0.0048750001 -0.0041139242 -0.0078750001
-0.0062500001 -0.0038607595 0.00075000001
-0.000375 0.0049999999 -0.0070000002
-0.00050000002 0.0019620254 -0.0078750001
-0.00075000001 0.0049999999 -0.0047499998
-0.0077499999 -0.0003164557 -0.00075000001
0.0015 0.0049999999 -0.0051250001
0.0078750001 -0.0042405063 -0.0065000001
0.0078750001 0.0020886075 -0.0065000001
-0.0048750001 0.0018354431 -0.00075000001
0.004375 0.0049999999 -0.004375
-0.00575 -0.0033544304 -0.0078750001
0.0058749998 -0.0049999999 -0.003125
0.0056250002 -0.0038607595 -0.00062499999
0.0063749999 0.0046202531 -0.00075000001
0.0063749999 0.0049999999 -0.0074999998
0.001125 -0.002721519 -0.0078750001
0.0055 0.0046202531 -0.000375
-0.0032500001 0.00044303798 -0.0078750001
-0.0015 0.00018987342 -0.0078750001
0.0060000001 -0.0049999999 -0.002625
0.0044999998 -0.0049999999 -0.0023749999
-0.0078750001 0.0039873417 -0.0033750001
0.0078750001 0.0024683545 -0.0067500002
-0.0042500002 0.0049999999 -0.00275
-0.0058749998 0.0012025316 -0.00075000001
-0.0046250001 0.00044303798 -0.00075000001
-0.0070000002 -0.0049999999 -0.0023749999
0.001375 -0.0032278481 -0.00062499999
-0.00062499999 -0.0049999999 -0.00087500003
-0.0021250001 -6.329114e-05 -0.00062499999
0.0042500002 0.002721519 -0.00075000001
-0.0060000001 -0.0043670884 -0.0078750001
0.0020000001 0.0047468352 -0.0077499999
0.0063749999 -0.0034810128 -0.00075000001
0.0078750001 -0.0047468352 -0.0062500001
-0.0052499999 0.0049999999 -0.0023749999
-0.0053750002 -0.0049999999 -0.0070000002
-0.0063749999 -0.00069620251 -0.0078750001
-0.0021250001 0.0049999999 -0.0022499999
0.0040000002 0.0034810128 -0.00075000001
-0.0080000004 -0.00056962023 -0.0066249999
0.0077499999 -0.00056962023 -0.00125
-0.00125 0.0049999999 -0.0021250001
-0.007375 -0.0046202531 -0.0077499999
-0.0056250002 -0.001329114 -0.0078750001
-0.00062499999 0.0023417722 -0.0078750001
0.0061249998 -0.0038607595 0.00062499999
-0.0078750001 -0.004493671 -0.001375
0.0042500002 0.0049999999 -0.001875
-0.00575 -0.0049999999 -0.0077499999
-0.0038749999 0.0049999999 -0.0074999998
0.002875 -0.0041139242 -0.00075000001
0.007125 0.0037341772 -0.0078750001
-0.0053750002 -0.0046202531 -0.00012500001
0.007125 0.0046202531 -0.0062500001
-0.0080000004 0.0028481013 -0.0040000002
0.0072499998 0.0046202531 -0.0055
-0.0080000004 -0.0023417722 -0.0046250001
0.0077499999 0.0036075949 -0.00075000001
0.004125 0.0017088607 -0.0078750001
0.0074999998 0.0042405063 -0.00075000001
0.0065000001 0.0038607595 0.001125
0.00575 0.0049999999 -0.0042500002
0.0062500001 -0.0049999999 -0.00275
-0.0055 -0.0023417722 -0.00062499999
-0.0035000001 -0.0003164557 -0.0078750001
0.0063749999 0.0036075949 -0.00062499999
0.0078750001 -0.00082278479 -0.0070000002
-0.0080000004 0.0028481013 -0.00575
0.0022499999 -0.0049999999 -0.006875
0.0044999998 0.0049999999 -0.0060000001
0.0065000001 0.002721519 -0.00062499999
0.003 -0.0012025316 -0.00062499999
0.0078750001 0.0010759494 -0.0074999998
-0.0070000002 -0.0049999999 -0.0040000002
0.00575 -0.0049999999 -0.0021250001
0.0078750001 0.004493671 -0.0074999998
0.002875 0.0049999999 -0.0053750002
-0.000375 0.0049999999 -0.0067500002
-0.0044999998 0.0049999999 -0.0038749999
-0.0080000004 -0.0024683545 -0.00575
-0.00062499999 -0.0049999999 -0.0072499998
-0.0067500002 0.0049999999 -0.0049999999
0.0015 -0.0049999999 -0.0032500001
-0.002625 0.0049999999 -0.001625
0.0065000001 0.0049999999 -0.0061249998
0.0037499999 -0.0043670884 -0.00062499999
-0.0052499999 0.0049999999 -0.0070000002
-0.0015 -0.0038607595 0.0021250001
0.002625 -0.0034810128 -0.0077499999
0.0042500002 0.0049999999 -0.000375
-0.0080000004 -0.00044303798 -0.00087500003
-0.00062499999 0.004493671 -0.00075000001
0.0061249998 -0.0048734178 -0.0077499999
-0.007375 -0.0049999999 -0.0063749999
0.001625 0.0010759494 -0.0078750001
-0.0078750001 0.0043670884 -0.0035000001
0.0062500001 -0.0049999999 -0.0036249999
-0.001375 -0.0037341772 0.000375
0.0038749999 -0.0049999999 -0.0033750001
-0.0047499998 0.0049999999 -0.0056250002
0.00087500003 0.0003164557 -0.00062499999
-0.007125 -0.0046202531 -0.00075000001
-0.003 0.0049999999 -0.003
-0.0023749999 -0.0031012658 -0.0078750001
0.00275 0.0049999999 -0.0046250001
0.0063749999 0.0049999999 -0.002875
-0.0080000004 0.0024683545 -0.0072499998
-0.00025000001 0.0025949366 -0.00062499999
0.000375 -0.0023417722 -0.00075000001
0.0024999999 0.0049999999 -0.0058749998
-0.00125 0.0031012658 -0.0078750001
-0.00012500001 -0.0049999999 -0.0056250002
-0.0080000004 0.0010759494 -0.0053750002
0.0042500002 -0.0049999999 -0.0067500002
0.00050000002 0.0049999999 -0.0074999998
-0.0017500001 0.0034810128 -0.0078750001
0.0060000001 0.0003164557 -0.0078750001
-0.004375 -0.0049999999 -0.0044999998
-0.0067500002 -0.0042405063 -0.0078750001
0.0017500001 0.0029746837 -0.00075000001
-0.0048750001 0.0049999999 -0.006875
-0.004125 0.0049999999 -0.0048750001
-0.0042500002 -0.0049999999 -0.00275
0.003125 0.0049999999 -0.0020000001
-0.002625 -0.0012025316 -0.0078750001
0.003 -0.0049999999 -0.0058749998
-0.0055 0.0049999999 -0.0058749998
0.0015 -0.0049999999 -0.00087500003
0.0040000002 0.0049999999 -0.00075000001
-0.0080000004 -0.0025949366 -0.0074999998
-0.0051250001 -0.0049999999 -0.006875
-0.003125 0.0042405063 -0.00075000001
-0.0076250001 0.00069620251 -0.00075000001
0.0076250001 6.329114e-05 -0.0067500002
-0.0032500001 0.0033544304 -0.00075000001
0.0056250002 -0.0039873417 -0.00062499999
-0.0080000004 0.0003164557 -0.0049999999
0.0035000001 -0.0049999999 -0.001625
0.001125 0.0049999999 -0.001375
-0.00275 -0.0049999999 -0.004375
0.0078750001 -0.0039873417 -0.0053750002
-0.00075000001 0.0034810128 -0.00075000001
-0.0080000004 -0.0022151899 -0.0060000001
-0.0070000002 -0.0049999999 -0.0053750002
0.0078750001 0.002721519 -0.0038749999
0.0053750002 -0.0049999999 -0.001125
0.001375 -0.0037341772 -0.0078750001
-0.0017500001 0.0037341772 -0.00075000001
-0.0080000004 0.0031012658 -0.0038749999
-0.001125 -0.0049999999 -0.0067500002
0.007375 0.0048734178 -0.001
-0.001875 -0.00056962023 -0.0078750001
-0.001625 0.00044303798 -0.00062499999
0.00075000001 0.0015822785 -0.00062499999
0.0080000004 -0.00082278479 -0.007375
-0.006875 -0.0018354431 -0.00062499999
-0.00125 0.0042405063 -0.0077499999
-0.00275 0.0049999999 -0.001625
-0.0035000001 -0.0017088607 -0.00062499999
0.00025000001 0.0049999999 -0.003125
-0.006875 -0.0038607595 -0.00075000001
-0.004375 0.0049999999 -0.0015
0.0077499999 0.0019620254 -0.0046250001
0.0061249998 -0.0038607595 0.00025000001
0.0078750001 -0.00056962023 -0.007125
0.0078750001 0.0037341772 -0.0072499998
-0.0047499998 -0.0049999999 -0.0048750001
0.0076250001 0.00044303798 -0.00275
-0.0058749998 -0.0003164557 -0.0078750001
-0.0076250001 -0.0019620254 -0.00075000001
0 0.0047468352 -0.00075000001
0.0076250001 0.00094936707 -0.0036249999
-0.003125 -0.00069620251 -0.0078750001
0.0052499999 -0.0025949366 -0.0078750001
0.0040000002 0.0046202531 -0.00025000001
0.0076250001 0.0031012658 -0.00075000001
-0.0047499998 0.0049999999 -0.007375
0.00075000001 -0.0049999999 -0.0062500001
0.00012500001 0.0049999999 -0.0049999999
0.00025000001 0.0019620254 -0.00062499999
0.0055 -0.0049999999 -0.0037499999
-0.0080000004 0.0017088607 -0.0046250001
-0.0062500001 -0.00056962023 -0.0078750001
0.0076250001 -0.00018987342 -0.0024999999
0.0044999998 0.0025949366 -0.0078750001
0.0024999999 -0.0049999999 -0.0062500001
-0.00575 -0.0036075949 -0.00075000001
0.0066249999 -0.0049999999 -0.0065000001
0.003125 -0.0049999999 -0.0061249998
-0.007125 -0.0049999999 -0.0063749999
0.003 0.0049999999 -0.0072499998
-0.0056250002 0.0049999999 -0.00087500003
0.0077499999 0.0014556962 -0.0020000001
0.0024999999 -0.004493671 -0.00075000001
0.0076250001 0.0038607595 -0.00075000001
-0.00087500003 0.0046202531 -0.0077499999
-0.0080000004 -0.0018354431 -0.0022499999
0.0044999998 -0.0049999999 -0.0067500002
0.0022499999 -0.004493671 -0.0077499999
-0.00575 -0.00094936707 -0.00075000001
0 0.0048734178 -0.0077499999
0.0042500002 -0.0043670884 -0.0077499999
0.004125 0.0032278481 -0.0078750001
0.001875 0.0033544304 -0.00075000001
-0.0080000004 0.0032278481 -0.0048750001
0.0032500001 -0.0049999999 -0.0072499998
-0.004375 -0.0049999999 -0.0024999999
-0.0053750002 0.0049999999 -0.0035000001
-0.0044999998 -0.0049999999 -0.0017500001
0.0040000002 0.0049999999 -0.0047499998
-0.0063749999 0.0020886075 -0.0078750001
0.0080000004 -0.0031012658 -0.0038749999
-0.00062499999 0.0049999999 -0.0062500001
-0.001625 -0.0049999999 -0.0021250001
0.0021250001 0.0038607595 -0.0078750001
-0.001 -0.0049999999 -0.0017500001
-0.001375 -0.0048734178 -0.0077499999
-0.0052499999 -0.0003164557 -0.00075000001
-0.0080000004 6.329114e-05 -0.0017500001
0.00075000001 -0.0049999999 -0.00125
0.00075000001 0.0031012658 -0.00075000001
0.001625 0.0019620254 -0.00075000001
0.0076250001 0.00044303798 -0.0060000001
0.0015 -0.0049999999 -0.003125
0.0066249999 0.00018987342 -0.0078750001
0.0023749999 0.0033544304 -0.00075000001
-0.0063749999 -0.0037341772 0.0022499999
0.000375 -0.0049999999 -0.0065000001
0.0078750001 -0.0039873417 -0.0070000002
0.001375 -0.0049999999 -0.0037499999
0.0035000001 -0.0038607595 -0.00075000001
0.0078750001 0.0036075949 -0.0060000001
-0.0049999999 0.0017088607 -0.0078750001
0.007125 0.00094936707 -0.0078750001
0.0024999999 0.0049999999 -0.0044999998
0.000375 -0.004493671 -0.00075000001
0.00087500003 -0.0049999999 -0.001
0.0076250001 0.00018987342 -0.0037499999
0.0078750001 -0.0032278481 -0.001
-0.0072499998 0.0038607595 -0.00075000001
-0.0078750001 -0.0038607595 -0.0036249999
0.0066249999 -0.0033544304 -0.0078750001
-0.0080000004 0.0012025316 -0.0035000001
0.0078750001 0.0033544304 -0.0015
-0.0080000004 0.00044303798 -0.001875
-0.00075000001 6.329114e-05 -0.0078750001
0.004125 -0.0020886075 -0.00062499999
0.0077499999 -0.0038607595 -0.0076250001
0.007125 -0.0046202531 -0.0077499999
0.0061249998 -0.0049999999 -0.0058749998
-0.0055 -0.001329114 -0.00075000001
0.0047499998 -0.0049999999 -0.00062499999
0.002625 0.00056962023 -0.00075000001
0.000375 -0.0038607595 -0.0078750001
-0.001 -0.0049999999 -0.0015
0.0078750001 -0.0046202531 -0.00275
-0.0080000004 0.0003164557 -0.0022499999
-0.0061249998 -0.0049999999 -0.0046250001
0.0022499999 0.0033544304 -0.00075000001
0.00125 0.00044303798 -0.0078750001
-0.0020000001 -0.0049999999 -0.0051250001
-0.001125 -0.0037341772 0.0023749999
0.0056250002 -0.00069620251 -0.00075000001
-0.0080000004 -6.329114e-05 -0.0020000001
-0.00075000001 -0.0049999999 -0.0017500001
0.0078750001 0.0033544304 -0.0048750001
0.0032500001 0.00082278479 -0.0078750001
0.0074999998 -0.0042405063 -0.00075000001
0.0072499998 -0.0048734178 -0.0037499999
-0.0015 -0.0012025316 -0.0078750001
0.001625 0.0049999999 -0.0076250001
-0.003 -0.0018354431 -0.00062499999
-0.0072499998 -0.0049999999 -0.0056250002
-0.00075000001 -0.0037341772 -0.0078750001
-0.0037499999 0.0049999999 -0.003125
0.0078750001 0.0023417722 -0.0060000001
0.002625 0.001329114 -0.0078750001
0.0078750001 -0.0042405063 -0.001125
-0.0066249999 0.0049999999 -0.00125
0.00050000002 0.0023417722 -0.00075000001
-0.0040000002 0.0012025316 -0.00075000001
0.0042500002 0.004493671 -0.00050000002
0.0017500001 0.0015822785 -0.00075000001
-0.0038749999 0.0049999999 -0.003
-0.0062500001 -0.0049999999 -0.0055
-0.0022499999 0.0039873417 -0.00075000001
-0.00062499999 -0.0049999999 -0.0042500002
0.0077499999 0.0043670884 -0.0065000001
0.00275 0.0049999999 -0.001375
0.007375 -0.0048734178 -0.0048750001
0.0078750001 -0.0034810128 -0.004125
-0.006875 0.0015822785 -0.0078750001
0.001625 -0.0049999999 -0.0077499999
0.004375 0.00069620251 -0.0078750001
0.003125 -0.0020886075 -0.00062499999
0.004375 -0.0039873417 -0.00062499999
0.00012500001 -0.0049999999 -0.0044999998
-0.002875 0.0033544304 -0.0078750001
0.0080000004 0.0031012658 -0.004375
0.007125 0.0034810128 -0.00075000001
0.0021250001 0.0049999999 -0.0036249999
-0.0044999998 -0.0031012658 -0.0078750001
-0.0035000001 -0.0014556962 -0.00062499999
0.0063749999 -0.0049999999 -0.0036249999
0.0080000004 0.0024683545 -0.001125
0.0022499999 -0.00056962023 -0.0078750001
0.0076250001 -6.329114e-05 -0.0020000001
-0.0078750001 -0.0047468352 -0.00575
0.0049999999 -0.0046202531 -0.00025000001
0.0063749999 -0.0037341772 0.0015
0.0021250001 0.0049999999 -0.0060000001
0.0078750001 -0.0018354431 -0.0020000001
-0.0047499998 0.004493671 -0.000375
-0.0077499999 -0.00069620251 -0.0077499999
0.003125 0.0049999999 -0.001
-0.00012500001 -0.0049999999 -0.001
-0.0080000004 0.0014556962 -0.0070000002
0.0077499999 0.0034810128 -0.0077499999
0.0021250001 0.0014556962 -0.0078750001
0.0047499998 -0.0049999999 -0.003
-0.003 0.0049999999 -0.001375
0.001875 -0.0049999999 -0.0049999999
0.003 -0.0023417722 -0.00062499999
0.0046250001 0.00094936707 -0.0078750001
-0.0080000004 6.329114e-05 -0.0052499999
0.001375 0.0049999999 -0.00575
-0.0021250001 0.0049999999 -0.004125
-0.002625 -0.0039873417 -0.00075000001
0.0077499999 0.0018354431 -0.00575
0.0061249998 0.0049999999 -0.0022499999
-0.001875 -0.0014556962 -0.0078750001
0.0049999999 -0.0018354431 -0.00062499999
-0.003125 0.0034810128 -0.00075000001
-0.0020000001 -0.0049999999 -0.0047499998
-0.0063749999 0.0017088607 -0.00075000001
0.001125 -0.0049999999 -0.0062500001
0.00575 -0.0049999999 -0.0077499999
-0.0074999998 -0.0003164557 -0.00075000001
0.0037499999 0.0024683545 -0.00075000001
-0.0035000001 0.0049999999 -0.0035000001
0 -0.00069620251 -0.00075000001
0.0074999998 6.329114e-05 -0.0078750001
-0.00125 -0.0049999999 -0.00575
-0.0062500001 -0.0049999999 -0.007125
0.0074999998 -0.0047468352 -0.0037499999
-0.004375 0.00044303798 -0.0078750001
-0.0067500002 -0.0049999999 -0.0070000002
0.0022499999 -0.0049999999 -0.0038749999
0.0080000004 -0.0024683545 -0.0060000001
-0.0053750002 -0.00018987342 -0.00075000001
0.0061249998 0.0049999999 -0.0021250001
0.0017500001 -0.0049999999 -0.00125
0.0078750001 0.0042405063 -0.00575
0.0021250001 0.0049999999 -0.002625
0.0024999999 -0.0049999999 -0.002625
-0.0047499998 -0.004493671 -0.00012500001
0.001625 0.0015822785 -0.00075000001
0.0058749998 -0.0022151899 -0.00075000001
-0.001625 -0.0023417722 -0.0078750001
0.00275 -0.0046202531 -0.0077499999
-0.0077499999 0.0048734178 -0.0036249999
-0.0053750002 -0.00056962023 -0.00075000001
-0.0032500001 -0.0003164557 -0.0078750001
-0.0080000004 -0.0020886075 -0.004375
0.0017500001 0.0038607595 -0.00062499999
-0.0078750001 0.0043670884 -0.0076250001
0.0077499999 0.0018354431 -0.0061249998
0.0055 0.0034810128 -0.0078750001
0.002875 0.0017088607 -0.00062499999
0.0080000004 0.0028481013 -0.0061249998
-0.0080000004 -0.0043670884 -0.004125
-0.0047499998 0.0010759494 -0.0078750001
0.0042500002 -0.0029746837 -0.0078750001
0.0074999998 0.0047468352 -0.0048750001
0.0080000004 0.0024683545 -0.00075000001
0.0053750002 -0.0049999999 -0.0060000001
0.001 0.0037341772 -0.0078750001
-0.003 -0.0042405063 -0.0078750001
-0.000375 0.00018987342 -0.00075000001
0.0063749999 -0.0038607595 0.0024999999
-0.0033750001 0.0049999999 -0.0020000001
-0.00125 0.00082278479 -0.0078750001
-0.0080000004 0.0028481013 -0.001125
0.0077499999 6.329114e-05 -0.001
0.0062500001 -0.0028481013 -0.00075000001
-0.0046250001 -0.0036075949 -0.00062499999
-0.0033750001 -0.0046202531 -0.00075000001
0.0066249999 0.00044303798 -0.0078750001
-0.001875 0.0049999999 -0.0035000001
-0.0037499999 0.00056962023 -0.0078750001
-0.0080000004 -0.0018354431 -0.0074999998
-0.000375 -0.0049999999 -0.0058749998
0.004375 -0.0049999999 -0.007375
0.0080000004 0.0029746837 -0.0061249998
0.002625 -0.0022151899 -0.0078750001
-0.00125 0.0049999999 -0.00075000001
0.006875 0.0046202531 -0.00075000001
0.004375 -0.00018987342 -0.0078750001
-0.0080000004 -0.0014556962 -0.006875
-0.002625 0.0039873417 -0.0077499999
0.001 0.0049999999 -0.0052499999
-0.0053750002 0.0029746837 -0.00062499999
0.0042500002 0.0017088607 -0.0078750001
-0.0047499998 -0.0049999999 -0.003
0.00062499999 0.002721519 -0.00062499999
0.0058749998 -0.0028481013 -0.00062499999
-0.0044999998 0.00082278479 -0.0078750001
-0.0080000004 -0.0014556962 -0.0076250001
-0.0066249999 0.0017088607 -0.00075000001
0.0078750001 0.0020886075 -0.003
-0.0077499999 0.0041139242 -0.0076250001
0.0078750001 0.0020886075 -0.006875
0.0066249999 0.0049999999 -0.0017500001
0.0048750001 0.0049999999 -0.0066249999
-0.0080000004 -0.0034810128 -0.0037499999
-0.003 0.0049999999 -0.0033750001
0.00125 0.0047468352 -0.00075000001
0.0078750001 -0.0015822785 -0.0033750001
0.0033750001 -0.0049999999 -0.0022499999
-0.0047499998 -0.0033544304 -0.0078750001
-0.0051250001 0.0014556962 -0.0078750001
0.0033750001 -0.0049999999 -0.001625
0.0078750001 -0.0038607595 -0.0037499999
-0.0080000004 0.0033544304 -0.00125
0.00575 -0.0049999999 -0.00125
-0.0038749999 -0.0039873417 -0.0078750001
0.0037499999 -0.0049999999 -0.0015
0.001625 -0.0049999999 -0.0047499998
0.006875 0.0048734178 -0.0048750001
-0.0052499999 -0.0038607595 -0.0078750001
-0.0044999998 -0.0049999999 -0.0036249999
0.007375 0.0014556962 -0.00062499999
0.007375 -0.0048734178 -0.0053750002
-0.0067500002 -0.0049999999 -0.0063749999
-0.0061249998 0.00094936707 -0.0078750001
-0.004125 0.0028481013 -0.0078750001
-0.0020000001 -0.00044303798 -0.0078750001
-0.0055 0.00069620251 -0.0078750001
-0.004375 0.0010759494 -0.0078750001
-0.0080000004 0.00044303798 -0.0055
-0.001625 0.00056962023 -0.00062499999
-0.0080000004 0.0010759494 -0.0032500001
-0.0049999999 -0.0049999999 -0.0067500002
0.001 -0.0019620254 -0.00062499999
-0.0022499999 -0.0049999999 -0.003
-0.0080000004 0.0028481013 -0.0051250001
-0.0080000004 0.00069620251 -0.0023749999
-0.0052499999 -0.0036075949 -0.0078750001
-0.003125 -0.001329114 -0.0078750001
-0.0017500001 -0.004493671 -0.0077499999
-0.0080000004 0.0019620254 -0.0060000001
-0.0051250001 -0.0049999999 -0.0067500002
-0.0048750001 0.0049999999 -0.0053750002
-0.004375 -0.0015822785 -0.0078750001
0.0080000004 -0.0023417722 -0.0072499998
-0.00012500001 0.0049999999 -0.0074999998
-0.00575 0.0049999999 -0.00050000002
0.0049999999 0.0049999999 -0.00575
0.0056250002 -0.0049999999 -0.0046250001
-0.0076250001 -0.0049999999 -0.0061249998
0.0061249998 0.0033544304 -0.0078750001
-0.007125 -0.0028481013 -0.0078750001
0.0067500002 -0.0029746837 -0.0078750001
0.0022499999 -0.0049999999 -0.004375
0.0078750001 -0.0039873417 -0.0040000002
-0.0055 -0.0022151899 -0.00062499999
-0.0080000004 6.329114e-05 -0.0067500002
0.0078750001 -0.0033544304 -0.00275
0.0077499999 0.001329114 -0.0049999999
0.0061249998 0.00044303798 -0.00075000001
-0.0038749999 -0.00069620251 -0.0078750001
0.003125 0.0025949366 -0.0078750001
0.0077499999 0.0014556962 -0.0051250001
-0.004125 0.0032278481 -0.00062499999
-0.0077499999 0.0048734178 -0.0033750001
-0.007125 0.00018987342 -0.0078750001
0.0038749999 -0.0033544304 -0.0078750001
0.007375 0.0017088607 -0.00075000001
0.002875 -0.0049999999 -0.0042500002
0.0022499999 0.0049999999 -0.0062500001
0.0053750002 0.0018354431 -0.00062499999
-0.003125 0.002721519 -0.00062499999
0.0070000002 0.0048734178 -0.0015
0.0046250001 -0.0049999999 -0.003125
0.0063749999 0.00018987342 -0.0078750001
0.006875 -0.0048734178 -0.003125
0.0038749999 -0.0049999999 -0.0047499998
0.0062500001 0.0038607595 -0.00012500001
-0.0023749999 0.0037341772 -0.00075000001
0.0033750001 -0.0049999999 -0.00075000001
0.0074999998 0.0047468352 -0.007375
0.0077499999 0.0017088607 -0.0017500001
0.0077499999 -0.0010759494 -0.00275
0.001625 -0.0049999999 -0.001
0.0078750001 -0.0038607595 -0.0021250001
-0.0072499998 0.0017088607 -0.00075000001
-0.001 -0.0020886075 -0.0078750001
0.0035000001 -0.0034810128 -0.00062499999
0.0062500001 -0.0036075949 -0.0078750001
0.001125 0.0049999999 -0.002625
0.0077499999 0.0018354431 -0.0052499999
0.0022499999 0.0003164557 -0.00062499999
0.00575 0.0023417722 -0.00062499999
-0.0080000004 0.0028481013 -0.001
0.0060000001 0.00044303798 -0.00075000001
0.00575 -0.0049999999 -0.0044999998
0.0052499999 0.0049999999 -0.0077499999
-0.0062500001 0.00044303798 -0.0078750001
0.0032500001 0.00094936707 -0.0078750001
-0.0080000004 -0.00056962023 -0.0051250001
0.0072499998 -0.002721519 -0.00075000001
-0.00062499999 -0.001329114 -0.0078750001
0.00275 0.0049999999 -0.001125
-0.0080000004 -0.0018354431 -0.0056250002
0.0055 -0.0015822785 -0.00062499999
-0.0053750002 -0.0043670884 -0.0078750001
0.0072499998 -0.0048734178 -0.0021250001
0.007125 0.0048734178 -0.001375
0.000375 0.0047468352 -0.00075000001
0.0078750001 -0.0037341772 -0.0065000001
-0.0080000004 -0.0025949366 -0.00125
0.0037499999 -0.0036075949 -0.00062499999
0.00075000001 0.002721519 -0.00062499999
-0.004125 -0.0049999999 -0.0062500001
0.000375 0.0049999999 -0.0032500001
-0.0049999999 -0.0049999999 -0.00025000001
-0.00062499999 -0.0032278481 -0.00075000001
-0.0015 -0.001329114 -0.0078750001
0.0023749999 0.0031012658 -0.00075000001
-0.0076250001 0.0049999999 -0.0023749999
-0.0080000004 0.00082278479 -0.003
-0.0033750001 -0.002721519 -0.0078750001
-0.0080000004 -0.0010759494 -0.0046250001
0.0046250001 -0.0049999999 -0.0065000001
-0.002875 6.329114e-05 -0.00075000001
0.0022499999 0.0031012658 -0.0078750001
0.0049999999 0.0023417722 -0.00062499999
0.007375 -0.0025949366 -0.00075000001
0.0055 0.0049999999 -0.0061249998
0.0063749999 0.0037341772 -0.00025000001
0.0078750001 -0.0032278481 -0.00125
0.0076250001 0.00082278479 -0.0021250001
-0.0060000001 -0.0049999999 -0.0061249998
-0.0065000001 0.0049999999 -0.00125
0.0067500002 -0.0020886075 -0.0078750001
0.0061249998 -0.0022151899 -0.00075000001
0.007375 -0.0048734178 -0.007375
-0.0080000004 -0.0029746837 -0.0044999998
0.0078750001 0.0042405063 -0.0053750002
-0.00125 -0.0049999999 -0.0053750002
0.0080000004 -0.002721519 -0.0015
-0.00125 6.329114e-05 -0.00062499999
0.001625 0.0049999999 -0.0067500002
0.0080000004 -0.0019620254 -0.0070000002
0.00050000002 -0.0049999999 -0.0062500001
0.0080000004 -0.0024683545 -0.001
-0.0076250001 -0.0049999999 -0.0072499998
-0.0022499999 -0.0049999999 -0.0056250002
0 -0.00044303798 -0.0078750001
-0.0061249998 0.0049999999 -0.0040000002
-0.0038749999 0.0023417722 -0.0078750001
0.001375 0.0049999999 -0.0021250001
-0.0047499998 -0.0049999999 -0.0042500002
0.006875 -0.0041139242 -0.00075000001
-0.0021250001 0.0049999999 -0.0072499998
-0.0078750001 -0.0047468352 -0.006875
0.0023749999 -0.0049999999 -0.001
0.0065000001 -0.0037341772 0.00275
-0.000375 -0.0019620254 -0.00062499999
0.0060000001 0.0049999999 -0.00062499999
0.0060000001 -0.0036075949 -0.0078750001
-0.00075000001 -0.0049999999 -0.007125
-0.0040000002 -0.0049999999 -0.0021250001
-0.0040000002 -0.0032278481 -0.00075000001
0.0078750001 0.0042405063 -0.00275
0.0035000001 -0.0049999999 -0.001125
-0.003125 -0.0049999999 -0.0074999998
-0.0048750001 -0.0049999999 -0.0070000002
0.0033750001 0.0049999999 -0.0056250002
0.0078750001 0.002721519 -0.002625
-0.0040000002 0.0028481013 -0.00062499999
-0.00075000001 -0.0012025316 -0.00062499999
-0.0055 -0.0049999999 -0.0070000002
0.0038749999 0.0049999999 -0.0044999998
-0.0078750001 -0.0037341772 -0.0021250001
-0.0080000004 -0.0015822785 -0.0061249998
-0.0078750001 0.0041139242 -0.0036249999
-0.00087500003 0.0049999999 -0.00125
-0.0062500001 6.329114e-05 -0.0078750001
-0.00575 -0.0023417722 -0.0078750001
0.00062499999 0.0017088607 -0.0078750001
0.0052499999 0.0048734178 -0.0077499999
0.0065000001 -0.0037341772 0.001875
-0.0080000004 0.0028481013 -0.002625
0.0056250002 -0.0049999999 -0.003125
-0.0080000004 -0.0032278481 -0.0058749998
-0.004125 0.0049999999 -0.0023749999
-0.00575 0.00082278479 -0.00075000001
-0.0078750001 0.0043670884 -0.0020000001
0.007125 -0.0048734178 -0.0047499998
0.003125 -0.0041139242 -0.00075000001
-0.0080000004 -0.00018987342 -0.0070000002
0.0076250001 0.0010759494 -0.0021250001
0.0070000002 0.0014556962 -0.0078750001
0.007375 -0.0048734178 -0.0070000002
0.0015 0.0037341772 -0.00062499999
0.0078750001 -0.0041139242 -0.0067500002
0.0044999998 -0.0015822785 -0.0078750001
-0.0042500002 -0.0046202531 -0.00012500001
-0.003 -0.0033544304 -0.0078750001
-0.0062500001 0.0049999999 -0.0074999998
-0.0063749999 0.0048734178 -0.00075000001
0.0021250001 0.0003164557 -0.0078750001
-0.0065000001 0.0037341772 0.0022499999
0.001125 0.0037341772 -0.0078750001
0.003 -0.0049999999 -0.006875
-0.00025000001 -0.0031012658 -0.00075000001
-0.0037499999 -0.0025949366 -0.0078750001
-0.004125 -0.0049999999 -0.002875
-0.002625 0.0024683545 -0.0078750001
0.006875 0.0049999999 -0.004375
0.0076250001 0.0036075949 -0.00075000001
-0.0062500001 0.0049999999 -0.0035000001
0.0035000001 6.329114e-05 -0.00062499999
0.0076250001 0.0043670884 -0.00075000001
-0.0017500001 0.0014556962 -0.0078750001
0.0023749999 0.0047468352 -0.0077499999
0.0024999999 -0.0017088607 -0.0078750001
0.000375 0.001329114 -0.00062499999
0.0078750001 0.0046202531 -0.00275
-0.0020000001 -0.0049999999 -0.001125
-0.0020000001 -0.0047468352 -0.00075000001
-0.0076250001 0.0049999999 -0.0017500001
-0.0046250001 -0.00056962023 -0.00062499999
0.0074999998 0.0046202531 -0.007125
0.001125 -0.0049999999 -0.0061249998
-0.0038749999 -0.0049999999 -0.0035000001
-0.0072499998 -0.0049999999 -0.00575
-0.0070000002 0.0049999999 -0.00575
-0.0062500001 -0.0038607595 0.0017500001
0.0062500001 -0.0049999999 -0.0032500001
-0.0077499999 -0.0049999999 -0.0060000001
-0.0080000004 0.00094936707 -0.0065000001
-0.0056250002 -0.0049999999 -0.0077499999
0.001 -0.0033544304 -0.0078750001
0.006875 -0.0048734178 -0.00575
