# .PCD v0.7 - Point Cloud Data file format
VERSION 0.7
FIELDS x y z
SIZE 4 4 4
TYPE F F F
COUNT 1 1 1
WIDTH 1155
HEIGHT 1
VIEWPOINT 0 0 0 1 0 0 0
POINTS 1155
DATA ascii
-0.0033759805 -0.0011878163 -0.0050224718
-0.0017593137 0.0027082211 -0.0033033707
0.00080833334 -0.0011878163 -0.00043820226
-0.00042794118 -4.7512651e-05 -0.00053370785
-0.0055632354 -0.00090274034 -0.0037808989
0.004326961 0.0027082211 -0.0025393257
0.00042794118 -0.0019480186 -0.0008202247
-0.0024250001 0.0012828415 -0.00043820226
0.0029955884 0.0025181705 -0.0018707865
-0.0025200981 -0.0026131957 -0.0035898876
-0.0056583332 0.00061766442 -0.0020617978
0.0071799019 -4.7512651e-05 -0.00053370785
0.0018544118 -0.0025181705 -0.0036853934
0.0053730393 -0.0021380691 -0.0024438202
-0.0014740196 0.0024231451 -0.0040674158
-0.00099852937 0.0027082211 -0.0025393257
-0.0018544118 0.0027082211 -0.0035898876
-0.0047073532 -0.00080771506 -0.0052134832
0.0048975493 -0.0024231451 -0.002252809
0.00014264706 0.0025181705 -0.0018707865
-0.0028053923 0.00014253795 -0.00043820226
-0.002329902 0.0023281197 -0.0012022472
-0.0014740196 0.00052263914 -0.0049269665
-0.0021397059 0.0023281197 -0.0012022472
-0.0040416666 0.0024231451 -0.0014887641
4.754902e-05 -0.00042761385 -0.0049269665
0.0018544118 -0.0018529933 -0.0046404493
0.0025200981 -0.00090274034 -0.00043820226
0.0033759805 -0.00080771506 -0.00053370785
0.0055632354 0.00099776569 -0.0018707865
-0.0040416666 -0.0027082211 -0.0021573033
-0.0067044119 4.7512651e-05 -0.0028258427
0.0015691177 0.0015679174 -0.0049269665
-0.0047073532 0.00090274034 -0.000247191
4.754902e-05 0.00023756325 -0.00053370785
-0.0029004903 0.0024231451 -0.0038764046
0.00099852937 -0.0019480186 -0.0046404493
-0.0029004903 -0.0024231451 -0.0038764046
-0.0062289215 0.00071268971 -0.0024438202
0.00099852937 0.0021380691 -0.0011067416
0.0021397059 -0.0027082211 -0.0024438202
-0.0017593137 -0.00080771506 -0.00053370785
-0.0038514705 -0.0021380691 -0.0042584268
-0.0046122549 0.0024231451 -0.0036853934
0.0056583332 -0.00052263914 -0.0020617978
0.0041367649 0.0027082211 -0.0030168539
-0.0048975493 0.00099776569 -0.0050224718
0.0014740196 0.0015679174 -0.0049269665
0.0019495098 -0.0022330945 -0.0012022472
-0.002329902 0.0027082211 -0.0020617978
-0.0028053923 0.00061766442 -0.0049269665
4.754902e-05 0.0025181705 -0.0016797753
-0.0032808825 0.00080771506 -0.00043820226
-0.0015691177 -0.0025181705 -0.0018707865
0.0014740196 0.0013778668 -0.0049269665
0.00090343138 0.0015679174 -0.0049269665
-0.0051828432 0.00023756325 -0.0049269665
0.0055632354 0.0016629427 -0.0023483145
-0.0029955884 -0.002043044 -0.004544944
0.0025200981 0.0025181705 -0.0016797753
0.0028053923 0.0027082211 -0.0033033707
-0.00033284313 0.00090274034 -0.00053370785
-0.0031857844 0.0027082211 -0.0030168539
-0.0018544118 -0.0027082211 -0.0026348315
0.0029004903 0.0011878163 -0.00043820226
0.002329902 -0.0021380691 -0.0042584268
-0.006894608 -4.7512651e-05 -0.0018707865
-0.0010936274 0.0019480186 -0.0008202247
0.0025200981 0.00023756325 -0.0049269665
0.0056583332 -0.00052263914 -0.0032078652
-0.0005230392 -0.0025181705 -0.0018707865
-0.0054681376 -0.00033258853 -0.0040674158
0.0051828432 0.0023281197 -0.001966292
0.0027102942 0.0025181705 -0.0018707865
-0.0010936274 -0.00042761385 -0.00053370785
-0.0036612744 0.001092791 -0.0050224718
0.0017593137 -0.00080771506 -0.00043820226
-0.0014740196 -0.0019480186 -0.00091573031
0.00014264706 0.0024231451 -0.0015842697
-0.0054681376 0.00023756325 -0.0043539326
0.0021397059 0.0027082211 -0.0032078652
0.0028053923 -0.0023281197 -0.0012977528
-0.0056583332 0.00090274034 -0.0033033707
0.0029955884 0.00080771506 -0.0049269665
0.0016642157 0.001757968 -0.0048314608
-0.0041367649 -4.7512651e-05 -0.0052134832
-0.004326961 0.0024231451 -0.0015842697
0.0055632354 0.00033258853 -0.0039719101
-0.00042794118 -0.0025181705 -0.0036853934
0.0014740196 0.0026131957 -0.0034943821
-0.0046122549 0.0026131957 -0.0020617978
-0.00061813724 -0.0012828415 -0.0049269665
-0.0048975493 -0.00071268971 -0.0001516854
-4.754902e-05 -0.00023756325 -0.00053370785
0.0014740196 -0.0025181705 -0.0017752809
0.00080833334 0.0026131957 -0.0020617978
0.0037563725 -0.0024231451 -0.0038764046
-0.006894608 -4.7512651e-05 0.0020449439
0.0067995097 -4.7512651e-05 -0.001966292
-0.00014264706 -0.0027082211 -0.002252809
-4.754902e-05 -0.0019480186 -0.0008202247
0.0053730393 0.00023756325 -0.0046404493
0.0052779415 -4.7512651e-05 -0.00062921346
0.002234804 -0.0012828415 -0.0049269665
-0.00042794118 0.0026131957 -0.0033988764
-0.0012838235 -0.00023756325 -0.00053370785
0.0041367649 0.0021380691 -0.0042584268
4.754902e-05 -0.0012828415 -0.0049269665
-4.754902e-05 0.0024231451 -0.0013932585
-0.0050877454 0.00023756325 -0.0051179775
-0.0018544118 0.0024231451 -0.0015842697
0.00061813724 0.00099776569 -0.00053370785
0.004802451 0.00014253795 -0.0052134832
-0.0070848041 -4.7512651e-05 0.0027134831
-0.0070848041 0.00014253795 0.0016629214
-0.0053730393 -0.0016629427 -0.0039719101
0.0010936274 0.0018529933 -0.0048314608
-0.00061813724 0.0025181705 -0.0016797753
0.0051828432 0.00080771506 -0.0049269665
-0.0002377451 0.0021380691 -0.0011067416
-0.0047073532 0.0013778668 -0.00053370785
-0.0035661766 -0.00061766442 -0.0050224718
-0.0058485293 0.00014253795 -0.0030168539
-0.00080833334 -0.0013778668 -0.00053370785
0.0021397059 -0.00090274034 -0.00053370785
0.0030906864 -0.0024231451 -0.0038764046
-0.0002377451 -0.0027082211 -0.0024438202
0.00061813724 0.0024231451 -0.0014887641
0.0045171571 0.0024231451 -0.0038764046
0.0045171571 -0.0016629427 -0.00062921346
-0.0029955884 0.0025181705 -0.0017752809
-0.00061813724 -0.0027082211 -0.002730337
0.0062289215 -0.00080771506 -0.0029213482
0.0063240197 0.001092791 -0.0028258427
-0.0012838235 0.0026131957 -0.0021573033
0.00080833334 -0.0025181705 -0.0018707865
-0.0055632354 -0.0014728921 -0.0035898876
0.0070848041 0.00014253795 0.0013764045
-0.0055632354 0.0014728921 -0.002252809
0.0025200981 0.0027082211 -0.002252809
-0.00033284313 -0.0018529933 -0.004735955
0.0002377451 0.001092791 -0.00053370785
-0.0038514705 -0.00052263914 -0.0052134832
-0.0034710786 -0.00023756325 -0.0050224718
-0.0048975493 0.0011878163 -0.00053370785
-0.0042318627 -0.001092791 -0.0051179775
0.0045171571 0.0023281197 -0.0013932585
-0.0029955884 0.0021380691 -0.0012022472
0.0053730393 0.0014728921 -0.0015842697
-0.004326961 0.002043044 -0.0044494383
-0.0058485293 -0.00023756325 -0.002252809
-0.006894608 0.00014253795 -0.00062921346
-0.0046122549 -0.0023281197 -0.0039719101
-0.0053730393 0.00071268971 -0.004544944
-0.0016642157 0.00071268971 -0.00043820226
0.0033759805 -0.00033258853 -0.000247191
-0.0013789216 0.0023281197 -0.0012977528
-0.0002377451 -0.00023756325 -0.0049269665
-0.0051828432 -0.001092791 -0.0048314608
-0.0051828432 0.0018529933 -0.0012977528
0.00080833334 -0.0027082211 -0.0031123594
-0.0069897058 0.00023756325 -0.0012022472
0.002234804 0.0024231451 -0.0040674158
-0.0017593137 0.0012828415 -0.00043820226
-0.0055632354 -0.0013778668 -0.0021573033
-0.0034710786 0.00023756325 -0.0052134832
-0.0015691177 -0.0016629427 -0.00062921346
-0.0051828432 -0.00099776569 -0.0048314608
-0.0057534315 -0.0019480186 -0.002730337
-0.00014264706 0.00099776569 -0.00053370785
0.0046122549 -0.0019480186 -0.004544944
0.00080833334 -0.002043044 -0.001011236
0.0046122549 0.0027082211 -0.002730337
-0.00080833334 -0.001757968 -0.00062921346
0.0002377451 -0.002043044 -0.0044494383
0.0034710786 -0.0024231451 -0.0014887641
-0.0033759805 0.002043044 -0.001011236
0.0056583332 -0.00080771506 -0.0032078652
-0.0063240197 0.00080771506 -0.0028258427
0.0042318627 0.0027082211 -0.002252809
0.0039465688 -0.0024231451 -0.0014887641
-0.0052779415 -0.0013778668 -0.0011067416
0.0034710786 -0.0027082211 -0.0028258427
-0.0019495098 0.0027082211 -0.0029213482
0.0024250001 0.0023281197 -0.0012977528
-0.0017593137 0.0027082211 -0.0032078652
0.0013789216 -0.0024231451 -0.0038764046
-0.00042794118 0.00080771506 -0.0049269665
0.0056583332 0.00014253795 -0.0034943821
0.0048975493 0.0026131957 -0.0023483145
-0.0061338237 0.0012828415 -0.0028258427
0.0050877454 -0.0024231451 -0.0030168539
0.00014264706 -0.0025181705 -0.0016797753
0.0025200981 0.002043044 -0.001011236
0.0036612744 -0.00023756325 -0.0052134832
-0.0052779415 -0.0022330945 -0.0033988764
-0.0027102942 -0.002043044 -0.004544944
0.0028053923 4.7512651e-05 -0.0049269665
0.0018544118 0.00014253795 -0.00053370785
4.754902e-05 0.0022330945 -0.0012022472
-0.0053730393 -0.0014728921 -0.0012977528
-0.0056583332 -0.0019480186 -0.0024438202
0.0040416666 0.0019480186 -0.0008202247
0.00099852937 -0.0019480186 -0.004735955
0.0051828432 0.0013778668 -0.0008202247
0.0011887255 0.00061766442 -0.0049269665
0.00042794118 -0.00042761385 -0.0049269665
-0.0047073532 0.0025181705 -0.0018707865
-0.0030906864 -0.0027082211 -0.0023483145
-0.0049926471 0.0024231451 -0.0034943821
-0.0025200981 0.0024231451 -0.0015842697
-0.0026151962 -0.0027082211 -0.0035898876
0.0054681376 -0.001757968 -0.0032078652
-0.0055632354 0.0014728921 -0.0021573033
-0.0053730393 -0.00090274034 -0.0011067416
-0.00071323529 -0.0019480186 -0.0008202247
0.0014740196 0.0014728921 -0.00053370785
0.0032808825 -0.00052263914 -0.000247191
-0.0030906864 0.0027082211 -0.0028258427
-0.004326961 -0.0026131957 -0.0034943821
-0.0038514705 0.00071268971 -0.000247191
-0.0025200981 0.00042761385 -0.00043820226
-0.006894608 0.00033258853 -0.0020617978
0.0033759805 0.00099776569 -0.000247191
-0.0035661766 -0.0027082211 -0.0024438202
-0.0052779415 -0.0014728921 -0.0040674158
0.0042318627 0.0016629427 -0.0048314608
0.0030906864 0.0014728921 -0.00053370785
0.0015691177 0.0016629427 -0.00062921346
-0.0021397059 -0.0024231451 -0.0015842697
-0.0035661766 -0.0027082211 -0.0033988764
-0.0056583332 -0.002043044 -0.002730337
0.0017593137 0.00071268971 -0.0049269665
0.0061338237 0.00071268971 -0.0029213482
0.0056583332 -0.00033258853 -0.0035898876
-0.0038514705 -0.0026131957 -0.0020617978
0.0044220588 0.0027082211 -0.002730337
0.0063240197 -0.00033258853 -0.0029213482
0.0029004903 -0.0019480186 -0.004735955
-0.004326961 -0.00080771506 -0.0001516854
0.0029955884 0.00061766442 -0.000247191
0.0021397059 0.00033258853 -0.00043820226
-0.0029004903 0.0027082211 -0.0020617978
-0.0025200981 -0.0025181705 -0.0018707865
0.0031857844 -0.0027082211 -0.0033033707
0.0067995097 -4.7512651e-05 0.0012808989
0.0005230392 -0.0025181705 -0.0037808989
0.0055632354 -0.0011878163 -0.001966292
0.0040416666 -0.0026131957 -0.0025393257
-0.0010936274 -0.0024231451 -0.0014887641
0.0054681376 0.00023756325 -0.0043539326
0.00080833334 0.00090274034 -0.00053370785
0.0032808825 -0.00099776569 -0.00053370785
-0.0054681376 -0.0011878163 -0.0012977528
-0.0071799019 4.7512651e-05 -0.0014887641
0.0037563725 0.0022330945 -0.0012022472
-0.0005230392 -0.00071268971 -0.00053370785
0.0030906864 0.00033258853 -0.000247191
0.0069897058 -0.00014253795 0.0014719102
0.0054681376 -0.0015679174 -0.0033988764
-0.0041367649 0.0019480186 -0.00091573031
-0.0054681376 0.00099776569 -0.0012022472
0.0031857844 -0.0027082211 -0.0029213482
0.00099852937 0.0023281197 -0.0012977528
0.0035661766 -0.0013778668 -0.0048314608
-0.002329902 0.0022330945 -0.0011067416
-0.0069897058 0.00033258853 -0.0021573033
-0.0014740196 0.0027082211 -0.0030168539
0.002234804 -0.001757968 -0.0046404493
0.0053730393 0.0016629427 -0.0016797753
-0.00080833334 0.0011878163 -0.00053370785
-0.0047073532 0.0026131957 -0.0029213482
-0.0050877454 -0.00080771506 -0.00034269664
-0.0029955884 -0.0026131957 -0.001966292
-0.00014264706 0.0015679174 -0.0049269665
0.0029955884 -4.7512651e-05 -0.0050224718
0.0011887255 0.0027082211 -0.0031123594
0.0019495098 0.002043044 -0.0046404493
0.0012838235 0.0027082211 -0.0029213482
-0.0050877454 0.0023281197 -0.0017752809
0.0065142158 -0.00033258853 -0.0028258427
-0.0042318627 -0.0016629427 -0.00062921346
-0.0050877454 -0.001092791 -0.00053370785
-0.004326961 0.00033258853 -0.0052134832
0.0035661766 -0.0022330945 -0.0041629216
0.0050877454 0.0025181705 -0.0024438202
0.0051828432 0.0021380691 -0.0035898876
0.0054681376 0.00071268971 -0.0043539326
-0.0048975493 0.0022330945 -0.0040674158
0.0039465688 0.0018529933 -0.00072471908
-0.0034710786 -0.0025181705 -0.0036853934
-0.0045171571 0.0013778668 -0.0049269665
-0.0048975493 0.0016629427 -0.00072471908
0.0036612744 -0.00014253795 -0.0001516854
-0.0059436276 -0.00023756325 -0.0029213482
-0.0055632354 -0.00080771506 -0.0016797753
-0.0016642157 0.00042761385 -0.0049269665
-0.0041367649 0.0019480186 -0.0046404493
0.0070848041 0.00014253795 -0.00053370785
0.0033759805 0.00033258853 -0.0052134832
0.0067995097 -4.7512651e-05 0.00080337079
-0.0017593137 -0.00014253795 -0.00043820226
-0.0052779415 -0.001092791 -0.00072471908
-0.0011887255 -0.0027082211 -0.0030168539
0.0002377451 0.00023756325 -0.00053370785
-0.00033284313 0.0024231451 -0.0013932585
-0.0033759805 -0.0015679174 -0.0048314608
0.0051828432 0.0015679174 -0.00091573031
0.0041367649 0.0011878163 -0.00034269664
0.0057534315 -0.00090274034 -0.0030168539
-0.0030906864 0.001092791 -0.0050224718
0.0025200981 -0.0012828415 -0.00043820226
-0.0047073532 0.00052263914 -0.0052134832
0.0044220588 0.0024231451 -0.0037808989
-0.0046122549 0.0012828415 -0.0050224718
-0.004802451 -0.001092791 -0.0050224718
-0.0055632354 -0.001092791 -0.0016797753
-0.00042794118 -0.0027082211 -0.0023483145
0.00099852937 -0.00033258853 -0.0049269665
0.0045171571 0.00014253795 -0.0001516854
-0.0037563725 -0.00090274034 -0.0050224718
-0.0014740196 -0.0025181705 -0.0016797753
-0.00042794118 0.00061766442 -0.00053370785
-0.0014740196 -0.0021380691 -0.0011067416
0.0052779415 0.00071268971 -0.004544944
0.0061338237 -0.0014728921 -0.0025393257
0.0036612744 -0.00071268971 -0.0051179775
-0.0014740196 0.0026131957 -0.0021573033
0.0052779415 0.00052263914 -0.00091573031
0.0020446079 -0.00014253795 -0.0049269665
-0.0020446079 0.0027082211 -0.0028258427
-0.0014740196 0.0027082211 -0.0028258427
0.0056583332 -4.7512651e-05 -0.0034943821
0.0039465688 -0.00090274034 -0.00053370785
0.0035661766 -0.00071268971 -0.00034269664
-0.0054681376 0.00099776569 -0.0015842697
-0.00033284313 -0.0022330945 -0.0042584268
0.0058485293 0.0012828415 -0.0024438202
-0.0002377451 0.0013778668 -0.0049269665
-0.0053730393 -0.0018529933 -0.0035898876
-0.0020446079 -0.0022330945 -0.0011067416
0.0070848041 0.00014253795 0.0015674158
0.0021397059 0.002043044 -0.001011236
-0.002329902 -0.0016629427 -0.00062921346
-0.0055632354 -0.0014728921 -0.0033988764
0.0010936274 -0.00014253795 -0.00053370785
0.00090343138 -0.0011878163 -0.0049269665
-0.006894608 4.7512651e-05 0.00042134832
-0.00061813724 0.0026131957 -0.002252809
-0.00071323529 0.0024231451 -0.0013932585
-0.0032808825 -4.7512651e-05 -0.000247191
0.0017593137 0.002043044 -0.0044494383
-0.0029004903 -0.002043044 -0.001011236
0.0035661766 0.0019480186 -0.0008202247
0.0055632354 -0.0012828415 -0.0034943821
0.0032808825 0.0026131957 -0.0034943821
0.0012838235 -0.00071268971 -0.00053370785
-0.0019495098 -0.0019480186 -0.0046404493
-0.0037563725 -0.00052263914 -0.0050224718
0.00099852937 0.00052263914 -0.00053370785
0.0020446079 0.0022330945 -0.0012022472
-0.0015691177 -0.0011878163 -0.00053370785
-0.0051828432 -0.0013778668 -0.0046404493
-0.00099852937 -0.002043044 -0.001011236
-0.00042794118 -0.0011878163 -0.00043820226
-0.0013789216 0.0027082211 -0.0030168539
-0.00099852937 0.0027082211 -0.0029213482
0.0053730393 -0.0014728921 -0.0035898876
0.0047073532 -0.00042761385 -0.0001516854
0.0053730393 0.0022330945 -0.0029213482
0.0031857844 0.0024231451 -0.0015842697
0.0069897058 -0.00033258853 -0.0015842697
0.0021397059 0.00099776569 -0.0049269665
-0.0035661766 -0.0026131957 -0.001966292
-0.0002377451 -0.0018529933 -0.0048314608
0.006894608 4.7512651e-05 0.0019494382
0.0037563725 0.0027082211 -0.002730337
0.0035661766 0.0023281197 -0.0041629216
0.0055632354 -0.00099776569 -0.0032078652
-0.00042794118 0.00033258853 -0.00053370785
0.00080833334 -0.00023756325 -0.00043820226
-0.0054681376 0.00033258853 -0.0042584268
0.0005230392 0.0021380691 -0.0011067416
0.0029955884 -0.00033258853 -0.0049269665
0.00090343138 0.00052263914 -0.0049269665
0.00090343138 0.00061766442 -0.0049269665
-0.0048975493 -0.0024231451 -0.0035898876
0.0025200981 -0.0027082211 -0.0025393257
0.0054681376 -0.00071268971 -0.0042584268
0.0039465688 -0.0026131957 -0.0033033707
0.0015691177 0.0016629427 -0.0049269665
-0.0037563725 -0.0018529933 -0.00072471908
-0.0039465688 0.00061766442 -0.0050224718
-0.0017593137 0.0013778668 -0.0050224718
0.0057534315 0.0018529933 -0.0026348315
0.0021397059 0.0012828415 -0.0049269665
-0.0012838235 -0.00080771506 -0.0049269665
0.0040416666 0.0021380691 -0.0042584268
-0.0038514705 -0.0012828415 -0.00043820226
0.0028053923 0.0023281197 -0.0012977528
0.0060387254 -0.00061766442 -0.0029213482
-0.0010936274 0.00014253795 -0.0049269665
-0.0020446079 0.0024231451 -0.0014887641
-0.0036612744 -0.00042761385 -0.0050224718
-0.00033284313 -0.0024231451 -0.0041629216
4.754902e-05 0.00099776569 -0.0049269665
0.0014740196 0.0019480186 -0.00091573031
0.0016642157 0.0011878163 -0.00053370785
-0.00033284313 -0.00033258853 -0.0049269665
0.0021397059 -0.00014253795 -0.00053370785
-0.0042318627 -0.0027082211 -0.0024438202
0.0054681376 -0.00071268971 -0.0012022472
-0.0051828432 -0.00071268971 -0.00043820226
-0.0036612744 -0.00071268971 -0.0052134832
0.0056583332 -0.00071268971 -0.001966292
0.0037563725 -0.001092791 -0.000247191
-0.0040416666 0.0026131957 -0.0033988764
-0.0059436276 -0.0011878163 -0.0029213482
0.0056583332 0.0013778668 -0.0032078652
-0.0032808825 0.001757968 -0.00062921346
-0.00099852937 -0.00071268971 -0.0049269665
0.0029955884 0.0027082211 -0.0026348315
-0.0051828432 0.0022330945 -0.0035898876
0.0070848041 0.00023756325 -0.00043820226
0.00090343138 0.0027082211 -0.0024438202
-0.0035661766 0.0024231451 -0.0039719101
0.0016642157 -0.0022330945 -0.0041629216
-0.0050877454 -0.002043044 -0.0012977528
-0.0050877454 0.0012828415 -0.00062921346
-0.0053730393 -0.0019480186 -0.001966292
-0.0042318627 -0.0018529933 -0.0046404493
-0.0039465688 0.0023281197 -0.0040674158
0.00090343138 -0.0023281197 -0.0012022472
0.0021397059 0.0016629427 -0.0048314608
0.0059436276 0.00023756325 -0.0029213482
-0.0052779415 0.002043044 -0.002252809
0.0021397059 0.0015679174 -0.0049269665
-0.0002377451 -4.7512651e-05 -0.0049269665
0.0053730393 -0.0018529933 -0.0018707865
0.00061813724 -0.00033258853 -0.0049269665
0.0070848041 -0.00014253795 0.00080337079
0.0033759805 0.00042761385 -0.0001516854
0.0012838235 -0.0012828415 -0.0049269665
0.00080833334 0.0025181705 -0.0035898876
-0.0048975493 -0.00052263914 -0.0001516854
-0.0050877454 0.0013778668 -0.00062921346
0.004326961 0.0027082211 -0.0031123594
-0.0002377451 0.0027082211 -0.0030168539
-0.0056583332 -0.002043044 -0.0025393257
0.004326961 -0.00071268971 -0.0051179775
0.0050877454 -0.0018529933 -0.001011236
-0.0045171571 -0.00071268971 -0.0001516854
-0.0044220588 0.0011878163 -0.00053370785
0.002329902 0.002043044 -0.004544944
0.00033284313 0.0024231451 -0.0040674158
-0.0033759805 0.0019480186 -0.004544944
0.0055632354 0.00033258853 -0.0038764046
0.0053730393 -0.001092791 -0.0011067416
0.0048975493 0.0026131957 -0.0029213482
-0.004326961 0.00052263914 -0.0052134832
-0.0020446079 0.0019480186 -0.0046404493
-0.002234804 0.0019480186 -0.0046404493
-0.0054681376 0.00052263914 -0.0012977528
0.0049926471 -0.0023281197 -0.0037808989
-0.00033284313 0.0011878163 -0.0049269665
-4.754902e-05 -0.0012828415 -0.00043820226
-0.0025200981 0.0027082211 -0.0032078652
-0.0051828432 -0.0024231451 -0.0023483145
-0.0045171571 -0.00014253795 -0.0052134832
0.0069897058 0.00014253795 0.0008988764
0.0029004903 -0.0026131957 -0.0034943821
0.0034710786 -0.0026131957 -0.0033033707
0.00061813724 0.0015679174 -0.0049269665
-0.0028053923 0.0014728921 -0.0049269665
0.0040416666 0.0025181705 -0.0017752809
0.0042318627 0.0011878163 -0.0050224718
0.006894608 -4.7512651e-05 -0.002730337
-0.0024250001 0.0024231451 -0.0039719101
0.0044220588 -0.00033258853 -0.0052134832
-0.0037563725 0.0016629427 -0.004735955
0.0017593137 -0.0019480186 -0.00091573031
0.0044220588 0.00071268971 -0.0052134832
-0.0059436276 0.00033258853 -0.0024438202
0.0032808825 0.0021380691 -0.0043539326
0.0053730393 -0.001757968 -0.0017752809
-0.0013789216 -0.001092791 -0.00053370785
0.0045171571 -0.00052263914 -0.0001516854
-0.0050877454 -0.0025181705 -0.0030168539
-0.00071323529 -0.0027082211 -0.0025393257
-4.754902e-05 -0.002043044 -0.0044494383
-0.0044220588 0.0025181705 -0.0036853934
0.0027102942 -0.0015679174 -0.00062921346
0.002329902 -0.0019480186 -0.0008202247
-0.0024250001 -0.0011878163 -0.00053370785
0.0033759805 0.0021380691 -0.0043539326
0.0013789216 0.00099776569 -0.00053370785
-0.0005230392 0.0027082211 -0.0030168539
-0.0033759805 -0.0016629427 -0.0048314608
-0.0032808825 -0.00061766442 -0.000247191
0.0042318627 -0.001757968 -0.0046404493
-0.0044220588 0.0026131957 -0.0033988764
0.0051828432 0.0022330945 -0.0037808989
0.0056583332 4.7512651e-05 -0.0034943821
0.0060387254 -0.0012828415 -0.0029213482
0.0038514705 -0.0026131957 -0.0032078652
-0.00099852937 0.0026131957 -0.0020617978
0.0055632354 -0.0011878163 -0.0020617978
0.0015691177 -0.0026131957 -0.001966292
0.0027102942 0.00090274034 -0.00043820226
0.0045171571 0.0026131957 -0.0020617978
-0.00099852937 -0.0027082211 -0.002730337
-0.00099852937 0.00080771506 -0.00053370785
0.0030906864 -0.0014728921 -0.0048314608
0.0067995097 -4.7512651e-05 -0.0016797753
-0.0050877454 0.001092791 -0.0049269665
0.0017593137 0.0015679174 -0.0049269665
-0.00090343138 0.0024231451 -0.0041629216
-0.0017593137 0.00014253795 -0.00053370785
0.0029955884 0.00080771506 -0.00034269664
-0.0013789216 0.00023756325 -0.00043820226
0.0035661766 0.00071268971 -0.0050224718
0.0069897058 -0.00042761385 -0.001966292
0.0071799019 -4.7512651e-05 0.0020449439
-0.0032808825 -0.0014728921 -0.00053370785
-0.0069897058 -0.00023756325 -0.0025393257
0.0038514705 0.0025181705 -0.0016797753
-0.0013789216 0.0024231451 -0.0041629216
0.0005230392 -0.00090274034 -0.00043820226
0.0032808825 0.0014728921 -0.0049269665
-4.754902e-05 0.0011878163 -0.00043820226
0.0024250001 -0.0013778668 -0.0048314608
-0.0002377451 -0.00080771506 -0.00053370785
-0.0061338237 -0.0013778668 -0.0024438202
0.0052779415 0.0016629427 -0.0040674158
0.0002377451 0.00080771506 -0.0049269665
0.0024250001 -0.0026131957 -0.001966292
-0.002329902 -0.00061766442 -0.00043820226
0.002234804 0.0014728921 -0.0048314608
-0.0053730393 0.0019480186 -0.0032078652
0.0034710786 -0.0022330945 -0.0041629216
-0.0050877454 0.0015679174 -0.004544944
0.0021397059 0.00080771506 -0.00043820226
0.0019495098 0.00023756325 -0.00053370785
0.0057534315 -0.00014253795 -0.0032078652
-0.00090343138 -0.0025181705 -0.0018707865
-0.0046122549 0.001092791 -0.0050224718
-0.0047073532 -0.001757968 -0.0046404493
-0.0015691177 0.0019480186 -0.0046404493
-0.0029004903 -0.0027082211 -0.0032078652
-0.006894608 -0.00023756325 -0.002730337
-0.0055632354 -0.00052263914 -0.0014887641
-0.004802451 -0.0026131957 -0.0030168539
0.0028053923 0.0012828415 -0.00043820226
0.0044220588 -0.0021380691 -0.0040674158
-0.004326961 -0.0027082211 -0.0021573033
-0.0050877454 -0.0023281197 -0.0036853934
0.006894608 0.00014253795 0.0015674158
-0.0050877454 -0.0018529933 -0.001011236
-0.0019495098 0.00071268971 -0.0050224718
0.0060387254 -0.00071268971 -0.0029213482
0.0057534315 -0.00023756325 -0.0020617978
0.00099852937 -0.0025181705 -0.0018707865
-0.0047073532 -0.0014728921 -0.0048314608
0.0052779415 0.00023756325 -0.004735955
0.0035661766 -0.0025181705 -0.001966292
-0.0048975493 0.0026131957 -0.002252809
0.0026151962 0.001757968 -0.00062921346
0.0010936274 -0.0012828415 -0.00043820226
-0.0011887255 0.0014728921 -0.0049269665
0.0048975493 0.0019480186 -0.001011236
0.0052779415 -0.001757968 -0.0016797753
-0.0044220588 -0.0018529933 -0.0008202247
-0.0025200981 -0.00033258853 -0.0049269665
-0.0025200981 -0.0015679174 -0.0048314608
-0.0017593137 0.0027082211 -0.0020617978
0.0015691177 0.00014253795 -0.00043820226
0.0050877454 -0.00090274034 -0.00053370785
0.0024250001 0.00042761385 -0.0049269665
-0.0019495098 0.0027082211 -0.002730337
0.00014264706 0.0025181705 -0.0037808989
-0.0013789216 0.0027082211 -0.0031123594
-0.0069897058 0.00023756325 -0.0011067416
0.0052779415 0.00099776569 -0.0046404493
0.0058485293 -4.7512651e-05 -0.0030168539
0.006894608 4.7512651e-05 0.00070786517
0.0070848041 0.00023756325 -0.0020617978
-0.0067995097 -4.7512651e-05 0.0024269663
0.0024250001 0.0026131957 -0.001966292
-0.0038514705 -0.0027082211 -0.0033033707
-0.0065142158 -0.00014253795 -0.0025393257
0.0017593137 -0.0027082211 -0.0029213482
-0.0028053923 -0.0023281197 -0.0012977528
-0.00033284313 0.0021380691 -0.0043539326
0.0014740196 0.0027082211 -0.002730337
-0.0005230392 0.0023281197 -0.0042584268
0.002329902 0.00080771506 -0.0049269665
-0.0025200981 -0.0015679174 -0.00062921346
0.00080833334 -0.001092791 -0.0049269665
0.0037563725 0.0024231451 -0.0040674158
0.0056583332 0.00061766442 -0.0020617978
-0.0035661766 0.00033258853 -0.0052134832
0.0031857844 -0.0027082211 -0.0030168539
-0.0040416666 0.00071268971 -0.0050224718
-0.0057534315 -0.00071268971 -0.0031123594
-0.0005230392 -0.0014728921 -0.00053370785
0.0047073532 0.0026131957 -0.0030168539
0.00033284313 0.0015679174 -0.00053370785
-0.0024250001 -0.0024231451 -0.0013932585
0.0032808825 0.0023281197 -0.0013932585
0.0020446079 -0.0027082211 -0.0025393257
0.0027102942 -0.0019480186 -0.00072471908
0.0037563725 0.0025181705 -0.0035898876
-0.0065142158 -0.00080771506 -0.002730337
0.0057534315 -0.00090274034 -0.002252809
-0.0055632354 4.7512651e-05 -0.0038764046
0.0056583332 -0.00023756325 -0.0033988764
0.0016642157 -0.0019480186 -0.00072471908
0.0025200981 -0.0025181705 -0.0036853934
-0.0010936274 -0.0019480186 -0.0046404493
0.0039465688 -0.0025181705 -0.0036853934
0.00071323529 -0.00052263914 -0.00043820226
0.00033284313 4.7512651e-05 -0.0049269665
0.0053730393 -0.00080771506 -0.0011067416
-0.00080833334 0.00071268971 -0.00043820226
0.0055632354 -0.001092791 -0.0033033707
0.0052779415 0.00071268971 -0.00091573031
0.0049926471 -0.0013778668 -0.00062921346
0.0045171571 0.0013778668 -0.0049269665
0.0067995097 -0.00052263914 -0.002730337
-0.0011887255 -0.0026131957 -0.0034943821
-0.0025200981 -0.0024231451 -0.0015842697
-0.0050877454 -0.00052263914 -0.0051179775
0.00042794118 -0.001757968 -0.00062921346
-0.0024250001 -0.0027082211 -0.0033033707
0.0044220588 -0.0011878163 -0.0049269665
0.0057534315 0.00080771506 -0.0033033707
-0.0045171571 0.00099776569 -0.00043820226
0.004326961 -0.0011878163 -0.0049269665
-0.002234804 -0.00042761385 -0.0049269665
-0.0050877454 0.00061766442 -0.0050224718
-0.0041367649 -0.00042761385 -0.005308989
0.0069897058 -0.00023756325 -0.0001516854
-0.004326961 0.00090274034 -0.0050224718
-0.00090343138 0.0016629427 -0.00062921346
-0.0040416666 0.0019480186 -0.0008202247
-0.0046122549 0.00090274034 -0.00034269664
-0.0020446079 0.0011878163 -0.00053370785
0.0045171571 0.002043044 -0.0043539326
-0.0057534315 0.00080771506 -0.0023483145
-0.0012838235 -0.0026131957 -0.0021573033
-0.006894608 4.7512651e-05 -0.00062921346
0.006894608 0.00014253795 0.001758427
0.0019495098 0.0025181705 -0.0038764046
0.0021397059 4.7512651e-05 -0.00053370785
0.0021397059 -0.0027082211 -0.0025393257
4.754902e-05 0.002043044 -0.004544944
0.0048975493 0.0026131957 -0.002252809
0.0018544118 0.001757968 -0.00062921346
-0.0045171571 -0.00023756325 -0.0001516854
-0.0031857844 0.0021380691 -0.0042584268
0.0050877454 -0.00071268971 -0.0050224718
0.0067995097 0.00014253795 -0.001966292
0.0020446079 0.00014253795 -0.00053370785
0.0042318627 -0.0026131957 -0.0032078652
0.0056583332 0.0018529933 -0.0028258427
-0.0015691177 4.7512651e-05 -0.00043820226
0.0018544118 -0.0011878163 -0.00043820226
0.0050877454 0.0023281197 -0.0015842697
0.0026151962 -0.0018529933 -0.00072471908
-0.0027102942 0.0011878163 -0.00053370785
-0.0061338237 -4.7512651e-05 -0.0024438202
-0.0002377451 -0.0023281197 -0.0042584268
-4.754902e-05 -0.0016629427 -0.00062921346
-0.0030906864 -0.00033258853 -0.000247191
-0.0027102942 0.0013778668 -0.0050224718
-0.0053730393 -0.0013778668 -0.0038764046
0.0057534315 -0.00052263914 -0.0030168539
-0.0032808825 0.00033258853 -0.0050224718
0.0040416666 0.0027082211 -0.002730337
0.0011887255 0.0014728921 -0.00053370785
0.0041367649 0.0012828415 -0.00043820226
-0.0050877454 -0.00090274034 -0.00043820226
-0.0039465688 -0.00061766442 -0.0052134832
-0.004326961 0.0013778668 -0.00053370785
-0.0014740196 0.0025181705 -0.0018707865
-0.0052779415 -0.002043044 -0.0036853934
-0.0015691177 0.0027082211 -0.0021573033
-0.0040416666 0.002043044 -0.0044494383
-0.0045171571 -0.0024231451 -0.0014887641
0.0049926471 -0.0011878163 -0.00053370785
0.0053730393 -0.00061766442 -0.00091573031
0.0055632354 0.001092791 -0.0033988764
-0.0057534315 -0.0019480186 -0.0024438202
0.0067995097 -4.7512651e-05 0.00099438208
-0.0054681376 -0.00071268971 -0.0040674158
0.0013789216 -0.001757968 -0.00062921346
0.00099852937 -0.0015679174 -0.00062921346
0.0036612744 -0.0021380691 -0.0042584268
0.002329902 0.002043044 -0.0046404493
0.0053730393 -0.0018529933 -0.0017752809
-0.0053730393 -0.00033258853 -0.0046404493
0.0063240197 -0.00014253795 -0.0029213482
-0.00099852937 0.002043044 -0.0044494383
-0.0053730393 0.0015679174 -0.0015842697
0.0050877454 0.001757968 -0.00091573031
-0.0054681376 0.00023756325 -0.0041629216
0.0047073532 0.0025181705 -0.0017752809
0.0051828432 0.0013778668 -0.00091573031
-0.0012838235 -0.0011878163 -0.0049269665
-0.004802451 0.00033258853 -0.0001516854
0.0041367649 -0.0024231451 -0.0036853934
0.00099852937 -0.0013778668 -0.0049269665
0.0012838235 0.00042761385 -0.00053370785
-0.00042794118 0.00099776569 -0.00053370785
-0.0030906864 0.0015679174 -0.00053370785
0.0025200981 0.0026131957 -0.001966292
-0.0016642157 -0.001757968 -0.00062921346
-0.0002377451 0.0026131957 -0.0033033707
0.0012838235 -0.001092791 -0.00053370785
-0.0050877454 0.00052263914 -0.00043820226
-0.00061813724 -0.0024231451 -0.0013932585
0.0013789216 -0.00014253795 -0.00043820226
-0.0026151962 0.0024231451 -0.0014887641
-0.0058485293 -0.00071268971 -0.0023483145
0.0048975493 0.00071268971 -0.0001516854
-0.0053730393 -0.00099776569 -0.0042584268
0.0019495098 -0.001757968 -0.0048314608
0.0019495098 0.001757968 -0.0048314608
0.0062289215 -0.00033258853 -0.0029213482
0.002234804 -0.0021380691 -0.0011067416
0.0054681376 0.00090274034 -0.0015842697
0.0047073532 0.00042761385 -0.0001516854
0.0048975493 0.00052263914 -0.0001516854
-0.0038514705 -4.7512651e-05 -0.0052134832
-0.0039465688 0.00080771506 -0.0050224718
-0.0019495098 -0.0024231451 -0.0015842697
0.0018544118 0.0014728921 -0.0049269665
0.0042318627 4.7512651e-05 -0.0052134832
0.0038514705 0.0027082211 -0.0028258427
-0.0040416666 0.0016629427 -0.004735955
0.0036612744 0.0019480186 -0.004544944
0.0051828432 0.00061766442 -0.00053370785
-0.0041367649 -0.0016629427 -0.0048314608
0.0044220588 0.0024231451 -0.0038764046
-0.0070848041 -4.7512651e-05 0.0018539326
0.0012838235 -0.0026131957 -0.0033988764
-0.0052779415 -0.001092791 -0.00062921346
-0.0028053923 0.0011878163 -0.00043820226
0.0056583332 -0.00061766442 -0.0033033707
-0.0048975493 -0.0019480186 -0.0044494383
0.0013789216 -0.0027082211 -0.002730337
0.0051828432 -0.0011878163 -0.00072471908
-0.0046122549 0.002043044 -0.0011067416
0.0005230392 0.0023281197 -0.0012022472
0.0029955884 -0.001092791 -0.0050224718
-0.0033759805 0.00014253795 -0.0051179775
-0.0029955884 0.0024231451 -0.0040674158
0.0014740196 0.002043044 -0.001011236
-0.00033284313 0.0015679174 -0.0049269665
0.0011887255 -0.0019480186 -0.004735955
-0.00080833334 0.0027082211 -0.0031123594
-0.0034710786 0.0027082211 -0.002730337
0.0047073532 0.00033258853 -0.0052134832
-0.0027102942 0.002043044 -0.0044494383
0.0036612744 -0.0026131957 -0.0020617978
0.00014264706 -0.0015679174 -0.0049269665
-0.0067995097 -4.7512651e-05 0.0015674158
-0.006894608 -0.00014253795 0.0019494382
-0.0015691177 0.0027082211 -0.0035898876
0.00080833334 -0.0026131957 -0.0034943821
-0.0036612744 -0.00042761385 -0.0051179775
-0.0021397059 0.0025181705 -0.0037808989
0.0025200981 -0.002043044 -0.0044494383
0.00033284313 -0.0026131957 -0.0033988764
-0.0044220588 -0.00061766442 -0.0001516854
-0.0034710786 -0.0012828415 -0.00053370785
0.0012838235 0.0011878163 -0.00053370785
-0.0029955884 0.0027082211 -0.0026348315
0.0021397059 -0.0023281197 -0.0012977528
0.0012838235 0.0012828415 -0.0049269665
-0.0061338237 0.00061766442 -0.0029213482
0.0033759805 -0.0022330945 -0.0012022472
0.00080833334 0.0025181705 -0.0038764046
0.0030906864 -0.0019480186 -0.00072471908
-0.006894608 -0.00014253795 0.00099438208
0.0053730393 0.001757968 -0.0020617978
0.0069897058 0.00033258853 -0.00091573031
-0.0069897058 0.00014253795 0.0026179776
-0.00071323529 0.001092791 -0.0049269665
-0.0018544118 -0.0025181705 -0.0016797753
0.0013789216 0.0012828415 -0.00053370785
-0.0030906864 0.0025181705 -0.0036853934
-0.00042794118 -0.00071268971 -0.00053370785
-0.0036612744 -0.00099776569 -0.0050224718
-0.00033284313 -0.0014728921 -0.0049269665
0.0013789216 -0.00071268971 -0.00053370785
0.0056583332 0.00071268971 -0.0034943821
0.0032808825 -0.0027082211 -0.0025393257
-0.0044220588 0.00014253795 -0.0052134832
0.0052779415 -0.0022330945 -0.0033988764
-0.0055632354 0.0018529933 -0.0029213482
-0.0034710786 -4.7512651e-05 -0.0001516854
0.00099852937 -0.0022330945 -0.0042584268
-0.0053730393 -0.0015679174 -0.0015842697
0.0020446079 0.0027082211 -0.0025393257
0.002234804 0.00099776569 -0.0049269665
-0.0038514705 0.00080771506 -0.0050224718
0.004326961 0.0023281197 -0.0040674158
-0.0016642157 0.0023281197 -0.0012022472
-0.002329902 -0.001092791 -0.00053370785
-0.0018544118 -0.001757968 -0.00062921346
0.0040416666 -0.00080771506 -0.00043820226
-0.0005230392 -0.001757968 -0.00062921346
0.0029955884 -0.0026131957 -0.0035898876
-0.0016642157 -0.00099776569 -0.00053370785
-0.0011887255 -0.0025181705 -0.0036853934
0.0051828432 -0.0021380691 -0.0033033707
-0.0057534315 -0.00090274034 -0.0032078652
0.0052779415 -0.0022330945 -0.001966292
0.0033759805 0.00014253795 -0.0051179775
0.0048975493 -0.0024231451 -0.0018707865
0.0011887255 -0.00052263914 -0.00053370785
-0.0021397059 -0.0012828415 -0.00053370785
-0.0051828432 -0.00033258853 -0.00043820226
-0.0052779415 -0.0021380691 -0.0021573033
-0.0020446079 -0.00080771506 -0.0049269665
-0.0059436276 -0.00071268971 -0.0023483145
-0.0039465688 -0.0024231451 -0.0014887641
0.0051828432 0.00071268971 -0.004735955
0.0027102942 -0.0024231451 -0.0014887641
0.0065142158 -0.00014253795 -0.0029213482
0.0030906864 -0.0027082211 -0.0030168539
0.006894608 -4.7512651e-05 -0.00034269664
-0.0015691177 -0.0019480186 -0.00091573031
-0.0039465688 0.0012828415 -0.00053370785
-0.0052779415 -0.00033258853 -0.0048314608
-0.0020446079 0.0024231451 -0.0039719101
0.0054681376 0.00033258853 -0.0040674158
0.0021397059 0.00061766442 -0.0049269665
-0.0056583332 -0.00033258853 -0.0016797753
-0.0012838235 -0.0027082211 -0.0025393257
-0.0012838235 -4.7512651e-05 -0.00053370785
0.0018544118 0.0015679174 -0.00053370785
0.0052779415 -0.0014728921 -0.0042584268
0.0048975493 -0.0023281197 -0.0036853934
-0.0010936274 -0.0013778668 -0.0049269665
0.0051828432 0.00033258853 -0.00043820226
-0.0018544118 -0.0027082211 -0.0023483145
-0.0038514705 -0.001092791 -0.0050224718
0.0034710786 0.00033258853 -0.0049269665
-0.0052779415 -0.0012828415 -0.0012022472
0.0028053923 0.00090274034 -0.0049269665
0.0012838235 -0.00080771506 -0.0049269665
0.0045171571 -0.0024231451 -0.0016797753
0.0050877454 -0.001757968 -0.004544944
-0.0033759805 0.00061766442 -0.00034269664
0.0059436276 0.00033258853 -0.0023483145
0.0054681376 -0.0013778668 -0.0015842697
0.0055632354 0.00090274034 -0.0036853934
0.0035661766 0.0027082211 -0.0024438202
-0.0038514705 0.00042761385 -0.0052134832
-0.006894608 -4.7512651e-05 -0.000247191
0.00090343138 0.0026131957 -0.0033033707
0.0054681376 0.00099776569 -0.0039719101
-0.0052779415 -0.00099776569 -0.00072471908
-0.0069897058 0.00014253795 0.0019494382
-0.0037563725 -0.0015679174 -0.0048314608
0.0024250001 -0.0027082211 -0.0026348315
0.0037563725 -0.0012828415 -0.0049269665
0.00061813724 -0.0025181705 -0.0036853934
0.00014264706 0.0018529933 -0.0048314608
0.0039465688 -0.00052263914 -0.0051179775
-0.0051828432 -0.0024231451 -0.0031123594
-0.0048975493 -0.0013778668 -0.0049269665
-0.00014264706 -0.0026131957 -0.0033033707
-0.0041367649 0.00014253795 -0.0052134832
0.0057534315 -0.00071268971 -0.002252809
0.0053730393 -0.0016629427 -0.0013932585
-0.0014740196 4.7512651e-05 -0.00043820226
0.0060387254 -0.00099776569 -0.0029213482
-0.0042318627 -0.00023756325 -0.0052134832
-0.0055632354 0.0015679174 -0.0023483145
-0.0002377451 -0.0027082211 -0.0026348315
-0.0019495098 -0.0013778668 -0.0049269665
-0.006894608 -0.00023756325 -0.0020617978
-0.0053730393 -0.0011878163 -0.0012022472
0.0048975493 -0.0024231451 -0.0028258427
0.0059436276 0.0011878163 -0.0029213482
0.00042794118 0.001757968 -0.0048314608
-0.0040416666 0.0016629427 -0.00062921346
-0.0048975493 0.001757968 -0.0046404493
0.0037563725 0.0025181705 -0.0037808989
-0.0051828432 0.00061766442 -0.0049269665
-0.0041367649 -0.00061766442 -0.0051179775
0.004326961 -0.0014728921 -0.00053370785
-0.0021397059 -0.0015679174 -0.00062921346
-0.0037563725 0.0019480186 -0.00091573031
0.0027102942 -0.0011878163 -0.00053370785
-0.0017593137 0.00061766442 -0.00053370785
0.00090343138 -0.0018529933 -0.0048314608
0.0021397059 0.00042761385 -0.00043820226
0.0056583332 -0.00023756325 -0.0016797753
-0.0031857844 -0.0024231451 -0.0038764046
0.004326961 -0.0025181705 -0.0031123594
-0.0052779415 -0.0019480186 -0.0015842697
0.00061813724 0.0016629427 -0.0049269665
-0.0051828432 0.0023281197 -0.0020617978
-0.00090343138 0.00080771506 -0.0049269665
-0.0053730393 -0.00080771506 -0.001011236
-0.0044220588 -0.0014728921 -0.0048314608
-0.0026151962 -0.00080771506 -0.0049269665
0.0005230392 -0.0014728921 -0.00053370785
-0.0002377451 0.00061766442 -0.00053370785
0.0045171571 0.00042761385 -0.0052134832
-0.0054681376 -0.0022330945 -0.0028258427
-0.0039465688 -0.0026131957 -0.001966292
-0.0024250001 0.0024231451 -0.0038764046
-0.0027102942 0.0012828415 -0.00053370785
0.0026151962 -0.0025181705 -0.0037808989
-0.0052779415 -0.0018529933 -0.0015842697
-0.004326961 0.0027082211 -0.0029213482
-0.0029004903 0.0015679174 -0.0048314608
-0.0042318627 -0.0024231451 -0.0014887641
0.0035661766 0.0025181705 -0.0016797753
-0.00080833334 -0.0026131957 -0.0021573033
0.0040416666 -0.0025181705 -0.0017752809
-0.00090343138 0.0024231451 -0.0014887641
0.0069897058 0.00023756325 -0.001011236
-0.0054681376 -4.7512651e-05 -0.0012022472
-0.0018544118 0.0023281197 -0.0042584268
0.0029004903 -0.00033258853 -0.00053370785
0.00090343138 0.0025181705 -0.0035898876
-0.0013789216 0.0012828415 -0.0050224718
-0.0025200981 0.0016629427 -0.004735955
0.0017593137 0.00090274034 -0.00053370785
0.0029004903 0.00080771506 -0.0049269665
-0.006894608 4.7512651e-05 -0.00034269664
-0.0042318627 0.00080771506 -0.0050224718
-0.002234804 0.0013778668 -0.00053370785
0.00071323529 0.0023281197 -0.0012977528
0.0050877454 -0.0023281197 -0.0033033707
0.0040416666 -0.001092791 -0.0050224718
0.00080833334 0.00023756325 -0.0049269665
-0.0016642157 0.001092791 -0.00053370785
0.00061813724 0.00014253795 -0.0049269665
-0.00099852937 -0.00099776569 -0.0049269665
-0.0012838235 -0.0019480186 -0.00072471908
0.0024250001 -0.0024231451 -0.0013932585
0.0055632354 0.0016629427 -0.0030168539
-0.0042318627 0.00014253795 -0.0001516854
-0.0012838235 0.00052263914 -0.00043820226
0.00014264706 0.0019480186 -0.0008202247
0.0027102942 -0.0027082211 -0.0026348315
-0.0031857844 0.0021380691 -0.0012022472
-0.0039465688 -0.0019480186 -0.00091573031
-0.0040416666 -0.00033258853 -0.0052134832
0.0041367649 -0.0014728921 -0.0048314608
0.0053730393 0.0011878163 -0.0040674158
-0.0052779415 0.0022330945 -0.0021573033
-0.0026151962 0.0019480186 -0.00091573031
0.0032808825 -0.00042761385 -0.000247191
0.00042794118 -0.0025181705 -0.0036853934
-0.0054681376 -0.0016629427 -0.001966292
0.0044220588 0.0021380691 -0.0042584268
0.002329902 4.7512651e-05 -0.00053370785
0.0029004903 0.0025181705 -0.0035898876
-0.0031857844 0.00061766442 -0.00043820226
-0.0013789216 0.002043044 -0.001011236
-0.0026151962 0.0027082211 -0.0032078652
0.0021397059 -0.0015679174 -0.0049269665
-0.0052779415 -0.001092791 -0.004544944
-0.0042318627 -0.0026131957 -0.001966292
0.00061813724 -0.0027082211 -0.0030168539
0.0026151962 0.0022330945 -0.0043539326
-0.0037563725 -0.0012828415 -0.0050224718
0.0037563725 0.0019480186 -0.0008202247
-0.0032808825 0.0025181705 -0.0036853934
0.0018544118 -0.0019480186 -0.004544944
0.0014740196 -0.0025181705 -0.0018707865
0.0038514705 -0.0021380691 -0.0042584268
0.0050877454 -0.00071268971 -0.000247191
-0.0005230392 0.00033258853 -0.00053370785
0.0038514705 0.00023756325 -0.0052134832
-0.00080833334 -0.0027082211 -0.002730337
0.0031857844 0.0021380691 -0.0043539326
-0.0044220588 0.00033258853 -0.0052134832
0.0021397059 -0.00033258853 -0.00053370785
0.0031857844 -0.0024231451 -0.0040674158
0.0039465688 0.0011878163 -0.0050224718
0.00033284313 0.0022330945 -0.0012022472
0.0055632354 -0.0013778668 -0.0034943821
0.0012838235 -0.002043044 -0.001011236
0.0029955884 -0.0024231451 -0.0038764046
-0.0052779415 -0.0019480186 -0.0035898876
-0.0031857844 0.0014728921 -0.00053370785
0.0049926471 0.0025181705 -0.0030168539
-0.002234804 0.0027082211 -0.0028258427
0.0025200981 -0.001092791 -0.0048314608
0.0051828432 -0.0024231451 -0.0031123594
-0.0027102942 0.0027082211 -0.0025393257
-0.0020446079 -0.001092791 -0.0049269665
0.0019495098 0.001092791 -0.00053370785
-0.0069897058 0.00023756325 -0.0013932585
-0.0060387254 0.00099776569 -0.0024438202
-0.004802451 0.0025181705 -0.0017752809
0.0035661766 -0.0018529933 -0.004544944
0.0047073532 -0.0023281197 -0.0035898876
0.0018544118 0.0025181705 -0.0016797753
-0.0067995097 -0.00014253795 -0.00062921346
0.0036612744 0.0027082211 -0.0026348315
-4.754902e-05 0.0027082211 -0.0024438202
0.0049926471 0.0025181705 -0.0033988764
-0.0018544118 0.0027082211 -0.0024438202
0.0031857844 -0.00033258853 -0.0050224718
0.0056583332 0.00052263914 -0.0033988764
-0.0038514705 -0.00099776569 -0.0050224718
-0.0019495098 0.0026131957 -0.0020617978
0.006894608 -0.00023756325 -0.00053370785
-0.0036612744 -0.0023281197 -0.0041629216
0.0048975493 -0.0024231451 -0.002730337
-0.0053730393 -0.0016629427 -0.0015842697
-0.0041367649 -0.0026131957 -0.0020617978
0.00099852937 -0.0014728921 -0.00053370785
-0.0020446079 -0.00052263914 -0.00043820226
0.00090343138 0.00052263914 -0.00053370785
0.0033759805 0.0023281197 -0.0012977528
0.0014740196 -0.0022330945 -0.0041629216
0.0016642157 0.00042761385 -0.0049269665
-0.0002377451 -0.0026131957 -0.0020617978
0.0017593137 -0.0024231451 -0.0014887641
-0.0038514705 -0.0025181705 -0.0017752809
-0.006894608 0.00014253795 -0.0008202247
-0.002329902 0.00023756325 -0.0049269665
0.0019495098 -0.00071268971 -0.00053370785
-0.0027102942 -0.0025181705 -0.0018707865
0.0012838235 0.0021380691 -0.0011067416
-0.0020446079 -0.00033258853 -0.0049269665
-0.004326961 0.0021380691 -0.0012022472
0.0046122549 0.0015679174 -0.00062921346
0.0056583332 -0.00023756325 -0.0017752809
-0.0028053923 -0.00014253795 -0.00043820226
-0.0070848041 0.00014253795 -0.00072471908
-0.0055632354 -0.00099776569 -0.0017752809
0.0024250001 -0.001757968 -0.00062921346
-0.0066093137 -0.00080771506 -0.0025393257
-0.002234804 0.0022330945 -0.0043539326
0.0016642157 4.7512651e-05 -0.00043820226
0.0059436276 0.0013778668 -0.0029213482
0.0025200981 -0.0021380691 -0.0042584268
0.002234804 -0.0026131957 -0.0034943821
-0.0055632354 -0.00033258853 -0.0038764046
0.0056583332 -0.0011878163 -0.0031123594
-0.0010936274 0.0018529933 -0.00072471908
-0.0065142158 -0.00090274034 -0.0025393257
-0.0067995097 -0.00014253795 -0.0020617978
0.0047073532 -0.0025181705 -0.002730337
-0.0049926471 -0.0016629427 -0.00072471908
-0.0011887255 0.0027082211 -0.002730337
0.0046122549 -0.0025181705 -0.0033988764
0.00071323529 -4.7512651e-05 -0.00053370785
0.0044220588 0.00090274034 -0.0052134832
-0.0067995097 -0.00014253795 -0.0012022472
0.002234804 -0.0025181705 -0.0018707865
0.0049926471 0.0022330945 -0.0039719101
0.0011887255 0.0022330945 -0.0043539326
0.0036612744 4.7512651e-05 -0.0001516854
0.0050877454 -0.0022330945 -0.0038764046
0.00014264706 -0.0026131957 -0.0020617978
0.0057534315 0.00014253795 -0.0033033707
0.0052779415 -0.0021380691 -0.0020617978
-0.0027102942 -0.0027082211 -0.0030168539
-0.00033284313 -0.0027082211 -0.0023483145
0.0013789216 0.001757968 -0.0048314608
0.0018544118 0.00061766442 -0.0049269665
0.0028053923 0.00099776569 -0.00043820226
-0.0052779415 -0.00061766442 -0.0046404493
-0.0005230392 0.0025181705 -0.0018707865
0.004326961 0.00099776569 -0.000247191
0.0034710786 -0.0026131957 -0.002252809
0.0027102942 0.0025181705 -0.0016797753
0.0019495098 0.0015679174 -0.0049269665
-0.0038514705 -0.0019480186 -0.0008202247
-0.0049926471 -0.002043044 -0.0012022472
-0.006894608 4.7512651e-05 0.001758427
0.0056583332 -0.00080771506 -0.0036853934
0.0051828432 -0.0022330945 -0.0036853934
0.0040416666 0.0015679174 -0.00053370785
0.0052779415 -0.0023281197 -0.0025393257
-0.0062289215 0.0011878163 -0.0024438202
-0.0069897058 4.7512651e-05 0.0018539326
0.0052779415 -0.0019480186 -0.0035898876
-0.0044220588 -0.0026131957 -0.0033988764
0.0016642157 0.0022330945 -0.0043539326
0.0048975493 0.0022330945 -0.0041629216
-0.0038514705 -0.002043044 -0.001011236
-0.0019495098 -0.0027082211 -0.0029213482
0.0028053923 0.0027082211 -0.0021573033
-0.0027102942 0.002043044 -0.001011236
0.0024250001 0.00052263914 -0.0049269665
0.00071323529 0.002043044 -0.0044494383
0.0065142158 -0.00071268971 -0.0024438202
0.0035661766 0.002043044 -0.0044494383
0.0067995097 -4.7512651e-05 0.0013764045
0.0052779415 -0.00033258853 -0.0049269665
-0.0018544118 0.0016629427 -0.0049269665
-0.0036612744 -0.00080771506 -0.0050224718
-0.0053730393 -0.001092791 -0.0041629216
0.0055632354 0.0013778668 -0.0020617978
-0.0063240197 -0.00080771506 -0.0024438202
-0.0016642157 0.00052263914 -0.0049269665
-0.0026151962 0.0026131957 -0.0034943821
-0.0020446079 0.0021380691 -0.0011067416
-0.0005230392 0.0026131957 -0.0034943821
-0.0044220588 -0.0025181705 -0.0035898876
0.0026151962 -0.00080771506 -0.00053370785
0.0053730393 -0.00014253795 -0.0008202247
-0.0070848041 -0.00014253795 -0.00053370785
-0.0056583332 4.7512651e-05 -0.0016797753
-0.0028053923 -0.0027082211 -0.0030168539
0.0010936274 -0.00071268971 -0.0049269665
0.00099852937 0.0013778668 -0.0049269665
-0.0055632354 -0.00033258853 -0.0014887641
-0.0025200981 -0.0022330945 -0.0043539326
0.0051828432 -0.0022330945 -0.0035898876
-0.0018544118 4.7512651e-05 -0.0049269665
0.0017593137 0.00052263914 -0.0049269665
-0.0066093137 -4.7512651e-05 -0.0024438202
0.0067995097 -0.00033258853 -0.002730337
-0.0039465688 0.0013778668 -0.0049269665
-0.0024250001 0.0025181705 -0.0035898876
0.0011887255 -0.0027082211 -0.0031123594
0.00042794118 -0.00071268971 -0.0049269665
-0.0018544118 0.0022330945 -0.0011067416
-0.0016642157 -0.0015679174 -0.00062921346
-0.0021397059 0.0024231451 -0.0039719101
-0.0069897058 -0.00042761385 -0.0013932585
-0.0026151962 -0.001757968 -0.00062921346
-0.0059436276 -0.00023756325 -0.0023483145
0.0033759805 0.0015679174 -0.0048314608
0.00033284313 -0.002043044 -0.001011236
0.0054681376 0.00052263914 -0.0011067416
0.0052779415 -0.0021380691 -0.0023483145
0.0044220588 0.0027082211 -0.0032078652
-0.0070848041 -4.7512651e-05 3.9325841e-05
-0.0012838235 -0.00023756325 -0.0049269665
0.00080833334 0.0026131957 -0.0021573033
-0.00090343138 -0.0027082211 -0.0031123594
0.004802451 -0.00052263914 -0.0051179775
0.0029955884 0.0019480186 -0.0046404493
0.0015691177 0.0027082211 -0.002730337
0.0055632354 -0.0011878163 -0.0033033707
0.004326961 -0.00090274034 -0.00043820226
-0.0057534315 -0.00099776569 -0.0032078652
-0.0034710786 0.0027082211 -0.0030168539
0.0024250001 -0.0014728921 -0.00053370785
