# .PCD v0.7 - Point Cloud Data file format
VERSION 0.7
FIELDS x y z
SIZE 4 4 4
TYPE F F F
COUNT 1 1 1
WIDTH 1164
HEIGHT 1
VIEWPOINT 0 0 0 1 0 0 0
POINTS 1164
DATA ascii
0.0084913047 0.00030714288 -0.001663889
-0.0090978267 -0.00020476192 0.0012763889
0.0048521738 0.00081904768 -0.0037930557
-0.0045489133 -0.0013309524 -0.00065000012
-0.0038413045 -0.0011261905 -0.0037930557
-0.0057619568 -0.00030714288 -0.0017652779
0.0087945657 -0.00020476192 0.0017833333
-0.0018195653 -0.0019452382 -0.0014611112
-0.0090978267 -0.00020476192 -0.00024444453
0.0016173914 0.0015357144 -0.0035902779
-0.008390218 -0.00051190477 -0.0019680557
0.0010108696 0.0017404762 -0.0033875001
0.0032347827 -0.0020476191 -0.0024750002
-0.00040434784 -0.0018428572 -0.0032861112
-0.0048521738 0.0015357144 -0.002677778
0.0072782612 0.0011261905 -0.0020694446
0.0029315217 -0.00061428576 -0.00024444453
0.005256522 -0.00051190477 -0.0013597223
0.0029315217 -0.0012285715 -0.00054861122
-0.00010108696 -0.00081904768 -0.00044722232
0.0042456524 -0.0015357144 -0.003488889
-0.0025271741 0 -0.0038944446
-0.0048521738 -0.0018428572 -0.0025763891
-0.0031336958 -0.0018428572 -0.0032861112
0.0030326087 0.0021500001 -0.0019680557
0.0019206522 0.0020476191 -0.0018666668
-0.0030326087 0.00040952384 -0.0038944446
0.0058630435 0.0011261905 -0.0024750002
0.00030326087 -0.0014333334 -0.0035902779
0.0030326087 -0.00030714288 -0.00024444453
0.0034369566 0.00051190477 -0.0039958335
-0.0086934781 0.00020476192 -0.00095416675
-0.0042456524 0.00081904768 -0.00024444453
0.0070760869 0.00092142861 -0.0023736113
-0.0039423914 0.0020476191 -0.0015625001
0.0033358696 0.0011261905 -0.0037930557
0.00020217392 -0.0020476191 -0.0024750002
0.0031336958 0 -0.0039958335
-0.0036391306 -0.0021500001 -0.0021708335
0.005256522 0.00020476192 -0.0013597223
-0.0032347827 0.0021500001 -0.0021708335
-0.0039423914 0.0019452382 -0.0012583334
0.0021228262 -0.0014333334 -0.0035902779
0.0025271741 0.0020476191 -0.0023736113
0.0027293479 -0.0020476191 -0.0019680557
0.00465 -0.0011261905 -0.0037930557
-0.0040434785 0.00081904768 -0.00034583342
0.0031336958 0.0019452382 -0.0030833336
-0.0020217393 0.0017404762 -0.0032861112
-0.00080869568 -0.0020476191 -0.0023736113
0.0060652173 0.00061428576 -0.0017652779
0.0027293479 0.0017404762 -0.0032861112
0.0089967391 0.00030714288 0.0023916666
0.0035380435 -0.00061428576 -0.0039958335
-0.0050543481 -0.0012285715 -0.0027791669
0.0088956524 -0.00030714288 -4.166675e-05
-0.0048521738 -0.0015357144 -0.0029819447
-0.0016173914 -0.00092142861 -0.0037930557
0.0014152174 0.0011261905 -0.0038944446
-0.0011119565 0 -0.00044722232
0.005256522 0.00010238096 -0.0012583334
0.0074804351 0.00061428576 -0.0023736113
0.0035380435 -0.00051190477 -0.0039958335
-0.0041445652 -0.00071666669 -0.00014305564
-0.0047510872 -0.0020476191 -0.0022722224
-0.0013141305 -0.0011261905 -0.00044722232
0.0047510872 0.0014333334 -0.0033875001
-0.0089967391 0.00030714288 -0.0011569445
0.0038413045 0.00071666669 -0.0039958335
-0.004953261 0.0014333334 -0.0031847225
-0.004953261 -0.00071666669 -0.00065000012
0.0031336958 -0.00030714288 -0.00024444453
0.0014152174 -0.0020476191 -0.001663889
-0.0020217393 0 -0.0038944446
-0.0037402175 0.0012285715 -0.00054861122
-0.0035380435 0 -0.0040972224
-0.00465 0.0019452382 -0.001663889
0.0048521738 -0.0016380954 -0.0027791669
-0.0040434785 0.0017404762 -0.0010555557
0.0067728264 0.0013309524 -0.0018666668
0.008086957 -0.00071666669 -0.0018666668
-0.0022239131 -0.00071666669 -0.00044722232
0.0025271741 0.0020476191 -0.0027791669
0 0.0019452382 -0.0027791669
0.0035380435 0.0010238095 -0.00024444453
0.004953261 -0.0012285715 -0.0029819447
-0.0037402175 -0.0021500001 -0.0019680557
0.0028304348 -0.0010238095 -0.00044722232
-0.0075815218 -0.00020476192 -0.0017652779
0.0011119565 -0.0019452382 -0.0013597223
0.004346739 -0.0020476191 -0.0019680557
0.00010108696 0.0011261905 -0.0038944446
-0.0050543481 -0.00081904768 -0.0031847225
-0.0076826089 -0.00020476192 -0.0017652779
0.0081880437 0.00051190477 -0.0021708335
-0.0035380435 0.0019452382 -0.0014611112
-0.004953261 0.00030714288 -0.0037930557
0.0066717393 -0.00030714288 -0.0017652779
0.0022239131 -0.0019452382 -0.0013597223
0.00040434784 -0.0017404762 -0.00085277786
0.0025271741 -0.0020476191 -0.0018666668
-0.0025271741 0.00092142861 -0.00044722232
0.008086957 0.00040952384 -0.0018666668
0.0032347827 -0.0013309524 -0.0036916668
-0.0037402175 -0.0018428572 -0.0010555557
-0.0063684783 -0.00010238096 -0.0017652779
0.0059641306 0.00030714288 -0.0017652779
-0.0044478262 0.00020476192 -0.0039958335
-0.0050543481 -0.0010238095 -0.0012583334
0.00080869568 -0.00010238096 -0.0038944446
-0.0037402175 -0.0010238095 -0.00034583342
-0.0010108696 0.0014333334 -0.0037930557
0.0048521738 0.0010238095 -0.00065000012
-0.0011119565 0.0018428572 -0.0010555557
-0.0062673916 -0.00030714288 -0.0024750002
0.0048521738 -0.00020476192 -0.00024444453
0.00010108696 0.0019452382 -0.0030833336
0.0016173914 0.00040952384 -0.0037930557
0.0090978267 0.00020476192 -0.0014611112
-0.0021228262 -0.0016380954 -0.0035902779
-0.0081880437 -0.00051190477 -0.0017652779
-0.0050543481 0.0010238095 -0.0012583334
0.0062673916 0.0010238095 -0.0024750002
0.0088956524 0.00020476192 0.0020874999
-0.004346739 0.0013309524 -0.00065000012
-0.0035380435 -0.0020476191 -0.0024750002
-0.0091989134 -0.00010238096 0.0020874999
-0.0010108696 0.0020476191 -0.002677778
0.0028304348 -0.0011261905 -0.0037930557
0.0021228262 -0.0020476191 -0.0024750002
-0.0029315217 0.0015357144 -0.0035902779
0.0086934781 -0.00010238096 -0.00065000012
-0.0015163043 -0.00081904768 -0.00044722232
0.0061663045 -0.0011261905 -0.0017652779
-0.0048521738 -0.00040952384 -0.00044722232
-0.0075815218 0.00051190477 -0.0023736113
-0.0048521738 -0.00040952384 -0.00034583342
0.0079858694 0.00010238096 -0.0023736113
0.0050543481 0.0017404762 -0.0024750002
0.0055597825 0.0017404762 -0.0020694446
0.0064695654 -0.0014333334 -0.0019680557
0.0050543481 -0.00061428576 -0.0033875001
0.00020217392 -0.0014333334 -0.0035902779
0.0059641306 -0.00010238096 -0.0017652779
0.005256522 0.0018428572 -0.0017652779
-0.0034369566 0.0018428572 -0.0030833336
0 -0.00081904768 -0.0038944446
0.0067728264 -0.00010238096 -0.0023736113
0.0018195653 0.00051190477 -0.00044722232
0.0086934781 -0.00010238096 -4.166675e-05
-0.0011119565 -0.00040952384 -0.00044722232
0.0010108696 0.00040952384 -0.00044722232
-0.0051554348 -0.00092142861 -0.0012583334
0.0036391306 0.0015357144 -0.00075138902
0.0040434785 -0.0012285715 -0.0036916668
0.0030326087 0.0020476191 -0.0015625001
-0.0032347827 0.0017404762 -0.0032861112
-0.00020217392 0.0021500001 -0.0019680557
0.0024260869 -0.0021500001 -0.0021708335
0.0024260869 0.00061428576 -0.0038944446
-0.002325 0.00071666669 -0.0038944446
-0.0045489133 0.0017404762 -0.0030833336
-0.0079858694 0.00040952384 -0.0017652779
0.0012130435 -0.00092142861 -0.00034583342
-0.0038413045 0.0020476191 -0.0025763891
-0.0030326087 0.00081904768 -0.00044722232
-0.0018195653 0.0020476191 -0.0025763891
-0.0056608696 -0.00071666669 -0.0017652779
-0.00080869568 -0.0021500001 -0.0019680557
0.0064695654 0.0011261905 -0.0017652779
0.0035380435 -0.00092142861 -0.00034583342
0.0062673916 -0.0010238095 -0.0023736113
-0.0089967391 -0.00030714288 0.0012763889
0.0051554348 -0.00081904768 -0.0027791669
-0.0087945657 0.00020476192 0.00066805549
0.00465 0.00030714288 -0.00014305564
-0.0015163043 0.0020476191 -0.0024750002
0.0058630435 -0.00040952384 -0.0024750002
-0.0053576087 0.00030714288 -0.0024750002
0.0040434785 -0.0017404762 -0.0031847225
-0.0058630435 0.0016380954 -0.0023736113
0.0061663045 0.00020476192 -0.0017652779
0.00030326087 0.0013309524 -0.00065000012
-0.0053576087 -0.0013309524 -0.0017652779
0.0069750003 -0.00030714288 -0.0023736113
0.0035380435 0.00081904768 -0.0038944446
-0.0077836956 0.00071666669 -0.0021708335
-0.0025271741 0.0020476191 -0.0018666668
-0.0038413045 0.0018428572 -0.0011569445
-0.0054586958 0.00092142861 -0.0017652779
-0.002628261 0.00071666669 -0.0038944446
-0.0048521738 -0.0017404762 -0.0014611112
-0.0025271741 0.0020476191 -0.002677778
-0.0050543481 0.00061428576 -0.0031847225
0.0086934781 -0.00020476192 0.001175
0.0036391306 -0.0013309524 -0.0036916668
0.0045489133 0.0010238095 -0.00034583342
-0.004953261 0.00081904768 -0.00075138902
-0.00020217392 0.0019452382 -0.0011569445
0.0089967391 -0.00030714288 -0.00095416675
0.0058630435 0.0015357144 -0.0023736113
0.0055597825 0.0013309524 -0.0017652779
0.0042456524 0.0019452382 -0.0029819447
-0.0069750003 0.00030714288 -0.0017652779
0.0047510872 0.0017404762 -0.0011569445
-0.004346739 0.0020476191 -0.0017652779
-0.0063684783 0.0011261905 -0.0017652779
0.0013141305 -0.0020476191 -0.0019680557
-0.0010108696 -0.0017404762 -0.0033875001
-0.0076826089 -0.00081904768 -0.0021708335
0.0018195653 0.00030714288 -0.00044722232
-0.00030326087 0.0014333334 -0.0036916668
0.008390218 0.00061428576 -0.0018666668
-0.0086934781 0.00010238096 0.0020874999
0.0019206522 0.0016380954 -0.0035902779
-0.00070760871 0.0019452382 -0.0029819447
-0.0075815218 0 -0.0023736113
0.0051554348 0.0015357144 -0.001663889
-0.0011119565 0.0017404762 -0.0033875001
0.0045489133 -0.00020476192 -0.0039958335
-0.0018195653 -0.00030714288 -0.0038944446
0.0019206522 -0.00061428576 -0.0038944446
0.0048521738 0.00040952384 -0.0038944446
-0.0024260869 0.00030714288 -0.00044722232
-0.0020217393 -0.0010238095 -0.0038944446
-0.0073793479 0 -0.0017652779
-0.00080869568 -0.00010238096 -0.0038944446
0.00080869568 -0.0013309524 -0.0037930557
-0.0040434785 -0.00071666669 -0.0039958335
0.0063684783 0.00061428576 -0.0024750002
-0.00050543481 0.0020476191 -0.0017652779
-0.00090978266 -0.00061428576 -0.00044722232
0.0064695654 -0.00061428576 -0.0017652779
0.0030326087 -0.0021500001 -0.0021708335
0.0057619568 -0.0016380954 -0.0023736113
0.002628261 -0.00092142861 -0.0038944446
0.00030326087 -0.0018428572 -0.00095416675
-0.00090978266 -0.0021500001 -0.0022722224
-0.0039423914 -0.0020476191 -0.0025763891
0.004953261 -0.0015357144 -0.001663889
0.0010108696 0.0020476191 -0.0024750002
-0.0010108696 0 -0.00044722232
-0.0012130435 0.0020476191 -0.001663889
0.00020217392 -0.0020476191 -0.0023736113
0.0025271741 0.0014333334 -0.00065000012
0.0040434785 0.0015357144 -0.003488889
0.0058630435 0 -0.0024750002
-0.0065706521 0.00040952384 -0.0017652779
-0.0048521738 0.00040952384 -0.0037930557
-0.0061663045 -0.0013309524 -0.0023736113
-0.0051554348 -0.00092142861 -0.0011569445
0.0069750003 0.00010238096 -0.0023736113
0.0051554348 0.0010238095 -0.0012583334
0.0019206522 -0.00040952384 -0.00044722232
0.0019206522 0.0017404762 -0.0033875001
0.0010108696 -0.00061428576 -0.00044722232
0.0020217393 -0.00030714288 -0.0038944446
0.0017184783 -0.0020476191 -0.0019680557
-0.0010108696 -0.0010238095 -0.00044722232
-0.0018195653 0.0019452382 -0.0027791669
-0.00030326087 -0.0014333334 -0.0035902779
0.0073793479 0.00020476192 -0.0017652779
-0.0018195653 0.0020476191 -0.002677778
-0.0081880437 0.00061428576 -0.0017652779
0.00080869568 -0.0016380954 -0.00075138902
-0.00040434784 0.00092142861 -0.0038944446
-0.0033358696 0.0018428572 -0.0010555557
0.0020217393 -0.0012285715 -0.00054861122
0.00070760871 0.0021500001 -0.0019680557
-0.00030326087 0.0021500001 -0.0020694446
-0.0012130435 -0.00040952384 -0.0038944446
0.0090978267 0.00020476192 0.00066805549
-0.005256522 -0.00020476192 -0.0012583334
-0.0017184783 0.00051190477 -0.00044722232
-0.0024260869 0.0018428572 -0.0010555557
0.0020217393 -0.0019452382 -0.0014611112
-0.0012130435 -0.0018428572 -0.0010555557
-0.0054586958 0.00081904768 -0.0024750002
-0.0033358696 -0.00051190477 -0.00014305564
0.004953261 -0.0012285715 -0.0012583334
0.0048521738 -0.00061428576 -0.00034583342
0.0047510872 0.0019452382 -0.002677778
0.0020217393 0.00081904768 -0.00044722232
0.00010108696 0.0015357144 -0.003488889
-0.002628261 0.0016380954 -0.0035902779
0.0039423914 0.0015357144 -0.00065000012
-0.0053576087 -0.00020476192 -0.002677778
-0.0018195653 -0.00051190477 -0.0038944446
-0.004953261 0.0012285715 -0.0014611112
-0.0033358696 -0.00030714288 -0.0040972224
-0.0072782612 -0.00081904768 -0.0017652779
-0.0090978267 -0.00020476192 0.0026958333
-0.0022239131 0.00081904768 -0.0038944446
0.0089967391 0 -0.0019680557
-0.0085923914 0.00030714288 -0.0015625001
0.0018195653 -0.0020476191 -0.0019680557
0.0011119565 0.0014333334 -0.00065000012
-0.0064695654 -0.0011261905 -0.0017652779
0.0019206522 -0.00010238096 -0.00024444453
-0.00070760871 0.0014333334 -0.0036916668
-0.0060652173 -0.0011261905 -0.0024750002
-0.0078847827 0.00051190477 -0.0023736113
-0.0071771741 0.00051190477 -0.0017652779
-0.0021228262 0.0015357144 -0.00075138902
0.00090978266 -0.00051190477 -0.0038944446
0.0014152174 0.0018428572 -0.0010555557
-0.0030326087 0.0015357144 -0.0035902779
-0.0027293479 -0.0018428572 -0.00095416675
0.005256522 -0.0012285715 -0.0024750002
0.00040434784 -0.0020476191 -0.0023736113
0.0016173914 -0.0010238095 -0.0037930557
-0.0040434785 -0.0019452382 -0.0012583334
-0.00050543481 0.0010238095 -0.0038944446
-0.0018195653 0.00092142861 -0.0038944446
0.0088956524 -0.00030714288 0.0021888888
-0.00090978266 -0.00051190477 -0.0037930557
-0.0048521738 0.00030714288 -0.00044722232
-0.0085923914 0.00020476192 -0.0021708335
0.0036391306 0.00092142861 -0.00024444453
-0.0071771741 -0.0012285715 -0.0018666668
-0.0073793479 0.00092142861 -0.0017652779
0.0051554348 -0.00020476192 -0.0010555557
0.0037402175 0.0014333334 -0.00065000012
0.0030326087 -0.00020476192 -0.00024444453
0.0086934781 -0.00030714288 -0.0019680557
-0.0030326087 0 -0.00024444453
0.0016173914 0.0021500001 -0.0020694446
0.0062673916 0.00092142861 -0.0024750002
-0.0012130435 0.0014333334 -0.00065000012
-0.0019206522 0.0020476191 -0.0015625001
-0.004346739 0.0016380954 -0.00095416675
0.0082891304 0.00040952384 -0.0018666668
0.004346739 -0.00092142861 -0.00034583342
-0.0028304348 0 -0.0039958335
0.0016173914 -0.0021500001 -0.0020694446
-0.00030326087 0.0014333334 -0.00065000012
0.0028304348 0.00040952384 -0.00024444453
-0.00465 0.0018428572 -0.0014611112
-0.0060652173 -0.0016380954 -0.0021708335
0 0.0020476191 -0.0023736113
0.0012130435 -0.0016380954 -0.003488889
-0.0071771741 -0.0010238095 -0.0022722224
0.0017184783 0.0017404762 -0.0033875001
0.0019206522 0.00020476192 -0.0038944446
-0.0088956524 -0.00030714288 0.0026958333
-0.0081880437 0 -0.0023736113
0.0053576087 0.0018428572 -0.0020694446
-0.0038413045 0.00071666669 -0.00044722232
0.004346739 0.0020476191 -0.001663889
-0.0033358696 -0.0015357144 -0.00075138902
0.0051554348 0.00061428576 -0.0011569445
0.0027293479 0.00040952384 -0.00024444453
0.0076826089 0.00051190477 -0.0017652779
-0.0065706521 -0.00081904768 -0.0017652779
-0.0063684783 0.00061428576 -0.0023736113
0.0020217393 0.0010238095 -0.0038944446
0.0054586958 -0.00051190477 -0.0017652779
-0.0068739131 -0.0013309524 -0.0020694446
-0.0072782612 0.00030714288 -0.0017652779
0.0029315217 -0.0018428572 -0.00095416675
-0.0058630435 0.0016380954 -0.0021708335
-0.002628261 -0.0018428572 -0.00095416675
0.0066717393 -0.00010238096 -0.0017652779
0.0039423914 -0.00081904768 -0.00034583342
-0.0069750003 -0.00061428576 -0.0017652779
-0.008390218 0.00051190477 -0.0019680557
-0.0015163043 0.00010238096 -0.0038944446
0.0028304348 0.0017404762 -0.00095416675
-0.0015163043 -0.00071666669 -0.0038944446
-0.004953261 0.00071666669 -0.0035902779
-0.0025271741 0.0018428572 -0.0031847225
-0.0018195653 0.00010238096 -0.0038944446
0.00050543481 0.00081904768 -0.0038944446
0.0087945657 -0.00020476192 0.0015805556
-0.0088956524 0.00030714288 -0.0015625001
0.0075815218 0.00030714288 -0.0023736113
-0.0022239131 0.0016380954 -0.003488889
0.0091989134 0.00010238096 0.0026958333
-0.002628261 -0.00020476192 -0.00024444453
0.0062673916 -0.00092142861 -0.0017652779
-0.0019206522 -0.00010238096 -0.00044722232
0.0056608696 -0.0011261905 -0.0017652779
0.0016173914 0.00020476192 -0.00044722232
0.0088956524 -0.00030714288 -0.0018666668
-0.0042456524 -0.00051190477 -0.00014305564
0.0086934781 -0.00020476192 -4.166675e-05
0.0013141305 0.00051190477 -0.0038944446
0.00465 0.0016380954 -0.00095416675
-0.0032347827 -0.0021500001 -0.0020694446
0.0061663045 0.0012285715 -0.0023736113
-0.0025271741 0.00020476192 -0.00044722232
-0.00010108696 -0.0019452382 -0.0014611112
-0.00050543481 -0.00020476192 -0.00044722232
0.0082891304 0 -0.0017652779
0.00070760871 -0.0014333334 -0.00065000012
0.0085923914 -0.00010238096 -0.0013597223
0.002628261 0.0019452382 -0.0011569445
0.0036391306 0.0010238095 -0.0038944446
0.00050543481 0.0014333334 -0.00065000012
0.0081880437 -0.00010238096 -0.0017652779
0.005256522 -0.00020476192 -0.0030833336
0.005256522 -0.00020476192 -0.0015625001
0.0053576087 0.00061428576 -0.0015625001
-0.0015163043 0.0014333334 -0.00065000012
0.0024260869 0.0013309524 -0.00065000012
-0.0024260869 -0.0018428572 -0.0032861112
-0.0013141305 0.0016380954 -0.00085277786
-0.0089967391 -0.00030714288 -0.0015625001
0.0018195653 -0.0020476191 -0.0018666668
-0.0044478262 -0.00010238096 -0.0040972224
0.005256522 0.00051190477 -0.0030833336
-0.0087945657 0.00020476192 0.00097222219
-0.00070760871 -0.0010238095 -0.0038944446
0.00020217392 0.00081904768 -0.0038944446
0.0015163043 0.00051190477 -0.0037930557
0.0064695654 0.00081904768 -0.0017652779
-0.00060652173 0.0020476191 -0.002677778
0.0017184783 -0.0011261905 -0.00044722232
0.0051554348 0 -0.0011569445
-0.0061663045 0.00020476192 -0.0017652779
-0.0060652173 -0.0015357144 -0.0017652779
0.004346739 0.0016380954 -0.00085277786
0.0044478262 0.0019452382 -0.0012583334
0.0020217393 0.00020476192 -0.0038944446
0.0050543481 0.00061428576 -0.0031847225
-0.0028304348 0.0021500001 -0.0021708335
0.0037402175 -0.00010238096 -0.00014305564
0.0015163043 -0.0018428572 -0.0010555557
0.00060652173 0.0018428572 -0.0031847225
0.0013141305 0.0012285715 -0.0038944446
0.004346739 -0.0014333334 -0.0035902779
0.0073793479 0.0011261905 -0.0018666668
0.0066717393 -0.00051190477 -0.0017652779
0.0045489133 -0.0011261905 -0.00054861122
-0.0090978267 -0.00020476192 0.0017833333
-0.0039423914 -0.0020476191 -0.0018666668
-0.0051554348 0.00061428576 -0.0025763891
0.0041445652 -0.0018428572 -0.0012583334
0.0010108696 -0.0019452382 -0.0030833336
0.0010108696 -0.00020476192 -0.00044722232
0.00465 -0.0019452382 -0.0022722224
-0.0086934781 0.00010238096 -0.00085277786
0.0087945657 -0.00020476192 0.00087083329
0.0065706521 -0.00061428576 -0.0017652779
0.00030326087 -0.0017404762 -0.00085277786
-0.0027293479 -0.0011261905 -0.00044722232
-0.0016173914 -0.0014333334 -0.00065000012
0.00050543481 0.0020476191 -0.0024750002
0.0075815218 0.00061428576 -0.0023736113
-0.00040434784 -0.0019452382 -0.0030833336
-0.0014152174 0.0014333334 -0.00065000012
0.004346739 0.00061428576 -0.0040972224
0.0050543481 0.0019452382 -0.0018666668
0.00060652173 -0.0019452382 -0.0029819447
0.0029315217 -0.0020476191 -0.002677778
-0.0058630435 -0.0017404762 -0.0018666668
0.0020217393 0.0020476191 -0.002677778
-0.0034369566 -0.0020476191 -0.002677778
-0.0090978267 0.00010238096 -0.0010555557
-0.0051554348 -0.00092142861 -0.0013597223
0.0048521738 -0.0015357144 -0.0029819447
0.0020217393 -0.0016380954 -0.003488889
0.00020217392 -0.0020476191 -0.0017652779
-0.0075815218 -0.00010238096 -0.0017652779
-0.0021228262 -0.0014333334 -0.0036916668
-0.002628261 0.0017404762 -0.003488889
0.0012130435 0.00081904768 -0.0038944446
0.0067728264 -0.00092142861 -0.0017652779
0.004953261 0.0019452382 -0.0021708335
0.0015163043 -0.0020476191 -0.0023736113
0.0035380435 0.0019452382 -0.0029819447
-0.0014152174 -0.00061428576 -0.0037930557
0.0038413045 -0.00092142861 -0.0037930557
-0.0038413045 0.0020476191 -0.0022722224
0.00010108696 0.0019452382 -0.0013597223
0.0042456524 0.0017404762 -0.00095416675
0.0030326087 -0.0021500001 -0.0022722224
0.0035380435 0.0015357144 -0.00065000012
-0.00030326087 0.0019452382 -0.0027791669
0.0021228262 -0.0020476191 -0.0018666668
-0.0015163043 0.0015357144 -0.00075138902
0.005256522 0.00030714288 -0.0012583334
-0.0017184783 0.0015357144 -0.0035902779
0.0087945657 0.00020476192 0.0016819444
-0.00070760871 -0.00092142861 -0.0038944446
0.0024260869 0.0020476191 -0.0023736113
0.004346739 0.0016380954 -0.0033875001
0.00465 -0.00061428576 -0.00024444453
-0.0019206522 0.0020476191 -0.0023736113
0.00010108696 0.00051190477 -0.00044722232
-0.004953261 -0.00061428576 -0.00075138902
-0.00010108696 0.0019452382 -0.0013597223
0.0018195653 -0.0020476191 -0.0025763891
-0.0055597825 -0.00040952384 -0.0017652779
-0.0085923914 0.00040952384 -0.0019680557
0.0051554348 -0.00092142861 -0.0028805558
-0.004953261 0 -0.003488889
-0.00020217392 0.0016380954 -0.00075138902
-0.0054586958 0.0012285715 -0.0017652779
-0.0018195653 0.00020476192 -0.00044722232
0.0019206522 -0.0020476191 -0.0023736113
-0.0057619568 0.00061428576 -0.0017652779
0.0029315217 -0.0020476191 -0.0027791669
0.0064695654 -0.0013309524 -0.0018666668
0.0047510872 0 -0.00024444453
-0.0055597825 -0.00030714288 -0.0017652779
0.0070760869 0.00040952384 -0.0023736113
-0.002628261 -0.00051190477 -0.00044722232
0.0088956524 -0.00030714288 -0.00024444453
0.00060652173 0.00061428576 -0.00044722232
0.0053576087 0.00071666669 -0.0024750002
-0.0068739131 0.00071666669 -0.0023736113
0.0072782612 0.0011261905 -0.0017652779
0.0055597825 -0.00061428576 -0.0017652779
0.0028304348 0.0019452382 -0.0012583334
-0.0090978267 -0.00020476192 0.00036388883
-0.0089967391 -0.00010238096 -0.0019680557
-0.0030326087 0.0017404762 -0.0032861112
-0.0022239131 0.0011261905 -0.0038944446
0.0054586958 -0.0016380954 -0.0023736113
-0.0017184783 0.0011261905 -0.00044722232
-0.0039423914 -0.0011261905 -0.0037930557
-0.004953261 -0.0017404762 -0.0025763891
-0.0028304348 -0.00081904768 -0.0039958335
-0.005256522 -0.0018428572 -0.0024750002
-0.0081880437 -0.00061428576 -0.0017652779
-0.002628261 0.0019452382 -0.0014611112
-0.0062673916 0.00010238096 -0.0017652779
-0.00465 0.00081904768 -0.0038944446
-0.0025271741 0.0011261905 -0.0037930557
-0.0014152174 -0.0020476191 -0.001663889
0.00050543481 -0.0020476191 -0.0017652779
0.0048521738 0.00030714288 -0.00034583342
0.0036391306 -0.00092142861 -0.0037930557
-0.0053576087 0.0018428572 -0.0019680557
0.0013141305 -0.00081904768 -0.0038944446
-0.00010108696 0.00010238096 -0.0038944446
-0.0089967391 0.00030714288 -0.0017652779
-0.0024260869 0.0013309524 -0.00065000012
-0.0014152174 0.00040952384 -0.00044722232
0.0042456524 -0.0020476191 -0.0015625001
-0.00080869568 0.0018428572 -0.0010555557
0.0074804351 0.0010238095 -0.0020694446
-0.0048521738 -0.0012285715 -0.00065000012
-0.0053576087 -0.00040952384 -0.002677778
-0.0090978267 0.00010238096 -0.0011569445
0.00050543481 -0.00010238096 -0.00044722232
0.0028304348 -0.00061428576 -0.0038944446
-0.0011119565 0.0020476191 -0.001663889
-0.0024260869 0.00040952384 -0.0038944446
-0.0089967391 -0.00030714288 0.0023916666
0.004953261 -0.0013309524 -0.002677778
-0.0027293479 0.0017404762 -0.003488889
0.004953261 0.0016380954 -0.0015625001
-0.0075815218 0.00071666669 -0.0022722224
0.0011119565 0.0017404762 -0.00095416675
0.0033358696 -0.00010238096 -0.00014305564
0.0075815218 0.00092142861 -0.0017652779
-0.00060652173 0.0019452382 -0.0028805558
0.0014152174 -0.0020476191 -0.0028805558
0.0030326087 -0.00092142861 -0.00044722232
0.0071771741 -0.0010238095 -0.0023736113
0.0016173914 -0.00051190477 -0.00044722232
-0.0087945657 0.00020476192 0.0018847222
0.0042456524 0.0020476191 -0.0021708335
0.0069750003 0.0010238095 -0.0017652779
0.0053576087 0.0016380954 -0.0017652779
0.0048521738 -0.00071666669 -0.00054861122
-0.008390218 -0.00061428576 -0.0018666668
0.0047510872 0.00092142861 -0.00034583342
-0.0036391306 0.0020476191 -0.0023736113
-0.0034369566 0.0012285715 -0.00054861122
0.0057619568 0.0010238095 -0.0017652779
-0.004953261 0.00092142861 -0.0033875001
-0.0079858694 -0.00010238096 -0.0017652779
0.0051554348 0.00061428576 -0.0030833336
-0.0021228262 -0.0019452382 -0.0012583334
-0.0050543481 -0.00071666669 -0.0031847225
0.0051554348 -0.00071666669 -0.0028805558
-0.0088956524 -0.00030714288 -0.00054861122
0.0081880437 0.00061428576 -0.0018666668
0.0084913047 -0.00010238096 -0.001663889
0.0012130435 -0.0012285715 -0.00054861122
0.00080869568 0.00081904768 -0.0038944446
0.0079858694 0.00040952384 -0.0018666668
-0.0065706521 -0.00030714288 -0.0017652779
-0.0041445652 0.00051190477 -0.00024444453
-0.00030326087 -0.0013309524 -0.0037930557
0.0063684783 0.0014333334 -0.0021708335
0.0013141305 0.00020476192 -0.00044722232
0.004953261 0.0014333334 -0.00095416675
-0.0017184783 -0.0021500001 -0.0020694446
0.00020217392 0.0018428572 -0.0010555557
-0.0035380435 0.0016380954 -0.00085277786
-0.0037402175 -0.0019452382 -0.0028805558
0.0087945657 -0.00020476192 -4.166675e-05
0.0033358696 0.00030714288 -0.00014305564
0.0050543481 -0.0012285715 -0.0025763891
0.0015163043 -0.00081904768 -0.00034583342
0.0040434785 0.0020476191 -0.0017652779
-0.002628261 -0.0010238095 -0.00044722232
-0.0030326087 -0.00092142861 -0.0039958335
0.0027293479 -0.0013309524 -0.00065000012
0.0088956524 -0.00020476192 0.00076944439
-0.0063684783 0.0014333334 -0.0020694446
0.00080869568 0.0015357144 -0.00075138902
0.00010108696 0.0021500001 -0.0019680557
-0.005256522 -0.0018428572 -0.0023736113
-0.0027293479 -0.00040952384 -0.00024444453
0.0045489133 -0.0015357144 -0.00075138902
-0.004953261 0.00071666669 -0.00054861122
-0.0012130435 -0.00020476192 -0.00044722232
0.0027293479 -0.00092142861 -0.0037930557
0 -0.0021500001 -0.0021708335
0.00465 -0.0011261905 -0.00054861122
0.0030326087 0.00092142861 -0.00034583342
-0.0041445652 0.00040952384 -0.00024444453
0.00040434784 0.0020476191 -0.0018666668
0.0012130435 0.0019452382 -0.0029819447
0.0014152174 -0.0016380954 -0.0033875001
0.00090978266 0.0016380954 -0.00085277786
-0.0017184783 -0.00071666669 -0.0038944446
0.0034369566 -0.0019452382 -0.0013597223
0.0018195653 0.0019452382 -0.0028805558
0.0011119565 -0.0017404762 -0.0032861112
0.0018195653 0.0018428572 -0.0032861112
-0.0024260869 -0.00071666669 -0.0038944446
-0.0029315217 -0.0016380954 -0.0035902779
0.00010108696 -0.00051190477 -0.00044722232
-0.0050543481 0 -0.00075138902
-0.0051554348 -0.0019452382 -0.0022722224
0.0084913047 0.00030714288 -0.0017652779
-0.0042456524 0.0012285715 -0.0036916668
-0.0036391306 -0.0020476191 -0.0023736113
0.0060652173 -0.0010238095 -0.0017652779
-0.0056608696 -0.0011261905 -0.0024750002
-0.0042456524 0 -0.0039958335
-0.0030326087 -0.00081904768 -0.0039958335
0.0069750003 -0.00040952384 -0.0017652779
-0.0021228262 -0.0012285715 -0.00054861122
-0.0086934781 0.00020476192 0.001175
-0.0015163043 0.0010238095 -0.00044722232
-0.0010108696 -0.0016380954 -0.00075138902
-0.0086934781 0.00020476192 0.00026249993
0.0060652173 0.0015357144 -0.0020694446
0.0030326087 0.0020476191 -0.0018666668
-0.0076826089 0.00010238096 -0.0017652779
-0.005256522 0.00010238096 -0.0029819447
-0.0087945657 0.00020476192 0.00076944439
-0.0034369566 0.0014333334 -0.00065000012
-0.0041445652 -0.00061428576 -0.0039958335
0.005256522 0.0010238095 -0.0015625001
-0.0090978267 0.00020476192 -0.00044722232
0.0062673916 -0.0014333334 -0.0023736113
-0.0024260869 0.00092142861 -0.0038944446
-0.0019206522 0.00040952384 -0.00044722232
0.00465 0.0012285715 -0.0036916668
-0.0032347827 -0.00061428576 -0.00014305564
-0.0045489133 -0.00030714288 -0.00014305564
-0.0050543481 -0.0010238095 -0.0031847225
0.0021228262 0.0020476191 -0.0023736113
0.0012130435 0.00020476192 -0.0038944446
-0.0054586958 0.0013309524 -0.0023736113
0.0044478262 0.0015357144 -0.00085277786
-0.0084913047 -0.00030714288 -0.001663889
0.0024260869 -0.0020476191 -0.0023736113
-0.0088956524 0.00020476192 0.001986111
-0.0033358696 0.0017404762 -0.0032861112
0.0051554348 -0.00051190477 -0.0012583334
-0.0033358696 -0.0011261905 -0.0037930557
-0.0020217393 -0.0015357144 -0.0035902779
0.0014152174 -0.0020476191 -0.0023736113
-0.0048521738 -0.0014333334 -0.00085277786
0.00040434784 -0.0012285715 -0.0038944446
-0.0076826089 -0.00030714288 -0.0017652779
0.0035380435 0.0017404762 -0.0032861112
-0.0018195653 -0.0013309524 -0.0036916668
0.004953261 -0.00061428576 -0.0035902779
-0.0027293479 -0.00081904768 -0.00044722232
0.0089967391 -0.00020476192 0.0027972222
-0.0041445652 0.0020476191 -0.0019680557
0.0014152174 -0.00071666669 -0.0038944446
0.0054586958 -0.00010238096 -0.0024750002
0.00060652173 -0.00030714288 -0.0038944446
0.0078847827 0.00030714288 -0.0018666668
0.0017184783 -0.00061428576 -0.00044722232
0.002325 -0.0013309524 -0.0036916668
-0.00080869568 0.0016380954 -0.00075138902
-0.0048521738 -0.0015357144 -0.0010555557
-0.0085923914 -0.00010238096 -0.0014611112
-0.00465 -0.00010238096 -0.0039958335
0.0051554348 0.00061428576 -0.0013597223
-0.0088956524 -0.00030714288 0.0023916666
0.0030326087 -0.0019452382 -0.0030833336
0.005256522 -0.0010238095 -0.0024750002
0.0063684783 -0.00071666669 -0.0023736113
-0.0015163043 0.0013309524 -0.0037930557
-0.0090978267 0 0.0027972222
-0.00050543481 0.0010238095 -0.00044722232
-0.0028304348 -0.0014333334 -0.0036916668
-0.0079858694 -0.00040952384 -0.0023736113
0.0027293479 0.0021500001 -0.0019680557
-0.0077836956 0 -0.0023736113
0.00465 0.0020476191 -0.0020694446
0.0035380435 -0.00010238096 -0.0040972224
0.0037402175 0.00061428576 -0.0039958335
0.0081880437 -0.00030714288 -0.0018666668
0.0037402175 0.0019452382 -0.0028805558
-0.0056608696 -0.0018428572 -0.0021708335
0.00010108696 -0.0020476191 -0.0027791669
-0.0087945657 -0.00030714288 -0.00024444453
-0.002325 0.00081904768 -0.00044722232
-0.00050543481 -0.00081904768 -0.00044722232
0.0056608696 0.0013309524 -0.0017652779
0.0027293479 0.00051190477 -0.0038944446
0.0089967391 0.00030714288 -0.0012583334
0.0029315217 0.0012285715 -0.0037930557
-0.002628261 -0.0021500001 -0.0021708335
-0.0034369566 0.00081904768 -0.0038944446
-0.00060652173 -0.00020476192 -0.00044722232
0.0090978267 -0.00010238096 5.9722141e-05
-0.0059641306 -0.00040952384 -0.0017652779
0.0014152174 -0.0021500001 -0.0021708335
-0.00010108696 -0.0014333334 -0.0036916668
-0.0027293479 0.0019452382 -0.0014611112
-0.004953261 0.00051190477 -0.00054861122
0.0011119565 0.0010238095 -0.0038944446
-0.0029315217 0.0020476191 -0.0025763891
0.0047510872 0.00051190477 -0.00014305564
-0.0030326087 -0.00051190477 -0.00014305564
-0.0012130435 0.0019452382 -0.0030833336
0.0010108696 0.00030714288 -0.0037930557
-0.0017184783 0.0016380954 -0.00075138902
-0.0011119565 0 -0.0038944446
-0.0061663045 -0.00040952384 -0.0017652779
-0.0088956524 0.00030714288 -0.00014305564
-0.005256522 -0.0019452382 -0.0018666668
-0.0035380435 0.0015357144 -0.00065000012
-0.0045489133 -0.00092142861 -0.00024444453
-0.004953261 0.0013309524 -0.0012583334
0.0051554348 -0.00081904768 -0.002677778
-0.0068739131 0.00081904768 -0.0023736113
0.0027293479 -0.0010238095 -0.00044722232
-0.0035380435 -0.00040952384 -0.0040972224
-0.0033358696 0.00030714288 -0.00024444453
-0.0067728264 -0.00040952384 -0.0017652779
0.0085923914 0 -0.0022722224
0.0042456524 0.0020476191 -0.0018666668
0.0050543481 0 -0.00085277786
-0.0025271741 -0.0011261905 -0.00044722232
0.00020217392 0.0021500001 -0.0021708335
-0.0067728264 0.00030714288 -0.0023736113
0.0055597825 -0.00071666669 -0.0017652779
-0.00080869568 0.0013309524 -0.0037930557
0.0040434785 -0.0020476191 -0.0019680557
-0.0050543481 -0.00010238096 -0.00095416675
0.0020217393 -0.00020476192 -0.0038944446
0.0047510872 0.00071666669 -0.00024444453
-0.00060652173 0.00071666669 -0.0038944446
-0.00465 -0.0020476191 -0.002677778
-0.0021228262 -0.0021500001 -0.0021708335
-0.0013141305 0.0010238095 -0.0038944446
0.008390218 -0.00051190477 -0.0018666668
-0.0013141305 0.00020476192 -0.0038944446
-0.0035380435 -0.0010238095 -0.00034583342
-0.0042456524 -0.0012285715 -0.00054861122
-0.0050543481 -0.00010238096 -0.00085277786
-0.0034369566 0.00071666669 -0.00044722232
-0.0053576087 -0.00020476192 -0.0015625001
0 -0.00040952384 -0.0038944446
-0.00040434784 -0.0014333334 -0.00065000012
-0.0020217393 0.00051190477 -0.0038944446
0.0088956524 0.00030714288 -0.00054861122
-0.0044478262 -0.0014333334 -0.0035902779
0.00020217392 0.0019452382 -0.0028805558
0.0057619568 -0.0012285715 -0.0023736113
0.005256522 0.00030714288 -0.0030833336
-0.00040434784 0.0019452382 -0.0027791669
-0.0020217393 0.0019452382 -0.0013597223
-0.0058630435 -0.0017404762 -0.0021708335
-0.00090978266 -0.0016380954 -0.003488889
-0.0025271741 -0.0021500001 -0.0022722224
-0.0022239131 0.00071666669 -0.00044722232
0.0086934781 -0.00020476192 -0.00085277786
-0.0090978267 0.00010238096 0.00066805549
-0.0034369566 0.00020476192 -0.00034583342
0.0085923914 0 0.00026249993
0.0048521738 -0.0017404762 -0.0015625001
-0.0032347827 -0.0019452382 -0.0029819447
0.0054586958 0.00092142861 -0.0024750002
0.0011119565 0.00071666669 -0.00044722232
-0.0033358696 -0.00061428576 -0.00014305564
-0.004346739 -0.0020476191 -0.0015625001
-0.0045489133 0.00051190477 -0.0039958335
-0.004346739 0.0020476191 -0.0020694446
-0.0012130435 0.00030714288 -0.0038944446
-0.0013141305 -0.0021500001 -0.0021708335
-0.0018195653 0.00030714288 -0.0038944446
0.0087945657 0.00030714288 0.00076944439
-0.0022239131 0.0021500001 -0.0020694446
0.0030326087 0.0017404762 -0.0032861112
0.0050543481 0.00040952384 -0.00095416675
0.00010108696 -0.00092142861 -0.0037930557
-0.0057619568 0.00092142861 -0.0017652779
0.0065706521 -0.00081904768 -0.0017652779
0.0089967391 -0.00020476192 0.0005666666
0.00465 -0.00071666669 -0.00024444453
0 0.0015357144 -0.00075138902
0.0085923914 0 0.0022902777
-0.0090978267 0.00020476192 0.0020874999
-0.0086934781 0.00010238096 0.0027972222
-0.0024260869 0.0020476191 -0.001663889
0.0011119565 0.0019452382 -0.0011569445
0.0086934781 -0.00010238096 0.0018847222
-0.0051554348 0.00040952384 -0.0010555557
0.0024260869 0.0019452382 -0.0014611112
0.0010108696 -0.0016380954 -0.00075138902
0.0028304348 0.00010238096 -0.0039958335
0.0025271741 -0.0017404762 -0.00085277786
-0.0021228262 -0.0019452382 -0.0030833336
0.0011119565 -0.00081904768 -0.00034583342
-0.0039423914 -0.0013309524 -0.0036916668
0.0045489133 0.0012285715 -0.0036916668
0.00060652173 0.00010238096 -0.00044722232
0.0016173914 0.0020476191 -0.0023736113
0.00050543481 -0.0021500001 -0.0020694446
-0.0044478262 0.0020476191 -0.0023736113
-0.00070760871 0.0020476191 -0.0027791669
-0.0041445652 0.0013309524 -0.0035902779
0.0028304348 0 -0.00024444453
-0.0025271741 0.00071666669 -0.00044722232
-0.00050543481 -0.0011261905 -0.00044722232
-0.0038413045 -0.0013309524 -0.00054861122
0.005256522 -0.00020476192 -0.002677778
-0.0012130435 0.0021500001 -0.0020694446
0.0062673916 -0.00071666669 -0.0017652779
0.0086934781 -0.00040952384 -0.001663889
0.0054586958 0.0017404762 -0.0022722224
-0.0014152174 -0.00092142861 -0.0037930557
0.00020217392 -0.0011261905 -0.00044722232
0.0085923914 0.00010238096 0.0025944444
-0.0054586958 -0.0015357144 -0.0024750002
-0.0041445652 -0.0018428572 -0.0010555557
-0.0067728264 -0.00071666669 -0.0017652779
0.00070760871 -0.00061428576 -0.0038944446
-0.0016173914 0.0010238095 -0.0038944446
0.0048521738 -0.00040952384 -0.0037930557
-0.0062673916 -0.00092142861 -0.0017652779
0.0041445652 -0.0018428572 -0.0010555557
0.00090978266 -0.0020476191 -0.0018666668
0.0082891304 -0.00030714288 -0.0022722224
-0.0012130435 -0.0013309524 -0.0037930557
-0.005256522 0.00040952384 -0.0013597223
0.0028304348 -0.0015357144 -0.00065000012
0.0062673916 0.00010238096 -0.0017652779
-0.0030326087 -0.0014333334 -0.00065000012
-0.0033358696 0.00020476192 -0.0038944446
-0.0015163043 0 -0.00044722232
-0.0067728264 -0.00081904768 -0.0023736113
-0.0071771741 -0.0010238095 -0.0017652779
0.0088956524 -0.00010238096 -0.0019680557
-0.0069750003 0.0012285715 -0.0018666668
0.0017184783 0.0015357144 -0.00075138902
0.0042456524 0.0020476191 -0.0020694446
-0.0018195653 -0.00061428576 -0.00044722232
0.0033358696 -0.00092142861 -0.0037930557
0.004953261 -0.00081904768 -0.0033875001
-0.0085923914 0 0.0027972222
0 0.0020476191 -0.0018666668
0.0086934781 -0.00010238096 0.0020874999
-0.00020217392 0.0020476191 -0.0023736113
0.00465 0.0018428572 -0.0012583334
-0.0038413045 0.00081904768 -0.00044722232
0.0088956524 0.00020476192 0.00097222219
0.0045489133 -0.00092142861 -0.0037930557
0.0022239131 -0.00010238096 -0.0038944446
-0.00050543481 0.0020476191 -0.001663889
0.0078847827 0.00092142861 -0.0018666668
-0.0068739131 0.00081904768 -0.0017652779
0.0050543481 -0.00030714288 -0.0033875001
0.0029315217 0.0020476191 -0.0024750002
0.0024260869 -0.0021500001 -0.0020694446
0.00465 0.00061428576 -0.00014305564
0.00020217392 0.0019452382 -0.0029819447
-0.0041445652 -0.00061428576 -0.00014305564
0.0055597825 0.00020476192 -0.0017652779
0.0054586958 -0.00020476192 -0.0017652779
-0.0061663045 0.0015357144 -0.0022722224
-0.0022239131 0.0020476191 -0.0019680557
0.0020217393 0.0013309524 -0.00065000012
-0.0021228262 -0.00010238096 -0.00044722232
-0.002325 0.00051190477 -0.00044722232
-0.0086934781 -0.00020476192 -0.00075138902
0.0033358696 -0.00010238096 -0.0039958335
0.0037402175 -0.0018428572 -0.0011569445
0.0035380435 -0.0020476191 -0.0019680557
0.00010108696 0.00071666669 -0.00044722232
0.0078847827 0.00020476192 -0.0023736113
0.0077836956 0.00092142861 -0.0019680557
-0.00010108696 -0.00040952384 -0.0037930557
-0.0029315217 0.0019452382 -0.0028805558
0.00080869568 0.00040952384 -0.00044722232
0.0031336958 0.00071666669 -0.0038944446
0.0017184783 -0.00071666669 -0.00044722232
-0.0062673916 -0.00020476192 -0.0024750002
0.0029315217 -0.0019452382 -0.0012583334
-0.0061663045 0.0013309524 -0.0017652779
0.0011119565 -0.0018428572 -0.00095416675
0.00070760871 0.0010238095 -0.00044722232
-0.0060652173 0.0015357144 -0.0021708335
-0.0044478262 0.0014333334 -0.00075138902
-0.002628261 -0.0012285715 -0.0037930557
0.0053576087 0 -0.0025763891
0.0030326087 0.0019452382 -0.0028805558
-0.0054586958 0.0017404762 -0.0021708335
0.0073793479 0.00061428576 -0.0023736113
0.0027293479 -0.0019452382 -0.0029819447
0.0025271741 -0.0019452382 -0.0014611112
-0.002628261 -0.00071666669 -0.0039958335
0.0035380435 0.0020476191 -0.0015625001
0.0040434785 -0.0020476191 -0.0017652779
0.0015163043 0.00092142861 -0.00044722232
0.00090978266 0.00051190477 -0.00044722232
-0.00020217392 -0.00020476192 -0.0038944446
-0.0040434785 0.0010238095 -0.0038944446
-0.0055597825 -0.00010238096 -0.0024750002
0.0015163043 -0.0020476191 -0.001663889
0.0038413045 -0.00081904768 -0.00034583342
-0.0011119565 0.00020476192 -0.0038944446
0.00060652173 0.0018428572 -0.0010555557
0.0061663045 -0.0015357144 -0.0019680557
-0.0071771741 -0.00030714288 -0.0023736113
-0.0015163043 -0.0012285715 -0.00054861122
0.0072782612 -0.0011261905 -0.0019680557
0.008390218 0.00051190477 -0.0020694446
-0.0042456524 -0.00010238096 -0.00014305564
-0.0069750003 -0.00061428576 -0.0023736113
0.002628261 0.0010238095 -0.00044722232
-0.002325 -0.0010238095 -0.0038944446
0.0033358696 -0.00092142861 -0.00024444453
-0.0074804351 0.00010238096 -0.0023736113
-0.0020217393 0.0020476191 -0.001663889
0.0011119565 -0.0011261905 -0.0037930557
-0.0051554348 0.00061428576 -0.0013597223
-0.0065706521 -0.0012285715 -0.0017652779
0.0030326087 0.0020476191 -0.0025763891
-0.0042456524 -0.0013309524 -0.00065000012
0 -0.00092142861 -0.0037930557
0.0019206522 -0.0020476191 -0.0015625001
-0.0039423914 0.0015357144 -0.00075138902
0.0078847827 -0.00081904768 -0.0018666668
0.00050543481 0.0013309524 -0.00065000012
0.0028304348 0.0018428572 -0.0010555557
0.0024260869 -0.0019452382 -0.0030833336
0.0017184783 0.00010238096 -0.00044722232
-0.00010108696 0.0010238095 -0.00044722232
-0.00465 -0.00071666669 -0.00024444453
-0.0038413045 0.00081904768 -0.0038944446
0.00070760871 0.0020476191 -0.002677778
-0.0014152174 0.0019452382 -0.0027791669
0.004346739 0.00071666669 -0.0039958335
-0.0051554348 0.0010238095 -0.001663889
0.0035380435 0.0013309524 -0.00065000012
0.0069750003 0.00071666669 -0.0023736113
-0.0039423914 0.00071666669 -0.00024444453
0.002628261 0.00020476192 -0.0038944446
0.0054586958 0 -0.0024750002
-0.0021228262 -0.0019452382 -0.0013597223
-0.00080869568 0.0020476191 -0.0024750002
0.0032347827 -0.0015357144 -0.0035902779
0.0047510872 -0.0013309524 -0.00075138902
0.0028304348 0.0021500001 -0.0020694446
0.004953261 0.00040952384 -0.00054861122
0.0087945657 0.00020476192 0.0018847222
-0.0055597825 0.0012285715 -0.0017652779
-0.002628261 0.0017404762 -0.0032861112
0.0063684783 -0.00010238096 -0.0024750002
-0.0051554348 -0.0012285715 -0.0015625001
0.0029315217 0.00040952384 -0.0039958335
-0.0048521738 0.0011261905 -0.0033875001
-0.00070760871 0.0020476191 -0.0017652779
-0.0012130435 -0.00010238096 -0.00044722232
0.0019206522 0.0013309524 -0.00065000012
0.0051554348 -0.00071666669 -0.0013597223
-0.004953261 0.0011261905 -0.0031847225
0.0022239131 0.0020476191 -0.0023736113
-0.005256522 -0.0015357144 -0.0017652779
0.0028304348 -0.0013309524 -0.0036916668
0.0087945657 0.00030714288 0.0004652777
-0.00040434784 -0.00092142861 -0.00044722232
0.0029315217 -0.0018428572 -0.0010555557
0.0066717393 0.0013309524 -0.0023736113
-0.002325 -0.00020476192 -0.00034583342
0.0059641306 0.00051190477 -0.0024750002
-0.0063684783 0.00040952384 -0.0017652779
0.0074804351 0.00030714288 -0.0018666668
0.005256522 0.00071666669 -0.0015625001
-0.0090978267 0.00020476192 0.0016819444
0.0022239131 0.00010238096 -0.0038944446
-0.0033358696 0.0015357144 -0.0035902779
-0.0072782612 0.00061428576 -0.0017652779
-0.0041445652 0.0020476191 -0.001663889
-0.0036391306 0.00040952384 -0.00014305564
-0.0055597825 -0.0010238095 -0.0017652779
0.0024260869 0.0010238095 -0.00044722232
0.0015163043 0.0014333334 -0.0036916668
-0.0035380435 -0.00092142861 -0.0039958335
-0.0013141305 0.0020476191 -0.0019680557
0.0027293479 0.00071666669 -0.0038944446
0.0031336958 0.0013309524 -0.00065000012
-0.0089967391 0.00020476192 5.9722141e-05
-0.0058630435 -0.00071666669 -0.0024750002
-0.0017184783 -0.0020476191 -0.0015625001
-0.0075815218 -0.00051190477 -0.0017652779
-0.0074804351 0.0010238095 -0.0019680557
0.0060652173 0.00040952384 -0.0017652779
-0.0090978267 0.00010238096 0.0025944444
-0.004953261 -0.0019452382 -0.0022722224
-0.0085923914 -0.00010238096 0.0020874999
0.0039423914 -0.00092142861 -0.00044722232
0.0033358696 -0.0018428572 -0.0010555557
0 0.0014333334 -0.0036916668
-0.0063684783 0.00051190477 -0.0023736113
0.0076826089 0.00010238096 -0.0023736113
0.0044478262 -0.0018428572 -0.0010555557
-0.0053576087 -0.00071666669 -0.001663889
0.0048521738 0.0018428572 -0.0015625001
0.00090978266 -0.0015357144 -0.00075138902
0.0010108696 0.0013309524 -0.0037930557
0.00020217392 -0.00051190477 -0.00044722232
-0.0041445652 -0.0021500001 -0.0019680557
-0.004953261 -0.00010238096 -0.0035902779
0.0010108696 -0.00071666669 -0.0038944446
0.0059641306 0.00040952384 -0.0024750002
-0.0029315217 0.00040952384 -0.0038944446
-0.0064695654 -0.00092142861 -0.0017652779
0.0010108696 -0.0020476191 -0.0025763891
-0.0070760869 -0.00040952384 -0.0017652779
0.0034369566 -0.00010238096 -0.0039958335
0.0086934781 -0.00020476192 0.0021888888
-0.0067728264 0.00092142861 -0.0017652779
-0.00080869568 0.0018428572 -0.0032861112
0.0035380435 -0.0019452382 -0.0030833336
-0.0040434785 -0.00071666669 -0.00014305564
-0.0070760869 0.00010238096 -0.0017652779
-0.0038413045 0.0016380954 -0.0033875001
-0.0010108696 -0.0019452382 -0.0013597223
0.0054586958 -0.0010238095 -0.0017652779
-0.0025271741 0.0021500001 -0.0022722224
0.0073793479 0.0010238095 -0.0019680557
0.002325 0.00071666669 -0.00044722232
0.0027293479 0.00030714288 -0.00024444453
-0.00020217392 0.0019452382 -0.0013597223
-0.002628261 0.0011261905 -0.0037930557
-0.00020217392 -0.00092142861 -0.0038944446
0.00080869568 -0.0019452382 -0.0013597223
0.0022239131 0.0016380954 -0.00085277786
0.0078847827 -0.00051190477 -0.0023736113
-0.00040434784 -0.0019452382 -0.0013597223
0.00030326087 0.00081904768 -0.0038944446
0.0025271741 -0.00051190477 -0.0038944446
0.0086934781 -0.00020476192 0.00087083329
-0.0037402175 -0.0016380954 -0.00085277786
0.0051554348 0.0012285715 -0.0025763891
-0.0024260869 0.0017404762 -0.0033875001
-0.00465 0 -0.0039958335
0.0039423914 0.0021500001 -0.0021708335
0.0021228262 -0.00010238096 -0.00024444453
0.0051554348 -0.00081904768 -0.0029819447
-0.0062673916 0 -0.0017652779
-0.0044478262 -0.00071666669 -0.00014305564
0.0035380435 -0.00081904768 -0.00034583342
-0.0015163043 0.0018428572 -0.0032861112
0.0035380435 -0.00092142861 -0.00024444453
-0.0029315217 0.0010238095 -0.0037930557
0.00010108696 0.0014333334 -0.0037930557
-0.0033358696 0.00020476192 -0.00014305564
-0.0051554348 0.00020476192 -0.0031847225
-0.005256522 -0.00010238096 -0.0029819447
-0.0060652173 -0.00010238096 -0.0024750002
-0.0012130435 0.00040952384 -0.0038944446
-0.0010108696 -0.00020476192 -0.00044722232
-0.0050543481 -0.0012285715 -0.0030833336
-0.0013141305 0.0020476191 -0.0015625001
0.0036391306 -0.00071666669 -0.0039958335
-0.0012130435 0.00061428576 -0.00044722232
-0.0042456524 0.0017404762 -0.0010555557
0.0029315217 0.0021500001 -0.0019680557
-0.00050543481 -0.0017404762 -0.0033875001
-0.0032347827 0.00040952384 -0.00044722232
0.0020217393 -0.0013309524 -0.0036916668
-0.0047510872 0 -0.0039958335
-0.0091989134 -0.00010238096 0.0012763889
-0.0014152174 -0.0020476191 -0.002677778
-0.0031336958 0.0016380954 -0.00085277786
-0.0029315217 -0.00061428576 -0.0039958335
-0.004953261 -0.00051190477 -0.0035902779
-0.0047510872 -0.0020476191 -0.001663889
-0.00010108696 -0.00071666669 -0.0038944446
0.0088956524 0.00030714288 -4.166675e-05
0.0061663045 -0.00040952384 -0.0017652779
0.0087945657 -0.00040952384 -0.00095416675
0.0085923914 0 0.0016819444
0.00060652173 -0.00010238096 -0.0038944446
0.004346739 0.0020476191 -0.0025763891
-0.008390218 0.00051190477 -0.0020694446
0.0075815218 -0.00020476192 -0.0023736113
0.0019206522 0.00010238096 -0.00044722232
-0.0045489133 -0.0020476191 -0.002677778
-0.0056608696 -0.0015357144 -0.0017652779
-0.0013141305 -0.0013309524 -0.00054861122
-0.0062673916 0.0010238095 -0.0023736113
-0.0061663045 0.00040952384 -0.0023736113
0.0025271741 0.00061428576 -0.00024444453
-0.00080869568 0.0017404762 -0.0033875001
0.0079858694 -0.00061428576 -0.0018666668
0.0048521738 -0.0011261905 -0.0035902779
-0.0029315217 0.0017404762 -0.00095416675
0.0077836956 0.00092142861 -0.0017652779
-0.00465 0.0012285715 -0.0036916668
0.0055597825 0 -0.0024750002
-0.0024260869 0.0010238095 -0.00044722232
-0.0068739131 0.00030714288 -0.0023736113
-0.0088956524 0.00030714288 -0.00034583342
0.0017184783 0.0021500001 -0.0019680557
-0.002628261 -0.0012285715 -0.00054861122
-0.0013141305 0.0020476191 -0.0023736113
-0.0013141305 0.0020476191 -0.0018666668
-0.0087945657 -0.00030714288 -0.0020694446
-0.0038413045 0.0016380954 -0.00085277786
0.0073793479 0.0010238095 -0.0021708335
0.005256522 0.0011261905 -0.0015625001
-0.0045489133 -0.0017404762 -0.00095416675
0.0090978267 0.00010238096 0.00097222219
0.008390218 -0.00020476192 -0.0017652779
0.0053576087 -0.00051190477 -0.0025763891
-0.0017184783 -0.00020476192 -0.00044722232
-0.0030326087 0.0018428572 -0.0011569445
0.0044478262 0.0015357144 -0.00075138902
0.0030326087 0.0011261905 -0.00044722232
-0.0011119565 0.0011261905 -0.0038944446
0.0057619568 0.00051190477 -0.0024750002
0.0010108696 -0.0020476191 -0.0027791669
-0.0031336958 0.00010238096 -0.0039958335
0.0061663045 0.00061428576 -0.0024750002
-0.0042456524 -0.0018428572 -0.0010555557
0.0038413045 0.0018428572 -0.0030833336
0.0044478262 -0.00092142861 -0.00034583342
-0.0065706521 -0.0012285715 -0.0023736113
-0.0019206522 0.00051190477 -0.0038944446
-0.0063684783 0.00040952384 -0.0023736113
-0.0019206522 -0.00051190477 -0.00044722232
0.0024260869 -0.0012285715 -0.0038944446
0.0062673916 0.00051190477 -0.0017652779
-0.0029315217 0.00030714288 -0.00044722232
-0.00010108696 0.0019452382 -0.0029819447
-0.0015163043 0.00040952384 -0.00044722232
-0.0050543481 0 -0.00085277786
0.0089967391 -0.00020476192 -4.166675e-05
0.002325 0.0020476191 -0.0018666668
-0.0050543481 -0.00092142861 -0.0032861112
0.0067728264 -0.0012285715 -0.0022722224
-0.00070760871 0.00040952384 -0.00044722232
0.0085923914 0 0.0017833333
