# .PCD v0.7 - Point Cloud Data file format
VERSION 0.7
FIELDS x y z
SIZE 4 4 4
TYPE F F F
COUNT 1 1 1
WIDTH 1197
HEIGHT 1
VIEWPOINT 0 0 0 1 0 0 0
POINTS 1197
DATA ascii
-0.011033962 0.0062500001 -0.0057806247
-0.022716982 -0.0059210528 -0.012284791
0.013954718 0.0062500001 -0.0083822915
0.013305661 -0.0039473684 -0.00025208326
0.0058415099 -0.0062500001 -0.00090249995
-0.031154718 -0.0029605264 -0.012284791
0.019471699 -0.0019736842 -0.00025208326
-0.027260378 0.003618421 -0.00025208326
0.0055169812 -0.0032894737 -0.00025208326
0.031154718 -0.0032894737 -0.0093579162
0.0087622646 -0.0049342103 -0.012284791
-0.017524529 0.0039473684 -0.00025208326
-0.0048679248 -0.0062500001 -0.004154583
0.029532077 0.0023026315 -0.00057729159
-0.011033962 -0.0032894737 -0.00025208326
-0.03083019 0.0059210528 -0.0057806247
0.016226416 -0.0062500001 -0.0087075001
-0.0019471699 -0.0059210528 -0.004154583
-0.016875472 -0.0062500001 -0.0090327077
0.0012981133 -0.0013157895 -0.01261
-0.026935849 -0.0062500001 -0.0083822915
0.0061660381 -0.0049342103 -0.012284791
0.0071396232 -0.003618421 -0.012284791
0.013954718 -0.0052631581 -0.00025208326
0.025962265 -8.6736174e-19 -0.00025208326
-0.0045433966 -0.0016447369 -0.01261
-0.00064905663 -0.0039473684 -0.012284791
0.031479247 -0.0023026315 -0.0070814583
-0.0071396232 -0.0062500001 -0.00057729159
-0.020445284 0.0039473684 -0.00025208326
0 0.0059210528 -0.004154583
-0.031479247 0.00065789477 -0.0031789583
-0.012332076 0.0062500001 -0.0057806247
-0.019147171 0.0062500001 -0.0051302081
-0.0068150945 -8.6736174e-19 -0.00025208326
-0.028883019 0.0059210528 -0.0061058332
-0.013305661 0.0062500001 -0.0074066664
0.00064905663 0.0062500001 -0.0025285415
0.026286794 0.0013157895 -0.00025208326
-0.03083019 -0.0055921054 -0.008057083
-0.016875472 0.003618421 -0.00025208326
-0.0081132082 0.0062500001 -0.0090327077
-0.03083019 0.0042763157 -0.0015529166
-0.016226416 -0.0055921054 -0.012284791
-0.0090867933 -0.0016447369 -0.00025208326
0.0025962265 -0.0055921054 -0.00025208326
0.013630189 0.004605263 -0.012284791
-0.019147171 -0.0062500001 -0.011309166
-0.03083019 0.0055921054 -0.0093579162
0.0055169812 -0.0029605264 -0.012284791
0.034075473 -8.6736174e-19 -0.0015529166
0.033426415 0.0013157895 -0.0061058332
-0.01525283 0.0062500001 -0.004154583
-0.009411321 -0.0062500001 -0.0087075001
-0.031154718 -0.0026315791 -0.0018781249
-0.0090867933 0.0059210528 -0.00025208326
0.0016226416 0.0026315791 -0.012284791
0.013630189 0.0062500001 -0.0096831247
-0.03083019 0.004605263 -0.004805
0.0081132082 -0.0055921054 -0.00025208326
-0.0019471699 -0.0062500001 -0.0070814583
-0.031803776 0.004605263 -0.0067562498
0.0032452832 0.0023026315 -0.01261
0.013630189 -0.0013157895 -0.00025208326
0.0032452832 -0.0059210528 -0.0064310413
0.0022716983 0.0062500001 -0.00057729159
-0.010384906 0.0062500001 -0.004805
-0.0064905663 0.003618421 -0.00025208326
-0.0081132082 -0.00098684209 -0.00025208326
-0.014603774 0.0062500001 -0.0022033332
-0.014603774 -0.003618421 -0.00025208326
-0.027584907 -0.0016447369 -0.012284791
0.022392454 0.0026315791 -0.012284791
-0.03083019 0.004605263 -0.010333542
0.0035698116 -0.0062500001 -0.00057729159
-0.016550943 0.0062500001 -0.0090327077
0.023041511 0.0029605264 -0.00025208326
-0.00064905663 -0.0023026315 -0.00025208326
0.027909435 -0.0013157895 -0.012284791
-0.031154718 -8.6736174e-19 -0.008057083
-0.016875472 0.0062500001 -0.010333542
-0.027584907 -0.00065789477 -0.012284791
-0.0016226416 -0.0059210528 -0.0022033332
-0.0045433966 -0.003618421 -0.00025208326
0.002920755 0.003618421 -0.012284791
0.012981133 0.0062500001 -0.00025208326
-0.0058415099 0.0032894737 -0.00025208326
-0.0022716983 0.0055921054 -0.012284791
0.021094341 -0.0062500001 -0.0074066664
-0.015901888 -0.0055921054 -0.00025208326
0.027260378 0.00065789477 -0.01261
0.024339624 0.0062500001 -0.004805
-0.021418869 0.0062500001 -0.004154583
0.013630189 0.0062500001 -0.0087075001
0.016226416 0.0016447369 -0.01261
0.024988681 -0.0032894737 -0.00025208326
0.016226416 0.0062500001 -0.010658749
0.0064905663 0.0062500001 -0.0028537498
0.031479247 0.00098684209 -0.00057729159
0.0048679248 0.0032894737 -0.00025208326
-0.031154718 0.0026315791 -0.0018781249
-0.012981133 0.0062500001 -0.00057729159
0.024664152 0.0026315791 -0.012284791
0.0016226416 -0.0026315791 -0.00025208326
0.025313208 -0.00098684209 -0.012284791
-0.028883019 -0.003618421 -0.012284791
-0.017200001 0.0052631581 -0.00025208326
0.01168302 -0.00032894738 -0.01261
0.0012981133 0.0055921054 -0.00025208326
-0.00032452832 0.0059210528 -0.0051302081
-0.029532077 -0.0019736842 -0.012284791
-0.024339624 0.0062500001 -0.011634375
0.0064905663 0.0059210528 -0.00025208326
0.026286794 -0.0062500001 -0.004805
-0.0035698116 -0.0052631581 -0.012284791
0.03083019 -0.0049342103 -0.00025208326
0.0019471699 -0.0062500001 -0.00090249995
0.017200001 -8.6736174e-19 -0.00025208326
-0.020445284 -0.0055921054 -0.012284791
0.021094341 -0.0026315791 -0.012284791
-0.009411321 0.00098684209 -0.00025208326
0.012007548 0.0019736842 -0.00025208326
0.031154718 -0.003618421 -0.0087075001
-0.020120755 -0.0062500001 -0.0044797915
-0.019796228 0.0042763157 -0.00025208326
-0.028883019 -0.0062500001 -0.00057729159
-0.01525283 0.0062500001 -0.0031789583
0.03083019 0.0026315791 -0.00057729159
0.023041511 0.0062500001 -0.010333542
-0.014279246 0.0039473684 -0.00025208326
-0.031154718 -0.00032894738 -0.0051302081
-0.021418869 -0.00032894738 -0.012284791
0.012981133 0.00098684209 -0.00025208326
0.024339624 -0.0062500001 -0.010333542
-0.016875472 0.0062500001 -0.0077318749
-0.0055169812 0.00065789477 -0.012284791
-0.002920755 -0.0019736842 -0.01261
0.022067925 -0.0059210528 -0.00025208326
-0.0064905663 -0.0062500001 -0.0083822915
-0.014279246 0.0029605264 -0.00025208326
0.025637737 -0.0062500001 -0.010008333
0.022067925 -0.0052631581 -0.00025208326
0.00064905663 -0.0059210528 -0.011634375
0.031479247 -8.6736174e-19 -0.004154583
0.014603774 0.0059210528 -0.00025208326
-0.016550943 0.004605263 -0.012284791
0.014279246 -0.0062500001 -0.0093579162
0.028883019 -0.0062500001 -0.00025208326
-0.0045433966 -0.0062500001 -0.0028537498
0.025637737 -0.0062500001 -0.0070814583
0.018822642 0.0062500001 -0.008057083
0.03083019 -0.0055921054 -0.0087075001
0.011033962 0.0062500001 -0.0035041666
-0.03083019 0.0042763157 -0.0022033332
-0.0022716983 -0.0059210528 -0.0028537498
-0.031479247 0.00098684209 -0.0070814583
0.024339624 -0.0062500001 -0.0015529166
-0.011358491 0.0055921054 -0.00025208326
0.022716982 -8.6736174e-19 -0.00025208326
0.013305661 0.0062500001 -0.0015529166
0.014928303 -0.0055921054 -0.012284791
0.031154718 0.0029605264 -0.0090327077
0.002920755 0.0062500001 -0.0057806247
0.01525283 0.0062500001 -0.00090249995
0.033750944 -0.00032894738 -0.0061058332
-0.015901888 0.0062500001 -0.0038293749
0.0035698116 -0.0059210528 -0.012284791
0.023690566 0.0062500001 -0.0038293749
-0.026286794 -0.0042763157 -0.00025208326
-0.028233964 0.0062500001 -0.0070814583
-0.0087622646 0.0062500001 -0.00025208326
0.0058415099 0.00098684209 -0.00025208326
0.025313208 0.003618421 -0.00025208326
-0.025962265 0.0062500001 -0.0038293749
0.03083019 0.0062500001 -0.0022033332
0.019147171 -0.0023026315 -0.012284791
-0.019471699 -0.0062500001 -0.0067562498
0.02336604 0.0039473684 -0.012284791
-0.0038943398 0.0013157895 -0.00025208326
0.020769812 0.0052631581 -0.00025208326
-0.027260378 -0.0062500001 -0.0018781249
-0.027909435 0.0062500001 -0.0093579162
0.008437736 -0.0023026315 -0.00025208326
-0.025637737 0.00098684209 -0.00025208326
0.0016226416 -0.0059210528 -0.0061058332
0.010384906 -0.0032894737 -0.00025208326
-0.017524529 0.0062500001 -0.0090327077
-0.017200001 -0.0062500001 -0.0012277083
0.010709435 0.0032894737 -0.012284791
-0.020445284 -0.0013157895 -0.00025208326
-0.021418869 -0.004605263 -0.012284791
-0.012981133 0.0016447369 -0.00025208326
0.012656604 0.0062500001 -0.0038293749
0.0071396232 -0.0032894737 -0.00025208326
-0.031803776 0.0042763157 -0.0057806247
-0.03083019 0.0039473684 -0.0087075001
0.011358491 -0.00065789477 -0.012284791
-0.022392454 0.0029605264 -0.00025208326
-0.028558493 0.0029605264 -0.012284791
-0.00097358495 -0.0059210528 -0.0093579162
0.0019471699 0.0062500001 -0.0064310413
-0.020445284 0.004605263 -0.00025208326
0.012007548 0.0062500001 -0.0051302081
-0.027584907 -0.00032894738 -0.012284791
-0.0097358497 0.004605263 -0.00025208326
0.019796228 0.00032894738 -0.00025208326
-0.018822642 -0.0026315791 -0.012284791
-0.017849058 -0.0062500001 -0.008057083
0.028558493 -0.0062500001 -0.00025208326
0.004218868 -0.0062500001 -0.0064310413
-0.0012981133 0.0059210528 -0.00025208326
0.00064905663 -0.003618421 -0.00025208326
-0.016875472 -0.0062500001 -0.0025285415
-0.0090867933 -0.0026315791 -0.00025208326
-0.022716982 0.0062500001 -0.0012277083
-0.025313208 0.0026315791 -0.012284791
-0.021418869 0.0013157895 -0.012284791
-0.011358491 0.0062500001 -0.0031789583
-0.021418869 -0.0013157895 -0.01261
0.032777362 -0.0026315791 -0.0061058332
-0.016550943 0.0032894737 -0.00025208326
-0.023041511 -0.00032894738 -0.00025208326
-0.033101887 -8.6736174e-19 -0.0061058332
0.031479247 -8.6736174e-19 -0.0051302081
-0.023690566 0.0052631581 -0.00025208326
-0.010384906 0.0023026315 -0.00025208326
0.031154718 0.0052631581 -0.0074066664
-0.00097358495 0.0023026315 -0.01261
-0.016226416 -0.0062500001 -0.0028537498
-0.025313208 0.0019736842 -0.012284791
-0.033101887 0.00098684209 -0.0061058332
0.002920755 0.004605263 -0.012284791
-0.010709435 -0.0019736842 -0.01261
0.0019471699 0.0062500001 -0.0031789583
0.0097358497 0.0062500001 -0.00025208326
-0.012981133 0.0059210528 -0.011959583
-0.0025962265 -0.0059210528 -0.0018781249
0.03083019 -0.0059210528 -0.00057729159
-0.018822642 0.003618421 -0.012284791
-0.022716982 0.0062500001 -0.0064310413
0.024988681 -0.00065789477 -0.012284791
-0.027909435 -0.0062500001 -0.00025208326
-0.012007548 0.0062500001 -0.0051302081
0.022392454 0.0062500001 -0.0054554166
-0.0045433966 -0.0062500001 -0.004154583
0.024015095 0.0062500001 -0.004805
-0.015577359 -0.0062500001 -0.011634375
0.0038943398 0.0052631581 -0.00025208326
0.028558493 0.0062500001 -0.0096831247
-0.023041511 -0.0052631581 -0.00025208326
0.0022716983 -0.0059210528 -0.0061058332
-0.0068150945 -0.0062500001 -0.0083822915
-0.013630189 -0.0062500001 -0.0057806247
-0.0068150945 0.00065789477 -0.01261
0.020120755 -0.0049342103 -0.00025208326
0.031154718 0.0039473684 -0.0028537498
-0.012332076 -0.0029605264 -0.01261
-0.00097358495 -0.0059210528 -0.0064310413
0.0074641514 0.0062500001 -0.0038293749
0.011358491 0.00065789477 -0.01261
0.026935849 -0.0062500001 -0.011634375
0.025637737 0.0023026315 -0.00025208326
0.031479247 0.00098684209 -0.0025285415
-0.0038943398 -0.0029605264 -0.00025208326
0.030505661 -0.0062500001 -0.0064310413
0.011358491 0.0019736842 -0.00025208326
0.021743396 -0.0062500001 -0.010333542
0.016226416 -0.0039473684 -0.00025208326
-0.0071396232 0.0062500001 -0.011959583
-0.0077886796 0.0055921054 -0.012284791
-0.00064905663 -0.0059210528 -0.0077318749
-0.026611323 0.00098684209 -0.012284791
0.016550943 -8.6736174e-19 -0.012284791
-0.031154718 0.0029605264 -0.011309166
0.029856605 -8.6736174e-19 -0.012284791
0.011033962 -0.0062500001 -0.011309166
0.031154718 -0.0029605264 -0.011309166
-0.0035698116 0.0059210528 -0.0070814583
0.019147171 0.004605263 -0.012284791
-0.01168302 0.0039473684 -0.012284791
0.00032452832 0.0059210528 -0.0031789583
-0.016550943 0.0062500001 -0.0093579162
0.0038943398 0.0062500001 -0.0031789583
0.015577359 -0.0062500001 -0.0074066664
0.020120755 -0.0062500001 -0.0064310413
-0.013305661 -0.0062500001 -0.0090327077
-0.024339624 0.0026315791 -0.00025208326
-0.0025962265 0.0059210528 -0.00025208326
0.0090867933 -0.0029605264 -0.012284791
0.024015095 0.0026315791 -0.00025208326
-0.0016226416 -0.0059210528 -0.0051302081
-0.027909435 0.0055921054 -0.011959583
-0.0081132082 0.00098684209 -0.00025208326
-0.025962265 -0.0062500001 -0.0015529166
-0.012981133 0.00032894738 -0.012284791
0.022392454 -0.004605263 -0.012284791
-0.019147171 0.0026315791 -0.012284791
-0.029856605 -0.0055921054 -0.012284791
0.024988681 -0.0062500001 -0.00025208326
0.016226416 0.0062500001 -0.0022033332
-0.020120755 0.0052631581 -0.00025208326
0.030181134 0.0062500001 -0.0070814583
0.0038943398 -0.00032894738 -0.00025208326
-0.033750944 -0.00032894738 -0.0057806247
0.018822642 -0.0062500001 -0.0015529166
0.02336604 0.0062500001 -0.0015529166
0.022067925 0.0032894737 -0.012284791
0.0048679248 -0.003618421 -0.012284791
0.0081132082 0.0062500001 -0.0070814583
0.0012981133 0.00065789477 -0.01261
0.014603774 -0.0062500001 -0.0015529166
-0.019471699 -0.0052631581 -0.012284791
0.011358491 0.0062500001 -0.0012277083
-0.03083019 0.0059210528 -0.0031789583
-0.016226416 -0.0062500001 -0.0018781249
0.017200001 -0.0062500001 -0.0096831247
0.018173587 0.0032894737 -0.012284791
0.016875472 -0.0062500001 -0.00090249995
0.0048679248 -0.0062500001 -0.00057729159
0.0068150945 -0.0062500001 -0.0028537498
-0.0071396232 0.0062500001 -0.0031789583
-0.023690566 0.0062500001 -0.0025285415
0.016226416 0.0055921054 -0.00025208326
0.012332076 -0.0029605264 -0.00025208326
0.032128304 -0.0019736842 -0.0061058332
0.021418869 0.0013157895 -0.00025208326
0.019796228 -0.0062500001 -0.0028537498
0.026286794 -0.00098684209 -0.012284791
-0.019147171 -0.0032894737 -0.00025208326
-0.03083019 0.0039473684 -0.012284791
-0.0061660381 0.0062500001 -0.0035041666
0.00064905663 -0.0055921054 -0.0018781249
0.031154718 0.0052631581 -0.0051302081
0.026286794 -0.0062500001 -0.0083822915
-0.010060377 -0.0062500001 -0.0022033332
-0.0068150945 0.0062500001 -0.0025285415
-0.0016226416 0.0042763157 -0.00025208326
-0.017849058 0.0049342103 -0.00025208326
-0.029207548 -0.003618421 -0.012284791
-0.015901888 -0.0013157895 -0.00025208326
0.0012981133 -0.00065789477 -0.00025208326
0.028233964 -0.004605263 -0.012284791
0.014928303 0.003618421 -0.012284791
-0.034075473 0.00065789477 -0.004805
-0.0097358497 0.0052631581 -0.012284791
0.0038943398 -0.0062500001 -0.0035041666
0.031154718 0.0062500001 -0.0035041666
-0.026935849 0.0059210528 -0.00025208326
-0.028233964 -0.0062500001 -0.004805
0.02336604 -0.0062500001 -0.0074066664
-0.0077886796 -0.0062500001 -0.011959583
-0.033750944 -0.00065789477 -0.00057729159
0.017200001 -0.0062500001 -0.0083822915
0.022392454 0.0062500001 -0.011634375
0.011358491 -0.0062500001 -0.00090249995
0.023041511 0.0055921054 -0.012284791
0.025313208 -0.0062500001 -0.004805
0.034075473 -8.6736174e-19 0.0020243751
-0.0032452832 0.0059210528 -0.0067562498
0.031803776 0.00065789477 -0.0057806247
0.019796228 -0.0049342103 -0.00025208326
-0.00032452832 0.003618421 -0.012284791
-0.032128304 -8.6736174e-19 -0.0061058332
-0.016550943 0.0062500001 -0.0051302081
0.011358491 -0.0062500001 -0.011309166
-0.028558493 -0.0016447369 -0.012284791
-0.0035698116 -0.00065789477 -0.01261
-0.024664152 -0.0055921054 -0.00025208326
-0.0061660381 0.0023026315 -0.012284791
-0.031154718 -0.0029605264 -0.0077318749
-0.026286794 0.0062500001 -0.0061058332
0.026935849 -0.0052631581 -0.00025208326
-0.016550943 0.0062500001 -0.0096831247
-0.023690566 -0.0062500001 -0.011959583
0.023041511 0.0062500001 -0.0057806247
-0.012332076 0.0062500001 -0.0025285415
0.025962265 0.00032894738 -0.00025208326
-0.0081132082 0.003618421 -0.00025208326
0.005192453 -0.00065789477 -0.00025208326
-0.021094341 -0.0062500001 -0.0077318749
0.020120755 -0.0062500001 -0.0025285415
0.026935849 0.0062500001 -0.0070814583
0.014928303 -0.0062500001 -0.0054554166
0.0074641514 -0.004605263 -0.00025208326
0.01168302 -0.0023026315 -0.00025208326
-0.020120755 0.00032894738 -0.00025208326
-0.0012981133 0.0059210528 -0.0064310413
-0.0055169812 0.00065789477 -0.00025208326
-0.020120755 0.0062500001 -0.0054554166
0.00097358495 0.00065789477 -0.00025208326
-0.019147171 -0.0062500001 -0.0087075001
-0.010384906 0.0062500001 -0.0015529166
-0.024988681 -0.0062500001 -0.0025285415
-0.0061660381 -0.0023026315 -0.00025208326
-0.03083019 0.0062500001 -0.0035041666
-0.0074641514 -0.0062500001 -0.0090327077
-0.0038943398 -8.6736174e-19 -0.01261
-0.015577359 0.0016447369 -0.00025208326
0.017849058 0.0039473684 -0.00025208326
0.0058415099 -0.00032894738 -0.01261
0.03083019 -0.0039473684 -0.0054554166
0.023041511 0.0062500001 -0.0087075001
0.0081132082 0.0062500001 -0.004154583
-0.018822642 -0.0062500001 -0.0090327077
-0.0071396232 0.0062500001 -0.0015529166
-0.0081132082 -0.0062500001 -0.0012277083
-0.023041511 0.0062500001 -0.004805
0.011358491 -0.0059210528 -0.00025208326
-0.034075473 -8.6736174e-19 -0.0061058332
0.031154718 0.0026315791 -0.0077318749
0.032452833 -0.0029605264 -0.0061058332
-0.026286794 0.004605263 -0.012284791
-0.018822642 0.0059210528 -0.00025208326
0.005192453 -0.0062500001 -0.010983958
0.0068150945 -0.00032894738 -0.012284791
-0.0019471699 -0.0049342103 -0.00025208326
0.010709435 -0.0023026315 -0.012284791
-0.020120755 -0.0039473684 -0.012284791
0.023690566 0.0059210528 -0.00025208326
-0.00064905663 0.0059210528 -0.0064310413
0.032452833 0.0026315791 -0.0061058332
-0.022392454 0.00098684209 -0.00025208326
-0.031154718 -0.0013157895 -0.0093579162
0.0071396232 0.0062500001 -0.0025285415
-0.027584907 0.0062500001 -0.011309166
-0.0055169812 -0.003618421 -0.00025208326
0.002920755 -0.0059210528 -0.0087075001
-0.017524529 0.004605263 -0.012284791
0.031154718 -0.0029605264 -0.010333542
-0.0071396232 0.0019736842 -0.012284791
0.00097358495 0.0062500001 -0.0057806247
-0.011033962 0.0049342103 -0.012284791
0.018822642 -0.0062500001 -0.0074066664
0.027909435 0.0062500001 -0.0070814583
0.028883019 -0.0049342103 -0.00025208326
0.018498113 0.003618421 -0.012284791
-0.023041511 0.004605263 -0.00025208326
-0.0048679248 0.0062500001 -0.0054554166
0.010709435 0.0062500001 -0.0054554166
0.022716982 -0.0032894737 -0.012284791
0.0048679248 0.0062500001 -0.011634375
0.025637737 0.0062500001 -0.0015529166
-0.0061660381 -0.003618421 -0.00025208326
0.031154718 -0.0013157895 -0.011634375
-0.013630189 0.0039473684 -0.012284791
0.00064905663 -0.0055921054 -0.010333542
-0.00032452832 -0.0062500001 -0.00025208326
0.032128304 0.0029605264 -0.0061058332
-0.015577359 0.0013157895 -0.00025208326
0.016550943 -0.0062500001 -0.00025208326
0.029856605 -0.0062500001 -0.0074066664
0.0022716983 -0.0055921054 -0.012284791
-0.010060377 0.00098684209 -0.00025208326
-0.03083019 -0.0052631581 -0.0096831247
0.012007548 -0.004605263 -0.012284791
0.002920755 0.0062500001 -0.010008333
0.014928303 -0.0062500001 -0.011309166
0.033101887 -0.0023026315 -0.0064310413
-0.012332076 -0.00032894738 -0.00025208326
0.031154718 0.0042763157 -0.010008333
-0.0045433966 -0.0062500001 -0.0038293749
0.03083019 -0.0042763157 -0.0035041666
-0.010060377 -0.0062500001 -0.0028537498
-0.0077886796 0.0062500001 -0.010333542
0 -0.0013157895 -0.01261
0.027260378 0.0062500001 -0.0090327077
-0.029532077 -0.0023026315 -0.00057729159
0.00097358495 0.00032894738 -0.01261
-0.0064905663 -0.0052631581 -0.00025208326
0.031479247 0.0013157895 -0.00090249995
0.031479247 0.00032894738 -0.012284791
-0.015577359 0.0062500001 -0.00025208326
-0.016226416 -0.0013157895 -0.00025208326
0.032128304 -0.0023026315 -0.0064310413
0.016550943 -0.0062500001 -0.0070814583
-0.012981133 0.0062500001 -0.00090249995
-0.016550943 0.0062500001 -0.00025208326
-0.027260378 0.0062500001 -0.010658749
0.024339624 -0.0055921054 -0.00025208326
0.0016226416 0.0023026315 -0.012284791
0.018498113 -0.0042763157 -0.012284791
-0.014279246 0.0062500001 -0.0090327077
0.014603774 0.0029605264 -0.012284791
-0.010060377 0.0062500001 -0.0054554166
-0.028558493 0.00065789477 -0.00025208326
0.004218868 -0.0052631581 -0.012284791
0.033101887 0.00032894738 -0.0061058332
0.031154718 0.0042763157 -0.0018781249
-0.020120755 -0.0062500001 -0.00090249995
0.012981133 0.0055921054 -0.012284791
-0.017524529 -0.0023026315 -0.00025208326
0.0074641514 0.0062500001 -0.010333542
-0.0068150945 0.0042763157 -0.00025208326
-0.03083019 0.0039473684 -0.0093579162
0.032777362 -0.0016447369 -0.0061058332
0.021418869 -0.0016447369 -0.00025208326
-0.01168302 -0.00032894738 -0.00025208326
-0.0074641514 0.0062500001 -0.011309166
0.03083019 -0.0059210528 -0.0087075001
0.0077886796 -0.0062500001 -0.010658749
0.008437736 -0.0055921054 -0.012284791
0.034075473 -0.00065789477 -0.00057729159
0.026935849 -0.0032894737 -0.00025208326
-0.0032452832 -0.0032894737 -0.00025208326
0.014928303 -0.0019736842 -0.00025208326
-0.017849058 -0.0042763157 -0.00025208326
-0.0087622646 -0.0062500001 -0.0031789583
-0.019471699 0.0062500001 -0.0054554166
0.010709435 0.0026315791 -0.00025208326
-0.031154718 0.0032894737 -0.0093579162
-0.021743396 0.0062500001 -0.0012277083
0.018822642 0.003618421 -0.00025208326
0.0068150945 -0.0062500001 -0.0054554166
-0.004218868 0.0062500001 -0.0057806247
-0.027584907 0.0062500001 -0.0070814583
0.00064905663 -0.0052631581 -0.012284791
-0.0045433966 -0.0062500001 -0.0070814583
0.031154718 -0.0023026315 -0.0083822915
0.027584907 0.0016447369 -0.012284791
-0.028558493 -0.0062500001 -0.010983958
0.0071396232 0.00032894738 -0.00025208326
-0.026286794 0.0062500001 -0.0083822915
-0.01525283 -0.0062500001 -0.011309166
-0.0061660381 0.00098684209 -0.012284791
-0.0048679248 -0.0029605264 -0.00025208326
-0.016550943 0.0026315791 -0.012284791
-0.025313208 0.0039473684 -0.00025208326
-0.011358491 0.0062500001 -0.0064310413
-0.017849058 -0.0032894737 -0.012284791
0.0097358497 0.0039473684 -0.012284791
-0.012656604 0.0062500001 -0.0070814583
-0.0045433966 0.0062500001 -0.0031789583
0.0019471699 -0.0013157895 -0.00025208326
0.010709435 -0.0062500001 -0.0087075001
-0.0068150945 -0.0062500001 -0.0022033332
-0.02336604 -0.0052631581 -0.00025208326
0.033426415 0.00098684209 -0.0061058332
-0.005192453 -0.0062500001 -0.0051302081
-0.028233964 -0.004605263 -0.012284791
-0.024015095 -0.0062500001 -0.0087075001
0.0068150945 -0.0062500001 -0.011959583
-0.0087622646 0.0013157895 -0.012284791
0.0022716983 -0.0059210528 -0.00025208326
-0.0097358497 0.003618421 -0.012284791
-0.024664152 -0.0062500001 -0.010983958
-0.012332076 0.0039473684 -0.012284791
-0.011358491 0.0019736842 -0.00025208326
-0.010709435 0.0055921054 -0.012284791
-0.012656604 0.0062500001 -0.011959583
0.022716982 -0.0013157895 -0.00025208326
0.0064905663 -0.0062500001 -0.0096831247
-0.021743396 0.00098684209 -0.012284791
0.025637737 0.0013157895 -0.01261
0.008437736 0.00065789477 -0.01261
-0.014603774 -0.0062500001 -0.0061058332
0.020120755 -0.0026315791 -0.012284791
-0.0038943398 -0.0032894737 -0.00025208326
-0.0016226416 -0.0059210528 -0.0083822915
-0.031803776 0.0032894737 -0.0057806247
-0.0025962265 0.0059210528 -0.012284791
-0.010384906 0.0062500001 -0.00057729159
0.017524529 0.0062500001 -0.0057806247
0.0081132082 0.0026315791 -0.00025208326
-0.005192453 -0.0062500001 -0.0067562498
0.027584907 -0.0055921054 -0.012284791
-0.033101887 0.0013157895 -0.0061058332
0.027584907 -0.0029605264 -0.00025208326
0.012007548 -0.0062500001 -0.0096831247
-0.0074641514 0.0062500001 -0.0038293749
-0.024339624 -0.00065789477 -0.01261
-0.0077886796 -0.0032894737 -0.012284791
-0.012656604 -0.0026315791 -0.012284791
0.012332076 -0.0039473684 -0.012284791
0.014603774 0.0062500001 -0.0070814583
-0.005192453 0.0062500001 -0.0015529166
0.03083019 -0.0013157895 -0.00057729159
0.024339624 0.00098684209 -0.00025208326
0.0087622646 0.0055921054 -0.00025208326
0.031479247 -8.6736174e-19 -0.0022033332
0.0087622646 -0.0062500001 -0.0096831247
0.0081132082 0.00065789477 -0.01261
-0.010384906 -0.00065789477 -0.01261
-0.016550943 0.0062500001 -0.0067562498
-0.00064905663 0.0055921054 -0.008057083
-0.031479247 0.0023026315 -0.00090249995
0.0035698116 -0.0062500001 -0.010333542
0.014928303 -0.0062500001 -0.0035041666
0.029207548 -0.0052631581 -0.00025208326
0.025962265 0.0059210528 -0.00025208326
-0.024988681 -0.00098684209 -0.00025208326
0.027584907 0.0062500001 -0.008057083
-0.0097358497 0.0062500001 -0.00057729159
-0.014928303 -0.0062500001 -0.004154583
-0.008437736 -0.0062500001 -0.0090327077
0.031154718 0.0049342103 -0.011309166
0.0068150945 -0.0062500001 -0.010333542
-0.028558493 0.0042763157 -0.00025208326
0.0097358497 0.0062500001 -0.0077318749
0.030505661 0.0062500001 -0.0035041666
-0.01168302 0.0062500001 -0.0051302081
0.023690566 0.0062500001 -0.0051302081
0.009411321 -0.0055921054 -0.00025208326
-0.010709435 -0.0062500001 -0.0090327077
0.024015095 0.0049342103 -0.00025208326
-0.009411321 0.0062500001 -0.0038293749
-0.0025962265 0.0059210528 -0.0025285415
0.012656604 -0.0032894737 -0.012284791
0.03083019 0.0062500001 -0.004154583
0.012332076 0.003618421 -0.00025208326
0 -0.0059210528 -0.0061058332
0.028883019 0.0062500001 -0.010983958
0.012656604 -0.0062500001 -0.011959583
-0.017849058 0.0062500001 -0.0064310413
0.016226416 0.0062500001 -0.0070814583
-0.00032452832 -0.0026315791 -0.00025208326
-0.027584907 -0.0062500001 -0.0090327077
0.020445284 -0.0062500001 -0.0061058332
-0.00064905663 0.0055921054 -0.010008333
0.0012981133 -0.003618421 -0.00025208326
0.010709435 -0.0062500001 -0.011634375
0.013954718 0.0039473684 -0.00025208326
0.031154718 0.0052631581 -0.0025285415
0.0045433966 0.00098684209 -0.00025208326
-0.008437736 -0.00032894738 -0.00025208326
-0.01525283 0.0062500001 -0.004805
0.022392454 0.0062500001 -0.0015529166
-0.0074641514 -0.0049342103 -0.00025208326
-0.0055169812 -0.0019736842 -0.01261
0.024988681 0.0062500001 -0.00090249995
0 0.0059210528 -0.0038293749
0.0025962265 -0.00065789477 -0.00025208326
0.021094341 -0.0059210528 -0.00025208326
-0.03083019 -0.0052631581 -0.010658749
0.027584907 -0.0062500001 -0.0022033332
0.022716982 0.0016447369 -0.00025208326
-0.01525283 0.0042763157 -0.012284791
0.018498113 0.0055921054 -0.00025208326
0.010709435 -0.0062500001 -0.0051302081
0.00032452832 0.0059210528 -0.0064310413
0.0048679248 0.0062500001 -0.004805
-0.01168302 -0.0016447369 -0.01261
0.013954718 -0.0032894737 -0.00025208326
0.016875472 -0.0039473684 -0.00025208326
-0.030505661 -0.0052631581 -0.00025208326
0.033101887 -8.6736174e-19 -0.0064310413
0.024664152 -0.0013157895 -0.012284791
-0.0019471699 -0.0059210528 -0.012284791
-0.010384906 0.0019736842 -0.00025208326
-0.0071396232 0.0062500001 -0.0074066664
0.0071396232 -0.0059210528 -0.011959583
-0.018498113 0.0062500001 -0.00057729159
-0.018173587 -0.0062500001 -0.0083822915
-0.019147171 -0.0013157895 -0.01261
-0.033750944 -0.00065789477 -0.00090249995
-0.017200001 -0.0062500001 -0.0028537498
0.018498113 -0.0062500001 -0.0057806247
0.009411321 -0.0062500001 -0.008057083
0.029532077 -0.00098684209 -0.00025208326
-0.030181134 0.0016447369 -0.012284791
0.015901888 0.0062500001 -0.011959583
-0.029532077 0.0059210528 -0.0096831247
0.012981133 -0.00065789477 -0.00025208326
-0.017849058 0.0062500001 -0.0051302081
0.0097358497 -0.0062500001 -0.0057806247
-0.029856605 -0.004605263 -0.012284791
0.030181134 -0.0062500001 -0.0035041666
-0.018498113 -0.0042763157 -0.012284791
-0.031154718 -0.0032894737 -0.010333542
0.010384906 -0.00032894738 -0.00025208326
0.010384906 0.0049342103 -0.012284791
-0.027909435 -0.0062500001 -0.004805
-0.015577359 -0.0016447369 -0.01261
0.034075473 -8.6736174e-19 -0.00025208326
0.0087622646 -0.0059210528 -0.011959583
-0.031154718 0.003618421 -0.004805
0.016550943 -0.0059210528 -0.011959583
0.0025962265 -0.0059210528 -0.0083822915
0.019796228 0.0062500001 -0.0061058332
0.0090867933 0.0062500001 -0.0035041666
0.017849058 -0.0062500001 -0.010658749
0.029532077 0.0019736842 -0.012284791
-0.018822642 -0.0062500001 -0.010008333
0.0071396232 0.0062500001 -0.010008333
-0.031479247 0.0023026315 -0.0070814583
0.020120755 0.00032894738 -0.01261
0.014928303 -0.0062500001 -0.011959583
-0.03083019 -0.0042763157 -0.0093579162
-0.029856605 -0.00098684209 -0.012284791
0.019796228 -0.004605263 -0.012284791
-0.027909435 -0.0062500001 -0.0074066664
-0.0058415099 -0.0062500001 -0.0028537498
-0.031154718 0.0026315791 -0.0025285415
0.020445284 0.0062500001 -0.0012277083
0.03083019 -0.0059210528 -0.011309166
0.0097358497 0.0029605264 -0.01261
-0.010709435 -0.004605263 -0.012284791
0.03083019 -0.004605263 -0.011309166
0.0071396232 -0.00065789477 -0.00025208326
0.010709435 -0.0049342103 -0.00025208326
-0.026935849 -0.0062500001 -0.0067562498
0.0081132082 -0.0049342103 -0.00025208326
-0.021418869 -0.00065789477 -0.00025208326
0.021418869 -0.003618421 -0.00025208326
-0.0077886796 0.0042763157 -0.012284791
0.0048679248 -0.0049342103 -0.00025208326
-0.018822642 0.0062500001 -0.010658749
0.016550943 -0.0062500001 -0.0061058332
0.021094341 0.0062500001 -0.011959583
-0.028883019 0.0032894737 -0.012284791
-0.012981133 -0.00065789477 -0.00025208326
-0.014928303 0.0023026315 -0.00025208326
-0.011033962 -0.0062500001 -0.0070814583
0.026935849 -0.0019736842 -0.00025208326
0.013305661 0.0049342103 -0.00025208326
-0.03083019 0.0042763157 -0.012284791
-0.0016226416 0.0019736842 -0.00025208326
-0.019147171 -0.00065789477 -0.01261
0.015577359 -0.00032894738 -0.00025208326
-0.00032452832 0.0059210528 -0.0028537498
0.015577359 -0.0062500001 -0.0087075001
0.017524529 0.0062500001 -0.0031789583
-0.026286794 0.0062500001 -0.0054554166
-0.031803776 0.00098684209 -0.0054554166
0.030181134 -0.00065789477 -0.012284791
0.030181134 -0.0062500001 -0.011634375
0.024015095 0.00032894738 -0.00025208326
0.0025962265 0.0059210528 -0.010658749
-0.0071396232 -0.0055921054 -0.012284791
-0.021743396 -0.0052631581 -0.012284791
-0.0012981133 0.0013157895 -0.00025208326
0.013305661 0.0062500001 -0.0093579162
0.019147171 0.0055921054 -0.012284791
0.022716982 0.0062500001 -0.0035041666
-0.0064905663 0.0062500001 -0.0083822915
0.0032452832 0.0062500001 -0.0064310413
-0.027260378 -0.0049342103 -0.00025208326
-0.015577359 0.00032894738 -0.00025208326
0.023041511 0.0062500001 -0.0090327077
0.011033962 -0.004605263 -0.00025208326
0.025962265 -0.0062500001 -0.010333542
-0.0058415099 -0.003618421 -0.00025208326
-0.0045433966 -0.0062500001 -0.0067562498
0.019147171 -0.0059210528 -0.012284791
0.018173587 -0.0062500001 -0.0022033332
-0.024339624 0.0059210528 -0.012284791
0.019796228 0.00065789477 -0.00025208326
0.01168302 -0.00065789477 -0.00025208326
0.013954718 -0.0062500001 -0.0077318749
-0.0058415099 -0.0062500001 -0.0031789583
-0.012332076 0.0062500001 -0.0015529166
-0.013630189 0.0062500001 -0.00090249995
-0.014928303 -0.0026315791 -0.00025208326
-0.0061660381 0.0062500001 -0.0093579162
-0.0012981133 -0.0059210528 -0.010008333
-0.018173587 0.0013157895 -0.012284791
-0.027260378 -0.0062500001 -0.008057083
0.0097358497 -0.0062500001 -0.0031789583
0.012332076 0.0062500001 -0.0067562498
0.014928303 -0.0013157895 -0.00025208326
0.029207548 -0.004605263 -0.012284791
0.024988681 -0.0062500001 -0.0074066664
-0.029856605 -0.0062500001 -0.0028537498
-0.026286794 -0.0023026315 -0.012284791
-0.021743396 0.0055921054 -0.012284791
0.023041511 -0.0026315791 -0.00025208326
0.028233964 0.00098684209 -0.00025208326
-0.0071396232 -0.0055921054 -0.00025208326
-0.024015095 0.0062500001 -0.0070814583
0.002920755 -8.6736174e-19 -0.00025208326
0.012332076 0.00032894738 -0.01261
0.03083019 -0.0039473684 -0.010658749
0.014279246 -0.0062500001 -0.0038293749
-0.019471699 -0.0062500001 -0.0070814583
0.031154718 -0.00032894738 -0.004805
0.005192453 0.0055921054 -0.00025208326
0.018822642 0.0029605264 -0.00025208326
-0.0090867933 0.0062500001 -0.010333542
-0.027909435 -0.0062500001 -0.0031789583
0.0090867933 0.00065789477 -0.00025208326
0.031479247 0.00032894738 -0.010008333
0.031479247 0.0042763157 -0.0057806247
0.018498113 -0.0062500001 -0.0012277083
0.012981133 -0.0023026315 -0.00025208326
0.023690566 -0.00032894738 -0.00025208326
0.005192453 0.0062500001 -0.00057729159
-0.011358491 -0.0062500001 -0.0096831247
-0.01525283 0.0062500001 -0.0018781249
0.012656604 0.0062500001 -0.0096831247
0.015577359 -0.0016447369 -0.00025208326
-0.01168302 -0.0055921054 -0.012284791
0.00032452832 0.0016447369 -0.01261
0.0035698116 0.0062500001 -0.0067562498
-0.026286794 -0.0062500001 -0.0051302081
-0.015901888 -0.0062500001 -0.0061058332
-0.012007548 0.00032894738 -0.00025208326
-0.0077886796 0.00098684209 -0.012284791
-0.0097358497 0.0032894737 -0.012284791
-0.029856605 0.0019736842 -0.00057729159
0.010060377 0.0016447369 -0.01261
0.029207548 -0.00032894738 -0.012284791
-0.015577359 -0.0062500001 -0.0015529166
-0.013305661 -0.0062500001 -0.010658749
-0.0055169812 0.0052631581 -0.012284791
-0.023041511 0.003618421 -0.00025208326
0.008437736 -0.0062500001 -0.0044797915
0.0074641514 -0.0019736842 -0.012284791
0.0019471699 -0.004605263 -0.012284791
0.031154718 0.0029605264 -0.0087075001
0.019796228 -0.004605263 -0.00025208326
0.017849058 -0.003618421 -0.012284791
-0.019471699 -0.0062500001 -0.0064310413
0.014279246 -0.00032894738 -0.00025208326
-0.02336604 -0.0062500001 -0.008057083
-0.03083019 0.0049342103 -0.011959583
0.024988681 0.0062500001 -0.0025285415
0.0074641514 0.004605263 -0.012284791
0.011033962 -0.0062500001 -0.0093579162
0.020445284 0.004605263 -0.012284791
-0.018498113 0.0062500001 -0.004805
0.014279246 -0.0062500001 -0.010008333
0.028558493 -0.0062500001 -0.0083822915
0.012981133 0.0062500001 -0.008057083
-0.026286794 0.00065789477 -0.012284791
0.017524529 -0.0023026315 -0.012284791
-0.022067925 0.0062500001 -0.00025208326
-0.0074641514 -0.0042763157 -0.012284791
0.026286794 -0.0062500001 -0.0096831247
0.020769812 -0.0032894737 -0.012284791
0.029856605 -0.0062500001 -0.0061058332
0.0016226416 0.0059210528 -0.0087075001
-0.021418869 -0.0016447369 -0.01261
0.017524529 -0.0062500001 -0.011959583
0.027584907 0.0052631581 -0.012284791
0.005192453 -0.0062500001 -0.0028537498
0.03083019 -0.0042763157 -0.00090249995
0.031154718 0.0039473684 -0.0025285415
0.031803776 0.0052631581 -0.0064310413
0 0.0055921054 -0.0093579162
-0.031154718 -0.00032894738 -0.0022033332
0.031154718 -0.0026315791 -0.004154583
-0.015577359 -0.0062500001 -0.0012277083
-0.029207548 0.0059210528 -0.0093579162
-0.022067925 -0.0062500001 -0.0061058332
0.015577359 -0.0062500001 -0.010333542
-0.020769812 -0.0032894737 -0.00025208326
-0.011033962 -0.0062500001 -0.0018781249
0.018822642 -0.0013157895 -0.00025208326
0.0090867933 -0.0062500001 -0.0022033332
-0.004218868 -0.0062500001 -0.0087075001
-0.024664152 0.00065789477 -0.012284791
0.024664152 -0.004605263 -0.00025208326
0.017849058 -0.00065789477 -0.012284791
-0.010384906 0.0062500001 -0.010983958
-0.031154718 0.00032894738 -0.010983958
0.0074641514 -0.0049342103 -0.012284791
0.0077886796 -0.00032894738 -0.00025208326
0.032128304 0.004605263 -0.0061058332
-0.005192453 0.0062500001 -0.0070814583
-0.005192453 0.00065789477 -0.012284791
0.031154718 -0.003618421 -0.0028537498
0.025313208 0.003618421 -0.012284791
0.015901888 -0.0039473684 -0.00025208326
0.011033962 -0.0062500001 -0.010008333
0.022716982 0.00098684209 -0.012284791
-0.01168302 -0.004605263 -0.00025208326
0.0081132082 0.0029605264 -0.00025208326
-0.009411321 -0.00032894738 -0.00025208326
0.031154718 0.004605263 -0.0087075001
0.020445284 0.0062500001 -0.011634375
0.005192453 -0.0062500001 -0.011634375
-0.0035698116 0.0059210528 -0.0025285415
-0.01525283 -0.0052631581 -0.012284791
0.026935849 0.0062500001 -0.0051302081
0.0022716983 0.0013157895 -0.01261
-0.031479247 0.00032894738 -0.010333542
0.031154718 0.0042763157 -0.0031789583
0.018498113 -8.6736174e-19 -0.012284791
-0.030505661 -0.0062500001 -0.0093579162
-0.027909435 -0.0026315791 -0.012284791
-0.014928303 -0.0062500001 -0.0070814583
0.021743396 0.0039473684 -0.00025208326
0.010384906 -0.0062500001 -0.0057806247
0.018173587 0.0023026315 -0.00025208326
0.03083019 -0.0049342103 -0.0074066664
0.026286794 -0.0052631581 -0.00025208326
-0.016226416 0.003618421 -0.012284791
0.029532077 0.0052631581 -0.00025208326
-0.0090867933 0.0062500001 -0.011959583
-0.018822642 -0.0016447369 -0.01261
-0.022067925 0.0059210528 -0.00025208326
-0.018498113 0.0062500001 -0.008057083
0.031479247 -0.0032894737 -0.0057806247
-0.027260378 0.0049342103 -0.012284791
-0.025313208 0.00032894738 -0.012284791
0.0045433966 0.0062500001 -0.0064310413
-0.014279246 -0.0062500001 -0.011309166
-0.020445284 -0.0062500001 -0.00090249995
0.012981133 0.0062500001 -0.0070814583
0.018822642 0.0062500001 -0.010333542
0.028883019 0.0016447369 -0.012284791
0.019147171 -0.0062500001 -0.0054554166
-0.03083019 0.0059210528 -0.00057729159
0.019796228 0.0029605264 -0.012284791
0.016550943 0.00065789477 -0.00025208326
-0.027584907 0.0039473684 -0.00025208326
0.024015095 -0.0026315791 -0.012284791
-0.024664152 -0.00065789477 -0.012284791
0.022067925 -0.0026315791 -0.012284791
0.009411321 -0.0062500001 -0.0038293749
0.010060377 0.0049342103 -0.012284791
-0.021094341 -0.0059210528 -0.00025208326
0.00097358495 0.0019736842 -0.01261
-0.014928303 -0.0049342103 -0.012284791
-0.0012981133 0.00065789477 -0.00025208326
-0.0016226416 0.0059210528 -0.010658749
-0.021418869 0.0062500001 -0.0028537498
-0.017524529 0.0029605264 -0.012284791
-0.0087622646 -0.0062500001 -0.011634375
-0.0077886796 0.00032894738 -0.01261
0.029532077 0.0062500001 -0.0022033332
0.004218868 -0.00098684209 -0.012284791
-0.010384906 0.00065789477 -0.00025208326
-0.0038943398 0.0059210528 -0.0031789583
0.014279246 -0.0042763157 -0.00025208326
-0.024015095 -8.6736174e-19 -0.012284791
-0.015901888 -0.0042763157 -0.012284791
-0.014928303 -0.0059210528 -0.012284791
-0.011033962 0.0062500001 -0.0018781249
-0.0087622646 0.0042763157 -0.012284791
-0.011033962 -0.0062500001 -0.011634375
-0.031154718 0.0026315791 -0.0087075001
-0.01168302 -0.0062500001 -0.0074066664
-0.012981133 0.0039473684 -0.00025208326
0 -0.0059210528 -0.0067562498
0.018822642 0.0062500001 -0.0096831247
-0.018498113 -0.0023026315 -0.012284791
0.0012981133 0.0026315791 -0.012284791
-0.016550943 -8.6736174e-19 -0.012284791
-0.008437736 0.0052631581 -0.00025208326
-0.017200001 -0.0055921054 -0.00025208326
0.00064905663 0.0026315791 -0.00025208326
-0.020120755 -0.0062500001 -0.0028537498
-0.023690566 -0.0062500001 -0.004154583
0.03083019 -0.0055921054 -0.0018781249
-0.016875472 -0.0023026315 -0.00025208326
-0.022716982 0.00032894738 -0.00025208326
0.01168302 -0.0062500001 -0.010333542
-0.010709435 -0.0062500001 -0.0031789583
0.020120755 0.0062500001 -0.0093579162
-0.015577359 -0.0042763157 -0.012284791
0.018173587 0.0062500001 -0.0015529166
-0.025637737 -0.0039473684 -0.00025208326
-0.031154718 -0.0013157895 -0.0012277083
0.027909435 0.0026315791 -0.012284791
0.0032452832 -0.0062500001 -0.0012277083
0.03083019 -0.0059210528 -0.0018781249
-0.013630189 0.0062500001 -0.0074066664
-0.027260378 -0.0059210528 -0.012284791
0.0032452832 -0.0026315791 -0.00025208326
-0.031154718 -0.003618421 -0.0018781249
-0.0048679248 0.0062500001 -0.0087075001
0.011033962 0.0062500001 -0.004154583
-0.031154718 -0.00032894738 -0.004154583
-0.0045433966 0.0062500001 -0.0087075001
0.031154718 0.003618421 -0.011309166
-0.0061660381 0.0019736842 -0.00025208326
0.0045433966 -0.0023026315 -0.012284791
0.025637737 -0.0062500001 -0.0035041666
0.028233964 0.0062500001 -0.0096831247
-0.0081132082 -0.0062500001 -0.0083822915
-0.029856605 0.0039473684 -0.00057729159
-0.012981133 0.0062500001 -0.0070814583
-0.031154718 -0.0026315791 -0.011309166
0.020769812 -8.6736174e-19 -0.00025208326
0.020769812 -0.00032894738 -0.012284791
0.028558493 0.0062500001 -0.0025285415
0.01168302 -0.0062500001 -0.0087075001
0.0061660381 -0.0019736842 -0.012284791
0.024664152 0.003618421 -0.012284791
-0.014603774 0.0062500001 -0.0057806247
-0.031154718 0.0029605264 -0.0083822915
-0.021743396 0.0062500001 -0.0025285415
-0.0022716983 0.0059210528 -0.008057083
0.013305661 -0.0023026315 -0.00025208326
0.008437736 -0.0062500001 -0.010658749
-0.0074641514 -0.00065789477 -0.00025208326
-0.019796228 -0.00065789477 -0.00025208326
-0.025637737 0.0049342103 -0.00025208326
-0.024988681 0.0062500001 -0.0061058332
0.020445284 0.0062500001 -0.00090249995
-0.031479247 -0.00032894738 -0.010333542
-0.018822642 0.0062500001 -0.0025285415
0.020120755 0.0062500001 -0.0067562498
-0.010384906 -0.0062500001 -0.0035041666
0.019471699 0.0062500001 -0.00025208326
-0.031479247 -0.00065789477 -0.012284791
-0.031154718 -8.6736174e-19 -0.011959583
-0.0035698116 0.0062500001 -0.010333542
0.014603774 0.0052631581 -0.012284791
0.015577359 0.0062500001 -0.008057083
-0.0025962265 0.0039473684 -0.012284791
0.03083019 -0.0039473684 -0.0077318749
-0.025313208 -0.0023026315 -0.00025208326
0.011358491 0.0062500001 -0.0044797915
0.0064905663 -0.0062500001 -0.010333542
-0.011358491 -0.0062500001 -0.0083822915
-0.032452833 -0.00065789477 -0.0061058332
0.0032452832 0.0026315791 -0.012284791
0.028233964 -0.0049342103 -0.00025208326
-0.024339624 0.00098684209 -0.012284791
-0.011033962 0.0062500001 -0.010008333
-0.03083019 0.0059210528 -0.0012277083
-0.017849058 -0.0059210528 -0.00025208326
0.0022716983 0.003618421 -0.012284791
0.031154718 0.0016447369 -0.008057083
-0.026286794 0.0062500001 -0.00025208326
-0.0019471699 -0.0062500001 -0.0061058332
0.0012981133 0.0059210528 -0.008057083
0.019147171 0.0042763157 -0.00025208326
-0.026286794 -0.0013157895 -0.00025208326
-0.014279246 -0.00098684209 -0.01261
0.013630189 0.0062500001 -0.0093579162
0.00032452832 -0.0049342103 -0.012284791
-0.03083019 -0.0062500001 -0.0012277083
0.0081132082 0.0062500001 -0.0064310413
-0.00064905663 -0.0055921054 -0.010983958
-0.024988681 0.0023026315 -0.012284791
-0.0022716983 0.0059210528 -0.0028537498
0.010060377 0.0062500001 -0.0054554166
-0.028883019 -0.004605263 -0.012284791
-0.011358491 0.0062500001 -0.011959583
-0.008437736 -0.0062500001 -0.010333542
0.0064905663 -0.0016447369 -0.00025208326
0.0077886796 -0.0062500001 -0.011959583
0.020120755 0.0062500001 -0.0083822915
-0.018173587 -0.0062500001 -0.0093579162
-0.029532077 0.0059210528 -0.00025208326
0.01168302 -0.0062500001 -0.004805
-0.0058415099 0.0062500001 -0.0087075001
-0.012656604 0.00032894738 -0.00025208326
-0.013630189 -0.0062500001 -0.00057729159
-0.0045433966 0.0039473684 -0.012284791
0.002920755 0.0062500001 -0.0096831247
0.010384906 0.0062500001 -0.0028537498
0.0058415099 -0.00065789477 -0.012284791
-0.024015095 0.0062500001 -0.011959583
0.002920755 0.0059210528 -0.011634375
-0.018822642 0.0042763157 -0.00025208326
0.020120755 0.0042763157 -0.012284791
-0.031154718 -0.0049342103 -0.010008333
0.019471699 0.0062500001 -0.0057806247
0.0090867933 -0.0026315791 -0.012284791
0.0035698116 0.0062500001 -0.0044797915
0.030181134 0.0062500001 -0.010983958
-0.0058415099 -8.6736174e-19 -0.00025208326
-0.0058415099 0.00032894738 -0.01261
-0.013630189 -0.0062500001 -0.0051302081
0.004218868 -0.0052631581 -0.00025208326
-0.0019471699 -0.0059210528 -0.0028537498
-0.031803776 -0.00065789477 -0.0057806247
-0.0068150945 0.0062500001 -0.008057083
0.0077886796 -0.0062500001 -0.0061058332
0.0048679248 -0.0062500001 -0.0025285415
-0.031154718 -0.00098684209 -0.0087075001
0.0074641514 -0.0049342103 -0.00025208326
-0.008437736 -0.003618421 -0.00025208326
0.03083019 -0.004605263 -0.004805
-0.024664152 0.0029605264 -0.012284791
-0.008437736 0.0013157895 -0.00025208326
-0.023041511 -0.0062500001 -0.0038293749
0.0019471699 0.00032894738 -0.01261
0.009411321 -0.0039473684 -0.00025208326
0.010384906 -0.0042763157 -0.00025208326
-0.016550943 0.0016447369 -0.012284791
0.016550943 0.0062500001 -0.0038293749
0.028233964 0.0062500001 -0.0093579162
0.03083019 -0.0055921054 -0.00090249995
-0.023041511 -0.0062500001 -0.0067562498
-0.03083019 -0.0042763157 -0.00090249995
0.002920755 0.0023026315 -0.012284791
-0.0025962265 0.0052631581 -0.012284791
-0.0038943398 0.0062500001 -0.0090327077
-0.0025962265 0.0059210528 -0.0044797915
0.025637737 -0.0062500001 -0.0038293749
0.013954718 -0.00032894738 -0.012284791
0.021094341 0.0062500001 -0.0074066664
-0.028233964 0.0013157895 -0.012284791
0.025962265 -0.0013157895 -0.00025208326
0.0090867933 0.0062500001 -0.0074066664
0.027584907 0.0029605264 -0.00025208326
0.025962265 -0.0062500001 -0.010008333
-0.017849058 0.0062500001 -0.0044797915
0.03083019 -0.0042763157 -0.004154583
0.017524529 0.0026315791 -0.00025208326
-0.020769812 -0.0016447369 -0.00025208326
0.01525283 -0.0013157895 -0.00025208326
0.0055169812 -0.0062500001 -0.011959583
-0.03083019 0.004605263 -0.008057083
0 -0.0055921054 -0.0015529166
-0.025962265 -0.0052631581 -0.00025208326
0.022067925 -0.0062500001 -0.0018781249
0.010709435 -0.004605263 -0.00025208326
0.028558493 0.00098684209 -0.012284791
-0.0055169812 0.0029605264 -0.012284791
-0.029856605 -0.003618421 -0.00057729159
0.022392454 -0.0029605264 -0.012284791
0.011358491 -0.0029605264 -0.012284791
0.03083019 -0.0059210528 -0.0077318749
0.0061660381 0.0055921054 -0.012284791
0.029856605 0.0052631581 -0.012284791
-0.009411321 -0.0062500001 -0.0090327077
-0.008437736 0.0029605264 -0.00025208326
0.029207548 0.0032894737 -0.012284791
-0.0068150945 -0.0062500001 -0.0070814583
-0.0071396232 -0.003618421 -0.00025208326
-0.027909435 -0.0023026315 -0.012284791
0.0048679248 -0.0042763157 -0.00025208326
0.016226416 0.0062500001 -0.011309166
-0.0081132082 -0.0062500001 -0.011634375
-0.0025962265 0.0016447369 -0.00025208326
-0.031154718 0.0016447369 -0.010658749
0.017524529 0.0062500001 -0.0022033332
0.0045433966 0.0062500001 -0.011309166
0.010709435 -0.003618421 -0.012284791
-0.032452833 -0.0019736842 -0.0061058332
-0.031154718 -0.00032894738 -0.0018781249
-0.008437736 -8.6736174e-19 -0.012284791
0.0074641514 0.0016447369 -0.00025208326
-0.017849058 -0.0062500001 -0.0054554166
-0.0077886796 -0.0016447369 -0.01261
-0.015577359 0.0062500001 -0.011309166
-0.00097358495 0.0019736842 -0.01261
0.014603774 -0.0055921054 -0.012284791
-0.008437736 -0.0062500001 -0.0093579162
-0.0022716983 -0.003618421 -0.00025208326
0.018822642 0.0062500001 -0.0028537498
-0.014928303 -0.0062500001 -0.0093579162
0.0087622646 0.00032894738 -0.00025208326
0.013630189 0.0049342103 -0.012284791
-0.03083019 0.0052631581 -0.00057729159
0.0068150945 -0.004605263 -0.00025208326
0.019471699 0.003618421 -0.00025208326
-0.027909435 0.0062500001 -0.0044797915
0.018822642 -0.0062500001 -0.011309166
0.0097358497 0.00032894738 -0.00025208326
-0.018173587 -0.0062500001 -0.010983958
-0.024664152 -0.003618421 -0.012284791
0.0045433966 0.0023026315 -0.00025208326
0.021094341 -0.0062500001 -0.0067562498
-0.024988681 -0.0062500001 -0.0012277083
-0.02336604 -0.0062500001 -0.0015529166
-0.021418869 0.0062500001 -0.0090327077
0.0016226416 -0.0055921054 -0.004154583
-0.012981133 -0.00065789477 -0.01261
-0.015901888 -0.0059210528 -0.012284791
0.012007548 0.003618421 -0.00025208326
0.013954718 0.0062500001 -0.0090327077
0.020769812 0.0062500001 -0.010008333
0.010709435 -0.0016447369 -0.012284791
-0.014603774 0.003618421 -0.00025208326
-0.03083019 -0.0019736842 -0.00057729159
-0.018173587 -0.0039473684 -0.00025208326
0.029532077 -0.0062500001 -0.011309166
0.031479247 -0.00098684209 -0.0087075001
0.014279246 -0.0062500001 -0.0070814583
-0.021743396 -0.0019736842 -0.00025208326
0.031479247 -0.0016447369 -0.0067562498
0.022716982 -0.0062500001 -0.0090327077
0.020769812 -0.0052631581 -0.00025208326
0.026286794 -0.0062500001 -0.0035041666
0.00032452832 -0.0013157895 -0.01261
0 -0.0055921054 -0.0022033332
0.0045433966 0.0049342103 -0.012284791
-0.022067925 0.0062500001 -0.0025285415
0.0061660381 0.0026315791 -0.012284791
0.031154718 -0.00098684209 -0.0018781249
0.0081132082 0.0062500001 -0.0015529166
-0.017849058 -0.0062500001 -0.0025285415
0.005192453 -0.0023026315 -0.00025208326
0.0022716983 0.0059210528 -0.008057083
-0.0016226416 -0.0062500001 -0.0064310413
0.028883019 -0.0059210528 -0.012284791
0.033750944 -8.6736174e-19 -0.0038293749
0.018173587 -0.0062500001 -0.011634375
0.0081132082 -0.0062500001 -0.004154583
0.021418869 -8.6736174e-19 -0.012284791
-0.024988681 0.0062500001 -0.0012277083
-0.014603774 -0.0062500001 -0.0064310413
0.025637737 -0.0016447369 -0.00025208326
0.0077886796 0.0013157895 -0.00025208326
0.028233964 -0.0055921054 -0.00025208326
-0.0045433966 0.004605263 -0.012284791
0.031154718 0.0042763157 -0.00090249995
-0.01168302 0.0029605264 -0.012284791
0.013630189 -0.0062500001 -0.00057729159
-0.01525283 0.0062500001 -0.0061058332
0.014928303 0.0062500001 -0.0038293749
