# .PCD v0.7 - Point Cloud Data file format
VERSION 0.7
FIELDS x y z
SIZE 4 4 4
TYPE F F F
COUNT 1 1 1
WIDTH 1301
HEIGHT 1
VIEWPOINT 0 0 0 1 0 0 0
POINTS 1301
DATA ascii
0.006754091 -0.00042333335 -0.00047241381
-0.0037522728 0 -0.0023551725
0.0018761364 -0.00084666669 -0.0012255172
0.045027275 0.00084666669 -0.00084896554
0.017635683 0.00084666669 -0.00084896554
-0.04277591 0.00127 -0.00047241381
-0.0093806814 0.00042333335 -0.0012255172
-0.024765 -0.00084666669 -9.5862095e-05
0.024765 -0.00127 -9.5862095e-05
-0.047653865 -0.00084666669 -9.5862095e-05
-0.014633864 -0.00127 -0.00084896554
0.024014546 -0.00084666669 -0.0023551725
-0.030393409 0.00042333335 -0.0019786207
0.025140228 0 -0.00084896554
-0.015384318 0 -0.0061206897
0.027016364 0 -0.00084896554
-0.022888863 0.00042333335 -0.0019786207
-0.029267728 -0.00084666669 -9.5862095e-05
-0.0052531818 -0.00127 -0.001602069
-0.016134772 -0.00127 -0.0023551725
-0.0026265909 0 -0.0038613793
0.014258636 -0.00084666669 -0.0012255172
0.032644775 0.00084666669 -0.00084896554
0.011632046 0 -0.001602069
-0.022888863 -0.00042333335 -0.0019786207
0.022888863 0 -0.0053675864
-0.0048779547 0.00127 -0.00084896554
0.036021817 0 -0.0019786207
0.045777727 0.00127 -0.0019786207
-0.0371475 -0.00084666669 -0.0019786207
-0.030393409 0 0.0017868965
-0.030018182 0.00127 -0.00047241381
0.044652045 -0.00127 -0.00047241381
0.045777727 0 -0.0012255172
0.045027275 0.00127 -0.00084896554
-0.022888863 0 -0.0019786207
0.04277591 -0.00042333335 -0.0019786207
-0.014633864 -0.00042333335 -0.00084896554
0.04240068 0.00127 -0.0019786207
-0.0075045456 -0.00127 -9.5862095e-05
-0.031894319 0 -0.0019786207
0.020262273 0.00042333335 -0.0012255172
0.013883409 -0.00084666669 -0.00047241381
-0.024765 0.00084666669 -0.001602069
-0.048029091 -0.00127 -0.00084896554
0.011256819 -0.00127 -0.001602069
-0.0041275001 -0.00127 -0.0019786207
0.021387955 -0.00127 -9.5862095e-05
-0.036772273 -0.00127 -0.00047241381
0.048404317 0.00042333335 -0.0019786207
-0.0022513636 0 -0.0023551725
-0.033020001 0 -9.5862095e-05
0.043151136 0.00127 -0.0019786207
0.012757727 0.00127 -0.0019786207
0.049154773 0 -0.0019786207
-0.036021817 -0.00042333335 -0.0012255172
-0.00075045455 -0.00084666669 -0.0019786207
-0.0082550002 -0.00127 -0.00084896554
-0.012007273 0.00127 -0.0023551725
0.046152953 0 -0.00084896554
-0.019136591 0 -0.0012255172
0.041650228 0 -0.001602069
-0.018386137 -0.00127 -0.0012255172
0.04240068 0.00084666669 -0.0019786207
-0.0288925 -0.00084666669 -0.00047241381
0.030768637 -0.00042333335 -0.00047241381
0.044276819 -0.00084666669 -0.00084896554
-0.0048779547 0.00084666669 -9.5862095e-05
-0.033020001 -0.00084666669 -0.0023551725
0.034896135 0 -0.0023551725
-0.033395227 0.00127 -0.0019786207
0.033020001 0 -0.0080034481
0.015009091 -0.00084666669 -0.00047241381
0.045402501 0.00042333335 -0.00047241381
0.047278635 0.00042333335 -0.00047241381
0.0078797732 0 -0.0053675864
0.036772273 -0.00042333335 -0.0019786207
-0.010881591 -0.00084666669 -0.0023551725
0.020637501 0.00127 -9.5862095e-05
-0.0041275001 0.00042333335 -9.5862095e-05
-0.039398864 -0.00042333335 -0.0012255172
-0.011632046 0.00042333335 -9.5862095e-05
-0.015384318 0.00042333335 -0.001602069
-0.028142046 0 0.00065724138
0.048404317 -0.00042333335 -0.001602069
0.022888863 0 -0.0061206897
0.048029091 0.00084666669 -0.001602069
-0.0045027272 0.00084666669 -0.00084896554
-0.041275002 -0.00127 -0.001602069
-0.046528183 -0.00042333335 -0.0019786207
0.0056284093 0 -9.5862095e-05
0.0371475 -0.00084666669 -9.5862095e-05
0.036021817 0.00084666669 -0.001602069
0.024389774 0 -0.0012255172
-0.039023638 -0.00127 -0.0019786207
-0.010506364 0 -9.5862095e-05
0.011632046 0.00127 -0.00047241381
0.0056284093 0.00084666669 -0.00047241381
-0.00037522728 0 -0.0023551725
0.047653865 -0.00127 -0.0012255172
-0.037897956 0 -0.0034848277
-0.037522726 0.00084666669 -0.0019786207
-0.01651 -0.00042333335 -0.001602069
-0.01651 0.00042333335 -9.5862095e-05
0.010131137 -0.00084666669 -0.0012255172
-0.006754091 0.00084666669 -9.5862095e-05
-0.037897956 -0.00127 -0.001602069
0.036021817 0.00127 -0.0023551725
0.0090054544 0.00042333335 -0.001602069
0.049154773 0.00084666669 -0.0023551725
0.020262273 -0.00084666669 -9.5862095e-05
0.026641136 -0.00084666669 -0.0019786207
-0.038273182 -0.00084666669 -0.00047241381
-0.014633864 0 -0.0019786207
0.0063788635 0.00042333335 -9.5862095e-05
-0.010881591 0 -0.0023551725
0.0022513636 -0.00127 -0.0023551725
0.014258636 0.00084666669 -9.5862095e-05
-0.0082550002 -0.00042333335 -0.001602069
-0.043151136 -0.00127 -0.00084896554
0.0097559094 0.00127 -0.00084896554
-0.0026265909 0.00042333335 -9.5862095e-05
-0.035271365 0.00084666669 -0.001602069
0.0052531818 -0.00042333335 -0.0023551725
-0.0018761364 0.00042333335 -0.0019786207
-0.018386137 0.00127 -9.5862095e-05
-0.043151136 0 -0.001602069
0.022138409 0.00042333335 -0.0019786207
0.027766818 0.00042333335 -0.0023551725
-0.036021817 -0.00084666669 -0.0023551725
-0.043151136 0.00042333335 -0.00084896554
-0.013132955 0.00127 -0.0019786207
-0.029267728 0.00084666669 -0.00047241381
0.0026265909 0.00127 -0.00047241381
0.039398864 -0.00084666669 -0.0012255172
0.0078797732 -0.00042333335 -0.0012255172
-0.041650228 0.00127 -0.001602069
0.018386137 0.00042333335 -0.0012255172
-0.040524546 -0.00042333335 -0.001602069
0.010881591 -0.00084666669 -0.0023551725
0.043151136 0.00127 -0.0012255172
-0.036397047 -0.00084666669 -0.00047241381
-0.017635683 0.00127 -0.0023551725
0.034145683 0.00042333335 -0.00047241381
0.034145683 -0.00127 -0.00047241381
-0.04277591 0.00127 -0.001602069
0.0086302273 0.00127 -9.5862095e-05
0.0071293181 -0.00127 -0.00047241381
0.018761363 0.00127 -9.5862095e-05
0.030018182 -0.00127 -0.00047241381
0.023639318 0.00042333335 -0.00047241381
0.0048779547 0 -0.0064972416
0.030393409 0.00042333335 -0.0019786207
-0.013132955 0.00084666669 -0.0019786207
0.012757727 0.00042333335 -0.0057441378
-0.025515454 -0.00084666669 -0.00047241381
-0.0030018182 -0.00084666669 -0.00084896554
-0.021763181 -0.00127 -0.00047241381
-0.014633864 -0.00084666669 -0.0019786207
0.018010909 0 -0.0064972416
0.017635683 0.00127 -0.0012255172
0.027766818 0 0.0017868965
-0.028142046 0 -0.0061206897
-0.04277591 -0.00042333335 -0.00084896554
-0.028142046 0 -0.0023551725
-0.030393409 0 0.0010337931
0.022888863 0.00042333335 -0.0023551725
-0.038273182 0 -0.0053675864
-0.019887045 0.00127 -9.5862095e-05
0.040524546 0.00042333335 -0.00084896554
0.047653865 0.00084666669 -0.00047241381
-0.046903409 0.00127 -0.0019786207
0.024765 0.00084666669 -0.0019786207
-0.045402501 0 -0.0019786207
-0.017635683 0.00127 -0.00084896554
0.024389774 0 -0.0023551725
-0.035646591 -0.00042333335 -0.0023551725
-0.016134772 0.00127 -0.00047241381
-0.025515454 0 -0.00047241381
-0.0071293181 0.00042333335 -0.001602069
0.0097559094 0.00042333335 -0.0012255172
0.049154773 -0.00042333335 -0.00084896554
-0.0063788635 -0.00042333335 -0.00047241381
-0.036772273 -0.00084666669 -0.00084896554
0.034145683 0.00084666669 -0.0023551725
0.04240068 0.00042333335 -0.0012255172
-0.040524546 0.00042333335 -0.0023551725
-0.027766818 0 -0.001602069
0.043901592 0.00042333335 -0.0012255172
0.047278635 0.00127 -9.5862095e-05
0.028142046 0.00084666669 -0.0019786207
0.022888863 0 -0.006873793
0.012007273 -0.00084666669 -0.0023551725
-0.048779547 -0.00084666669 -0.0023551725
0.032269545 0.00127 -9.5862095e-05
-0.034896135 0.00042333335 -0.001602069
-0.041650228 0.00127 -0.0012255172
0.042025454 -0.00084666669 -0.001602069
0.025890682 -0.00042333335 -0.0019786207
-0.014633864 -0.00127 -0.00047241381
0.029267728 -0.00084666669 -0.001602069
-0.025140228 -0.00127 -0.0023551725
0.01651 0.00127 -0.00047241381
0.0093806814 0.00042333335 -0.0012255172
0.012757727 0 -0.0019786207
0.010131137 0 -0.0031082758
-0.049154773 -0.00084666669 -0.001602069
-0.022888863 0 -0.0046144826
0.028517272 0.00084666669 -0.0012255172
-0.020262273 0.00042333335 -0.0027317242
0.021763181 0.00127 -0.00084896554
-0.0086302273 0.00127 -9.5862095e-05
0.0037522728 0.00042333335 -0.0023551725
-0.031143865 0.00084666669 -0.00047241381
-0.036772273 0.00084666669 -0.00047241381
-0.032644775 0.00084666669 -0.00084896554
-0.048779547 0 -0.001602069
-0.040524546 0 -0.0034848277
0.030393409 0.00127 -0.0019786207
0.030393409 0 0.00065724138
0.0048779547 -0.00127 -0.0012255172
-0.020262273 0.00084666669 -0.00084896554
-0.015384318 -0.00084666669 -0.001602069
-0.046903409 0.00084666669 -0.0019786207
0.023639318 -0.00127 -0.00047241381
0.048404317 0 -0.00084896554
0.034520909 -0.00084666669 -0.0012255172
-0.013508182 0.00042333335 -9.5862095e-05
0.0082550002 0.00084666669 -0.0023551725
0.039398864 0.00127 -9.5862095e-05
-0.022888863 0 -0.0034848277
0.014633864 0.00084666669 -0.001602069
0.025515454 -0.00042333335 -0.0023551725
-0.0093806814 0.00127 -0.00047241381
-0.032269545 -0.00127 -9.5862095e-05
0.0123825 0.00084666669 -9.5862095e-05
-0.042025454 0.00042333335 -0.0012255172
-0.025140228 0.00084666669 -0.001602069
-0.018010909 0 -0.0053675864
0.035646591 0.00042333335 -0.0019786207
0.048404317 0 -0.0012255172
-0.035646591 0.00084666669 -0.0023551725
-0.029642954 0 -0.0023551725
0.043526363 0.00042333335 -0.00084896554
0.047278635 0.00084666669 -0.00047241381
-0.036397047 -0.00127 -0.00047241381
-0.0037522728 0.00042333335 -0.00047241381
-0.027016364 -0.00042333335 -0.00084896554
-0.012757727 0.00127 -0.001602069
0.0011256818 -0.00042333335 -0.0019786207
-0.040899772 -0.00127 -0.0019786207
0.011256819 -0.00042333335 -0.001602069
0.010881591 -0.00127 -0.0012255172
0.010131137 0 -0.0072503448
-0.04014932 0.00127 -0.0023551725
0.022513637 0 -0.0019786207
0.040899772 -0.00084666669 -0.0012255172
0.036021817 -0.00084666669 -0.00084896554
-0.016885227 -0.00042333335 -0.00047241381
0.043151136 0.00084666669 -0.001602069
0.020262273 0.00127 -0.001602069
-0.022513637 -0.00084666669 -0.0019786207
0.0093806814 0.00084666669 -0.0019786207
0.01651 -0.00042333335 -0.0012255172
0.011632046 0.00084666669 -0.0019786207
-0.0093806814 0.00084666669 -0.00084896554
-0.0030018182 -0.00084666669 -0.0012255172
0.010506364 0.00042333335 -0.0019786207
-0.038648408 0 -9.5862095e-05
-0.0033770455 -0.00042333335 -0.0019786207
0.035646591 -0.00042333335 -0.00084896554
-0.0018761364 -0.00042333335 -0.0023551725
0.017635683 0 -0.0019786207
0.048029091 0 -0.0049910345
-0.019887045 -0.00042333335 -0.0019786207
0.0093806814 -0.00127 -0.001602069
0.0030018182 0 -0.00084896554
-0.012757727 0 -0.00047241381
-0.014633864 0.00084666669 -0.0012255172
-0.0097559094 0.00042333335 -0.00047241381
0.032644775 0.00084666669 -0.0019786207
0.014633864 -0.00042333335 -0.00084896554
0.015009091 0 -0.0012255172
-0.020262273 0.00084666669 -0.0023551725
-0.046528183 0.00042333335 -0.0012255172
0.022138409 -0.00127 -0.0023551725
-0.043526363 0.00127 -0.00084896554
-0.016134772 -0.00127 -0.0012255172
-0.030018182 0.00084666669 -0.00047241381
0.0041275001 0 -0.00047241381
-0.048404317 0 -0.0064972416
0.047653865 -0.00084666669 -0.0012255172
-0.032269545 -0.00084666669 -9.5862095e-05
0.023639318 -0.00042333335 -0.001602069
-0.043151136 -0.00042333335 -0.0019786207
0.025140228 0 -0.0046144826
0.031519093 0 -0.0012255172
0.02626591 0 -0.001602069
-0.025140228 0 0.0014103448
-0.038273182 0.00127 -0.0012255172
-0.030393409 0 -0.0019786207
-0.025515454 -0.00042333335 -0.0019786207
-0.031519093 0.00042333335 -0.00084896554
-0.046903409 0 -0.0023551725
-0.012757727 0 0.0021634484
0.022513637 0 -9.5862095e-05
0.044652045 0.00127 -0.0019786207
0.0075045456 0.00127 -9.5862095e-05
0.034145683 -0.00084666669 -0.0019786207
-0.032644775 -0.00042333335 -0.00084896554
-0.020262273 0 -0.0064972416
0.0288925 -0.00127 -0.001602069
-0.0022513636 0.00127 -0.0012255172
-0.015009091 0 -0.0038613793
-0.041275002 -0.00127 -0.00047241381
-0.016134772 0.00042333335 -0.001602069
-0.011256819 -0.00127 -0.0023551725
0.042025454 -0.00127 -0.001602069
-0.010131137 0.00042333335 -9.5862095e-05
-0.012757727 0.00084666669 -0.0012255172
0.024765 0.00127 -9.5862095e-05
-0.037522726 0.00127 -0.0019786207
-0.015384318 0.00042333335 -0.0053675864
-0.034896135 -0.00127 -0.001602069
-0.039398864 0.00084666669 -0.0012255172
0.018386137 0.00042333335 -9.5862095e-05
-0.031143865 -0.00084666669 -9.5862095e-05
-0.0026265909 0 0.00065724138
-0.044276819 -0.00127 -0.00084896554
-0.048779547 0.00042333335 -0.0012255172
-0.040524546 0 -0.0057441378
0.045027275 0.00127 -0.001602069
-0.0018761364 0.00084666669 -9.5862095e-05
0.016134772 -0.00084666669 -0.00084896554
0.046903409 -0.00042333335 -0.00084896554
0.031894319 0.00084666669 -0.00084896554
-0.045402501 -0.00042333335 -0.00047241381
0.03977409 -0.00127 -0.0012255172
-0.0018761364 -0.00127 -0.0012255172
0.043526363 -0.00127 -0.00084896554
0.036397047 -0.00042333335 -0.001602069
0.025515454 0 -0.0057441378
0.029642954 0 -0.0019786207
-0.035271365 0.00042333335 -0.0023551725
0.025515454 0.00084666669 -0.0012255172
0.024014546 -0.00127 -0.001602069
-0.006754091 -0.00042333335 -0.00084896554
-0.02626591 0.00042333335 -0.00084896554
0.020262273 0.00042333335 -0.00047241381
-0.037897956 -0.00127 -0.0019786207
-0.0022513636 -0.00127 -0.0023551725
0.028142046 0 -0.0034848277
-0.028517272 0.00127 -0.0012255172
0.0071293181 0.00127 -0.0019786207
0.0123825 0.00084666669 -0.00084896554
0.046528183 -0.00127 -0.0019786207
0.035646591 0 -0.0023551725
0.020262273 0 0.0010337931
-0.0071293181 0.00127 -0.00047241381
-0.017260455 -0.00127 -0.0019786207
-0.015009091 0.00042333335 -9.5862095e-05
0.033020001 -0.00042333335 -0.0023551725
-0.034145683 -0.00084666669 -0.0023551725
-0.019511819 -0.00127 -9.5862095e-05
-0.0371475 -0.00042333335 -0.0012255172
0.041650228 -0.00042333335 -0.0023551725
0.0048779547 -0.00127 -0.00047241381
0.044652045 -0.00042333335 -0.00084896554
-0.0123825 -0.00127 -0.0012255172
0.020262273 0 -0.0012255172
-0.020262273 0 -0.0080034481
0.036021817 0.00127 -9.5862095e-05
0.0097559094 0.00127 -0.00047241381
0.034520909 -0.00084666669 -0.001602069
0.010131137 0 -0.0080034481
-0.032644775 0 -0.00084896554
0.044276819 -0.00084666669 -0.0023551725
-0.015384318 0.00084666669 -9.5862095e-05
-0.046152953 -0.00127 -0.001602069
0.032269545 -0.00084666669 -0.0023551725
0.033020001 -0.00127 -0.0019786207
0.046152953 0.00084666669 -0.00084896554
0.031519093 0.00084666669 -0.0023551725
-0.030768637 -0.00042333335 -0.0019786207
0.006754091 -0.00042333335 -0.0019786207
-0.035646591 -0.00127 -9.5862095e-05
-0.048404317 0 -0.0031082758
-0.0086302273 -0.00127 -0.0012255172
0.045027275 -0.00127 -0.0023551725
0.035271365 -0.00084666669 -0.00084896554
0.043526363 0.00127 -0.00084896554
-0.028142046 -0.00084666669 -0.00084896554
-0.0041275001 0.00084666669 -0.00084896554
0.010506364 -0.00127 -0.0012255172
-0.025515454 -0.00042333335 -0.001602069
0 -0.00042333335 -0.00047241381
0 0 -0.0031082758
-0.042025454 0.00084666669 -9.5862095e-05
0.04240068 -0.00042333335 -0.00084896554
-0.0078797732 -0.00084666669 -0.0012255172
-0.017635683 0 -0.0064972416
-0.046903409 -0.00127 -9.5862095e-05
0.0048779547 -0.00042333335 -0.0019786207
-0.047653865 0 -0.0019786207
-0.0026265909 0.00042333335 -0.00084896554
0.0015009091 -0.00127 -0.00084896554
-0.043901592 0 -0.00084896554
0.015384318 -0.00042333335 -0.00084896554
0.033770453 -0.00127 -0.0023551725
0.021387955 0.00084666669 -0.0012255172
-0.026641136 0 -9.5862095e-05
-0.046528183 -0.00042333335 -0.001602069
-0.035271365 0.00127 -9.5862095e-05
0.011632046 -0.00084666669 -0.00084896554
0.027016364 0.00042333335 -0.0023551725
-0.010131137 0 0.0021634484
0.01651 0.00127 -0.0012255172
-0.0071293181 -0.00127 -0.0019786207
0.038648408 -0.00042333335 -0.0012255172
-0.035271365 0.00042333335 -0.0012255172
0.017260455 -0.00042333335 -0.00047241381
0.018010909 0 -0.001602069
-0.037522726 0.00042333335 -0.00047241381
0.0048779547 0.00127 -0.0012255172
0.04014932 -0.00084666669 -0.00047241381
0.0097559094 -0.00127 -0.0019786207
0.00037522728 0.00042333335 -0.0019786207
-0.021763181 0.00084666669 -0.00047241381
-0.0288925 0.00127 -0.00084896554
-0.0060036364 0.00042333335 -0.001602069
0.015759546 0.00084666669 -0.0023551725
0.04014932 0.00127 -9.5862095e-05
-0.027766818 -0.00127 -0.001602069
-0.010131137 0.00127 -0.001602069
-0.022513637 -0.00042333335 -0.001602069
0.018386137 0.00084666669 -9.5862095e-05
0.035271365 0.00084666669 -0.001602069
-0.016134772 0.00127 -0.0012255172
-0.032644775 -0.00084666669 -0.001602069
0.043151136 0 0.0017868965
0.025140228 -0.00084666669 -0.00084896554
0.019511819 0.00084666669 -0.00084896554
-0.0048779547 0 -0.0038613793
0.041275002 0.00042333335 -0.0023551725
0.0371475 0.00084666669 -0.0012255172
0.027391592 0 -0.001602069
0.012007273 -0.00084666669 -0.001602069
-0.030768637 0 -0.0061206897
-0.044652045 0.00127 -0.0012255172
-0.015384318 0.00084666669 -0.00084896554
-0.021763181 0.00127 -0.0012255172
0.043526363 0.00127 -0.0023551725
0.022138409 0.00042333335 -9.5862095e-05
0.024389774 0 -0.0019786207
0.017635683 -0.00127 -0.0012255172
-0.023264091 -0.00042333335 -0.00084896554
-0.0052531818 0.00127 -0.00084896554
-0.035646591 0 -0.0042379312
0.032269545 -0.00084666669 -0.0019786207
0.019136591 0.00084666669 -0.001602069
0.022888863 0.00042333335 -0.0053675864
-0.027391592 0 -9.5862095e-05
-0.030393409 0.00127 -0.0012255172
-0.0026265909 0 -0.0061206897
-0.0086302273 -0.00127 -0.00047241381
-0.030393409 0 -0.00047241381
0.014258636 -0.00084666669 -0.00084896554
-0.0045027272 -0.00042333335 -0.00047241381
-0.024765 -0.00127 -0.0023551725
-0.046152953 0.00084666669 -0.0023551725
-0.034896135 0.00127 -0.00047241381
-0.0060036364 -0.00084666669 -0.001602069
-0.0288925 0 -0.0023551725
-0.044276819 -0.00084666669 -0.001602069
0.045777727 -0.00042333335 -0.001602069
-0.0371475 0.00042333335 -0.00047241381
-0.027016364 0 -0.0012255172
-0.047653865 -0.00084666669 -0.0023551725
0.023264091 0.00084666669 -0.00084896554
0.038273182 -0.00042333335 -0.0012255172
0.030393409 0 -0.0072503448
-0.019136591 0 -9.5862095e-05
0.011256819 0 -0.0023551725
0.029267728 0.00127 -9.5862095e-05
-0.022138409 0.00042333335 -9.5862095e-05
0.038273182 0.00042333335 -0.0023551725
-0.036021817 -0.00042333335 -0.00047241381
0.0086302273 0.00042333335 -0.0019786207
0.047653865 0 -0.00084896554
-0.0026265909 0 -0.0076268967
0.045777727 -0.00127 -0.00047241381
-0.024014546 0.00042333335 -0.00047241381
0.036772273 0 -0.0012255172
-0.018761363 0.00042333335 -0.00047241381
0.047278635 0.00127 -0.0012255172
-0.022138409 -0.00084666669 -0.0019786207
0.006754091 -0.00084666669 -0.0019786207
0.018761363 0.00084666669 -0.0023551725
-0.019887045 -0.00084666669 -0.0012255172
0.040899772 0.00127 -0.0023551725
-0.046528183 0 -0.0019786207
-0.017635683 -0.00127 -0.00047241381
0.025140228 0 -0.001602069
-0.018010909 -0.00042333335 -0.00084896554
-0.0041275001 0.00084666669 -0.0019786207
0.0015009091 -0.00127 -0.0023551725
-0.010506364 -0.00084666669 -0.00084896554
0.031519093 -0.00127 -0.00047241381
0.03977409 -0.00042333335 -0.0012255172
0.017635683 0 -0.0027317242
-0.0075045456 0.00084666669 -0.00047241381
-0.023264091 0.00042333335 -0.00084896554
-0.018761363 0.00042333335 -0.0023551725
0.034520909 -0.00127 -0.00084896554
-0.0075045456 -0.00127 -0.001602069
0.048779547 -0.00042333335 -0.001602069
0.0018761364 -0.00084666669 -9.5862095e-05
-0.0093806814 -0.00042333335 -0.00084896554
0.021763181 0 -9.5862095e-05
-0.02626591 -0.00127 -0.0023551725
-0.029267728 0.00042333335 -0.0019786207
-0.038648408 0.00084666669 -0.001602069
0.021763181 -0.00042333335 -0.00084896554
0.035646591 0 -0.0053675864
0.0030018182 -0.00042333335 -0.00047241381
0.036397047 0.00084666669 -0.0023551725
-0.019511819 0.00084666669 -0.00047241381
0.025515454 0.00042333335 -0.0019786207
0.028142046 0 0.0010337931
-0.018386137 -0.00084666669 -0.0023551725
-0.024765 -0.00042333335 -0.0023551725
0.0037522728 0.00042333335 -0.0019786207
0.00075045455 0.00127 -0.0019786207
0.040899772 0.00084666669 -0.0012255172
-0.047278635 0.00084666669 -0.00047241381
0.04277591 -0.00127 -0.00047241381
0.048779547 0.00127 -0.0019786207
0.047278635 -0.00042333335 -0.001602069
0.0052531818 0.00084666669 -0.0019786207
0.031143865 0 -0.00047241381
0.043151136 0 0.0014103448
-0.011632046 0.00084666669 -9.5862095e-05
0.0030018182 0 -0.00047241381
-0.020262273 0 0.0021634484
0.039398864 -0.00084666669 -0.001602069
0.023264091 0 -0.0012255172
-0.0082550002 0.00127 -0.0019786207
0.021012727 0.00084666669 -0.001602069
-0.046152953 -0.00127 -0.00084896554
0.022888863 0.00042333335 0.00028068962
0.0093806814 0 -0.001602069
-0.027391592 0.00127 -0.0023551725
-0.0071293181 -0.00084666669 -0.00047241381
-0.021763181 0 -0.0019786207
0.021012727 0 -0.00084896554
0.024014546 0 -0.0012255172
0.027016364 -0.00084666669 -0.0019786207
0.0041275001 0.00042333335 -0.00047241381
-0.012757727 0.00042333335 -0.0023551725
0.011256819 0.00042333335 -0.001602069
0.018010909 -0.00042333335 -0.00047241381
0.025515454 0 -0.00084896554
0.025890682 0.00127 -0.00047241381
-0.039398864 0.00127 -0.00084896554
0.021387955 0.00042333335 -0.001602069
0.0097559094 0.00084666669 -0.00047241381
-0.0022513636 0.00084666669 -0.0012255172
0.0052531818 0.00042333335 -0.0019786207
0.034145683 -0.00127 -0.00084896554
0.029642954 0.00084666669 -9.5862095e-05
-0.0015009091 0 -9.5862095e-05
-0.012757727 0.00084666669 -9.5862095e-05
-0.013883409 0.00042333335 -0.001602069
-0.038648408 -0.00127 -0.001602069
-0.011632046 0.00042333335 -0.001602069
-0.034520909 0.00127 -0.00084896554
0.015384318 -0.00084666669 -9.5862095e-05
0.020262273 0 0.0021634484
0.0078797732 0.00042333335 -0.0023551725
0.02626591 0.00042333335 -0.001602069
0.0082550002 0.00084666669 -0.001602069
0.016134772 -0.00127 -0.00047241381
-0.0052531818 0 -0.0019786207
-0.0048779547 0 -0.0012255172
0.020262273 -0.00127 -0.00084896554
0.027766818 -0.00127 -9.5862095e-05
-0.030018182 0.00127 -0.0012255172
-0.0045027272 0.00084666669 -0.0019786207
0.025515454 0 -0.0064972416
0.027766818 0 -9.5862095e-05
0.037522726 0 -0.001602069
0.027391592 -0.00084666669 -0.0019786207
0.02626591 0 -0.0019786207
-0.00037522728 0.00042333335 -0.00084896554
0.019136591 -0.00084666669 -0.001602069
-0.00037522728 -0.00127 -0.0023551725
0.0048779547 0.00127 -0.001602069
-0.018761363 0 -0.00084896554
-0.041650228 0.00042333335 -0.0023551725
0.030018182 -0.00127 -0.00084896554
0 0.00042333335 -0.0053675864
0.036021817 -0.00084666669 -0.0012255172
-0.039398864 -0.00127 -9.5862095e-05
-0.034520909 -0.00084666669 -0.0012255172
0.0037522728 0 -0.0012255172
0.032644775 0 -9.5862095e-05
0.028517272 -0.00127 -0.0023551725
0.011632046 -0.00127 -0.00084896554
-0.028517272 0.00127 -9.5862095e-05
0.027766818 0.00084666669 -0.00084896554
-0.046152953 0.00042333335 -0.00047241381
-0.027391592 -0.00042333335 -0.0023551725
-0.0033770455 0.00084666669 -0.0012255172
0.046528183 0.00084666669 -0.001602069
0.018386137 0.00042333335 -0.001602069
-0.046152953 -0.00084666669 -0.0023551725
-0.031519093 -0.00042333335 -0.00084896554
-0.028142046 -0.00084666669 -0.001602069
0.0075045456 0 -0.0027317242
-0.0056284093 -0.00042333335 -0.00084896554
0.048029091 0 -0.0034848277
-0.020262273 0 0.0010337931
-0.019887045 -0.00042333335 -0.0012255172
-0.024014546 0.00042333335 -9.5862095e-05
0.011632046 0.00127 -0.00084896554
0.0037522728 0.00127 -0.0012255172
0.021012727 0.00127 -9.5862095e-05
0.030018182 0 -0.00084896554
0.0060036364 -0.00127 -0.00047241381
0.041650228 0 -0.0012255172
0.014258636 0 -0.00047241381
0.018761363 0 -0.001602069
0.006754091 0.00042333335 -0.00047241381
0.030393409 0.00084666669 -0.00084896554
-0.039398864 -0.00127 -0.0012255172
0.031519093 -0.00084666669 -0.00047241381
0.0060036364 0.00084666669 -0.0012255172
0.00075045455 -0.00084666669 -0.0023551725
0.026641136 0.00127 -0.001602069
-0.010881591 0.00084666669 -0.0019786207
0.027766818 0.00127 -0.0012255172
-0.006754091 0.00042333335 -0.00084896554
0.010131137 -0.00042333335 -0.0027317242
0.030768637 0 -0.0023551725
-0.02626591 -0.00042333335 -0.0012255172
-0.043526363 0.00127 -0.0019786207
-0.048029091 0 0.00065724138
0.037522726 0.00042333335 -0.0012255172
0 -0.00042333335 -0.00084896554
-0.027766818 0 -0.0046144826
-0.034896135 0.00042333335 -9.5862095e-05
0.026641136 0 -0.001602069
0.0011256818 -0.00127 -0.001602069
-0.022888863 0.00127 -0.0012255172
0.015759546 0.00127 -9.5862095e-05
0.025515454 -0.00084666669 -0.0019786207
0.04240068 0.00084666669 -0.0012255172
-0.024014546 0 -0.0012255172
0.0037522728 -0.00042333335 -0.00084896554
-0.036772273 0.00127 -0.00084896554
-0.017635683 0.00127 -0.0019786207
0.04277591 0 -0.001602069
0.010881591 0.00084666669 -0.00084896554
-0.038648408 -0.00084666669 -0.001602069
0.0033770455 -0.00084666669 -0.0012255172
-0.022888863 0 -0.00047241381
-0.021387955 0.00084666669 -9.5862095e-05
-0.0045027272 -0.00042333335 -0.00084896554
-0.044652045 0.00042333335 -0.0023551725
0.031143865 0.00084666669 -0.001602069
-0.025515454 0 0.0017868965
-0.036772273 -0.00127 -9.5862095e-05
-0.027391592 0.00127 -0.00084896554
0.036397047 -0.00042333335 -0.0023551725
0.037897956 -0.00127 -0.0019786207
-0.017260455 0.00127 -0.0023551725
-0.039398864 -0.00042333335 -0.00084896554
0.022888863 0 0.0010337931
-0.046528183 -0.00042333335 -0.0023551725
-0.015384318 0 0.0014103448
0.042025454 -0.00084666669 -9.5862095e-05
-0.023639318 -0.00084666669 -0.0019786207
0.0030018182 -0.00127 -9.5862095e-05
0.023264091 0 -0.00084896554
0.0011256818 0.00084666669 -0.0012255172
0.0075045456 0 -0.0019786207
0.043901592 0 -0.0012255172
-0.013508182 0.00084666669 -0.00047241381
-0.046152953 0.00042333335 -0.001602069
-0.00037522728 0 -9.5862095e-05
0.042025454 0 -0.001602069
0.0026265909 0.00042333335 -0.0019786207
-0.033020001 0.00084666669 -0.0023551725
-0.041650228 -0.00042333335 -0.0023551725
-0.035646591 0 -0.0072503448
-0.032269545 -0.00084666669 -0.00047241381
-0.044276819 -0.00042333335 -0.0019786207
0.015759546 -0.00084666669 -0.0012255172
-0.034520909 -0.00084666669 -0.0019786207
0.043526363 0.00127 -0.001602069
-0.027766818 0.00084666669 -0.00047241381
0.029642954 0 -9.5862095e-05
0.045027275 -0.00042333335 -0.0012255172
0.0075045456 0 0.00028068962
0.043901592 0 -0.001602069
0.022888863 0 -0.0072503448
0.045402501 0.00084666669 -0.00084896554
0.04014932 -0.00127 -0.00084896554
0.021012727 -0.00127 -0.00047241381
0.022888863 0 -0.0027317242
0.027391592 -0.00084666669 -0.0012255172
0.013508182 -0.00127 -0.0023551725
0.0018761364 0.00127 -0.001602069
0.036021817 -0.00127 -0.00047241381
-0.0030018182 0 -0.00084896554
-0.0371475 0.00084666669 -0.0019786207
0.034520909 0 -9.5862095e-05
0.030768637 0.00127 -0.0019786207
0.039398864 -0.00042333335 -0.00047241381
0.026641136 -0.00084666669 -0.0023551725
0.018010909 0 -0.0012255172
0.047278635 0.00084666669 -0.00084896554
0 0.00042333335 0.00028068962
0.017635683 0 -0.0064972416
0.034145683 0.00127 -0.00084896554
0.032644775 -0.00084666669 -0.001602069
-0.027391592 -0.00042333335 -0.00047241381
0.04240068 0.00127 -0.0012255172
0.0026265909 -0.00084666669 -0.00084896554
-0.0097559094 -0.00042333335 -0.0012255172
-0.035271365 0.00042333335 -0.00047241381
0.015759546 -0.00127 -0.001602069
0.040524546 0 -0.00084896554
0.019887045 0.00042333335 -0.001602069
-0.022138409 0 -0.001602069
-0.046152953 0.00042333335 -0.0012255172
-0.044652045 -0.00084666669 -0.0023551725
-0.030768637 0 -0.0031082758
0.037897956 0 -0.0042379312
-0.031143865 0.00042333335 -0.0012255172
0.045402501 0 -0.0019786207
0.00037522728 0.00127 -0.0023551725
0 -0.00084666669 -0.00084896554
0.025515454 0 -0.0080034481
0.033020001 0 -0.0034848277
-0.035646591 -0.00084666669 -9.5862095e-05
-0.016134772 -0.00042333335 -0.00084896554
0.019136591 -0.00084666669 -0.0012255172
0.041275002 0 -0.00084896554
-0.048779547 0.00084666669 -0.00084896554
-0.021387955 -0.00084666669 -0.0012255172
-0.0015009091 -0.00084666669 -9.5862095e-05
-0.015384318 0.00042333335 -0.00084896554
0.0048779547 -0.00084666669 -0.0023551725
-0.025515454 -0.00042333335 -0.00084896554
-0.033770453 -0.00042333335 -0.001602069
0.029642954 0.00042333335 -0.00084896554
0.034145683 0.00042333335 -0.00084896554
-0.031519093 -0.00042333335 -0.0019786207
0.010881591 0.00042333335 -9.5862095e-05
-0.00075045455 0.00127 -0.00084896554
0.033770453 0.00127 -0.0012255172
-0.016885227 -0.00084666669 -0.0012255172
-0.027766818 0.00127 -0.001602069
0.0048779547 0 -0.006873793
0.027016364 0.00042333335 -0.00047241381
0.010131137 -0.00042333335 -0.0031082758
0.022888863 0.00042333335 -0.0057441378
0.016885227 -0.00042333335 -0.00047241381
0.0045027272 0 -0.00084896554
0.046528183 -0.00127 -0.0023551725
-0.038273182 -0.00084666669 -9.5862095e-05
0.027766818 0.00127 -0.0023551725
0 0 -0.00084896554
0.027766818 -0.00127 -0.0019786207
-0.045027275 -0.00042333335 -0.00084896554
-0.041275002 -0.00042333335 -0.0012255172
-0.043526363 0 -0.00084896554
-0.027766818 0 -0.0064972416
0.0018761364 0 -0.00047241381
0.025140228 0.00084666669 -0.0019786207
-0.044652045 -0.00084666669 -9.5862095e-05
0.031519093 0.00127 -9.5862095e-05
-0.0015009091 0 -0.001602069
0.01651 0.00042333335 -0.00084896554
0.027766818 0 0.00028068962
0.0078797732 0 -0.001602069
0.040899772 0.00084666669 -0.0019786207
-0.018761363 0 -0.00047241381
0.0078797732 -0.00127 -9.5862095e-05
-0.048404317 -0.00042333335 -0.0012255172
0.018386137 -0.00084666669 -0.0023551725
-0.028142046 0 0.0014103448
0.021763181 -0.00084666669 -0.00047241381
0.0045027272 0.00084666669 -0.00047241381
-0.0071293181 -0.00084666669 -0.001602069
-0.025140228 -0.00127 -0.00047241381
-0.015384318 0 -9.5862095e-05
0.039398864 0.00042333335 -0.00047241381
0.031519093 -0.00084666669 -0.001602069
-0.028142046 0 -0.001602069
0.032644775 0.00084666669 -0.0012255172
0.014633864 0.00084666669 -0.0019786207
-0.042025454 -0.00127 -0.001602069
0.0048779547 0.00042333335 -0.0012255172
-0.023639318 -0.00127 -0.0012255172
0.027016364 -0.00084666669 -0.0023551725
0.0048779547 -0.00084666669 -9.5862095e-05
-0.045402501 0.00042333335 -0.00047241381
0.019511819 0 -0.001602069
-0.032269545 0.00127 -0.00047241381
0.035271365 0 -0.0049910345
0.021387955 0.00127 -0.0023551725
-0.021012727 0 -9.5862095e-05
0.0022513636 0 -0.0038613793
0.010131137 0.00042333335 -0.00047241381
-0.0011256818 -0.00042333335 -0.0023551725
0.044276819 -0.00127 -0.0012255172
-0.035646591 0.00084666669 -9.5862095e-05
-0.0045027272 -0.00084666669 -0.00084896554
0.047278635 0 -0.0019786207
0.023639318 0.00042333335 -0.00084896554
0.030768637 0.00042333335 -0.00084896554
0.029267728 -0.00084666669 -0.0012255172
0.0048779547 0.00127 -0.0019786207
-0.0045027272 0.00084666669 -0.001602069
0.0086302273 0.00084666669 -9.5862095e-05
-0.048029091 -0.00042333335 -0.0012255172
-0.034145683 -0.00084666669 -0.001602069
0.016134772 0 -0.0023551725
-0.019136591 -0.00042333335 -0.001602069
0.0071293181 0.00127 -0.00084896554
0.036772273 0.00042333335 -0.0023551725
-0.048029091 0.00084666669 -0.001602069
-0.027016364 -0.00127 -0.00084896554
0.0288925 -0.00127 -9.5862095e-05
0.043151136 0.00127 -0.00084896554
0.0026265909 -0.00042333335 -0.0019786207
-0.047278635 0 -0.00047241381
0.0078797732 0.00084666669 -0.00084896554
-0.039023638 -0.00084666669 -9.5862095e-05
-0.033395227 0.00127 -9.5862095e-05
0.037522726 0.00042333335 -0.001602069
0.0037522728 0.00127 -0.001602069
0.026641136 -0.00042333335 -0.0012255172
0.0063788635 -0.00084666669 -0.0012255172
0.0041275001 0.00127 -0.00047241381
0.0011256818 0.00084666669 -9.5862095e-05
0.024014546 0.00084666669 -0.001602069
-0.028517272 -0.00042333335 -0.0023551725
-0.0288925 -0.00042333335 -0.001602069
-0.045402501 0 -0.0023551725
0.018761363 -0.00042333335 -0.001602069
0.0033770455 0.00042333335 -0.0019786207
0.0288925 0.00127 -0.001602069
-0.0037522728 0 -0.0019786207
0.020262273 0 0.0017868965
0.033395227 -0.00127 -0.0012255172
0.028517272 -0.00042333335 -0.0023551725
-0.0037522728 -0.00042333335 -0.0023551725
0.041650228 -0.00127 -0.00047241381
0.036772273 0.00127 -0.00084896554
-0.016885227 0.00042333335 -9.5862095e-05
-0.0123825 0.00127 -0.00047241381
0.035271365 -0.00042333335 -0.00084896554
-0.024389774 0.00042333335 -0.0012255172
-0.034145683 0.00127 -0.00047241381
0.022888863 -0.00127 -0.001602069
0.043151136 0 -0.0061206897
0.044276819 -0.00042333335 -0.00084896554
-0.0048779547 0 -0.0049910345
-0.049154773 0.00042333335 -0.00084896554
0.012757727 0.00042333335 -0.00084896554
-0.0097559094 -0.00084666669 -0.00047241381
0.036397047 0.00127 -0.0023551725
0.017635683 -0.00084666669 -9.5862095e-05
0.0011256818 -0.00127 -0.0019786207
-0.037897956 -0.00127 -0.00047241381
0.029267728 0.00042333335 -0.00047241381
0.025890682 0.00084666669 -0.00084896554
0.013508182 -0.00127 -9.5862095e-05
-0.027391592 -0.00084666669 -9.5862095e-05
-0.011632046 0.00084666669 -0.0019786207
-0.037522726 0 -0.0019786207
-0.00075045455 -0.00127 -0.0023551725
0.018761363 0.00042333335 -0.0023551725
0.014258636 0.00042333335 -0.0023551725
-0.027016364 0 -0.0023551725
-0.011256819 0 -0.00084896554
-0.035271365 0.00084666669 -0.0012255172
0.013508182 0 -0.001602069
0.0086302273 0.00127 -0.0012255172
0.045027275 0.00042333335 -0.0019786207
-0.045402501 0.00042333335 -0.0019786207
0.024765 -0.00127 -0.00047241381
-0.014258636 -0.00084666669 -0.0012255172
0.0026265909 -0.00127 -0.00047241381
-0.0037522728 0.00127 -0.0023551725
0.0371475 0 -0.00047241381
-0.045777727 -0.00127 -0.00047241381
0.038273182 0.00127 -0.001602069
-0.015384318 0.00084666669 -0.0019786207
0.0063788635 0.00127 -0.0019786207
-0.031143865 0 -0.001602069
-0.045027275 0.00042333335 -0.00047241381
-0.013132955 -0.00084666669 -0.001602069
-0.035646591 0 -0.0061206897
0.044276819 -0.00127 -0.0019786207
-0.0011256818 0.00084666669 -0.0019786207
-0.0041275001 -0.00042333335 -0.00047241381
-0.036772273 -0.00084666669 -0.00047241381
0.018386137 0 -0.0023551725
0.018761363 0.00127 -0.001602069
-0.023639318 0.00084666669 -0.0019786207
-0.037897956 0.00127 -0.00047241381
0.028142046 -0.00042333335 -0.0023551725
-0.041650228 -0.00084666669 -0.0023551725
0.025140228 0 -0.0061206897
-0.023639318 0.00084666669 -0.00084896554
-0.0093806814 -0.00042333335 -0.00047241381
0.023639318 0.00084666669 -0.0012255172
0.022513637 0.00127 -0.00047241381
-0.0030018182 -0.00084666669 -0.0023551725
-0.031894319 -0.00084666669 -0.00084896554
-0.0097559094 0 -0.0023551725
0.012757727 0.00042333335 -9.5862095e-05
0.025890682 0.00042333335 -0.00084896554
-0.030768637 0.00084666669 -0.0023551725
-0.025890682 -0.00127 -0.0012255172
-0.012757727 0 0.00028068962
0.021387955 0 -0.00047241381
-0.013883409 0.00042333335 -0.0012255172
-0.023264091 -0.00127 -0.001602069
0.0045027272 0.00042333335 -0.0019786207
0.034520909 0.00084666669 -0.00047241381
-0.031143865 0 -0.0023551725
-0.040899772 -0.00084666669 -0.00084896554
-0.013508182 0 -0.0012255172
-0.014633864 -0.00042333335 -0.00047241381
0.038273182 0 -0.001602069
0.0090054544 -0.00042333335 -0.001602069
-0.045402501 0.00127 -0.0012255172
-0.045402501 -0.00127 -0.00084896554
0.0045027272 0 -9.5862095e-05
-0.017260455 -0.00127 -0.001602069
0.015384318 0 0.0017868965
0.0075045456 -0.00042333335 -0.0027317242
0.021012727 -0.00042333335 -0.0019786207
-0.01651 0.00127 -9.5862095e-05
0.015759546 0.00084666669 -9.5862095e-05
0.030393409 0.00127 -9.5862095e-05
-0.018386137 0.00042333335 -0.001602069
0.022888863 0.00042333335 -0.0061206897
-0.048029091 0 -0.0064972416
-0.006754091 0.00127 -0.0012255172
-0.029642954 0.00084666669 -0.0023551725
-0.045402501 0 -9.5862095e-05
-0.0093806814 0.00042333335 -0.0019786207
0.010506364 -0.00084666669 -0.00084896554
-0.019136591 0.00084666669 -0.0019786207
-0.023639318 -0.00127 -0.0023551725
-0.040899772 -0.00042333335 -0.0012255172
0.028142046 -0.00127 -0.001602069
-0.039398864 -0.00084666669 -0.0023551725
0.034520909 -0.00084666669 -0.0019786207
-0.015384318 0.00127 -9.5862095e-05
0.014633864 0.00084666669 -9.5862095e-05
0.028517272 0.00042333335 -9.5862095e-05
0.040524546 -0.00042333335 -0.0019786207
-0.031519093 -0.00127 -0.0019786207
0.024389774 -0.00084666669 -0.00047241381
-0.0015009091 -0.00042333335 -0.00084896554
0.0011256818 -0.00042333335 -0.0023551725
-0.024389774 -0.00127 -0.001602069
-0.046528183 0.00084666669 -0.0012255172
0.0018761364 -0.00084666669 -0.001602069
0.046903409 -0.00127 -0.001602069
-0.030768637 0 -0.0057441378
-0.0123825 -0.00084666669 -0.0012255172
0.010506364 -0.00127 -0.0023551725
0.019136591 -0.00042333335 -0.00084896554
0.035271365 0 0.0010337931
-0.047653865 0.00127 -0.00047241381
0.048029091 -0.00084666669 -0.0023551725
-0.025890682 -0.00042333335 -0.0019786207
-0.010131137 0.00042333335 -0.001602069
0.035271365 0.00127 -0.0023551725
0.030018182 0.00042333335 -0.0019786207
-0.015384318 0 0.0010337931
0.027016364 0.00042333335 -0.0012255172
0.024389774 0 -9.5862095e-05
-0.0097559094 0.00042333335 -0.00084896554
0.018761363 -0.00084666669 -0.0019786207
-0.025515454 0.00127 -0.00047241381
-0.039398864 0.00084666669 -0.0023551725
-0.00075045455 -0.00084666669 -0.0023551725
-0.024765 0 -9.5862095e-05
0.035271365 0.00084666669 -9.5862095e-05
0.03977409 0 -0.00084896554
-0.036397047 0 -0.00084896554
0.049154773 0.00084666669 -0.00047241381
0.0075045456 -0.00042333335 -0.0019786207
-0.011632046 0 -0.00047241381
0 -0.00042333335 -0.001602069
-0.04014932 -0.00127 -0.0019786207
-0.023639318 0.00042333335 -0.0019786207
0.048404317 0 -0.0076268967
0.034145683 -0.00042333335 -0.0012255172
-0.033770453 -0.00042333335 -0.0019786207
0.015384318 0 -0.0031082758
-0.030018182 -0.00084666669 -0.0012255172
-0.034145683 -0.00127 -0.00047241381
0.046152953 -0.00127 -0.00084896554
-0.035646591 0 -0.0053675864
0.0093806814 -0.00042333335 -0.0023551725
0.022888863 0.00042333335 -9.5862095e-05
0.030393409 0 -0.0038613793
-0.0052531818 0 -0.0057441378
0.0026265909 -0.00042333335 -0.00084896554
0.0075045456 0 -0.001602069
-0.037522726 0.00127 -0.00084896554
0.026641136 -0.00042333335 -0.00084896554
-0.0030018182 -0.00127 -9.5862095e-05
-0.0123825 -0.00042333335 -0.0023551725
0.0018761364 -0.00127 -0.0023551725
0.040524546 0 -0.0072503448
0.024765 0 -0.0019786207
0.0056284093 -0.00127 -0.0023551725
-0.034520909 0.00084666669 -0.001602069
-0.012757727 0.00042333335 -0.0027317242
0.036021817 0.00127 -0.001602069
-0.019887045 -0.00127 -0.00047241381
0.033020001 0 0.0010337931
-0.0041275001 0 -0.00047241381
0.021387955 -0.00084666669 -0.0023551725
0.014633864 0.00042333335 -0.0019786207
0.014633864 0.00084666669 -0.00047241381
-0.0048779547 0.00042333335 -0.0019786207
-0.036772273 -0.00042333335 -0.00084896554
-0.028142046 -0.00042333335 -0.001602069
-0.031519093 -0.00042333335 -0.0023551725
0.012007273 -0.00084666669 -0.00084896554
-0.010506364 0.00084666669 -9.5862095e-05
0.0075045456 0.00042333335 -0.0012255172
0.012757727 -0.00127 -0.001602069
-0.033770453 -0.00042333335 -0.00084896554
0.011256819 -0.00127 -0.0019786207
0.046152953 -0.00127 -0.00047241381
0.0018761364 0.00127 -0.0012255172
-0.048404317 0 -0.0042379312
-0.024389774 -0.00127 -0.0012255172
-0.013132955 0.00127 -0.001602069
0.031143865 0.00042333335 -0.00084896554
0.035646591 0 0.0017868965
0.0037522728 0.00127 -0.0019786207
-0.0018761364 0.00042333335 -0.001602069
-0.02626591 0.00084666669 -0.0023551725
0.043151136 0.00084666669 -0.0012255172
0.040899772 -0.00127 -0.0023551725
-0.041275002 -0.00042333335 -0.001602069
-0.0026265909 0 -0.0057441378
-0.013883409 0.00084666669 -0.0019786207
0.030018182 0.00042333335 -0.001602069
0.026641136 -0.00127 -0.00084896554
0.018386137 -0.00127 -0.001602069
-0.040899772 -0.00084666669 -0.00047241381
0.0030018182 0 -0.001602069
0.034896135 -0.00127 -0.001602069
-0.015009091 -0.00127 -0.00084896554
-0.024014546 -0.00084666669 -0.00084896554
0.028517272 0 -0.0019786207
0.024014546 -0.00127 -9.5862095e-05
0.0071293181 0.00127 -0.0012255172
-0.043151136 0.00127 -0.0019786207
-0.012007273 0 -0.001602069
-0.040899772 -0.00127 -0.00047241381
0.023639318 0.00084666669 -0.0023551725
-0.03977409 -0.00127 -0.0023551725
-0.0063788635 0 -0.001602069
-0.024014546 -0.00084666669 -0.00047241381
-0.041275002 0 -0.001602069
-0.030393409 0.00042333335 0.0010337931
-0.043526363 -0.00084666669 -0.0012255172
0.0041275001 -0.00042333335 -0.0023551725
-0.043526363 -0.00084666669 -0.001602069
0.04014932 0 -0.001602069
-0.0060036364 0.00084666669 -0.001602069
-0.01651 -0.00042333335 -0.00047241381
0.032269545 0.00042333335 -0.0023551725
-0.010506364 -0.00127 -0.001602069
0.030393409 0.00127 -0.0012255172
0.0075045456 0 -0.006873793
-0.037897956 0 -0.0012255172
-0.022888863 0 -0.0076268967
0.015009091 -0.00084666669 -9.5862095e-05
0.036021817 -0.00042333335 -0.00047241381
0.0093806814 0 -9.5862095e-05
0.0018761364 -0.00042333335 -0.0019786207
-0.039023638 -0.00127 -0.00084896554
0.042025454 -0.00084666669 -0.0012255172
-0.020637501 0 -0.0023551725
-0.043526363 -0.00042333335 -0.00084896554
0.00037522728 0.00127 -0.0012255172
0.025140228 -0.00084666669 -0.0012255172
0.034145683 0.00042333335 -0.001602069
0.014258636 0.00084666669 -0.0019786207
-0.018761363 -0.00127 -0.0023551725
-0.046903409 -0.00042333335 -0.0023551725
0.02626591 -0.00042333335 -0.0019786207
-0.031894319 0.00084666669 -0.00084896554
-0.044652045 0.00084666669 -0.0023551725
-0.033020001 0 0.00065724138
0.0097559094 -0.00084666669 -0.001602069
0.033020001 0 -0.0057441378
-0.037897956 0 0.00065724138
-0.019511819 0.00127 -0.00047241381
-0.033020001 0.00042333335 -0.00047241381
0.015384318 -0.00042333335 -0.0027317242
-0.012757727 0.00084666669 -0.00047241381
-0.038273182 0 -0.0012255172
0.011632046 -0.00127 -9.5862095e-05
-0.046903409 -0.00084666669 -0.001602069
0.030393409 -0.00127 -0.0019786207
0.020262273 0.00042333335 -0.0053675864
0.035271365 0 -0.0042379312
-0.022513637 0.00042333335 -0.0019786207
-0.021012727 0 -0.0019786207
0.04240068 -0.00084666669 -9.5862095e-05
-0.013132955 0.00042333335 -0.00084896554
-0.024014546 -0.00084666669 -0.0019786207
-0.033020001 -0.00042333335 -0.0019786207
-0.019887045 0.00127 -0.0019786207
-0.019887045 0.00084666669 -0.0023551725
0.015759546 0 -0.00084896554
-0.020637501 0.00042333335 -0.0023551725
0.014258636 0 -0.00084896554
0.043151136 0 -0.0031082758
0.022138409 0.00127 -9.5862095e-05
0.030393409 -0.00127 -9.5862095e-05
0.0093806814 0.00042333335 -0.0023551725
0.034145683 0 -0.00084896554
0.0093806814 -0.00084666669 -0.00084896554
-0.033770453 0.00127 -0.00047241381
0.043901592 -0.00127 -0.0023551725
0.022888863 -0.00084666669 -0.00084896554
-0.022138409 0.00084666669 -0.00084896554
0.013508182 0.00042333335 -9.5862095e-05
-0.037897956 -0.00084666669 -9.5862095e-05
0.033020001 -0.00042333335 -0.001602069
0.0041275001 0 -0.0012255172
0.04277591 0 -0.0012255172
0.046152953 0.00084666669 -0.0023551725
-0.040524546 -0.00127 -0.00047241381
0.046152953 0.00084666669 -0.001602069
0.0090054544 0.00127 -0.00084896554
0.027391592 0 -0.0012255172
-0.012007273 0.00084666669 -0.001602069
-0.029642954 0.00127 -9.5862095e-05
0.0093806814 0.00127 -0.0019786207
0.020262273 -0.00127 -0.0012255172
-0.020262273 0.00127 -9.5862095e-05
0.0037522728 -0.00042333335 -0.0023551725
0.043151136 0 0.0021634484
-0.043901592 -0.00084666669 -0.00084896554
-0.041650228 0 -0.00047241381
0.034145683 0.00084666669 -0.00084896554
0.0090054544 0.00042333335 -0.0012255172
0.02626591 0.00127 -0.00047241381
0.0018761364 -0.00042333335 -0.00084896554
-0.017635683 0.00042333335 -0.00047241381
0 0.00127 -9.5862095e-05
-0.015009091 0.00084666669 -9.5862095e-05
0.046528183 -0.00084666669 -0.00084896554
-0.033020001 0 -0.0034848277
0.020637501 0 -0.00084896554
-0.033395227 0.00042333335 -0.001602069
-0.03977409 -0.00127 -0.00047241381
-0.025890682 0 -0.00084896554
0.046903409 -0.00127 -0.0023551725
0.013132955 0 -9.5862095e-05
-0.015384318 0 0.0017868965
-0.015384318 0 -0.0080034481
-0.043901592 0.00127 -9.5862095e-05
-0.024014546 -0.00127 -0.0023551725
-0.043151136 0.00042333335 -0.0012255172
-0.0015009091 -0.00127 -0.001602069
-0.017260455 -0.00084666669 -0.0023551725
-0.010131137 -0.00127 -0.00047241381
-0.015384318 0 -0.006873793
-0.033395227 0.00084666669 -0.00047241381
-0.044652045 0 -0.00084896554
0.023264091 -0.00042333335 -0.00047241381
0.0015009091 0.00042333335 -0.0023551725
0.015759546 -0.00042333335 -0.00084896554
0.006754091 -0.00084666669 -0.0012255172
-0.014258636 0.00084666669 -0.001602069
-0.036772273 0 -0.0012255172
-0.038648408 -0.00084666669 -0.0012255172
0.039023638 0.00042333335 -0.00084896554
-0.018010909 0.00127 -0.00047241381
-0.036772273 0.00042333335 -0.0012255172
-0.044652045 0.00042333335 -0.0012255172
-0.031519093 0 -0.00047241381
-0.043151136 0.00127 -0.0012255172
0.025890682 -0.00042333335 -0.00047241381
-0.024765 -0.00042333335 -0.0012255172
0.010506364 -0.00084666669 -0.0019786207
0.020637501 0.00127 -0.0023551725
-0.0090054544 -0.00127 -0.00047241381
0.045777727 0.00127 -0.00047241381
0.048404317 0 -0.0046144826
-0.021387955 0.00042333335 -0.0012255172
0.048404317 0.00127 -0.00047241381
0.04277591 0.00084666669 -0.001602069
0.010131137 0 0.00028068962
-0.0041275001 0.00127 -0.001602069
-0.020262273 0 -0.0076268967
-0.034520909 0.00127 -0.00047241381
-0.0052531818 0 0.0010337931
-0.0045027272 0.00127 -0.00084896554
0.029267728 -0.00127 -0.0019786207
0.025140228 0 -0.0053675864
-0.0082550002 0.00042333335 -0.001602069
0.0037522728 0.00042333335 -9.5862095e-05
-0.016885227 0 -0.00084896554
0.030768637 -0.00042333335 -0.00084896554
-0.0026265909 -0.00084666669 -0.0023551725
0.037522726 0.00042333335 -0.00047241381
-0.0015009091 0.00084666669 -0.0019786207
-0.011256819 -0.00084666669 -0.001602069
-0.0041275001 0.00084666669 -0.0012255172
-0.017635683 0.00084666669 -0.0019786207
-0.017635683 0 -0.0057441378
-0.029642954 -0.00042333335 -0.0012255172
-0.032269545 0.00042333335 -9.5862095e-05
-0.044276819 -0.00084666669 -0.00047241381
0.019136591 -0.00084666669 -0.0019786207
0.015384318 0.00084666669 -0.0023551725
0.0056284093 -0.00042333335 -0.0023551725
0.045777727 0 -0.0042379312
0.035271365 0 -0.006873793
0.0097559094 -0.00042333335 -0.0019786207
0.034520909 0.00127 -0.0012255172
0.022888863 0.00127 -0.00047241381
-0.021012727 0.00042333335 -0.00084896554
-0.024014546 0 -0.0019786207
-0.034520909 -0.00127 -0.0012255172
-0.022888863 0 -0.0049910345
-0.040899772 -0.00127 -0.0012255172
0.006754091 -0.00042333335 -0.001602069
-0.025140228 0 -0.0012255172
0.014258636 -0.00127 -0.00047241381
0.04240068 -0.00084666669 -0.0012255172
-0.030393409 0 0.00028068962
0.034896135 -0.00127 -0.0019786207
-0.011632046 0.00042333335 -0.0012255172
0.0030018182 0.00127 -9.5862095e-05
-0.029267728 -0.00042333335 -0.0019786207
-0.0022513636 -0.00042333335 -0.001602069
-0.036772273 0.00084666669 -0.0023551725
0.0086302273 -0.00084666669 -0.001602069
-0.045777727 0 -0.00084896554
0.033770453 -0.00042333335 -0.001602069
0.040524546 0 -0.0023551725
-0.0075045456 -0.00084666669 -0.0012255172
-0.0075045456 0.00042333335 -9.5862095e-05
0.020262273 0.00042333335 -0.0046144826
0.046528183 0.00084666669 -0.0019786207
0.025140228 -0.00084666669 -0.00047241381
0.038273182 0 -9.5862095e-05
-0.043901592 -0.00042333335 -0.00047241381
-0.036021817 -0.00042333335 -0.001602069
-0.0078797732 0.00042333335 -0.0019786207
0.022888863 0 -0.00084896554
0.0037522728 -0.00127 -0.001602069
0.011632046 0 -0.0012255172
0.0011256818 -0.00127 -0.0012255172
0.013132955 -0.00042333335 -0.00084896554
0.0026265909 0 -0.0053675864
0.022888863 0.00042333335 -0.0046144826
-0.034520909 0.00042333335 -0.00047241381
0.015009091 0 -0.0072503448
-0.01651 -0.00127 -0.001602069
0.0063788635 0 -0.0019786207
0.017635683 0 -0.0046144826
0.0090054544 -0.00084666669 -0.0019786207
-0.015009091 0.00042333335 -0.00084896554
-0.046528183 0.00084666669 -0.00047241381
0.0288925 0.00127 -0.00047241381
0.0086302273 -0.00042333335 -0.001602069
-0.010131137 -0.00042333335 -0.0023551725
-0.030393409 0.00084666669 -0.0012255172
-0.012757727 0.00042333335 -0.00084896554
0.025140228 0 0.0014103448
0.036397047 -0.00127 -0.00047241381
-0.036772273 -0.00042333335 -0.0019786207
0.028517272 -0.00042333335 -0.00047241381
0.032269545 0.00084666669 -0.001602069
0.021012727 0.00084666669 -0.0012255172
0.043901592 0 -9.5862095e-05
-0.048029091 0 -0.0031082758
