# .PCD v0.7 - Point Cloud Data file format
VERSION 0.7
FIELDS x y z
SIZE 4 4 4
TYPE F F F
COUNT 1 1 1
WIDTH 1237
HEIGHT 1
VIEWPOINT 0 0 0 1 0 0 0
POINTS 1237
DATA ascii
0.00726267 -9.5312498e-05 -2.00004e-06
0.0015091262 0.001525 -0.0042845001
0.0090547567 0.001525 -0.0027618334
-0.0084888348 0.001525 -0.0022860002
-0.006602427 0.001525 -0.0019053335
-0.0033955339 -0.001525 -0.00019233338
-0.0005659223 0.00028593751 -0.0044748336
-0.00245233 0.001525 -0.0035231668
0.0083945142 0.001525 -0.0020005002
-0.0016977669 0.001525 -0.0030473336
-0.00018864077 0.00057187502 0.00056899997
0.0096206795 -0.001334375 -0.00028750004
-0.0066967476 0.001525 -0.0039989999
0.007922912 0.00076249999 -0.0044748336
0.0091490773 -9.5312498e-05 -2.00004e-06
-0.0041500968 0.00028593751 -2.00004e-06
-0.0076399511 0.001525 -0.00085850008
0.00094320386 0.001525 -0.00038266671
-0.0028296115 -0.001525 -2.00004e-06
0.0025466504 0.001525 -0.0033328335
0.00084888347 0.0010484376 -0.0044748336
0.0029239319 0.00057187502 -0.0044748336
-0.0066967476 0.001525 -0.0021908334
-0.0049989806 0.001525 -0.0017150001
0.0091490773 -0.0014296875 -0.00057300006
-0.00245233 0.001525 -0.0020956667
0.0016034466 0.001525 -0.0027618334
0.0096206795 -0.0012390625 -0.00047783338
0.0016977669 0.001525 -0.003808667
0.0021693688 -0.001525 -0.0041893334
0.0090547567 -0.001525 -0.0030473336
0.0087717958 0.001525 -0.00066816673
0.0034898543 -0.001525 -0.0028570001
0.001980728 -0.001525 -0.0026666669
0.0077342717 0.00076249999 0.00085449999
0.0060365046 -0.0006671875 -0.0043796669
-0.0033012135 -0.001525 -0.0010488334
0.0096206795 0.001334375 -0.0018101668
-0.006602427 -0.001525 -0.0007633334
-0.0071683493 -0.00038124999 -0.0044748336
0.0074513108 -0.001525 -0.00028750004
0.0065081068 -0.0012390625 -0.0043796669
0.0083945142 -0.001525 -0.0020956667
0.00075456308 -0.000190625 -2.00004e-06
0.0075456309 -0.00047656251 0.00056899997
-0.0081115533 0.001525 -0.0012391667
0.0069797086 0.001334375 -2.00004e-06
0.0047160191 -9.5312498e-05 -2.00004e-06
0.00726267 9.5312498e-05 -0.0043796669
-0.0080172326 -0.00095312501 -0.0044748336
-0.0076399511 0.00028593751 -0.0044748336
0.00047160193 0.001525 -0.0019053335
0.0062251454 0.001525 -0.0014295001
-0.0096206795 0.0014296875 -0.0029521668
0.0016034466 -0.0014296875 -2.00004e-06
-0.0005659223 -0.000190625 -2.00004e-06
0.003961456 0.00028593751 -2.00004e-06
0.0082058739 0.001525 -0.0028570001
-9.4320385e-05 -0.001525 -0.0022860002
-0.00018864077 0.001525 -0.0039038335
-0.0096206795 0.00085781253 -0.0042845001
0.003961456 -0.001525 -9.716671e-05
-0.0070740292 -0.001525 -0.00095366675
-0.0015091262 0.001525 -0.0020956667
0.0071683493 0.001525 -0.0017150001
-0.0044330582 0.001525 -0.0032376668
-0.0054705823 -0.001525 -0.00028750004
0.0033012135 0.001525 -0.0042845001
-0.0097150002 -0.00057187502 -0.0032376668
0.00075456308 -9.5312498e-05 -0.0044748336
-0.0027352911 0.001525 -0.00066816673
0.00084888347 -0.001525 -0.0007633334
0.0045273784 -0.001525 -0.0033328335
-0.0080172326 -0.001525 -0.00047783338
-0.0097150002 -0.0012390625 -0.0010488334
-0.0033012135 -0.001525 -0.0037135002
0.0096206795 -0.00114375 -0.0021908334
-0.0062251454 0.001525 -0.0019053335
-0.00094320386 0.001525 -0.0044748336
0.0020750484 0.001525 -0.0010488334
0.0015091262 9.5312498e-05 -2.00004e-06
-0.0032068931 0.001525 -0.0016198334
0.008960437 -0.0012390625 -0.00019233338
-0.00094320386 -0.001525 -0.0040941667
0.0010375242 0.001525 -0.00019233338
0.0023580096 0.001525 -0.0041893334
0.0067910678 -0.001525 -0.0030473336
-0.0035841747 0.001525 -0.0020005002
0.0052819415 0.001525 -0.0029521668
0.0049046599 0.0006671875 0.00028349998
-0.0097150002 -0.00038124999 -0.0024763334
0.0035841747 0.001525 -0.0026666669
-0.00018864077 0.0010484376 -0.0044748336
-0.0062251454 -9.5312498e-05 -0.0043796669
0.0056592231 -0.00114375 -2.00004e-06
0.0021693688 -0.000190625 -2.00004e-06
0.00066024269 -0.0010484376 -2.00004e-06
0.0038671358 -0.001525 -0.0020005002
-0.0032068931 0.0006671875 -2.00004e-06
0.0029239319 -0.001525 -0.00066816673
-0.00047160193 -9.5312498e-05 -2.00004e-06
0.0037728155 -0.001525 -0.0015246668
0.0017920873 -0.001525 -0.0016198334
0.0047160191 -0.00085781253 -2.00004e-06
0.0064137862 0.00095312501 -0.0044748336
-0.0067910678 -0.00114375 -2.00004e-06
-0.006319466 -0.00076249999 0.00094966666
0.0036784951 -0.001525 -0.0010488334
0.0038671358 0.00076249999 0.00047383332
0.0070740292 -0.001525 -0.0028570001
-0.0005659223 0 -2.00004e-06
-0.0055649029 0.001525 -0.0012391667
0.0078285923 0.00076249999 9.3166629e-05
-0.0077342717 0.00028593751 -0.0044748336
-0.0091490773 -0.001525 -0.0031425001
-0.0030182523 -0.001525 -0.0020005002
0.0075456309 -0.001525 -0.0012391667
-0.0036784951 0.00085781253 -0.0043796669
0.0042444174 0.001525 -0.0037135002
-0.0033955339 -0.001525 -0.0012391667
0.009243398 0.001525 -0.0039989999
-9.4320385e-05 0.00076249999 9.3166629e-05
-0.0097150002 -0.00057187502 -0.0016198334
0.0066967476 0.001525 -0.0040941667
0.0070740292 -0.001525 -0.0023811667
-0.0040557766 -0.001525 -0.0020956667
-0.004621699 -0.001525 -2.00004e-06
0.0065081068 0.001525 -0.0032376668
-0.0096206795 0.0012390625 -0.0039038335
-0.00018864077 0.001525 -0.0026666669
-0.0069797086 0.001525 -0.0019053335
0.0078285923 -0.00057187502 0.00056899997
0.00084888347 -0.001334375 -0.0044748336
-0.0036784951 0.00095312501 -0.0043796669
0.0038671358 0.001525 -0.0016198334
-0.0069797086 -0.001525 -0.00038266671
0.0041500968 0 -0.0044748336
-0.0069797086 -0.001334375 -0.0044748336
0.0059421845 0.001525 -0.0037135002
0 -0.001525 -0.0031425001
-0.0018864077 -0.00057187502 -0.0044748336
-0.0016977669 -0.001525 -0.0010488334
0.00018864077 0.0014296875 -9.716671e-05
-0.0097150002 -0.00057187502 -0.003808667
0.0020750484 0.00095312501 -0.0044748336
-0.0014148058 -0.00095312501 -0.0044748336
0.00726267 -0.001525 -0.0014295001
-0.0051876213 0.0014296875 -0.0043796669
0.0097150002 -9.5312498e-05 -0.0016198334
0.0064137862 0.000190625 -2.00004e-06
-0.0088661164 0.00057187502 0.00037866665
9.4320385e-05 -0.00047656251 0.00056899997
-0.0078285923 -0.001525 -0.0043796669
0.0052819415 0.001525 -0.0023811667
-0.0030182523 0.001525 -0.0010488334
0.0097150002 9.5312498e-05 -0.0037135002
-0.0061308253 0.001525 -0.0024763334
-0.0051876213 -0.00114375 -2.00004e-06
0.0097150002 -0.000190625 -0.003808667
9.4320385e-05 -0.00076249999 9.3166629e-05
0.0022636892 0.001525 -0.0023811667
0.0064137862 -0.00047656251 9.3166629e-05
-0.0049046599 -0.001525 -2.00004e-06
0.0097150002 0 -0.00019233338
0.0093377186 0.00038124999 -0.0043796669
0.0077342717 -0.00047656251 0.00075933331
-0.0097150002 -0.00057187502 -9.716671e-05
-0.0035841747 9.5312498e-05 -0.0044748336
-0.0050933007 -0.001525 -0.0032376668
-0.0086774752 0.00095312501 -0.0043796669
-0.0096206795 0.001334375 -0.0016198334
-0.0017920873 -0.001334375 -2.00004e-06
0.00047160193 -0.001525 -0.0032376668
0.003961456 0.00047656251 0.00094966666
0.0065081068 0 -0.0044748336
0.0035841747 0.001525 -0.0019053335
0.0035841747 -0.001525 -0.0017150001
0.0048103398 0.0010484376 -2.00004e-06
0.0062251454 -0.001525 -0.00095366675
-0.0057535437 0.00057187502 -0.0043796669
0.0077342717 -0.00047656251 0.00085449999
0.0074513108 0.001525 -0.0041893334
-0.00726267 -0.001525 -0.0039989999
-0.0082058739 0.001525 -0.0020005002
0.0041500968 0.001525 -0.0013343334
0.0018864077 -0.0010484376 -0.0044748336
-0.0087717958 0.001525 -0.0020956667
0.00726267 0.001525 -0.00019233338
0.0033012135 0.001525 -0.0039038335
-0.0060365046 0.001525 -0.00095366675
0.0016977669 0.001525 -0.0031425001
0.0020750484 -0.001525 -0.0028570001
-0.0078285923 0.001525 -0.0031425001
-0.0057535437 9.5312498e-05 -2.00004e-06
-0.007922912 -0.001525 -0.0007633334
-0.008960437 0 -2.00004e-06
-0.0040557766 -0.0010484376 -2.00004e-06
0.0025466504 0.001525 -0.0036183335
0.00726267 0.001525 -0.0018101668
0.0013204854 0.0006671875 9.3166629e-05
0.0035841747 0.001525 -0.0016198334
-0.0044330582 -0.00085781253 -0.0044748336
0.0027352911 -0.001525 -0.0026666669
9.4320385e-05 -0.001525 -0.0043796669
-0.0097150002 -0.0010484376 -0.003808667
0.0067910678 0.0012390625 -0.0044748336
0.0010375242 0.001525 -0.0010488334
0.0038671358 0.001525 -0.0010488334
0.0022636892 -0.001525 -0.0016198334
0.008960437 0.001525 -0.0018101668
-0.0013204854 0.001525 -0.00095366675
0.00084888347 -0.001525 -0.00085850008
-0.00726267 -0.001525 -0.0022860002
0.0037728155 0.00076249999 -0.0044748336
-0.0020750484 -0.001525 -0.0028570001
0.00018864077 -9.5312498e-05 -0.0044748336
0.00018864077 0.00095312501 -2.00004e-06
-0.0097150002 -0.00057187502 -0.00047783338
0.0060365046 -0.001525 -0.0034280003
0.0077342717 -0.001525 -0.0016198334
-0.001226165 0.001525 -0.00057300006
-0.0034898543 -0.000190625 -2.00004e-06
0.0054705823 -0.0014296875 -9.716671e-05
-0.0045273784 0.001525 -0.0017150001
0.0013204854 -0.001525 -0.00038266671
0.007922912 -0.00114375 -0.00019233338
0.0050933007 -0.001525 -0.0022860002
0.00075456308 -0.001525 -0.00028750004
0.0064137862 -0.00095312501 -2.00004e-06
-0.0051876213 0.00038124999 -0.0043796669
-0.0020750484 0.001334375 -2.00004e-06
0.0013204854 -0.001525 -0.0014295001
0.00075456308 0.001525 -0.0012391667
-0.0083945142 -0.00076249999 -0.0044748336
0.0071683493 -0.001525 -0.00047783338
-0.003961456 -0.001525 -0.003808667
-0.0088661164 -0.00095312501 -2.00004e-06
-0.0010375242 0.0010484376 -2.00004e-06
-0.0095263589 -0.0014296875 -0.0035231668
0.0097150002 -0.0010484376 -0.0034280003
0.0042444174 -0.001525 -0.0035231668
0.0013204854 -0.001525 -0.0035231668
-0.0076399511 -0.00076249999 0.00047383332
-0.0065081068 -0.00047656251 0.00056899997
0.00094320386 -0.00038124999 -2.00004e-06
0.0076399511 0.00047656251 0.00085449999
0.0090547567 -0.0006671875 -0.0043796669
0.0051876213 -0.001525 -0.0036183335
0.009243398 0.001525 -0.0015246668
-0.001226165 -0.0014296875 -0.0043796669
0.0035841747 -0.00028593751 -0.0044748336
-0.0064137862 -0.001525 -0.0026666669
0.0021693688 -0.001525 -0.0043796669
-0.00726267 -0.001525 -0.0035231668
-0.0090547567 0.00114375 -0.0043796669
-0.004621699 0.001525 -0.00057300006
0.0067910678 0.00057187502 -2.00004e-06
-0.0095263589 0.001525 -0.0023811667
0.0027352911 -0.00076249999 0.00085449999
-0.0026409707 -0.0006671875 0.00037866665
0.0048103398 -0.0014296875 -9.716671e-05
-0.0017920873 -0.001525 -0.0007633334
0.0085831555 -0.001525 -0.0020005002
-0.0026409707 0.00038124999 -2.00004e-06
-0.0096206795 -0.0014296875 -0.00057300006
-0.00066024269 0.001525 -0.0017150001
-0.00028296115 -0.001525 -0.0020005002
-0.0096206795 0.00038124999 -0.0042845001
-0.0067910678 -0.0010484376 -0.0043796669
0.0016034466 0.00028593751 -2.00004e-06
0.0047160191 0.001525 -0.00019233338
0.0070740292 0.0006671875 -0.0044748336
0.0030182523 9.5312498e-05 -2.00004e-06
-0.0041500968 0.001525 -0.0013343334
0.0065081068 0.00085781253 -2.00004e-06
0.0043387376 -0.001334375 -2.00004e-06
0.00726267 -0.001525 -0.0042845001
-0.0088661164 0.001525 -0.00038266671
0.0016034466 0.001525 -0.0039038335
-0.0096206795 -9.5312498e-05 -2.00004e-06
0.00028296115 -0.001525 -0.0032376668
0.0055649029 -0.001525 -0.0020005002
0.0084888348 -0.001525 -0.0014295001
0.0032068931 -0.00085781253 -0.0043796669
-0.0016977669 0.001525 -0.0035231668
0.0031125727 0.001525 -0.00085850008
0.0053762621 -0.00038124999 -0.0043796669
-0.0097150002 0.00028593751 -0.0010488334
0.0080172326 9.5312498e-05 -2.00004e-06
-0.0084888348 0.0010484376 -0.00019233338
-0.0049989806 0.001525 -0.0013343334
0.0033012135 -0.001525 -0.0041893334
0.0020750484 -0.001525 -0.0023811667
0.0069797086 0.001525 -0.00095366675
-0.007922912 0.001525 -0.0037135002
0.0037728155 0.001525 -0.00085850008
-0.0077342717 0.0006671875 0.00075933331
-0.0056592231 0.001525 -0.0019053335
0.0016034466 -0.001525 -0.00066816673
0.0037728155 0.001525 -0.0027618334
-0.0032068931 -0.00095312501 -2.00004e-06
0.0068853884 -0.001525 -0.0014295001
-0.0038671358 -0.001525 -0.0019053335
0.0056592231 -0.001525 -0.0041893334
0.0048103398 0.0014296875 -2.00004e-06
-0.0026409707 -0.001525 -0.0036183335
-0.0044330582 -0.001525 -0.0037135002
-0.001980728 0.00028593751 -2.00004e-06
0.0061308253 -0.0014296875 -0.0043796669
0.0056592231 -0.00028593751 -2.00004e-06
0.0097150002 -0.00057187502 -0.0015246668
-0.0045273784 -0.001525 -0.00057300006
-0.0014148058 0.001525 -0.00057300006
0.0097150002 -9.5312498e-05 -0.0022860002
0.0005659223 0.001525 -0.003808667
-0.003961456 0.001525 -0.00057300006
0.0097150002 0.00038124999 -0.00047783338
-0.0030182523 0.00038124999 -2.00004e-06
0.0015091262 0.001525 -9.716671e-05
-0.0017920873 -0.001525 -0.0022860002
-0.0078285923 0.001525 -0.0040941667
0.00075456308 -0.001525 -0.0032376668
0.0026409707 0.001525 -0.0029521668
-0.0062251454 -0.001525 -0.00028750004
0.0096206795 -0.00114375 -0.0035231668
-0.0015091262 -0.001525 -0.0040941667
0.0022636892 0.0012390625 -2.00004e-06
-0.00028296115 0.00076249999 -0.0044748336
-0.0027352911 -0.001525 -0.0030473336
0.0097150002 0.00076249999 -0.0018101668
-0.0097150002 0.00038124999 -0.0030473336
-0.0010375242 0.001525 -0.0013343334
0.0082058739 -0.001525 -0.0031425001
0.0097150002 -0.00095312501 -0.0029521668
-0.0090547567 0.001525 -0.0031425001
-0.0025466504 0.0012390625 -2.00004e-06
0.0085831555 -0.001525 -0.0033328335
-0.0048103398 0.001525 -0.00047783338
-0.0028296115 0.001525 -0.0021908334
0.007922912 -0.001525 -0.0015246668
0.00047160193 0.001525 -0.00019233338
0.0058478639 -0.001525 -0.0041893334
0.0070740292 0.001525 -0.0018101668
-0.0086774752 0.001525 -0.0016198334
0.0051876213 0.0006671875 0.00056899997
-0.0029239319 -0.001525 -0.00047783338
-0.0036784951 -0.00047656251 0.00066416664
-0.0082058739 0.00085781253 -2.00004e-06
-0.00066024269 -0.001525 -9.716671e-05
0 0.00076249999 0.00066416664
-0.0016034466 0.001525 -0.0015246668
-0.006602427 0.001525 -0.0018101668
-0.0040557766 -0.00114375 -2.00004e-06
0.0016034466 0.001525 -0.0011440001
0.0093377186 -0.0014296875 -0.0013343334
0.0087717958 0.00114375 -0.0044748336
-0.0026409707 0.00047656251 -0.0043796669
0.00047160193 -0.00076249999 -0.0044748336
-0.007922912 0.00114375 -0.0043796669
0.0061308253 -0.00076249999 -2.00004e-06
-0.0014148058 -0.000190625 -2.00004e-06
-0.0056592231 -0.001525 -0.0042845001
0.0087717958 -0.000190625 -0.0043796669
-0.0028296115 0.001525 -0.00085850008
-0.00084888347 -0.00114375 -2.00004e-06
-9.4320385e-05 0.001525 -0.0012391667
0.0065081068 -0.0012390625 -2.00004e-06
0.0053762621 0.001525 -0.0025715001
0.0049046599 0.001525 -0.0033328335
-0.0052819415 -0.00114375 -2.00004e-06
0.0021693688 -0.00038124999 -0.0044748336
0.0088661164 -0.001525 -0.0041893334
-0.0029239319 -0.001525 -0.0032376668
0.0034898543 -0.001525 -0.0035231668
-0.0014148058 0.00057187502 0.0001883333
-0.0076399511 0.001525 -0.0043796669
0.0097150002 -0.000190625 -0.0041893334
-0.0088661164 0.001525 -0.0028570001
0.0025466504 0.001525 -0.0024763334
0.0057535437 0 -0.0043796669
-0.0049989806 -0.001525 -0.0043796669
0.0016034466 0.00038124999 -2.00004e-06
0.0091490773 -0.0012390625 -0.00019233338
-0.0033012135 0.00095312501 -0.0043796669
-0.00094320386 0.001525 -0.0007633334
0.0014148058 -0.00038124999 -0.0044748336
-0.00245233 -9.5312498e-05 -2.00004e-06
0.0051876213 -0.000190625 -0.0043796669
0.0034898543 0.001525 -0.0014295001
-0.0044330582 0.001525 -0.0029521668
-0.0034898543 -0.001525 -0.0013343334
0.0097150002 -0.0006671875 -0.0036183335
0.0087717958 0.000190625 -2.00004e-06
-0.0031125727 0.001525 -0.0013343334
0.0056592231 -0.00076249999 -2.00004e-06
0.0097150002 -0.00038124999 -0.0020005002
-0.0015091262 -0.00085781253 -0.0044748336
-0.0029239319 0.001525 -0.0035231668
-0.0028296115 -0.001525 -0.0032376668
0.003961456 0.001525 -0.003808667
0.0029239319 -0.00028593751 -2.00004e-06
0.0062251454 -0.001525 -0.0034280003
-0.0097150002 0.00028593751 -0.0017150001
0.0074513108 0.00047656251 -0.0044748336
-0.003961456 0.0010484376 -0.0043796669
-0.0088661164 0.001525 -0.0034280003
0.0035841747 -0.00114375 -2.00004e-06
0.0097150002 0.00057187502 -0.0027618334
0.0058478639 0.001525 -0.0039989999
-0.0078285923 -0.001525 -0.0024763334
0.0016034466 0.001525 -0.0039989999
0.0086774752 0.001525 -0.00019233338
-0.001226165 -0.00057187502 -0.0044748336
0.009243398 0.001525 -0.00095366675
0.0073569901 -0.001525 -0.0041893334
-0.0014148058 -0.001525 -0.0028570001
0.0011318446 0.0006671875 -0.0044748336
0.0085831555 0.0012390625 -2.00004e-06
0.0058478639 0.001525 -0.0041893334
-0.0096206795 -0.000190625 -0.0043796669
0.0014148058 0.001525 -0.0039038335
-0.0078285923 -0.001525 -0.0027618334
0.0087717958 0.0010484376 -2.00004e-06
-0.0021693688 -0.00057187502 -2.00004e-06
0.00084888347 0.001334375 -2.00004e-06
0.0066967476 -0.00038124999 -2.00004e-06
0.0083945142 0.000190625 -2.00004e-06
0.0033955339 -0.001525 -0.0041893334
0.00047160193 -0.001525 -0.00028750004
0.0049989806 0.001525 -0.0020956667
0.0073569901 0.001525 -0.0028570001
-0.0071683493 0.00076249999 -2.00004e-06
-0.0051876213 0.0014296875 -9.716671e-05
-0.0043387376 0.00047656251 -0.0043796669
-0.0083001936 0 -0.0044748336
-0.0054705823 -0.001525 -0.0016198334
0.0088661164 -0.001525 -0.00095366675
-0.0064137862 -0.001525 -0.0031425001
-0.009243398 0.00038124999 -0.0043796669
-0.0015091262 -0.00028593751 -0.0044748336
-0.0049989806 0.001525 -0.00019233338
-0.0076399511 -0.000190625 -2.00004e-06
0.0033955339 0.000190625 -2.00004e-06
0.0058478639 0.00085781253 -2.00004e-06
0.0069797086 -0.001525 -0.0023811667
-0.0051876213 0.001525 -0.0012391667
9.4320385e-05 0.0012390625 -0.0044748336
0.0064137862 0.00038124999 -0.0044748336
-0.00028296115 0.0014296875 -2.00004e-06
0.0062251454 0.00028593751 -2.00004e-06
0.0097150002 0.0010484376 -0.0016198334
0.0064137862 0.00028593751 -2.00004e-06
0.0097150002 -9.5312498e-05 -0.0027618334
-0.0064137862 -0.00114375 -2.00004e-06
-0.0005659223 0.001525 -0.00095366675
-0.0056592231 0.001334375 -2.00004e-06
-0.00037728154 -0.001525 -0.0031425001
-0.00037728154 -0.001525 -0.0016198334
0.0027352911 0.0010484376 -2.00004e-06
0.0053762621 -0.001525 -0.003808667
-0.0044330582 -0.00057187502 -2.00004e-06
0.0041500968 0.001525 -0.0028570001
-0.0065081068 -0.00047656251 0.00094966666
0.0081115533 0.001525 -0.0020956667
-0.0025466504 0.001525 -0.0007633334
-0.0064137862 -0.001525 -0.003808667
-0.0016034466 0.001525 -0.00095366675
-0.0056592231 0.0012390625 -0.0043796669
0.0069797086 -0.001525 -0.0022860002
0.0085831555 0.001525 -0.0017150001
0.0053762621 0.001525 -0.0016198334
0.0054705823 0 -2.00004e-06
0.0049046599 0.0006671875 0.00094966666
0.0053762621 0.001525 -0.0010488334
-0.0014148058 -0.001525 -0.0018101668
-0.00037728154 0.00095312501 -2.00004e-06
0.0073569901 0 -0.0043796669
-0.0081115533 -0.00114375 -2.00004e-06
0.008960437 -0.0006671875 -0.0043796669
-0.0052819415 -0.001525 -0.0012391667
-0.0069797086 0.001525 -0.0034280003
-0.0051876213 0.001525 -0.00057300006
-0.0035841747 0.00095312501 -2.00004e-06
-0.0097150002 9.5312498e-05 -0.003808667
-0.0044330582 0.001525 -0.0017150001
0.0037728155 -0.001525 -0.0039989999
0.0016034466 -0.001525 -0.003808667
-0.0028296115 -0.001525 -0.0039989999
0.0029239319 -0.000190625 -2.00004e-06
0.0035841747 0.00057187502 0.00066416664
0.0050933007 -0.001525 -0.0018101668
0.006319466 -0.001525 -0.00028750004
-0.0025466504 -0.001525 -0.0043796669
-0.0038671358 0.001525 -0.00066816673
-0.00018864077 0.001525 -0.0025715001
0.00726267 0.0014296875 -2.00004e-06
-0.0097150002 0.00057187502 -0.00019233338
0.0080172326 -0.00057187502 -0.0043796669
0.0097150002 0 -0.00095366675
-0.0038671358 0.001525 -0.00047783338
-0.0028296115 0.001525 -0.0018101668
-0.0062251454 -0.001525 -0.0031425001
0.0058478639 -0.00038124999 -2.00004e-06
0.0097150002 0.0010484376 -0.0022860002
0.0054705823 -0.000190625 -2.00004e-06
-0.0042444174 -0.00076249999 -0.0044748336
-0.008960437 -0.001525 -0.0013343334
-0.0056592231 -0.001525 -0.0015246668
0.00047160193 0.001525 -0.0028570001
-0.0022636892 0.001525 -0.0007633334
0.0086774752 0.001525 -0.0020956667
-0.0005659223 0.001525 -0.0010488334
-0.001226165 -0.001525 -0.00028750004
0.0050933007 0.001525 -0.0028570001
0.00018864077 -0.001525 -0.0031425001
-0.003961456 0.00047656251 0.00066416664
0.0054705823 -0.001525 -0.0028570001
0.0066967476 0.0014296875 -9.716671e-05
0.0031125727 -0.00085781253 -2.00004e-06
0.0026409707 0.001525 -0.0012391667
0.0076399511 0.00038124999 -2.00004e-06
0.003961456 0.00076249999 9.3166629e-05
0.006319466 -0.000190625 -0.0043796669
-0.0053762621 0.001525 -0.0030473336
-0.0097150002 -0.00114375 -0.0039038335
0.006602427 -0.0014296875 -0.0043796669
-0.00245233 -0.001525 -0.00095366675
-0.0094320383 0.000190625 -2.00004e-06
0.0037728155 -0.0006671875 9.3166629e-05
0.0033955339 0.001525 -0.0037135002
0.0054705823 0.001525 -0.003808667
0.0083001936 0.0010484376 -2.00004e-06
-0.0011318446 -0.001525 -0.00095366675
0.0058478639 0.000190625 -0.0044748336
-0.0025466504 0.0006671875 0.00094966666
0.0096206795 0.0012390625 -2.00004e-06
0.0048103398 0.001525 -0.0010488334
0.0049046599 -0.0014296875 -2.00004e-06
-0.0086774752 -0.00095312501 -0.0044748336
-0.0049046599 0.00028593751 -0.0043796669
-0.0075456309 -0.001525 -0.00057300006
0.007922912 0 -2.00004e-06
0.0069797086 0.0014296875 -2.00004e-06
-0.0010375242 9.5312498e-05 -0.0044748336
-0.0060365046 -0.0006671875 -2.00004e-06
-0.006319466 -0.001525 -0.0015246668
-0.0097150002 -0.00095312501 -0.0042845001
0.0033012135 -0.001525 -0.0036183335
0.0097150002 -0.0006671875 -0.0039038335
-0.0082058739 0.00038124999 -0.0043796669
0.0013204854 0.001525 -0.0035231668
0.0032068931 0.001525 -0.0031425001
0.0067910678 -0.001525 -0.0020005002
0.0033012135 0.001525 -0.0030473336
0.004621699 -0.001525 -0.0027618334
-0.0033012135 0.0010484376 -2.00004e-06
0.006602427 -0.001525 -0.0031425001
0.006602427 0.001525 -0.0021908334
-0.0005659223 -0.001525 -0.0016198334
0.0026409707 0.001525 -0.0020956667
0.0041500968 -0.001525 -0.0032376668
-0.0087717958 -0.00047656251 -0.0044748336
-0.0097150002 0.00114375 -0.0042845001
0.0067910678 -0.00095312501 -0.0043796669
-0.0043387376 0.0006671875 -0.0043796669
-0.00726267 9.5312498e-05 -0.0043796669
-9.4320385e-05 0.001525 -0.0013343334
0.0091490773 0.001525 -0.0013343334
-0.0026409707 -0.00076249999 0.00028349998
-0.0027352911 -0.00057187502 0.00066416664
-0.00018864077 0.001525 -0.0016198334
0.0053762621 -0.001525 -0.00019233338
-0.0041500968 -0.0012390625 -0.0044748336
-0.0016034466 0.001525 -0.00047783338
-0.0037728155 0.00028593751 -0.0044748336
0.00075456308 0.001525 -0.0013343334
0.0014148058 0.00085781253 -2.00004e-06
0.0086774752 -0.001525 -0.0018101668
-0.00037728154 0.001525 -0.0039989999
0.0005659223 -0.001525 -0.0011440001
0.0068853884 0.001525 -0.0017150001
0.0077342717 -0.001525 -0.0034280003
0.0093377186 0.00114375 -2.00004e-06
-0.0087717958 -0.001525 -0.0020005002
0.00094320386 0.001525 -0.0026666669
0.0032068931 -0.001525 -0.0033328335
0.0053762621 0.00095312501 -0.0044748336
-0.0050933007 0.001525 -0.0033328335
-0.0093377186 0.000190625 -2.00004e-06
0.0057535437 -0.001525 -0.0035231668
0.0033955339 0.0014296875 -2.00004e-06
0.001980728 0.00038124999 -2.00004e-06
0.007922912 0.001525 -0.0016198334
0.0071683493 0.001525 -0.0039038335
0.0097150002 -0.00057187502 -0.00085850008
-0.0034898543 -0.001334375 -2.00004e-06
0.0013204854 0 -0.0044748336
0.001226165 -0.001525 -0.0033328335
0.0064137862 0.001525 -0.0037135002
-0.003961456 0.001525 -0.0040941667
0.0042444174 0.00038124999 -2.00004e-06
-0.0097150002 -0.0012390625 -0.0017150001
-0.0070740292 -0.0006671875 -0.0044748336
0.006602427 -0.00085781253 -2.00004e-06
-0.0097150002 0.00028593751 -0.0032376668
0.0073569901 0.001525 -0.00047783338
0.008960437 -0.001525 -0.0026666669
0.0035841747 0.001525 -0.00085850008
-0.0056592231 0.00085781253 -2.00004e-06
0.0097150002 0.00047656251 -0.0028570001
0.0096206795 0.0014296875 -0.0041893334
-0.0011318446 0.0006671875 0.00075933331
0.0097150002 -0.00028593751 -0.0013343334
-0.006319466 -0.00095312501 -2.00004e-06
0.0049989806 0.001525 -0.00095366675
-0.0097150002 0 -0.0030473336
-0.0016034466 0.001525 -0.0020005002
-0.0025466504 -0.001525 -0.0025715001
-0.0067910678 0.001525 -0.0007633334
-0.0097150002 0.00114375 -0.0013343334
0.0028296115 -0.001525 -0.0030473336
-0.0096206795 0.001334375 -0.0039989999
0.0085831555 0.00085781253 -0.0044748336
0.0031125727 -0.001525 -0.0039989999
-0.0016034466 0.00057187502 -0.0044748336
-0.0040557766 -0.0012390625 -2.00004e-06
0.0058478639 0.001525 -0.0029521668
-0.00037728154 -0.001525 -0.0033328335
-0.0087717958 0.001525 -0.0036183335
0.0018864077 0.00095312501 -2.00004e-06
0.0038671358 0.001525 -0.0014295001
-0.0042444174 -0.001525 -0.0025715001
-0.003961456 -0.000190625 -2.00004e-06
0.0014148058 0.001525 -0.00066816673
-0.0028296115 0.001525 -9.716671e-05
-0.0049989806 -0.001525 -0.00085850008
-0.0059421845 -0.00057187502 -2.00004e-06
-0.0021693688 -0.001525 -0.0012391667
-0.0073569901 0 -0.0044748336
-0.00075456308 0.00047656251 -2.00004e-06
-0.0069797086 0.0006671875 -2.00004e-06
9.4320385e-05 -0.00047656251 9.3166629e-05
-0.0069797086 0 -0.0044748336
0.0074513108 0.00095312501 -0.0044748336
0.008960437 0.0006671875 0.00075933331
0.0041500968 0.001525 -0.0033328335
-0.0088661164 -0.0014296875 -9.716671e-05
0.00094320386 -0.00028593751 -2.00004e-06
-0.0023580096 -0.001525 -0.0024763334
0.0081115533 -0.00095312501 -2.00004e-06
0.0078285923 0.001525 -0.0012391667
0.0010375242 0.001525 -0.0026666669
0.0087717958 -0.00076249999 9.3166629e-05
0.0097150002 -0.00047656251 -0.0021908334
0.00094320386 0.001525 -0.0029521668
-0.009243398 0.0012390625 -0.0043796669
0.0055649029 -0.001525 -0.0025715001
-0.0095263589 0.00057187502 -0.0042845001
0.00028296115 0.0006671875 -0.0044748336
0.0091490773 -0.0014296875 -0.0022860002
0.0074513108 0.001525 -0.00066816673
0.0057535437 -0.00095312501 -2.00004e-06
0.0050933007 0.001525 -0.00057300006
0.0082058739 -0.001525 -0.0023811667
0.0085831555 0.001525 -0.0036183335
-0.0035841747 0.001525 -0.0031425001
0.0053762621 -0.001525 -0.0032376668
0.0049046599 0.001525 -0.00066816673
0.001226165 -0.001525 -0.0021908334
0.0018864077 0.00047656251 -0.0044748336
0.0088661164 0.00095312501 -2.00004e-06
-0.0060365046 -0.001525 -9.716671e-05
-0.0059421845 -0.001525 -0.0032376668
0.0005659223 -0.00047656251 -2.00004e-06
-0.0014148058 -0.00114375 -0.0044748336
-0.0005659223 -0.001525 -0.00038266671
-0.004621699 -0.001525 -0.0026666669
-0.0023580096 0.001525 -0.0035231668
0.0097150002 0.00114375 -0.0023811667
-0.0086774752 -0.00076249999 0.00075933331
0.0052819415 -0.001525 -0.0043796669
0.0033012135 0.00038124999 -2.00004e-06
-0.00075456308 -0.001525 -0.00038266671
-0.00047160193 0.001525 -0.0040941667
-0.00037728154 0.001525 -0.00047783338
-0.0094320383 0.001525 -0.0030473336
0.0059421845 -0.001525 -0.0020956667
-0.0005659223 -0.0010484376 -0.0044748336
0.0037728155 -0.001525 -0.0032376668
-0.0011318446 -0.001525 -0.0039989999
0.0041500968 0.00057187502 -0.0044748336
-0.0026409707 -0.00057187502 0.00047383332
0.0094320383 -0.0014296875 -0.0025715001
0.0065081068 0.001525 -0.00095366675
-0.0018864077 -0.001525 -0.0039038335
0 0.001525 -0.0035231668
0.00094320386 0.001525 -0.003808667
0 -0.001525 -0.0024763334
0.00094320386 0.001525 -0.0019053335
-0.0085831555 0.00028593751 -0.0043796669
-0.0028296115 -0.001525 -0.0013343334
0.0077342717 0.001525 -0.0012391667
-0.0075456309 0.001525 -0.0016198334
0.0096206795 -0.0012390625 -0.0034280003
-0.00726267 0.00076249999 -0.0043796669
-0.00075456308 0.001525 -0.0015246668
0.0049989806 -0.001525 -0.0007633334
-0.0073569901 -0.001525 -0.0015246668
0.0015091262 0.001525 -0.0022860002
0.0093377186 -0.0014296875 -0.0021908334
-0.0064137862 -0.0006671875 -0.0044748336
0.006319466 -0.001525 -0.00095366675
-0.0036784951 0.00057187502 9.3166629e-05
0.0038671358 -0.000190625 -2.00004e-06
-0.0097150002 -0.00085781253 -0.0040941667
-0.0064137862 -9.5312498e-05 -0.0043796669
0.001226165 0.001525 -0.00028750004
0.0044330582 -0.00028593751 -2.00004e-06
0.0049046599 0.0010484376 -2.00004e-06
-0.0067910678 0.001525 -0.0040941667
-0.0047160191 -0.001525 -0.0015246668
-0.0038671358 -0.0010484376 -0.0044748336
-0.0025466504 0.001525 -0.00038266671
-0.0043387376 -0.001525 -0.00066816673
-0.00018864077 -0.001525 -0.0032376668
0.0071683493 0.00095312501 -2.00004e-06
-0.0049989806 0.001334375 -2.00004e-06
0.00066024269 -0.00076249999 -0.0044748336
0.0010375242 -0.0010484376 -0.0044748336
0.0010375242 -0.0014296875 -2.00004e-06
-0.0017920873 0.001525 -0.0037135002
0.0097150002 -0.00095312501 -0.0037135002
-0.0068853884 0.00085781253 -2.00004e-06
-0.0088661164 9.5312498e-05 -2.00004e-06
-0.0069797086 0.001525 -0.0036183335
0.0041500968 -0.0014296875 -0.0043796669
-0.0011318446 9.5312498e-05 -0.0044748336
0.0033955339 0.0012390625 -2.00004e-06
0.0015091262 -0.0006671875 0.0001883333
-0.0031125727 0.001525 -0.00019233338
0.0027352911 -0.001525 -2.00004e-06
0.0022636892 -0.001525 -0.0027618334
-0.0070740292 -0.000190625 -0.0044748336
0.0049989806 0.001525 -0.0014295001
0.0031125727 -0.001525 -0.0022860002
-0.001226165 0.001525 -0.0035231668
-0.0041500968 0.001525 -0.0022860002
0.0032068931 0.001525 -0.00047783338
0.0097150002 -0.00085781253 -0.0037135002
0.0017920873 0.001525 -0.0039038335
-0.0076399511 0.0006671875 0.00085449999
0.0033955339 0.00095312501 -2.00004e-06
-0.0044330582 0.001525 -0.00019233338
-0.0096206795 0.001334375 -0.0027618334
0.0058478639 -0.001525 -0.00095366675
-0.0071683493 -0.00114375 -0.0044748336
-0.0097150002 0.00038124999 -0.0017150001
-0.0073569901 0.00038124999 -2.00004e-06
-0.0043387376 -0.00047656251 -0.0044748336
0.0065081068 -0.001525 -0.0041893334
0.0023580096 -0.0014296875 -0.0043796669
0.007922912 0.001525 -0.0034280003
-0.0068853884 -0.001525 -0.00028750004
0.0026409707 0.001525 -0.00038266671
-0.0041500968 0.001525 -0.0041893334
0.0015091262 0.0010484376 -0.0044748336
0.0075456309 0.001525 -0.0034280003
0.0095263589 -0.000190625 -9.716671e-05
0.00084888347 0.001525 -2.00004e-06
0.0027352911 0.001525 -0.0022860002
0.0020750484 -0.001525 -0.0031425001
-0.0056592231 0.0010484376 -0.0043796669
0.0097150002 -0.00038124999 -0.0021908334
-0.001226165 -0.0006671875 0.00094966666
-0.0042444174 -0.001525 -0.0007633334
0.0097150002 0.00057187502 -0.003808667
-0.0051876213 0.001525 -0.0041893334
0.0084888348 0.001525 -0.00028750004
0.0018864077 -0.00095312501 -0.0044748336
-0.00047160193 -0.001525 -0.0042845001
0.0040557766 -0.001525 -0.0039989999
-0.0015091262 0.001525 -0.0039038335
-0.0083945142 -0.001525 -0.0031425001
0.00245233 -0.0012390625 -2.00004e-06
-0.0080172326 -0.001525 -0.0027618334
0.0058478639 0.00114375 -2.00004e-06
0.0086774752 0.001525 -0.0023811667
-0.0021693688 -0.001525 -0.0016198334
0.0025466504 0.00114375 -0.0044748336
0.0082058739 0.001525 -0.0022860002
-0.0031125727 -0.0010484376 -0.0044748336
-0.0058478639 -0.00057187502 -0.0044748336
0.0016977669 -0.00085781253 -2.00004e-06
0.0081115533 0.001525 -0.0016198334
-0.00066024269 0.001525 -0.0026666669
0.00075456308 -0.001525 -0.0010488334
0.0087717958 -0.0012390625 -0.0043796669
0.0078285923 -0.0006671875 -0.0043796669
-0.0033955339 0.001525 -0.0015246668
0.0038671358 0 -0.0044748336
0.0005659223 -0.001525 -0.0037135002
0.0040557766 0.00047656251 0.0001883333
-0.0044330582 0.001525 -0.0015246668
0.001980728 -0.001525 -0.0033328335
-0.0087717958 -0.00114375 -0.0044748336
-0.0083945142 -0.001525 -0.0034280003
-0.0056592231 0.001525 -0.0015246668
-0.0068853884 0.001525 -0.0028570001
0.0097150002 -0.00047656251 -0.0040941667
-0.0037728155 0.001525 -0.0023811667
-0.0016034466 -0.001525 -0.0014295001
-0.0069797086 -0.001525 -0.0042845001
-0.0047160191 -0.001525 -0.00085850008
-0.0029239319 0.00038124999 -0.0044748336
-0.00037728154 0.001525 -0.0019053335
-0.0013204854 -0.00076249999 0.00066416664
-0.0090547567 0.001525 -0.0032376668
0.008960437 -0.001525 -0.0034280003
-0.0097150002 -0.000190625 -0.0015246668
0.0043387376 0.0010484376 -0.0044748336
-0.0066967476 0.001525 -0.00066816673
-0.0088661164 -0.00057187502 0.00047383332
0.0064137862 0.001525 -0.0034280003
-0.00245233 -0.001525 -0.0028570001
0.006319466 0.00076249999 0.00094966666
0.0048103398 -0.00114375 -2.00004e-06
-0.0054705823 -0.00114375 -0.0044748336
-0.001980728 -0.001525 -0.00085850008
-0.0022636892 -0.00057187502 0.00028349998
-0.00066024269 0.00095312501 -0.0044748336
-0.0016977669 -0.001525 -0.0041893334
-0.0036784951 0.00076249999 -2.00004e-06
-0.0040557766 0.001525 -0.0039038335
0.0042444174 0.00114375 -2.00004e-06
0.0048103398 0.000190625 -2.00004e-06
0.0029239319 -0.00038124999 -2.00004e-06
-0.0088661164 0.001334375 -0.0043796669
-0.0017920873 0.0012390625 -2.00004e-06
0.0058478639 -0.000190625 -2.00004e-06
0.0062251454 -0.001525 -0.0027618334
0.0086774752 -0.00047656251 -0.0043796669
-0.0016034466 0.001525 -9.716671e-05
0.0073569901 0.001525 -0.0013343334
-0.0049989806 -0.00076249999 9.3166629e-05
-0.003961456 0.001525 -0.0025715001
-0.0066967476 -0.001525 -0.00085850008
0.0065081068 0.00047656251 0.00075933331
0.008960437 0.001525 -0.0023811667
-0.0097150002 0.00095312501 -0.0031425001
0.0047160191 0 -2.00004e-06
-0.0025466504 -0.0014296875 -0.0043796669
-0.0025466504 -0.001525 -0.0022860002
0.0090547567 -0.00047656251 -0.0043796669
0.0065081068 0.001525 -0.0015246668
0.00028296115 0.0012390625 -2.00004e-06
0.0043387376 0.0006671875 -2.00004e-06
0.0073569901 -0.001525 -0.0011440001
0.0036784951 -0.001525 -0.00095366675
0.0040557766 0.00047656251 9.3166629e-05
-0.0081115533 0.001525 -0.0033328335
-0.00094320386 -0.001525 -0.0024763334
0.00037728154 0.001525 -0.0025715001
-0.0056592231 -0.001525 -0.0020005002
-0.0097150002 0.00076249999 -0.0021908334
0.0059421845 -0.00076249999 -0.0043796669
-0.0064137862 0.001525 -0.0031425001
0.0071683493 -0.001525 -0.0042845001
0.0097150002 0.0006671875 -0.0020956667
0.0037728155 0.00038124999 -0.0044748336
-0.0016977669 0.001525 -0.0029521668
-0.0097150002 -0.00085781253 -0.0017150001
0.0084888348 0.001525 -0.0013343334
-0.0027352911 -0.00085781253 -2.00004e-06
0.0066967476 -0.001525 -0.0033328335
-0.0097150002 -0.0014296875 -0.00038266671
0.0045273784 -0.0006671875 -2.00004e-06
-0.0044330582 0.00095312501 -2.00004e-06
-0.0097150002 -0.0010484376 -0.0024763334
-0.003961456 0.001525 -0.003808667
0.001226165 -0.001525 -0.0014295001
-0.00066024269 0.001525 -0.0025715001
-0.0035841747 -0.00076249999 0.00047383332
0.0080172326 -0.00114375 -0.0043796669
-0.00726267 0.001525 -0.0023811667
-0.0094320383 -0.0014296875 -0.0030473336
0.0073569901 0.00114375 -2.00004e-06
0.0029239319 -0.001525 -0.0019053335
0.0096206795 -0.0012390625 -0.0039989999
-0.0088661164 -0.001525 -0.0035231668
0.0078285923 0.00095312501 -0.0044748336
0.006319466 0.0012390625 -2.00004e-06
0.0026409707 0.00047656251 0.00066416664
0.0042444174 -0.000190625 -0.0044748336
-0.001980728 0.0012390625 -0.0043796669
-0.0075456309 0.001525 -0.0036183335
-9.4320385e-05 0.001525 -0.0014295001
-0.0014148058 0.001525 -0.0020005002
-0.0047160191 -0.001525 -0.00066816673
0.0086774752 -0.001525 -0.00066816673
-0.00047160193 0.001525 -0.0007633334
-0.0097150002 9.5312498e-05 -0.00085850008
-0.0088661164 0.001525 -0.0017150001
-0.0086774752 0.001525 -0.00038266671
-0.0064137862 -0.00047656251 0.0001883333
-0.0022636892 -0.001525 -0.00019233338
-0.0050933007 0.001525 -0.0024763334
-0.0035841747 0.001525 -9.716671e-05
-0.0068853884 0.001525 -0.00038266671
-0.00066024269 -0.001525 -0.0007633334
-0.0025466504 -0.001525 -0.0021908334
-0.0045273784 0.001525 -0.0020956667
0.0018864077 0.00076249999 -2.00004e-06
0.0031125727 -0.00095312501 -0.0043796669
0.00028296115 0.001334375 -0.0044748336
0.0061308253 -0.001525 -0.0043796669
-0.0061308253 0.001525 -0.0043796669
0.00094320386 -0.0012390625 -0.0044748336
0.0014148058 0.00028593751 -2.00004e-06
-0.0071683493 -0.001525 -0.0031425001
-0.0074513108 -0.001525 -0.0037135002
0.0049046599 -0.001525 -0.0015246668
0.0061308253 0.00047656251 -2.00004e-06
0 0.000190625 -0.0044748336
0.0029239319 -0.000190625 -0.0044748336
0.0022636892 -0.000190625 -2.00004e-06
-0.0025466504 -0.00047656251 -0.0044748336
0.00084888347 -0.001525 -0.00038266671
-0.0013204854 0.001525 -0.00057300006
-0.0049046599 -0.0006671875 0.00037866665
0.0094320383 0.001525 -0.0042845001
0.00094320386 0.001525 -0.0039038335
-0.0017920873 0.001525 -0.0032376668
-0.0086774752 0.00038124999 -0.0043796669
0.0016034466 0.001525 -0.00095366675
0.0036784951 0.0014296875 -2.00004e-06
-0.0097150002 -0.00085781253 -0.0031425001
0.008960437 -0.001525 -0.0014295001
-0.006319466 0.00076249999 -0.0043796669
0.0094320383 0 -2.00004e-06
-0.0082058739 -0.00114375 -0.0044748336
0.0050933007 -0.001525 -0.0010488334
0.0075456309 0.00085781253 -0.0044748336
0.0062251454 0.0006671875 0.00037866665
-0.0088661164 0.001525 -0.0013343334
-0.0068853884 0 -2.00004e-06
-0.0051876213 0.001525 -0.0042845001
-0.0026409707 0.001525 -0.003808667
-0.0011318446 0.001525 -0.0031425001
-0.00037728154 -0.001525 -0.0043796669
0.0061308253 -0.001525 -0.0007633334
0.0035841747 0.001334375 -2.00004e-06
0.0011318446 0.00057187502 0.00094966666
0.0097150002 0.0006671875 -0.0034280003
0.0091490773 -0.0012390625 -0.0042845001
-0.0010375242 0.001525 -0.0012391667
0.001980728 0.0006671875 -2.00004e-06
-0.0032068931 -0.001525 -0.0026666669
-0.0025466504 0.00076249999 9.3166629e-05
0.0025466504 -0.00114375 -2.00004e-06
0.0081115533 9.5312498e-05 -0.0044748336
0.0064137862 0.00047656251 9.3166629e-05
-0.003961456 0.001525 -0.0039989999
0.0048103398 0.001525 -2.00004e-06
0.0082058739 0.001525 -0.0020005002
0 -0.00047656251 0.0001883333
0.0094320383 0.00038124999 -2.00004e-06
0.0029239319 0.001525 -0.00028750004
0.0015091262 0.001525 -0.00095366675
-0.0023580096 0.001525 -9.716671e-05
-0.0052819415 0.00047656251 -2.00004e-06
-0.0078285923 0.001525 -0.0027618334
0.0052819415 -0.001525 -0.0024763334
0.0068853884 0.00057187502 -0.0044748336
0.0077342717 0.0010484376 -2.00004e-06
0.001226165 -0.00057187502 0.00037866665
-0.001226165 0.00038124999 -0.0044748336
-0.0091490773 -0.00038124999 -0.0043796669
-0.0045273784 -0.001525 -0.0037135002
-0.0097150002 0.00076249999 -0.00028750004
-0.0083945142 0.00085781253 -2.00004e-06
0.0041500968 -0.00057187502 -2.00004e-06
0.009243398 0.000190625 -2.00004e-06
-0.0017920873 0.001525 -0.0034280003
0.0011318446 0.001525 -0.0043796669
0.0056592231 -0.00057187502 -0.0043796669
-0.0097150002 -9.5312498e-05 -0.00085850008
-0.0018864077 -0.001525 -0.00047783338
0.0097150002 0.00028593751 -0.0017150001
-0.0087717958 9.5312498e-05 -0.0043796669
-0.0048103398 -0.000190625 -0.0043796669
0.0061308253 0.001525 -0.0022860002
0.0097150002 -0.0010484376 -0.0028570001
-0.0097150002 -0.00085781253 -0.0032376668
-0.0093377186 0.00114375 -0.0043796669
-0.0083001936 -0.0012390625 -2.00004e-06
0.001980728 0.00028593751 -2.00004e-06
-0.0035841747 -0.00076249999 0.0001883333
-0.0083945142 -0.0014296875 -0.0043796669
-0.0036784951 -0.001525 -0.0010488334
-0.006602427 0.001525 -0.00028750004
0.0097150002 0.0006671875 -0.0028570001
-0.0095263589 -0.0014296875 -0.0013343334
0.0096206795 0.00114375 -0.0015246668
-0.0097150002 0.00057187502 -0.00038266671
0.00037728154 -0.001525 -0.00066816673
0.0041500968 -0.0010484376 -2.00004e-06
0 -0.00047656251 0.00037866665
-0.0068853884 0.0006671875 -0.0043796669
-0.0014148058 0.001334375 -0.0044748336
-0.0084888348 9.5312498e-05 -2.00004e-06
-0.0052819415 0.00038124999 -0.0043796669
-0.0068853884 -0.001525 -0.00066816673
0.0060365046 -0.001525 -0.0036183335
-0.007922912 -0.001525 -0.0018101668
0.0096206795 -0.00057187502 -0.0043796669
-0.0040557766 0.00028593751 -0.0044748336
0.001226165 -0.00076249999 0.00066416664
-0.0026409707 0.001525 -2.00004e-06
-0.0066967476 -0.00085781253 -2.00004e-06
0.006319466 -0.0006671875 0.00037866665
0.0041500968 0.001525 -0.00047783338
0.003961456 0.001525 -0.00057300006
0.0035841747 0.00076249999 0.00094966666
-0.0086774752 0.00057187502 -0.0043796669
0.0066967476 0.001525 -0.0012391667
-0.0005659223 -0.001525 -0.00066816673
0.0033955339 -0.00085781253 -0.0043796669
-0.0031125727 0.001525 -0.00047783338
-0.0074513108 -0.00028593751 -2.00004e-06
-0.0047160191 -0.000190625 -0.0044748336
-0.0076399511 -0.001525 -0.0030473336
0.0025466504 0.0012390625 -0.0044748336
-0.0034898543 -0.001525 -0.0019053335
-0.0016977669 -0.001525 -0.0013343334
-0.0037728155 -0.001525 -0.0035231668
-0.0040557766 0.001525 -0.0013343334
-0.0032068931 -0.001525 -0.0032376668
-0.0073569901 0.0012390625 -0.0043796669
0.0081115533 -0.0014296875 -9.716671e-05
0.0056592231 -0.001525 -0.00057300006
0.0053762621 -0.001525 -0.0015246668
0.0078285923 -0.001525 -0.0019053335
0.0029239319 0.00076249999 -2.00004e-06
-0.00075456308 -0.0006671875 -0.0044748336
0.0017920873 0.00095312501 -0.0044748336
0.0060365046 0.001525 -0.0010488334
-0.0062251454 0.001525 -0.0020005002
0.0065081068 0.001525 -0.0034280003
-0.00084888347 0.000190625 -0.0044748336
0.0058478639 -0.00114375 -0.0043796669
-0.0026409707 0.00047656251 0.00037866665
-0.0082058739 -0.001525 -0.0032376668
-0.008960437 0.001525 -0.0012391667
0.0068853884 -0.0014296875 -0.0043796669
-0.0067910678 -0.001525 -0.00019233338
-0.0027352911 0.0006671875 0.00047383332
-0.0052819415 -0.00047656251 -2.00004e-06
-0.0052819415 0.001525 -0.0025715001
0.0034898543 -0.000190625 -0.0044748336
0.0097150002 0.0006671875 -0.0018101668
0.0097150002 -0.000190625 -0.0020005002
-0.0038671358 0.00047656251 0.00056899997
0.0016034466 0.00076249999 -0.0044748336
-0.0016977669 0.001334375 -2.00004e-06
0.0047160191 -0.001525 -0.003808667
-0.0010375242 -0.001525 -0.0041893334
-0.0074513108 0.001525 -0.00019233338
0.0077342717 0.00057187502 0.00028349998
0.00018864077 0.001525 -0.0013343334
0.0030182523 0.00076249999 -0.0044748336
0.0084888348 -0.0012390625 -0.0043796669
0.00075456308 -0.001525 -0.0025715001
0.00037728154 0.001525 -0.0032376668
0.0053762621 -0.001525 -0.0028570001
0.0033012135 0.00114375 -0.0044748336
0.0090547567 0.001525 -0.0037135002
-0.0076399511 0.0006671875 0.00094966666
-0.0035841747 0.001525 -0.0023811667
-0.0026409707 0.001525 -0.00066816673
-0.0048103398 0.0012390625 -0.0043796669
0.0091490773 -0.0014296875 -0.0026666669
0.0086774752 0.001525 -0.0025715001
-0.0023580096 0.001525 -0.0041893334
-0.0055649029 -0.001525 -0.003808667
-0.0085831555 0.001525 -0.00047783338
-0.00018864077 -0.0012390625 -2.00004e-06
-0.0058478639 -0.001525 -0.0037135002
0.0085831555 0.001334375 -0.0044748336
-0.00037728154 9.5312498e-05 -0.0044748336
0.0048103398 -9.5312498e-05 -0.0044748336
0.0010375242 -0.00076249999 -0.0044748336
-0.0062251454 0.0014296875 -0.0043796669
0.0042444174 0.001525 -0.0031425001
-0.00018864077 -0.001525 -0.0034280003
-0.0043387376 -9.5312498e-05 -0.0044748336
0.0015091262 -0.001525 -0.0015246668
0.00084888347 -0.001525 -0.0031425001
-0.0064137862 -0.001525 -0.00066816673
0 0.001525 -0.0031425001
-0.0064137862 0.001525 -0.0039038335
0.0018864077 0.001525 -0.0043796669
-0.0049046599 0.001334375 -0.0043796669
-0.0040557766 -0.0006671875 -2.00004e-06
0.0062251454 -0.001525 -0.0028570001
0.0029239319 0.001525 -0.0018101668
0.0097150002 -9.5312498e-05 -0.0018101668
-0.0083001936 0.001525 -0.0033328335
0.0050933007 -0.00076249999 0.00056899997
0.008960437 -0.001525 -0.0020005002
-0.0058478639 0.001525 -0.00057300006
0.0077342717 -0.001525 -0.00085850008
0.0026409707 0.001525 -0.0024763334
-0.0096206795 0.0006671875 -0.00019233338
0.0013204854 0.00038124999 -2.00004e-06
0.0066967476 -0.001525 -0.0014295001
-0.00245233 -0.0014296875 -2.00004e-06
0.0087717958 -0.001525 -0.0024763334
-0.0059421845 -0.00085781253 -2.00004e-06
0.0082058739 0.001525 -0.0037135002
-0.0014148058 0.00057187502 0.00047383332
-0.0097150002 0.0010484376 -0.0042845001
0.0060365046 0.001525 -0.00057300006
-0.001980728 0.001525 -0.0024763334
-0.0026409707 -0.00038124999 -0.0044748336
-0.0045273784 -0.001525 -0.0021908334
0.001980728 -0.001525 -0.0023811667
-0.0043387376 -0.00085781253 -2.00004e-06
0.0055649029 0.0010484376 -2.00004e-06
-0.00066024269 0.00085781253 -0.0044748336
0.0096206795 0.00114375 -0.0012391667
0.0095263589 -0.0014296875 -0.0017150001
0.0029239319 -0.001525 -0.0036183335
-0.0077342717 0.0014296875 -9.716671e-05
0.0040557766 -0.00047656251 0.00094966666
0.0014148058 -0.0006671875 -0.0044748336
-0.007922912 0.001525 -0.00057300006
-0.0097150002 0 -0.0040941667
-0.0028296115 -0.001525 -0.0025715001
0.0041500968 0.00038124999 -0.0044748336
-0.0096206795 0.001334375 -0.0014295001
0.0096206795 0.0014296875 -0.0020956667
0.001980728 0.00028593751 -0.0044748336
-0.0054705823 0.0006671875 -2.00004e-06
0.009243398 0.001525 -0.0037135002
-9.4320385e-05 -0.00057187502 0.0001883333
-0.0071683493 9.5312498e-05 -2.00004e-06
-0.0018864077 -0.001525 -0.0020956667
-0.00037728154 0.001525 -0.0026666669
-0.0078285923 -0.00047656251 -2.00004e-06
-0.0066967476 9.5312498e-05 -0.0043796669
0.0049046599 -0.001525 -0.0029521668
0.0014148058 -0.00076249999 9.3166629e-05
0.0066967476 -0.001525 -0.0027618334
0.0097150002 -0.0006671875 -0.0020005002
-0.0033012135 0.001525 -0.0017150001
-0.0048103398 0.00028593751 -0.0043796669
0.0060365046 0.001525 -0.0030473336
0.00018864077 0.001525 -0.0043796669
0.008960437 0.001525 -0.0033328335
-0.0064137862 0.001525 -0.0016198334
0.0075456309 0.000190625 -0.0043796669
-0.0013204854 0.001525 -0.0020956667
0.0097150002 0.00047656251 -0.0042845001
0.0082058739 -0.00114375 -0.0043796669
-0.0065081068 0.001525 -0.0010488334
0 0.001525 -0.0012391667
-0.0016034466 -0.001525 -0.0016198334
0.0082058739 -0.001525 -0.0024763334
0.0088661164 -0.001525 -0.0039038335
-0.0022636892 0.001525 -0.0019053335
0.00726267 0.001525 -0.0042845001
-0.0069797086 -0.001525 -0.0007633334
-0.0054705823 -0.001525 -0.0033328335
-0.0043387376 -0.001525 -0.0041893334
0.0086774752 -0.001525 -0.0030473336
-0.0049989806 -0.001334375 -2.00004e-06
-0.0018864077 -0.001334375 -0.0044748336
-0.007922912 -0.00076249999 -0.0044748336
-0.004621699 0.000190625 -0.0044748336
-0.0084888348 0.001525 -0.0040941667
0.001980728 0.001525 -9.716671e-05
0.0014148058 0.00114375 -0.0044748336
-0.0035841747 -0.001525 -0.0019053335
0.0047160191 0.001525 -0.00095366675
-0.0065081068 -0.0006671875 0.00028349998
0.0097150002 0.0012390625 -0.0019053335
0.0083945142 0.001525 -0.0043796669
-0.00084888347 -0.000190625 -0.0044748336
-0.0081115533 0.001525 -0.0024763334
-0.0068853884 0.001525 -0.0021908334
-0.0075456309 0.001525 -0.0011440001
-0.0037728155 -0.00076249999 9.3166629e-05
0.0097150002 0 -0.00028750004
-0.00075456308 0.0006671875 -2.00004e-06
-0.0065081068 -0.00076249999 9.3166629e-05
0.0049989806 0.00038124999 -2.00004e-06
-0.0021693688 -0.00047656251 -0.0044748336
0.0055649029 -0.001525 -0.0013343334
-0.0053762621 -0.00076249999 -0.0044748336
-0.0033012135 -0.00057187502 -0.0044748336
0.006319466 -0.001525 -0.0035231668
-0.0040557766 0.001525 -0.00038266671
-0.0021693688 0.001525 -0.0040941667
-0.0040557766 -0.001525 -0.0021908334
-0.00084888347 0.001525 -0.00095366675
-0.007922912 0.001525 -0.0019053335
-0.0082058739 -0.001525 -0.0025715001
0.0036784951 0.001525 -0.0014295001
0.0074513108 0.001525 -0.0027618334
0.0053762621 -0.00047656251 -0.0043796669
0.0010375242 0.001525 -0.0041893334
0.0037728155 -0.0006671875 0.00037866665
0.0031125727 -0.001525 -2.00004e-06
-0.0027352911 0.001525 -0.0035231668
-0.0080172326 0.001525 -0.0012391667
-0.0073569901 -0.0014296875 -2.00004e-06
-0.0025466504 -0.00095312501 -0.0044748336
0.0049989806 0.001525 -0.00038266671
0.0033955339 0.00114375 -2.00004e-06
0 -0.0012390625 -0.0044748336
-0.0065081068 0.001525 -0.00057300006
0.0097150002 0.00047656251 -0.0018101668
0.0018864077 0.0012390625 -2.00004e-06
0.0034898543 -0.001525 -0.0020956667
-0.0061308253 -0.00076249999 -0.0044748336
-0.0014148058 0.001525 -0.00066816673
0.0037728155 -0.001525 -0.0011440001
-0.0087717958 0.00057187502 9.3166629e-05
-0.001980728 0.0014296875 -2.00004e-06
-0.0041500968 -0.001525 -0.0035231668
-0.0097150002 -0.00047656251 -0.0028570001
-0.0038671358 0.0006671875 0.00066416664
-0.00726267 -0.001525 -0.0025715001
0.004621699 9.5312498e-05 -0.0044748336
0.00018864077 0.001525 -0.0026666669
-0.0041500968 0.00076249999 -2.00004e-06
-0.0066967476 0.001525 -0.0036183335
