# .PCD v0.7 - Point Cloud Data file format
VERSION 0.7
FIELDS x y z
SIZE 4 4 4
TYPE F F F
COUNT 1 1 1
WIDTH 1203
HEIGHT 1
VIEWPOINT 0 0 0 1 0 0 0
POINTS 1203
DATA ascii
-0.0011022642 0.00029307691 0.0014863157
0.0044569811 0.00078153849 -0.0024410526
0.0022524528 -0.00127 -0.0023452633
-0.0015815095 -0.0011723076 -4.6315814e-05
0.003977736 -0.00029307691 -0.0056021055
0.0045528305 -0.00127 -0.0019621053
-0.0015815095 -0.00029307691 0.0017736842
0.0011022642 0 0.002156842
0.0050320756 0 -4.6315814e-05
-0.0010064151 0.00019538462 0.00033684209
0.0015815095 0.00029307691 0.0016778947
-0.0034026415 0 -4.6315814e-05
0.00091056607 0.00127 -0.001291579
0.00091056607 -0.00127 -0.0016747368
-0.0071407547 0.00058615382 -0.0004294737
0.0034984907 -9.7692311e-05 0.0013905263
-0.00254 0.00097692304 -0.0024410526
0.00043132075 0.00029307691 -4.6315814e-05
-0.0038818868 -0.00127 -0.00090842106
0.0018690566 -0.00048846152 -0.00023789477
0.003977736 0.00029307691 -0.0047400002
0.0010064151 -0.00019538462 -0.0062726317
-0.0014856604 -0.00019538462 0.0020610527
-0.0012939622 -0.00029307691 0.0010073684
0.0051279245 -0.00019538462 -0.0024410526
0.0062781135 0.0010746154 -4.6315814e-05
0.0026358492 0.0010746154 -0.0024410526
0.0053196228 0.00127 -0.0011
0.0053196228 -9.7692311e-05 -0.0024410526
0.0034984907 -0.00127 -0.001483158
0.0038818868 -0.00127 -0.0010042106
-0.0011022642 0.00019538462 -0.0077094738
0.0047445283 -0.00127 -0.0011
0.0045528305 0.0011723076 -0.0024410526
0.0057988679 -0.0011723076 -0.00014210529
0.0061822641 0.00127 -0.0016747368
-0.0034026415 -0.0011723076 -0.0024410526
0.0021566038 -0.00019538462 -4.6315814e-05
0.0011022642 0 -0.0079010529
0.0035943396 -0.00127 -0.00090842106
-0.0030192453 -0.00127 -0.0016747368
-0.0050320756 0.00127 -0.0022494737
0.0024441511 9.7692311e-05 -0.0024410526
-0.0070449058 -0.00029307691 -0.0024410526
0.0069490569 0.00048846152 -0.00023789477
-0.0017732076 -0.00097692304 -0.0024410526
0.0053196228 0.00127 -0.0024410526
-0.0015815095 -0.00019538462 -0.0029200001
0.00254 -0.00127 -0.0004294737
0.0072366036 0.0011723076 -0.001291579
0.0058947168 -0.00097692304 -0.00014210529
-0.0046486794 0.00127 -0.0021536842
-0.0011981132 0.00029307691 0.0012947369
-0.0062781135 0.00029307691 -0.0075178947
0.0034026415 0.00127 -0.0011
0.0016773585 0.00127 -0.0011957895
-0.0034984907 -0.00019538462 -0.0048357896
0.0075241509 -0.00068384613 -0.00033368423
-0.007332453 0.00097692304 -0.0004294737
-0.0040735849 -0.00019538462 -0.0041652634
-0.0011022642 0.00019538462 0.0019652632
0.0075241509 0.00019538462 -0.00062105263
0.0037860377 0.00029307691 -0.0033989474
-0.0010064151 0.00019538462 -0.0068473686
-0.0036901888 0.00039076924 -0.00014210529
-0.0046486794 -0.00097692304 -4.6315814e-05
-0.00091056607 0.00058615382 -0.0024410526
-0.0022524528 0.00087923079 -0.0024410526
0.0010064151 0.00029307691 -0.0062726317
0.0048403773 0.0011723076 -4.6315814e-05
0.0020607547 -0.0010746154 -0.0024410526
-0.0010064151 -9.7692311e-05 -0.0039736843
0.0026358492 0.00029307691 -0.0024410526
0.0066615096 0.00019538462 -0.0048357896
0.0047445283 0.0010746154 -0.0024410526
0.0024441511 0.00029307691 -4.6315814e-05
0.0034026415 -0.00127 -0.0018663158
0.007428302 0.0010746154 -0.0018663158
0.00254 0.00127 -0.001291579
0.00254 0.00048846152 -0.0024410526
-0.0014856604 0.00127 -0.0018663158
-0.00062301889 0.00127 -0.0016747368
-0.0060864151 -0.00019538462 -0.0053147371
-0.0018690566 -0.00127 -0.0010042106
-0.0030192453 -0.00097692304 -4.6315814e-05
-0.0040735849 -9.7692311e-05 -0.0046442105
0.0049362266 -0.00029307691 -4.6315814e-05
-0.0061822641 0.00019538462 -0.0050273687
0.0014856604 -0.00019538462 -0.0076136845
-0.0014856604 0.00029307691 -0.0049315789
-0.0019649058 -0.00127 -0.0021536842
0.0011022642 0.00019538462 -0.0079010529
-0.0010064151 -0.00029307691 -0.003494737
-0.0060864151 -0.00019538462 -0.0038778947
-0.0038818868 0.0011723076 -0.0023452633
-0.0012939622 0.00029307691 -0.0068473686
0.0037860377 0.00029307691 0.00081578945
0.0072366036 -0.00097692304 -0.0023452633
0.0063739624 0.00029307691 -0.0041652634
0.0059905662 0.00029307691 -4.6315814e-05
0.0060864151 0.00127 -0.0011
-0.0061822641 -0.00029307691 -0.0065600001
0.00052716985 -0.00127 -0.0024410526
0.0071407547 0.0011723076 -0.00090842106
-0.0072366036 0.00019538462 -0.0023452633
0.0043611322 0.00127 -0.001483158
0.0065656602 -9.7692311e-05 0.0016778947
0.0049362266 0.00127 -0.0018663158
0.0062781135 -0.00019538462 0.0019652632
0.0011981132 -0.00029307691 -0.0028242106
0.0066615096 0.0011723076 -0.0013873684
0.0048403773 0.00127 -0.0013873684
0.0034984907 0.00127 -0.00014210529
-0.0044569811 0.00078153849 -0.00033368423
-0.0063739624 -0.00127 -0.0018663158
-0.0034984907 0 -0.0047400002
-0.0010064151 9.7692311e-05 0.00052842102
0.0047445283 -0.00087923079 -4.6315814e-05
0.0011981132 0 -0.0080926316
-0.0038818868 -0.00029307691 -4.6315814e-05
-0.0065656602 -0.00029307691 -0.0053147371
-0.007332453 0 -4.6315814e-05
-0.0043611322 -0.00127 -0.0023452633
0.0054154717 0 -4.6315814e-05
-0.0063739624 -0.00127 -0.0022494737
-0.0060864151 0 0.0014863157
0.0045528305 0.0011723076 -4.6315814e-05
0.0067573586 -0.00048846152 -0.0024410526
-0.0015815095 0 0.00024105261
-0.0060864151 -0.00127 -0.001483158
-0.0010064151 0.00048846152 -0.00023789477
-0.0060864151 9.7692311e-05 0.00072000001
-0.0048403773 0.00068384613 -0.0024410526
0.0010064151 9.7692311e-05 -0.0052189473
0.0014856604 -9.7692311e-05 -0.0077094738
0.0010064151 0.00029307691 0.0015821053
0.0066615096 0.0011723076 -0.00014210529
0.0031150943 0.00127 -0.00014210529
-0.0034984907 -0.00029307691 -0.0054105264
0.0036901888 0.00029307691 -0.0060810526
0.0031150943 0.00078153849 -0.00023789477
-0.0014856604 -0.00029307691 -0.0028242106
0.0003354717 0.00078153849 -0.0024410526
0.0031150943 -0.00039076924 -0.0024410526
-0.0020607547 0.00127 -0.0016747368
-0.0040735849 -0.00019538462 -0.0029200001
-0.0060864151 -9.7692311e-05 -0.0040694736
-0.0033067926 -9.7692311e-05 -4.6315814e-05
0.0041694338 -0.00078153849 -0.0023452633
0.0044569811 -0.00029307691 -4.6315814e-05
0.0064698113 0.00029307691 -0.0052189473
-0.0051279245 -0.00127 -0.0005252632
-0.0045528305 0.00019538462 -0.0024410526
-0.0031150943 0.00127 -0.00071684213
-0.0046486794 -0.00127 -0.0010042106
-0.0019649058 0.00029307691 -0.0024410526
-0.007428302 -0.00087923079 -4.6315814e-05
0.0013898113 -0.00029307691 -0.0033989474
0.005703019 0.00127 -0.0011
-0.0030192453 -0.00127 -0.0005252632
-0.0010064151 0.00019538462 -0.0033989474
0.0044569811 -0.00127 -0.00081263162
0.0076200003 0.00048846152 -0.0015789474
-0.0013898113 -0.00029307691 -0.0077094738
-0.0065656602 0.00078153849 -0.00023789477
-0.00081471697 -0.0011723076 -0.0024410526
0.0064698113 -0.00039076924 -0.00023789477
0.0065656602 -0.0011723076 -0.0017705264
0.0060864151 9.7692311e-05 -0.0073263161
-0.0054154717 0.00127 -0.0010042106
0.0010064151 -0.00019538462 -0.005123158
0.00014377359 -0.00127 -0.00023789477
-0.0075241509 -0.00058615382 -0.0023452633
0.0022524528 0.00127 -0.0023452633
-0.0010064151 -9.7692311e-05 -0.0062726317
0.00052716985 0.00127 -0.0011957895
0.0011981132 0.00127 -0.0013873684
0.0076200003 0.00039076924 -0.001291579
0.0033067926 0.00058615382 -0.00023789477
-0.0038818868 9.7692311e-05 -0.0079968423
-0.0040735849 9.7692311e-05 -0.004356842
-0.0010064151 0.00019538462 0.0015821053
-0.0022524528 -0.00087923079 -0.0024410526
0.0035943396 0.00029307691 -0.0068473686
0.00091056607 -9.7692311e-05 0.0010073684
0.003977736 -0.00029307691 -0.0058894739
-0.0062781135 0.00029307691 -0.0059852633
0.0065656602 -0.00029307691 -0.004356842
-0.0038818868 0.00029307691 -0.0037821054
-0.00014377359 0.00048846152 -0.00023789477
0.005703019 0.00127 -0.00023789477
0.0057988679 0.00048846152 -0.00023789477
0.0040735849 -0.00087923079 -0.0023452633
0.0034026415 0.00127 -0.00081263162
0.0015815095 0.00019538462 -0.0065600001
0.0017732076 0.00127 -0.0016747368
-0.0043611322 -0.0010746154 -0.0024410526
-0.00254 0.00087923079 -0.0024410526
-0.0062781135 -0.00127 -0.0010042106
-0.003977736 -0.00029307691 -0.0033031579
-0.0067573586 -0.0011723076 -0.0005252632
0.0038818868 0.00029307691 4.947366e-05
-0.0050320756 0.00029307691 -0.0024410526
-0.00081471697 0.0011723076 -0.0024410526
-0.0040735849 0 0.00052842102
0.0057988679 0.00127 -0.00033368423
0.0062781135 -0.00029307691 -0.0041652634
0.0012939622 0.00127 -0.0024410526
-0.0047445283 -0.00087923079 -0.0024410526
0.0022524528 0.00127 -0.0024410526
0.0065656602 -0.0011723076 -0.0010042106
-0.0040735849 0.00029307691 -0.0068473686
-0.0072366036 -0.00068384613 -0.00023789477
0.0010064151 9.7692311e-05 -0.0047400002
0.0014856604 0.00029307691 -0.0074221054
-0.0033067926 -0.0011723076 -0.0024410526
-0.003977736 -0.00078153849 -0.00014210529
-0.0011981132 0.00029307691 -0.0055063157
-0.0072366036 9.7692311e-05 -0.0024410526
0.00071886793 0.00087923079 -0.00014210529
0.0033067926 0.00127 -0.001291579
-0.0054154717 0.00019538462 -4.6315814e-05
-0.0065656602 -0.00029307691 -0.0025368421
-0.0075241509 0.00039076924 -0.0018663158
-0.00081471697 -0.00087923079 -4.6315814e-05
0.0042652832 0.00127 -0.0017705264
-0.0014856604 0.00097692304 -4.6315814e-05
0.0049362266 -0.00127 -0.0015789474
-0.00014377359 -0.00068384613 -0.00023789477
-0.0023483019 -0.00019538462 -0.0024410526
0.0052237739 0.00127 -0.001291579
-0.0041694338 -0.00127 -0.0011957895
-0.0060864151 -9.7692311e-05 -0.0041652634
0.00254 0.00078153849 -0.0024410526
0.0015815095 0.00029307691 0.00014526314
-0.007428302 0.00097692304 -0.001291579
-0.0011981132 -0.00029307691 -0.005123158
0.003977736 0.00029307691 0.00062421052
0.0064698113 -0.00029307691 -0.0061768424
0.0064698113 -0.00078153849 -0.00023789477
-0.0014856604 -0.00127 -0.0018663158
-0.0049362266 0.00127 -0.0021536842
0.0063739624 -0.00029307691 0.00033684209
-0.0060864151 0 -0.006368421
-0.0038818868 -0.00029307691 -0.0042610527
-0.00023962265 0.00048846152 -0.00023789477
-0.0012939622 -0.00019538462 0.002156842
0.0047445283 -0.00039076924 -0.0024410526
-0.007332453 0.00097692304 -0.0019621053
0.0018690566 0.00127 -0.00071684213
0.0061822641 0.00029307691 0.00024105261
-0.0015815095 9.7692311e-05 -0.0040694736
0.0060864151 -0.00029307691 -0.00014210529
0.0019649058 0.00058615382 -0.0024410526
0.0026358492 0.00127 -0.00033368423
0.0055113207 -0.00127 -0.00090842106
0.0027316981 0.00127 -0.0010042106
-0.0032109434 0.00048846152 -0.00033368423
0.0015815095 0.00127 -0.0024410526
0.0040735849 -0.00019538462 0.0015821053
-0.00091056607 -9.7692311e-05 0.00081578945
-0.0015815095 0 0.00062421052
0.0065656602 -0.00019538462 -0.0048357896
-0.0035943396 -0.0010746154 -4.6315814e-05
0.0064698113 0.00029307691 -0.0037821054
0.00052716985 0.00078153849 -0.00023789477
-0.0026358492 -0.0011723076 -4.6315814e-05
0.0060864151 -9.7692311e-05 -0.0064642108
-0.0015815095 9.7692311e-05 0.00014526314
0.0060864151 0.00019538462 -0.004356842
0.00043132075 -0.00019538462 -4.6315814e-05
0.0066615096 0.00068384613 -0.0004294737
-0.0003354717 -9.7692311e-05 -4.6315814e-05
-0.0034984907 0.00078153849 -0.00023789477
-0.0062781135 0.00029307691 0.0018694737
0.0060864151 9.7692311e-05 -0.0048357896
0.0036901888 0.00029307691 0.0015821053
-0.0058947168 0.0011723076 -0.0018663158
0.0065656602 -0.00097692304 -0.00014210529
0.0048403773 -0.00097692304 -0.00014210529
0.0034984907 -9.7692311e-05 -0.0055063157
0.00254 -0.00127 -0.0017705264
-0.0051279245 0.00127 -0.001291579
0.0048403773 -0.00127 -0.0016747368
-0.0040735849 0.00127 -0.001483158
-0.0067573586 -0.00039076924 -0.0024410526
0.0014856604 -0.00029307691 0.00091157894
-0.0065656602 0.00019538462 0.0014863157
0.0014856604 -0.00127 -0.0004294737
0.007332453 -0.00097692304 -0.00014210529
0.00071886793 -0.00087923079 -0.0024410526
-0.0061822641 -0.00029307691 -0.006368421
0.0037860377 -0.00019538462 0.0020610527
0.0023483019 0.00127 -0.0016747368
0.0031150943 -0.00127 -0.0017705264
-0.00043132075 0.00048846152 -0.0025368421
-0.0058947168 -0.00127 -0.001291579
0.0066615096 -0.0011723076 -0.0017705264
-0.0010064151 -0.00127 -0.0017705264
-0.0015815095 -0.00029307691 0.0011031579
-0.0054154717 0.0011723076 -0.00014210529
0.0045528305 -0.00078153849 -0.0023452633
-4.7924528e-05 -0.00127 -0.00033368423
0.0031150943 0.00127 -0.0010042106
0.0068532075 -0.00068384613 -0.00023789477
-0.0010064151 9.7692311e-05 -0.0046442105
0.0057988679 0.00078153849 -0.00033368423
-0.0052237739 0.00068384613 -0.0024410526
-0.0029233962 0.00127 -0.00090842106
-0.0061822641 0.0010746154 -0.00014210529
0.0064698113 0.00078153849 -0.00023789477
0.0011022642 0.0010746154 -0.0024410526
0.0075241509 0.00097692304 -0.0011957895
0.0062781135 -0.00029307691 0.00033684209
0.00091056607 -9.7692311e-05 -0.003111579
0.0065656602 -0.00029307691 -0.0033989474
-0.0015815095 -9.7692311e-05 0.0017736842
-0.0040735849 -0.00127 -0.00081263162
-0.0060864151 9.7692311e-05 0.00014526314
0.0064698113 0 0.002156842
0.0013898113 -0.00029307691 -0.0044526318
0.0072366036 9.7692311e-05 -0.0024410526
0.0050320756 0.00068384613 -0.0024410526
-0.0060864151 0 -0.0074221054
-0.0034026415 -0.00019538462 -4.6315814e-05
0.0041694338 -0.00127 -0.0018663158
-0.0018690566 -0.0010746154 -0.0024410526
-0.0060864151 -0.00127 -0.0010042106
0.0062781135 0.00097692304 -0.0024410526
0.0034984907 9.7692311e-05 -0.0068473686
-0.0066615096 -0.0011723076 -0.00090842106
-0.0032109434 -0.00127 -0.0011957895
0.0038818868 -0.00127 -0.0004294737
-0.0076200003 -0.00019538462 -0.0005252632
-0.0060864151 0.00048846152 -0.00033368423
0.007332453 0.0010746154 -4.6315814e-05
0.0034984907 0 -0.0069431579
-0.0066615096 0.0011723076 -0.001291579
0.0030192453 0 -0.0023452633
0.005703019 -0.00078153849 -0.00023789477
-0.0020607547 -0.00127 -0.0010042106
0.0064698113 0.00039076924 -0.0024410526
-0.0067573586 -9.7692311e-05 -0.0024410526
-0.0040735849 0.00019538462 -0.0056978948
-0.0040735849 -0.00019538462 -0.0061768424
-0.0056071701 -0.00127 -0.0019621053
0.0034984907 0.00029307691 -0.0062726317
-0.0057988679 -0.00127 -0.0023452633
0.0075241509 0.00087923079 -0.00090842106
-0.00023962265 -0.00029307691 -4.6315814e-05
0.0040735849 -0.00127 -0.0010042106
-0.00062301889 0.00029307691 -0.0025368421
-0.0037860377 0.00029307691 -0.0058894739
0.0076200003 0.00058615382 -0.0022494737
-0.0034984907 0 -0.0039736843
0.0030192453 -0.00019538462 -0.0024410526
-0.0038818868 0.00029307691 -0.0054105264
-0.0046486794 0 -4.6315814e-05
0.0050320756 0.00127 -0.00062105263
0.0026358492 -0.00127 -0.0015789474
-0.0061822641 0.00019538462 -0.0028242106
0.0037860377 -0.00087923079 -0.0024410526
0.0010064151 0.00029307691 0.0018694737
-0.0065656602 0.0011723076 -0.0010042106
0.0022524528 0.00127 -0.0013873684
0.0048403773 0.00048846152 -0.00023789477
-0.0010064151 0.00127 -0.0004294737
-0.0040735849 0.00029307691 -0.0073263161
-0.0035943396 0.00019538462 -0.0053147371
0.0065656602 -0.00019538462 -0.0038778947
-0.0064698113 0.0011723076 -0.00081263162
0.0061822641 0.00029307691 -0.0072305263
0.0023483019 0.00127 -0.0013873684
0.0035943396 -0.00019538462 0.0010073684
0.0010064151 0.00019538462 -0.0068473686
-0.0040735849 9.7692311e-05 -0.0048357896
0.0034984907 -9.7692311e-05 -0.003494737
-0.0063739624 0.00019538462 -0.0037821054
0.0040735849 0.00029307691 -0.0041652634
0.0048403773 -0.00127 -0.0011
0.0036901888 0.00097692304 -0.0024410526
0.0010064151 0.00029307691 0.00062421052
-0.0043611322 -0.00019538462 -4.6315814e-05
0.0027316981 -0.00019538462 -0.0024410526
0.00081471697 0.00127 -0.0005252632
0.0013898113 0.00029307691 -0.0029200001
0.0011022642 0.00127 -0.0017705264
0.005703019 -0.00127 -0.0011957895
0.0029233962 -0.00087923079 -0.0023452633
0.007428302 0.0010746154 -0.0021536842
0.0044569811 -0.00127 -0.0010042106
-0.0036901888 -0.00029307691 -0.0049315789
0.0034984907 9.7692311e-05 -0.0076136845
-0.0034026415 9.7692311e-05 -0.0024410526
0.0055113207 0.00127 -0.0017705264
-0.003977736 0.00078153849 -0.00023789477
0.0020607547 0.00078153849 -0.0024410526
0.0015815095 0.00019538462 -0.0068473686
0.0075241509 0.00087923079 -4.6315814e-05
0.00023962265 -9.7692311e-05 -4.6315814e-05
0.0075241509 9.7692311e-05 -0.0015789474
0.0065656602 0.00029307691 0.00014526314
0.0015815095 9.7692311e-05 -0.0044526318
-0.0040735849 -0.00019538462 0.00043263155
0.0012939622 -0.00068384613 -0.0024410526
-0.0066615096 -0.00019538462 -0.0075178947
0.0014856604 -0.00029307691 -0.0066557894
-0.0033067926 -0.00127 -0.0021536842
0.0060864151 -9.7692311e-05 0.00062421052
0.0011981132 0.00029307691 0.00091157894
0.0049362266 -0.00127 -0.0004294737
0.0066615096 0 -0.005123158
0.00254 -0.00127 -0.001291579
0.0076200003 -0.00029307691 -0.00081263162
-0.0015815095 -0.00029307691 0.00072000001
-0.0010064151 0.00068384613 -0.0004294737
-0.0012939622 -0.00029307691 -0.0049315789
0.0036901888 0.00048846152 -0.0025368421
-0.0016773585 0.00048846152 -0.00033368423
0.0010064151 0.00127 -0.0017705264
-0.0068532075 0.00078153849 -0.00033368423
-0.0062781135 -0.00029307691 -0.0061768424
0.0014856604 0.00068384613 -0.0004294737
-0.00254 0 -0.0023452633
0.0060864151 0 -0.0035905263
0.0012939622 -9.7692311e-05 0.0022526316
0.0075241509 9.7692311e-05 -0.001483158
-0.0065656602 0 0.0010073684
0.0063739624 0.00078153849 -0.00023789477
0.0034984907 9.7692311e-05 -0.0049315789
-0.0031150943 -0.00127 -0.00090842106
-0.00081471697 0.00058615382 -0.0024410526
-0.0064698113 -0.00029307691 -0.0073263161
-0.0069490569 9.7692311e-05 -4.6315814e-05
-0.00023962265 0.00127 -0.00033368423
-0.0012939622 0.00039076924 -0.002728421
0.0063739624 -0.00029307691 -0.0030157894
0.0012939622 -0.00048846152 -0.00023789477
-0.0012939622 -0.00029307691 -0.0040694736
-0.0065656602 0.0011723076 -0.0004294737
-0.0072366036 -9.7692311e-05 -0.0024410526
0.0076200003 -0.00068384613 -0.0021536842
0.0035943396 0.00127 -0.0021536842
0.0033067926 -0.00127 -0.0021536842
-0.00071886793 0.00127 -0.00081263162
0.0045528305 -9.7692311e-05 -0.0024410526
0.0026358492 0.00127 -0.00014210529
-0.0069490569 0.0011723076 -0.001291579
4.7924528e-05 0.00068384613 -0.0025368421
0.0055113207 0.00127 -0.0019621053
-0.007428302 0.00097692304 -0.0022494737
-0.0065656602 -9.7692311e-05 0.00014526314
-0.003977736 0.00029307691 0.00043263155
-0.0013898113 0.00029307691 0.0019652632
0.0023483019 0.00127 -0.001483158
0.0062781135 -0.00029307691 -0.0033989474
0.0055113207 -0.00127 -0.0018663158
0.0038818868 -0.00127 -0.00014210529
0.0023483019 9.7692311e-05 -0.0024410526
-0.0015815095 -0.00078153849 -0.00014210529
-0.0061822641 0.00048846152 -0.0024410526
-0.0033067926 -0.00029307691 -0.0024410526
0.003977736 -0.00029307691 0.0018694737
0.00081471697 0.00127 -0.001291579
-0.0028275473 -0.00127 -0.0019621053
0.0061822641 -0.00048846152 -0.0024410526
0.0018690566 -0.00058615382 -0.00023789477
-0.0035943396 0.00019538462 -0.0039736843
0.0035943396 -0.00019538462 0.00043263155
0.0010064151 -9.7692311e-05 -0.0042610527
0.0003354717 0.00019538462 -0.0024410526
-0.0034984907 -9.7692311e-05 0.0011989473
0.0015815095 -9.7692311e-05 -0.0046442105
-0.0056071701 -0.00127 -0.00090842106
0.0012939622 -0.00029307691 0.0018694737
0.00091056607 9.7692311e-05 0.00052842102
-0.0026358492 -0.00127 -0.0015789474
0.0065656602 0.00029307691 -0.006368421
-0.0040735849 -0.00029307691 -0.0029200001
0.0076200003 0.00029307691 -0.0023452633
-4.7924528e-05 0.00127 -0.00090842106
-0.0034984907 -9.7692311e-05 -0.0041652634
0.0048403773 -0.00087923079 -0.0023452633
0.0014856604 0.00029307691 -0.0057936842
-0.0021566038 0 -4.6315814e-05
-0.0067573586 0 -4.6315814e-05
0.0052237739 -0.0010746154 -0.0023452633
0.0017732076 -0.00127 -0.00071684213
-0.0015815095 0 -0.006368421
0.0042652832 -0.0011723076 -0.0022494737
0.005703019 -0.00029307691 -0.0024410526
-0.0058947168 0.00097692304 -0.00014210529
-0.003977736 0.00029307691 -0.0044526318
-0.0060864151 9.7692311e-05 -0.0033031579
0.0064698113 0.00029307691 -0.0072305263
-0.0041694338 0.00127 -0.00014210529
0.0041694338 0.00127 -0.00014210529
-0.0024441511 0.00127 -0.0005252632
0.0052237739 -0.00029307691 -0.0024410526
0.0012939622 -0.00127 -0.0011
0.0010064151 0.00019538462 -0.0045484211
0.0064698113 -0.00029307691 0.00081578945
0.0060864151 0.00029307691 -0.0026326317
0.0049362266 -0.00039076924 -0.0024410526
0.0030192453 -0.00127 -0.00033368423
-0.0066615096 -0.00019538462 -0.0033031579
-0.0017732076 -0.00127 -0.0022494737
-0.0050320756 -0.00068384613 -0.0024410526
0.0010064151 -0.00019538462 0.00033684209
-0.0060864151 0 -0.0068473686
0.0054154717 0.00087923079 -4.6315814e-05
-0.0038818868 9.7692311e-05 0.0023484211
0.0070449058 0.00087923079 -0.00014210529
0.0011981132 0.00029307691 -0.0044526318
-0.00014377359 0.00127 -0.0020578948
-0.0010064151 -9.7692311e-05 -0.004356842
0.0011022642 0.00029307691 -0.003111579
0.0003354717 0.00039076924 -0.0025368421
-0.0030192453 0.00127 -0.0020578948
-0.0044569811 0.00039076924 -0.00014210529
-0.0040735849 0.00019538462 0.0011989473
0.0076200003 -0.00019538462 -0.00062105263
-0.0040735849 0.00078153849 -0.00033368423
0.0034984907 -9.7692311e-05 -0.0058894739
-0.0049362266 0.00058615382 -0.0004294737
-0.0022524528 0.0011723076 -0.0024410526
-0.0035943396 -0.00029307691 0.0018694737
-0.0012939622 -0.00068384613 -0.00023789477
-0.0075241509 -0.00087923079 -0.00062105263
-0.0064698113 -0.00127 -0.00023789477
-0.0022524528 -0.00078153849 -0.00014210529
0.0022524528 -0.00068384613 -0.0024410526
0.0012939622 0.00039076924 -0.002728421
-0.00081471697 0.00127 -0.0023452633
0.0051279245 0 -4.6315814e-05
0.003977736 -0.00019538462 -0.0044526318
0.0071407547 -0.0011723076 -0.0015789474
-0.0030192453 0.00127 -0.0021536842
0.0066615096 0 -0.0032073685
-0.0062781135 0.00048846152 -0.0024410526
-0.0067573586 0.0011723076 -0.00023789477
-0.00091056607 9.7692311e-05 0.0015821053
0.0013898113 -0.00029307691 0.0018694737
0.0044569811 -0.00127 -0.0005252632
0.0035943396 -0.00019538462 -0.0055063157
-0.0027316981 -0.0010746154 -4.6315814e-05
-0.0062781135 0.00019538462 0.0022526316
0.0017732076 0.0010746154 -0.0024410526
-0.00091056607 0 0.0011989473
0.0010064151 0.00019538462 -0.0049315789
0.0036901888 0.00029307691 -0.0040694736
0.00062301889 0.00058615382 -0.0024410526
-0.0016773585 -0.00039076924 -0.0024410526
0.0064698113 0.00127 -0.0021536842
-0.0063739624 0.0011723076 -0.0018663158
-0.0036901888 0.00078153849 -0.00033368423
0.0020607547 -0.00068384613 -0.0024410526
0.003977736 -0.00029307691 -0.0044526318
0.0066615096 9.7692311e-05 -0.0037821054
-0.0063739624 -0.00029307691 -0.0053147371
0.0038818868 -0.00029307691 -0.0056978948
0.0010064151 0.00127 -0.0020578948
0.007428302 0.00019538462 -4.6315814e-05
0.0011022642 0.00127 -0.0015789474
0.0034984907 0 0.0010073684
-0.0029233962 0.00127 -0.00033368423
-0.0034984907 0 -0.005123158
0.0066615096 9.7692311e-05 0.0010073684
0.0066615096 0.00058615382 -0.00023789477
0.0018690566 -0.0010746154 -4.6315814e-05
-0.0058947168 0.0011723076 -0.0011
0.007332453 -0.0010746154 -0.00090842106
-0.0061822641 0.00029307691 -0.0076136845
-0.0059905662 -0.00127 -0.00090842106
0.0036901888 -0.00127 -0.0016747368
0.0035943396 -0.00019538462 -0.0046442105
-0.0075241509 -0.00087923079 -0.0016747368
-0.0037860377 0.00029307691 0.00081578945
0.0012939622 -0.00029307691 0.0019652632
0.00062301889 0.00087923079 -0.00014210529
-0.0011022642 0.0011723076 -0.0024410526
0.0040735849 0.00019538462 0.00024105261
0.0076200003 0.00029307691 -0.0016747368
-0.0030192453 0.00068384613 -0.0004294737
0.0060864151 9.7692311e-05 0.0011031579
-0.0036901888 0.00058615382 -0.0024410526
-0.0076200003 -0.00068384613 -0.0019621053
-0.0047445283 0.00127 -0.0004294737
-0.0013898113 -0.00029307691 -0.004356842
-0.0013898113 -0.00029307691 0.00072000001
-0.0026358492 9.7692311e-05 -4.6315814e-05
-0.0034984907 0 -0.0061768424
-0.0015815095 -0.00029307691 -0.0049315789
-0.003977736 0.00029307691 0.00024105261
0.0017732076 0.00127 -0.0010042106
-0.0022524528 0.00127 -0.0021536842
-0.0075241509 -0.00068384613 -0.0017705264
-0.0061822641 -0.00127 -0.0022494737
0.0066615096 0.00019538462 -0.0073263161
-0.0030192453 0.00127 -4.6315814e-05
-0.0060864151 9.7692311e-05 -0.0039736843
0.0024441511 0.00078153849 -0.0024410526
-0.0022524528 0.00127 -0.0023452633
-0.0035943396 0.00127 -0.00014210529
-0.0010064151 -0.00029307691 0.0012947369
-0.0034026415 0.00127 -0.00062105263
-0.0064698113 -0.00029307691 0.00052842102
0.0035943396 -0.00019538462 -0.007134737
-0.0050320756 0.00127 -0.00033368423
-0.0035943396 0.0010746154 -0.00014210529
0.0052237739 0.00127 -0.0004294737
-0.0036901888 -0.00068384613 -0.0024410526
-0.0010064151 -0.00127 -0.001291579
0.0053196228 -0.00127 -0.0019621053
-0.0065656602 -0.00029307691 0.0017736842
0.00043132075 0.00078153849 -0.0024410526
0.0031150943 -0.00127 -0.00071684213
0.0065656602 0.00029307691 -0.0047400002
-0.0060864151 -0.00127 -0.0022494737
0.0076200003 0.00048846152 -0.001291579
-0.0038818868 -0.00029307691 -0.0053147371
0.0040735849 0.00087923079 -0.0024410526
-0.0049362266 -0.00127 -0.0020578948
0.0040735849 9.7692311e-05 -0.0038778947
-0.0035943396 -0.00029307691 -4.6315814e-05
0.0026358492 0.0011723076 -4.6315814e-05
-0.0046486794 -9.7692311e-05 -0.0024410526
0.0045528305 0 -4.6315814e-05
-0.0041694338 -0.00127 -0.0004294737
-0.0003354717 -0.00127 -0.0018663158
-0.007428302 0.00039076924 -0.00023789477
-0.0036901888 -0.00029307691 -0.0066557894
0.0061822641 0.00127 -0.001483158
0.0076200003 0.00048846152 -0.0004294737
-0.0014856604 -0.00127 -0.0004294737
0.007332453 0.0011723076 -0.00014210529
-0.0010064151 0.00087923079 -0.00014210529
-0.0062781135 -0.00029307691 0.00072000001
0.0067573586 -0.0010746154 -0.00014210529
-0.0043611322 -0.00068384613 -0.0024410526
0.0021566038 0.00078153849 -0.00033368423
-0.00062301889 -0.00127 -0.00033368423
-0.0029233962 0.00029307691 -4.6315814e-05
-0.0067573586 0.00048846152 -0.00023789477
0.0034984907 0.00029307691 -0.0028242106
-0.0042652832 -0.00058615382 -0.00023789477
0.00091056607 9.7692311e-05 0.00014526314
0.0065656602 -0.00019538462 -0.0035905263
0.0060864151 -0.00058615382 -0.0024410526
-0.0063739624 -0.00029307691 -0.006368421
0.0044569811 -0.00078153849 -0.00023789477
0.0071407547 -0.0011723076 -0.0010042106
0.0065656602 -0.00048846152 -0.00023789477
0.0037860377 -0.00029307691 -0.0044526318
-0.0068532075 -0.0011723076 -0.00090842106
-0.0063739624 -0.00029307691 0.00014526314
0.0037860377 0 -0.0079968423
0.0042652832 -0.00127 -0.00071684213
-0.0040735849 -0.00019538462 -0.0060810526
-0.0038818868 -0.0010746154 -0.0024410526
0.0015815095 -9.7692311e-05 0.0015821053
-0.0062781135 -0.00029307691 0.0011031579
0.0042652832 -0.00127 -0.001291579
-0.0054154717 -0.00127 -0.0016747368
-0.0036901888 0.00127 -0.0022494737
-0.0062781135 -0.00127 -0.001483158
0.0060864151 0 0.0011031579
0.00014377359 0.00068384613 -0.0025368421
0.003977736 -0.00019538462 -0.0068473686
-0.0045528305 -0.00087923079 -4.6315814e-05
-0.0018690566 0.00127 -0.0010042106
-4.7924528e-05 0.00127 -0.0011957895
0.0052237739 0.00127 -0.0011
-0.003977736 0.00058615382 -0.0004294737
-0.0015815095 -9.7692311e-05 0.00033684209
0.0063739624 -0.00127 -0.0021536842
-0.0027316981 0.00048846152 -0.00023789477
-0.0010064151 -0.00019538462 -0.0035905263
0.0063739624 9.7692311e-05 0.0023484211
-0.0014856604 -0.00127 -0.0005252632
-0.0061822641 -0.00127 -0.00090842106
0.0011022642 -0.00039076924 -0.00014210529
0.0040735849 9.7692311e-05 -0.0030157894
-0.0065656602 0.0011723076 -0.00014210529
0.0038818868 0.00029307691 0.0012947369
-0.0058947168 -0.00127 -0.0005252632
0.0011022642 -0.00019538462 0.0020610527
0.0024441511 0.00127 -0.0023452633
0.0066615096 0 -0.0029200001
0.0034984907 0.00019538462 -0.0056978948
-0.0014856604 -0.00127 -0.00033368423
-0.0010064151 -0.00127 -0.00071684213
-0.0027316981 0.00127 -0.0015789474
-0.0015815095 9.7692311e-05 -0.0069431579
0.0062781135 -0.00048846152 -0.0024410526
0.0046486794 0.00058615382 -0.00033368423
-0.0010064151 -0.00019538462 -0.0058894739
0.0040735849 0 -0.0029200001
-0.0060864151 9.7692311e-05 -0.0040694736
0.0064698113 0.00029307691 0.0011031579
-0.0003354717 -0.00127 -0.00071684213
0.0035943396 -0.00019538462 0.0018694737
-0.0071407547 -0.0011723076 -0.0017705264
0.00091056607 9.7692311e-05 -0.0070389477
-0.0011981132 0.00029307691 -0.0030157894
-0.0054154717 -0.00078153849 -0.00014210529
0.0041694338 -0.00127 -0.00071684213
0.0066615096 0 -0.0060810526
0.0065656602 -0.00019538462 -0.0044526318
-0.0015815095 0 -0.0029200001
0.0010064151 -9.7692311e-05 -0.0049315789
0.0061822641 -0.00127 -0.0011957895
0.0044569811 0.00019538462 -4.6315814e-05
-0.0003354717 -0.00019538462 -0.0025368421
-0.0060864151 -0.00127 -0.00023789477
0.0040735849 -9.7692311e-05 0.00043263155
-0.0013898113 0.00029307691 0.00091157894
-0.0015815095 9.7692311e-05 -0.007134737
0.0036901888 -0.00127 -0.00062105263
0.0071407547 -0.00087923079 -0.0023452633
-0.0056071701 0.00127 -0.00033368423
-0.0040735849 0 0.0019652632
0.0037860377 0.00029307691 -0.0065600001
0.0040735849 -9.7692311e-05 -0.0057936842
0.0053196228 0.00048846152 -0.00023789477
0.0018690566 0.0010746154 -0.0024410526
0.0018690566 0.00078153849 -0.00023789477
0.0031150943 -0.0011723076 -4.6315814e-05
0.0034984907 0.00029307691 0.00052842102
-0.0063739624 -0.00029307691 -0.0050273687
0.0065656602 0.00029307691 0.0016778947
-0.0013898113 0.00029307691 -0.0028242106
-0.0060864151 0 -0.0041652634
-0.0058947168 0.00087923079 -0.0024410526
-0.0065656602 -0.00058615382 -0.00023789477
-0.00023962265 0.00127 -0.0022494737
0.0027316981 0.00127 -0.0013873684
0.003977736 0.00029307691 -0.0067515792
-0.00254 0.00127 -0.0022494737
0.0028275473 0.00127 -0.0010042106
-0.0003354717 0.00048846152 -0.00033368423
-0.0034984907 -0.00029307691 -0.0028242106
-0.0060864151 -0.00019538462 0.0010073684
-0.0019649058 -0.00127 -0.0023452633
0.0075241509 0.00097692304 -0.00071684213
0.00091056607 -0.00127 -0.0011957895
-0.0010064151 0.00019538462 -0.0066557894
-0.007332453 0.00029307691 -0.00014210529
0.0061822641 0.00029307691 0.00033684209
0.0010064151 0 -0.005123158
0.0069490569 0.0011723076 -0.001483158
0.0038818868 -0.00029307691 0.00033684209
0.0044569811 -0.00127 -0.0022494737
-0.0056071701 -9.7692311e-05 -0.0024410526
0.0063739624 -0.00048846152 -0.00023789477
0.0013898113 0.00029307691 -0.0078052632
0.0010064151 0.00029307691 -0.0056978948
0.0062781135 -0.00127 -0.00033368423
0.0037860377 0.00127 -0.0004294737
0.00023962265 -0.00019538462 -0.0025368421
0.0015815095 0.00029307691 -4.6315814e-05
0.0034026415 -0.00127 -0.0024410526
-0.0032109434 0.00127 -0.0017705264
0.0046486794 -0.00127 -0.0022494737
0.0060864151 0.00019538462 -0.0068473686
-0.0061822641 -0.00029307691 -0.0044526318
0.0040735849 -0.00019538462 -0.0066557894
-0.0054154717 0.00048846152 -0.00023789477
-0.0020607547 -0.00127 -0.0017705264
0.0062781135 0.00127 -0.0011957895
0.0032109434 -0.00029307691 -4.6315814e-05
-0.0060864151 -0.00019538462 -0.0046442105
-0.0040735849 0.00019538462 4.947366e-05
-0.0011022642 0.00029307691 -4.6315814e-05
0.0076200003 -0.00068384613 -0.00081263162
-0.0044569811 0.00078153849 -0.00023789477
0.0064698113 -0.00029307691 0.0010073684
0.0041694338 -0.00087923079 -0.00014210529
0.0011022642 -0.00029307691 -0.0044526318
0.0022524528 -0.0010746154 -0.0024410526
-0.0071407547 0.00058615382 -0.0023452633
-0.00014377359 0.00127 -0.0010042106
0.0060864151 0.00058615382 -0.0024410526
-0.0011981132 0.00029307691 -0.0033031579
0.0010064151 9.7692311e-05 0.0018694737
-0.0057988679 -0.00127 -4.6315814e-05
0.0061822641 -0.00019538462 -0.0075178947
-0.0034984907 -0.00048846152 -0.00023789477
4.7924528e-05 -0.00127 -0.0020578948
0.0047445283 0.00058615382 -0.00033368423
-0.0015815095 0 -0.0050273687
0.0061822641 -0.00127 -0.00033368423
-0.0068532075 -0.0011723076 -0.00014210529
-0.0042652832 0.00078153849 -0.00023789477
0.0051279245 0.00087923079 -0.00014210529
0.00254 -0.00127 -0.001483158
-0.0041694338 9.7692311e-05 -0.0024410526
0.0056071701 0.00068384613 -0.0024410526
0.0035943396 -0.00078153849 -0.00023789477
0.0036901888 -9.7692311e-05 0.0022526316
0.007428302 -0.00048846152 -0.00023789477
0.0075241509 9.7692311e-05 -0.00033368423
-0.0054154717 0.00039076924 -0.00023789477
0.0026358492 9.7692311e-05 -0.0024410526
-0.0070449058 -0.0011723076 -0.001483158
0.0030192453 0.00058615382 -0.00023789477
0.0038818868 0.00078153849 -0.00023789477
-0.0047445283 0.00029307691 -0.0024410526
-0.0061822641 0.00029307691 -0.0064642108
0.0065656602 -0.00029307691 0.0017736842
-0.0035943396 -0.00127 -0.001291579
0.0036901888 -0.00029307691 -0.0042610527
0.0072366036 0.00029307691 -0.0024410526
-0.0060864151 0.0011723076 -0.001291579
-0.0075241509 -0.00078153849 -0.0022494737
-0.0040735849 -0.00127 -0.00023789477
0.0015815095 0.00127 -0.0016747368
-0.00071886793 -0.00127 -0.00081263162
0.0030192453 -0.00127 -0.0024410526
-0.0026358492 -0.00127 -0.00033368423
0.0056071701 0.00127 -0.00062105263
-0.0015815095 0.00087923079 -4.6315814e-05
0.0055113207 -0.0010746154 -0.00014210529
-0.0036901888 -0.00127 -0.0015789474
0.0065656602 -9.7692311e-05 -0.004356842
-0.0075241509 0.00068384613 -0.0005252632
-0.00014377359 -0.00127 -0.0024410526
-0.0015815095 9.7692311e-05 -0.0042610527
-0.0041694338 0.00127 -0.0017705264
-0.0010064151 0 -0.0055063157
0.0013898113 0.00029307691 -0.0039736843
0.0031150943 -0.00127 -0.0005252632
-0.0015815095 -0.00019538462 -0.0026326317
-0.0062781135 0.00029307691 -0.004356842
-0.0017732076 0.00127 -0.00090842106
-0.0047445283 0.00039076924 -0.00014210529
0.0060864151 -9.7692311e-05 -0.0037821054
-0.0015815095 -0.00029307691 -0.0073263161
0.0066615096 0.0010746154 -4.6315814e-05
-0.0075241509 0 -0.00081263162
0.0061822641 0.00029307691 4.947366e-05
0.0061822641 -0.00097692304 -0.0023452633
0.0061822641 0.00029307691 -0.0067515792
0.0011022642 -0.0010746154 -0.0024410526
0.0064698113 -0.00127 -0.00062105263
-0.0068532075 0.0011723076 -0.0017705264
0.0075241509 0.00097692304 -0.0016747368
-0.0063739624 -0.00029307691 0.0015821053
-0.0068532075 -0.0011723076 -0.0015789474
-0.0048403773 0.0010746154 -0.0023452633
0.0060864151 0.0011723076 -0.0024410526
0.0050320756 -0.00127 -0.0004294737
-0.0038818868 -0.00029307691 -0.0074221054
0.0047445283 -0.00048846152 -0.0023452633
0.0015815095 0.00048846152 -0.0024410526
0.0041694338 0.00078153849 -0.00033368423
0.00052716985 0.00058615382 -0.0024410526
0.00091056607 0.00127 -0.0020578948
-0.0011981132 -9.7692311e-05 0.0023484211
0.0030192453 -0.00097692304 -4.6315814e-05
0.0035943396 0.00029307691 4.947366e-05
0.00071886793 0.00127 -0.0019621053
0.0060864151 0.00029307691 -0.0052189473
0.0003354717 -0.00127 -0.00062105263
-0.0063739624 -0.00029307691 -0.0049315789
0.0064698113 0.0011723076 -4.6315814e-05
0.0035943396 -0.00029307691 0.0011989473
-0.0038818868 0.00029307691 -0.0059852633
0.0030192453 -0.00097692304 -0.0024410526
-0.0075241509 -9.7692311e-05 -0.0011957895
0.0010064151 9.7692311e-05 -0.0057936842
0.0071407547 0 -0.0024410526
-0.0034984907 -0.00029307691 -0.0061768424
0.0058947168 -0.00068384613 -0.00023789477
-0.0013898113 -0.00029307691 -0.0054105264
-0.0010064151 0 0.00014526314
-0.0011981132 -0.00029307691 -0.0041652634
-0.0061822641 0.00019538462 0.0015821053
0.0040735849 0 -0.0053147371
-0.007332453 -0.00087923079 -0.0024410526
0.0034026415 0.00127 -0.0015789474
-0.0055113207 -0.00127 -4.6315814e-05
0.00023962265 0.00127 -0.00014210529
0.0064698113 0.00029307691 0.00033684209
-0.00043132075 -0.00127 -0.0023452633
0.0060864151 0 -0.0057936842
-0.0014856604 0.00029307691 0.00014526314
-0.0014856604 -0.00029307691 -0.0052189473
0.0037860377 -0.00068384613 -0.00023789477
0.00062301889 -0.00127 -0.00023789477
-0.0063739624 0.00019538462 -0.0050273687
0.0013898113 -0.00127 -0.0004294737
0.0013898113 0 0.0022526316
0.0003354717 0.00127 -0.00062105263
-0.0010064151 -0.00019538462 -0.0076136845
0.0066615096 0.00019538462 -0.0029200001
-0.0018690566 0.00127 -0.00023789477
0.0035943396 -0.00019538462 -0.0056021055
-0.0035943396 0.00019538462 -0.0040694736
0.0065656602 -0.00019538462 -0.0052189473
-0.0072366036 -0.0011723076 -0.00062105263
-0.0040735849 -9.7692311e-05 -0.0053147371
-0.0064698113 -0.00029307691 -0.004356842
0.0014856604 -0.00127 -0.0010042106
-0.0032109434 0.00087923079 -4.6315814e-05
0.0038818868 0.00029307691 0.00024105261
0.0011022642 -0.00127 -0.0005252632
0.0061822641 0.00039076924 -0.00014210529
-0.0013898113 0.00029307691 -0.0052189473
-0.0044569811 0.00078153849 -0.0023452633
0.0053196228 -0.00029307691 -0.0024410526
-0.0036901888 0.00127 -0.00090842106
0.0062781135 0.00029307691 -0.0067515792
-0.0063739624 -0.00029307691 -0.0075178947
0.0015815095 0.00029307691 -0.0049315789
-0.0049362266 0.00127 -0.0023452633
-0.0076200003 -0.00039076924 -0.0022494737
0.0035943396 -0.00029307691 -0.0053147371
-0.0032109434 0.00127 -0.0020578948
-0.0040735849 -0.00127 -0.00062105263
-0.0011022642 0.0011723076 -4.6315814e-05
-0.0037860377 0.00029307691 -0.0074221054
-0.0037860377 0.00029307691 -0.0073263161
-0.0065656602 0.00068384613 -0.0023452633
-0.0071407547 -0.0011723076 -0.00023789477
0.0011981132 -0.00029307691 -0.0040694736
0.0050320756 -0.00127 -0.0013873684
0.0037860377 -0.00127 -0.00071684213
-0.00023962265 0.00127 -0.00081263162
-0.0015815095 -0.00097692304 -0.0024410526
-0.0072366036 0.0010746154 -0.00014210529
0.0063739624 -9.7692311e-05 0.0020610527
-0.00071886793 -0.00058615382 -0.0024410526
-0.0037860377 -0.00029307691 0.0013905263
-0.0060864151 9.7692311e-05 -0.0075178947
0.0028275473 0.00127 -0.0021536842
-0.0038818868 -0.00029307691 -0.0049315789
0.0015815095 0.00019538462 -0.0059852633
0.0065656602 0.0011723076 -0.0015789474
-0.0042652832 -0.00127 -0.001291579
0.0071407547 -0.0011723076 -0.0011
0.0034984907 0.00068384613 -0.0024410526
0.0036901888 0.00029307691 0.0018694737
-0.0015815095 -9.7692311e-05 0.0011031579
0.0015815095 9.7692311e-05 -0.0036863158
-0.0066615096 0 -0.0072305263
0.0075241509 -9.7692311e-05 -0.00062105263
-0.0065656602 0 -0.0050273687
0.0030192453 -0.00127 -0.00071684213
-0.0053196228 0.00127 -0.0017705264
0.0011022642 -0.00127 -0.0011
0.00023962265 0.00127 -0.0021536842
0.0062781135 -0.00029307691 0.00043263155
-0.0062781135 -0.00029307691 -0.0062726317
-0.0011981132 -0.00029307691 -0.0049315789
-0.0021566038 0.00048846152 -0.00033368423
0.0016773585 0.00068384613 -0.0004294737
0.0040735849 0.00019538462 -0.002728421
-0.0068532075 0.0011723076 -0.0015789474
0.0032109434 0.00127 -0.0016747368
0.0055113207 0.00127 -0.0010042106
-0.0023483019 0.00127 -0.0023452633
-0.0011981132 -0.00078153849 -0.00014210529
0.0030192453 -0.00127 -0.0018663158
0.0060864151 -9.7692311e-05 -0.0055063157
0.00043132075 0 -0.0025368421
0.0052237739 -0.00048846152 -0.0023452633
0.0042652832 -0.00127 -0.0005252632
-0.0016773585 0.00127 -0.0004294737
-0.0015815095 -0.00019538462 -0.0056021055
0.0062781135 0.00029307691 -0.0049315789
-0.0060864151 -0.00019538462 0.0014863157
-0.0012939622 -0.00029307691 -0.0054105264
0.0037860377 0.00029307691 0.0018694737
-0.0070449058 -0.00068384613 -0.00023789477
-0.00071886793 0.00127 -0.00014210529
-0.0010064151 0.00019538462 -0.003111579
-0.0034026415 0.00068384613 -0.0024410526
-0.0052237739 0.00048846152 -0.00023789477
0.0034984907 0.00029307691 -0.0033989474
0.00014377359 0.00048846152 -0.0025368421
0.0022524528 -0.00127 -0.0020578948
0.0014856604 -0.00029307691 -0.0060810526
-0.0011981132 0.00029307691 -0.0056978948
-0.0052237739 -0.00039076924 -0.0024410526
-0.007428302 -0.00068384613 -0.0024410526
-0.0060864151 -9.7692311e-05 -0.006368421
0.0020607547 -0.0011723076 -0.0023452633
0.0076200003 0.00058615382 -0.0004294737
-0.0064698113 0.00048846152 -0.00033368423
-0.0052237739 -0.00127 -0.0010042106
0.0011022642 0.00029307691 -0.006368421
-0.0011022642 0.00029307691 -0.0050273687
-0.0070449058 -0.0010746154 -0.0024410526
-0.0013898113 -0.00127 -0.0020578948
-0.0059905662 0.00039076924 -0.00023789477
0.0063739624 -0.00127 -0.0005252632
0.00091056607 0.00087923079 -0.0024410526
0.00043132075 -0.00127 -0.0013873684
0.0034984907 0 0.0013905263
-0.0010064151 -0.00029307691 0.0016778947
0.0052237739 9.7692311e-05 -4.6315814e-05
-0.0070449058 0.00078153849 -0.00023789477
0.007428302 0.0010746154 -0.0022494737
-0.0059905662 -9.7692311e-05 -0.0024410526
0.0063739624 0.00127 -0.0017705264
-0.0014856604 -0.00029307691 -0.0068473686
-0.0063739624 -0.00029307691 0.0014863157
0.0016773585 0.00127 -0.0019621053
-0.0062781135 0.00029307691 -0.0064642108
0.0015815095 9.7692311e-05 -0.0057936842
-0.0010064151 9.7692311e-05 -0.0033989474
0.0059905662 0.00048846152 -0.0024410526
0.0035943396 -0.00019538462 -0.0038778947
-0.0065656602 -0.00029307691 -0.003494737
-0.00081471697 -0.00058615382 -0.0024410526
-0.00071886793 -0.0011723076 -4.6315814e-05
0.00254 0.00127 -0.0013873684
-0.0064698113 0.00087923079 -0.00014210529
-0.0026358492 0 -4.6315814e-05
-0.0042652832 -0.00127 -0.00033368423
-0.0066615096 0.00048846152 -0.0023452633
-0.0057988679 0.00087923079 -0.00014210529
-0.0064698113 -0.00029307691 -0.0058894739
-0.0035943396 0.00029307691 0.0017736842
-0.0011981132 0.00029307691 -0.0060810526
0.0029233962 0.00127 -0.0011957895
-0.0024441511 -0.00029307691 -0.0024410526
-0.0034984907 9.7692311e-05 0.00091157894
-0.0066615096 0.0011723076 -0.0011957895
-0.0062781135 0.00029307691 -0.003111579
0.0054154717 0.00127 -0.0015789474
-0.0014856604 0.00127 -0.0021536842
-0.0013898113 0.00029307691 -0.002728421
-0.00091056607 9.7692311e-05 0.0013905263
-0.0064698113 -0.00029307691 -0.0076136845
0.0052237739 0.00127 -0.0018663158
0.0010064151 0 -0.0062726317
0.0020607547 -0.00058615382 -0.00023789477
-0.0013898113 0.00097692304 -0.0023452633
0.0026358492 -0.00068384613 -0.00023789477
0.00023962265 -0.00127 -0.0017705264
-0.0015815095 -0.00029307691 -0.006368421
0.00043132075 -0.00068384613 -0.00023789477
0.0054154717 0.00029307691 -4.6315814e-05
0.0061822641 -0.00029307691 -0.006368421
-0.0066615096 -0.0011723076 -0.0024410526
0.0021566038 -0.00127 -0.0017705264
-0.0052237739 -0.00029307691 -0.0024410526
0.0063739624 -0.00029307691 -0.0025368421
0.0010064151 -0.00019538462 -0.0052189473
0.00091056607 0 0.0016778947
-0.0038818868 0.00068384613 -0.0024410526
-0.0015815095 9.7692311e-05 -0.0041652634
0.0026358492 0.00127 -0.0023452633
-0.0047445283 0.00127 -0.00033368423
0.0012939622 -0.00029307691 -0.0044526318
-0.0052237739 0.00127 -0.0013873684
-0.0043611322 -0.00127 -0.00023789477
0.0061822641 0 -0.0078052632
0.0052237739 0.00127 -0.0015789474
-0.0061822641 0.00019538462 0.0018694737
0.0028275473 0.00127 -0.0019621053
0.0015815095 0.00127 -0.0013873684
0.0014856604 -0.00019538462 -0.0062726317
-0.0061822641 -0.00029307691 -0.0050273687
0.0035943396 0.00019538462 0.0018694737
0.00062301889 -9.7692311e-05 -0.0025368421
-0.0042652832 0.00039076924 -0.0024410526
-0.0015815095 -0.00029307691 -0.0076136845
-0.0046486794 0.00087923079 -0.0023452633
0.0015815095 0.00029307691 -0.005123158
0.0017732076 0.00078153849 -0.00023789477
-0.0031150943 0.00078153849 -0.0024410526
-0.0037860377 -0.00029307691 -0.0040694736
0.00052716985 0.00127 -0.00081263162
-0.0064698113 -0.00029307691 0.0011031579
-0.0020607547 -0.00058615382 -0.00023789477
0.00091056607 0.00029307691 -4.6315814e-05
-0.0070449058 9.7692311e-05 -4.6315814e-05
-0.0024441511 -0.00058615382 -0.00023789477
0.0015815095 -9.7692311e-05 -0.0066557894
0.0063739624 0.00127 -0.0005252632
-0.0034984907 9.7692311e-05 4.947366e-05
0.0033067926 0.00127 -0.0010042106
0.0036901888 0.00029307691 0.0013905263
-0.0065656602 0 -0.0056978948
0.0057988679 0.00127 -0.0004294737
-4.7924528e-05 0.00078153849 -0.00033368423
0.0061822641 -0.00029307691 -0.0059852633
0.005703019 0.0011723076 -4.6315814e-05
-0.0024441511 0.00058615382 -0.0004294737
-0.0033067926 0.00078153849 -0.0024410526
-0.0035943396 -0.00127 -0.001483158
0.0014856604 0.00029307691 0.0012947369
0.0065656602 0.00029307691 -0.004356842
-0.0018690566 -0.00127 -0.0004294737
0.0038818868 0.00097692304 -0.0024410526
0.0049362266 -0.00127 -0.0020578948
-0.0015815095 -0.00127 -0.00071684213
0.0072366036 0.00058615382 -0.00023789477
-0.0040735849 0.00127 -0.0004294737
-0.0011981132 0.00019538462 -0.0078052632
-0.0014856604 -0.00029307691 -0.0038778947
-0.0003354717 0.00048846152 -0.00023789477
0.0003354717 -0.00087923079 -0.0024410526
0.0011022642 -0.00029307691 0.0010073684
-0.0059905662 0.0011723076 -0.00023789477
0.0075241509 0.00087923079 -0.0022494737
-0.007428302 0.00097692304 -0.0011957895
0.00091056607 0 0.00091157894
0.0012939622 -0.00029307691 -0.003494737
0.0012939622 -0.00019538462 -0.0080926316
-0.0040735849 9.7692311e-05 0.00033684209
-0.00071886793 -0.00127 -0.00062105263
-0.0012939622 -0.00029307691 -0.0079010529
-0.007332453 0.00048846152 -0.0023452633
-0.0030192453 -0.00078153849 -0.0024410526
-0.0061822641 0.00019538462 -0.0065600001
0.0043611322 -0.00087923079 -0.00014210529
-0.0014856604 -0.00029307691 -0.0042610527
-0.0042652832 0 -4.6315814e-05
0.0050320756 -0.00019538462 -4.6315814e-05
-0.0013898113 -0.00127 -0.00081263162
-0.0010064151 -0.00019538462 -0.0070389477
-0.0064698113 9.7692311e-05 -0.0035905263
0.0011022642 0.00029307691 -0.0072305263
-0.0047445283 -0.00127 -0.00062105263
-0.0034984907 -0.00048846152 -0.0024410526
-0.0014856604 -0.00029307691 -0.0044526318
-0.0013898113 0.00019538462 -0.0078052632
-0.0067573586 -0.00068384613 -0.0024410526
-0.0015815095 0.00127 -0.0004294737
0.0010064151 9.7692311e-05 -0.0045484211
-0.00091056607 -0.00048846152 -0.00023789477
0.0042652832 -0.00127 -0.00014210529
-0.0067573586 0.0011723076 -0.0019621053
0.0051279245 0.00127 -0.0015789474
-0.0010064151 -0.00019538462 -0.0044526318
-4.7924528e-05 -0.00127 -0.0020578948
0.0062781135 0.00029307691 -0.0056021055
0.0063739624 0.00029307691 -0.0042610527
0.0047445283 0.00127 -0.001483158
-0.0034026415 -0.00127 -0.00071684213
-0.0037860377 0.00127 -0.001291579
0.0063739624 0.00127 -0.0015789474
-4.7924528e-05 0.00127 -0.0018663158
0.0065656602 -0.00029307691 -0.0047400002
-0.0055113207 0.00127 -0.00081263162
-0.0013898113 0.00127 -0.00071684213
-0.0069490569 9.7692311e-05 -0.0024410526
-0.0013898113 0.00127 -0.00081263162
-0.0051279245 0.00078153849 -0.00033368423
-0.0016773585 -0.00127 -0.00071684213
-0.0034984907 -0.00029307691 -0.002728421
0.0034984907 0.00019538462 -0.0041652634
-0.0015815095 0.00048846152 -0.00033368423
0.0065656602 0.00068384613 -0.0004294737
0.0062781135 -0.00029307691 -0.0073263161
-0.0061822641 0.00019538462 -0.0026326317
0.0060864151 0.00019538462 -0.007134737
-0.0040735849 -9.7692311e-05 -0.0072305263
0.0066615096 0 -0.0056978948
-0.0010064151 -0.00019538462 -0.0026326317
0.0015815095 -0.00039076924 -0.0024410526
-0.00062301889 -0.00127 -0.0016747368
0.0060864151 0.00019538462 -0.0047400002
0.0035943396 0.00039076924 -0.0025368421
-0.0014856604 -0.00097692304 -0.0024410526
-0.003977736 0.00029307691 -0.0029200001
0.0026358492 0.00078153849 -0.0024410526
0.0035943396 -0.00127 -0.001483158
-0.00062301889 -0.00127 -0.0022494737
-0.0064698113 0.00019538462 -0.0050273687
-0.0035943396 0.00029307691 -0.0030157894
-0.0031150943 0.00068384613 -0.0024410526
0.0040735849 -9.7692311e-05 -0.0053147371
0.0050320756 -0.00078153849 -0.0023452633
0.00014377359 -9.7692311e-05 -4.6315814e-05
0.0056071701 0.00127 -0.0024410526
0.00023962265 0.00087923079 -4.6315814e-05
-0.0010064151 0.00019538462 -0.0049315789
0.0069490569 -0.0011723076 -0.00023789477
0.0024441511 0.00127 -0.0010042106
0.0071407547 -0.00039076924 -0.0023452633
-0.0022524528 0.00087923079 -0.00014210529
-0.005703019 -0.00127 -0.0022494737
0.0040735849 0.00019538462 -0.0073263161
-0.0032109434 0.00127 -0.0024410526
-0.00043132075 -0.00127 -0.00014210529
-0.0035943396 9.7692311e-05 -0.0028242106
-0.0038818868 0.00087923079 -0.00014210529
-0.0023483019 -0.00127 -0.0005252632
-0.0055113207 0.00048846152 -0.00023789477
-0.0055113207 0 -0.0024410526
-0.003977736 0.00029307691 0.0013905263
0.0061822641 0.00019538462 0.0018694737
-0.0011022642 -0.00029307691 0.0020610527
-0.0066615096 -0.00019538462 0.0011989473
-0.00062301889 -0.00127 -0.00081263162
-0.0047445283 0.0010746154 -0.0023452633
0.0065656602 -9.7692311e-05 -0.0065600001
0.0033067926 0.00127 -0.0020578948
