# .PCD v0.7 - Point Cloud Data file format
VERSION 0.7
FIELDS x y z
SIZE 4 4 4
TYPE F F F
COUNT 1 1 1
WIDTH 1244
HEIGHT 1
VIEWPOINT 0 0 0 1 0 0 0
POINTS 1244
DATA ascii
0.00016806723 0.001 -0.0014857142
-0.015294118 0.00063636363 -0.0018285713
0.0084033618 -0.001 -0.0014857142
-0.0033613446 0.001 -0.00062857138
0.0075630252 -0.00027272728 -0.00011428568
0.016638655 -0.001 -0.00062857138
0.01512605 -0.00063636363 -0.0018285713
-0.011596639 0.001 -0.0016571428
-0.012605042 -0.001 -0.00045714283
0.02 9.0909089e-05 -0.00079999998
0.0025210085 -0.00063636363 -0.0018285713
0.013613446 -0.00081818184 -0.0018285713
-0.01210084 0.00045454546 -0.00011428568
0.010588235 -0.001 -0.0011428571
0.0048739496 0.001 -0.00097142853
-0.0072268909 0.00027272728 -0.0018285713
0.0063865548 0.001 -0.00097142853
0.0033613446 0.001 -0.00028571425
0.0026890757 0.00027272728 -0.0018285713
0.0070588235 9.0909089e-05 0.00057142862
-0.014117647 0.00045454546 -0.00011428568
-0.0047058822 -0.001 -0.0013142857
0.0052100839 -9.0909089e-05 0.0016
0.0089075631 -9.0909089e-05 -0.0038857141
-0.01277311 -0.001 -0.0016571428
0.01092437 9.0909089e-05 0.0014285714
0.0067226891 -0.001 -0.0011428571
0.0011764705 -9.0909089e-05 0.00091428572
-0.01092437 -9.0909089e-05 0.00074285717
-0.0078991596 -0.001 -0.0018285713
0.001512605 9.0909089e-05 -0.00011428568
-0.011764706 0.001 -0.00045714283
-0.013109243 -0.001 -0.00097142853
-0.0042016809 0.001 -0.00045714283
-0.012605042 0.001 -0.0013142857
-0.0057142857 0.001 -0.00079999998
-0.01697479 9.0909089e-05 -0.0047428571
-0.0097478991 -0.001 -0.00062857138
-0.015462185 -0.001 -0.00045714283
-0.012941176 9.0909089e-05 -0.0045714285
0.0070588235 -9.0909089e-05 0.00022857146
-0.018151261 -0.00027272728 -0.0018285713
-0.005042017 0.001 -0.0016571428
-0.0070588235 -0.001 -0.00079999998
0.0013445378 0.001 -0.00062857138
-0.0072268909 0.00063636363 -0.00011428568
0.0033613446 -0.001 -0.0011428571
0.001512605 0.001 -0.00011428568
0.01210084 9.0909089e-05 -0.00011428568
-0.0011764705 0.00081818184 -0.0018285713
-0.0072268909 0.001 -0.0018285713
-0.01277311 0.001 -0.00062857138
-0.010756303 0.001 -0.0011428571
-0.0047058822 -0.001 -0.0011428571
0.0055462187 -0.00081818184 -0.00011428568
-0.0068907561 9.0909089e-05 0.0010857143
0.01630252 0.00045454546 -0.0018285713
-0.0067226891 0.001 -0.0014857142
-0.0033613446 -0.00045454546 -0.00028571425
-0.016470589 9.0909089e-05 -0.00011428568
0.012605042 -0.00027272728 -0.0018285713
0.011092437 9.0909089e-05 -0.0030285714
0.015294118 0.00081818184 -0.0018285713
0.0031932774 9.0909089e-05 -0.0028571428
-0.01764706 -0.001 -0.00097142853
0.0058823531 -9.0909089e-05 -0.0018285713
0.012268907 0.001 -0.00097142853
-0.0070588235 0.00027272728 -0.00011428568
0.01697479 -0.001 -0.00097142853
0.016470589 -0.00081818184 -0.0018285713
0.0048739496 -0.00027272728 -0.0019999999
-0.010420168 0.001 -0.00045714283
0.013613446 -0.001 -0.0018285713
-0.012605042 -0.001 -0.0018285713
-0.0068907561 9.0909089e-05 -0.0044
0.0052100839 9.0909089e-05 -0.00011428568
-0.017142856 0.00027272728 -0.0018285713
0.001512605 -0.001 -0.00011428568
0.011596639 -0.001 -0.0013142857
0.0016806723 0.001 -0.00097142853
-0.0067226891 -0.001 -0.00011428568
-0.016134454 0.001 -0.00062857138
-0.015294118 -0.00063636363 -0.00011428568
0.00605042 0.001 -0.0016571428
-0.0089075631 -9.0909089e-05 -0.0044
0.0099159665 -0.001 -0.00062857138
0.0033613446 0.00045454546 -0.0018285713
0.018823529 -9.0909089e-05 0.00057142862
-0.0021848739 9.0909089e-05 -0.00011428568
0.01512605 0.00027272728 -0.0019999999
0.01697479 -0.001 -0.0018285713
0.0042016809 0.001 -0.00045714283
-0.0068907561 9.0909089e-05 0.0024571428
0.0048739496 0.00063636363 -0.00011428568
-0.016638655 0.001 -0.00028571425
-0.0078991596 -0.001 -0.00062857138
0.011260504 0.001 -0.0011428571
0.018991597 9.0909089e-05 0.00057142862
-0.012268907 0.001 -0.0014857142
0.0021848739 -0.00027272728 -0.00011428568
0.0055462187 -0.001 -0.00011428568
0.015294118 -0.00027272728 -0.0018285713
-0.0011764705 -0.001 -0.0014857142
0.0026890757 9.0909089e-05 -0.0018285713
-0.0058823531 -0.001 -0.0013142857
-0.0042016809 0.001 -0.0018285713
0.00050420169 0.00063636363 -0.0018285713
-0.00302521 -9.0909089e-05 -0.0044
-0.0042016809 0.001 -0.00062857138
-0.012941176 -0.00081818184 -0.00011428568
0.019495798 -0.00081818184 -0.0016571428
-0.01512605 9.0909089e-05 -0.0031999999
0.014453782 -0.00045454546 -0.0018285713
0.011596639 0.00027272728 -0.0018285713
-0.0048739496 9.0909089e-05 -0.0050857142
0.019495798 -0.00063636363 -0.0018285713
-0.010588235 0.00081818184 -0.00011428568
-0.017142856 -9.0909089e-05 -0.0038857141
0.0031932774 0.001 -0.0016571428
0.0089075631 -0.00063636363 -0.0018285713
0.0013445378 0.001 -0.0018285713
-0.0010084034 9.0909089e-05 0.00022857146
-0.0063865548 0.001 -0.0011428571
0.0016806723 -0.001 -0.0018285713
0.017815126 -0.001 -0.00079999998
0.018991597 -9.0909089e-05 0.0021142857
-0.015798319 9.0909089e-05 -0.0018285713
-0.015294118 -0.001 -0.0014857142
0.011596639 -0.001 -0.00097142853
0.0045378152 0.00063636363 -0.0018285713
-0.019831933 -0.00063636363 -0.00011428568
0.011260504 -0.00063636363 -0.0018285713
0.0084033618 -0.00063636363 -0.0018285713
-0.00084033614 -9.0909089e-05 -0.0031999999
0.008067227 -0.00027272728 -0.0018285713
0.00084033614 9.0909089e-05 -0.003542857
-0.014621849 0.00081818184 -0.00028571425
0.0087394956 0.001 -0.00045714283
0.013781512 -0.001 -0.00028571425
-0.0038655463 0.00045454546 -0.0018285713
-0.01512605 9.0909089e-05 0.0012571429
0.0043697478 -0.001 -0.0013142857
-0.00605042 -0.001 -0.00062857138
-0.0043697478 0.001 -0.00079999998
-0.014285714 0.001 -0.0016571428
0.0011764705 -9.0909089e-05 -0.0045714285
0.011260504 0.001 -0.0013142857
-0.0058823531 -0.001 -0.00097142853
0.0031932774 9.0909089e-05 -0.0047428571
0.00084033614 -9.0909089e-05 0.00057142862
0.018823529 -9.0909089e-05 0.0019428572
-0.019831933 -0.00081818184 -0.00079999998
-0.018991597 -9.0909089e-05 -0.0050857142
-0.0068907561 0.00063636363 -0.0018285713
-0.01697479 -9.0909089e-05 -0.0047428571
-0.01512605 0.001 -0.00011428568
0.0087394956 9.0909089e-05 -0.0019999999
-0.01210084 -0.00045454546 -0.0018285713
0.0099159665 0.001 -0.00097142853
-0.00605042 0.00081818184 -0.00011428568
0.01394958 -0.00045454546 -0.0018285713
0.014789916 -9.0909089e-05 5.714289e-05
-0.017142856 -0.001 -0.0011428571
-0.0048739496 9.0909089e-05 -0.0033714285
0.00605042 0.00045454546 -0.00028571425
0.0067226891 0.001 -0.0011428571
0.01630252 0.001 -0.00045714283
0.017478991 -0.001 -0.00028571425
0.014789916 -0.001 -0.00062857138
-0.0043697478 9.0909089e-05 -0.0018285713
0.0070588235 -0.00027272728 -0.00011428568
0.011260504 9.0909089e-05 -0.00011428568
-0.0084033618 0.001 -0.00062857138
-0.0018487395 -0.00045454546 -0.00028571425
0.0010084034 9.0909089e-05 0.00057142862
-0.01092437 0.00027272728 -0.0019999999
0.015966387 0.001 -0.00079999998
-0.0031932774 -0.001 -0.00062857138
-0.0070588235 -0.00045454546 -0.00011428568
-0.0089075631 9.0909089e-05 -0.003542857
-0.010756303 0.001 -0.0018285713
-0.012605042 0.001 -0.00028571425
-0.0077310926 0.00045454546 -0.00028571425
-0.0033613446 0.00081818184 -0.00011428568
-0.012268907 0.001 -0.00028571425
0.0053781513 9.0909089e-05 -0.00011428568
0.014285714 -9.0909089e-05 -0.00011428568
-0.0011764705 9.0909089e-05 0.00057142862
0 0.00063636363 -0.00011428568
-0.01630252 0.001 -0.00028571425
0.01210084 0.001 -0.00045714283
-0.017478991 -0.001 -0.00079999998
-0.01697479 0.00045454546 -0.00028571425
-0.013109243 -0.00045454546 -0.0018285713
0.018991597 9.0909089e-05 -0.0050857142
-0.0065546217 -0.00027272728 -0.0018285713
0.010588235 -0.001 -0.0018285713
-0.016134454 0.001 -0.00079999998
0.0082352944 0.00045454546 -0.0018285713
-0.014789916 0.001 -0.00011428568
-0.0062184874 0.001 -0.00045714283
0.012605042 0.001 -0.0013142857
-0.0068907561 0.001 -0.0016571428
-0.0052100839 -9.0909089e-05 -0.0047428571
-0.0020168067 -0.001 -0.00011428568
0.00084033614 9.0909089e-05 -0.0042285714
0.00084033614 0.00081818184 -0.00011428568
0.016806724 0.001 -0.0014857142
-0.019831933 0.00063636363 -0.0016571428
-0.0090756305 9.0909089e-05 0.0014285714
0.0068907561 9.0909089e-05 -0.00011428568
0.00084033614 -9.0909089e-05 -0.0040571429
0.0038655463 -0.001 -0.00079999998
-0.012941176 -9.0909089e-05 0.00091428572
-0.018823529 -0.00081818184 -0.00011428568
-0.0052100839 0.00027272728 -0.00011428568
0.011260504 9.0909089e-05 -0.0018285713
-0.017142856 -9.0909089e-05 0.0017714286
0.013613446 0.001 -0.00062857138
-0.0053781513 9.0909089e-05 -0.00011428568
-0.0048739496 9.0909089e-05 5.714289e-05
-0.017142856 9.0909089e-05 -0.0026857143
-0.016470589 -0.001 -0.0016571428
0.01697479 -9.0909089e-05 0.0014285714
-0.0026890757 9.0909089e-05 -0.00011428568
0.016638655 0.001 -0.00097142853
0.0073949578 -0.00045454546 -0.0018285713
-0.011092437 0.001 -0.00062857138
-0.0031932774 -9.0909089e-05 0.0022857143
-0.018319327 -0.001 -0.0013142857
0.0090756305 -0.001 -0.00062857138
0.00302521 0.001 -0.00045714283
0.0053781513 0.00081818184 -0.0018285713
0.013109243 0.001 -0.0011428571
-0.019663865 -0.00081818184 -0.00045714283
-0.017983193 -9.0909089e-05 -0.00011428568
-0.0031932774 0.00081818184 -0.00011428568
0.019663865 -0.00081818184 -0.0011428571
0.012941176 -9.0909089e-05 -0.0050857142
-0.015630253 0.00063636363 -0.0018285713
-0.016806724 -0.001 -0.00062857138
-0.00050420169 -0.001 -0.0013142857
0.012941176 -9.0909089e-05 5.714289e-05
0.01092437 -9.0909089e-05 -0.0037142856
-0.01697479 9.0909089e-05 -0.0040571429
-0.014957983 -0.001 -0.0018285713
-0.01764706 -0.001 -0.00062857138
-0.0048739496 9.0909089e-05 -0.0026857143
-0.018823529 0.001 -0.00097142853
0.0036974789 -0.001 -0.0011428571
0.0062184874 -0.00063636363 -0.00011428568
0.0053781513 0.001 -0.0013142857
0.0020168067 0.00081818184 -0.00011428568
0.0090756305 9.0909089e-05 -0.00011428568
0.019159663 9.0909089e-05 -0.0049142856
0.0021848739 0.00063636363 -0.0018285713
-0.013445378 0.00027272728 -0.00011428568
0.0068907561 -0.001 -0.00028571425
0.0033613446 0.001 -0.00079999998
0.0090756305 0.00081818184 -0.0018285713
0.01092437 9.0909089e-05 -0.0023428572
0.0025210085 -0.001 -0.0014857142
0.0018487395 0.00063636363 -0.0018285713
-0.0045378152 -0.00045454546 -0.0018285713
0.018655462 0.00081818184 -0.0014857142
-0.019327732 -9.0909089e-05 -0.0018285713
0.0048739496 -9.0909089e-05 0.0014285714
-0.011092437 0.001 -0.00079999998
-0.015462185 -0.00027272728 -0.00011428568
0.015630253 9.0909089e-05 -0.00011428568
-0.0078991596 9.0909089e-05 -0.0018285713
0.0028571428 9.0909089e-05 0.0014285714
-0.017310925 -0.001 -0.00011428568
0.0090756305 9.0909089e-05 0.00091428572
0.010420168 0.001 -0.0013142857
0.017478991 -0.001 -0.00097142853
-0.0031932774 9.0909089e-05 5.714289e-05
0.0058823531 -0.00045454546 -0.00028571425
-0.017815126 0.001 -0.0011428571
0.0070588235 -9.0909089e-05 0.0024571428
0.013613446 9.0909089e-05 -0.00011428568
-0.005042017 -0.001 -0.00045714283
-0.00084033614 -9.0909089e-05 -0.0040571429
-0.00033613446 -0.001 -0.00079999998
0.012436975 0.00027272728 -0.0018285713
0.0058823531 -0.00063636363 -0.00011428568
-0.0058823531 0.001 -0.0014857142
-0.011092437 -9.0909089e-05 -0.0031999999
-0.012605042 0.00045454546 -0.00011428568
0.008067227 -0.001 -0.00045714283
-0.0031932774 0.001 -0.00028571425
-0.012605042 -0.00081818184 -0.0018285713
0.0094117643 0.00045454546 -0.0018285713
-0.0016806723 -0.001 -0.0013142857
0.0090756305 9.0909089e-05 0.0012571429
-0.016806724 -9.0909089e-05 -0.0049142856
0 9.0909089e-05 -0.0018285713
-0.018991597 9.0909089e-05 -0.0025142857
-0.018319327 0.00045454546 -0.0018285713
0.015294118 0.001 -0.00097142853
-0.0087394956 0.001 -0.00011428568
-0.0090756305 0.00027272728 -0.00011428568
0.0070588235 -0.001 -0.0016571428
-0.0010084034 -9.0909089e-05 -0.0037142856
-0.010588235 0.001 -0.00079999998
-0.0072268909 0.001 -0.0014857142
0.0084033618 9.0909089e-05 -0.0018285713
0.016638655 0.00027272728 -0.0018285713
-0.01697479 9.0909089e-05 0.0012571429
-0.0102521 -9.0909089e-05 -0.0018285713
-0.0011764705 9.0909089e-05 -0.003542857
0.012605042 -0.00027272728 -0.00011428568
-0.012941176 9.0909089e-05 0.00057142862
-0.0038655463 0.00027272728 -0.00011428568
0.01512605 9.0909089e-05 0.00091428572
-0.005042017 9.0909089e-05 -0.0042285714
0.01092437 -9.0909089e-05 0.0021142857
0.0016806723 0.00045454546 -0.00028571425
-0.0055462187 0.00081818184 -0.00011428568
0.015630253 -0.001 -0.0013142857
0.0010084034 -9.0909089e-05 0.0026285714
0.019831933 0.00081818184 -0.00028571425
0.01764706 0.001 -0.0018285713
0.01092437 9.0909089e-05 -0.0038857141
-0.018991597 0.001 -0.00079999998
0.0052100839 -9.0909089e-05 5.714289e-05
-0.0070588235 -0.001 -0.0018285713
-0.013277311 -0.00027272728 -0.0018285713
0.0089075631 -9.0909089e-05 -0.003542857
-0.0082352944 -0.001 -0.0013142857
-0.001512605 0.001 -0.0013142857
0.0023529411 -0.001 -0.0013142857
-0.0065546217 -0.00063636363 -0.0018285713
0.018991597 -9.0909089e-05 -0.0033714285
0.0055462187 0.00045454546 -0.00028571425
0.012941176 -9.0909089e-05 0.00074285717
0.0097478991 9.0909089e-05 -0.00011428568
0.01512605 -9.0909089e-05 -0.0040571429
0.011428571 0.00081818184 -0.0018285713
0.011764706 0.00063636363 -0.00011428568
0.01210084 0.001 -0.0016571428
-0.02 -0.00063636363 -0.00028571425
0.015294118 0.00027272728 -0.00028571425
-0.0018487395 -0.001 -0.0016571428
0.0052100839 -0.001 -0.0018285713
0.0078991596 0.001 -0.00079999998
0.011092437 -9.0909089e-05 0.0017714286
-0.010756303 -9.0909089e-05 5.714289e-05
0.015294118 -0.001 -0.00011428568
-0.0020168067 -0.00081818184 -0.00011428568
-0.013277311 0.00045454546 -0.00011428568
-0.01764706 0.00063636363 -0.0018285713
0.0043697478 -0.001 -0.0016571428
-0.0070588235 -9.0909089e-05 -0.0047428571
0.0063865548 0.00063636363 -0.00011428568
0.0063865548 0.001 -0.00011428568
0.0018487395 0.00081818184 -0.0018285713
-0.019831933 -9.0909089e-05 -0.00097142853
0.017983193 0.001 -0.0011428571
-0.018487396 -0.001 -0.0018285713
0.018823529 -9.0909089e-05 -0.0040571429
-0.012941176 9.0909089e-05 -0.0049142856
-0.00084033614 9.0909089e-05 -0.0049142856
-0.0011764705 9.0909089e-05 -0.0028571428
0.0075630252 0.00063636363 -0.00011428568
-0.01697479 -0.00063636363 -0.0018285713
-0.01394958 -0.00063636363 -0.0018285713
-0.0073949578 -9.0909089e-05 -0.00011428568
0.0084033618 0.001 -0.00045714283
-0.015798319 -0.001 -0.00062857138
0.0090756305 9.0909089e-05 -0.0047428571
-0.01092437 9.0909089e-05 5.714289e-05
0.017142856 9.0909089e-05 -0.00011428568
-0.0067226891 -9.0909089e-05 -0.00011428568
0.012436975 0.00063636363 -0.0018285713
-0.0092436979 -0.00063636363 -0.0018285713
0.0036974789 -0.00081818184 -0.0018285713
0.019663865 -0.00081818184 -0.00045714283
-0.0094117643 -0.001 -0.0018285713
-0.0013445378 -0.001 -0.0018285713
0.0043697478 -0.001 -0.00011428568
0.0073949578 0.001 -0.00045714283
0.02 0.00063636363 -0.0014857142
-0.00033613446 0.001 -0.0014857142
0.0082352944 9.0909089e-05 -0.0018285713
0.017142856 -9.0909089e-05 -0.0042285714
-0.013109243 -9.0909089e-05 0.0016
-0.018991597 -9.0909089e-05 0.0024571428
0.0047058822 0.001 -0.00079999998
0.016134454 -0.001 -0.0018285713
0.014957983 0.00081818184 -0.0018285713
-0.0065546217 -0.001 -0.00097142853
-0.01394958 0.00027272728 -0.00011428568
0.0075630252 -0.001 -0.00062857138
-0.012436975 0.00027272728 -0.0018285713
-0.018655462 0.00081818184 -0.00011428568
-0.017310925 0.00045454546 -0.00028571425
0.018823529 -9.0909089e-05 0.0021142857
0.0010084034 -0.00027272728 -0.0021714284
-0.012268907 -9.0909089e-05 -0.0018285713
0.012941176 -9.0909089e-05 -0.0023428572
-0.014957983 -9.0909089e-05 -0.0038857141
0.011092437 9.0909089e-05 0.0021142857
-0.0011764705 -9.0909089e-05 -0.0040571429
0.0068907561 9.0909089e-05 0.0017714286
-0.0052100839 9.0909089e-05 -0.0038857141
-0.0020168067 -0.001 -0.0018285713
-0.011092437 -9.0909089e-05 0.0024571428
-0.0055462187 0.00027272728 -0.0018285713
-0.0031932774 -0.00045454546 -0.00028571425
-0.017142856 9.0909089e-05 -0.0025142857
-0.018487396 -0.001 -0.00045714283
-0.017478991 -0.00027272728 -0.0018285713
-0.00033613446 0.001 -0.00062857138
0.013277311 0.00045454546 -0.00028571425
0.0018487395 -0.00027272728 -0.00011428568
-0.0010084034 9.0909089e-05 -0.0023428572
0.0028571428 -9.0909089e-05 -0.0030285714
0.01092437 -9.0909089e-05 -0.0033714285
0.0048739496 9.0909089e-05 0.00040000002
0.01512605 9.0909089e-05 -0.0047428571
-0.0031932774 -9.0909089e-05 0.0017714286
0.0084033618 -0.00063636363 -0.00011428568
0.011092437 -9.0909089e-05 -0.0023428572
0.0025210085 0.001 -0.00011428568
0.001512605 -0.001 -0.00062857138
0.0045378152 0.001 -0.0013142857
-0.018487396 9.0909089e-05 -0.00011428568
-0.0058823531 -0.00027272728 -0.00011428568
-0.0068907561 0.00045454546 -0.0019999999
0.0095798317 0.00063636363 -0.00011428568
0.014957983 0.001 -0.00011428568
-0.0072268909 0.001 -0.00011428568
-0.0057142857 -0.00063636363 -0.00011428568
-0.0028571428 0.001 -0.00062857138
-0.0043697478 -0.00081818184 -0.0018285713
0.01394958 0.001 -0.0014857142
0.016638655 -0.001 -0.0014857142
-0.019159663 -9.0909089e-05 0.00091428572
-0.014789916 -9.0909089e-05 -0.0040571429
0.01630252 0.00081818184 -0.00011428568
0.0035294117 0.001 -0.0016571428
0.019159663 -9.0909089e-05 0.00057142862
0.019327732 0.00081818184 -0.00097142853
-0.019831933 0.00027272728 -0.00097142853
0.01092437 -0.001 -0.0016571428
-0.0028571428 -0.001 -0.0016571428
0.013613446 0.001 -0.0018285713
-0.011428571 0.00027272728 -0.0018285713
-0.0028571428 -0.00027272728 -0.00011428568
-0.018151261 0.001 -0.0013142857
0.013277311 -9.0909089e-05 -0.0019999999
0.0092436979 -0.001 -0.0014857142
-0.015462185 -0.00063636363 -0.00011428568
0.0048739496 -9.0909089e-05 -0.0038857141
0.0025210085 -9.0909089e-05 -0.00011428568
0.0047058822 0.001 -0.00045714283
-0.0085714282 0.00027272728 -0.00011428568
-0.015630253 -9.0909089e-05 -0.00011428568
0.010756303 0.001 -0.0014857142
-0.0102521 -0.00045454546 -0.0018285713
-0.0011764705 0.00045454546 -0.0018285713
-0.012941176 -9.0909089e-05 0.0017714286
0.0045378152 0.001 -0.0011428571
-0.0028571428 9.0909089e-05 -0.0033714285
0.0018487395 0.001 -0.00097142853
0.013781512 9.0909089e-05 -0.00011428568
0.012941176 -0.001 -0.00011428568
-0.0045378152 0.001 -0.00045714283
0.017142856 9.0909089e-05 -0.0044
-0.014285714 0.001 -0.0011428571
-0.0090756305 0.001 -0.0013142857
0.013109243 -0.00063636363 -0.00011428568
-0.018151261 -0.001 -0.00028571425
0.014453782 -0.001 -0.00011428568
-0.0090756305 -9.0909089e-05 -0.0025142857
-0.0043697478 0.00081818184 -0.00011428568
0.0048739496 -9.0909089e-05 0.0012571429
-0.012941176 -9.0909089e-05 -0.0044
-0.0026890757 0.00081818184 -0.00011428568
-0.019159663 -9.0909089e-05 -0.0031999999
0.015630253 0.00063636363 -0.0018285713
0.0068907561 -9.0909089e-05 -0.0045714285
0.019327732 0.00081818184 -0.00079999998
0.0033613446 0.00081818184 -0.00011428568
-0.018151261 -0.00081818184 -0.00011428568
-0.015630253 -0.001 -0.00062857138
0.0028571428 9.0909089e-05 0.00074285717
-0.017815126 0.00027272728 -0.0018285713
-0.0099159665 0.00027272728 -0.0018285713
0.0026890757 -0.001 -0.00028571425
-0.018319327 0.001 -0.00097142853
-0.010084034 0.00081818184 -0.0018285713
-0.013613446 0.00081818184 -0.00011428568
-0.010420168 0.001 -0.00079999998
0.014789916 9.0909089e-05 -0.0038857141
0.0010084034 0.001 -0.0016571428
-0.0042016809 0.00081818184 -0.0018285713
0.016806724 0.001 -0.00079999998
0.016470589 0.001 -0.0011428571
-0.0062184874 -0.001 -0.0018285713
0.011428571 0.001 -0.00011428568
0.0090756305 9.0909089e-05 -0.0033714285
-0.005042017 -0.001 -0.0014857142
0.005042017 9.0909089e-05 -0.003542857
-0.018151261 -9.0909089e-05 -0.0018285713
0.0084033618 -0.00045454546 -0.00028571425
-0.00302521 -0.001 -0.0014857142
-0.005042017 0.00027272728 -0.0021714284
-0.015966387 0.001 -0.0016571428
-0.0072268909 -9.0909089e-05 -0.0040571429
-0.0045378152 -0.001 -0.0016571428
0.011596639 0.00027272728 -0.00028571425
-0.010420168 -0.00027272728 -0.0018285713
-0.013613446 0.001 -0.0016571428
-0.0075630252 -0.001 -0.0018285713
0.011260504 0.00081818184 -0.0018285713
0.017142856 9.0909089e-05 -0.0030285714
-0.013781512 0.001 -0.0011428571
0.0043697478 0.001 -0.0014857142
0.0026890757 0.001 -0.00011428568
-0.01394958 0.001 -0.0013142857
-0.0031932774 9.0909089e-05 0.00091428572
0.015630253 -0.00045454546 -0.0018285713
-0.012941176 0.001 -0.0013142857
-0.019831933 0.00027272728 -0.00028571425
-0.008067227 -0.00027272728 -0.0018285713
-0.00084033614 0.001 -0.0014857142
0.012941176 9.0909089e-05 -0.00011428568
0.0082352944 -0.001 -0.00062857138
-0.0094117643 -9.0909089e-05 -0.00011428568
0.0067226891 0.00063636363 -0.00011428568
-0.0035294117 0.001 -0.00097142853
-0.0011764705 -9.0909089e-05 0.0017714286
-0.0077310926 0.00027272728 -0.00011428568
0.00050420169 0.001 -0.0014857142
0.013445378 -0.00063636363 -0.00011428568
-0.0055462187 -0.00027272728 -0.0018285713
-0.014957983 9.0909089e-05 -0.0047428571
-0.016806724 9.0909089e-05 -0.0033714285
-0.018823529 0.00045454546 -0.00028571425
0.015798319 0.00081818184 -0.0018285713
0.0075630252 0.00045454546 -0.0018285713
0.0067226891 -0.001 -0.0013142857
-0.0040336135 9.0909089e-05 -0.00011428568
0 0.001 -0.0016571428
0.014285714 -0.001 -0.0016571428
0.014957983 -9.0909089e-05 5.714289e-05
-0.014117647 0.001 -0.00062857138
0.016470589 -0.001 -0.00079999998
-0.005042017 -9.0909089e-05 0.0012571429
0.017983193 0.001 -0.00079999998
0.017142856 -9.0909089e-05 0.00074285717
0.016470589 9.0909089e-05 -0.0018285713
-0.015630253 -0.00045454546 -0.0018285713
-0.0028571428 0.00027272728 -0.00011428568
0.0016806723 -0.001 -0.00011428568
0.018151261 0.001 -0.00097142853
-0.018991597 -0.001 -0.0016571428
-0.0070588235 0.001 -0.00045714283
-0.01394958 9.0909089e-05 -0.00011428568
-0.0075630252 0.00063636363 -0.0018285713
0.0084033618 0.001 -0.00079999998
-0.017142856 0.001 -0.00079999998
-0.0085714282 -0.001 -0.0018285713
-0.0070588235 -0.001 -0.00062857138
0.012268907 -0.00027272728 -0.00011428568
0.017142856 9.0909089e-05 -0.0049142856
-0.01512605 -9.0909089e-05 -0.0021714284
-0.018823529 -9.0909089e-05 0.0012571429
-0.00016806723 0.001 -0.0016571428
0.0070588235 -9.0909089e-05 -0.0047428571
-0.0011764705 9.0909089e-05 -0.0049142856
-0.017478991 -9.0909089e-05 -0.0018285713
0.018991597 -0.00081818184 -0.0018285713
-0.0092436979 -9.0909089e-05 5.714289e-05
-0.0045378152 0.00045454546 -0.00028571425
-0.011092437 9.0909089e-05 5.714289e-05
0.0031932774 9.0909089e-05 -0.0025142857
-0.0047058822 -0.00063636363 -0.0018285713
0.01697479 -9.0909089e-05 -0.0047428571
-0.0068907561 -9.0909089e-05 -0.0026857143
0.0089075631 9.0909089e-05 0.00040000002
0.017983193 0.00081818184 -0.0018285713
0.017142856 -9.0909089e-05 0.0010857143
-0.00016806723 0.00081818184 -0.0018285713
0.0070588235 9.0909089e-05 -0.0047428571
0.0057142857 -0.00081818184 -0.0018285713
0.0048739496 0.001 -0.0011428571
-0.013277311 0.00081818184 -0.0018285713
-0.0013445378 0.001 -0.0016571428
-0.0031932774 0.001 -0.00045714283
-0.0073949578 -0.00045454546 -0.0018285713
0.014453782 0.00081818184 -0.00011428568
0.0028571428 0.001 -0.0018285713
0.0013445378 -0.001 -0.0018285713
-0.016806724 0.00027272728 -0.0018285713
-0.019327732 -0.001 -0.0016571428
0.0047058822 -0.001 -0.00045714283
-0.00050420169 0.00063636363 -0.00011428568
0.014285714 -0.001 -0.0018285713
-0.016638655 -0.001 -0.0014857142
0.010756303 -0.001 -0.0018285713
-0.01512605 9.0909089e-05 -0.0030285714
0.0084033618 -9.0909089e-05 -0.0018285713
-0.01210084 -0.001 -0.00011428568
0.01697479 9.0909089e-05 0.0019428572
0.0087394956 -0.001 -0.0018285713
0.011092437 9.0909089e-05 -0.0052571427
0.01764706 -0.001 -0.00045714283
0.015294118 0.00063636363 -0.00011428568
0.0020168067 0.001 -0.0014857142
0.0013445378 0.001 -0.00079999998
0.0089075631 9.0909089e-05 -0.0021714284
-0.019327732 -0.00027272728 -0.00028571425
0.0063865548 0.001 -0.0018285713
-0.0010084034 9.0909089e-05 0.0021142857
0.00016806723 0.001 -0.0016571428
0.00084033614 9.0909089e-05 -0.0030285714
-0.0023529411 0.00027272728 -0.0018285713
-0.019159663 -9.0909089e-05 -0.0025142857
-0.0070588235 0.00045454546 -0.00028571425
-0.0010084034 9.0909089e-05 0.0019428572
-0.0068907561 -0.001 -0.0011428571
0.0053781513 -0.00081818184 -0.00011428568
-0.0058823531 -0.001 -0.00079999998
-0.016638655 -0.001 -0.0013142857
-0.011596639 0.001 -0.00097142853
0.015798319 0.001 -0.00079999998
0.019327732 -0.00081818184 -0.0013142857
-0.005042017 9.0909089e-05 -0.0038857141
-0.017478991 -9.0909089e-05 -0.00011428568
-0.0065546217 -0.00081818184 -0.00011428568
-0.00067226891 0.00081818184 -0.00011428568
-0.01697479 -9.0909089e-05 -0.0049142856
-0.00016806723 -0.001 -0.00045714283
-0.016134454 -9.0909089e-05 -0.00011428568
-0.010588235 0.001 -0.0014857142
-0.0070588235 -0.001 -0.0014857142
-0.014789916 0.001 -0.0011428571
-0.0031932774 -9.0909089e-05 0.0012571429
-0.0045378152 0.00027272728 -0.00011428568
-0.01092437 9.0909089e-05 -0.0042285714
-0.015630253 -0.001 -0.0016571428
0.018655462 0.00081818184 -0.00062857138
0.0052100839 -0.001 -0.00028571425
0.0055462187 -0.001 -0.0013142857
0.0011764705 9.0909089e-05 -0.0019999999
0.0011764705 9.0909089e-05 0.0014285714
-0.019831933 -0.00063636363 -0.0018285713
0.0036974789 -0.001 -0.00011428568
0.018487396 0.00063636363 -0.00011428568
0.013781512 0.001 -0.0014857142
0.0010084034 -9.0909089e-05 0.0010857143
-0.00605042 -0.001 -0.00045714283
-0.00067226891 -0.00063636363 -0.00011428568
-0.0028571428 -9.0909089e-05 -0.0044
0.0047058822 -0.001 -0.0013142857
-0.0043697478 -0.001 -0.00028571425
-0.0028571428 -9.0909089e-05 -0.0049142856
0.0057142857 -0.00063636363 -0.0018285713
-0.00033613446 9.0909089e-05 -0.00011428568
0.0025210085 -0.001 -0.00028571425
-0.0099159665 0.001 -0.0011428571
-0.0092436979 0.001 -0.00062857138
-0.0058823531 -0.001 -0.00062857138
-0.0089075631 -0.00063636363 -0.0018285713
0.0053781513 -0.001 -0.00079999998
-0.01512605 9.0909089e-05 -0.0045714285
0.0073949578 0.001 -0.00062857138
-0.0043697478 -0.001 -0.00097142853
0.019495798 -0.00081818184 -0.0013142857
0.005042017 9.0909089e-05 -0.0042285714
0.014957983 -9.0909089e-05 -0.0045714285
0.0099159665 0.00027272728 -0.0018285713
0.0026890757 9.0909089e-05 -0.00011428568
0.011260504 -0.001 -0.0011428571
-0.0020168067 -0.001 -0.00062857138
0.019831933 0.00081818184 -0.0011428571
-0.018319327 -0.00045454546 -0.0018285713
-0.01210084 0.00045454546 -0.0018285713
-0.017310925 0.001 -0.0013142857
-0.012941176 -9.0909089e-05 0.0016
0.017142856 9.0909089e-05 0.00040000002
-0.0084033618 -0.001 -0.00062857138
-0.011764706 0.001 -0.00062857138
-0.0067226891 -0.00063636363 -0.0018285713
0.01277311 0.001 -0.0013142857
0.019327732 -0.00081818184 -0.0018285713
-0.0031932774 -0.001 -0.0018285713
-0.00302521 -9.0909089e-05 0.00022857146
0.0010084034 -9.0909089e-05 0.0016
-0.014285714 0.00081818184 -0.00011428568
0.014285714 0.001 -0.00062857138
-0.012941176 0.001 -0.0011428571
-0.01092437 -0.00045454546 -0.0019999999
-0.00067226891 0.001 -0.00062857138
-0.0097478991 -0.001 -0.00011428568
-0.0031932774 0.001 -0.0014857142
0.0068907561 9.0909089e-05 -0.0049142856
-0.011428571 -0.001 -0.0018285713
-0.0072268909 -9.0909089e-05 -0.0025142857
0.0072268909 -0.001 -0.0011428571
-0.0011764705 9.0909089e-05 0.0014285714
-0.01512605 9.0909089e-05 -0.0028571428
-0.011092437 -0.00027272728 -0.0021714284
0.010588235 -0.00045454546 -0.0018285713
-0.01697479 -9.0909089e-05 -0.0052571427
0.014957983 -9.0909089e-05 -0.0052571427
-0.016806724 -9.0909089e-05 -0.0044
-0.0084033618 0.00027272728 -0.00011428568
0.013109243 0.001 -0.0014857142
-0.01630252 0.001 -0.00045714283
-0.015630253 9.0909089e-05 -0.00011428568
0.0058823531 0.00027272728 -0.00028571425
0.0010084034 -0.00027272728 -0.0019999999
0.014453782 0.00063636363 -0.00011428568
0.0036974789 0.00063636363 -0.00011428568
-0.0025210085 -0.00081818184 -0.00011428568
0.00302521 -9.0909089e-05 -0.0038857141
0 0.001 -0.00062857138
-0.0070588235 9.0909089e-05 -0.0023428572
0.01092437 -9.0909089e-05 -0.0028571428
-0.0043697478 -0.001 -0.0013142857
-0.0068907561 9.0909089e-05 -0.003542857
0.0095798317 0.00081818184 -0.0018285713
-0.011092437 -9.0909089e-05 5.714289e-05
-0.0075630252 0.00027272728 -0.0018285713
-0.018319327 -0.001 -0.00079999998
-0.010588235 0.00027272728 -0.00011428568
-0.0097478991 -0.001 -0.0013142857
-0.0089075631 -0.00081818184 -0.0018285713
-0.00605042 -0.001 -0.00028571425
0.01512605 -9.0909089e-05 -0.0025142857
0.014621849 0.00027272728 -0.00028571425
-0.00084033614 0.00027272728 -0.0018285713
-0.0026890757 -0.001 -0.0011428571
0.0070588235 -9.0909089e-05 -0.0021714284
-0.019159663 -9.0909089e-05 -0.0023428572
0.0062184874 -0.001 -0.00062857138
-0.013109243 9.0909089e-05 -0.0031999999
0.01210084 -0.001 -0.00045714283
0.01512605 -0.001 -0.0014857142
0.018991597 0.00081818184 -0.0011428571
-0.0011764705 9.0909089e-05 -0.0026857143
0.014957983 -0.001 -0.0013142857
-0.0067226891 0.00081818184 -0.00011428568
0.0095798317 -9.0909089e-05 -0.0018285713
0.0023529411 -9.0909089e-05 -0.0018285713
-0.017142856 -0.001 -0.00062857138
-0.0075630252 0.001 -0.0014857142
0.0011764705 9.0909089e-05 -0.0040571429
-0.00302521 -0.001 -0.00079999998
0.0038655463 -0.00045454546 -0.00028571425
-0.019831933 0.00027272728 -0.00079999998
-0.0062184874 0.00081818184 -0.0018285713
-0.016806724 0.001 -0.00028571425
-0.015966387 -0.00063636363 -0.0018285713
0.0040336135 0.00027272728 -0.0018285713
-0.012268907 -0.00063636363 -0.00011428568
0.01512605 0.00081818184 -0.00011428568
-0.0053781513 -9.0909089e-05 -0.00011428568
0.01277311 -0.001 -0.00097142853
0.015966387 -0.00081818184 -0.00011428568
-0.016638655 0.00045454546 -0.00028571425
0.0067226891 -0.001 -0.0018285713
0.013445378 0.001 -0.00097142853
-0.011932774 0.00027272728 -0.00011428568
0.02 -9.0909089e-05 -0.00079999998
-0.019831933 0.00045454546 -0.0013142857
-0.00302521 0.001 -0.00028571425
0.013781512 0.00081818184 -0.0018285713
-0.0043697478 0.00027272728 -0.0018285713
0.0010084034 0.001 -0.0018285713
-0.01764706 0.001 -0.0016571428
-0.014957983 -9.0909089e-05 0.00074285717
-0.012436975 -0.00027272728 -0.0018285713
0.014285714 0.001 -0.00045714283
-0.015798319 0.001 -0.0016571428
0.01092437 -9.0909089e-05 0.0022857143
0.01092437 9.0909089e-05 -0.0021714284
-0.014285714 0.00045454546 -0.0018285713
0.0084033618 0.001 -0.0013142857
-0.00050420169 -0.001 -0.0018285713
-0.012268907 0.00045454546 -0.0018285713
-0.0045378152 -0.00027272728 -0.00011428568
0.013109243 9.0909089e-05 -0.0038857141
0.017478991 0.00027272728 -0.00028571425
0.019831933 0.00081818184 -0.00062857138
-0.01764706 -0.001 -0.00079999998
0.016134454 0.00063636363 -0.0018285713
-0.012436975 0.001 -0.0013142857
-0.01210084 -0.00081818184 -0.0018285713
0.017142856 -9.0909089e-05 -0.0038857141
-0.0065546217 -0.001 -0.0013142857
-0.00302521 9.0909089e-05 0.0021142857
-0.019327732 0.001 -0.00079999998
0.0063865548 0.001 -0.0013142857
0.017983193 9.0909089e-05 -0.00011428568
0.014621849 0.001 -0.0013142857
0.012941176 0.001 -0.00028571425
0.011596639 -0.001 -0.0016571428
0.00084033614 0.00027272728 -0.0019999999
0.013277311 0.001 -0.00028571425
0.0090756305 -9.0909089e-05 -0.0040571429
-0.0047058822 0.001 -0.00097142853
0.0052100839 9.0909089e-05 -0.0019999999
0.0062184874 0.001 -0.0018285713
-0.001512605 -0.00027272728 -0.00011428568
0.012941176 9.0909089e-05 -0.0045714285
0.0058823531 -0.00045454546 -0.0018285713
-0.018991597 9.0909089e-05 -0.0033714285
0.0045378152 -0.001 -0.00028571425
0.017142856 -0.00081818184 -0.00011428568
0.017142856 0.00027272728 -0.00028571425
-0.015630253 0.00045454546 -0.00011428568
0.0048739496 -0.00063636363 -0.0018285713
-0.013613446 0.00045454546 -0.0018285713
-0.012436975 0.00045454546 -0.0018285713
-0.0026890757 0.001 -0.00079999998
0.014957983 -0.001 -0.00011428568
-0.019831933 9.0909089e-05 -0.00097142853
0.0090756305 -9.0909089e-05 0.0016
-0.0052100839 -9.0909089e-05 -0.0031999999
0.0102521 -0.001 -0.00045714283
-0.014117647 0.001 -0.00079999998
-0.0075630252 -0.00081818184 -0.00011428568
0.011764706 0.00081818184 -0.0018285713
0.011092437 -9.0909089e-05 0.0024571428
-0.01092437 -9.0909089e-05 -0.0040571429
-0.013109243 -9.0909089e-05 0.0021142857
-0.0068907561 9.0909089e-05 5.714289e-05
-0.0028571428 -9.0909089e-05 -0.0038857141
-0.0031932774 -9.0909089e-05 -0.0030285714
0.00084033614 0.001 -0.0014857142
0.0067226891 -0.00027272728 -0.00011428568
-0.015798319 0.001 -0.00079999998
-0.0016806723 0.00081818184 -0.00011428568
0.0057142857 -0.00081818184 -0.00011428568
-0.0065546217 0.00027272728 -0.00011428568
0.0062184874 0.001 -0.00011428568
-0.0057142857 0.00027272728 -0.0018285713
-0.016470589 -0.001 -0.0014857142
-0.0077310926 0.001 -0.0013142857
0.0077310926 -0.001 -0.0016571428
-0.01697479 0.001 -0.0014857142
-0.0070588235 0.00081818184 -0.00011428568
-0.019831933 0.00063636363 -0.0014857142
0.01697479 0.00081818184 -0.00011428568
0.017142856 0.00063636363 -0.00011428568
0.0011764705 9.0909089e-05 0.00022857146
-0.014621849 -0.001 -0.00097142853
-0.0035294117 0.00027272728 -0.0018285713
-0.00016806723 -0.001 -0.00097142853
-0.0052100839 -9.0909089e-05 0.0022857143
-0.01394958 0.00081818184 -0.0018285713
0.0097478991 -0.001 -0.0013142857
0.0043697478 0.001 -0.0011428571
0.0052100839 9.0909089e-05 0.0014285714
-0.0068907561 -9.0909089e-05 -0.0049142856
0.013277311 -0.001 -0.00097142853
-0.018319327 -0.001 -0.0014857142
0.01277311 -0.001 -0.0011428571
0.013277311 9.0909089e-05 -0.00011428568
0.00302521 -9.0909089e-05 0.0016
-0.0062184874 0.001 -0.0016571428
-0.0070588235 9.0909089e-05 0.0024571428
-0.015798319 -9.0909089e-05 -0.0018285713
0.0045378152 -0.001 -0.0013142857
0.013277311 -9.0909089e-05 5.714289e-05
-0.011260504 0.001 -0.0014857142
-0.017142856 9.0909089e-05 -0.0042285714
-0.0011764705 -0.001 -0.00011428568
0.012941176 9.0909089e-05 -0.0033714285
0.0073949578 0.00063636363 -0.0018285713
-0.0072268909 -9.0909089e-05 -0.0030285714
-0.0063865548 0.001 -0.00011428568
0.015966387 -0.00063636363 -0.0018285713
-0.0070588235 9.0909089e-05 0.0022857143
0.0070588235 -9.0909089e-05 -0.003542857
-0.018319327 -0.001 -0.0018285713
0.018319327 0.001 -0.00062857138
0.014957983 -0.00081818184 -0.00011428568
0.02 0.00045454546 -0.00079999998
-0.01512605 -9.0909089e-05 0.0012571429
-0.016806724 -9.0909089e-05 -0.0031999999
0.0040336135 -0.001 -0.0016571428
0.01277311 0.00027272728 -0.00028571425
-0.0042016809 0.00027272728 -0.00011428568
-0.0085714282 -0.001 -0.0016571428
0.0023529411 9.0909089e-05 -0.00011428568
-0.014285714 0.00045454546 -0.00011428568
0.010588235 0.00063636363 -0.0018285713
-0.0068907561 -0.001 -0.00028571425
-0.0089075631 -0.001 -0.00097142853
-0.0092436979 -0.001 -0.00062857138
-0.01697479 -0.001 -0.00097142853
-0.017310925 -0.00063636363 -0.0018285713
-0.015294118 -0.001 -0.0018285713
0.0053781513 -0.001 -0.00062857138
-0.017142856 0.001 -0.0016571428
-0.0084033618 -0.00027272728 -0.00011428568
0.019663865 -0.00063636363 -0.00028571425
-0.013613446 -0.001 -0.00011428568
-0.019327732 0.001 -0.00028571425
0.013445378 0.001 -0.0014857142
0.0095798317 -0.001 -0.00045714283
-0.014285714 0.00027272728 -0.0018285713
0.0084033618 0.00063636363 -0.0018285713
0.014957983 -0.001 -0.0014857142
0.0016806723 0.001 -0.00011428568
0.019495798 -0.00081818184 -0.00028571425
0.018991597 -0.00081818184 -0.0013142857
-0.012941176 -9.0909089e-05 -0.0031999999
-0.015798319 -0.001 -0.00028571425
0.0053781513 0.001 -0.00028571425
-0.0070588235 -9.0909089e-05 -0.0052571427
0.005042017 9.0909089e-05 0.0019428572
-0.0068907561 -0.00045454546 -0.0018285713
0.018655462 -9.0909089e-05 -0.0018285713
0.018991597 -9.0909089e-05 0.0024571428
-0.013613446 -0.001 -0.00062857138
0.012941176 0.001 -0.0018285713
-0.005042017 0.001 -0.0011428571
0.0033613446 -0.00063636363 -0.00011428568
0.013781512 -0.00063636363 -0.0018285713
0.0090756305 9.0909089e-05 0.00040000002
-0.0058823531 -0.00027272728 -0.0018285713
-0.011092437 -0.001 -0.0013142857
0.0048739496 0.00045454546 -0.0019999999
-0.013613446 0.00081818184 -0.0018285713
0.0013445378 -0.00081818184 -0.0018285713
0.017478991 0.00045454546 -0.00028571425
-0.008067227 -0.00027272728 -0.00011428568
-0.019159663 -9.0909089e-05 -0.0042285714
-0.017983193 -0.001 -0.00079999998
0.010084034 -0.001 -0.00079999998
0.019495798 -0.00081818184 -0.00045714283
0.018151261 0.001 -0.00045714283
0.0099159665 0.001 -0.0016571428
-0.013109243 9.0909089e-05 0.00091428572
0.018151261 0.00081818184 -0.00011428568
-0.0043697478 0.00045454546 -0.00028571425
0.019495798 0.00081818184 -0.00062857138
0.00302521 0.001 -0.0014857142
-0.014117647 0.001 -0.00045714283
0.0089075631 9.0909089e-05 0.0012571429
0.0067226891 -0.001 -0.00028571425
-0.01092437 0.001 -0.00097142853
-0.0072268909 -9.0909089e-05 0.0012571429
0.02 0.00063636363 -0.00045714283
-0.010756303 -0.00063636363 -0.00011428568
0.019159663 -9.0909089e-05 -0.0038857141
-0.0010084034 0.001 -0.0014857142
-0.01394958 9.0909089e-05 -0.0018285713
-0.019159663 -0.001 -0.0011428571
0.0063865548 9.0909089e-05 -0.00011428568
0.0089075631 0.001 -0.0014857142
0.005042017 9.0909089e-05 -0.0028571428
-0.00067226891 9.0909089e-05 -0.0018285713
0.001512605 0.001 -0.00045714283
-0.011260504 0.00063636363 -0.00011428568
0.018823529 0.00081818184 -0.0013142857
-0.0095798317 -0.001 -0.00011428568
0.001512605 -0.001 -0.0014857142
-0.01697479 9.0909089e-05 -0.0044
0.0028571428 -9.0909089e-05 0.00057142862
0.008067227 -0.001 -0.00011428568
-0.013781512 -0.001 -0.00045714283
0.0070588235 -0.00027272728 -0.0019999999
-0.0058823531 0.001 -0.0013142857
-0.0048739496 -9.0909089e-05 -0.0030285714
-0.0048739496 -0.001 -0.00011428568
-0.019327732 9.0909089e-05 -0.0018285713
-0.0089075631 -9.0909089e-05 0.00057142862
0.013613446 0.00081818184 -0.0018285713
0.018151261 -0.001 -0.0016571428
-0.010084034 0.001 -0.0018285713
0.0084033618 -0.001 -0.0011428571
-0.001512605 -0.001 -0.0011428571
0.01210084 0.001 -0.0013142857
0.0063865548 -0.001 -0.00097142853
0.015630253 0.001 -0.00028571425
-0.00016806723 0.001 -0.0014857142
-0.015294118 0.00027272728 -0.0018285713
-0.010756303 0.001 -0.00011428568
-0.0013445378 -0.001 -0.00079999998
0.016134454 -0.001 -0.00079999998
0.01277311 -0.001 -0.00062857138
-0.00302521 9.0909089e-05 -0.0049142856
0.0085714282 -0.001 -0.0011428571
-0.014957983 9.0909089e-05 -0.0049142856
-0.0042016809 9.0909089e-05 -0.00011428568
0.0045378152 -0.00045454546 -0.00028571425
-0.0052100839 -9.0909089e-05 -0.0025142857
-0.0013445378 0.001 -0.00011428568
-0.014957983 -0.001 -0.00097142853
0.015462185 -0.001 -0.0013142857
-0.00016806723 0.00045454546 -0.00028571425
0.015966387 -0.00063636363 -0.00011428568
0 0.00045454546 -0.0018285713
-0.0075630252 0.001 -0.00028571425
-0.0089075631 9.0909089e-05 0.00040000002
0.014285714 0.001 -0.00097142853
0.017478991 -0.001 -0.00079999998
0.017478991 0.001 -0.00045714283
-0.00302521 9.0909089e-05 -0.0025142857
-0.0010084034 -9.0909089e-05 5.714289e-05
-0.013109243 -0.001 -0.00011428568
-0.0013445378 0.00027272728 -0.0018285713
0.011596639 -0.001 -0.0018285713
0.008067227 -0.001 -0.0018285713
-0.0089075631 0.00027272728 -0.0019999999
-0.017983193 0.00045454546 -0.0018285713
0.013109243 9.0909089e-05 0.0021142857
-0.0036974789 -0.001 -0.00062857138
0.0095798317 -0.00081818184 -0.0018285713
-0.0010084034 -0.001 -0.00062857138
0.01277311 9.0909089e-05 -0.0021714284
0.0040336135 -0.001 -0.00062857138
-0.0048739496 9.0909089e-05 0.00091428572
-0.0063865548 -0.00063636363 -0.00011428568
-0.019159663 9.0909089e-05 -0.0047428571
-0.018487396 0.001 -0.00045714283
-0.0048739496 -9.0909089e-05 -0.0026857143
0.010588235 0.00081818184 -0.00011428568
-0.0048739496 -0.00045454546 -0.0019999999
-0.0040336135 -0.00081818184 -0.0018285713
0.017815126 0.001 -0.0018285713
0.0062184874 -0.00063636363 -0.0018285713
0.01764706 0.00027272728 -0.00028571425
-0.00084033614 0.001 -0.0011428571
0.0052100839 -0.001 -0.00097142853
-0.017478991 -0.001 -0.0011428571
-0.013109243 9.0909089e-05 -0.0042285714
0.0038655463 9.0909089e-05 -0.0018285713
-0.0062184874 0.00027272728 -0.00011428568
0.0057142857 0.00081818184 -0.0018285713
0.013109243 -9.0909089e-05 0.00091428572
0.00084033614 -9.0909089e-05 -0.0019999999
0.0078991596 0.001 -0.0013142857
-0.00084033614 9.0909089e-05 -0.003542857
0.00016806723 0.00081818184 -0.00011428568
-0.0053781513 -0.00081818184 -0.0018285713
0.013109243 0.00081818184 -0.0018285713
0.00033613446 -0.00027272728 -0.00011428568
0.0094117643 0.00063636363 -0.0018285713
0.014285714 -0.001 -0.00062857138
-0.011932774 0.00081818184 -0.00011428568
-0.013109243 -9.0909089e-05 0.00022857146
-0.0062184874 -0.00063636363 -0.00011428568
0.005042017 -9.0909089e-05 -0.0042285714
0.00084033614 -9.0909089e-05 -0.0023428572
0.0013445378 0.00027272728 -0.00011428568
-0.010756303 0.00063636363 -0.0018285713
-0.019831933 9.0909089e-05 -0.00045714283
0.014117647 0.001 -0.00045714283
0.013445378 -0.00045454546 -0.0018285713
-0.00067226891 -0.00045454546 -0.0018285713
-0.012605042 0.001 -0.0018285713
0.0070588235 9.0909089e-05 -0.0045714285
-0.0036974789 -0.001 -0.00097142853
-0.0094117643 -9.0909089e-05 -0.0018285713
0.012941176 0.001 -0.00097142853
-0.014285714 -0.001 -0.0013142857
-0.0090756305 -9.0909089e-05 0.0010857143
-0.01394958 -0.001 -0.00045714283
-0.010588235 0.001 -0.0011428571
0.0085714282 -9.0909089e-05 -0.0018285713
0.011260504 0.001 -0.00045714283
-0.01512605 -9.0909089e-05 -0.0023428572
0.014957983 -0.00045454546 -0.0018285713
-0.017815126 0.001 -0.00097142853
-0.0099159665 9.0909089e-05 -0.00011428568
0.015462185 0.00045454546 -0.00028571425
-0.019831933 -0.00081818184 -0.0018285713
0.0070588235 -9.0909089e-05 -0.0028571428
0.018151261 -0.00045454546 -0.00028571425
-0.0068907561 -9.0909089e-05 0.0019428572
0.012436975 0.001 -0.0014857142
-0.0011764705 9.0909089e-05 -0.0037142856
0.0070588235 0.001 -0.0016571428
0.0099159665 -0.001 -0.00028571425
-0.014621849 0.001 -0.00011428568
-0.005042017 9.0909089e-05 0.0010857143
-0.016470589 0.00081818184 -0.0018285713
0.014957983 -9.0909089e-05 -0.0021714284
0.01697479 0.00027272728 -0.0019999999
-0.014285714 -0.001 -0.00079999998
-0.0028571428 9.0909089e-05 -0.0025142857
0.005042017 0.00027272728 -0.0019999999
0.018991597 -9.0909089e-05 0.0010857143
0.01512605 9.0909089e-05 -0.0050857142
-0.0063865548 0.001 -0.0016571428
0.014453782 -0.001 -0.00097142853
-0.01512605 9.0909089e-05 5.714289e-05
0.019159663 0.00045454546 -0.00028571425
0.0038655463 -0.00081818184 -0.0018285713
0.0072268909 0.001 -0.0014857142
-0.015630253 0.001 -0.00045714283
0.011428571 -0.00063636363 -0.00011428568
0.018991597 -9.0909089e-05 -0.0040571429
-0.012436975 -0.001 -0.00011428568
-0.014789916 -0.00045454546 -0.00028571425
0.0028571428 9.0909089e-05 0.00091428572
0.0026890757 -0.00063636363 -0.00011428568
0.017310925 0.001 -0.0011428571
0.005042017 0.00045454546 -0.0018285713
-0.0028571428 -9.0909089e-05 0.0016
-0.0099159665 -0.001 -0.00011428568
-0.012605042 0.00063636363 -0.0018285713
0.00084033614 -0.001 -0.00097142853
-0.013109243 -9.0909089e-05 -0.0047428571
0.015798319 -0.001 -0.0016571428
-0.00302521 -9.0909089e-05 -0.0026857143
0.014285714 0.00045454546 -0.0018285713
-0.017478991 0.001 -0.0011428571
0.010588235 0.00081818184 -0.0018285713
-0.018319327 -0.001 -0.00011428568
-0.018991597 0.00027272728 -0.00011428568
0.0047058822 -0.00063636363 -0.00011428568
-0.0090756305 9.0909089e-05 0.0021142857
0.0072268909 -0.00063636363 -0.00011428568
0.012605042 -0.001 -0.0016571428
0.01630252 0.001 -0.0018285713
-0.0094117643 0.001 -0.00062857138
-0.010084034 0.001 -0.00028571425
-0.0055462187 0.00027272728 -0.00011428568
-0.0084033618 0.00081818184 -0.00011428568
-0.011260504 -0.001 -0.0014857142
-0.012268907 0.00063636363 -0.00011428568
-0.01092437 9.0909089e-05 0.00040000002
0.00302521 9.0909089e-05 -0.0047428571
-0.014621849 -0.00081818184 -0.00011428568
-0.011260504 0.001 -0.0016571428
-0.018487396 0.00063636363 -0.0018285713
-0.01512605 9.0909089e-05 -0.0026857143
0.0058823531 -0.00027272728 -0.0018285713
-0.0097478991 9.0909089e-05 -0.00011428568
0.0070588235 -9.0909089e-05 -0.0030285714
-0.00084033614 9.0909089e-05 -0.0023428572
-0.010420168 0.001 -0.00062857138
-0.010420168 -0.001 -0.00079999998
0.0085714282 -0.001 -0.0018285713
0.0097478991 0.001 -0.00079999998
-0.019159663 0.00081818184 -0.0018285713
-0.005042017 -0.001 -0.0013142857
0.014285714 -0.00081818184 -0.0018285713
0.010756303 -0.001 -0.0013142857
-0.00084033614 -0.001 -0.0013142857
-0.014789916 -0.001 -0.0014857142
-0.00302521 9.0909089e-05 0.00091428572
0.0057142857 -0.00045454546 -0.0018285713
0.0102521 -0.001 -0.0014857142
0.014957983 -9.0909089e-05 -0.0050857142
0.013277311 0.00027272728 -0.00028571425
0.00302521 -0.001 -0.0014857142
-0.010084034 -0.00027272728 -0.00011428568
-0.0033613446 9.0909089e-05 -0.0018285713
-0.0082352944 0.001 -0.0016571428
0.005042017 9.0909089e-05 5.714289e-05
0.014621849 0.00081818184 -0.0018285713
0.0082352944 0.001 -0.0018285713
0.01512605 -9.0909089e-05 0.0022857143
-0.0036974789 0.00063636363 -0.00011428568
0.018319327 -0.001 -0.0011428571
-0.018991597 -0.00063636363 -0.00011428568
-0.015462185 -0.00045454546 -0.00028571425
-0.01277311 0.00081818184 -0.0018285713
-0.012941176 9.0909089e-05 0.0010857143
0.0052100839 9.0909089e-05 0.00040000002
-0.016134454 -0.001 -0.0011428571
-0.0018487395 -0.001 -0.00028571425
-0.012941176 -0.001 -0.00045714283
-0.0045378152 0.00081818184 -0.0018285713
0.015462185 -9.0909089e-05 -0.0018285713
-0.017478991 -0.00063636363 -0.0018285713
0.010084034 0.00027272728 -0.0018285713
0.00033613446 -0.00063636363 -0.00011428568
-0.013109243 -0.00027272728 -0.00011428568
-0.010084034 9.0909089e-05 -0.0018285713
-0.00033613446 0.00045454546 -0.0018285713
-0.0011764705 0.00045454546 -0.00028571425
0.011764706 -0.00081818184 -0.0018285713
0.0070588235 -0.00045454546 -0.00028571425
-0.013109243 -9.0909089e-05 0.00057142862
-0.014117647 -0.001 -0.00062857138
-0.011596639 0.001 -0.00062857138
0.013109243 9.0909089e-05 -0.0023428572
0.0053781513 -9.0909089e-05 -0.0018285713
0.0018487395 -0.001 -0.00011428568
0.0067226891 9.0909089e-05 -0.0019999999
0.001512605 -0.001 -0.00079999998
0.019831933 -0.00063636363 -0.0011428571
0.0052100839 9.0909089e-05 -0.0033714285
-0.0077310926 0.001 -0.0014857142
0.011092437 -9.0909089e-05 0.0014285714
0.0058823531 0.001 -0.0011428571
-0.016806724 -0.00081818184 -0.0018285713
0.010084034 -0.001 -0.0014857142
0.019495798 0.00081818184 -0.00011428568
-0.0070588235 0.001 -0.00062857138
-0.018823529 -9.0909089e-05 -0.0050857142
-0.0062184874 -0.00081818184 -0.0018285713
-0.0033613446 0.00045454546 -0.0018285713
-0.0031932774 9.0909089e-05 -0.0021714284
-0.0033613446 0.001 -0.00045714283
0.001512605 -0.001 -0.0011428571
-0.0070588235 0.00063636363 -0.00011428568
-0.011092437 -0.001 -0.00011428568
0.0028571428 -9.0909089e-05 0.0017714286
0.0090756305 -9.0909089e-05 -0.0031999999
0.00302521 -9.0909089e-05 -0.0047428571
0.00084033614 0.001 -0.0016571428
-0.018151261 -0.001 -0.00097142853
0.0016806723 0.00081818184 -0.00011428568
0.016806724 -0.00045454546 -0.00028571425
0.018319327 0.00063636363 -0.0018285713
0.0072268909 0.001 -0.00097142853
0.014957983 9.0909089e-05 0.0010857143
0.0010084034 9.0909089e-05 -0.0026857143
0.01210084 -0.001 -0.0016571428
0.0057142857 0.00027272728 -0.0018285713
0.0035294117 -0.001 -0.00011428568
-0.014621849 0.00063636363 -0.0018285713
-0.0033613446 0.001 -0.00011428568
0.0048739496 9.0909089e-05 -0.00011428568
-0.010084034 0.001 -0.0016571428
-0.014789916 -9.0909089e-05 0.0022857143
0.011764706 -0.001 -0.00097142853
0.005042017 9.0909089e-05 -0.0031999999
0.018151261 0.001 -0.0014857142
0.0011764705 -0.001 -0.00011428568
0.0095798317 0.00063636363 -0.0018285713
0.0028571428 9.0909089e-05 -0.0026857143
0.013781512 -0.001 -0.00011428568
-0.0090756305 -0.001 -0.00045714283
0.018991597 0.00081818184 -0.00045714283
0.0025210085 0.001 -0.0016571428
-0.011428571 0.00063636363 -0.0018285713
0.015462185 -0.001 -0.0011428571
-0.0089075631 9.0909089e-05 -0.0033714285
-0.019495798 0.00027272728 -0.00028571425
0.02 0.00027272728 -0.0011428571
