# .PCD v0.7 - Point Cloud Data file format
VERSION 0.7
FIELDS x y z
SIZE 4 4 4
TYPE F F F
COUNT 1 1 1
WIDTH 1202
HEIGHT 1
VIEWPOINT 0 0 0 1 0 0 0
POINTS 1202
DATA ascii
-0.0032488373 0.00636 -0.0036857142
0.00016244187 -0.0024461537 -0.00089285715
0.0095840702 -0.0035876923 -0.0031928571
0.00877186 -0.0017938461 -0.0027000001
0.010883605 0.0060338462 -0.0010571429
-0.0042234883 0.0032615385 -0.00089285715
0.00032488373 0.0037507692 -0.0033571429
-0.010721163 0.0045661535 -0.0040142857
0.0025990698 0.0029353846 -0.0010571429
-0.00438593 -0.0030984615 -0.0013857143
0.0074723256 -0.00636 0.0019
-0.0097465115 0.0021199998 -0.00155
0.010396279 0.0029353846 -0.0010571429
0.004710814 -0.0057076924 -7.1428571e-05
-0.013157791 -0.0050553842 -0.0036857142
-0.0038986045 -0.005544615 -0.0040142857
0.00048732557 -0.00636 -0.00155
0.0021117441 -0.0019569229 -0.0048357141
0.0084469765 -0.0061969231 -0.0013857143
-0.012508024 0.0047292304 -0.0035214287
-0.0095840702 -0.0014676923 -7.1428571e-05
-0.0084469765 0.00048923073 -0.0025357143
0.0029239536 0.0044030766 -0.0041785715
0.00877186 -0.00636 -0.00089285715
0.00048732557 -0.00636 -0.0018785715
0.012832907 0.0035876923 -0.0035214287
0.0037361628 -0.0030984615 -0.00056428573
0.0053605814 -0.0060338462 0.00025714285
-0.0063352324 -0.0045661535 -0.0031928571
-0.0053605814 0.0013046153 -0.0043428573
-0.0073098838 0.00065230764 -0.00155
0.0063352324 0.00097846147 -0.0031928571
0.011695814 0.0048923073 -0.0010571429
0.0074723256 0.00048923073 -0.0030285714
0.010558721 0.0037507692 -0.0013857143
-0.0095840702 -0.0021199998 -0.00023571428
0.0021117441 -0.0026092306 -0.0041785715
-0.0092591858 -0.0017938461 -0.0022071428
-0.0061727907 -0.0060338462 -0.00385
-0.003573721 0.0013046153 -0.00155
0.0048732557 0.0035876923 -0.00155
0.0050356975 -0.0039138459 0.0025571429
0.012995349 -0.005544615 -0.0028642856
0.011046046 0.0040769228 -0.0035214287
0.011858256 0.00016307691 -0.0048357141
0.0011370931 -0.0017938461 -0.0033571429
-0.010233837 0.0029353846 -0.0013857143
0.012508024 0.0061969231 -0.0013857143
-0.012670465 -0.0034246154 -0.0013857143
-0.00877186 -0.0061969231 -7.1428571e-05
0.0051981397 -0.00097846147 -0.0048357141
0.0079596508 -0.0058707693 0.0012428572
-0.00016244187 -0.0057076924 -0.0040142857
-0.0068225581 0.0048923073 -0.0040142857
-0.0055230232 -0.00081538461 -0.0048357141
-0.012508024 -0.00636 0.0023928571
0.011208489 -0.0024461537 -0.00155
-0.00081220933 -0.0016307692 -0.0022071428
0.0066601164 0.0022830768 -0.0033571429
-0.0086094188 0.0039138459 -0.0040142857
-0.0058479072 0.00048923073 -0.00072857144
-0.012995349 -0.0053815381 -0.0022071428
0.0045483722 0.0057076924 -0.0010571429
0.00016244187 -0.005544615 -0.0017142857
-0.0025990698 -0.00636 0.0017357143
0.0053605814 0.0061969231 -0.0035214287
0.00438593 0.0044030766 -0.0041785715
0.00877186 -0.00636 -0.00385
-0.010396279 -0.0032615385 -0.0031928571
0.0063352324 -0.0032615385 -0.0041785715
-0.012670465 -0.0027723075 -0.00089285715
0.00877186 0.00048923073 -0.0017142857
-0.00097465114 -0.00048923073 -0.00023571428
-0.00016244187 -0.0034246154 0.0025571429
0.00048732557 0.0022830768 -0.0041785715
0.0024366279 -0.0026092306 -0.00089285715
-0.0090967445 -0.0030984615 -0.00056428573
0.0077972091 -0.0017938461 -0.0020428572
0.009421628 0.0014676923 -0.0033571429
-0.0071474421 0.00048923073 -0.0045071431
-0.0071474421 -0.0021199998 -0.0045071431
-0.0016244187 -0.00636 -0.00385
0.0038986045 0.00048923073 -0.00023571428
-0.0032488373 0.005544615 -0.0040142857
0.012345581 0.005544615 -0.00385
-0.0086094188 -0.0016307692 -0.0018785715
-0.0079596508 -0.0024461537 -0.0043428573
0.0064976746 0.005544615 -0.00385
0.010558721 -0.0061969231 -0.0027000001
-0.0074723256 -0.0014676923 -7.1428571e-05
0.0069849999 0.0026092306 -0.00155
0.00081220933 -0.0016307692 -0.0025357143
-0.0050356975 -0.00636 -0.0028642856
0.00438593 -0.00032615382 -7.1428571e-05
0.011533372 0.00048923073 -0.00056428573
-0.0048732557 0.0057076924 -0.0013857143
-0.0051981397 0.0037507692 -0.0010571429
0 0.0027723075 -0.00089285715
0.003573721 0.00048923073 -0.0031928571
0.0089343023 -0.0034246154 -0.00023571428
0.0099089537 0.0040769228 -0.0013857143
0.0079596508 -0.0037507692 -0.0012214286
0.0056854649 0.00048923073 -0.0025357143
0 0.00081538461 -0.0041785715
0.010396279 -0.0061969231 -0.00155
0.013157791 0.0029353846 -0.0035214287
0.013645116 0.0027723075 -0.0040142857
0.0021117441 0.0052184612 -0.0010571429
-0.00048732557 0.0060338462 -0.0013857143
0.0029239536 -0.0016307692 -0.00072857144
0.010721163 0.0029353846 -0.0010571429
-0.0056854649 -0.0026092306 -0.00089285715
-0.012183139 0.0050553842 -0.0035214287
0.013482674 -0.0026092306 -0.0035214287
-0.0037361628 0.0058707693 -0.0013857143
0.0079596508 -0.0037507692 -0.0040142857
0.0068225581 -0.0058707693 -7.1428571e-05
-0.011046046 0.0037507692 -0.0035214287
0.012183139 -0.0060338462 -0.0031928571
-0.0073098838 -0.0053815381 -0.0010571429
-0.0074723256 0.0061969231 -0.0036857142
-0.0030863953 0.0026092306 -0.0033571429
0.0014619768 0.0053815381 -0.0040142857
-0.0017868605 -0.0013046153 -7.1428571e-05
0.0032488373 -0.0039138459 -0.0033571429
0.0027615116 0.00636 -0.0036857142
-0.004710814 -0.00636 -0.00385
-0.0038986045 0.0035876923 -0.00155
0.012832907 -0.0032615385 0.00042142856
-0.0063352324 0.0040769228 -0.0033571429
-0.0060103489 0.0047292304 -0.0040142857
-0.00877186 0.00048923073 -0.0028642856
0.0077972091 0.0050553842 -0.0010571429
-0.0076347673 -0.0053815381 -0.00039999999
-0.0099089537 0.0050553842 -0.0010571429
0.00081220933 0.0021199998 -0.0033571429
-0.0027615116 -0.0032615385 0.00091428572
-0.0073098838 0.0022830768 -0.0033571429
0.011046046 -0.0011415384 -7.1428571e-05
-0.0090967445 0.00081538461 -0.00089285715
0.0074723256 0.0026092306 -0.00155
0.0024366279 -0.005544615 0.0019
-0.0060103489 -0.0029353846 -0.0043428573
0.0022741861 -0.0035876923 -0.0013857143
0.0040610465 -0.005544615 -0.0013857143
0.012345581 0.00048923073 -0.00039999999
0.0058479072 -0.0016307692 -0.0020428572
-0.0030863953 0.0024461537 -0.0010571429
0 -0.0039138459 0.0017357143
-0.0034112791 0.0034246154 -0.00155
-0.013482674 -0.0039138459 -0.00385
0.0082845353 -0.00636 -0.0035214287
-0.0016244187 0.0053815381 -0.0010571429
0.0034112791 0.0027723075 -0.0010571429
-0.0034112791 -0.0024461537 -0.00089285715
0.0025990698 -0.0021199998 -0.00155
-0.0069849999 -0.0060338462 -0.00385
-0.011533372 -0.0053815381 -0.0035214287
-0.0024366279 -0.0037507692 -0.0010571429
-0.0042234883 0.0060338462 -0.0035214287
0.0051981397 0.0019569229 -0.0031928571
-0.012995349 -0.0060338462 -0.00155
-0.0019493023 0.0030984615 -0.00089285715
-0.0027615116 -0.0016307692 -0.0023714285
-0.0030863953 -0.0060338462 -7.1428571e-05
-0.0027615116 -0.0022830768 -0.00155
-0.0073098838 -0.0042399997 -0.0031928571
0.0077972091 -0.0053815381 -0.0022071428
0.0021117441 -0.0030984615 -0.00039999999
-0.012832907 -0.0021199998 -0.0046714284
-0.00877186 -0.0053815381 -0.00039999999
0.011046046 -0.0029353846 -0.00023571428
-0.0032488373 0.0011415384 -0.00089285715
0.00438593 -0.0013046153 -0.0048357141
-0.0048732557 0.0016307692 -0.0031928571
-0.0053605814 -0.0030984615 -0.0031928571
-0.0032488373 0.0037507692 -0.0033571429
0.0063352324 0.0024461537 -0.0010571429
0.0045483722 0.0014676923 -0.00089285715
0.0029239536 -0.0061969231 9.2857146e-05
-0.0040610465 0.0050553842 -0.0040142857
0.012345581 0.0047292304 -0.0013857143
-0.0082845353 -0.0061969231 -0.00385
-0.0068225581 -0.0053815381 -0.0020428572
-0.013157791 0.00081538461 -0.00089285715
0.0092591858 -0.0053815381 -0.0028642856
-0.013807558 -0.0019569229 -0.0033571429
0.0042234883 -0.0039138459 -7.1428571e-05
-0.0084469765 0.00636 -0.0012214286
0.012832907 -0.00636 -0.00056428573
-0.0040610465 0.0057076924 -0.0010571429
0.0074723256 -0.0030984615 -0.0041785715
-0.0068225581 -0.0037507692 -0.0031928571
0.00048732557 -0.0035876923 -0.0041785715
0.0019493023 0.00065230764 -0.0041785715
-0.010233837 -0.005544615 0.0005857143
0.0025990698 0.00048923073 -0.0048357141
-0.003573721 -0.0017938461 -0.0033571429
-0.0095840702 -0.0042399997 -0.0040142857
-0.010071395 0.0048923073 -0.0035214287
0.0040610465 0.0019569229 -0.00089285715
0.013157791 -0.0017938461 -0.0020428572
0.012020698 -0.0017938461 -0.0018785715
-0.012832907 -0.0057076924 9.2857146e-05
-0.0029239536 0.0014676923 -0.0033571429
-0.0016244187 -0.0021199998 -7.1428571e-05
0.010233837 -0.0024461537 -0.00155
0.0032488373 0.00048923073 -7.1428571e-05
-0.0021117441 0.0061969231 -0.0010571429
-0.0042234883 0.0044030766 -0.0033571429
0.00048732557 0.00048923073 -7.1428571e-05
0.0034112791 0.00065230764 -0.00089285715
0.012832907 0.0047292304 -0.0013857143
-0.0092591858 -0.0032615385 -7.1428571e-05
-0.010883605 -0.0060338462 -0.00056428573
0.0030863953 -0.0016307692 -0.0027000001
0.012670465 0.00065230764 -0.00155
0.00048732557 -0.0039138459 -0.0041785715
0.0040610465 0.00081538461 -0.00155
-0.010883605 0.0060338462 -0.0013857143
0.008122093 -0.0022830768 -0.00155
0.0068225581 0.00048923073 -0.0028642856
-0.0029239536 -0.005544615 -0.0027000001
0.0027615116 -0.0037507692 -0.0010571429
-0.0053605814 0.0057076924 -0.0013857143
0.0056854649 0.00636 -0.00385
-0.0060103489 0.0045661535 -0.0010571429
0.012183139 0.0029353846 -0.0040142857
0.0022741861 0.0044030766 -0.0010571429
0.0079596508 0.0057076924 -0.0010571429
0.013157791 0.00081538461 -0.0040142857
-0.0012995349 -0.00048923073 -0.0048357141
0.0034112791 0.00048923073 -0.0025357143
-0.00438593 -0.005544615 -0.0013857143
-0.0012995349 0.0060338462 -0.0013857143
0.00097465114 -0.00636 -0.00155
-0.012020698 0.00636 -0.0012214286
-0.00438593 0.0030984615 -0.0040142857
0.0037361628 -0.005544615 -0.00056428573
-0.011046046 -0.0053815381 -0.00155
-0.0095840702 0.00081538461 -0.00155
0.0019493023 -0.005544615 -0.00056428573
-0.0037361628 0.00065230764 -0.0033571429
-0.012020698 -0.0034246154 -0.0033571429
0.00097465114 -0.005544615 -0.0012214286
-0.00438593 -0.0037507692 -7.1428571e-05
0.0050356975 -0.0030984615 0.00091428572
0.0064976746 0.0021199998 -0.00155
0.01137093 0.0052184612 -0.0013857143
-0.012670465 0.0047292304 -0.0010571429
-0.0045483722 0.0050553842 -0.0010571429
-0.0089343023 -0.0053815381 -0.00072857144
-0.0021117441 0.00048923073 -0.0020428572
-0.0099089537 -0.0013046153 -0.0048357141
0.0073098838 -0.0035876923 0.0010785714
-0.0073098838 0.0057076924 -0.0035214287
-0.0061727907 0.0030984615 -0.00089285715
-0.012995349 -0.0034246154 0.00042142856
0.0084469765 -0.0060338462 -0.0018785715
0.00097465114 -0.0024461537 -0.00089285715
-0.00081220933 0.0022830768 -0.0033571429
-0.010721163 -0.0030984615 -0.0040142857
0.0068225581 -0.0057076924 -7.1428571e-05
0.0069849999 -0.0030984615 -0.00155
-0.0019493023 0.0014676923 -0.0033571429
-0.0032488373 -0.00097846147 -0.0048357141
0.0040610465 0.0058707693 -0.0010571429
0.013645116 0.00048923073 -0.0045071431
0.0079596508 -0.0021199998 -0.0048357141
0.0092591858 0.0061969231 -0.0010571429
-0.010558721 -0.0019569229 -0.00155
0.0058479072 -0.00636 -0.0036857142
0.012995349 0.0052184612 -0.0040142857
-0.012020698 -0.0022830768 -0.0040142857
0.0064976746 -0.00636 -0.0033571429
-0.0055230232 -0.00636 -0.00072857144
0.0068225581 0.00636 -0.0010571429
0.0079596508 0.0042399997 -0.0013857143
0.0022741861 -0.0037507692 0.0022285713
-0.0064976746 0.0058707693 -0.0010571429
-0.0066601164 -0.0048923073 -0.0040142857
0.013320233 0.0047292304 -0.0010571429
-0.011208489 -0.0017938461 -0.0028642856
-0.0066601164 0.0013046153 -0.0043428573
-0.0034112791 -0.0027723075 -0.00155
-0.0084469765 -0.00097846147 -0.0048357141
-0.0030863953 -0.0030984615 -0.0041785715
0.0061727907 -0.0019569229 -0.00056428573
-0.011533372 0.0026092306 -0.0013857143
0.0058479072 -0.0011415384 -7.1428571e-05
0.0060103489 -0.0061969231 -7.1428571e-05
-0.00032488373 -0.0035876923 0.0015714286
0.003573721 -0.0039138459 -0.00039999999
-0.0019493023 -0.0034246154 -0.0041785715
-0.0011370931 0.0039138459 -0.0010571429
0.0025990698 -0.00636 -0.0036857142
-0.0048732557 -0.0035876923 0.0005857143
-0.012345581 -0.0030984615 -0.0013857143
0.00016244187 0.0021199998 -0.00089285715
-0.00064976746 -0.0026092306 -0.0041785715
0.0058479072 -0.0016307692 -0.00072857144
0.0019493023 0.0045661535 -0.0041785715
0.0019493023 -0.0019569229 -0.0048357141
0.0079596508 -0.0034246154 0.0005857143
-0.003573721 0.0032615385 -0.00155
0.0021117441 0.0039138459 -0.0033571429
0.0016244187 0.00048923073 -0.0046714284
-0.011695814 -0.0050553842 -0.0035214287
-0.0027615116 0.0052184612 -0.0040142857
-0.00048732557 0.00032615382 -0.0048357141
-0.010396279 -0.0052184612 -0.00385
0.0051981397 0.00048923073 -0.0020428572
-0.0038986045 0.00081538461 -0.00089285715
0.0090967445 0.00048923073 -0.0020428572
-0.011208489 -0.0022830768 -0.00155
0.0024366279 -0.0042399997 -0.0033571429
-0.0019493023 0.0027723075 -0.0033571429
0.0071474421 -0.0057076924 -0.00385
-0.0068225581 0.005544615 -0.00385
-0.0050356975 0.0027723075 -0.0033571429
-0.010721163 0.0060338462 -0.0010571429
-0.0090967445 0.0014676923 -0.0010571429
-0.0077972091 0.00048923073 -0.0027000001
0.01397 -0.00081538461 -0.0043428573
0.009421628 0.0061969231 -0.0013857143
-0.012183139 0.0011415384 -0.0040142857
0.0011370931 -0.0014676923 -7.1428571e-05
0.0032488373 0.0021199998 -0.0041785715
-0.009421628 -0.0011415384 -7.1428571e-05
-0.009421628 -0.00636 -0.0022071428
0.0074723256 -0.0022830768 -0.00089285715
-0.009421628 0.0026092306 -0.00155
-0.00438593 0.0047292304 -0.0010571429
0.011208489 -0.0050553842 -0.00385
-0.013807558 0 -0.00056428573
-0.0053605814 -0.0027723075 -0.0043428573
-0.0050356975 -0.0019569229 -0.00155
0.0066601164 -0.0039138459 -0.0010571429
0 -0.0024461537 -0.00155
0.0060103489 0.0058707693 -0.0010571429
-0.0092591858 -0.0048923073 -0.0040142857
0.0011370931 -0.00636 -7.1428571e-05
0.0042234883 -0.0047292304 -0.0041785715
0.010396279 0.00065230764 -0.00089285715
-0.010396279 -0.0060338462 0.0015714286
0.0068225581 0.0045661535 -0.0013857143
-0.0069849999 -0.005544615 -0.0031928571
-0.0051981397 -0.0052184612 -0.0031928571
-0.00064976746 -0.0035876923 -7.1428571e-05
0.010721163 -0.0026092306 -0.00155
-0.0084469765 -0.0017938461 -0.0028642856
0.0084469765 0.0040769228 -0.0040142857
0.0027615116 -0.0019569229 -0.00056428573
-0.0056854649 -0.0021199998 -0.00155
0.0063352324 0.00048923073 -0.00023571428
-0.0017868605 -0.005544615 -0.0012214286
-0.0063352324 0.0029353846 -0.00089285715
0.0084469765 -0.0017938461 -0.0027000001
0.0074723256 -0.0019569229 -0.0031928571
-0.0074723256 0.0060338462 -0.00385
0.0090967445 -0.0053815381 -0.00023571428
0.011046046 -0.005544615 -7.1428571e-05
-0.0097465115 0.0047292304 -0.0013857143
-0.003573721 -0.0022830768 -0.00155
0.003573721 -0.0019569229 -0.0045071431
0.013157791 -0.0029353846 -0.00072857144
0.0055230232 -0.0017938461 -0.00056428573
-0.0051981397 -0.0039138459 0.00075000001
-0.004710814 -0.0026092306 -0.00089285715
-0.0014619768 0.0057076924 -0.0040142857
-0.0042234883 -0.0048923073 -0.0041785715
-0.0037361628 -0.0053815381 -0.0031928571
0.0095840702 -0.005544615 -0.0010571429
-0.010233837 0.0042399997 -0.0035214287
0.0056854649 -0.00636 -0.0023714285
0.0019493023 -0.00097846147 -0.0048357141
-0.0063352324 0.0027723075 -0.0041785715
0.0030863953 -0.00636 -0.0028642856
0.0045483722 0.0035876923 -0.0033571429
0.01137093 -0.00048923073 -0.00023571428
-0.0064976746 0.00097846147 -0.0031928571
-0.0038986045 0.00636 -0.0013857143
-0.0038986045 -0.0039138459 -0.00072857144
0.011046046 0.0030984615 -0.0040142857
-0.010233837 -0.0044030766 -0.0031928571
0.012995349 -0.0035876923 -0.00039999999
0.010071395 0.0022830768 -0.00155
0.012020698 0.0019569229 -0.0035214287
-0.0074723256 0.0035876923 -0.0033571429
0.0048732557 -0.0057076924 0.0022285713
-0.0012995349 -0.0019569229 -0.0033571429
-0.0082845353 0.0057076924 -0.00385
-0.0069849999 0.0016307692 -0.0033571429
-0.0060103489 -0.00065230764 -7.1428571e-05
-0.012995349 -0.0060338462 -0.0010571429
0.012183139 0.0039138459 -0.0013857143
0.0016244187 -0.0032615385 -0.0041785715
0.012345581 -0.0029353846 -0.00072857144
-0.0021117441 -0.0019569229 -0.0043428573
-0.0053605814 0.0027723075 -0.0041785715
0.0071474421 0.00048923073 -0.00039999999
0.012995349 -0.0060338462 -0.0025357143
-0.00032488373 -0.0032615385 0.0023928571
0 -0.0027723075 -0.00155
-0.01137093 -0.0021199998 -0.0041785715
-0.00048732557 -0.0027723075 -0.0033571429
-0.004710814 -0.0030984615 -0.00023571428
-0.0058479072 0.0014676923 -0.0031928571
0.0077972091 -0.00636 -0.0010571429
0.0051981397 -0.0032615385 -0.0031928571
0.012345581 -0.0060338462 0.0022285713
0.012995349 -0.0017938461 -0.0028642856
-0.012995349 -0.0060338462 0.0015714286
0.003573721 0.0061969231 -0.0035214287
-0.0022741861 -0.0026092306 -0.00155
0.0029239536 -0.0039138459 -0.00089285715
0.011533372 0.0045661535 -0.0040142857
0.0022741861 0.00048923073 -7.1428571e-05
-0.0037361628 -0.0034246154 -0.0033571429
0.0032488373 0.0042399997 -0.0010571429
0.0056854649 0.00097846147 -0.00155
0.0060103489 0.0053815381 -0.0033571429
0.011533372 0.0050553842 -0.0013857143
0.012832907 -0.0057076924 -0.00089285715
0.009421628 -0.00636 -0.0028642856
0.003573721 -0.0040769228 -0.0041785715
0.0017868605 -0.0048923073 -0.0033571429
0.00877186 0.00048923073 -0.0048357141
0.0086094188 -0.0039138459 -0.0040142857
-0.0053605814 -0.0057076924 0.0025571429
-0.013645116 0.0029353846 -0.0036857142
0.0022741861 -0.0035876923 0.0023928571
-0.0037361628 0.0039138459 -0.0033571429
-0.00032488373 -0.0013046153 -0.0048357141
-0.0064976746 0.0042399997 -0.0010571429
0.0025990698 -0.0050553842 -0.0033571429
0.011208489 -0.0053815381 -0.0017142857
-0.010071395 0.00097846147 -0.00089285715
0.0071474421 -0.0053815381 -0.00155
0.0038986045 0.0022830768 -0.0041785715
0.0024366279 -0.005544615 0.0010785714
-0.0086094188 -0.00097846147 -0.00023571428
0.0055230232 -0.00636 -0.00056428573
-0.0090967445 -0.0030984615 -0.0040142857
-0.0079596508 -0.0035876923 -0.0031928571
-0.013482674 -0.0040769228 -0.0036857142
-0.0073098838 -0.0037507692 0.0015714286
-0.008122093 0.0042399997 -0.0010571429
0.0040610465 0.0017938461 -0.0041785715
0.0063352324 0.00065230764 -0.00155
0.0029239536 0.0019569229 -0.00155
-0.01137093 -0.0045661535 -0.0035214287
0.0034112791 0.0044030766 -0.0010571429
0.0034112791 0.0032615385 -0.00155
0.0074723256 0.0050553842 -0.0013857143
-0.0079596508 -0.0035876923 0.00075000001
0.0086094188 -0.00081538461 -7.1428571e-05
-0.00032488373 -0.0035876923 0.0017357143
0.0022741861 -0.0061969231 9.2857146e-05
-0.0092591858 -0.0057076924 -7.1428571e-05
-0.012508024 0.0060338462 -0.0036857142
-0.012183139 -0.00636 -0.00155
0.00081220933 -0.0019569229 -0.0045071431
0.013807558 -0.00048923073 -0.00023571428
-0.00097465114 0.00636 -0.0010571429
0.012995349 -0.0037507692 0.00042142856
0.013807558 -0.0022830768 -0.00089285715
0.0060103489 0.0052184612 -0.0013857143
0.0084469765 0.005544615 -0.0035214287
0.0040610465 -0.00065230764 -0.0048357141
0.0038986045 0.0030984615 -0.0041785715
-0.013157791 0.0050553842 -0.00385
-0.0084469765 0.005544615 -0.0013857143
-0.0090967445 -0.0058707693 -0.0012214286
0.010721163 -0.0016307692 -0.0048357141
-0.0045483722 -0.00636 -7.1428571e-05
0.010558721 -0.0061969231 -0.0017142857
-0.0048732557 -0.0039138459 -0.00072857144
0.011533372 0.0014676923 -0.0033571429
0.0038986045 -0.0030984615 -0.00023571428
-0.01397 -0.00048923073 -0.0043428573
-0.010558721 -0.0061969231 -0.00056428573
0.012508024 0.0035876923 -0.0013857143
-0.0055230232 0.0027723075 -0.00155
-0.00081220933 0.0042399997 -0.0033571429
-0.0038986045 -0.0053815381 -0.0040142857
0.011208489 0.005544615 -0.0010571429
-0.0066601164 -0.0053815381 -0.00385
-0.0030863953 -0.0058707693 -7.1428571e-05
-0.010071395 0.0044030766 -0.0035214287
-0.004710814 -0.005544615 -0.00056428573
-0.010071395 0.0053815381 -0.0010571429
0.0024366279 -0.0030984615 -0.00039999999
0.012670465 0.0044030766 -0.0010571429
0.012183139 -0.0034246154 -0.0035214287
-0.0073098838 -0.00016307691 -0.0048357141
-0.01137093 -0.0053815381 -0.00056428573
-0.0016244187 -0.00016307691 -0.0048357141
0.0053605814 -0.00636 0.0005857143
-0.013807558 -0.0021199998 -0.00385
0.010071395 0.00048923073 -0.0018785715
-0.0025990698 0.00048923073 -0.00023571428
-0.013807558 -0.00016307691 -0.0020428572
-0.0063352324 -0.0026092306 -0.00089285715
-0.012670465 0.0057076924 -0.0010571429
0.0050356975 -0.0014676923 -7.1428571e-05
-0.0095840702 0.0013046153 -0.0041785715
0.012670465 -0.00016307691 -7.1428571e-05
-0.0071474421 -0.0024461537 -0.00089285715
-0.0064976746 -0.00636 -0.0023714285
-0.0056854649 -0.005544615 -0.0025357143
-0.0048732557 -0.0035876923 0.0012428572
0.010396279 -0.0017938461 -0.0028642856
-0.011858256 0.00048923073 -0.0027000001
0.0012995349 -0.0021199998 -0.00089285715
0.0045483722 0.00636 -0.0013857143
-0.0051981397 0.0053815381 -0.0010571429
0.0045483722 -0.005544615 -0.00385
-0.012345581 0.0013046153 -0.0035214287
-0.0040610465 -0.0030984615 -7.1428571e-05
-0.0016244187 -0.00636 -0.0018785715
0.0073098838 0.0034246154 -0.00155
-0.0056854649 -0.0017938461 -7.1428571e-05
0.0074723256 -0.00636 0.0010785714
-0.0066601164 -0.005544615 -0.0023714285
0.011695814 -0.0017938461 -0.0018785715
-0.0058479072 0.00636 -0.0013857143
-0.0089343023 0.0047292304 -0.0010571429
0 -0.0039138459 -0.00056428573
0.0082845353 0.00048923073 -0.0023714285
-0.0022741861 0.0034246154 -0.0041785715
-0.0042234883 0.0013046153 -0.00089285715
-0.0021117441 0.0026092306 -0.0010571429
0.01397 0.00081538461 -0.0035214287
-0.0060103489 -0.005544615 -0.00155
-0.00877186 0.0032615385 -0.0033571429
0.0061727907 -0.00636 -0.0027000001
-0.012995349 -0.0061969231 0.0025571429
0.003573721 -0.0016307692 -0.0030285714
0.010558721 -0.0021199998 -0.0041785715
0.009421628 0.0014676923 -0.00155
0.0090967445 -0.0052184612 -0.00385
-0.011208489 0.00032615382 -0.00023571428
-0.0051981397 -0.005544615 0.0005857143
-0.0032488373 -0.005544615 -0.00023571428
-0.0097465115 0.0053815381 -0.0010571429
0.0077972091 -0.0057076924 0.0005857143
-0.011046046 -0.0021199998 -0.0043428573
0.0027615116 -0.0034246154 0.0005857143
-0.013482674 0 -0.0048357141
0.0061727907 -0.005544615 -0.00155
0.0090967445 -0.0061969231 -7.1428571e-05
0.0038986045 -0.0026092306 -0.00155
-0.010233837 -0.0017938461 -0.0022071428
-0.0082845353 -0.0021199998 -0.00023571428
-0.010233837 -0.0034246154 -0.0040142857
0.00016244187 0.0057076924 -0.0010571429
0.0077972091 -0.0057076924 0.00091428572
-0.0027615116 0.0050553842 -0.00155
-0.0084469765 0.0016307692 -0.0010571429
-0.009421628 0.0037507692 -0.0013857143
-0.00877186 0.0047292304 -0.0035214287
0.0030863953 -0.00636 -0.0035214287
-0.004710814 0.0048923073 -0.0033571429
-0.00097465114 0.0016307692 -0.0041785715
0.0071474421 -0.00636 -0.0022071428
-0.0058479072 -0.0026092306 -0.00155
-0.0073098838 -0.0034246154 0.0019
-0.0014619768 -0.0044030766 -0.0033571429
0.008122093 -0.0053815381 -0.0027000001
-0.0068225581 -0.0017938461 -0.0017142857
-0.004710814 -0.0058707693 0.0010785714
-0.0066601164 0.0058707693 -0.0035214287
-0.0055230232 -0.0021199998 -0.00056428573
0.0089343023 -0.0027723075 -0.00089285715
-0.0011370931 -0.0027723075 -0.00155
-0.011858256 0.00636 -0.0012214286
0.012670465 -0.0058707693 -0.00385
-0.0014619768 -0.0035876923 -0.0013857143
0.0071474421 -0.0021199998 -0.00023571428
-0.0012995349 -0.0019569229 -0.00155
0.0074723256 -0.0027723075 -0.0031928571
0.012670465 0.0034246154 -0.0010571429
-0.0090967445 -0.0060338462 -7.1428571e-05
-0.0079596508 0.0024461537 -0.0033571429
-0.0034112791 -0.005544615 -0.0040142857
0.0079596508 -0.0029353846 -0.00089285715
0.0063352324 -0.0030984615 -0.0031928571
-0.012345581 0 -0.00023571428
0.0034112791 -0.0035876923 -7.1428571e-05
-0.0048732557 -0.005544615 -0.0023714285
-0.00064976746 0.00065230764 -0.0033571429
-0.0030863953 0.0040769228 -0.0033571429
-0.00048732557 -0.0035876923 -0.0033571429
-0.0090967445 -0.00097846147 -0.00023571428
0.0066601164 0.0045661535 -0.0013857143
-0.0058479072 0.00032615382 -7.1428571e-05
0.013157791 -0.0057076924 -0.0033571429
-0.0037361628 -0.0016307692 -0.0030285714
0.012020698 0.0013046153 -0.0035214287
-0.0012995349 0 -0.00023571428
-0.00081220933 -0.0021199998 -0.00155
0.011695814 -0.00048923073 -0.00023571428
-0.0045483722 0.0013046153 -0.00089285715
-0.010396279 -0.0030984615 -0.00023571428
-0.00016244187 -0.0017938461 -0.00089285715
-0.0099089537 0.0052184612 -0.0035214287
0.00032488373 -0.0060338462 0.0020642858
0.0056854649 -0.00048923073 -0.0048357141
0.010883605 -0.0017938461 -7.1428571e-05
-0.011208489 -0.0060338462 -0.0035214287
-0.013807558 0.0026092306 -0.00385
-0.010233837 -0.0029353846 -0.00072857144
0.008122093 -0.0035876923 -7.1428571e-05
-0.0073098838 -0.0052184612 -0.0040142857
0.0024366279 -0.005544615 -0.00023571428
0.00877186 -0.0030984615 -0.00072857144
0.011858256 -0.0027723075 -0.0040142857
-0.00081220933 0.0013046153 -0.0033571429
0.0055230232 0.0050553842 -0.0040142857
0.011046046 0.00048923073 -0.00039999999
-0.0077972091 0.00081538461 -0.0031928571
-0.0097465115 0.0011415384 -0.0041785715
0.013645116 0.00065230764 -0.00089285715
0.01397 -0.0014676923 -0.00385
0.00877186 -0.0061969231 -0.0010571429
-0.0051981397 -0.00636 -0.0013857143
-0.010233837 0.0021199998 -0.0010571429
-0.011208489 -0.0053815381 -0.0018785715
0.0082845353 0.0011415384 -0.00155
0.0097465115 0.0040769228 -0.0040142857
0.011208489 -0.0053815381 -7.1428571e-05
0.0021117441 0.0040769228 -0.00155
-0.010721163 -0.0050553842 -0.0031928571
0.00032488373 0.0017938461 -0.0033571429
-0.0084469765 0.0048923073 -0.0035214287
-0.0066601164 0.00016307691 -0.0046714284
0.0089343023 -0.0057076924 -0.0017142857
0.011858256 0.0022830768 -0.0013857143
0.0089343023 -0.0048923073 -0.0031928571
0.0027615116 0.0022830768 -0.0033571429
0.0034112791 0.0024461537 -0.0033571429
0.0032488373 -0.0017938461 -0.0033571429
0.00048732557 0.0060338462 -0.0010571429
-0.0029239536 -0.0024461537 -0.00089285715
-0.0025990698 0.00065230764 -0.00155
0.0095840702 -0.0053815381 -0.00089285715
-0.013320233 -0.0021199998 -0.00023571428
0.009421628 -0.0027723075 -0.0031928571
-0.0089343023 0.00048923073 -0.0028642856
-0.010558721 0.0016307692 -0.00089285715
-0.011858256 0.00048923073 -0.0048357141
-0.00032488373 -0.0022830768 -0.0041785715
-0.0012995349 0.0022830768 -0.00089285715
-0.012508024 -0.00636 -0.0013857143
-0.004710814 -0.0032615385 9.2857146e-05
0.0029239536 0.005544615 -0.0013857143
-0.0037361628 -0.0061969231 -7.1428571e-05
-0.0064976746 0.00032615382 -0.00023571428
0.00016244187 -0.0060338462 0.0027214286
-0.0045483722 0.0061969231 -0.0010571429
-0.004710814 0.00065230764 -0.0043428573
-0.0048732557 -0.0052184612 -0.0040142857
0.013645116 0.00065230764 -0.0035214287
-0.0022741861 -0.0047292304 -0.0041785715
-0.0058479072 0.0058707693 -0.0010571429
-0.0068225581 0.0039138459 -0.0033571429
0.0027615116 -0.0040769228 -0.0041785715
-0.0042234883 -0.0030984615 -0.0013857143
-0.0032488373 0.0027723075 -0.00155
0.011046046 0.0050553842 -0.0035214287
0.012832907 -0.0019569229 -0.0046714284
-0.01137093 0.0027723075 -0.0040142857
0.010071395 0.0034246154 -0.0040142857
-0.012183139 -0.0061969231 -0.00155
-0.0040610465 0.0045661535 -0.0033571429
-0.0032488373 0.0034246154 -0.0041785715
0.0061727907 0.00065230764 -0.0043428573
0.0029239536 -0.00636 -7.1428571e-05
-0.0014619768 0.00048923073 -0.0023714285
0.0022741861 -0.0057076924 0.0012428572
-0.0037361628 0.0032615385 -0.00089285715
0.012832907 -0.0039138459 -0.0035214287
-0.012508024 -0.0032615385 0.0015714286
-0.01137093 -0.0037507692 -7.1428571e-05
-0.004710814 0.0027723075 -0.00155
-0.0019493023 0.0019569229 -0.0041785715
-0.012345581 -0.0060338462 0.0005857143
0.0017868605 -0.005544615 -0.0022071428
-0.0056854649 -0.0052184612 -0.0040142857
0.00877186 -0.0011415384 -7.1428571e-05
0.00081220933 0.0044030766 -0.0033571429
0.00081220933 -0.0035876923 -0.0013857143
-0.0063352324 -0.0034246154 -0.0041785715
-0.010558721 -0.0057076924 -7.1428571e-05
-0.009421628 0.0034246154 -0.0013857143
-0.012832907 -0.0040769228 -0.0035214287
0.00081220933 -0.005544615 -0.00089285715
-0.011858256 0.00048923073 -0.0025357143
0.0058479072 -0.00636 -0.0030285714
-0.0095840702 0.0013046153 -0.00155
-0.00438593 0.0011415384 -0.0031928571
0.0011370931 -0.00016307691 -0.00023571428
0.00081220933 -0.0042399997 -0.0033571429
0.0024366279 0.0053815381 -0.0013857143
0.0048732557 -0.00636 0.00025714285
-0.0089343023 -0.0047292304 -0.0033571429
-0.0090967445 0.0047292304 -0.0035214287
0.008122093 -0.0037507692 -0.0031928571
-0.0040610465 -0.0032615385 -0.0033571429
-0.012995349 0.00048923073 -0.0045071431
-0.0099089537 0.00048923073 -0.0030285714
-0.012345581 0.0052184612 -0.00385
-0.00048732557 -0.00636 -0.0033571429
-0.0073098838 -0.0058707693 0.0017357143
-0.00877186 0.0017938461 -0.0040142857
0.011695814 -0.0034246154 -0.0040142857
0.011858256 -0.0024461537 -0.0031928571
0.00438593 -0.0016307692 -0.0020428572
-0.01137093 -0.0011415384 -0.00023571428
-0.0097465115 0.0061969231 -0.0013857143
0.0037361628 0.00636 -0.0036857142
0.0029239536 0.0057076924 -0.0040142857
-0.0089343023 -0.0044030766 -0.0040142857
0.0069849999 -0.00016307691 -0.0048357141
0.0024366279 0.0017938461 -0.0033571429
0.0056854649 -0.0034246154 -0.0031928571
0.0024366279 -0.0024461537 -0.00155
-0.011046046 -0.0019569229 -0.0048357141
0.0017868605 -0.0053815381 -0.0040142857
-0.013320233 0.0039138459 -0.0035214287
-0.0084469765 0.0050553842 -0.0010571429
-0.010233837 -0.0011415384 -7.1428571e-05
0.011533372 -0.00097846147 -0.00023571428
0.0089343023 -0.00636 -0.00023571428
0.00032488373 0.0034246154 -0.0033571429
0.0025990698 0.0013046153 -0.00155
-0.0099089537 -0.0057076924 0.0015714286
0.0017868605 -0.005544615 -0.0025357143
-0.010883605 -0.0042399997 -0.00385
0.012508024 0.0034246154 -0.0013857143
0.0066601164 0.0061969231 -0.0035214287
-0.0027615116 -0.005544615 -0.0018785715
-0.0069849999 0.0047292304 -0.0040142857
-0.0019493023 -0.00636 -7.1428571e-05
-0.0071474421 0.00636 -0.0036857142
-0.011533372 0.0021199998 -0.00385
0.01137093 -0.0039138459 -0.0035214287
-0.012670465 0.0029353846 -0.00385
0.0038986045 0.0044030766 -0.0010571429
0.0077972091 -0.0032615385 0.0025571429
-0.0092591858 0.00097846147 -0.00089285715
0.010721163 0.00016307691 -7.1428571e-05
0.011695814 -0.00032615382 -0.0046714284
0.01397 0.00016307691 -0.0012214286
0.008122093 -0.0021199998 -0.0031928571
-0.00877186 0.00048923073 -0.0030285714
0.00032488373 -0.00636 -0.00089285715
-0.0016244187 0.0026092306 -0.0010571429
-0.011858256 0.0030984615 -0.0013857143
0.009421628 0.0027723075 -0.0033571429
-0.010396279 -0.0057076924 0.0022285713
0.0079596508 0.0037507692 -0.0010571429
-0.0097465115 -0.0021199998 -0.0048357141
0.0064976746 -0.0037507692 -7.1428571e-05
0.0034112791 -0.0044030766 -0.0041785715
-0.0022741861 0.00097846147 -0.0033571429
-0.0068225581 -0.00081538461 -0.0048357141
0.0063352324 -0.00048923073 -0.00023571428
0.00048732557 0.0053815381 -0.0033571429
-0.0076347673 0.0061969231 -0.00385
-0.0032488373 0.0035876923 -0.0033571429
0.011046046 0.0014676923 -0.00089285715
0.013157791 0.0040769228 -0.0010571429
0.0089343023 -0.0032615385 -0.0031928571
-0.012508024 0.005544615 -0.0013857143
0.0021117441 -0.0027723075 -0.00155
-0.00064976746 0.0045661535 -0.0010571429
0.01397 0 -0.0033571429
-0.01137093 0.00048923073 -0.0046714284
-0.00097465114 0.0029353846 -0.0010571429
0.0032488373 -0.005544615 -0.00023571428
-0.012508024 0.0035876923 -0.00385
-0.0074723256 0.00097846147 -0.0031928571
0.0056854649 -0.0016307692 -0.0048357141
-0.0038986045 -0.0024461537 -0.00155
0.012995349 -0.0037507692 0.00075000001
-0.0048732557 0.0044030766 -0.0033571429
0.011533372 -0.0037507692 -0.0013857143
0.0066601164 0.0057076924 -0.0035214287
0.010558721 -0.0034246154 -0.00155
0.0095840702 0.0044030766 -0.0040142857
-0.0030863953 0.0045661535 -0.0040142857
-0.0055230232 -0.0017938461 -0.00056428573
0.011533372 0.0060338462 -0.00385
0.0051981397 0.0027723075 -0.00155
0.0038986045 0.00097846147 -0.0041785715
0.0032488373 -0.005544615 -0.00039999999
0.009421628 0.0027723075 -0.0010571429
0.0092591858 0.0034246154 -0.0013857143
-0.0095840702 -0.0037507692 -7.1428571e-05
0.0068225581 0.0029353846 -0.0010571429
0.0032488373 -0.005544615 -0.00056428573
0.0058479072 -0.0060338462 -0.00385
0.011046046 -0.0022830768 -0.00089285715
-0.00064976746 -0.0019569229 -0.0045071431
0.01137093 0.0048923073 -0.0040142857
-0.00064976746 -0.005544615 -0.0010571429
-0.0079596508 0.00048923073 -0.0027000001
0.0061727907 -0.00016307691 -7.1428571e-05
0.0061727907 0.00048923073 -0.0046714284
0.0029239536 -0.0030984615 -0.00056428573
0.0084469765 -0.0029353846 -0.0031928571
-0.0086094188 0.005544615 -0.0013857143
-0.004710814 -0.005544615 -0.0020428572
-0.00032488373 0.0026092306 -0.0033571429
0.0038986045 -0.0024461537 -0.0041785715
-0.01137093 -0.00097846147 -0.00023571428
0.010071395 0.00048923073 -7.1428571e-05
-0.0019493023 0.00048923073 -0.00039999999
-0.0084469765 0.0027723075 -0.0040142857
-0.0027615116 -0.005544615 -0.0025357143
0.0055230232 0.0011415384 -0.0041785715
-0.01397 -0.0011415384 -0.0022071428
0.010071395 0.0061969231 -0.0010571429
-0.0019493023 -0.0014676923 -7.1428571e-05
-0.012183139 0.0039138459 -0.0035214287
0.00032488373 0.0050553842 -0.0040142857
0.0073098838 0.0013046153 -0.00155
-0.0069849999 0.0013046153 -0.0031928571
0.009421628 -0.00636 -0.00023571428
-0.0084469765 -0.00016307691 -0.0048357141
0.0053605814 0.0045661535 -0.0033571429
0.0073098838 0.0030984615 -0.0010571429
0.0027615116 -0.0029353846 -0.00089285715
-0.0045483722 0.0013046153 -0.00155
0.00048732557 0.0011415384 -0.0041785715
0.010071395 0.0037507692 -0.0040142857
-0.0077972091 -0.00636 -0.0017142857
-0.003573721 -0.0021199998 -0.0033571429
-0.0060103489 -0.005544615 -0.0012214286
0.0051981397 -0.0022830768 -0.00089285715
0.0068225581 0.00097846147 -0.0031928571
0.0038986045 -0.0057076924 -0.00023571428
0.0038986045 0.0026092306 -0.0010571429
-0.0024366279 -0.0039138459 0.00042142856
0.013482674 -0.0017938461 -0.0017142857
0.0055230232 0.0047292304 -0.0010571429
0.0027615116 -0.0014676923 -0.0048357141
-0.0025990698 0.00081538461 -0.00089285715
0.013157791 0.0016307692 -0.0040142857
-0.012508024 0.00097846147 -0.0010571429
0.0089343023 0.0024461537 -0.00155
0.0084469765 0.0053815381 -0.00385
-0.0099089537 -0.00636 -0.0022071428
0.0040610465 0.00048923073 -0.00023571428
-0.010396279 -0.0060338462 0.0020642858
-0.0042234883 0.0047292304 -0.0033571429
-0.00048732557 -0.0061969231 -0.00385
-0.0051981397 0.0016307692 -0.00089285715
0.0099089537 0.0047292304 -0.0035214287
0.0071474421 0.005544615 -0.0013857143
-0.0025990698 0.0011415384 -0.00089285715
-0.0095840702 -0.0060338462 -0.00385
-0.00081220933 0.0032615385 -0.0010571429
0.0056854649 0.0053815381 -0.0010571429
0.0074723256 -0.0021199998 -0.0048357141
0.003573721 0.0061969231 -0.0013857143
-0.00032488373 -0.0029353846 -0.00072857144
-0.0068225581 -0.00636 -0.0036857142
0.0060103489 -0.0030984615 -0.00072857144
-0.011695814 0.0021199998 -0.0035214287
-0.0037361628 -0.0061969231 -0.00385
0.0073098838 -0.00636 -0.0025357143
-0.0051981397 0.0048923073 -0.0010571429
0.0032488373 0.0022830768 -0.0041785715
-0.012183139 -0.0037507692 -0.0033571429
-0.0011370931 -0.00636 -0.0030285714
0.0048732557 -0.0057076924 0.0015714286
-0.0095840702 0.0057076924 -0.0010571429
0.00081220933 -0.00636 -0.0033571429
-0.0090967445 -0.0017938461 -0.0027000001
-0.0089343023 0.0061969231 -0.0010571429
0.0089343023 -0.0017938461 -0.0017142857
0.0079596508 -0.0053815381 -0.0028642856
-0.0056854649 -0.005544615 -0.00072857144
-0.0019493023 0.0042399997 -0.0010571429
-0.0045483722 0 -7.1428571e-05
0.0040610465 -0.00636 -0.0018785715
-0.003573721 -0.0017938461 -0.00089285715
0 0.0039138459 -0.00155
-0.0012995349 0.0052184612 -0.0033571429
-0.0014619768 -0.0027723075 -0.00155
0.011046046 -0.0027723075 -0.00089285715
-0.012508024 -0.0032615385 -0.00385
0.00032488373 -0.0026092306 -0.00089285715
-0.0011370931 -0.0047292304 -0.0033571429
-0.011208489 0.0057076924 -0.0013857143
0.011046046 -0.0017938461 -7.1428571e-05
-0.0076347673 0.0050553842 -0.0013857143
-0.0064976746 0.0060338462 -0.00385
0.0019493023 0.00032615382 -7.1428571e-05
0.012345581 -0.0040769228 -7.1428571e-05
-0.0016244187 0.0019569229 -0.0033571429
-0.0029239536 0.0024461537 -0.0041785715
0.013807558 0.00032615382 -0.0045071431
0.0071474421 0.0029353846 -0.0033571429
0.011695814 -0.0017938461 -7.1428571e-05
0.0034112791 0 -0.0048357141
-0.0060103489 0.0039138459 -0.00155
0.012345581 -0.00636 -0.0027000001
-0.012345581 -0.0017938461 -7.1428571e-05
-0.00877186 -0.0042399997 -0.0040142857
-0.0019493023 0.0019569229 -0.0033571429
0.0027615116 -0.0017938461 -0.00089285715
0.0092591858 0.0034246154 -0.0040142857
0 -0.0039138459 0.0023928571
-0.0045483722 -0.0021199998 -0.00056428573
-0.0017868605 -0.0026092306 -0.0033571429
0.012345581 0.0037507692 -0.0040142857
-0.0022741861 0.0029353846 -0.0033571429
0.0084469765 -0.0029353846 -0.00089285715
-0.011208489 -0.005544615 -0.0012214286
-0.0014619768 0.00032615382 -0.0048357141
-0.00016244187 -0.0024461537 -0.0033571429
-0.0079596508 -0.0019569229 -0.00155
-0.003573721 0.0044030766 -0.0010571429
0.011695814 -0.0017938461 -0.0046714284
0.0056854649 -0.00636 -0.0030285714
-0.00438593 0.0019569229 -0.0041785715
0.012995349 0.0029353846 -0.0013857143
-0.013807558 0.00032615382 -0.0018785715
0.00877186 -0.00636 -0.0013857143
-0.0053605814 -0.0026092306 -0.0043428573
0.0063352324 -0.0042399997 -0.0031928571
0.0034112791 -0.0022830768 -0.00089285715
0.0060103489 -0.0037507692 -0.0041785715
-0.00081220933 -0.00636 -0.0010571429
0.0077972091 0.0021199998 -0.0033571429
-0.011046046 -0.0040769228 -0.0033571429
0.0076347673 0.0026092306 -0.0010571429
0.011858256 0.00065230764 -0.00089285715
-0.0019493023 -0.0016307692 -0.0018785715
0.0016244187 -0.0027723075 -0.0041785715
0.0082845353 0.0042399997 -0.0033571429
-0.013482674 -0.0017938461 -0.0022071428
0.0019493023 -0.00636 -0.0030285714
0.011858256 -0.0011415384 -7.1428571e-05
0.003573721 0.00032615382 -7.1428571e-05
-0.0024366279 0.00065230764 -0.00155
0.0045483722 0.0011415384 -0.00089285715
0.0089343023 -0.0053815381 -0.0027000001
-0.010721163 0.0061969231 -0.0012214286
-0.0037361628 -0.0029353846 -0.0033571429
0.0024366279 0.0045661535 -0.0010571429
0.0092591858 -0.00636 -0.0020428572
0.0024366279 0.0050553842 -0.00155
0.0032488373 -0.00097846147 -0.0048357141
-0.00048732557 0.0011415384 -0.00089285715
0.0076347673 -0.0040769228 0.0017357143
-0.010396279 0.00048923073 -0.00056428573
-0.012508024 -0.0037507692 0.0015714286
-0.0074723256 -0.0037507692 -0.0012214286
0.012183139 0.00065230764 -0.0043428573
-0.008122093 -0.0053815381 -0.0022071428
-0.004710814 -0.005544615 -0.00072857144
0.0038986045 0.0022830768 -0.00089285715
0.0032488373 -0.0044030766 -0.0041785715
-0.0092591858 -0.0021199998 -0.00023571428
0.0073098838 -0.0017938461 -0.0023714285
0.0071474421 0.0017938461 -0.0010571429
-0.0095840702 0.0027723075 -0.00155
-0.00081220933 -0.00636 -0.0033571429
-0.012345581 -0.0027723075 -0.0033571429
-0.010396279 0.0060338462 -0.0013857143
0.0073098838 0.00048923073 -0.00023571428
0.0073098838 0.00048923073 -0.00072857144
0.0022741861 -0.0042399997 -0.0033571429
0.012183139 0.00636 -0.00385
-0.012995349 -0.0030984615 -7.1428571e-05
-0.0097465115 -0.0034246154 -0.0040142857
-0.0082845353 -0.0030984615 -0.00023571428
0.003573721 0.0014676923 -0.0041785715
0.00877186 -0.0027723075 -0.0031928571
-0.00032488373 -0.0032615385 0.0017357143
0.00877186 0.0058707693 -0.00385
0.0040610465 0.0019569229 -0.00155
0.0082845353 0.0013046153 -0.0031928571
0.0032488373 -0.0037507692 -0.0033571429
-0.011858256 0.0060338462 -0.00385
-0.010558721 -0.0014676923 -0.0048357141
0.00877186 0.0042399997 -0.0013857143
-0.0053605814 -0.0029353846 -0.0043428573
0.0055230232 -0.0016307692 -7.1428571e-05
-0.013320233 0.0024461537 -0.0013857143
-0.012995349 0.0014676923 -0.0013857143
-0.012345581 -0.0011415384 -0.0048357141
-0.010721163 -0.0022830768 -0.0031928571
-0.00064976746 -0.0034246154 -0.0041785715
-0.0084469765 -0.0052184612 -0.0040142857
0.0014619768 0.0040769228 -0.00155
-0.00032488373 0.00097846147 -0.00155
0.0074723256 -0.0030984615 -0.0031928571
0.013320233 -0.00065230764 -7.1428571e-05
0.0050356975 -0.00636 -0.00072857144
-0.0024366279 -0.0039138459 0.0015714286
0.00016244187 0.00048923073 -0.0020428572
0.0012995349 -0.0024461537 -0.00155
0.012020698 -0.0013046153 -7.1428571e-05
0.0025990698 -0.0024461537 -0.0041785715
0.0097465115 0.0013046153 -0.0041785715
-0.012832907 0.0044030766 -0.0035214287
0.0064976746 0.00048923073 -0.0048357141
0.0016244187 -0.0026092306 -0.0033571429
-0.0095840702 -0.00032615382 -7.1428571e-05
0.0082845353 0.0058707693 -0.0035214287
0.010396279 -0.0060338462 0.0005857143
-0.0037361628 -0.0037507692 -0.0012214286
0.0053605814 0.0029353846 -0.0033571429
0.0034112791 -0.0030984615 -0.00072857144
0.0021117441 -0.00636 -0.0025357143
-0.00438593 -0.00016307691 -7.1428571e-05
0.013482674 0.0035876923 -0.00385
0.0084469765 0.0017938461 -0.00155
0.0030863953 0.0047292304 -0.0041785715
0.00438593 -0.0047292304 -0.0041785715
0 -0.005544615 0.0017357143
0.012995349 -0.0061969231 -0.0028642856
0.012345581 0.00048923073 -0.0046714284
0.0073098838 -0.005544615 -0.0031928571
0.011533372 -0.0026092306 -0.00089285715
0.012670465 -0.0027723075 -0.00089285715
0.0099089537 -0.0035876923 -0.0040142857
-0.0060103489 0.0058707693 -0.0013857143
-0.0066601164 -0.0044030766 -0.0031928571
0.009421628 -0.00636 -0.0023714285
-0.012995349 -0.0037507692 -0.00056428573
-0.00064976746 0.00636 -0.0010571429
-0.010396279 -0.0032615385 0.0020642858
-0.0048732557 0.0060338462 -0.00385
-0.0022741861 -0.005544615 9.2857146e-05
0.012345581 0.0032615385 -0.0040142857
0.0077972091 0.0042399997 -0.0033571429
0.0097465115 0.0019569229 -0.0010571429
-0.010721163 -0.0014676923 -7.1428571e-05
0.012670465 0.0048923073 -0.0040142857
-0.0058479072 0.0045661535 -0.0033571429
-0.0055230232 -0.005544615 -0.0018785715
-0.0055230232 -0.00032615382 -7.1428571e-05
0.010558721 0.00048923073 -0.0020428572
0.0012995349 -0.00016307691 -0.00023571428
0.0022741861 -0.0019569229 -0.0033571429
0.0074723256 -0.0019569229 -0.00056428573
-0.0024366279 -0.00097846147 -7.1428571e-05
-0.0073098838 0.0058707693 -0.0010571429
-0.00016244187 0.00636 -0.0036857142
0.011208489 -0.0039138459 -0.0035214287
0.0050356975 0.0019569229 -0.0031928571
0.012508024 -0.005544615 -0.00385
-0.013807558 -0.0021199998 -0.00039999999
-0.011695814 0.005544615 -0.00385
0.0032488373 0.0061969231 -0.0010571429
0.01397 0.00016307691 -0.00155
-0.00048732557 -0.0039138459 -7.1428571e-05
0.011695814 -0.0019569229 -0.00056428573
0.010233837 0.0061969231 -0.0040142857
0.012345581 -0.0029353846 -0.00023571428
-0.0060103489 0.00048923073 -0.00039999999
-0.010396279 -0.0037507692 -0.0012214286
0.013320233 0.0042399997 -0.0035214287
-0.0092591858 0.0022830768 -0.00089285715
-0.0051981397 -0.0016307692 -0.0025357143
-0.0058479072 -0.0017938461 -7.1428571e-05
0.0012995349 0.0022830768 -0.0033571429
-0.0090967445 -0.0030984615 -0.0031928571
0.010721163 -0.0060338462 -0.00056428573
0.0045483722 0 -7.1428571e-05
0.00438593 0.0026092306 -0.0041785715
-0.0050356975 0.00636 -0.0013857143
0.010721163 0.00048923073 -0.0020428572
0.013482674 0.0011415384 -0.0035214287
0.0069849999 -0.00636 -0.0020428572
0.0012995349 0.0032615385 -0.0041785715
0.010233837 0.0026092306 -0.00155
-0.0034112791 -0.0044030766 -0.0033571429
-0.0076347673 0.00636 -0.0036857142
0.0040610465 -0.0030984615 -7.1428571e-05
-0.0019493023 0.0026092306 -0.00155
0.010721163 -0.0021199998 -0.00023571428
-0.011533372 -0.0035876923 -0.0033571429
0.012508024 -0.005544615 -0.0033571429
-0.0019493023 -0.0030984615 -0.0033571429
-0.011208489 0.0061969231 -0.0013857143
-0.010233837 -0.0061969231 0.0027214286
0.0095840702 -0.00048923073 -0.0048357141
-0.0079596508 0.0021199998 -0.00155
0.01137093 0.0039138459 -0.0013857143
-0.0027615116 -0.0030984615 0.0017357143
0.0017868605 0.0021199998 -0.00155
-0.0040610465 -0.0017938461 -0.0033571429
-0.0086094188 0.0026092306 -0.0010571429
-0.011208489 0.0057076924 -0.00385
0.0076347673 0.0024461537 -0.0040142857
-0.0051981397 -0.00636 0.0020642858
-0.00064976746 0.0060338462 -0.0040142857
0.0017868605 0.0057076924 -0.0013857143
-0.0024366279 -0.0048923073 -0.0033571429
0.0073098838 0.0044030766 -0.0033571429
-0.0040610465 -0.00636 -0.0030285714
-0.013645116 0.0017938461 -0.00385
-0.0025990698 0.00636 -0.0013857143
0.0095840702 0.00636 -0.0013857143
-0.010721163 -0.0053815381 -0.00089285715
-0.0095840702 0.0060338462 -0.0035214287
-0.010721163 -0.0061969231 -0.00039999999
-0.012183139 -0.00636 -0.0020428572
0.010883605 -0.0030984615 -0.00155
0.0019493023 -0.005544615 -0.0022071428
-0.0073098838 0.00636 -0.0012214286
-0.010233837 -0.0057076924 -0.0020428572
-0.0060103489 0.00048923073 -0.0018785715
-0.0071474421 0.0030984615 -0.0033571429
0.010233837 -0.0053815381 -0.00072857144
0.0063352324 -0.0016307692 -0.0046714284
0.012508024 0.0027723075 -0.0013857143
-0.003573721 0.0047292304 -0.0033571429
0.0021117441 0.0037507692 -0.0041785715
-0.0074723256 -0.0024461537 -0.00089285715
0.0027615116 -0.0061969231 -0.00385
0.0099089537 -0.0022830768 -0.0041785715
-0.0097465115 0.0042399997 -0.0035214287
0.013320233 0.0037507692 -0.0010571429
-0.008122093 -0.0035876923 -0.0013857143
0.0076347673 0.0014676923 -0.00089285715
-0.0073098838 -0.0011415384 -0.0048357141
-0.0019493023 0.00048923073 -0.0017142857
0.010233837 0.0044030766 -0.0035214287
-0.004710814 0.0057076924 -0.0013857143
0.0012995349 -0.00636 -0.0031928571
-0.0077972091 -0.0024461537 -0.00089285715
0.0034112791 -0.0021199998 -0.00056428573
-0.0076347673 -0.00636 -0.0031928571
-0.0053605814 0.0035876923 -0.00155
0.00064976746 -0.0019569229 -0.00089285715
0 -0.005544615 -0.0010571429
0.008122093 0.0040769228 -0.0010571429
-0.0063352324 0.00048923073 -0.0028642856
-0.0011370931 -0.0034246154 -0.0033571429
-0.0021117441 0.00048923073 -0.0017142857
-0.012183139 -0.0061969231 -0.00039999999
0.010396279 -0.0045661535 -0.0033571429
-0.0037361628 -0.0021199998 -0.0033571429
0.0086094188 0.0032615385 -0.00155
0.0045483722 -0.0048923073 -0.0031928571
-0.0086094188 -0.0060338462 -0.0013857143
0.0068225581 0.0052184612 -0.0013857143
-0.01137093 -0.0017938461 -0.0020428572
0.0034112791 -0.0058707693 -7.1428571e-05
0 0.0057076924 -0.0033571429
0.012995349 0.0017938461 -0.0040142857
-0.0021117441 -0.0030984615 -0.0033571429
-0.0064976746 0.00048923073 -0.0023714285
-0.0089343023 -0.0050553842 -0.0031928571
-0.00016244187 0.0052184612 -0.00155
-0.012832907 -0.0030984615 -0.00385
-0.0034112791 0.0032615385 -0.00155
0.0027615116 -0.0034246154 0.0022285713
-0.0038986045 -0.0021199998 -0.0046714284
-0.003573721 -0.0026092306 -0.0033571429
-0.010721163 0.00065230764 -0.0043428573
-0.011046046 -0.0053815381 -0.00023571428
0.0073098838 0.0014676923 -0.0031928571
-0.00064976746 0.00048923073 -0.00056428573
0.010883605 -0.0045661535 -0.0033571429
0.0040610465 0.0047292304 -0.0033571429
-0.0027615116 0.0019569229 -0.00089285715
0.011695814 0.00048923073 -0.00039999999
0.0011370931 -0.0061969231 -0.00385
-0.011046046 0.0024461537 -0.0033571429
-0.003573721 0.0037507692 -0.0033571429
0.0073098838 -0.0030984615 -0.0031928571
0.013320233 0.0021199998 -0.0010571429
-0.0074723256 0.0057076924 -0.0010571429
0.0055230232 -0.0027723075 -0.0041785715
-0.0025990698 0.0027723075 -0.0041785715
0.013645116 0.0022830768 -0.0035214287
-0.0084469765 0 -0.0048357141
0.0027615116 -0.0060338462 0.0017357143
0.0022741861 0.0053815381 -0.0010571429
0.010396279 0.0035876923 -0.0010571429
-0.012345581 -0.0058707693 -0.0030285714
0.0097465115 -0.0047292304 -0.00385
-0.0060103489 -0.0058707693 -0.00385
-0.0095840702 0.0017938461 -0.0033571429
-0.013482674 0.0026092306 -0.0010571429
0.012995349 -0.0058707693 -0.00155
-0.0053605814 -0.0035876923 0.0019
0.0042234883 -0.0017938461 -0.0031928571
0.0038986045 0.0053815381 -0.0010571429
-0.0014619768 0.0048923073 -0.0033571429
-0.0021117441 -0.00048923073 -7.1428571e-05
0.012508024 -0.0060338462 0.0025571429
