# .PCD v0.7 - Point Cloud Data file format
VERSION 0.7
FIELDS x y z
SIZE 4 4 4
TYPE F F F
COUNT 1 1 1
WIDTH 1261
HEIGHT 1
VIEWPOINT 0 0 0 1 0 0 0
POINTS 1261
DATA ascii
-0.017465124 -0.00136 -8.3783787e-05
-0.0048700827 -0.00034 -0.00076486485
0.00067173556 -0.00050999998 0.00093783782
0.0092363637 0.0017 -0.00059459457
-0.017465124 0.00085000001 -0.00093513512
-0.0020152067 -0.00068 -0.0026378378
-0.0068852892 0.00068 -0.0022972974
-0.0080608269 -0.00034 -0.00025405406
-0.010243967 0.00102 -0.00093513512
-0.013098843 -0.00050999998 -0.0033189189
-0.018136861 -0.00068 8.6486485e-05
-0.005709752 0.00153 -8.3783787e-05
0.012259174 0.00068 0.001618919
0.016961323 0.00050999998 0.0012783784
0.011251571 0.00034 -0.00076486485
-0.005709752 0.00068 0.0012783784
0.010747769 -0.00050999998 0.0017891892
-0.014946116 -0.0017 -0.00042432433
-0.0055418182 -0.00085000001 -0.0036594595
-0.005709752 -0.00017 -0.00093513512
0.004366281 -0.00153 -8.3783787e-05
-0.005709752 -0.00050999998 -0.002808108
0.017129257 -0.00034 -0.0017864865
-0.016961323 0.0017 -0.00025405406
0.0045342152 0.00017 -0.00093513512
-0.012259174 0.00068 0.0017891892
0.0082287602 -0.0017 -8.3783787e-05
0.005709752 0.00050999998 0.001618919
-0.0050380165 -0.00050999998 -8.3783787e-05
-0.016625455 0.00085000001 -0.00093513512
-0.0020152067 0.00068 -0.0033189189
0.0018472727 -0.00050999998 -0.0019567567
0.003190744 -0.00085000001 0.00042702703
-0.018472727 0.00050999998 -0.0017864865
-0.014778182 -0.00068 0.00076756754
0.019648265 0.00034 -0.0016162163
-0.017129257 0.00085000001 0.00042702703
0.018472727 0.00050999998 0.0012783784
0.016793389 -0.00102 -0.00025405406
-0.0067173555 -0.00050999998 -8.3783787e-05
-0.01645752 -0.00050999998 -8.3783787e-05
-0.0062135537 -0.00153 -0.00093513512
0.0095722312 -0.0017 -0.00059459457
0.010579835 0.00034 8.6486485e-05
-0.019648265 -0.00085000001 -0.0026378378
-0.0020152067 -0.00050999998 8.6486485e-05
0.011251571 -0.00136 -8.3783787e-05
0.013602645 -0.00068 -8.3783787e-05
0.0078928927 0.00085000001 -8.3783787e-05
-0.01729719 -0.00085000001 -0.0031486487
0.0068852892 0.00068 0.00076756754
0.014778182 -0.00034 0.0012783784
-0.003190744 -0.00050999998 -0.0011054054
-0.019984134 -0.00102 -0.00025405406
0.011083636 -0.0017 -8.3783787e-05
-0.0082287602 -0.00085000001 -0.0026378378
-0.012259174 -0.00068 0.0011081081
-0.0067173555 0.0017 -0.00042432433
-0.010747769 -0.00050999998 -0.0024675676
-0.0013434711 -0.00136 -0.00076486485
0.0038624795 -0.00050999998 -0.00093513512
0.01645752 0.00102 -0.00076486485
-0.01511405 0.0017 -8.3783787e-05
0.017633058 -0.0017 -0.00076486485
-0.010915703 -0.00050999998 -8.3783787e-05
0.013098843 -0.00153 -8.3783787e-05
0.0058776862 0.00050999998 -0.0014459459
0.00067173556 0.00050999998 -0.0029783784
-0.014442314 -0.00050999998 -8.3783787e-05
-0.0099080997 0.00153 -0.00076486485
0.017129257 -0.00050999998 -0.0017864865
-0.014778182 0.00085000001 0.0017891892
-0.00604562 -0.00153 -0.00076486485
0.0092363637 0.00153 -0.00093513512
0.011755372 -0.00153 -0.00093513512
0.013434711 -0.00034 -0.0011054054
-0.01209124 -0.00085000001 -0.0031486487
0.0095722312 -0.00017 -0.00025405406
-0.018472727 -0.0017 -0.00093513512
0.012259174 0.00034 0.001618919
0.0097401654 -0.00034 -0.00025405406
-0.0016793389 -0.00050999998 -0.002808108
0.0058776862 0.00153 -8.3783787e-05
-0.0016793389 -0.00050999998 -0.0011054054
0.0082287602 -0.00085000001 0.001618919
0.0048700827 0.00136 -0.00093513512
-0.011923306 -0.00050999998 -0.0033189189
0.0082287602 -0.00085000001 0.0011081081
0.01729719 0.00050999998 -0.0019567567
0.015617851 0.00050999998 -0.0019567567
0.018304793 0.00050999998 0.00076756754
-0.012930909 -0.00068 -8.3783787e-05
-0.0021831405 -0.00068 -8.3783787e-05
0.0023510745 -0.00153 -0.00076486485
-0.00016793389 0.00068 -8.3783787e-05
-0.015785785 -0.00050999998 -0.0016162163
0.0070532234 -0.00068 0.0012783784
0.020152066 -0.00119 -0.00025405406
0.018472727 -0.00068 8.6486485e-05
-0.013434711 -0.00085000001 -0.0019567567
0.019648265 0.00068 -0.0029783784
0.015617851 0.00050999998 0.001618919
0.019648265 0.00068 0.0012783784
-0.0083966944 -0.00085000001 8.6486485e-05
0.0082287602 0.00050999998 -0.0011054054
0.0018472727 0.00153 -8.3783787e-05
-0.014442314 0.00068 -0.0016162163
-0.015785785 -0.00085000001 -0.0021270271
-0.010579835 -0.00068 0.001618919
-0.011587438 -0.00050999998 -0.00093513512
0.013602645 -0.0017 -0.00076486485
0.0070532234 -0.00153 -8.3783787e-05
0.01511405 -0.00136 -0.00076486485
0.001511405 -0.00085000001 -0.00093513512
0.00067173556 0.0017 -8.3783787e-05
-0.00083966943 0.00153 -0.00093513512
0.004366281 0.00119 -0.00093513512
-0.0090684304 0.00034 -0.00025405406
-0.010915703 0.00050999998 -0.0014459459
-0.019816199 -0.00068 0.00093783782
-0.0016793389 -0.00068 -0.0034891891
-0.0053738845 0.00102 -0.00025405406
-0.017633058 0.0017 -0.00042432433
-0.00067173556 -0.00068 -0.0011054054
-0.0092363637 0.0017 -0.00042432433
0.0094042979 0.00068 0.0012783784
-0.00050380168 0.00068 -0.0034891891
0.0045342152 0.00050999998 -0.0033189189
0.0010076034 0.00153 -8.3783787e-05
0.0092363637 -0.0017 -0.00093513512
-0.0067173555 0 -0.00093513512
0.015785785 0.00085000001 8.6486485e-05
-0.0097401654 0.0017 -0.00042432433
0.01897653 0.00102 -0.00025405406
-0.014442314 -0.00050999998 0.00093783782
0.016289588 0.0017 -0.00059459457
0.0075570252 -0.00153 -8.3783787e-05
0.018472727 -0.00102 -0.00025405406
0.0021831405 -0.00102 -0.00025405406
0.01595372 -0.00050999998 0.00042702703
-0.0053738845 0.0017 -0.00076486485
-0.019480331 -0.00034 -0.00025405406
0.012259174 -0.00085000001 -0.0034891891
-0.016961323 -0.00050999998 -0.002808108
-0.012762976 0.00034 -0.00093513512
0.015785785 0.00034 0.0011081081
-0.002854876 -0.00153 -0.00093513512
0.0023510745 -0.00050999998 -0.00076486485
-0.00016793389 -0.00034 -0.00025405406
0.0010076034 -0.0017 -0.00025405406
-0.018472727 0.00068 -0.002808108
-0.00604562 -0.00136 -0.00076486485
0.013434711 0.0017 -8.3783787e-05
0.012762976 0.00085000001 -8.3783787e-05
0.0055418182 0.00050999998 -0.0016162163
-0.0041983472 -0.00068 0.00025675676
-0.010915703 0.00050999998 -0.0034891891
-0.014778182 0.00085000001 0.00076756754
-0.005709752 0.00085000001 0.00093783782
0.0045342152 -0.00068 0.00093783782
0.018304793 0.00050999998 -0.0033189189
-0.0035266117 -0.00050999998 -0.00076486485
-0.01729719 -0.0017 -0.00059459457
0.003190744 0.00085000001 -0.0036594595
0.005709752 -0.00068 0.0017891892
-0.00033586778 -0.00050999998 0.0012783784
0.005709752 -0.00085000001 0.0019594594
0.014610249 0.00034 -0.0022972974
-0.016961323 -0.00085000001 -0.0012756757
0.011083636 0.00068 -8.3783787e-05
0.018640662 0.0017 -0.00076486485
0.00302281 0.00085000001 -0.0031486487
0.0010076034 0.0017 -0.00059459457
0.00067173556 0.00068 0.00093783782
0.010915703 0.0017 -8.3783787e-05
0.016961323 0.00050999998 -0.0011054054
0.0077249589 -0.00034 -0.00076486485
-0.01511405 -0.00119 -0.00025405406
-0.014610249 0.00085000001 -0.0019567567
-0.0038624795 -0.00153 -0.00093513512
-0.011083636 -0.00034 -0.00093513512
-0.014106447 0.00017 -0.00093513512
0.010915703 0.00017 -0.00025405406
0.004366281 -0.00050999998 -0.0022972974
-0.01209124 -0.00017 -0.00093513512
0.0094042979 0.00050999998 -0.0014459459
-0.010747769 0.00050999998 0.0019594594
0.019648265 -0.00050999998 -0.0033189189
0.00083966943 0.00034 -0.00093513512
-0.010915703 0.00050999998 -0.0031486487
-0.011587438 0.00068 -8.3783787e-05
-0.013266778 -0.00068 -0.0036594595
0.019144462 0.0017 -0.00059459457
0.013266778 0.00085000001 0.0012783784
-0.014610249 0.00085000001 0.0014486486
0.01595372 0.00085000001 -0.0034891891
0.012259174 -0.00050999998 8.6486485e-05
-0.0020152067 0.00085000001 0.001618919
0.012259174 0.00085000001 8.6486485e-05
-0.01729719 0.00050999998 0.00042702703
-0.0095722312 0.00085000001 -0.0021270271
0.018304793 0.00068 -0.0011054054
-0.015449918 -0.00136 -8.3783787e-05
0.017968927 0.00050999998 -0.00093513512
-0.011251571 -0.00136 -0.00093513512
0.00083966943 -0.00068 -0.0011054054
0.004366281 -0.00068 -0.0033189189
0.01595372 0.00050999998 0.0011081081
-0.0055418182 0.00050999998 -0.0012756757
-0.0045342152 -0.00068 -0.0016162163
0.0045342152 0.00068 0.0014486486
-0.017465124 0.00136 -0.00093513512
-0.011923306 0.00050999998 -0.0029783784
-0.0033586777 -0.00050999998 0.00042702703
-0.01595372 0.00050999998 -0.0034891891
-0.001511405 -0.00136 -0.00076486485
0.010243967 0.00085000001 -0.00093513512
0.017129257 -0.00017 -0.00025405406
0.010915703 0.00034 -0.0017864865
-0.018472727 -0.00050999998 0.0019594594
0.013266778 0.00136 -8.3783787e-05
0.014946116 -0.00085000001 -8.3783787e-05
-0.0055418182 0.00017 -0.00093513512
-0.0058776862 -0.00068 -0.0014459459
-0.005709752 0.0017 -0.00076486485
0.003190744 0 -0.00025405406
-0.015785785 0.00068 -0.0029783784
0.019816199 0.00119 -0.00025405406
0.018472727 0.00050999998 0.0011081081
-0.018472727 0.00085000001 0.00059729727
0.010915703 0.00050999998 8.6486485e-05
0.019648265 0.00050999998 -0.0029783784
0.0075570252 0.00119 -0.00093513512
-0.0018472727 0.00068 -0.0012756757
0.011083636 0.0017 -0.00076486485
0.0083966944 0.00068 -0.0019567567
0.020152066 -0.00136 -0.00059459457
-0.00050380168 0.00068 0.0012783784
-0.0016793389 -0.00102 -0.00093513512
-0.0055418182 0.00050999998 -0.0034891891
-0.0068852892 0.0017 -0.00059459457
-0.018472727 0.00050999998 0.00059729727
-0.0016793389 -0.00068 0.0011081081
0.012259174 0.00102 -0.00025405406
0.016121654 0.00085000001 -0.0024675676
0.01595372 0.00102 -0.00025405406
0.00016793389 0.0017 -0.00042432433
0.0082287602 -0.00085000001 -0.0019567567
-0.0085646287 0.00085000001 -8.3783787e-05
-0.011419504 -0.0017 -0.00076486485
-0.012259174 0.00050999998 -0.0021270271
-0.0063814879 0.00050999998 -0.00076486485
-0.0026869422 -0.0017 -0.00093513512
-0.015281984 0.00068 -0.00093513512
-0.00067173556 -0.00085000001 0.0019594594
0.0085646287 0.00050999998 -0.00093513512
0.00067173556 0.00068 -0.0011054054
0.0033586777 -0.00085000001 -0.002808108
-0.01595372 0.00085000001 -8.3783787e-05
-0.014778182 -0.00050999998 -0.0014459459
-0.016121654 0.00034 -0.00093513512
0.002854876 -0.00034 -0.00025405406
0.013434711 0.00050999998 8.6486485e-05
0.0080608269 0.00085000001 -0.0031486487
0.0095722312 0.00050999998 0.001618919
0.0053738845 -0.00050999998 -8.3783787e-05
0.012259174 0 -0.00025405406
-0.0082287602 0.0017 -0.00093513512
-0.019648265 0.00050999998 -0.0022972974
-0.010915703 0.00085000001 -0.0016162163
0.0089004962 0.00119 -0.00076486485
0.013434711 0.00119 -0.00093513512
-0.017465124 -0.00068 -8.3783787e-05
0.01511405 -0.00102 -0.00076486485
0.0055418182 0.00085000001 -0.0024675676
-0.0020152067 -0.00050999998 -0.0021270271
-0.010915703 0.00068 0.0011081081
0.00050380168 0.00050999998 -0.0021270271
-0.019312397 -0.00017 -0.00093513512
-0.0068852892 0.00085000001 -0.0026378378
0.01209124 0.00119 -0.00093513512
-0.010915703 -0.00050999998 -0.0029783784
-0.0016793389 -0.00050999998 -0.0036594595
0.0094042979 -0.00068 -0.00093513512
0.010747769 0.00085000001 0.00059729727
0.013266778 -0.00068 -0.0016162163
-0.013434711 0.00050999998 -0.0031486487
0.0041983472 -0.00085000001 -8.3783787e-05
0.017633058 0.0017 -0.00059459457
-0.011923306 -0.00050999998 0.00076756754
-0.01209124 0.00050999998 -0.0024675676
0.010747769 0.00102 -0.00093513512
-0.00033586778 -0.00050999998 -8.3783787e-05
-0.015449918 -0.0017 -8.3783787e-05
-0.00067173556 0.00136 -0.00025405406
0.014106447 0 -0.00076486485
-0.0070532234 0.00068 0.0014486486
-0.0070532234 -0.00085000001 0.0017891892
-0.018472727 -0.0017 -0.00076486485
0.003190744 -0.00050999998 -0.0033189189
0.0055418182 0.00050999998 0.00076756754
0.0072211572 0.00068 0.00093783782
0.013434711 0.00102 -0.00093513512
0.01729719 -0.00050999998 0.0019594594
0.013938513 0.00034 -0.00076486485
0.01595372 -0.00050999998 -0.0012756757
-0.016793389 -0.0017 -8.3783787e-05
-0.0058776862 -0.00085000001 0.0014486486
0.0082287602 -0.00050999998 -0.0029783784
0.0018472727 0.00050999998 -0.0033189189
-0.003190744 0.00050999998 0.0017891892
0.011419504 0.0017 -0.00025405406
0.01209124 -0.00068 -0.0034891891
-0.0068852892 -0.00068 0.0014486486
0.0053738845 0.00085000001 -8.3783787e-05
-0.011755372 -0.0017 -0.00042432433
0.013266778 -0.0017 -0.00042432433
-0.014106447 0.00050999998 -0.00093513512
-0.013434711 0.00085000001 0.001618919
0.018640662 -0.00068 -0.0024675676
-0.010747769 0.00050999998 -0.0024675676
0.0067173555 0.00068 0.00025675676
0.0095722312 -0.00068 -0.0019567567
0.0095722312 -0.00050999998 0.0017891892
0.007389091 -0.00119 -0.00093513512
0.015449918 0.00102 -0.00025405406
-0.013938513 -0.00068 -0.00093513512
-0.0072211572 -0.0017 -8.3783787e-05
-0.0025190082 -0.0017 -0.00059459457
-0.017465124 0 -0.00093513512
0.0080608269 0.00050999998 0.0017891892
-0.019648265 -0.00050999998 -0.0026378378
-0.004366281 0.00050999998 0.001618919
0 -0.00102 -0.00025405406
-0.0067173555 -0.00068 -0.0012756757
-0.013266778 0.00050999998 -0.0029783784
-0.0080608269 -0.00068 0.0017891892
0.0018472727 0.00050999998 0.00059729727
-0.00067173556 -0.00119 -0.00093513512
0.0095722312 0.00068 -0.002808108
0.005709752 0.00050999998 -0.0038297297
0.00083966943 0.00050999998 0.00042702703
-0.0036945455 -0.00136 -0.00025405406
0.0041983472 0 -0.00093513512
0.014946116 0 -0.00025405406
-0.014778182 -0.00050999998 0.0014486486
-0.0082287602 0.00068 -0.0019567567
-0.0018472727 0.0017 -0.00093513512
-0.018472727 -0.00085000001 0.00076756754
0.01595372 0.00085000001 -0.0036594595
0.005709752 -0.00068 -0.0012756757
-0.00302281 -0.00068 0.0019594594
-0.005709752 0.00085000001 -8.3783787e-05
-0.014946116 0.00017 -0.00093513512
0.0016793389 0 -0.00025405406
-0.014610249 0.00085000001 0.0019594594
-0.01595372 -0.00085000001 -0.0022972974
0.013602645 -0.00050999998 0.0012783784
0.014610249 0.00034 0.0014486486
0.013434711 0.00068 0.0017891892
-0.017465124 -0.00017 -0.00093513512
-0.0020152067 0.00068 -0.0024675676
-0.013098843 -0.00050999998 0.0012783784
-0.012259174 0.00050999998 -0.0014459459
-0.018472727 -0.00068 0.00059729727
-0.003190744 0.00085000001 0.0014486486
0.003190744 0.00085000001 -0.0022972974
0.013266778 -0.00085000001 -0.0031486487
-0.014778182 -0.00068 -0.0014459459
0.003190744 -0.00153 -0.00093513512
-0.010915703 -0.00085000001 0.00025675676
0.0033586777 -0.00050999998 -0.0014459459
0.0033586777 -0.00085000001 0.0017891892
0.0065494217 -0.00102 -0.00025405406
-0.0018472727 0.00068 0.0011081081
0.003190744 -0.00085000001 0.0019594594
-0.0045342152 0.00068 0.0019594594
0.004702149 -0.00068 -0.00093513512
-0.0099080997 -0.00102 -0.00093513512
-0.004366281 -0.00085000001 0.001618919
0.010915703 -0.00034 -0.0021270271
-0.0078928927 -0.00102 -0.00093513512
-0.019480331 0.00085000001 8.6486485e-05
0.0041983472 0.00050999998 8.6486485e-05
0.010076033 0.00017 -0.00076486485
0.003190744 0.00068 -0.0019567567
0.015785785 -0.00068 -0.0022972974
0.010747769 0.00034 0.00093783782
0.016121654 0.00085000001 -0.0017864865
-0.013602645 -0.00034 -0.00093513512
-0.012595042 -0.00136 -8.3783787e-05
0.0016793389 0.00050999998 0.00025675676
-0.0067173555 0.00017 -0.00093513512
0.013098843 0.00017 -0.00093513512
0.010915703 0.00034 -0.0033189189
0.017129257 -0.00050999998 0.00059729727
-0.007389091 -0.00017 -0.00093513512
0.014610249 0.00085000001 -0.0011054054
0.0055418182 0.00068 0.0012783784
-0.0045342152 -0.00068 0.00025675676
0.004366281 -0.00068 0.0019594594
0.0095722312 -0.00068 0.0014486486
-0.016961323 -0.00050999998 -0.0026378378
-0.011923306 0.00136 -8.3783787e-05
-0.018136861 -0.00102 -0.00093513512
0.018136861 -0.00017 -0.00025405406
-0.0072211572 0.00119 -0.00093513512
-0.014610249 -0.00017 -0.00025405406
0.0094042979 0.00068 0.00059729727
0.0089004962 0 -0.00076486485
0.0040304135 0.00068 -0.00093513512
-0.0070532234 0.00050999998 0.0019594594
0.014106447 -0.00136 -8.3783787e-05
0.01511405 0.00017 -0.00025405406
-0.0094042979 -0.00017 -0.00093513512
-0.010579835 -0.0017 -0.00025405406
-0.019480331 -0.00102 -0.00025405406
0.00067173556 0.00050999998 -0.002808108
-0.005709752 0.00068 -0.0022972974
-0.01209124 0.00119 -0.00025405406
-0.00050380168 0 -0.00093513512
0.016121654 -0.00068 -0.0031486487
-0.0082287602 0.00068 -0.0014459459
-0.014610249 0.00050999998 0.0011081081
-0.014610249 0 -0.00025405406
0.010076033 -0.0017 -0.00025405406
-0.014610249 -0.00085000001 -0.0036594595
-0.0018472727 -0.00085000001 0.00076756754
0.012259174 -0.00050999998 -0.0021270271
-0.014946116 0.00068 -0.00093513512
-0.0067173555 0.00017 -0.00025405406
0.01729719 -0.00068 0.00076756754
-0.00067173556 -0.00050999998 0.00076756754
-0.004366281 0.00034 -0.00093513512
0.010915703 -0.00068 0.0014486486
0.0068852892 0.00050999998 -0.0021270271
-0.001511405 -0.00153 -8.3783787e-05
0.011419504 -0.00034 -8.3783787e-05
-0.018304793 -0.00050999998 0.00042702703
-0.01209124 0.00050999998 -0.0014459459
0.0082287602 0.00050999998 0.00059729727
-0.00050380168 -0.0017 -8.3783787e-05
0.005709752 0.00085000001 -0.0029783784
0.014778182 0.00085000001 -0.0014459459
-0.01595372 0.00068 0.00025675676
0.015617851 0.00050999998 -0.0017864865
0.0045342152 -0.00085000001 0.00076756754
0.0045342152 0.00068 0.0017891892
-0.019816199 0.00068 -0.0014459459
0.0045342152 -0.00085000001 0.001618919
0.0085646287 0.00119 -0.00093513512
0.0058776862 0.00085000001 -0.0029783784
-0.0068852892 -0.00068 0.0011081081
0.00604562 0.00119 -0.00076486485
0.0041983472 0.00068 8.6486485e-05
-0.0033586777 -0.00050999998 -8.3783787e-05
0.0082287602 -0.00085000001 -0.0031486487
-0.0095722312 0.00050999998 -0.0014459459
0.003190744 -0.00050999998 0.00025675676
-0.014442314 -0.00085000001 -0.0012756757
0.0020152067 0.00068 0.0014486486
0.0085646287 0.00136 -0.00093513512
-0.0070532234 0.00085000001 0.00042702703
-0.013434711 0.00050999998 -0.0026378378
-0.016625455 -0.00050999998 -8.3783787e-05
-0.0052059507 0.00034 -0.00025405406
-0.0070532234 -0.00050999998 -0.0022972974
0.012259174 -0.00050999998 -0.0033189189
-0.0065494217 -0.00050999998 -0.00093513512
0.01209124 -0.00068 0.00076756754
0.0018472727 0.00050999998 0.0011081081
0.0055418182 -0.00102 -0.00093513512
0.01595372 -0.00085000001 -0.0029783784
-0.0055418182 -0.00085000001 0.0017891892
0.00050380168 0.00085000001 -0.0022972974
0.01645752 -0.00119 -0.00025405406
-0.0082287602 0.00068 0.00093783782
0.0065494217 -0.00068 -0.00093513512
0.00050380168 0.00068 0.001618919
-0.013098843 -0.00085000001 -8.3783787e-05
0.019648265 0.00034 0.0011081081
-0.019480331 0.0017 -0.00042432433
0.0013434711 0.0017 -0.00093513512
0.0063814879 -0.00102 -0.00076486485
0.014442314 0.0017 -8.3783787e-05
0.014778182 -0.00050999998 0.0017891892
-0.014610249 0.00017 -0.00025405406
-0.016961323 0 -0.00093513512
-0.005709752 0.00136 -0.00093513512
0.019816199 -0.00050999998 -0.0029783784
-0.0077249589 0.00017 -0.00093513512
0.0020152067 -0.00068 0.0011081081
-0.018304793 0 -0.00093513512
0.010915703 -0.00068 -0.0031486487
-0.0085646287 0.00034 -0.00025405406
0.015449918 0.00136 -8.3783787e-05
-0.012259174 0.00050999998 -0.0022972974
0.005709752 -0.00050999998 0.00076756754
-0.0068852892 0.00068 -0.0029783784
-0.016961323 -0.00050999998 0.0017891892
-0.013266778 0.00153 -0.00093513512
-0.017465124 0 -0.00025405406
0.0094042979 0.00068 -0.0022972974
-0.011923306 -0.00085000001 -0.0021270271
0.0025190082 -0.0017 -0.00076486485
0.018136861 -0.00119 -0.00093513512
-0.0058776862 -0.00085000001 0.00059729727
0.002854876 0.00153 -8.3783787e-05
0.00083966943 0.00050999998 -0.0024675676
0.017129257 -0.00068 0.00025675676
-0.00604562 -0.00136 -0.00025405406
0.003190744 0.00068 0.0012783784
0.016121654 -0.00119 -0.00025405406
-0.018304793 0.00050999998 0.00093783782
-0.017129257 -0.00085000001 -0.0022972974
-0.0080608269 -0.00050999998 -0.0034891891
0.0097401654 -0.00050999998 -0.0019567567
0.01209124 -0.00068 0.0014486486
-0.001511405 0.00153 -0.00076486485
0.0033586777 -0.00085000001 -0.0021270271
-0.0033586777 -0.00085000001 8.6486485e-05
0.014442314 0.00050999998 0.00076756754
-0.01595372 -0.00085000001 -0.002808108
-0.0090684304 -0.0017 -8.3783787e-05
-0.00067173556 0.00085000001 -0.0022972974
0.007389091 0.0017 -0.00025405406
0.018640662 -0.00050999998 0.001618919
0.019648265 0.0017 -0.00076486485
0.0082287602 -0.00068 0.0014486486
-0.0095722312 0.00050999998 0.0012783784
0.01729719 0.00085000001 -0.0014459459
0.013434711 0.00085000001 0.00025675676
0.015785785 0.00085000001 -0.0031486487
0.0077249589 0.00119 -0.00025405406
0.0045342152 -0.00050999998 0.00093783782
0.0033586777 0.00050999998 -8.3783787e-05
-0.0094042979 -0.00085000001 0.0014486486
-0.0035266117 -0.0017 -0.00059459457
0.011923306 0.00050999998 0.0019594594
-0.005709752 -0.00034 -0.00025405406
0.017129257 0.00085000001 0.0019594594
0.0033586777 -0.0017 -0.00025405406
0.018808596 -0.00136 -0.00076486485
0.02032 0.00085000001 -0.00059459457
0.012427107 -0.00102 -0.00025405406
0.0095722312 0.00068 -0.0017864865
0.0062135537 0.00017 -0.00025405406
-0.00050380168 -0.00085000001 -0.0036594595
0.003190744 -0.00085000001 -0.0016162163
-0.019648265 -0.00050999998 0.0012783784
-0.010915703 -0.00050999998 0.0014486486
-0.0050380165 -0.00119 -0.00076486485
-0.01209124 0.00050999998 -0.002808108
0.015785785 -0.00102 -0.00093513512
-0.019648265 -0.0017 -0.00025405406
0.011923306 0.00102 -0.00093513512
-0.012259174 -0.00068 -0.0016162163
-0.0095722312 -0.00068 -0.0021270271
-0.019480331 -0.00085000001 -0.00093513512
0.011755372 0.0017 -8.3783787e-05
0.0062135537 -0.00119 -0.00025405406
-0.007389091 -0.00085000001 -8.3783787e-05
0.019312397 -0.00034 -0.00076486485
0.010243967 -0.00136 -0.00093513512
-0.017968927 0.0017 -8.3783787e-05
0.01427438 -0.00085000001 -8.3783787e-05
0.0055418182 -0.0017 -0.00076486485
0.01209124 -0.00085000001 -0.0017864865
-0.0078928927 0.00050999998 -8.3783787e-05
-0.00050380168 -0.00085000001 0.0011081081
-0.00050380168 -0.00068 0.001618919
0.0083966944 -0.00136 -0.00093513512
-0.014778182 -0.00068 -0.0031486487
0.010915703 -0.00068 -0.0021270271
0.0078928927 0.00034 -0.00093513512
0.012259174 -0.00050999998 -0.0031486487
0.01645752 0 -0.00076486485
0.011923306 0.00119 -0.00093513512
0.0058776862 0.00085000001 8.6486485e-05
0.0048700827 0.0017 -8.3783787e-05
-0.00033586778 0.00017 -0.00025405406
-0.018136861 0.00034 -0.00093513512
0.0058776862 -0.00085000001 -0.0021270271
0.0092363637 -0.00119 -0.00025405406
0.0045342152 -0.00102 -0.00093513512
-0.010747769 0.00050999998 -0.0026378378
-0.014106447 -0.00068 -8.3783787e-05
0.018472727 0.00050999998 -0.0017864865
0.011419504 -0.00085000001 -8.3783787e-05
0.0018472727 -0.00050999998 0.0011081081
0.013434711 0.00034 0.0014486486
-0.010747769 0.00102 -0.00025405406
-0.00067173556 -0.00085000001 -0.0012756757
-0.007389091 0 -0.00025405406
-0.011251571 0.00050999998 -8.3783787e-05
0.013938513 0.00068 -8.3783787e-05
0.0018472727 0.00050999998 0.0019594594
0.015785785 0.00068 -0.0026378378
0.0041983472 0 -0.00025405406
-0.005709752 0.00102 -0.00093513512
0.014778182 0.00119 -0.00025405406
-0.010747769 0.00085000001 -0.002808108
-0.011755372 0.00119 -0.00025405406
-0.019312397 -0.00034 -0.00093513512
-0.010747769 -0.00153 -8.3783787e-05
-0.00016793389 -0.00153 -0.00093513512
-0.0045342152 -0.00085000001 -0.0017864865
0.019816199 -0.00034 0.0014486486
0.00033586778 0.0017 -0.00059459457
-0.0033586777 -0.00017 -0.00025405406
0.0097401654 -0.00050999998 0.00059729727
-0.0077249589 -0.00136 -0.00093513512
0.0050380165 0.00050999998 -0.00076486485
0.0026869422 0.00017 -0.00025405406
-0.010747769 -0.00085000001 0.0012783784
0.0058776862 -0.0017 -0.00076486485
-0.0023510745 0.00017 -0.00076486485
0.0033586777 0.00050999998 0.00025675676
0.0068852892 -0.00085000001 -0.0031486487
-0.0020152067 -0.00050999998 -0.0024675676
-0.019480331 -0.00050999998 -0.0012756757
0.011419504 0.00153 -0.00076486485
-0.0095722312 0.00085000001 -0.0029783784
-0.011923306 0.00050999998 8.6486485e-05
-0.01729719 0.00085000001 0.00042702703
-0.00067173556 -0.00068 -0.002808108
-0.018304793 0.00050999998 -0.0033189189
-0.014778182 0.00085000001 -0.0011054054
-0.0078928927 0.00034 -0.00093513512
-0.014610249 -0.00085000001 -0.0022972974
-0.013434711 0.00085000001 0.0012783784
0.01209124 0.00085000001 0.00025675676
-0.012259174 0.00050999998 -0.0017864865
-0.0077249589 -0.00136 -0.00025405406
0.0018472727 -0.00050999998 0.00076756754
-0.00067173556 -0.00085000001 0.0014486486
0.0050380165 0.00153 -0.00076486485
0.012595042 -0.00050999998 -8.3783787e-05
0.0067173555 0.00050999998 -0.0011054054
-0.010915703 -0.00153 -8.3783787e-05
0.018472727 -0.00085000001 0.00025675676
0.0050380165 -0.00068 -8.3783787e-05
0.00067173556 -0.00050999998 -0.0033189189
-0.018304793 -0.00050999998 -0.0017864865
-0.011923306 -0.00085000001 0.00059729727
0.0053738845 -0.00017 -0.00025405406
0.0045342152 0.00068 -0.0022972974
0.011251571 -0.0017 -0.00025405406
0.010915703 -0.00119 -0.00093513512
0.0067173555 0.00050999998 0.0011081081
0.01595372 0.00085000001 -0.0033189189
-0.011923306 0.00068 -0.0021270271
0.010915703 -0.00068 0.0012783784
0.0055418182 0.00085000001 -0.0012756757
-0.003190744 -0.00050999998 -0.0019567567
-0.0063814879 0.00034 -0.00076486485
0.0062135537 0.00050999998 -0.00076486485
-0.0026869422 0.00085000001 -0.00093513512
-0.0011755372 -0.0017 -0.00059459457
0.010747769 0.00034 -0.0014459459
-0.01897653 0.0017 -0.00076486485
0.018136861 -0.00119 -0.00025405406
0.00033586778 0.00068 8.6486485e-05
-0.016289588 0.0017 -0.00042432433
-0.012259174 -0.00050999998 -0.0024675676
-0.005709752 -0.0017 -0.00093513512
0.010579835 -0.0017 -0.00093513512
-0.012259174 0.00085000001 -0.0017864865
-0.0035266117 0.00068 -0.00076486485
-0.00033586778 -0.00050999998 0.001618919
-0.0095722312 -0.00085000001 0.00042702703
-0.00050380168 0.00153 -0.00076486485
-0.0055418182 0 -0.00093513512
0.01511405 0.00034 -0.00093513512
0.0070532234 -0.00050999998 -0.0016162163
0.02032 0.00050999998 -0.00076486485
0.019648265 -0.00050999998 -0.0029783784
-0.019648265 -0.00085000001 -0.0022972974
-0.010915703 0.00068 0.0014486486
0.00050380168 0.00085000001 -0.0026378378
0.01729719 0.00085000001 0.0012783784
-0.0070532234 -0.00050999998 -0.0014459459
-0.0068852892 -0.00050999998 0.00059729727
0.0092363637 -0.00153 -0.00093513512
-0.013098843 0.0017 -0.00076486485
0.0055418182 0.00050999998 -0.0022972974
-0.0040304135 0.00102 -0.00093513512
0.0083966944 -0.00068 0.0012783784
0.003190744 0.00068 -0.0029783784
-0.0092363637 -0.0017 -0.00059459457
-0.0055418182 -0.00050999998 0.00042702703
-0.012930909 0.00017 -0.00093513512
0.0020152067 0.00085000001 -0.0012756757
-0.008732562 -0.00017 -0.00076486485
0.0016793389 0.0017 -8.3783787e-05
0.019816199 0.00050999998 0.00059729727
0.014610249 -0.00017 -0.00093513512
0.018640662 -0.00068 0.0011081081
0.008732562 0.00153 -0.00093513512
0.004702149 -0.00085000001 -0.00093513512
0.0018472727 -0.00136 -0.00093513512
0.0070532234 -0.00050999998 -0.0033189189
-0.0070532234 -0.00050999998 0.00076756754
0.0090684304 0.00136 -0.00093513512
0.016289588 -0.00136 -8.3783787e-05
0.0020152067 -0.00119 -0.00025405406
-0.005709752 -0.00050999998 -0.0021270271
-0.00050380168 -0.00050999998 -0.0019567567
0.0075570252 -0.0017 -8.3783787e-05
-0.0097401654 -0.00050999998 0.001618919
0.017129257 0.00034 -0.0031486487
-0.0018472727 -0.00085000001 0.00042702703
-0.013098843 0.00119 -0.00093513512
-0.0099080997 -0.00068 -8.3783787e-05
0.0058776862 -0.00050999998 -0.0012756757
0.0068852892 0.00085000001 -0.0017864865
-0.0020152067 0.00085000001 0.00093783782
-0.018304793 0.00068 0.0014486486
-0.015617851 -0.00068 -0.0029783784
-0.002854876 0.00085000001 -0.00076486485
-0.011923306 0 -0.00093513512
-0.0011755372 -0.00034 -0.00076486485
0.0083966944 -0.00136 -0.00025405406
-0.0045342152 0.00085000001 0.00059729727
0.0083966944 -0.00085000001 0.00076756754
-0.014106447 -0.00153 -0.00093513512
-0.0068852892 -0.00050999998 -0.0036594595
0.013266778 -0.00068 0.001618919
0.012259174 -0.00050999998 -0.0022972974
-0.0077249589 -0.0017 -0.00042432433
-0.014778182 0.0017 -0.00059459457
-0.0068852892 -0.00068 -0.0026378378
-0.014610249 -0.00085000001 0.0014486486
-0.00067173556 0.00085000001 -0.0026378378
-0.004366281 0.00068 0.00025675676
0.013098843 0.00102 -0.00025405406
0.017465124 0.00050999998 8.6486485e-05
-0.0062135537 0.00153 -0.00093513512
-0.0065494217 0.00102 -0.00093513512
-0.0041983472 -0.00017 -0.00093513512
-0.013602645 -0.00085000001 -8.3783787e-05
0.003190744 -0.00068 0.0019594594
0.0033586777 0.0017 -0.00025405406
0.0070532234 -0.00068 -0.0016162163
0.01595372 0.00085000001 -0.0021270271
-0.010411901 -0.00102 -0.00025405406
0.005709752 -0.00050999998 0.0014486486
0.0018472727 0.00050999998 0.00093783782
0.010579835 0.0017 -0.00093513512
0.0018472727 -0.00068 8.6486485e-05
0.014442314 0.00050999998 0.00025675676
0.018136861 0.00068 -8.3783787e-05
-0.0083966944 -0.00068 -0.0036594595
-0.012762976 0 -0.00093513512
0.013266778 -0.00085000001 -0.0021270271
0.0082287602 0.00085000001 0.00076756754
0.019816199 -0.00068 -0.0033189189
0.016289588 -0.0017 -0.00059459457
0.007389091 -0.00136 -0.00093513512
0.010915703 -0.00068 -0.0017864865
0.01595372 0.00017 -0.00025405406
-0.01595372 -0.00050999998 0.0019594594
-0.0082287602 -0.00050999998 -0.0031486487
-0.016961323 -0.00068 -0.0024675676
-0.0018472727 0.00085000001 0.00076756754
-0.010915703 0.00068 0.00059729727
0.01209124 0.00085000001 -0.0024675676
-0.010915703 -0.00068 -0.0021270271
-0.00050380168 -0.00068 0.0017891892
0.019648265 -0.00050999998 0.00076756754
-0.012259174 -0.00068 -0.0021270271
0.016793389 -0.00136 -0.00025405406
-0.0033586777 0.00085000001 8.6486485e-05
0.010579835 0.00119 -0.00093513512
0.019648265 0.00068 -0.0034891891
0.00067173556 0.00085000001 0.00042702703
-0.018640662 0 -0.00093513512
0.002854876 0.00085000001 8.6486485e-05
-0.004366281 -0.00085000001 0.0014486486
0.011923306 0.00050999998 0.0017891892
-0.019144462 0.00136 -0.00076486485
-0.00604562 0.0017 -8.3783787e-05
0.0070532234 0.00050999998 0.00076756754
-0.0058776862 -0.00050999998 -0.0019567567
0.012259174 -0.00085000001 0.00076756754
0.011587438 -0.00136 -8.3783787e-05
0.0083966944 -0.00068 -0.0029783784
-0.004702149 -0.00034 -0.00025405406
0.010411901 0.0017 -0.00093513512
-0.0016793389 -0.00085000001 0.00042702703
-0.0045342152 -0.00085000001 0.0014486486
-0.014610249 0.00050999998 -8.3783787e-05
0.015281984 -0.00102 -0.00076486485
-0.015617851 -0.00017 -0.00025405406
0.0062135537 -0.00068 -0.00076486485
0.0070532234 -0.00153 -0.00093513512
-0.019816199 0.00068 -0.0029783784
-0.004366281 0.00085000001 0.00059729727
0.0065494217 -0.0017 -0.00059459457
0.016961323 0.0017 -0.00059459457
0.014610249 -0.00050999998 -0.0026378378
0.014778182 0.00068 -0.0012756757
-0.019984134 0.0017 -0.00025405406
0.0095722312 0.00085000001 -0.0026378378
0.00050380168 0.00085000001 0.00076756754
-0.0082287602 -0.00119 -0.00025405406
-0.011083636 -0.00119 -0.00025405406
0.015449918 -0.00085000001 -8.3783787e-05
0.012259174 -0.00068 -0.0033189189
-0.019648265 0.00050999998 0.00059729727
0.0095722312 0.00085000001 -0.0014459459
0.019816199 -0.00017 -0.00093513512
0.019144462 0.00136 -0.00076486485
0.016121654 0.00153 -8.3783787e-05
0.017129257 -0.00068 -0.0022972974
0.019480331 -0.00034 -0.00076486485
0.0080608269 0.00153 -0.00093513512
0.0072211572 0.00085000001 -0.0014459459
-0.0067173555 -0.00034 -0.00093513512
0.014610249 -0.00085000001 0.00025675676
-0.0021831405 0.0017 -8.3783787e-05
0.011923306 0.00085000001 -0.0033189189
-0.019480331 -0.00068 0.001618919
0.01209124 -0.00085000001 0.0017891892
-0.0095722312 0.00068 0.00042702703
0.015281984 0.00153 -8.3783787e-05
-0.0070532234 0.00119 -0.00025405406
0.00083966943 0.00050999998 -0.0029783784
0.0013434711 0.00050999998 -0.00076486485
-0.016961323 0.00017 -0.00093513512
-0.0021831405 -0.00102 -0.00025405406
0.004366281 -0.00085000001 -0.0011054054
0.013266778 0.00017 -0.00093513512
0.019480331 0.00068 -0.00093513512
0.0080608269 0.00085000001 0.001618919
0.010747769 0 -0.00025405406
-0.012762976 -0.00050999998 -8.3783787e-05
-0.0048700827 -0.00068 -0.00076486485
-0.0038624795 0 -0.00076486485
-0.0045342152 -0.00068 -0.0012756757
-0.00050380168 0.0017 -0.00059459457
-0.01729719 0.00068 -0.0022972974
-0.014442314 0.00068 -0.0026378378
0.010747769 0.00034 0.0012783784
0.0041983472 0.00050999998 -0.0024675676
0.0052059507 0.00085000001 -8.3783787e-05
-0.0070532234 0.00085000001 0.0012783784
-0.01645752 0.00153 -0.00093513512
-0.016961323 -0.00017 -0.00093513512
0.013434711 0.00068 0.00059729727
-0.004366281 0.00050999998 0.00042702703
-0.013938513 -0.0017 -8.3783787e-05
0.0083966944 -0.00050999998 -0.0031486487
-0.01595372 -0.00085000001 -0.0012756757
0.0070532234 -0.00050999998 -0.0024675676
0.00050380168 0.00085000001 -0.0017864865
0.004366281 -0.00068 0.001618919
-0.017968927 -0.00136 -8.3783787e-05
0.0052059507 -0.0017 -0.00093513512
0.0033586777 -0.00017 -0.00093513512
0.005709752 0.00017 -0.00093513512
0.0067173555 0.00050999998 0.00059729727
0.0048700827 -0.00119 -0.00076486485
-0.013434711 -0.00050999998 0.00076756754
-0.0065494217 -0.00102 -0.00093513512
0.018640662 -0.0017 -0.00042432433
0.0068852892 0.00050999998 0.0014486486
0.016961323 0.00050999998 -0.0014459459
-0.01595372 -0.00085000001 0.00059729727
0.014442314 0.00034 0.001618919
-0.0095722312 -0.00068 0.0017891892
0.01729719 0.00034 0.00059729727
-0.018472727 0.00085000001 -0.0014459459
-0.0092363637 -0.0017 -8.3783787e-05
0.0058776862 -0.00050999998 0.00059729727
0.0016793389 0.00050999998 0.00059729727
-0.00016793389 0.00034 -0.00076486485
0.0070532234 -0.00050999998 0.00076756754
-0.016961323 0.00085000001 -0.0026378378
0.015785785 -0.00068 0.00042702703
0.0016793389 -0.00050999998 -0.00093513512
0.010915703 0.00068 0.0017891892
-0.004366281 -0.00050999998 8.6486485e-05
-0.0018472727 -0.00050999998 -0.0011054054
0.010915703 0.00034 0.00059729727
0.01427438 0.00068 -8.3783787e-05
0.0033586777 -0.00068 0.0014486486
0.016961323 -0.00050999998 -0.002808108
-0.00083966943 0.00050999998 -0.0026378378
0.0083966944 -0.00085000001 -0.0031486487
0.004366281 -0.00136 -0.00093513512
-0.013434711 -0.00068 -0.0024675676
0.0055418182 0.00085000001 -0.0021270271
0.0055418182 0.00068 -0.0016162163
0.001511405 0.00153 -8.3783787e-05
-0.013434711 0.00050999998 -0.0021270271
-0.0078928927 0.00050999998 -0.00093513512
0.010915703 -0.00050999998 0.0011081081
-0.015785785 0.00136 -0.00093513512
0.0026869422 0.00136 -0.00076486485
-0.012427107 0.00085000001 -0.00093513512
-0.005709752 0.00068 0.0017891892
0.01209124 -0.00085000001 -0.0026378378
0.0063814879 0.00119 -0.00076486485
0.011755372 -0.0017 -0.00093513512
-0.0099080997 -0.0017 -0.00093513512
-0.020152066 0.00034 -0.00059459457
-0.0070532234 -0.0017 -0.00059459457
0.013266778 0.00068 -0.0034891891
0.01209124 -0.0017 -0.00076486485
-0.016961323 0.00050999998 -0.0033189189
0.003190744 0.00050999998 -0.0034891891
-0.001511405 0.0017 -8.3783787e-05
-0.00302281 0.00034 -0.00093513512
0.013266778 -0.00068 -0.0022972974
-0.004366281 0.0017 -0.00042432433
-0.004366281 0.0017 -8.3783787e-05
-0.0095722312 0.00050999998 -0.0031486487
0.013434711 0.00050999998 -0.0036594595
-0.00050380168 0.00050999998 -0.0031486487
0.019816199 -0.00050999998 -0.0022972974
-0.016121654 -0.00136 -8.3783787e-05
-0.001511405 -0.00085000001 -8.3783787e-05
0.008732562 -0.0017 -0.00059459457
0.013266778 0.00102 -0.00093513512
0.004366281 -0.00085000001 -0.002808108
-0.017129257 0.00102 -0.00093513512
-0.014610249 0.00085000001 0.0011081081
-0.010579835 -0.0017 -0.00093513512
0.015281984 0.0017 -0.00042432433
0.0020152067 0.00034 -0.00025405406
0.0082287602 0.00119 -0.00025405406
-0.016961323 0.00102 -0.00025405406
0.014442314 -0.0017 -8.3783787e-05
0.018808596 0 -0.00025405406
-0.014442314 0.00050999998 -0.0017864865
0.0033586777 -0.00068 -0.0026378378
0.013098843 0.00153 -8.3783787e-05
-0.016121654 0.00153 -8.3783787e-05
0.0041983472 0.00068 -0.0026378378
-0.013098843 -0.00034 -0.00093513512
-0.014442314 -0.0017 -0.00025405406
0.0078928927 -0.00017 -0.00025405406
-0.010076033 0.00153 -0.00093513512
-0.019984134 -0.00050999998 -8.3783787e-05
-0.01595372 0.00102 -0.00025405406
-0.00050380168 0.00068 0.0014486486
-0.0095722312 -0.00068 -0.0029783784
0.0055418182 -0.00153 -0.00093513512
0.00050380168 0.00050999998 -0.0026378378
-0.00050380168 -0.00050999998 0.0014486486
0.02032 0.00017 -0.00059459457
-0.011755372 0.00153 -0.00093513512
0.0050380165 -0.00153 -8.3783787e-05
-0.019648265 -0.00085000001 -0.0012756757
-0.004366281 -0.00034 -0.00093513512
-0.0036945455 0.00017 -0.00025405406
-0.01595372 0.00050999998 0.0014486486
-0.019816199 -0.00050999998 -0.0024675676
0.013098843 0.00119 -0.00076486485
-0.010915703 -0.00050999998 -0.0026378378
-0.012259174 -0.00085000001 -0.0033189189
-0.0016793389 -0.0017 -0.00025405406
-0.014610249 0.00017 -0.00093513512
0.010747769 -0.00068 0.00059729727
0.013434711 0.00050999998 0.0017891892
-0.0018472727 0.00050999998 -0.0022972974
-0.010915703 -0.00068 0.0012783784
0.01209124 0.00034 -0.0017864865
-0.0095722312 0.00050999998 -0.0024675676
-0.0092363637 0 -0.00025405406
0.0083966944 0.00050999998 0.0012783784
0.013266778 -0.00085000001 -0.0029783784
0.005709752 0.00050999998 -0.0017864865
0.01595372 -0.00050999998 0.00059729727
-0.01645752 -0.00017 -0.00093513512
0.00050380168 0.00050999998 -0.0019567567
-0.0080608269 0.00034 -0.00093513512
-0.01595372 0.00068 0.0011081081
-0.00302281 -0.00068 0.00076756754
-0.013434711 0.00068 0.00025675676
-0.020152066 -0.00102 -0.00025405406
0.02032 -0.00034 -0.00076486485
-0.013770578 0.00017 -0.00093513512
0.001511405 0.00153 -0.00076486485
-0.015785785 0.00085000001 -0.0031486487
-0.00302281 -0.00068 -0.0034891891
0.019816199 0.00119 -0.00093513512
-0.0023510745 -0.00034 -0.00025405406
0.0078928927 0.00153 -0.00093513512
0.013938513 0.00119 -0.00025405406
0.0070532234 -0.00102 -0.00025405406
0.019984134 0.0017 -0.00076486485
0.013434711 -0.00050999998 0.00059729727
0.015785785 0.00085000001 -0.0016162163
0.012259174 0.00085000001 -0.0021270271
-0.01595372 0.00068 0.0014486486
0.013266778 -0.00102 -0.00025405406
-0.0045342152 0.00050999998 0.0012783784
-0.00067173556 0.00085000001 -0.0021270271
-0.0026869422 0.0017 -0.00076486485
-0.0020152067 0.00085000001 -0.0026378378
-0.013770578 0.0017 -0.00093513512
-0.00033586778 -0.00102 -0.00093513512
0.0090684304 -0.00102 -0.00025405406
0.0021831405 -0.00034 -0.00025405406
0.0040304135 -0.00136 -0.00025405406
-0.0023510745 -0.00034 -0.00093513512
0.01209124 -0.00119 -0.00025405406
-0.0041983472 -0.00068 -0.0029783784
-0.017129257 -0.00050999998 -0.0014459459
0.0052059507 0.00136 -0.00076486485
-0.00050380168 0.00068 -0.0017864865
0.0038624795 0.00153 -0.00093513512
-0.0058776862 0.00050999998 0.00093783782
-0.01595372 0.00085000001 0.00076756754
0.0065494217 0.00102 -0.00025405406
-0.00067173556 0.00068 0.00042702703
0.0058776862 -0.00119 -0.00093513512
-0.0083966944 0.00119 -0.00093513512
-0.0095722312 0.00050999998 0.0014486486
0.017129257 -0.00050999998 0.00076756754
-0.014106447 0.00085000001 -8.3783787e-05
-0.019816199 0.00068 -0.0017864865
-0.017129257 0.00068 -0.0033189189
-0.0045342152 0.00119 -0.00093513512
0.0045342152 0.00068 -0.0017864865
0.0083966944 0.00153 -0.00093513512
0.00083966943 -0.00085000001 -0.0034891891
0.010747769 0.00050999998 0.0019594594
-0.0040304135 -0.00153 -0.00076486485
0.015617851 -0.00068 -8.3783787e-05
0.0016793389 0.00085000001 -0.0012756757
0.0041983472 0.0017 -0.00093513512
0.0020152067 0.0017 -8.3783787e-05
-0.01729719 0.0017 -0.00025405406
-0.0055418182 0.00085000001 8.6486485e-05
-0.012259174 0.00068 0.00042702703
-0.0095722312 -0.00085000001 0.00076756754
0.019648265 -0.00068 0.0019594594
-0.019816199 0.00050999998 8.6486485e-05
0.018304793 -0.00017 -0.00025405406
-0.0045342152 0.00085000001 0.00093783782
0.003190744 -0.00085000001 0.00093783782
-0.013938513 0.00085000001 -0.00093513512
-0.0082287602 -0.00085000001 0.0019594594
-0.0092363637 -0.0017 -0.00093513512
0.00067173556 -0.00085000001 0.00059729727
-0.010747769 -0.00050999998 0.0014486486
-0.0058776862 0.00085000001 0.00059729727
0.01427438 0.00136 -8.3783787e-05
-0.018304793 -0.00068 0.0011081081
-0.011251571 -0.00085000001 -0.00076486485
0.016289588 0.00068 -8.3783787e-05
-0.0094042979 -0.00068 0.0011081081
0.0036945455 0.00102 -0.00093513512
0.011587438 0 -0.00093513512
0.0021831405 -0.00085000001 8.6486485e-05
0.01729719 -0.00050999998 -0.0014459459
-0.0020152067 -0.0017 -0.00059459457
-0.0082287602 0.00050999998 0.0017891892
0.0048700827 0.00050999998 -0.00076486485
0.003190744 -0.00153 -8.3783787e-05
0.017129257 -0.00050999998 0.00042702703
-0.0070532234 0.00068 0.00025675676
0.0068852892 -0.00085000001 -0.0026378378
-0.0058776862 0.0017 -0.00059459457
0.020152066 -0.00102 -0.00025405406
-0.0053738845 0.00034 -0.00025405406
0.0045342152 -0.00050999998 -0.0021270271
-0.013266778 -0.00050999998 -0.0031486487
0.0097401654 -0.00050999998 0.0017891892
0.0038624795 -0.00136 -0.00025405406
0.014442314 0.00085000001 0.00093783782
0.019648265 0.00034 -0.0011054054
-0.014106447 0.0017 -8.3783787e-05
0.014778182 -0.0017 -0.00076486485
0.010915703 -0.00085000001 -8.3783787e-05
0.0055418182 0.0017 -0.00093513512
0.0038624795 0.00136 -0.00025405406
-0.00033586778 -0.00050999998 -0.0024675676
0.0068852892 -0.0017 -8.3783787e-05
-0.014610249 0.00085000001 -0.0012756757
0.020152066 0.00153 -0.00025405406
-0.00067173556 0.0017 -0.00042432433
0.01645752 -0.00153 -8.3783787e-05
-0.00083966943 0.00050999998 0.001618919
-0.014610249 0.00068 -0.0036594595
0.010915703 -0.00085000001 -0.0026378378
-0.0033586777 0.00050999998 -0.002808108
0.012595042 -0.0017 -0.00059459457
-0.011587438 -0.00034 -0.00093513512
0.017800992 -0.00153 -8.3783787e-05
-0.010747769 -0.00136 -0.00093513512
-0.01209124 -0.00085000001 -0.0011054054
0.019312397 0.00153 -0.00076486485
-0.00302281 -0.00085000001 0.00042702703
-0.015617851 -0.00050999998 -0.002808108
-0.014106447 0.00102 -0.00093513512
-0.0082287602 0.00085000001 0.00076756754
-0.0095722312 -0.0017 -0.00076486485
0.013602645 0.00050999998 -0.00093513512
-0.0065494217 0.00034 -0.00093513512
0.017633058 0.00034 -8.3783787e-05
-0.0055418182 -0.00085000001 -0.0019567567
-0.0020152067 -0.0017 -8.3783787e-05
-0.00604562 -0.00153 -8.3783787e-05
0.011923306 0.00068 0.0014486486
0.01209124 0.00034 0.00025675676
-0.018472727 -0.00068 0.0014486486
0.010915703 0.00068 -0.0031486487
-0.018136861 -0.00085000001 -8.3783787e-05
-0.019144462 -0.00102 -0.00093513512
0.0016793389 0.00068 -0.0021270271
0.0035266117 -0.00034 -0.00093513512
-0.0078928927 -0.00136 -0.00093513512
-0.00604562 0.00034 -0.00025405406
-0.018136861 -0.0017 -0.00025405406
0.018472727 -0.00085000001 -0.0012756757
0.01595372 -0.00119 -0.00093513512
-0.014778182 0.00050999998 -0.0017864865
0.0097401654 0.00050999998 0.00025675676
-0.019816199 0.00050999998 0.0019594594
-0.017968927 -0.0017 -0.00076486485
-0.008732562 -0.00085000001 -0.00093513512
-0.0011755372 -0.00136 -0.00025405406
0.011083636 -0.00034 -8.3783787e-05
-0.017129257 0.00050999998 -0.002808108
0.01729719 -0.00085000001 -0.0012756757
0.0023510745 0.00068 -0.00076486485
-0.012259174 0.0017 -0.00093513512
-0.00302281 -0.00050999998 0.0012783784
-0.0067173555 -0.0017 -0.00059459457
-0.0058776862 -0.00085000001 0.00042702703
-0.019648265 0.00050999998 0.0011081081
-0.0075570252 -0.00119 -0.00025405406
0.0023510745 -0.00085000001 -0.00076486485
0.0082287602 0.00050999998 -0.0022972974
0.015785785 -0.00085000001 0.00042702703
-0.013770578 0.00068 -8.3783787e-05
-0.011923306 -0.00068 -0.0034891891
0.019648265 -0.00085000001 0.0011081081
-0.004702149 0.00068 -8.3783787e-05
0.0058776862 0 -0.00093513512
-0.019312397 0.00034 -0.00025405406
-0.0094042979 -0.00050999998 0.0012783784
-0.0070532234 0.00085000001 0.001618919
0.00302281 0.00085000001 -0.0026378378
-0.010915703 -0.00085000001 -0.0031486487
0.013434711 -0.0017 -0.00042432433
0.011923306 0.00085000001 -0.0011054054
-0.0055418182 -0.00068 0.0017891892
-0.01729719 0.00068 -0.0029783784
-0.019648265 -0.00068 -0.0011054054
0.016961323 -0.0017 -0.00025405406
-0.005709752 0.00085000001 -0.002808108
-0.013098843 0.00102 -0.00093513512
0.0072211572 0 -0.00093513512
0.0090684304 -0.00017 -0.00025405406
-0.019312397 -0.00102 -0.00093513512
0.018304793 -0.00050999998 0.0017891892
0.0099080997 -0.00068 -0.00076486485
-0.016121654 0.00050999998 -8.3783787e-05
0.00050380168 -0.00050999998 0.0017891892
0.010411901 0 -0.00025405406
-0.017633058 0.00119 -0.00025405406
-0.0045342152 -0.00068 -0.0022972974
0.016961323 0.00068 -0.0033189189
0.0080608269 0.00068 0.0011081081
0.0021831405 0.00017 -0.00025405406
0.01595372 0.00085000001 -0.0024675676
0.015449918 -0.00017 -0.00076486485
-0.017633058 0.00136 -0.00076486485
-0.0092363637 -0.00136 -0.00025405406
0.012259174 -0.00085000001 -0.00093513512
-0.004366281 0.00050999998 0.0014486486
0.011923306 0.00068 0.0017891892
0.019816199 -0.00050999998 0.00042702703
0.0038624795 -0.00068 -0.00093513512
0.015785785 -0.00068 -0.0031486487
0.016625455 -0.0017 -0.00042432433
-0.013434711 0.00068 -0.0014459459
-0.01897653 -0.00068 -0.00093513512
0.012762976 0.0017 -0.00076486485
-0.013098843 0.00136 -8.3783787e-05
0.014610249 -0.00085000001 -0.0021270271
-0.00016793389 -0.00119 -0.00093513512
-0.014610249 0.00085000001 -0.0034891891
-0.016793389 0.0017 -0.00042432433
0.0020152067 -0.00050999998 0.001618919
-0.019312397 -0.00068 -0.00093513512
-0.0016793389 -0.00050999998 -0.0031486487
-0.019648265 0.00050999998 -0.0031486487
0.01729719 0.00034 0.0014486486
-0.008732562 -0.0017 -8.3783787e-05
-0.0082287602 0.00085000001 -0.0026378378
-0.013266778 -0.00050999998 -0.0036594595
0.0083966944 -0.00017 -0.00093513512
-0.0033586777 0.00034 -0.00025405406
-0.010747769 -0.00085000001 -0.0026378378
0.0018472727 -0.00068 -0.0026378378
0.0080608269 0.00017 -0.00093513512
0.0020152067 0.00085000001 -0.0011054054
-0.010747769 0.00085000001 0.0014486486
-0.010747769 -0.00050999998 0.0012783784
0.01729719 -0.00085000001 0.00093783782
0.004366281 0.00085000001 0.00025675676
0.0082287602 -0.00068 -0.0029783784
0.010243967 -0.00136 -8.3783787e-05
0.012259174 0.00068 -0.0012756757
0.0011755372 0.00085000001 -8.3783787e-05
-0.01595372 0.00068 -0.0021270271
0.01595372 -0.00050999998 -0.0031486487
0.013266778 0.00068 0.001618919
-0.017129257 0.00085000001 0.00059729727
0.019648265 0.00050999998 -0.0034891891
-0.0033586777 0.00085000001 0.00093783782
-0.013938513 0.00119 -0.00093513512
-0.014610249 -0.00050999998 0.0017891892
0.013266778 -0.00153 -8.3783787e-05
0.0072211572 -0.00050999998 -0.0012756757
0.014610249 0.0017 -8.3783787e-05
0.0063814879 -0.0017 -0.00076486485
0.00302281 -0.00153 -8.3783787e-05
-0.017465124 -0.00153 -0.00076486485
0.002854876 0.00017 -0.00093513512
-0.00050380168 0.00068 0.00093783782
-0.0083966944 -0.00068 8.6486485e-05
0.0020152067 -0.00085000001 -0.0012756757
0.014610249 -0.00068 -0.0017864865
-0.014442314 0.00034 -0.00093513512
0.0050380165 0.00085000001 -8.3783787e-05
0.00050380168 0.00119 -0.00093513512
-0.010579835 -0.00085000001 -0.0019567567
-0.01511405 0.0017 -0.00059459457
-0.0016793389 -0.00068 -0.0036594595
-0.010747769 -0.00085000001 0.00093783782
-0.005709752 -0.0017 -8.3783787e-05
-0.0020152067 0.00068 -0.0017864865
0.0033586777 0 -0.00093513512
-0.00050380168 -0.00085000001 0.0014486486
-0.014946116 -0.00017 -0.00025405406
0.013434711 0.00050999998 -0.0016162163
0.013434711 0.00068 0.00093783782
0.0082287602 -0.00068 -0.0019567567
0.017129257 0.00050999998 0.0017891892
-0.013434711 -0.00085000001 0.0012783784
0.00604562 -0.00085000001 -8.3783787e-05
-0.00016793389 -0.00050999998 -8.3783787e-05
-0.017968927 0.00102 -0.00025405406
-0.012595042 -0.00136 -0.00093513512
-0.0089004962 0.00085000001 -0.00093513512
0.014778182 -0.00136 -0.00093513512
-0.019648265 0.00068 -0.0012756757
0.0090684304 0.00119 -0.00093513512
0.015449918 -0.0017 -0.00076486485
0.004366281 0.00085000001 0.0011081081
-0.0020152067 -0.00085000001 -0.0021270271
0.013434711 0.00034 0.00059729727
-0.012259174 -0.00085000001 0.0017891892
0.0018472727 -0.00050999998 0.00059729727
