# .PCD v0.7 - Point Cloud Data file format
VERSION 0.7
FIELDS x y z
SIZE 4 4 4
TYPE F F F
COUNT 1 1 1
WIDTH 1129
HEIGHT 1
VIEWPOINT 0 0 0 1 0 0 0
POINTS 1129
DATA ascii
-0.0057248701 0.00019814816 0.00094430381
0.0018556477 -0.0001188889 -0.0032822785
-0.0039876681 0.00059444451 -0.00088987342
0.005566943 -0.0001188889 0.0010240506
0.0030401035 -3.9629635e-05 0.00078481011
0.0041455957 -0.00051518524 -0.00096962025
-0.0069093262 3.9629635e-05 -0.0022455696
-0.0020925389 -0.00091148156 -0.00096962025
0.0013029015 -0.00083222229 -9.2405062e-05
-0.0035138859 -0.0010700001 -0.00065063289
0.0043824869 0.0001188889 0.00086455699
0.0013029015 -0.00083222229 -0.00088987342
-0.0016187564 -0.00091148156 -1.2658228e-05
-0.0046193781 -0.00035666669 -0.00096962025
0.0065934714 0.00051518524 -0.00088987342
-0.0043035233 -3.9629635e-05 0.00070506328
0.0045404145 -0.0010700001 -0.00073037978
0.0048562693 0.00067370379 -0.00025189875
-0.00035533679 -0.00083222229 -1.2658228e-05
-0.0044614505 -0.0001188889 -0.0023253164
0.0042245593 -0.00019814816 -1.2658228e-05
-0.00043430051 3.9629635e-05 -0.0034417722
-0.0050931606 -0.00035666669 -0.00025189875
-0.0069093262 -0.00075296301 -0.00017215189
-0.0044614505 0.00019814816 0.0011835443
0.005566943 -3.9629635e-05 0.00078481011
0.00067119166 0.00099074084 -0.00088987342
-0.0069093262 -3.9629635e-05 -0.0015278481
-0.00059222797 -0.00019814816 0.00086455699
-0.0058038342 3.9629635e-05 -0.0024848101
-0.0017766838 0.00019814816 -0.00017215189
0.007304145 0.00091148156 -0.00088987342
0.0053300518 -0.0010700001 -0.00033164557
-0.0017766838 -0.0001188889 -0.0036012658
0.0010660103 0.00075296301 -0.00096962025
0.0018556477 3.9629635e-05 0.0020607596
-0.00090808287 0.00051518524 -0.00088987342
0.0053300518 0.00019814816 -1.2658228e-05
0.0015397927 -0.00035666669 -0.00025189875
-0.0043035233 -0.0010700001 -9.2405062e-05
0.00067119166 0.00019814816 0.0020607596
-0.00027637306 0.0001188889 -0.00096962025
-0.0045404145 0.0001188889 -0.0026443037
0.0053300518 0.0010700001 -0.00017215189
0.005014197 0.0010700001 -0.00041139239
0.005014197 -0.0001188889 -0.00088987342
0.0018556477 0.00019814816 6.7088607e-05
0.0070672538 3.9629635e-05 -0.003521519
0.0058038342 3.9629635e-05 0.0019012658
-0.0073831086 0.00075296301 -0.00017215189
-0.0046983417 -0.00083222229 -1.2658228e-05
0.0044614505 -3.9629635e-05 0.00054556964
0.006672435 0.00019814816 -0.00096962025
-0.00043430051 -0.0001188889 0.00038607596
0.0016977201 -0.00019814816 -1.2658228e-05
-0.00051326421 -0.00019814816 0.0017417722
-0.0020135751 0.00019814816 0.0010240506
-0.00027637306 3.9629635e-05 -0.00096962025
0.0056459066 -0.00019814816 0.00014683545
0.005014197 -0.0010700001 -0.00065063289
0.0032769947 -3.9629635e-05 -0.0022455696
0.0061986526 -0.00099074084 -0.00033164557
-0.0018556477 0.00075296301 -1.2658228e-05
-0.0056459066 0.0001188889 -0.0029632912
-0.00075015542 3.9629635e-05 0.0015822785
-0.0020925389 -3.9629635e-05 -0.0025645569
0.0054879789 0.0010700001 -0.00065063289
0.0071462174 0.00067370379 -0.00088987342
-0.0045404145 0.0010700001 -0.00017215189
-0.0043035233 0.0001188889 0.00094430381
0.0018556477 -0.0001188889 -0.002086076
0.0057248701 -0.00043592596 -0.00025189875
0.0058038342 -0.0001188889 -0.0031227849
-0.0031980311 0.0001188889 0.0019012658
0.0052510877 -0.0010700001 -0.00041139239
0.0020135751 -0.00019814816 -1.2658228e-05
-0.0069882898 -3.9629635e-05 -0.0024848101
-0.0030401035 3.9629635e-05 -0.0036012658
0.0046193781 -0.00067370379 -0.00025189875
0.0034349221 -0.00075296301 -0.0008101266
0.0024873575 0.00091148156 -1.2658228e-05
-0.0047773058 -0.00019814816 -9.2405062e-05
0.0068303626 0.00043592596 -0.00088987342
-0.00075015542 0.00091148156 -1.2658228e-05
-0.0016187564 0.00083222229 -0.00096962025
-0.0035138859 0.00067370379 -0.00025189875
0.0043035233 -0.00019814816 -0.00096962025
0.00011844559 0.00035666669 -0.00017215189
0.0029611399 -0.00099074084 -0.0008101266
0.0027242487 -0.00075296301 -0.00096962025
-0.0032769947 -0.0001188889 -0.0018468355
-0.0016187564 0.00099074084 -0.00057088607
0.0040666321 0.00019814816 -0.00017215189
-0.0069093262 -0.0001188889 -0.0020063291
0.0031190673 -0.0001188889 -0.0023253164
-0.0031980311 -0.00019814816 -0.0015278481
0.0017766838 -3.9629635e-05 -0.001129114
3.9481863e-05 -0.00035666669 -0.00096962025
0.0069882898 -3.9629635e-05 0.00030632911
-0.0035138859 0.00035666669 -0.00088987342
0.0028032123 0.00075296301 -0.00017215189
0.0017766838 3.9629635e-05 -0.0020063291
-0.0020135751 -0.0001188889 -0.002086076
-0.00082911918 3.9629635e-05 0.00030632911
0.0031190673 -0.0001188889 0.00062531646
0.0016977201 -0.00035666669 -0.00096962025
-0.0018556477 0.0001188889 -0.0012088608
-0.0056459066 -0.0001188889 0.0015025317
-0.00059222797 0.00099074084 -0.00017215189
-0.0065934714 0.00083222229 -0.00088987342
-0.0023294301 0.00067370379 -0.00025189875
0.0070672538 -3.9629635e-05 -0.0016873417
0.0032769947 0.0001188889 0.00046582278
0.00067119166 0.00019814816 0.0011037975
-0.005014197 -0.00043592596 -0.00096962025
-0.0040666321 -0.0010700001 -9.2405062e-05
-0.0031980311 0.00099074084 -0.00065063289
-0.0036718133 -0.00067370379 -0.00025189875
-0.0019346114 0.00019814816 0.00086455699
-0.0070672538 3.9629635e-05 0.00046582278
-0.0074620722 0.00067370379 -0.0008101266
0.00019740932 -0.00019814816 -0.00088987342
-0.0067513986 0.00075296301 -0.00017215189
-0.0032769947 0.0001188889 0.00054556964
-0.00051326421 0.00083222229 -0.00088987342
0.0031980311 0.00019814816 0.00078481011
-0.00043430051 3.9629635e-05 0.00022658228
-0.0032769947 3.9629635e-05 -0.0014481012
0.0059617613 0.0010700001 -0.00025189875
-0.0020135751 0.00019814816 -0.0028835442
-0.0031980311 0.00043592596 -0.00017215189
-0.0048562693 -0.0010700001 -0.00033164557
0.0039876681 0.00099074084 -0.00033164557
0.0018556477 -0.0010700001 -0.00041139239
-0.0018556477 -0.0010700001 -9.2405062e-05
0.0030401035 0.00019814816 -0.00017215189
-0.0063565802 0.00043592596 -0.00088987342
-0.00059222797 0.00019814816 6.7088607e-05
-0.0045404145 -3.9629635e-05 -0.0016075949
0.0068303626 0.0001188889 -0.0010493671
-0.00067119166 -0.00051518524 -0.00025189875
-0.0015397927 -0.00027740744 -0.00017215189
-0.0016187564 -0.00083222229 -0.00088987342
0.00059222797 -0.0001188889 -0.0032822785
-0.0038297409 0.00059444451 -0.00025189875
0.00043430051 0.00019814816 -0.0016075949
-0.00059222797 0.00099074084 -9.2405062e-05
0.0020925389 -0.00019814816 -9.2405062e-05
-0.0067513986 3.9629635e-05 -0.00096962025
-0.00067119166 0.00019814816 0.00014683545
-0.00043430051 -0.0001188889 -0.0033620254
0.0043824869 -0.00019814816 -0.0010493671
-0.00051326421 0.0001188889 -0.002086076
0.00059222797 0.00019814816 0.0013430379
0.0069093262 -0.00075296301 -0.0008101266
0.0070672538 0.00075296301 -0.00017215189
0.0064355438 0.0010700001 -1.2658228e-05
0.0045404145 -3.9629635e-05 0.0013430379
-0.0043035233 -3.9629635e-05 6.7088607e-05
0.00043430051 3.9629635e-05 -0.0020063291
-0.0019346114 0.00091148156 -9.2405062e-05
0.0069882898 -0.00067370379 -0.00025189875
-0.005566943 -0.0001188889 -0.001129114
0.0048562693 -0.00067370379 -0.0008101266
0.0051721241 0.00051518524 -0.00088987342
0.0043035233 3.9629635e-05 -0.0019265823
-0.0030401035 0.00019814816 -9.2405062e-05
-0.005566943 0.0001188889 -0.0010493671
0.0031980311 0.00019814816 -0.0025645569
-0.0045404145 -0.00051518524 -0.00025189875
-0.0030401035 -0.0010700001 -0.0008101266
0.0023294301 -0.00083222229 -9.2405062e-05
0.0017766838 0.00019814816 -0.0022455696
0.005566943 -3.9629635e-05 0.0013430379
0.00011844559 0.0001188889 -1.2658228e-05
-0.0058827978 0.00043592596 -0.00088987342
-0.0030401035 0.00027740744 -0.00025189875
-0.0020925389 3.9629635e-05 -0.0019265823
-0.0031190673 0.0001188889 -0.0017670887
-0.0016977201 -0.00067370379 -0.00025189875
-0.0045404145 0.0001188889 0.00062531646
0.0039876681 -0.0001188889 -0.00096962025
-0.0016977201 -0.0010700001 -9.2405062e-05
-0.00043430051 -0.00019814816 0.00062531646
-0.00019740932 0.00091148156 -0.00096962025
-0.0030401035 3.9629635e-05 -0.0026443037
0.0052510877 -0.00059444451 -0.0008101266
0.0032769947 0.00019814816 0.0016620253
-0.00011844559 0.00043592596 -0.00017215189
0.0058038342 0.00075296301 -1.2658228e-05
-0.0016977201 0.00099074084 -0.00065063289
-0.0056459066 0.00019814816 0.00022658228
0.0016187564 0.00099074084 -0.00088987342
-0.0018556477 0.00075296301 -0.00017215189
-0.0040666321 0.0001188889 -0.00096962025
0.0037507771 3.9629635e-05 -0.00088987342
0.0056459066 0.00075296301 -0.00088987342
0.0031190673 0.00019814816 -0.0012886076
0.0043035233 0.00035666669 -0.00096962025
-0.0035928497 0.00075296301 -0.00017215189
0.0043035233 -3.9629635e-05 6.7088607e-05
0.0070672538 0.00019814816 0.00070506328
0.0057248701 0.00019814816 0.00094430381
-0.00067119166 0.00091148156 -1.2658228e-05
-0.0071462174 -0.00099074084 -9.2405062e-05
-0.0043035233 3.9629635e-05 0.00078481011
-0.0056459066 -0.0001188889 -0.0033620254
0.0069882898 -3.9629635e-05 -0.0031227849
-0.0021715024 -0.00067370379 -0.00088987342
0.0016977201 -0.0001188889 -1.2658228e-05
0.0057248701 -0.00019814816 0.0015025317
0.0068303626 -0.0001188889 -0.00096962025
-0.00027637306 0.00091148156 -1.2658228e-05
0.0034349221 -0.00083222229 -0.0008101266
-0.00059222797 -0.0010700001 -0.00041139239
0.0016187564 0.00083222229 -1.2658228e-05
-0.0032769947 0.00019814816 0.00054556964
-0.0054879789 -0.00051518524 -0.00025189875
0.0052510877 -0.00035666669 -0.00088987342
-0.0035138859 -0.0010700001 -0.00033164557
0.0043824869 0.00019814816 0.0010240506
-0.0037507771 -0.00067370379 -0.00025189875
-0.0012239378 -0.0010700001 -0.0008101266
-0.0063565802 -0.00019814816 -1.2658228e-05
-0.00075015542 0.00019814816 -0.0030430381
-0.0020135751 -0.0001188889 -0.0025645569
0.0060407254 0.0001188889 -0.00096962025
-0.0013029015 0.00043592596 -0.00017215189
-0.0045404145 -0.00099074084 -0.00088987342
-0.0051721241 -0.00019814816 -9.2405062e-05
0.0028032123 0.00059444451 -0.00025189875
-0.00059222797 -0.00019814816 0.00078481011
0.0015397927 0.00035666669 -0.00096962025
-0.0044614505 -0.00019814816 0.0014227848
0.0020925389 -0.0001188889 0.0014227848
-0.006119689 0.00043592596 -0.00017215189
0.0076199998 0.00043592596 -0.00033164557
0.0037507771 0.00099074084 -1.2658228e-05
-0.0054879789 -0.0010700001 -0.00033164557
0.0020925389 0.00099074084 -0.00073037978
0.0037507771 -0.00059444451 -0.00025189875
0.0026452849 -0.00091148156 -0.00017215189
-0.0032769947 0.0001188889 6.7088607e-05
0.0017766838 -0.0010700001 -0.00033164557
0.0032769947 0.00019814816 -0.0020063291
0.0070672538 0.0001188889 0.0016620253
0.0058827978 -0.00083222229 -0.0008101266
-0.0030401035 -3.9629635e-05 -0.0023253164
0.0019346114 0.00091148156 -1.2658228e-05
0.0031980311 0.00019814816 -0.0032025317
0.0031980311 -0.00019814816 -0.0017670887
0.0023294301 0.00099074084 -0.00017215189
0.0062776166 0.0010700001 -1.2658228e-05
0.0030401035 3.9629635e-05 -0.0034417722
0.0057248701 0.0001188889 -0.0016075949
0.0057248701 -0.00027740744 -0.0010493671
-0.0053300518 0.0010700001 -0.00025189875
0.0030401035 -3.9629635e-05 0.00038607596
-0.0043035233 0.00019814816 -0.00017215189
0.00090808287 0.00075296301 -0.00096962025
-0.0067513986 -0.00075296301 -0.00017215189
-0.0054879789 -0.00067370379 -0.00088987342
0.00075015542 3.9629635e-05 -0.001129114
-0.0043824869 0.00019814816 0.0014227848
0.00043430051 3.9629635e-05 -0.002086076
-0.0039876681 0.00099074084 -0.00065063289
0.0069882898 0.00019814816 -0.0032822785
-0.0063565802 -0.00019814816 -0.00088987342
-0.0019346114 -0.00083222229 -0.00088987342
-0.0031190673 -0.00019814816 -0.0013683544
-0.0045404145 0.00019814816 0.0014227848
0.0062776166 -0.00051518524 -0.0008101266
0.0043824869 0.00099074084 -0.00041139239
0.0027242487 -0.00019814816 -9.2405062e-05
0.0053300518 -0.00035666669 -0.00088987342
-0.006672435 0.00027740744 -0.00025189875
-0.0032769947 3.9629635e-05 -0.0024848101
-0.0010660103 0.00099074084 -0.00033164557
-0.0058827978 0.00067370379 -0.00025189875
-0.0019346114 0.00019814816 0.0017417722
-0.0045404145 -3.9629635e-05 0.00014683545
-0.0070672538 3.9629635e-05 -0.0016873417
-0.0012239378 0.00075296301 -0.00017215189
-0.0027242487 -0.00075296301 -0.00017215189
-0.0016977201 -0.0010700001 -0.00057088607
0.00043430051 3.9629635e-05 0.0015822785
0.0020135751 -0.0010700001 -0.00057088607
0.0053300518 -0.00067370379 -0.0008101266
0.00059222797 0.00019814816 -1.2658228e-05
0.0017766838 3.9629635e-05 0.0017417722
0.005566943 0.00027740744 -0.00025189875
0.0015397927 -0.0010700001 -0.00017215189
-0.00075015542 -3.9629635e-05 -0.001129114
0.0046983417 -0.00059444451 -0.00025189875
-0.00035533679 -0.00051518524 -0.00096962025
-0.0047773058 -0.0001188889 -1.2658228e-05
3.9481863e-05 0.00075296301 -0.00017215189
-0.00067119166 -3.9629635e-05 0.0021405064
0.0020135751 -0.0001188889 -0.0021658228
0.0044614505 -0.0001188889 -0.0033620254
-0.0025663213 0.00099074084 -0.00073037978
0.0045404145 3.9629635e-05 -0.003521519
0.00043430051 -3.9629635e-05 -0.0024848101
-0.00051326421 -0.00019814816 0.0014227848
-0.0056459066 3.9629635e-05 -0.0025645569
-0.0056459066 0.00091148156 -0.00088987342
-0.005014197 -0.0001188889 -1.2658228e-05
-0.0069093262 -3.9629635e-05 0.0019012658
-0.0044614505 0.00051518524 -0.00088987342
-0.0044614505 -0.0010700001 -0.00017215189
-0.0019346114 -0.00019814816 0.0011037975
0.0032769947 0.00019814816 0.00022658228
0.00051326421 0.00067370379 -0.00096962025
0.0045404145 0.00091148156 -1.2658228e-05
0.0047773058 0.00019814816 -0.00017215189
0.00067119166 -0.00019814816 -1.2658228e-05
0.0069093262 -0.0001188889 -0.0019265823
0.0033559585 -0.00099074084 -0.00017215189
-0.0070672538 -3.9629635e-05 -0.0026443037
-0.005014197 -0.0010700001 -0.00049113925
-0.0028821761 0.00035666669 -0.00096962025
0.0039876681 -0.00099074084 -0.0008101266
-0.0049352329 -0.0001188889 -0.00088987342
-0.0016187564 0.00067370379 -0.00096962025
-0.00051326421 -0.00075296301 -0.00088987342
0.0035138859 0.00099074084 -0.00088987342
0.005566943 -3.9629635e-05 -0.003521519
-0.0051721241 -0.00067370379 -0.00025189875
-0.0036718133 -0.00059444451 -0.00088987342
-0.0028032123 -0.00059444451 -0.00025189875
-0.0043035233 0.0001188889 -0.0028037974
0.0058827978 0.00059444451 -0.00088987342
0.00051326421 -0.0010700001 -0.00057088607
0.0065934714 -0.0001188889 -0.00096962025
-0.0069093262 -0.00019814816 -9.2405062e-05
0.0041455957 0.00035666669 -0.00096962025
-0.00090808287 -0.00083222229 -0.00096962025
0.006672435 0.0010700001 -0.00088987342
0.00027637306 0.00059444451 -0.00088987342
-0.0045404145 -0.00019814816 -0.0017670887
0.0020135751 -0.0001188889 0.0011037975
0.0059617613 -0.00099074084 -0.00057088607
0.0065145078 -0.00051518524 -0.00025189875
0.0028821761 0.00075296301 -9.2405062e-05
-0.0020135751 -0.0001188889 -0.0023253164
-0.0040666321 -0.0001188889 -1.2658228e-05
0.0020925389 3.9629635e-05 -0.0012886076
-0.0018556477 0.00099074084 -0.00017215189
0.00075015542 -3.9629635e-05 0.00038607596
0.0070672538 0.0001188889 0.0013430379
-0.0032769947 -3.9629635e-05 -0.0036012658
0.00090808287 -0.00067370379 -0.00088987342
-0.005014197 0.0010700001 -0.00041139239
0.0020925389 0.0001188889 -0.003521519
0.0030401035 -3.9629635e-05 -0.0017670887
0.00075015542 3.9629635e-05 -0.0025645569
0.0023294301 -0.0010700001 -0.00033164557
0.0069882898 -3.9629635e-05 6.7088607e-05
-0.00043430051 -0.00027740744 -0.00096962025
0.0028821761 0.00099074084 -9.2405062e-05
-0.00075015542 3.9629635e-05 -0.002086076
0.00051326421 0.0001188889 -0.0036012658
-0.0048562693 0.00075296301 -0.00088987342
0.0020925389 0.0001188889 -0.0015278481
-0.0036718133 0.00059444451 -0.00025189875
0.0058038342 -3.9629635e-05 -0.0036012658
0.0065145078 -0.00059444451 -0.00025189875
-0.0024083937 0.00027740744 -0.00088987342
0.00075015542 -0.0001188889 -0.0034417722
-0.0058827978 0.00027740744 -0.00025189875
-0.005566943 3.9629635e-05 -0.0010493671
-0.0056459066 0.00019814816 -0.0015278481
0.0054090153 0.00035666669 -0.00088987342
-0.0043035233 -3.9629635e-05 -0.0029632912
0.00035533679 0.00091148156 -1.2658228e-05
-0.0035138859 0.00019814816 -0.00088987342
-0.00067119166 -0.00019814816 0.0016620253
0.0062776166 0.00067370379 -0.00025189875
-0.0016187564 0.00019814816 -0.00088987342
0.005566943 -3.9629635e-05 0.0011037975
-0.0018556477 0.00027740744 -0.00096962025
0.0044614505 -0.00019814816 -0.0024050632
0.00067119166 0.00019814816 -0.0014481012
0.0057248701 -0.00019814816 -0.0013683544
0.0050931606 0.00019814816 -0.00088987342
-0.0020135751 -0.0001188889 0.00070506328
0.0031190673 0.00019814816 -0.0033620254
-0.0054879789 -0.00075296301 -0.00017215189
0.0013818652 0.00051518524 -0.00025189875
0.0073831086 0.00099074084 -0.00065063289
0.005566943 -0.0001188889 -0.0018468355
-0.0060407254 0.0010700001 -0.00065063289
0.0012239378 0.00075296301 -0.00096962025
-0.0020925389 -3.9629635e-05 -0.0033620254
0.00075015542 -0.0001188889 0.00022658228
0.0068303626 0.00075296301 -9.2405062e-05
0.0044614505 0.00019814816 6.7088607e-05
-0.0067513986 0.00019814816 -0.00017215189
0.0044614505 0.0001188889 0.00094430381
0.0016977201 -0.00019814816 -9.2405062e-05
-0.0032769947 -0.0001188889 -0.0026443037
0.00075015542 0.00019814816 0.0011835443
0.0022504663 -0.00035666669 -0.00025189875
0.0020135751 -0.00043592596 -0.00025189875
-0.0020135751 0.0001188889 0.00038607596
-0.0031190673 0.0001188889 0.0012632911
0.005566943 3.9629635e-05 -0.0012886076
3.9481863e-05 0.00027740744 -0.00088987342
0.0068303626 -0.00099074084 -0.00025189875
-0.0051721241 0.00091148156 -0.00088987342
-0.00043430051 -3.9629635e-05 0.00062531646
-0.0013029015 0.00075296301 -9.2405062e-05
-0.0020135751 -0.0001188889 -0.0028835442
-0.0056459066 -3.9629635e-05 0.0017417722
0.0060407254 -0.00099074084 -0.0008101266
0.00067119166 0.00019814816 -0.0027240505
-0.0060407254 -0.00027740744 -0.00096962025
3.9481863e-05 0.00043592596 -0.00096962025
0.0044614505 -0.00019814816 0.0015025317
-0.00075015542 -0.0001188889 -0.0032822785
-0.0058038342 0.00019814816 0.0015822785
0.00043430051 0.00019814816 -0.0022455696
-0.0028032123 0.00027740744 -0.00025189875
0.0067513986 0.00019814816 -0.00096962025
-0.00075015542 0.00019814816 -0.00017215189
0.007225181 -0.00051518524 -0.0008101266
-0.0028032123 0.00091148156 -0.00017215189
0.0045404145 0.0010700001 -0.00025189875
0.00098704663 0.00075296301 -9.2405062e-05
-0.0058038342 3.9629635e-05 0.00070506328
0.0044614505 -0.0001188889 -0.0031227849
0.00059222797 0.00019814816 -0.0037607595
-0.00043430051 -0.00019814816 0.00070506328
-0.0043824869 0.00043592596 -0.00096962025
-0.0017766838 -0.00067370379 -0.00088987342
-0.00082911918 0.00099074084 -0.00041139239
0.0068303626 0.0010700001 -0.00017215189
-0.0023294301 -0.00059444451 -0.00025189875
-0.0070672538 -3.9629635e-05 0.00030632911
0.0065145078 -0.00067370379 -0.0008101266
0.0070672538 -3.9629635e-05 -0.0018468355
0.0018556477 -0.0001188889 0.0014227848
0.00051326421 -0.0001188889 -0.0017670887
-0.0051721241 0.00043592596 -0.00017215189
-0.0071462174 -0.00099074084 -0.00033164557
0.0020925389 3.9629635e-05 0.00022658228
0.0058038342 -0.00075296301 -0.0008101266
-0.0044614505 -3.9629635e-05 0.0019810128
-0.0021715024 -0.0010700001 -0.00065063289
0.0043035233 0.00051518524 -0.00096962025
-0.0069093262 -0.00043592596 -0.00088987342
-0.0014608289 -0.0001188889 -0.00088987342
0.0013818652 -0.0010700001 -0.00017215189
-0.0070672538 3.9629635e-05 -0.0025645569
-0.0043035233 -0.0010700001 -0.00033164557
0.0016977201 -0.00075296301 -0.00017215189
-0.0056459066 0.00019814816 -0.0012886076
-0.007304145 -0.00019814816 -1.2658228e-05
-0.0020925389 -0.00067370379 -0.00025189875
-0.0032769947 -0.0001188889 0.001821519
-0.0058827978 3.9629635e-05 -1.2658228e-05
0.0041455957 0.00099074084 -0.00088987342
-0.0074620722 0.0001188889 -0.00017215189
-0.0018556477 -0.00019814816 -0.0010493671
0.0017766838 -3.9629635e-05 0.001821519
0.00043430051 0.00043592596 -0.00017215189
0.0035138859 -0.00059444451 -0.00088987342
-0.0024873575 -0.00099074084 -1.2658228e-05
0.0028032123 0.00075296301 -9.2405062e-05
0.00027637306 -0.00027740744 -0.00017215189
0.0016977201 -0.00083222229 -1.2658228e-05
0.0018556477 0.00019814816 0.0017417722
0.00067119166 0.00019814816 0.0019810128
-0.0070672538 -3.9629635e-05 -0.0032822785
0.0069093262 -3.9629635e-05 -0.0022455696
0.00043430051 0.00019814816 0.0016620253
-3.9481863e-05 -0.0010700001 -0.00073037978
-0.005566943 3.9629635e-05 -0.0027240505
0.0032769947 -0.00019814816 -0.0012886076
0.0013029015 -0.0010700001 -0.00088987342
-0.0053300518 -0.00043592596 -0.00025189875
-0.0031190673 0.0001188889 0.00054556964
0.0014608289 -0.0010700001 -0.00073037978
-0.00067119166 0.00019814816 0.00038607596
0.0024083937 -3.9629635e-05 -1.2658228e-05
-0.0075410362 -0.00075296301 -0.00065063289
-0.0074620722 0.00083222229 -0.00057088607
0.0043035233 -0.0001188889 -0.0020063291
0.00059222797 0.00019814816 0.00022658228
0.0059617613 -0.0010700001 -0.00073037978
-0.0065145078 0.00075296301 -0.00017215189
0.005014197 0.00075296301 -1.2658228e-05
-0.0061986526 0.00027740744 -0.00088987342
0.0062776166 3.9629635e-05 -0.00088987342
-0.0010660103 -0.00051518524 -0.00025189875
0.0032769947 3.9629635e-05 -0.0014481012
-0.0016187564 -0.0001188889 -1.2658228e-05
0.00051326421 0.00019814816 0.0011037975
-0.0017766838 -3.9629635e-05 -0.0013683544
-0.0043035233 0.0001188889 0.0012632911
-0.0069882898 -0.00027740744 -0.00017215189
0.0057248701 -0.0001188889 -0.0033620254
-0.0018556477 -0.00099074084 -0.00088987342
-0.0031190673 -0.00019814816 -0.0020063291
-0.0043035233 3.9629635e-05 -0.0024050632
-0.0058038342 -3.9629635e-05 0.00070506328
0.0017766838 0.00019814816 0.0016620253
-0.0030401035 -3.9629635e-05 0.001821519
-0.00027637306 -0.00099074084 -0.00088987342
0.0039087045 -0.00019814816 -1.2658228e-05
-0.0015397927 0.00051518524 -0.00096962025
-0.0020925389 0.00059444451 -0.00088987342
0.005566943 -3.9629635e-05 -0.0031227849
0.0040666321 0.00083222229 -1.2658228e-05
-0.00027637306 0.00035666669 -0.00017215189
0.0012239378 0.00099074084 -1.2658228e-05
0.00075015542 3.9629635e-05 -0.0037607595
-0.00019740932 0.00099074084 -0.00049113925
-0.0054879789 3.9629635e-05 -0.00096962025
-0.0020135751 0.0001188889 -0.0032025317
0.007225181 0.00075296301 -1.2658228e-05
0.0018556477 -0.0001188889 -0.0028835442
-0.0042245593 -0.0010700001 -0.0008101266
-0.0030401035 -0.0010700001 -9.2405062e-05
-0.0031190673 0.00091148156 -0.00088987342
-0.0025663213 -0.00019814816 -0.00088987342
0.0075410362 0.00027740744 -0.00073037978
-0.0069882898 0.00043592596 -0.00088987342
0.0051721241 -0.00059444451 -0.0008101266
-0.0052510877 -0.00059444451 -0.00025189875
-0.0020135751 -0.00019814816 0.00054556964
-0.0059617613 0.00075296301 -0.00017215189
-0.0056459066 0.00019814816 0.0016620253
0.0020135751 0.00019814816 -0.0025645569
0.0022504663 0.00099074084 -0.00025189875
-0.005014197 -0.00083222229 -9.2405062e-05
0.0044614505 0.00043592596 -0.00096962025
-0.0020135751 -0.00019814816 -0.0016075949
0.0030401035 0.0001188889 0.00062531646
0.0014608289 -0.00027740744 -0.00096962025
-0.0067513986 0.00091148156 -0.00017215189
-0.0045404145 0.00019814816 0.0013430379
-0.0016187564 -0.00083222229 -1.2658228e-05
0.0032769947 -0.00019814816 -0.0013683544
-0.0044614505 0.00019814816 -0.0012088608
-0.0012239378 -0.00051518524 -0.00096962025
-0.0043035233 -0.0001188889 -0.0010493671
-0.0058038342 0.0001188889 0.0010240506
-0.0027242487 -0.00019814816 -1.2658228e-05
-0.0049352329 0.0010700001 -0.00033164557
-0.00043430051 -3.9629635e-05 -0.0013683544
-0.00098704663 0.00059444451 -0.00088987342
-0.0052510877 -0.00043592596 -0.00025189875
0.0046193781 -0.0010700001 -0.00017215189
-0.0058038342 -0.0001188889 -0.0033620254
-0.0058827978 -0.00067370379 -0.00096962025
0.00043430051 3.9629635e-05 0.00022658228
-0.00043430051 0.00043592596 -0.00017215189
0.0064355438 -0.0010700001 -0.00041139239
-0.0058827978 -3.9629635e-05 -0.00096962025
-0.0031190673 0.0001188889 -0.0028835442
0.0058038342 -0.0001188889 -0.0029632912
-0.0070672538 0.00067370379 -0.00088987342
-0.0074620722 0.00035666669 -0.0008101266
0.0028032123 0.00083222229 -0.00088987342
0.0032769947 -3.9629635e-05 -0.0013683544
-0.0020925389 -0.0001188889 0.00014683545
0.0032769947 -0.00075296301 -0.00017215189
0.0043035233 0.0001188889 -0.0023253164
-0.00059222797 -0.0001188889 0.0019012658
-0.0069882898 3.9629635e-05 0.0012632911
-0.0017766838 -3.9629635e-05 -0.0022455696
-0.007304145 -0.00099074084 -1.2658228e-05
0.0026452849 0.00043592596 -0.00017215189
-0.00067119166 0.00059444451 -0.00088987342
-0.0017766838 -3.9629635e-05 -0.0032822785
-0.0070672538 -0.0010700001 -0.00073037978
0.0070672538 0.0001188889 -0.0025645569
0.0020135751 0.00019814816 0.0011037975
-0.0020925389 3.9629635e-05 -0.002086076
-0.0058038342 -3.9629635e-05 -0.0017670887
0.0060407254 0.0010700001 -0.0008101266
-0.0028032123 -0.00043592596 -0.00096962025
-0.0032769947 -0.0010700001 -9.2405062e-05
0.0075410362 0.00059444451 -0.00088987342
-0.0058038342 -3.9629635e-05 -0.0012088608
0.0058038342 0.0001188889 -0.0020063291
0.0044614505 -0.0001188889 0.00070506328
0.0058038342 0.0001188889 0.0011037975
-0.0015397927 -0.0001188889 -0.00096962025
-0.00075015542 -0.00067370379 -0.00025189875
-0.0028821761 0.00051518524 -0.00025189875
0.00075015542 0.0001188889 -0.0013683544
-0.0016187564 -0.0010700001 -0.00065063289
-0.0031190673 -0.0010700001 -0.00065063289
0.0070672538 0.0001188889 0.0017417722
3.9481863e-05 -0.00059444451 -0.00096962025
0.0068303626 0.00051518524 -0.00088987342
0.00075015542 3.9629635e-05 0.00078481011
0.005014197 0.0010700001 -0.00057088607
3.9481863e-05 -0.0010700001 -0.00057088607
0.0024083937 0.00067370379 -0.00096962025
-0.0031980311 -0.00019814816 -0.002086076
-0.0040666321 -0.00083222229 -1.2658228e-05
0.0025663213 -0.0010700001 -0.00041139239
-0.0062776166 -0.00027740744 -0.00088987342
0.00019740932 0.00019814816 -0.00088987342
0.0044614505 0.00027740744 -0.00096962025
-0.0024083937 -0.00027740744 -0.00017215189
-0.0069882898 3.9629635e-05 -0.0024050632
-0.0019346114 -0.0010700001 -0.00065063289
-0.00043430051 -0.00035666669 -0.00025189875
-0.0063565802 -3.9629635e-05 -1.2658228e-05
-0.0054879789 0.0010700001 -0.00065063289
-0.006119689 -0.0001188889 -0.00096962025
-0.0035928497 -0.0010700001 -0.00017215189
-0.00059222797 3.9629635e-05 0.0020607596
0.0017766838 0.00019814816 -0.0036810127
0.0063565802 -0.00051518524 -0.0008101266
-0.0065145078 3.9629635e-05 -0.00088987342
-0.0025663213 -0.00091148156 -0.00096962025
0.0033559585 -0.00051518524 -0.00088987342
-0.00011844559 0.00075296301 -0.00017215189
-0.0056459066 -0.0001188889 0.0015822785
0.0040666321 -0.0001188889 -1.2658228e-05
0.0023294301 0.00059444451 -0.00096962025
0.0043824869 0.00019814816 -0.0016873417
0.0037507771 -0.00083222229 -0.0008101266
0.0030401035 0.00051518524 -0.00025189875
0.0071462174 -3.9629635e-05 -9.2405062e-05
-0.0047773058 -3.9629635e-05 -0.00088987342
0.0069882898 -0.00019814816 -0.00017215189
0.0040666321 0.00075296301 -0.00017215189
-0.0019346114 -0.00027740744 -0.00017215189
-0.0030401035 3.9629635e-05 0.0017417722
0.00043430051 -3.9629635e-05 -0.0019265823
0.0063565802 0.0001188889 -1.2658228e-05
0.0068303626 3.9629635e-05 0.00062531646
-0.0029611399 3.9629635e-05 -1.2658228e-05
-3.9481863e-05 0.00099074084 -0.00017215189
-0.00043430051 -0.00019814816 0.00094430381
0.00043430051 0.0001188889 0.0010240506
0.0045404145 0.0001188889 6.7088607e-05
-0.0028821761 0.00043592596 -0.00017215189
-0.0073831086 -0.00059444451 -0.00088987342
-0.0021715024 -0.0001188889 -1.2658228e-05
0.00019740932 0.00051518524 -0.00088987342
0.0054090153 0.0001188889 -1.2658228e-05
-0.00043430051 -3.9629635e-05 -0.0023253164
-0.0020135751 -0.00019814816 -0.0012088608
0.0068303626 3.9629635e-05 -0.0028037974
-0.0028821761 -0.0010700001 -0.00033164557
-0.0031190673 0.00083222229 -0.00017215189
0.001144974 0.00059444451 -0.00025189875
-0.005014197 -0.00019814816 -9.2405062e-05
-0.0030401035 -0.00019814816 -0.0032025317
0.0031190673 0.00019814816 -0.0014481012
0.005566943 -3.9629635e-05 -0.0018468355
0.0029611399 0.00019814816 -1.2658228e-05
0.0057248701 0.0001188889 0.0011835443
0.0031980311 -0.0010700001 -0.00057088607
-0.0022504663 0.00099074084 -0.0008101266
-0.0032769947 -0.00019814816 -0.0012886076
-0.0018556477 -0.00019814816 0.00022658228
0.0054090153 0.00067370379 -0.00025189875
-0.0031190673 -0.00043592596 -0.0010493671
-0.0049352329 -0.00075296301 -0.00088987342
0.0023294301 0.00067370379 -0.00025189875
-0.005566943 -3.9629635e-05 0.00022658228
0.0067513986 -0.00067370379 -0.00025189875
-0.00051326421 -0.0010700001 -0.00057088607
0.00043430051 -3.9629635e-05 0.0011835443
-0.0046983417 0.00019814816 -1.2658228e-05
0.0063565802 3.9629635e-05 -0.00088987342
0.0074620722 -0.00051518524 -0.00073037978
-0.0037507771 -0.00099074084 -1.2658228e-05
-0.0032769947 3.9629635e-05 -0.0029632912
0.0020925389 0.0001188889 0.00094430381
0.0075410362 0.0001188889 -0.00033164557
0.00043430051 3.9629635e-05 -0.0012088608
-0.0032769947 3.9629635e-05 0.0012632911
-0.00043430051 -0.00019814816 -0.0015278481
-0.0054090153 -0.00067370379 -0.00025189875
-0.0054879789 -0.00083222229 -0.00088987342
-0.00059222797 -0.00019814816 -0.0012088608
0.0040666321 0.00099074084 -9.2405062e-05
-0.0056459066 0.00019814816 0.0015025317
0.0020925389 3.9629635e-05 -0.0014481012
0.0069093262 -3.9629635e-05 6.7088607e-05
0.0045404145 3.9629635e-05 -0.0034417722
-0.0051721241 -0.0001188889 -1.2658228e-05
-0.00067119166 -0.00067370379 -0.00096962025
-0.0019346114 -0.00043592596 -0.00096962025
-0.0046193781 -0.0010700001 -0.00065063289
-0.0030401035 -3.9629635e-05 -0.0012088608
0.0039876681 -0.00043592596 -0.00096962025
0.0020925389 0.00019814816 0.00054556964
-0.00051326421 -0.00019814816 -0.0024848101
-0.0056459066 -0.00019814816 -9.2405062e-05
-0.0056459066 0.0001188889 -0.0015278481
0.0058038342 3.9629635e-05 -0.0036012658
0.005566943 0.0001188889 -0.0016873417
0.0069882898 0.00019814816 -0.001129114
0.0020925389 -0.0001188889 -0.0028037974
-0.0071462174 0.00091148156 -0.00073037978
0.0039876681 -0.00067370379 -0.0008101266
-0.0048562693 -0.00091148156 -1.2658228e-05
0.0056459066 0.00035666669 -0.00096962025
-0.0058038342 -0.00091148156 -0.00088987342
0.0054090153 -0.00027740744 -0.00088987342
-0.0026452849 0.00027740744 -0.00025189875
0.0068303626 -0.00051518524 -0.00025189875
-0.0060407254 -0.00043592596 -0.00025189875
0.0065934714 -0.00091148156 -0.0008101266
0.0075410362 -0.00027740744 -0.00065063289
0.00059222797 -0.0001188889 -0.0021658228
-0.0058038342 0.0001188889 -0.0017670887
0.0057248701 0.0001188889 -0.0012886076
0.00059222797 -0.0001188889 6.7088607e-05
0.0030401035 3.9629635e-05 -0.0012886076
-0.0019346114 -0.00019814816 0.00038607596
0.005566943 0.0001188889 -0.0026443037
-0.00082911918 0.00067370379 -0.00088987342
0.0020135751 -0.00019814816 -0.0013683544
-0.0032769947 0.0001188889 -0.0027240505
0.00043430051 0.0001188889 -0.0016873417
0.0038297409 -0.0010700001 -0.00041139239
0.0020135751 -0.0001188889 0.00062531646
-0.0073831086 0.00035666669 -0.00017215189
-0.0032769947 -0.0001188889 -0.0032025317
0.0017766838 0.00019814816 -0.002086076
0.0058038342 -3.9629635e-05 -0.003521519
-0.0045404145 0.00051518524 -0.00088987342
-0.00019740932 -0.00027740744 -0.00017215189
0.007225181 -0.00043592596 -0.00025189875
-0.0071462174 0.00075296301 -0.00017215189
-0.0030401035 -0.0001188889 0.0016620253
-0.0062776166 -0.0010700001 -0.00065063289
-0.0064355438 0.00043592596 -0.00088987342
-0.00019740932 0.00019814816 -1.2658228e-05
-0.0069882898 -3.9629635e-05 -0.0034417722
0.0018556477 0.00019814816 -0.003521519
-0.00067119166 3.9629635e-05 0.0020607596
-0.0017766838 -0.00019814816 -0.0015278481
-0.0043035233 -0.0001188889 -0.0020063291
0.0032769947 -0.0001188889 -0.0033620254
0.0044614505 0.00067370379 -0.00096962025
0.0029611399 0.00027740744 -0.00025189875
-0.0057248701 -0.0001188889 -0.0022455696
0.0027242487 0.00019814816 -1.2658228e-05
-0.0033559585 0.00091148156 -0.00088987342
-0.0054879789 0.00051518524 -0.00088987342
0.00011844559 0.00067370379 -0.00088987342
0.0031980311 0.00019814816 -0.0030430381
0.00027637306 0.00099074084 -0.0008101266
0.0033559585 0.00027740744 -0.0010493671
0.0070672538 0.00019814816 0.00054556964
0.005566943 0.0001188889 0.0012632911
-0.0028821761 3.9629635e-05 -1.2658228e-05
0.0021715024 -0.0010700001 -0.00017215189
-0.0069093262 -0.0010700001 -0.0008101266
-0.007304145 -0.00067370379 -0.00088987342
0.0056459066 -0.00019814816 0.0011835443
-0.0025663213 0.0001188889 -1.2658228e-05
-0.0054090153 -0.00059444451 -0.00088987342
0.0049352329 0.0010700001 -0.00057088607
0.00075015542 0.0001188889 0.0015822785
-0.0061986526 0.00067370379 -0.00025189875
0.0028821761 0.00035666669 -0.00017215189
0.0025663213 0.00075296301 -0.00017215189
-0.00011844559 -0.00067370379 -0.00096962025
-0.0042245593 -0.00067370379 -0.00088987342
-0.0064355438 -0.00099074084 -0.00088987342
0.0058038342 -3.9629635e-05 -0.0014481012
-0.0069882898 0.00091148156 -0.00088987342
-0.0020135751 0.00051518524 -0.00088987342
0.0034349221 0.00083222229 -1.2658228e-05
-0.0054879789 -0.00091148156 -0.00088987342
-0.0050931606 -3.9629635e-05 -1.2658228e-05
0.0030401035 3.9629635e-05 0.00046582278
-0.00043430051 3.9629635e-05 -0.0016075949
-0.0060407254 -0.00075296301 -0.00088987342
0.007304145 0.00083222229 -0.00088987342
0.0034349221 -0.00043592596 -0.00025189875
0.0024083937 0.00099074084 -1.2658228e-05
-0.005014197 3.9629635e-05 -0.00088987342
0.0058038342 0.00019814816 -0.0013683544
0.0018556477 0.00099074084 -0.00025189875
-0.0075410362 -0.00091148156 -0.00057088607
0.0043824869 0.00019814816 6.7088607e-05
-0.0063565802 0.00099074084 -0.00049113925
0.0039087045 0.00099074084 -0.00088987342
-0.0020925389 -0.00083222229 -1.2658228e-05
-0.0032769947 -3.9629635e-05 0.0015025317
0.0054090153 0.00051518524 -0.00025189875
0.0043824869 -3.9629635e-05 0.00062531646
0.0013818652 0.00083222229 -0.00088987342
0.0075410362 -0.00035666669 -0.00025189875
0.0017766838 0.00019814816 -0.0024848101
0.0058038342 0.00019814816 -0.0027240505
0.0057248701 0.00075296301 -1.2658228e-05
0.00090808287 0.00099074084 -0.00065063289
0.0054090153 -0.0010700001 -0.00033164557
-0.00067119166 -0.00019814816 -0.0012886076
-0.00043430051 -3.9629635e-05 0.0017417722
0.0070672538 0.00019814816 -0.0012886076
0.0070672538 0.0001188889 0.00062531646
0.0043035233 -0.00091148156 -0.00017215189
0.0058038342 0.0001188889 -0.0015278481
-0.0058038342 0.00019814816 0.00054556964
0.00082911918 -0.0010700001 -0.00049113925
-0.0017766838 0.00019814816 -0.00096962025
0.0075410362 -0.00019814816 -0.00025189875
0.00051326421 -0.0001188889 0.00094430381
-0.0069093262 -0.0010700001 -0.00041139239
-0.0044614505 0.00035666669 -0.00096962025
-0.0045404145 0.00019814816 -0.0013683544
0.0057248701 0.0001188889 -0.0026443037
0.00011844559 -0.0010700001 -0.00041139239
0.0063565802 -0.00035666669 -0.0008101266
-0.0034349221 0.0001188889 -0.00096962025
-0.0032769947 -3.9629635e-05 -0.0024050632
-0.0032769947 0.0001188889 0.0017417722
-0.0032769947 -0.0001188889 -0.0024848101
-0.00067119166 0.00099074084 -0.00088987342
-0.0054090153 0.00043592596 -0.00017215189
0.0020135751 -0.00019814816 0.00038607596
-0.007225181 -0.00035666669 -0.00088987342
0.0044614505 0.0010700001 -0.00025189875
0.00019740932 0.00099074084 -0.00049113925
0.0044614505 -3.9629635e-05 0.0015822785
-0.00075015542 -3.9629635e-05 -0.0016873417
0.0030401035 -3.9629635e-05 0.00022658228
-0.0056459066 -0.00019814816 0.0012632911
0.0053300518 0.0010700001 -0.00073037978
0.0044614505 -0.0001188889 0.0014227848
0.00075015542 0.00019814816 0.0011037975
-0.0051721241 0.0010700001 -0.00025189875
0.0036718133 -3.9629635e-05 -0.00088987342
-0.0029611399 -0.00019814816 -0.0014481012
0.0047773058 0.00051518524 -0.00096962025
-0.0024873575 0.00099074084 -0.00041139239
0.0058038342 0.0001188889 0.0010240506
-0.0059617613 0.0001188889 -1.2658228e-05
-0.0018556477 0.0001188889 -0.0034417722
-0.00051326421 0.0001188889 -0.0034417722
0.00051326421 0.00019814816 -0.0031227849
0.0042245593 0.00067370379 -0.00088987342
-0.00043430051 0.00075296301 -9.2405062e-05
0.0044614505 0.0001188889 0.0019012658
0.0018556477 0.00019814816 0.00070506328
0.0053300518 -0.0010700001 -0.00065063289
-0.0037507771 0.00099074084 -0.00065063289
0.00035533679 -0.00083222229 -0.00096962025
-0.0069093262 -0.00019814816 -1.2658228e-05
0.0015397927 0.00099074084 -0.00088987342
-0.0042245593 0.00091148156 -0.00088987342
0.0030401035 0.00099074084 -9.2405062e-05
0.005566943 3.9629635e-05 0.00022658228
-0.0069882898 -0.0010700001 -0.00073037978
-0.0061986526 -0.0010700001 -0.0008101266
0.00075015542 0.0001188889 0.001821519
-0.0067513986 -0.00075296301 -0.00088987342
-0.0061986526 -0.00067370379 -0.00088987342
-0.00067119166 0.00019814816 -0.0016873417
-0.0017766838 -0.0001188889 -0.0017670887
0.00075015542 -0.0001188889 -0.0022455696
-0.0019346114 -0.00067370379 -0.00025189875
-0.0013029015 0.00099074084 -0.00041139239
0.0069882898 0.0010700001 -0.00025189875
0.00043430051 -3.9629635e-05 -0.0032025317
0.0058827978 0.00043592596 -0.00017215189
-0.0030401035 3.9629635e-05 0.00062531646
-0.00082911918 0.00019814816 -0.00096962025
-0.0022504663 -0.00043592596 -0.00088987342
-0.00051326421 -0.00019814816 -1.2658228e-05
0.00067119166 0.00019814816 -0.0013683544
-0.0044614505 -0.00075296301 -0.00088987342
0.00043430051 0.00019814816 -0.0015278481
-0.0034349221 -0.00043592596 -0.00096962025
-0.00043430051 -0.0010700001 -0.00073037978
0.00059222797 0.00019814816 -0.0024050632
-0.0017766838 -0.00019814816 -0.0032822785
0.006119689 0.00019814816 -0.00088987342
-0.0069093262 3.9629635e-05 0.00022658228
-0.0020925389 -0.00051518524 -0.00096962025
0.0052510877 -0.00051518524 -0.0008101266
-0.0064355438 -0.0001188889 -1.2658228e-05
-0.0051721241 0.00067370379 -0.00088987342
-0.0037507771 -0.00043592596 -0.00025189875
-0.0036718133 -3.9629635e-05 -0.00088987342
0.0035138859 0.00019814816 -0.00096962025
0.0056459066 0.0010700001 -0.00017215189
-0.0028821761 -0.00059444451 -0.00025189875
0.0021715024 0.00083222229 -0.00096962025
-0.0043824869 -0.00019814816 6.7088607e-05
0.00027637306 -0.00099074084 -0.00096962025
0.0044614505 -0.00019814816 -0.003521519
-0.0057248701 0.0001188889 -0.0020063291
0.0032769947 -0.0001188889 0.00046582278
0.0018556477 -0.00091148156 -1.2658228e-05
0.0070672538 -0.00043592596 -0.00025189875
-0.0017766838 -0.0001188889 0.0011835443
-0.00059222797 -0.00019814816 -0.0025645569
0.0057248701 -0.0001188889 -0.0028037974
0.0046983417 0.0010700001 -0.00041139239
0.00075015542 0.00019814816 0.00014683545
0.0031980311 -0.00019814816 -0.0012886076
0.0032769947 -3.9629635e-05 -0.0032025317
0.0043824869 -0.00099074084 -0.0008101266
0.00027637306 0.00099074084 -0.00073037978
0.0030401035 -0.0001188889 -0.00096962025
0.0048562693 0.00051518524 -0.00025189875
0.00059222797 0.00027740744 -0.00025189875
0.0036718133 0.00099074084 -9.2405062e-05
-0.001144974 0.00019814816 -0.00088987342
-0.0029611399 -0.00059444451 -0.00025189875
-0.0017766838 -0.00019814816 -1.2658228e-05
-0.0032769947 -3.9629635e-05 -0.0028037974
-0.0023294301 0.00035666669 -0.00088987342
-0.0065145078 -3.9629635e-05 -1.2658228e-05
0.0063565802 -0.0001188889 -1.2658228e-05
-0.0012239378 -0.00083222229 -0.00096962025
-0.0056459066 0.00019814816 0.0015822785
0.0017766838 0.00019814816 0.0019012658
0.0057248701 0.00019814816 -1.2658228e-05
-0.0017766838 -3.9629635e-05 -0.0028037974
0.0043824869 -3.9629635e-05 -0.0010493671
-0.00090808287 3.9629635e-05 -0.00096962025
-0.00067119166 0.0001188889 -0.0036810127
-0.00075015542 -0.00019814816 -0.0032822785
-0.0070672538 -0.00083222229 -9.2405062e-05
-0.00075015542 0.0001188889 -0.0024050632
-0.0071462174 0.00043592596 -0.00088987342
0.00075015542 0.0001188889 -0.0016873417
-0.0035928497 -0.0010700001 -0.00033164557
0.00027637306 0.00067370379 -0.00025189875
-0.0043824869 -0.00083222229 -9.2405062e-05
0.005566943 0.0010700001 -0.00088987342
0.0020925389 -0.00067370379 -0.00025189875
-0.0056459066 -0.0001188889 -0.0023253164
-0.0039087045 0.00099074084 -0.00065063289
0.0045404145 -3.9629635e-05 0.00062531646
-0.0028821761 -0.00083222229 -0.00088987342
-0.0068303626 -0.0010700001 -9.2405062e-05
-0.0010660103 -0.0010700001 -0.00025189875
-0.0020925389 -3.9629635e-05 -0.0018468355
-0.0035928497 0.00043592596 -0.00017215189
-0.00043430051 -0.0001188889 -0.0025645569
0.0058038342 -0.0001188889 -0.0025645569
-0.0020135751 -0.00075296301 -0.00017215189
0.0020135751 -0.00075296301 -0.00088987342
-0.0017766838 -0.00043592596 -0.00096962025
0.00011844559 0.00099074084 -0.00088987342
-0.0035928497 -0.00059444451 -0.00096962025
-0.0045404145 0.00019814816 -0.0030430381
-0.0070672538 -3.9629635e-05 0.0011835443
0.0056459066 0.00019814816 -0.0016075949
-0.00059222797 -0.00019814816 0.0015025317
-0.0043824869 -0.00083222229 -1.2658228e-05
0.00051326421 -0.0001188889 -0.0032025317
-0.0031190673 0.0001188889 0.00094430381
0.00075015542 -0.0010700001 -0.00049113925
-0.0017766838 -3.9629635e-05 0.00078481011
-0.0033559585 0.00035666669 -0.00088987342
0.0069093262 -3.9629635e-05 0.0019012658
0.0058038342 0.00083222229 -0.00088987342
-0.0039087045 0.00099074084 -0.00073037978
0.0059617613 0.00059444451 -0.00025189875
0.0065145078 0.00051518524 -0.00088987342
0.00059222797 0.00099074084 -0.00073037978
0.0028821761 0.00019814816 -1.2658228e-05
0.0024873575 -0.00019814816 -1.2658228e-05
-0.0020135751 0.00099074084 -0.00057088607
0.00059222797 -0.0001188889 -0.0029632912
-0.0050931606 -0.00091148156 -0.00088987342
-0.0030401035 -0.00019814816 -0.0024050632
0.0010660103 -0.00099074084 -1.2658228e-05
0.0068303626 -3.9629635e-05 0.00070506328
0.0069882898 0.00019814816 -0.0016873417
0.0043824869 -3.9629635e-05 0.0011037975
0.0014608289 -0.0010700001 -0.00049113925
-0.0069882898 -0.0010700001 -1.2658228e-05
-0.00051326421 0.0001188889 0.0015025317
0.0038297409 -0.00035666669 -0.00088987342
0.0067513986 -0.0001188889 -1.2658228e-05
-0.00027637306 -0.00067370379 -0.00096962025
0.0017766838 0.0001188889 0.0016620253
-0.0028032123 0.00067370379 -0.00096962025
-0.0050931606 -0.0010700001 -0.00041139239
-0.0063565802 0.00099074084 -0.00065063289
-0.0068303626 0.00099074084 -0.00041139239
0.00051326421 -3.9629635e-05 0.00038607596
-0.0021715024 0.00099074084 -0.00041139239
0.00067119166 -3.9629635e-05 0.0019810128
-0.0032769947 -0.00067370379 -0.00096962025
-0.0010660103 -0.0010700001 -1.2658228e-05
3.9481863e-05 -0.00083222229 -0.00096962025
-0.00098704663 -0.00019814816 -1.2658228e-05
-0.00019740932 -0.00091148156 -0.00096962025
0.0054879789 -0.0010700001 -0.00057088607
0.0075410362 3.9629635e-05 -0.00088987342
0.0062776166 0.00043592596 -0.00017215189
-0.0056459066 -3.9629635e-05 0.0015822785
0.0017766838 0.00091148156 -0.00096962025
-0.0024083937 -0.00043592596 -0.00025189875
-0.005566943 3.9629635e-05 0.0017417722
-0.0022504663 0.00067370379 -0.00088987342
0.0051721241 -0.00075296301 -0.00017215189
-0.0041455957 -0.0010700001 -0.00088987342
0.0069093262 -3.9629635e-05 0.00038607596
0.0075410362 0.00075296301 -0.00033164557
0.00059222797 0.00091148156 -0.00096962025
0.0040666321 0.00091148156 -0.00088987342
-0.0056459066 -0.00019814816 0.0011835443
0.0039087045 -0.0010700001 -0.00057088607
0.0030401035 -3.9629635e-05 -0.0028037974
0.0045404145 0.00019814816 -0.001129114
-0.0026452849 -0.0010700001 -0.00065063289
0.0025663213 -0.00043592596 -0.00096962025
-0.0033559585 3.9629635e-05 -1.2658228e-05
-0.0042245593 -3.9629635e-05 -1.2658228e-05
-0.0053300518 0.0001188889 -0.00088987342
-0.00043430051 -0.0001188889 0.001821519
-0.0075410362 -0.00075296301 -0.00041139239
-0.0058038342 3.9629635e-05 0.0010240506
-0.0024873575 0.00043592596 -0.00017215189
-0.00059222797 -0.00019814816 -0.003521519
0.00035533679 0.00091148156 -0.00088987342
0.0020135751 -0.00019814816 -0.0028037974
-0.0070672538 -0.0001188889 -0.0015278481
0.0068303626 0.0010700001 -9.2405062e-05
0.0068303626 3.9629635e-05 -0.0024050632
0.0068303626 0.00035666669 -0.00088987342
-0.0069882898 0.0001188889 -0.00088987342
0.005566943 -0.0001188889 -0.0027240505
-0.0053300518 -0.00027740744 -0.00088987342
-0.00043430051 0.00075296301 -1.2658228e-05
-0.0054090153 -0.00035666669 -0.00025189875
-0.0075410362 -0.00019814816 -0.00073037978
-0.0039876681 -0.00043592596 -0.00088987342
0.0020925389 3.9629635e-05 -0.0022455696
0.0054879789 -0.00043592596 -0.00025189875
0.00075015542 3.9629635e-05 0.0015025317
-0.0051721241 -0.00099074084 -1.2658228e-05
-0.00011844559 0.00019814816 -0.00096962025
0.0046983417 -0.0010700001 -0.00065063289
0.0020925389 0.0001188889 0.00078481011
0.0012239378 -0.00091148156 -1.2658228e-05
0.0056459066 0.00019814816 -9.2405062e-05
-0.00075015542 3.9629635e-05 0.00086455699
-0.00075015542 -3.9629635e-05 -0.0028037974
0.0067513986 -3.9629635e-05 -0.00096962025
0.0018556477 -0.0001188889 0.0010240506
0.0016977201 0.00019814816 -0.00096962025
0.0020135751 0.00019814816 -0.0018468355
-0.0075410362 -0.00067370379 -0.00088987342
0.0010660103 -0.0010700001 -0.00088987342
-0.00019740932 -0.0010700001 -0.00041139239
0.0056459066 0.0010700001 -0.00033164557
-0.0069093262 0.00051518524 -0.00088987342
-0.0016977201 0.00099074084 -9.2405062e-05
-0.00075015542 0.0001188889 0.0014227848
-0.0030401035 -0.00019814816 -0.0014481012
-0.0038297409 0.00059444451 -0.00088987342
0.0017766838 3.9629635e-05 0.00054556964
-0.0048562693 0.0010700001 -0.00049113925
0.0017766838 0.00019814816 0.00054556964
-0.0060407254 -0.0010700001 -0.00041139239
0.0029611399 -0.00091148156 -0.0008101266
0.0038297409 -0.0001188889 -0.00088987342
0.00059222797 0.00019814816 -0.0022455696
-0.0017766838 -0.00019814816 0.0016620253
-0.0030401035 -0.0001188889 -0.0023253164
-0.00090808287 0.00099074084 -0.00049113925
-0.0068303626 -0.00043592596 -0.00025189875
-0.006119689 -0.0010700001 -0.00033164557
0.0028032123 0.00083222229 -1.2658228e-05
-0.00082911918 -0.00075296301 -0.00017215189
-0.0041455957 0.00019814816 -0.00096962025
0.00075015542 0.0001188889 -0.0016075949
0.0030401035 0.0001188889 -0.0018468355
0.0027242487 0.00091148156 -1.2658228e-05
0.005566943 0.0001188889 -0.0031227849
-0.0045404145 -0.0001188889 6.7088607e-05
-0.00075015542 3.9629635e-05 0.0012632911
0.0016977201 3.9629635e-05 -0.0012886076
0.0065934714 0.00019814816 -0.00088987342
-3.9481863e-05 0.00067370379 -0.00025189875
-0.0020135751 0.00067370379 -0.00025189875
-0.0069093262 0.00091148156 -0.00088987342
-0.0062776166 -0.00043592596 -0.00025189875
0.0044614505 -0.0010700001 -0.00057088607
0.00035533679 -0.00059444451 -0.00096962025
0.0043824869 0.00019814816 0.0013430379
0.0053300518 0.0010700001 -0.00049113925
0.0054879789 -0.00075296301 -0.00017215189
0.00051326421 -0.00083222229 -9.2405062e-05
0.0031190673 0.00067370379 -0.00025189875
-0.0043824869 -0.00019814816 0.00038607596
-0.00098704663 -0.00027740744 -0.00088987342
0.00075015542 0.00019814816 -0.0028835442
-0.00075015542 0.0001188889 -0.0017670887
0.0029611399 0.00075296301 -9.2405062e-05
0.0069882898 -3.9629635e-05 -0.0024848101
0.0013029015 -0.00083222229 -1.2658228e-05
0.0018556477 -0.0001188889 0.00054556964
0.00059222797 -0.0010700001 -1.2658228e-05
0.0044614505 0.00075296301 -0.00017215189
0.0013818652 -0.00027740744 -0.00088987342
-0.0040666321 0.00075296301 -0.00017215189
0.0065145078 0.00075296301 -9.2405062e-05
0.0016187564 -0.00067370379 -0.00025189875
-0.0058038342 0.0010700001 -0.00017215189
-0.0032769947 3.9629635e-05 -0.001129114
-0.001144974 -0.00059444451 -0.00096962025
0.0020925389 3.9629635e-05 -0.0033620254
-0.0018556477 -0.00019814816 -0.0034417722
0.0069093262 -3.9629635e-05 0.0017417722
0.0059617613 -0.00083222229 -0.0008101266
-0.007225181 0.00083222229 -0.00088987342
0.0036718133 0.00099074084 -0.00041139239
0.0058827978 -0.00067370379 -0.0008101266
-0.0043035233 -0.00043592596 -0.00025189875
-0.0070672538 3.9629635e-05 0.0017417722
0.0058827978 -0.00027740744 -0.00088987342
-0.0045404145 3.9629635e-05 -0.0028037974
-0.0059617613 -0.00099074084 -1.2658228e-05
0.0070672538 3.9629635e-05 -0.0034417722
