# .PCD v0.7 - Point Cloud Data file format
VERSION 0.7
FIELDS x y z
SIZE 4 4 4
TYPE F F F
COUNT 1 1 1
WIDTH 1227
HEIGHT 1
VIEWPOINT 0 0 0 1 0 0 0
POINTS 1227
DATA ascii
0.0033419484 -0.00102 -0.00022
-0.006174108 -0.00068 0.0019563637
5.6643195e-05 0.00045333334 -0.0021672726
-0.006174108 -0.0011333333 -0.00022
0.0090062683 0.00079333334 -0.0033127272
-0.0028888029 0.00011333334 -0.00022
0.0085531222 -0.00079333334 -0.00010545454
0.0014160798 -0.00079333334 0.00069636363
0.0091195544 0.00068 0.0017272728
-0.012065001 0.00079333334 -0.00022
-0.0040216669 0.00045333334 0.0013836364
0.0026622301 0.00022666667 -0.0010218181
0.0064006811 -0.00090666668 0.00012363636
0.0091195544 -0.00011333334 -0.00022
-0.0014160798 -0.00068 -0.0029690908
-0.0025489437 0.00045333334 -0.0028545454
0.0062873946 -0.00045333334 -0.0023963635
0.0050412444 -0.0012466667 -0.0010218181
-0.0068538263 -0.00068 -0.00090727274
0.0070803994 0.00045333334 -0.00010545454
-0.001755939 0.0012466667 -0.00022
-0.0044748122 -0.0017 -0.00033454545
0.011271995 -0.00102 -0.00033454545
0.0075335447 0.00102 -0.0010218181
-0.0086664092 0.00011333334 -0.00022
-0.0066272537 -0.0014733333 -0.00090727274
-0.0040216669 0.00045333334 -0.0027399999
-0.0026622301 -0.00056666665 0.00104
0.0076468312 0.00045333334 9.0909089e-06
-0.0039083804 0.00090666668 -0.00010545454
-0.010139132 -0.00011333334 -0.0010218181
-0.011498569 -0.00045333334 -0.0031981817
0.0062873946 -0.00045333334 0.0016127273
-0.011725142 0.0011333333 -0.00079272728
0.0035685212 0.00045333334 -0.0013654545
0.0052678171 0.00056666665 0.00092545454
0.0025489437 0.0011333333 -0.00022
0.010252418 0.00079333334 0.00092545454
-0.0086664092 -0.00079333334 0.0014981818
0.0027755166 -0.00056666665 -0.0018236364
-0.0075335447 -0.00045333334 0.0013836364
-0.0027755166 0.00068 9.0909089e-06
0.00832655 0.00136 -0.00010545454
-0.0077601178 -0.00045333334 -0.0033127272
-0.00016992958 0.00068 -0.002510909
0.0064006811 -0.00056666665 0.0019563637
-0.0075335447 -0.00102 -0.0010218181
0.0025489437 0.00045333334 -0.00148
-0.006174108 -0.00056666665 -0.0029690908
-0.0051545305 0.00022666667 -0.00022
0.0050412444 -0.00068 0.00023818182
-0.0097992728 -0.00045333334 -0.00010545454
0.0013027935 -0.0015866667 -0.00010545454
-0.010139132 0.00079333334 -0.0029690908
0.0016426527 -0.00022666667 -0.00022
-0.0051545305 0.00090666668 -0.0027399999
-0.006174108 -0.00079333334 -0.0028545454
0.0096859867 -0.00079333334 -0.00010545454
-0.0011895071 0.00045333334 0.0018418182
-0.0077601178 -0.00056666665 0.0016127273
0.0065139672 -0.00079333334 0.00023818182
0.0085531222 -0.0017 -0.00056363636
0.0014160798 -0.00011333334 -0.0010218181
0.0039083804 0.00090666668 0.0014981818
-0.011385283 0.0017 -0.00022
-0.0091195544 0.00068 9.0909089e-06
-0.0045880987 0.0015866667 -0.0010218181
-0.011158709 0.0017 -0.00044909091
0.0049279579 -0.00102 -0.00022
0.0057209628 -0.0012466667 -0.00090727274
-0.0049279579 -0.0017 -0.0010218181
0.0054943897 -0.0017 -0.00056363636
0.0011895071 0.00045333334 0.00069636363
0.0035685212 0.0014733333 -0.0010218181
5.6643195e-05 0.00056666665 0.00012363636
-0.0076468312 0.00034 -0.00022
-0.0059475354 0.00011333334 -0.00022
-0.0026622301 -0.00068 -0.0033127272
-0.0076468312 -0.00136 -0.0010218181
-0.011158709 0.0017 -0.00022
-0.006174108 -0.00045333334 -0.002510909
0.0088929813 0.00090666668 0.00069636363
-0.0062873946 0.0015866667 -0.00010545454
-0.0025489437 -0.00056666665 -0.0023963635
-0.0035685212 -0.00068 -0.0031981817
-0.0024356574 -0.00056666665 0.00081090908
0.0013027935 0.0017 -0.00010545454
0.011498569 -0.00034 0.00012363636
-0.0049279579 -0.0017 -0.00033454545
0.00096293428 0.00045333334 -0.0012509091
-0.0065139672 0.0017 -0.00067818182
0.010592277 0.00056666665 -0.00010545454
-0.0060608219 -0.00068 9.0909089e-06
0.0016426527 0 -0.00022
5.6643195e-05 0.0017 -0.00090727274
-0.0065139672 -0.00090666668 -0.00010545454
0.0025489437 -0.00056666665 -0.0013654545
-0.0064006811 -0.00102 -0.0010218181
0.006174108 -0.0012466667 -0.00090727274
0.0010762207 0.00056666665 -0.0023963635
-0.0077601178 -0.00045333334 0.00058181817
0.0047013853 0.00045333334 9.0909089e-06
0.0051545305 0.00090666668 -0.0026254545
0.010025846 0.00056666665 -0.0030836363
-0.0064006811 -0.00079333334 9.0909089e-06
-0.0091195544 0.00045333334 -0.0012509091
0.010025846 0.00079333334 0.0018418182
-0.011611855 -0.00068 -0.0010218181
-0.00062307512 0.00090666668 -0.00090727274
0.0027755166 -0.00011333334 -0.00022
0.010365705 -0.00136 -0.00010545454
0.006174108 -0.0014733333 -0.00090727274
-0.0011895071 0.00068 -0.0018236364
0.0049279579 0.00045333334 -0.0021672726
5.6643195e-05 -0.00090666668 -0.0033127272
-0.0024356574 -0.00045333334 0.00069636363
-0.010025846 -0.00045333334 0.00069636363
0.0024356574 0.00090666668 -0.0030836363
-0.010365705 -0.00011333334 -0.00022
-0.0040216669 0.00079333334 -0.0012509091
0.0013027935 -0.00079333334 0.0016127273
0.0039083804 0.00068 -0.0036563636
5.6643195e-05 0.00056666665 -0.0020527274
-0.0034552349 0.0011333333 -0.0010218181
-0.0014160798 0.00045333334 -0.0019381818
-0.0051545305 0.00090666668 -0.0021672726
-0.011611855 0.00045333334 -0.0029690908
-0.0075335447 0.0014733333 -0.00090727274
0.0060608219 -0.0014733333 -0.00090727274
0.0023223709 -0.00136 -0.00010545454
0.010478991 -0.00090666668 -0.00090727274
-0.0022090846 0.0017 -0.00079272728
-0.006174108 0.00102 -0.0010218181
-0.0040216669 -0.00045333334 0.0017272728
0.0075335447 0.0017 -0.00056363636
-0.0094594136 0.00045333334 -0.00010545454
0.0085531222 0.0017 -0.00033454545
0.011271995 0.00045333334 0.00023818182
0.0086664092 0.00090666668 -0.00010545454
-0.011611855 -0.00056666665 0.00104
0.0039083804 -0.00056666665 0.00104
0.0035685212 0.00068 0.0011545455
0.0011895071 -0.00079333334 -0.002510909
-0.0096859867 -0.0017 -0.00022
-0.010252418 0.00034 -0.0013654545
0.0027755166 0.0015866667 -0.0010218181
0.0091195544 -0.00011333334 -0.0010218181
0.012065001 0.00102 -0.00044909091
0.0040216669 0.00068 0.00046727274
0.011045423 0.0017 -0.00090727274
0.006174108 0.00045333334 -0.0023963635
0.0028888029 0.00102 -0.00022
-0.0050412444 0.00068 -0.0020527274
0.0026622301 0.00045333334 0.0017272728
-0.0062873946 0.00068 0.00058181817
-0.010139132 0.00068 0.0011545455
-0.0069671129 0.00022666667 -0.00022
0.0024356574 0.00056666665 -0.0028545454
0.004134953 0.00102 -0.00090727274
0.0093461275 -0.0012466667 -0.00079272728
-0.0069671129 -0.00011333334 -0.00022
-0.011271995 -0.00079333334 -0.0029690908
0.0051545305 -0.00068 -0.00148
0.0036818075 0.0017 -0.0010218181
0.0094594136 0.0011333333 -0.00090727274
-0.0088929813 0.00079333334 0.00069636363
0.0088929813 0.00045333334 0.0012690909
-0.0040216669 -0.00079333334 0.0013836364
-0.0064006811 0.00090666668 0.0013836364
-0.0026622301 0.00056666665 -0.0022818181
-0.0036818075 -0.00045333334 -0.002510909
-0.0049279579 -0.00056666665 9.0909089e-06
-0.0015293662 -0.0017 -0.0010218181
-0.0065139672 0.00068 -0.0026254545
0.011045423 -0.0012466667 -0.00090727274
0.0087796953 0.00045333334 -0.0027399999
-0.0049279579 -0.00056666665 0.0011545455
0.0059475354 0.0017 -0.00056363636
0.011838428 0.0015866667 -0.00090727274
-0.0023223709 -0.00056666665 0.00058181817
-0.0040216669 0.00079333334 -0.0010218181
-5.6643195e-05 0.00090666668 0.00012363636
0.010139132 0.00045333334 0.0018418182
0.010932136 0.0014733333 -0.00010545454
0.0027755166 -0.00068 0.0012690909
-0.0015293662 0.00022666667 -0.0010218181
-0.0076468312 0.00056666665 -0.0011363636
-5.6643195e-05 -0.00022666667 -0.0010218181
0.0040216669 0.00045333334 -0.0028545454
-0.0050412444 -0.00090666668 -0.0033127272
-0.011498569 -0.00068 -0.003770909
0.0076468312 -0.00079333334 -0.0019381818
0.0060608219 -0.0017 -0.00044909091
0.0015293662 -0.00068 -0.0019381818
-0.0040216669 -0.00068 -0.0023963635
0.010252418 0.00102 -0.00022
-0.0050412444 -0.00056666665 -0.0030836363
0.0079866908 0.00034 -0.00090727274
-0.0069671129 -0.00034 -0.00090727274
-0.00050978875 -0.0012466667 -0.00090727274
-0.0065139672 0.00079333334 -0.0023963635
-0.0060608219 -0.00079333334 -0.0015945454
-0.011158709 -0.00056666665 -0.0012509091
0.010252418 0.00068 -0.0031981817
-0.0032286621 -0.0011333333 -0.00022
0.0056076762 -0.00045333334 -0.00010545454
-0.0016426527 -0.00079333334 -0.0010218181
-0.0065139672 0.00090666668 -0.00010545454
0.0014160798 0.00056666665 -0.00148
-0.0037950941 0 -0.0010218181
0.0014160798 0.00056666665 -0.0031981817
-0.0024356574 -0.0017 -0.00044909091
-0.0011895071 0.00045333334 -0.00148
0.010592277 0.00034 -0.00090727274
-0.0023223709 -0.00056666665 0.00035272728
0.0062873946 -0.00056666665 -0.0030836363
0.0077601178 0.00045333334 -0.0028545454
0.0019825117 -0.00079333334 -0.00090727274
0.0090062683 -0.00102 -0.00022
0.0065139672 -0.00056666665 0.00012363636
-0.0062873946 0.00079333334 -0.0022818181
-0.00028321598 -0.0017 -0.00033454545
-0.0075335447 0.00056666665 0.00012363636
0.0025489437 0.0014733333 -0.00010545454
0.00028321598 0.0017 -0.00090727274
-0.0077601178 0.00045333334 0.0013836364
0.0090062683 -0.00045333334 0.0016127273
0.0011895071 0.00090666668 -0.0034272727
0.010705564 0.00136 -0.00090727274
-0.0036818075 0.00056666665 -0.002510909
-0.0090062683 -0.00056666665 0.0014981818
0.0062873946 -0.00079333334 -0.0013654545
0.0078734038 -0.00136 -0.00090727274
0.001755939 -0.00034 -0.00022
-0.0060608219 0.00045333334 -0.00010545454
-0.0014160798 0.00056666665 -0.0030836363
0.0088929813 0.00022666667 -0.00022
-0.0027755166 0.0017 -0.00010545454
0.0095726997 0 -0.00022
5.6643195e-05 0.00068 0.0017272728
-0.0036818075 -0.00079333334 -0.0036563636
-0.0099125588 -0.00045333334 0.00069636363
0.0052678171 0.00068 9.0909089e-06
-0.0025489437 -0.00136 -0.00010545454
-0.010705564 -0.0012466667 -0.00090727274
-0.006174108 0.0017 -0.00010545454
-0.0051545305 0.00090666668 -0.0012509091
0.0067405403 0.00090666668 -0.00090727274
-0.010478991 0.0017 -0.00056363636
-0.011951714 -0.0011333333 -0.00067818182
-0.0030020892 0.00090666668 -0.0010218181
-0.0020957983 0.0017 -0.00010545454
-0.0025489437 -0.00090666668 0.00046727274
-0.011725142 -0.00034 -0.00090727274
-0.0051545305 -0.00090666668 -0.0022818181
0.011385283 0.00056666665 0.0020709091
-0.0052678171 0.00090666668 -0.0011363636
0.0093461275 0.0017 -0.00067818182
-0.0069671129 0.0015866667 -0.00090727274
0.0062873946 -0.0015866667 -0.00090727274
0.0023223709 0.00045333334 0.00023818182
0.0014160798 0 -0.0010218181
-0.0091195544 0.0017 -0.00056363636
0.010365705 0 -0.00022
-0.0049279579 -0.00068 0.00081090908
-0.0044748122 0.0017 -0.00022
-0.0092328405 0.00102 -0.00090727274
-0.0044748122 0.00022666667 -0.00090727274
0.0045880987 0.0017 -0.00010545454
0.0036818075 -0.00068 0.0012690909
-0.0095726997 0.00136 -0.00022
-0.0028888029 -0.00034 -0.00022
0.00096293428 0.00068 0.0014981818
0.0057209628 -0.0011333333 -0.00022
-0.0011895071 0.00056666665 -0.0029690908
-0.0075335447 -0.00056666665 -0.003770909
0.0035685212 0.00102 -0.00022
-0.011385283 0.00022666667 -0.00022
-0.0028888029 0.00034 -0.00022
0.0085531222 0.00034 -0.00022
-0.0013027935 -0.00056666665 -0.0019381818
0.010705564 -0.00045333334 -0.00090727274
-0.0039083804 -0.00079333334 0.0014981818
-0.0077601178 -0.00079333334 -0.0026254545
-0.0013027935 -0.0017 -0.00022
-0.0050412444 -0.00045333334 0.00012363636
-0.0076468312 0.00045333334 -0.00148
0.011725142 0.0015866667 -0.00033454545
-0.0060608219 -0.00102 -0.0010218181
0.00016992958 -0.00056666665 0.00092545454
-0.010252418 -0.00079333334 -0.0027399999
0.0084398361 0.0012466667 -0.0010218181
0.0020957983 0.00034 -0.00022
0.0047013853 0.00011333334 -0.00022
0.0039083804 0.00090666668 -0.0018236364
0.0069671129 0.0017 -0.00067818182
-0.010139132 0.00136 -0.00079272728
0.012065001 0.0012466667 -0.00079272728
-0.0014160798 0.00011333334 -0.0010218181
-0.0066272537 0.0017 -0.00022
-0.0039083804 0.00090666668 0.0016127273
-0.0092328405 -0.0017 -0.00044909091
-0.0062873946 -0.00090666668 -0.0011363636
-0.0013027935 0.00011333334 -0.00022
-0.0076468312 0.00090666668 -0.0018236364
0.0068538263 -0.0017 -0.00056363636
-0.00028321598 -0.0017 -0.00022
0.0011895071 0.00045333334 -0.0027399999
-5.6643195e-05 -0.00045333334 0.00023818182
-0.011498569 0.00056666665 0.00104
0.00062307512 -0.00022666667 -0.00090727274
0.0064006811 0.0014733333 -0.00010545454
0.0011895071 0.00090666668 -0.0021672726
0.0014160798 0.0017 -0.00022
0.0024356574 0.00022666667 -0.00022
0.0095726997 0.00079333334 -0.00010545454
0.010365705 0.0015866667 -0.00090727274
0.00832655 -0.0017 -0.00044909091
0.0099125588 0.00045333334 -0.0018236364
0.0050412444 -0.00056666665 -0.0034272727
-0.0039083804 0.00090666668 -0.0022818181
0.0031153758 0.0017 -0.00067818182
0.0024356574 -0.00045333334 -0.0031981817
0.011498569 -0.00068 -0.0026254545
-0.0050412444 -0.00136 -0.0010218181
0.011271995 0.00090666668 -0.00010545454
0.0091195544 -0.00056666665 -0.0027399999
-0.00028321598 0.0014733333 -0.00010545454
0.010025846 -0.0017 -0.00033454545
-0.0062873946 0.00136 -0.00010545454
-0.0075335447 0.00068 9.0909089e-06
-0.00028321598 0.0015866667 -0.00010545454
0.0077601178 -0.00056666665 0.0012690909
-0.0051545305 -0.0017 -0.00090727274
0.00832655 0.0017 -0.00010545454
0.0010762207 0.00045333334 -0.0012509091
0.0022090846 0.00068 -0.0010218181
-0.0037950941 -0.00022666667 -0.0010218181
0.011158709 0.0017 -0.00090727274
-0.011611855 -0.0017 -0.00022
0.0090062683 0.00090666668 -0.0031981817
0.0069671129 0.00136 -0.00010545454
0.010252418 -0.00045333334 -0.0017090909
0.0053811036 -0.0011333333 -0.00090727274
0.0051545305 -0.00022666667 -0.00022
-0.0040216669 0.00079333334 0.0017272728
0.0088929813 0.00034 -0.0010218181
-0.0011895071 0.00045333334 0.00023818182
0.0024356574 -0.00068 0.0019563637
-0.0091195544 0.00068 -0.0010218181
-0.0019825117 -0.00034 -0.00090727274
5.6643195e-05 -0.0014733333 -0.00010545454
-0.0053811036 -0.00011333334 -0.00022
0.011498569 -0.00045333334 0.00081090908
0.0048146714 0.00079333334 -0.0013654545
0.0048146714 0.0017 -0.00033454545
0.0011895071 -0.00079333334 0.0011545455
-0.010252418 -0.00079333334 -0.0020527274
0.0011895071 0.00090666668 -0.0029690908
0.0074202586 0.00045333334 0.00023818182
0.0086664092 0.00079333334 -0.0026254545
0.0050412444 -0.00056666665 0.0018418182
-0.0018692254 -0.0017 -0.00056363636
-0.0062873946 0.00079333334 -0.0017090909
0.0074202586 0.00045333334 0.00046727274
0.0077601178 -0.00056666665 -0.0027399999
-5.6643195e-05 -0.00079333334 0.00104
0.010252418 -0.00056666665 0.00069636363
0.011498569 -0.00034 -0.0013654545
0.0064006811 -0.00056666665 -0.0015945454
5.6643195e-05 0.00056666665 -0.0022818181
0.0035685212 0.00056666665 -0.0011363636
0.010025846 0.00090666668 0.00046727274
-0.00832655 0.00022666667 -0.00022
-0.01081885 0.00022666667 -0.00022
-0.0075335447 -0.0014733333 -0.0010218181
-0.0069671129 -0.0011333333 -0.00090727274
0.0091195544 0.0015866667 -0.00090727274
-0.0051545305 -0.00056666665 0.0019563637
0.010252418 -0.00068 0.00035272728
-0.0065139672 0.00068 0.00046727274
0.0052678171 -0.00079333334 0.0014981818
0.0037950941 0.00045333334 0.0013836364
0.0020957983 -0.0017 -0.00056363636
0.0099125588 -0.00011333334 -0.00022
5.6643195e-05 0.00068 -0.0034272727
-0.0054943897 -0.0011333333 -0.00022
0.010139132 -0.00068 -0.0035418181
-0.0090062683 -0.00079333334 -0.0013654545
0.011498569 -0.00045333334 -0.0021672726
-0.0052678171 -0.00056666665 -0.0029690908
0.010139132 0.0012466667 -0.00090727274
-0.010365705 0.00056666665 0.0018418182
0.0014160798 0.00079333334 -0.0010218181
0.0011895071 -0.00068 0.0019563637
-0.004134953 -0.0017 -0.00010545454
0.0032286621 -0.0012466667 -0.00022
0.010252418 -0.00136 -0.00090727274
0.011158709 -0.00090666668 -0.00090727274
0.0036818075 0.00045333334 0.0012690909
-0.0062873946 -0.00056666665 9.0909089e-06
0.011271995 0.00045333334 -0.0034272727
-0.0065139672 -0.00068 0.00104
-0.0037950941 0.00045333334 -0.002510909
-0.011611855 0.00079333334 -0.00010545454
-0.0090062683 -0.00079333334 -0.0010218181
-0.0036818075 -0.00056666665 -0.0017090909
0.010139132 -0.00068 -0.0033127272
-0.0065139672 -0.0017 -0.00010545454
0.011951714 0.0014733333 -0.00044909091
0.0085531222 0.00011333334 -0.00022
0.0024356574 -0.00056666665 0.0019563637
-0.0066272537 0.0017 -0.00056363636
-0.010932136 0.0011333333 -0.00079272728
-0.0086664092 0.0014733333 -0.00090727274
0.0015293662 0.00090666668 -0.00010545454
-0.010139132 -0.00045333334 0.0016127273
0.0018692254 0.0017 -0.0010218181
-0.0013027935 -0.00056666665 0.0011545455
0.011385283 0.00079333334 9.0909089e-06
0.0090062683 -0.00090666668 -0.0034272727
-0.010025846 0.0017 -0.00010545454
0.010252418 0.00090666668 -0.0013654545
-0.0071936855 -0.0017 -0.00010545454
0.010252418 0.00090666668 0.0013836364
-0.0048146714 -0.0017 -0.00079272728
0.0097992728 0.00136 -0.00010545454
0.0014160798 0.00056666665 -0.0011363636
-0.0045880987 -0.0017 -0.00079272728
-0.0014160798 0.00056666665 -0.0036563636
0.0014160798 -0.00056666665 -0.0013654545
-0.011611855 0.00045333334 -0.0034272727
0.011498569 -0.00068 0.00092545454
0.010139132 0.0017 -0.00056363636
0.0019825117 0 -0.00022
0.0096859867 -0.00079333334 -0.00090727274
-0.0084398361 -0.00056666665 -0.0010218181
-0.0011895071 -0.00090666668 -0.0033127272
-0.01081885 -0.00022666667 -0.00022
0.0088929813 -0.00079333334 0.00092545454
0.0069671129 0.00045333334 -0.00010545454
0.0067405403 -0.0012466667 -0.00090727274
0.0048146714 0 -0.00022
0.0042482396 0.00011333334 -0.00022
0.0010762207 0.00045333334 -0.0023963635
0.0013027935 0.0017 -0.0010218181
-0.0022090846 0.00011333334 -0.0010218181
0.0091195544 0.00011333334 -0.00022
-0.011498569 0.00056666665 0.00069636363
0.0040216669 -0.00079333334 -0.0031981817
0.0040216669 -0.00056666665 0.0011545455
0.0051545305 0.00045333334 0.0017272728
0.0033419484 -0.00136 -0.0010218181
0.004134953 -0.00011333334 -0.00090727274
-0.012065001 -0.00068 -0.00056363636
0.0014160798 0.0017 -0.00010545454
0.0074202586 0.00011333334 -0.00022
0.0024356574 -0.00079333334 -0.0035418181
-0.0015293662 -0.0011333333 -0.00022
-0.010139132 0.00034 -0.0027399999
-0.0091195544 -0.00056666665 0.00069636363
0.0095726997 0.0017 -0.00079272728
0.0039083804 -0.00056666665 -0.002510909
-0.01081885 0.0017 -0.00033454545
0.0062873946 0.00045333334 0.00104
0.0069671129 0.00102 -0.00090727274
-0.0013027935 -0.00090666668 -0.0033127272
0.0087796953 -0.00068 0.00023818182
-0.0075335447 -0.0012466667 -0.00022
0.011045423 -0.0015866667 -0.00067818182
-0.0086664092 -0.00011333334 -0.0010218181
-0.0022090846 0.0014733333 -0.0010218181
0.0035685212 0.00056666665 0.0013836364
0.011385283 0.00079333334 -0.00148
-0.0010762207 -0.00056666665 0.0018418182
0.0011895071 -0.0014733333 -0.0010218181
0.0043615261 -0.00045333334 -0.00010545454
0.010252418 -0.00045333334 -0.00148
0.00016992958 -0.00056666665 0.0013836364
0.00016992958 -0.00079333334 0.00092545454
-0.0050412444 0.00102 -0.0010218181
0.0065139672 0.0017 -0.00090727274
-0.0026622301 0.00056666665 -0.0019381818
5.6643195e-05 0.00056666665 -0.0021672726
-0.010025846 -0.00068 -0.0021672726
-0.00084964791 -0.0017 -0.00010545454
0.0087796953 0.00090666668 -0.0036563636
-0.0037950941 0.00090666668 0.0014981818
0.0011895071 0.00090666668 -0.0031981817
-0.011498569 -0.00079333334 -0.00148
-0.00016992958 0.00045333334 0.0019563637
-0.0065139672 -0.00068 -0.0021672726
0.0030020892 -0.0014733333 -0.00010545454
-0.0049279579 -0.00068 0.00012363636
-0.011611855 -0.00079333334 0.00058181817
-0.0049279579 0.00045333334 -0.0010218181
0.011385283 -0.00045333334 0.0017272728
0.0032286621 -0.00011333334 -0.00090727274
-0.0013027935 0.00090666668 0.00104
-0.0053811036 0.0017 -0.0010218181
0.0088929813 -0.00056666665 -0.0023963635
0.0058342488 -0.0012466667 -0.00090727274
-0.0058342488 -0.0017 -0.00022
0.0040216669 -0.00045333334 0.00023818182
-0.0095726997 0.0017 -0.00079272728
-0.0077601178 0.00068 0.0013836364
-0.0088929813 0.00045333334 -0.0012509091
0.0086664092 0.00068 -0.0035418181
0.0045880987 0.00022666667 -0.00022
0.0096859867 0.0017 -0.00033454545
-0.0065139672 0.00045333334 0.0011545455
0.010025846 0.00045333334 0.00092545454
-0.0067405403 0.0011333333 -0.00022
-0.0056076762 -0.0017 -0.00033454545
-0.0088929813 0.00079333334 -0.0023963635
-0.0040216669 0.00079333334 0.00081090908
0.0018692254 0.00022666667 -0.00022
0.0036818075 -0.00056666665 -0.0018236364
0.00062307512 0.0014733333 -0.00010545454
-0.0035685212 -0.00090666668 -0.00010545454
0.011271995 0.0014733333 -0.00090727274
-0.010252418 -0.00079333334 0.0012690909
-0.011611855 -0.00056666665 -0.0018236364
-0.0087796953 -0.00056666665 0.0019563637
-0.0088929813 0.00045333334 0.00023818182
-0.010252418 0.00034 0.00058181817
0.010932136 -0.00022666667 -0.00090727274
0.0065139672 0.00056666665 -0.0022818181
0.0030020892 -0.0015866667 -0.00090727274
0.00832655 0.00056666665 -0.00090727274
0.0087796953 0.0011333333 -0.00022
0.00016992958 -0.0011333333 -0.0010218181
0.0049279579 0.00056666665 0.0011545455
-0.004134953 -0.0017 -0.00022
0.0077601178 0.00068 -0.0029690908
0.0054943897 -0.00022666667 -0.00090727274
-0.011498569 -0.00079333334 0.00104
0.0018692254 -0.0011333333 -0.00022
0.0010762207 0.00045333334 -0.00010545454
0.0013027935 -0.00045333334 0.00012363636
0.010025846 -0.00090666668 -0.0010218181
-0.011725142 0.00022666667 -0.00090727274
-0.0076468312 0.00090666668 -0.0023963635
0.0091195544 0.00045333334 0.00035272728
0.011158709 0.00068 0.00023818182
-0.0049279579 0.00056666665 -0.0010218181
0.0049279579 0.00079333334 0.0013836364
0.010139132 -0.00056666665 -0.0023963635
-0.0095726997 -0.00022666667 -0.00022
0.00084964791 0.0015866667 -0.0010218181
0.0037950941 -0.0017 -0.00010545454
0.00039650235 -0.00022666667 -0.00022
-0.006174108 -0.00056666665 0.00069636363
0.0090062683 -0.00090666668 -0.0030836363
-0.0037950941 0.00090666668 -0.0033127272
0.00016992958 -0.00079333334 -0.0034272727
0.0026622301 -0.00090666668 0.00069636363
-0.0065139672 -0.00068 -0.0012509091
-5.6643195e-05 -0.0017 -0.00079272728
-0.0024356574 0.00079333334 -0.0018236364
-0.0067405403 -0.00045333334 -0.00090727274
0.0067405403 0.00045333334 -0.00090727274
0.0065139672 0.0011333333 -0.00022
-0.0093461275 -0.00102 -0.00090727274
0.0045880987 -0.0015866667 -0.00010545454
0.0076468312 -0.00068 -0.0027399999
-0.0057209628 -0.0012466667 -0.00022
-0.0032286621 -0.00011333334 -0.00022
-0.0047013853 -0.00056666665 -0.0010218181
0.0015293662 -0.00068 0.00092545454
-0.01081885 -0.0017 -0.00090727274
-0.0040216669 -0.0017 -0.00044909091
0.0010762207 -0.00056666665 -0.0017090909
-0.00062307512 0.0015866667 -0.00090727274
0.010252418 0.00068 -0.0019381818
0.00028321598 0.00090666668 -0.00010545454
-0.0011895071 0.00090666668 9.0909089e-06
0.0097992728 0.00136 -0.00090727274
0.0091195544 -0.00056666665 0.00012363636
-0.0069671129 0.00034 -0.00022
-0.0020957983 -0.00045333334 -0.0010218181
-0.0090062683 -0.00056666665 -0.0030836363
0.00016992958 -0.00056666665 0.0012690909
-0.010365705 0.00045333334 -0.0013654545
0.0010762207 0.00056666665 0.0016127273
0.011385283 0.00034 -0.0011363636
-0.0025489437 0.00045333334 -0.0018236364
0.0074202586 0.00045333334 -0.0027399999
0.0040216669 0.00068 -0.0017090909
-0.0019825117 -0.0011333333 -0.0010218181
-0.011725142 0.00011333334 -0.00022
-0.0049279579 -0.00079333334 0.0012690909
0.00028321598 -0.00056666665 -0.0010218181
0.0057209628 0.0017 -0.00067818182
-0.0045880987 0 -0.00022
0.0091195544 0.00056666665 -0.0023963635
0.011045423 0.00011333334 -0.00022
0.0045880987 0.0017 -0.00044909091
-0.0036818075 -0.00068 0.00069636363
-0.0040216669 -0.00045333334 -0.00010545454
0.0020957983 -0.00022666667 -0.00022
0.0013027935 0.00079333334 -0.0035418181
-0.0090062683 0.00034 -0.0010218181
0.0025489437 -0.00136 -0.00010545454
0.0040216669 0.00056666665 -0.0035418181
0.0059475354 -0.0017 -0.00056363636
-0.0043615261 0.0017 -0.00067818182
0.0020957983 -0.0017 -0.00022
0.0078734038 -0.0014733333 -0.00090727274
5.6643195e-05 -0.00090666668 -0.00148
-0.0077601178 0.00079333334 -0.0017090909
0.0048146714 0.00045333334 0.0018418182
0.0088929813 0.00090666668 -0.0036563636
0.0085531222 -0.0017 -0.00010545454
-0.011498569 -0.00045333334 -0.0019381818
0.0039083804 0.00090666668 0.0012690909
-0.0040216669 0.00068 -0.0031981817
-0.0011895071 -0.0017 -0.00056363636
0.0026622301 0.00056666665 0.00058181817
-0.0052678171 0.00068 -0.0019381818
0.011951714 -0.0012466667 -0.00022
-0.0011895071 0.00056666665 -0.0013654545
0.0049279579 0.00068 -0.0023963635
0.0015293662 0.0015866667 -0.0010218181
0.0040216669 -0.00045333334 -0.0027399999
-0.006174108 -0.00090666668 -0.0019381818
0.0026622301 0.00045333334 -0.0028545454
0.010365705 0.00068 -0.0018236364
0.0068538263 -0.00045333334 -0.00010545454
-0.0025489437 -0.00079333334 -0.0028545454
0.0059475354 0.00011333334 -0.00022
0.00016992958 -0.00068 0.0013836364
0.0014160798 -0.00079333334 0.00104
0.011498569 0.00045333334 0.00012363636
0.0016426527 -0.0017 -0.00090727274
0.0077601178 0.00045333334 0.00092545454
0.0026622301 -0.00090666668 -0.0034272727
0.00062307512 0.0017 -0.00010545454
-0.0078734038 -0.00034 -0.00090727274
-0.0040216669 -0.00068 0.00104
-0.006174108 -0.0012466667 -0.00022
-0.0014160798 -0.00011333334 -0.0010218181
-0.0011895071 -0.00056666665 -0.0015945454
-0.011271995 -0.00079333334 -0.0022818181
-0.008213263 0.00011333334 -0.00090727274
0.0033419484 -0.00090666668 -0.00010545454
-0.00832655 -0.0017 -0.00090727274
0.0097992728 -0.0011333333 -0.00079272728
0.0049279579 -0.00011333334 -0.00022
0.011838428 0 -0.00090727274
-0.011045423 0.00068 -0.00010545454
0.011611855 -0.00056666665 -0.0026254545
-0.0024356574 -0.00090666668 -0.0027399999
-0.010592277 0.00090666668 -0.00022
-0.0035685212 0.00136 -0.00010545454
0.0011895071 0.00090666668 -0.0026254545
-0.0015293662 0.00056666665 0.00046727274
-0.0088929813 0.0014733333 -0.00022
-0.010365705 0.00079333334 9.0909089e-06
0.0036818075 0.00090666668 -0.0022818181
0.0052678171 0.00045333334 0.0017272728
-0.0065139672 -0.00068 0.0018418182
-0.011611855 -0.0017 -0.00067818182
-0.0075335447 -0.00079333334 -0.0028545454
0.010365705 0.00068 -0.002510909
-0.0040216669 0.00068 -0.0020527274
0.0049279579 0.00056666665 -0.0018236364
0.0023223709 0.00068 -0.0011363636
0.0096859867 0.00011333334 -0.00022
0.011951714 -0.00056666665 -0.00067818182
0.0031153758 -0.0011333333 -0.00022
-0.0087796953 0.00056666665 0.00012363636
0.0023223709 0.00045333334 0.00035272728
-0.010932136 -0.0017 -0.00033454545
0.012065001 0.00102 -0.00022
0.0028888029 0.0017 -0.00067818182
0.0070803994 -0.00045333334 -0.00090727274
-0.0059475354 -0.0017 -0.00022
-0.0035685212 -0.0017 -0.00044909091
-0.00096293428 -0.00079333334 9.0909089e-06
-0.0025489437 -0.00090666668 -0.0023963635
-0.0075335447 -0.00068 0.00058181817
0.0050412444 -0.00068 -0.0030836363
0.011045423 0.0011333333 -0.00022
-0.010025846 -0.0017 -0.00010545454
0.0040216669 0.00102 -0.00022
0.0076468312 0.00090666668 0.0012690909
-0.0026622301 0.00079333334 -0.0019381818
0.0033419484 0.0015866667 -0.00010545454
0.0045880987 0.00022666667 -0.00090727274
0.0049279579 -0.0015866667 -0.00010545454
-0.0031153758 0.0017 -0.00033454545
0.0087796953 0.00090666668 -0.0013654545
-0.0026622301 -0.00079333334 9.0909089e-06
5.6643195e-05 0.00056666665 -0.0031981817
-0.0015293662 0.0015866667 -0.00010545454
0.00028321598 -0.00079333334 -0.0011363636
0.0073069721 0.00136 -0.00010545454
-0.0016426527 -0.0015866667 -0.0010218181
-0.011838428 0.0014733333 -0.00022
0.0036818075 0.00045333334 0.00058181817
-0.0097992728 0.0011333333 -0.00022
-0.0095726997 -0.0017 -0.00010545454
0.011385283 -0.00056666665 -0.0034272727
-0.0090062683 -0.0017 -0.00010545454
0.0090062683 0.00090666668 -0.0010218181
0.0024356574 -0.0017 -0.00022
-0.0059475354 -0.0017 -0.00044909091
-0.00084964791 -0.0011333333 -0.0010218181
0.0087796953 -0.00056666665 -0.0017090909
0.0086664092 0.00079333334 0.0013836364
0.0036818075 -0.00068 -0.0023963635
-0.0036818075 -0.00090666668 -0.0012509091
-0.00096293428 -0.00034 -0.0010218181
0.0024356574 -0.00056666665 0.0012690909
0.0052678171 -0.00079333334 0.00092545454
-0.0065139672 -0.00068 0.0012690909
0.0076468312 -0.0014733333 -0.00010545454
-0.0054943897 0.00079333334 -0.00090727274
0.0090062683 0.00079333334 0.00023818182
0.011271995 0.00079333334 -0.0018236364
0.0049279579 -0.00056666665 0.00023818182
0.0039083804 0.00045333334 -0.0030836363
-0.00062307512 -0.00102 -0.00090727274
0.0093461275 0.0017 -0.00033454545
0.0014160798 -0.00045333334 -0.0018236364
0.0067405403 0.0017 -0.00033454545
-0.0035685212 -0.00079333334 -0.0010218181
0.0014160798 0.00068 -0.0012509091
-0.010025846 -0.00090666668 -0.0010218181
-0.0077601178 -0.00079333334 0.0019563637
0.0033419484 0.0017 -0.0010218181
0.01081885 0.0011333333 -0.00022
-0.0062873946 -0.00034 -0.00022
-0.0023223709 -0.00079333334 -0.0023963635
-0.011385283 -0.0017 -0.00022
0.0047013853 -0.00022666667 -0.00022
-0.0090062683 -0.00068 -0.00148
0.010365705 0.00045333334 -0.0012509091
0.00832655 0.00011333334 -0.00090727274
0.0036818075 -0.00079333334 0.00058181817
0.0076468312 -0.00068 0.0012690909
-0.0054943897 0.00102 -0.00022
-0.0075335447 -0.00079333334 -0.0011363636
-0.010139132 0.00034 0.0011545455
0.0051545305 0.00045333334 0.00081090908
-0.001755939 -0.00011333334 -0.0010218181
-0.0076468312 0.00079333334 -0.0033127272
-0.0077601178 0.00056666665 0.00035272728
0.0051545305 -0.00045333334 -0.0013654545
-0.011498569 -0.00079333334 -0.0023963635
0.010025846 0.00068 0.0014981818
-0.0056076762 0.00011333334 -0.00022
0.0052678171 -0.0011333333 -0.0010218181
-0.0015293662 0.00045333334 0.00035272728
0.0068538263 0.00011333334 -0.00090727274
0.0039083804 0.00045333334 0.00081090908
-0.0023223709 -0.00079333334 0.0016127273
0.00084964791 -0.00045333334 -0.00010545454
-0.00050978875 0.0017 -0.00022
-0.0090062683 0.00079333334 0.0012690909
-0.0026622301 -0.00068 -0.0035418181
0.0036818075 -0.00068 0.00035272728
-0.0014160798 0.00045333334 -0.0026254545
0.0032286621 0.00068 -0.00090727274
-0.0075335447 -0.00079333334 0.00092545454
-0.0023223709 -0.00079333334 -0.0021672726
-0.0073069721 0.00090666668 -0.0010218181
0.00084964791 -0.00090666668 -0.0010218181
-0.0036818075 -0.00056666665 0.0019563637
0.0074202586 0.00068 -0.0029690908
-0.0037950941 0.00090666668 -0.0015945454
0.011611855 0.00079333334 -0.0019381818
0.0014160798 -0.00045333334 -0.0021672726
0.0053811036 0.00045333334 -0.0010218181
-0.0074202586 -0.00045333334 0.00023818182
-0.0047013853 -0.0015866667 -0.00010545454
0.006174108 0.00079333334 -0.0029690908
0.008213263 0.00136 -0.00090727274
-0.0094594136 -0.00011333334 -0.00090727274
0.0037950941 -0.00079333334 -0.0035418181
0.0090062683 0.00090666668 0.00081090908
-0.0015293662 -0.00022666667 -0.00022
-0.011611855 -0.00056666665 0.0014981818
0.0091195544 0.00045333334 0.00069636363
0.0078734038 0 -0.00022
-0.0062873946 -0.00090666668 0.00046727274
0.0036818075 0.0017 -0.00056363636
-0.0090062683 -0.00090666668 0.00104
0.0011895071 -0.00079333334 -0.0017090909
0.0062873946 -0.00079333334 0.0013836364
-0.0014160798 0.00045333334 -0.0015945454
-0.0030020892 0.00136 -0.00010545454
0.0084398361 -0.00079333334 -0.00010545454
-0.010365705 -0.00068 0.00092545454
-0.0094594136 -0.00136 -0.00010545454
0.00039650235 -0.0017 -0.00033454545
0.0052678171 -0.00056666665 0.00069636363
-0.0091195544 -0.00045333334 -0.002510909
0.010025846 0.00079333334 -0.0034272727
-0.0087796953 0.00068 9.0909089e-06
-0.0090062683 -0.00079333334 0.0016127273
0.00096293428 -0.0017 -0.00010545454
-0.0020957983 0.00045333334 -0.00090727274
-0.0036818075 -0.00079333334 -0.002510909
0.0073069721 -0.0011333333 -0.00090727274
-0.010139132 0.00034 -0.0020527274
0.0062873946 0.0017 -0.00067818182
0.0091195544 0.00056666665 -0.0026254545
-0.00050978875 -0.00022666667 -0.00090727274
5.6643195e-05 -0.00056666665 -0.0035418181
0.0020957983 0.0017 -0.00010545454
0.0049279579 0.00045333334 0.00058181817
-0.011951714 -0.00011333334 -0.00022
0.0085531222 0.00090666668 9.0909089e-06
0.0052678171 -0.00056666665 0.0014981818
0.0087796953 0.00090666668 0.0013836364
-0.006174108 -0.00136 -0.00010545454
-0.00016992958 0.00068 -0.0030836363
0.011385283 0.00079333334 0.0014981818
-0.0040216669 0.00056666665 -0.0015945454
0.0035685212 -0.0012466667 -0.0010218181
-0.0076468312 -0.00022666667 -0.0010218181
0.00039650235 -0.00011333334 -0.0010218181
-0.011498569 0.00045333334 -0.0026254545
0.0088929813 0.00090666668 -0.0021672726
0.0086664092 0.00056666665 -0.0030836363
-0.0075335447 0.00068 -0.0010218181
0.0026622301 0.00068 -0.0027399999
0.0040216669 -0.00079333334 0.0017272728
0.011498569 0.00079333334 -0.0023963635
0.0087796953 0.00079333334 0.0016127273
-0.0065139672 -0.0017 -0.00090727274
0.00016992958 -0.00056666665 -0.0033127272
0.0050412444 0.00090666668 -0.0021672726
-0.0011895071 0.00079333334 -0.002510909
-5.6643195e-05 0.00045333334 0.00058181817
-0.0086664092 -0.00079333334 -0.0028545454
-0.011271995 -0.00045333334 -0.0029690908
0.011385283 0.00079333334 -0.0010218181
0.0095726997 -0.0014733333 -0.00010545454
0.010365705 -0.00068 0.0011545455
-0.010365705 -0.00068 -0.00148
0.0080999769 -0.0017 -0.00022
0.0014160798 0.00068 -0.0029690908
0.010139132 0.00034 -0.0010218181
0.0091195544 -0.0017 -0.00079272728
0.0094594136 -0.00136 -0.00067818182
-0.0037950941 -0.00079333334 -0.003770909
-0.008213263 0.00136 -0.00022
0.010025846 0.00079333334 -0.0021672726
0.0049279579 -0.00068 9.0909089e-06
0.006174108 0.00045333334 -0.002510909
-0.01081885 -0.0014733333 -0.00010545454
0.0011895071 0.0012466667 -0.00022
0.01081885 0.00045333334 -0.0010218181
0.0040216669 0.00045333334 -0.0023963635
-0.0088929813 -0.0017 -0.00090727274
0.0037950941 0 -0.00022
0.0045880987 0.00079333334 -0.00010545454
0.011498569 0.0011333333 -0.00090727274
-0.0056076762 0.0017 -0.00090727274
-0.0014160798 -0.00090666668 -0.0010218181
-0.012065001 -0.00022666667 -0.00033454545
-0.0027755166 0.00056666665 -0.0011363636
0.010365705 0.00056666665 -0.0031981817
0.0095726997 -0.0017 -0.00067818182
0.010025846 0.00090666668 0.0012690909
-0.0050412444 0.00056666665 -0.00148
0.0070803994 0.0017 -0.00079272728
-0.0062873946 -0.0012466667 -0.0010218181
-5.6643195e-05 0.00068 0.0021854546
0.0077601178 -0.00090666668 -0.0027399999
0.0023223709 0.00079333334 0.00023818182
-0.00073636154 0.00068 -0.00090727274
0.0090062683 0.0011333333 -0.0010218181
0.010025846 -0.00011333334 -0.00022
0.011725142 -0.0014733333 -0.00022
-0.006174108 -0.00045333334 -0.0021672726
0.0077601178 0.00079333334 -0.0034272727
0.011045423 -0.00056666665 -0.00010545454
0.0096859867 0.0017 -0.00022
-0.010932136 0.0017 -0.00067818182
-0.0024356574 -0.00056666665 0.00092545454
0.010025846 0.00056666665 -0.0031981817
-0.0065139672 0.0017 -0.00010545454
0.0077601178 0.00090666668 -0.0013654545
-0.011158709 0.0015866667 -0.00022
-0.0065139672 -0.00068 -0.0018236364
-0.006174108 0.0015866667 -0.00090727274
0.011611855 0.00056666665 0.00058181817
0.010478991 0.0014733333 -0.00090727274
-0.010592277 0.0017 -0.00056363636
0.0077601178 -0.00045333334 0.00012363636
-0.0088929813 -0.00056666665 -0.0036563636
0.0013027935 -0.00090666668 0.00035272728
-0.0023223709 -0.00079333334 -0.0034272727
0.0092328405 -0.0014733333 -0.00090727274
-0.0064006811 0.00090666668 -0.00010545454
-0.010365705 0.00079333334 -0.0018236364
-0.0026622301 -0.00079333334 -0.0030836363
-0.0014160798 -0.00056666665 0.0013836364
-0.011271995 0.0017 -0.00033454545
-0.0024356574 0 -0.00022
-0.0051545305 0.00022666667 -0.0010218181
0.0084398361 0.00034 -0.00090727274
0.0028888029 0.0017 -0.00079272728
0.004134953 0.00011333334 -0.00022
0.010365705 -0.00056666665 -0.0031981817
-0.0076468312 0.00079333334 -0.0017090909
0.0068538263 0.0011333333 -0.00090727274
-0.0032286621 -0.00136 -0.00090727274
-0.0062873946 0.00045333334 -0.00148
-0.0065139672 0.00079333334 -0.0019381818
0.0065139672 -0.00056666665 0.0016127273
-0.010592277 -0.00045333334 -0.00090727274
0.0056076762 -0.00136 -0.00010545454
-0.0077601178 -0.00068 -0.0022818181
-0.0070803994 -0.00102 -0.00022
0.0074202586 0.00068 0.00069636363
-0.0090062683 0.00011333334 -0.00022
-0.0014160798 0.00068 0.00092545454
0.00050978875 0.00068 -0.00090727274
-0.010025846 -0.00068 -0.0036563636
0.00016992958 -0.00068 0.00069636363
-0.006174108 -0.00056666665 0.00104
-0.0086664092 0.0015866667 -0.00079272728
-0.0047013853 0.0017 -0.00067818182
0.0040216669 0.00068 -0.0035418181
-0.0020957983 -0.0017 -0.00067818182
-0.0013027935 -0.00079333334 -0.0015945454
-0.0090062683 0.00045333334 -0.0017090909
0.010252418 -0.00068 -0.0034272727
-0.006174108 -0.00056666665 0.0016127273
-0.0086664092 -0.00090666668 -0.00010545454
-0.0067405403 0.00136 -0.00090727274
-0.011611855 -0.00068 0.0012690909
-0.011045423 0.0011333333 -0.00022
-0.00016992958 0.00068 0.0018418182
0.0011895071 0.00079333334 -0.0031981817
0.011951714 -0.00056666665 -0.00044909091
0.0047013853 0.0014733333 -0.00010545454
0.0048146714 0.00045333334 0.00069636363
0.0059475354 -0.0014733333 -0.00010545454
0.0023223709 0.00079333334 -0.0033127272
-0.010252418 0.00034 0.0017272728
0.004134953 0.00034 -0.00090727274
-0.0066272537 -0.00045333334 -0.0010218181
-0.0051545305 0.00068 0.0019563637
-0.011385283 0.0011333333 -0.00079272728
-0.0094594136 -0.0011333333 -0.00090727274
-0.0016426527 0.00068 -0.0010218181
0.0051545305 -0.00090666668 0.00069636363
-0.0025489437 0.00045333334 -0.0033127272
-0.00084964791 0.0017 -0.0010218181
0.0096859867 0.0015866667 -0.00010545454
0.010365705 -0.00022666667 -0.00022
-0.0062873946 -0.00056666665 -0.0017090909
-0.011498569 -0.0017 -0.00044909091
0.0050412444 -0.0014733333 -0.00010545454
0.0048146714 0.00045333334 -0.0015945454
-0.0020957983 0.00034 -0.00090727274
-0.0078734038 -0.0017 -0.00056363636
-0.010252418 0.00034 -0.0012509091
5.6643195e-05 0.00079333334 -0.0018236364
-0.0039083804 0.00090666668 -0.0019381818
0.0097992728 0.00056666665 -0.0010218181
0.0074202586 0.00068 -0.0011363636
0.0037950941 -0.00068 0.0019563637
-0.010139132 -0.00079333334 9.0909089e-06
0.0058342488 0.0017 -0.00067818182
-0.011271995 0.00045333334 -0.00010545454
-0.010139132 0.00034 0.0013836364
-0.0076468312 -0.00056666665 -0.0013654545
0.010252418 0.00090666668 -0.00148
-0.0036818075 0.00068 0.00012363636
-0.0010762207 0.0017 -0.00056363636
-0.0088929813 0.00056666665 -0.002510909
0.00073636154 0.00045333334 -0.00010545454
-0.0059475354 -0.00056666665 -0.0010218181
-0.0074202586 0.00079333334 -0.00010545454
0.00028321598 -0.0017 -0.00033454545
-0.0027755166 0.0015866667 -0.0010218181
-0.0062873946 0.0011333333 -0.0010218181
0.0011895071 0.00045333334 -0.0022818181
0.0062873946 -0.0012466667 -0.00022
0.0076468312 0.00068 -0.0038854545
0.0064006811 0.00079333334 0.00012363636
-0.0036818075 -0.00068 0.00081090908
0.0091195544 -0.00056666665 -0.0028545454
-0.0047013853 -0.0014733333 -0.0010218181
0.011271995 0.00056666665 -0.0015945454
-0.0014160798 0.00068 0.00058181817
-0.0053811036 0.00045333334 0.00035272728
0.0075335447 0.00045333334 0.00104
-0.0040216669 0.0017 -0.00010545454
0.011725142 -0.0015866667 -0.00067818182
-5.6643195e-05 0.00090666668 0.00069636363
0.0040216669 -0.00056666665 -0.0026254545
-0.0065139672 0.00045333334 -0.0033127272
0.0027755166 -0.00056666665 -0.0034272727
-0.0088929813 -0.00079333334 0.0014981818
0.0022090846 -0.0015866667 -0.0010218181
-0.010365705 -0.00056666665 -0.0028545454
0.0059475354 -0.0017 -0.00033454545
-0.0014160798 0.00079333334 0.0016127273
0.0050412444 -0.00056666665 -0.0012509091
0.001755939 -0.00068 -0.00010545454
-0.0080999769 0.00045333334 -0.00010545454
-0.0054943897 0.00102 -0.00090727274
-0.0068538263 -0.00045333334 -0.00090727274
-0.011498569 -0.00056666665 0.0011545455
-0.0075335447 -0.00079333334 0.00081090908
0.0030020892 -0.00079333334 -0.00010545454
5.6643195e-05 0.00034 -0.00022
0.0051545305 -0.00068 0.00081090908
-0.0026622301 0.00056666665 -0.0021672726
-0.0060608219 -0.0014733333 -0.0010218181
-0.0087796953 -0.00056666665 0.00012363636
-0.0016426527 -0.00011333334 -0.00022
0.0090062683 -0.00079333334 -0.00148
-0.0044748122 -0.0017 -0.0010218181
0.010139132 -0.0012466667 -0.00022
0.0010762207 -0.0017 -0.00079272728
0.0015293662 -0.00068 0.0014981818
0.0087796953 -0.00056666665 0.00104
-0.0040216669 0.00068 -0.0018236364
-0.0013027935 0.00045333334 -0.0020527274
0.0075335447 0.00045333334 0.0016127273
0.0050412444 -0.00056666665 -0.0028545454
0.0051545305 0.00090666668 -0.0034272727
-0.0016426527 0 -0.0010218181
0.0022090846 -0.00011333334 -0.0010218181
0.0074202586 0.00056666665 -0.0023963635
-0.0011895071 -0.00056666665 -0.0012509091
0.0050412444 0.00090666668 0.00012363636
-0.0074202586 -0.00045333334 0.0013836364
0.0024356574 0.00079333334 0.00046727274
0.0064006811 -0.00011333334 -0.0010218181
-0.0060608219 -0.00090666668 9.0909089e-06
-0.006174108 -0.00090666668 0.0016127273
-0.011611855 0.00102 -0.00079272728
-0.0011895071 0.0014733333 -0.0010218181
-0.0030020892 0.0017 -0.00090727274
0.011271995 -0.00034 -0.00090727274
-0.0010762207 0.00056666665 0.0014981818
-0.0088929813 0.00045333334 0.00012363636
0.011498569 0.00079333334 -0.0028545454
0.0024356574 0.00034 -0.0010218181
0.0030020892 -0.0017 -0.00044909091
-0.0023223709 -0.0017 -0.00033454545
0.0078734038 -0.0017 -0.00033454545
0.0035685212 -0.00090666668 -0.00010545454
0.00062307512 -0.0012466667 -0.00090727274
0.0050412444 -0.00045333334 0.00046727274
0.0035685212 0.00068 0.00023818182
-0.0013027935 -0.00079333334 -0.0012509091
-0.0049279579 0.0017 -0.00033454545
0.001755939 0.00102 -0.00090727274
-0.011385283 0.00056666665 9.0909089e-06
0.011498569 0.00045333334 -0.0026254545
-0.0010762207 0.00068 0.0013836364
-0.0049279579 -0.0014733333 -0.00010545454
-0.0013027935 0.0014733333 -0.00010545454
-0.012065001 -0.00102 -0.00044909091
0.0088929813 0.0014733333 -0.00090727274
0.0024356574 -0.00079333334 0.0011545455
-0.00073636154 -0.0012466667 -0.00022
0.0069671129 -0.00090666668 -0.00010545454
-0.0024356574 0.0014733333 -0.00010545454
0.0011895071 -0.00056666665 -0.0034272727
0.0077601178 0.00079333334 -0.0018236364
-0.0077601178 0.00068 -0.0033127272
-0.0036818075 -0.00056666665 0.00035272728
-0.011611855 -0.00022666667 -0.00022
0.0013027935 0.00079333334 0.00069636363
-0.0025489437 0.00022666667 -0.0010218181
0.0057209628 0.00136 -0.00010545454
-0.0026622301 0.00090666668 -0.00148
0.010365705 -0.0017 -0.00044909091
0.0088929813 -0.00056666665 0.00104
-0.0076468312 0.00056666665 0.0019563637
-0.0011895071 0.00056666665 0.00023818182
0.010252418 -0.00068 -0.0035418181
-0.0037950941 0.00090666668 0.0016127273
-0.0070803994 0.0017 -0.00044909091
0.0014160798 -0.00056666665 0.00069636363
-0.010025846 0.00034 -0.0011363636
0.011385283 -0.00045333334 0.00058181817
-0.0091195544 -0.00045333334 -0.0018236364
-0.011611855 -0.00034 -0.00010545454
0.0036818075 0.0017 -0.00090727274
0.0027755166 0.00045333334 0.00058181817
-0.0024356574 0.00068 0.00081090908
0.0015293662 -0.00034 -0.0010218181
0.012065001 0.0012466667 -0.00044909091
-0.00096293428 0.00045333334 -0.0010218181
-0.011611855 0.00045333334 -0.0031981817
-0.0040216669 -0.00056666665 -0.0034272727
0.0076468312 0.00045333334 0.00104
-0.0011895071 -0.00090666668 -0.0013654545
-0.0062873946 -0.00056666665 0.0011545455
-0.011611855 0.0015866667 -0.00033454545
0.0023223709 -0.00022666667 -0.00022
0.0048146714 0.0015866667 -0.0010218181
-0.0013027935 -0.00056666665 -0.0022818181
0.0096859867 -0.00136 -0.00079272728
-0.0073069721 -0.0017 -0.00044909091
0.010139132 -0.00045333334 -0.00010545454
0.0025489437 0.00045333334 0.0017272728
0.0037950941 0.00045333334 -0.0030836363
0.011951714 -0.00045333334 -0.00044909091
-0.0050412444 -0.00079333334 -0.0018236364
0.0050412444 -0.00079333334 0.0013836364
0.00028321598 -0.0017 -0.00056363636
-0.010365705 -0.00068 -0.002510909
-0.010139132 -0.00079333334 0.00058181817
0.0077601178 0.00079333334 0.00104
0.00016992958 -0.00090666668 0.00012363636
0.0073069721 0.0017 -0.00010545454
-0.0077601178 0.00079333334 0.0019563637
-0.011498569 -0.00079333334 -0.0013654545
-0.0014160798 0.00136 -0.00010545454
0.011385283 -0.00068 -0.0028545454
-5.6643195e-05 0.00090666668 -0.0022818181
0.0025489437 0.00090666668 0.0013836364
-0.0088929813 -0.00079333334 0.0019563637
-0.00016992958 0.00056666665 0.00069636363
0.0090062683 -0.00068 -0.0027399999
0.0088929813 -0.00079333334 -0.0026254545
-0.0026622301 0.00090666668 0.00058181817
0.00084964791 0.00068 -0.00010545454
0.0024356574 0.00079333334 -0.0027399999
0.0078734038 -0.00045333334 -0.00010545454
0.0065139672 -0.0014733333 -0.00010545454
-0.0011895071 0.00056666665 -0.0023963635
-0.0091195544 -0.00056666665 -0.0021672726
0.0040216669 0.00056666665 -0.0013654545
-0.0088929813 -0.00045333334 0.00058181817
-0.00016992958 0.00079333334 0.0019563637
-0.0076468312 0.00079333334 0.0019563637
-0.0090062683 -0.00090666668 -0.0012509091
0.010365705 0 -0.0010218181
-0.0065139672 -0.00056666665 -0.0036563636
0.010365705 0.0017 -0.00022
-0.0014160798 -0.00056666665 -0.0021672726
-0.010025846 0.0012466667 -0.00079272728
-0.0016426527 -0.0017 -0.00010545454
-0.010025846 0.00045333334 -0.0019381818
0.00039650235 -0.0017 -0.0010218181
0.0024356574 -0.00056666665 -0.0023963635
0.0015293662 0.00045333334 -0.0010218181
-0.0045880987 -0.00011333334 -0.0010218181
0.00028321598 -0.0014733333 -0.00010545454
-0.0011895071 -0.00045333334 -0.0031981817
0.0024356574 0.00045333334 0.00046727274
0.0035685212 0.00056666665 -0.0023963635
-0.011611855 -0.00034 -0.00090727274
-0.0020957983 0.00079333334 -0.00090727274
0.0057209628 0.00056666665 -0.00010545454
-0.006174108 -0.00090666668 9.0909089e-06
-0.011271995 -0.0012466667 -0.00010545454
-0.0062873946 0.00045333334 -0.0017090909
-0.0050412444 -0.0012466667 -0.00022
0.00016992958 -0.00079333334 -0.0036563636
0.0075335447 0.00068 0.0019563637
0.0065139672 0.00068 -0.0015945454
0.0057209628 -0.0015866667 -0.00090727274
0.0015293662 -0.00056666665 0.00023818182
-0.0011895071 0.0017 -0.00056363636
-0.0036818075 0.00068 0.00092545454
0.0052678171 0.0017 -0.00079272728
0.0086664092 0.00068 0.0014981818
-0.0068538263 0.00056666665 -0.00090727274
0.0088929813 0.00090666668 0.00012363636
0.0039083804 -0.00045333334 -0.0023963635
0.0099125588 -0.00034 -0.0010218181
0.011271995 -0.0015866667 -0.00067818182
-0.011611855 0.00045333334 -0.0033127272
0.0032286621 0 -0.00022
-0.0035685212 -0.00068 -0.0033127272
-0.0087796953 -0.00045333334 -0.00148
-0.0051545305 -0.00079333334 -0.002510909
-0.0062873946 -0.00090666668 0.0013836364
0.0091195544 -0.00056666665 -0.0022818181
0.011498569 -0.00068 -0.0027399999
-0.0071936855 -0.0017 -0.00090727274
0.00096293428 0.0017 -0.00056363636
0.0052678171 0.00068 -0.0011363636
-0.010705564 -0.0017 -0.00033454545
-0.0040216669 -0.00068 0.00069636363
0.0035685212 0.00068 -0.0030836363
0.0037950941 -0.00090666668 -0.0027399999
-0.0077601178 0.00056666665 -0.0028545454
0.0054943897 0.00102 -0.00022
0.0013027935 0.00090666668 -0.0021672726
-0.011385283 0.00056666665 -0.0017090909
-0.0090062683 -0.00090666668 0.00081090908
0.0024356574 0.00090666668 9.0909089e-06
-0.0062873946 0.00056666665 0.0014981818
-0.0054943897 -0.00034 -0.00090727274
0.0052678171 0.00045333334 0.0012690909
-0.0088929813 -0.00090666668 -0.0031981817
-0.011951714 0.00011333334 -0.00022
0.0035685212 0.00068 -0.0023963635
-0.0014160798 -0.00045333334 -0.00148
-0.0037950941 0.00090666668 0.00069636363
0.0024356574 0.00079333334 0.0019563637
0.011611855 0.00011333334 -0.00090727274
-0.0091195544 -0.00056666665 0.0017272728
-0.0026622301 0.00056666665 0.0014981818
0.0092328405 -0.00079333334 -0.00090727274
0.0040216669 -0.00079333334 -0.0013654545
0.0075335447 0.00090666668 -0.002510909
0.0077601178 0.00045333334 0.00069636363
-0.0069671129 0.00056666665 -0.00090727274
0.0092328405 -0.00034 -0.00090727274
0.010139132 0.00090666668 0.0014981818
-0.0064006811 -0.00045333334 -0.0021672726
0.0011895071 -0.00056666665 0.0017272728
-0.0015293662 0.0011333333 -0.00022
0.0090062683 0.00079333334 -0.0026254545
0.00050978875 0.00034 -0.00022
0.006174108 0.00079333334 -0.0015945454
-0.0077601178 0.00068 -0.002510909
0.0086664092 0.0017 -0.00056363636
0.010139132 0.00034 -0.0021672726
