# .PCD v0.7 - Point Cloud Data file format
VERSION 0.7
FIELDS x y z
SIZE 4 4 4
TYPE F F F
COUNT 1 1 1
WIDTH 1159
HEIGHT 1
VIEWPOINT 0 0 0 1 0 0 0
POINTS 1159
DATA ascii
0.0030244328 -0.0028190769 -0.0017964789
-0.00019639175 -0.0050116922 0.00031408449
-0.0032601031 0.0013312307 -0.0014838028
-0.001453299 0.00046984613 -0.0009366197
-0.00035350514 -0.00054815382 -0.0009366197
0.0038099999 -0.0028190769 -0.0010147888
0.0011390721 0.0029756923 -0.0015619718
0.0013747422 0.0049333842 -0.0014838028
0.002474536 0.00015661538 -0.0015619718
-0.0010605154 -0.0050899996 -0.00031126759
0.0013747422 0.00015661538 -0.0009366197
0.0028673196 0.0018010768 -0.0014838028
-0.0029458762 0.0013312307 -0.0009366197
3.9278348e-05 -0.0018793845 -0.002421831
3.9278348e-05 -0.00039153846 -0.0009366197
-0.001453299 -0.0026624615 -0.0023436621
-0.0019246391 0.0027407692 -0.0009366197
0.00082484534 -0.0031323077 -7.676056e-05
0.0019246391 0.00046984613 -0.0015619718
0.0029458762 0.00031323076 -0.0009366197
0.0027102062 -0.00070476922 -0.0017964789
0.0013747422 -7.830769e-05 -0.0015619718
-0.00019639175 -0.00070476922 -0.0017964789
0.0023959794 -0.0028973846 -7.676056e-05
-0.0018460824 -0.0018010768 -0.0023436621
-0.0021603091 -7.830769e-05 -0.0015619718
0.0019246391 0.0031323077 -0.0009366197
-0.00058917527 0.002270923 -0.0009366197
0.00051061856 0.0020359999 -0.0015619718
0.0017675257 0.0040719998 -0.0014838028
0.0029458762 -0.0043852306 -0.00070211268
-0.0029458762 -0.00046984613 -0.0015619718
-0.0019246391 -0.0032889228 -0.00031126759
-3.9278348e-05 0.0028973846 -0.0009366197
0.0012961855 0.0031323077 -0.0014838028
0.0022388659 -0.0050899996 -0.00046760563
0.0012961855 -0.002270923 -0.0023436621
0.0025530928 7.830769e-05 -0.0009366197
0.00058917527 0.002270923 -0.0009366197
0.0025530928 -0.0044635381 0.00070492958
-0.001453299 0.0036804613 -0.0009366197
-0.0013747422 -0.004541846 -0.0014838028
0.00043206185 -0.0044635381 -0.00038943661
0.0034957731 0.00070476922 -0.0011711267
0.0023959794 -0.0011746153 -0.002421831
-0.0025530928 0.0047767689 -0.0014056338
0.00066773192 0.0016444614 -0.0015619718
-3.9278348e-05 -0.0050899996 0.0010957747
-0.0027887628 -0.00078307692 -0.00085845072
-0.0020031959 0.001252923 -0.0009366197
0.0023959794 -0.0029756923 -0.0019528168
-0.00019639175 -0.0048550768 0.0010176057
-0.0027887628 -0.0032889228 -0.0023436621
-0.0029458762 0.0027407692 -0.0014838028
0.0029458762 -0.00031323076 -0.0009366197
0.0015318557 0.0050899996 -0.0014838028
-0.00011783505 -0.00054815382 -0.0015619718
0.00082484534 -0.0032106154 -0.0018746479
-0.0011390721 -0.0048550768 -0.0012492958
-0.0017675257 0.0035238459 -0.0009366197
-0.0030244328 -0.0036804613 -0.0009366197
-0.0016104124 0.0015661538 -0.0009366197
-0.00027494846 0.00070476922 -0.0014838028
0.0013747422 -0.0032106154 -0.0022654929
0.0022388659 -0.0049333842 7.9577461e-05
0.0023174225 -0.0048550768 -0.00070211268
0.002474536 -0.0032889228 -0.0009366197
0.0028673196 0.0025058461 -0.0009366197
-0.0037314433 0.00031323076 -0.0009366197
0.0016104124 -0.0010963076 -0.0023436621
-0.0023174225 -0.004541846 0.00031408449
0.0023959794 0.0036804613 -0.0014838028
-0.00051061856 0.0017227691 -0.0009366197
-0.0020031959 0.001018 -0.0015619718
-0.00035350514 -0.0046984614 -0.0013274648
-0.0026316494 -0.0034455382 -0.0015619718
-0.00011783505 -0.0018793845 -0.002421831
-0.0020817525 -0.0014095384 -0.0023436621
0.001453299 0.0032889228 -0.0015619718
0.0017675257 0.0036804613 -0.0014838028
-0.00058917527 -0.0011746153 -7.676056e-05
0.00043206185 0.00078307692 -0.0009366197
0.0033386596 0.0021926153 -0.0010147888
0.00090340205 0.00070476922 -0.0009366197
-0.0022388659 -0.0050899996 -0.00054577464
-0.0017675257 -0.0025841538 -0.0023436621
-0.0031029896 -0.0039153844 -0.0009366197
-0.002474536 -0.0028190769 -7.676056e-05
-0.0017675257 -0.0044635381 -0.00031126759
0.0013747422 -0.0050899996 -0.00038943661
0.0030244328 0.0018010768 -0.0009366197
0.0020031959 -0.003054 -0.00054577464
0.0017675257 -0.0020359999 -0.0023436621
-0.0019246391 -0.0036804613 -0.0009366197
0.0027102062 -0.0044635381 0.00023591549
-0.00066773192 -0.0032106154 -0.00046760563
-0.0020031959 -0.0028190769 -7.676056e-05
-0.0010605154 -0.0029756923 -0.00085845072
-0.0028673196 -0.0021143076 -7.676056e-05
0.00011783505 -0.00070476922 -0.00062394363
-0.0016104124 0.0032106154 -0.0009366197
-0.00043206185 0.0018793845 -0.0009366197
-0.0034957731 0.00031323076 -0.0014838028
0.0019246391 0.0031323077 -0.0015619718
0.0027887628 0.002270923 -0.0015619718
-3.9278348e-05 -0.0044635381 0.00093943661
0.0032601031 0.00070476922 -0.0009366197
-0.001453299 0.0046984614 -0.0014838028
-0.0013747422 -0.0018793845 -0.0023436621
0.0021603091 -0.003054 -0.0018746479
0.00066773192 -0.0046201535 -0.0013274648
-0.0034172165 -0.001018 -0.00023309859
0.0012961855 -0.0028973846 -0.0023436621
-0.0034172165 0.00054815382 -0.0014838028
0.0019246391 0.001018 -0.0015619718
-0.00035350514 -0.0038370767 -0.0014838028
-0.0037314433 -0.0027407692 -0.00085845072
-0.00051061856 -0.0050116922 -0.00078028167
0.0017675257 0.0016444614 -0.0009366197
-0.0013747422 -0.0024275384 -0.0023436621
-0.00011783505 -0.0050899996 0.0010176057
0.0031029896 0.00046984613 -0.0015619718
0.0023174225 -0.0047767689 0.0025809859
0.0021603091 -0.0036021536 -0.0009366197
-0.0030244328 -0.0023492307 -7.676056e-05
-0.0020031959 -0.0044635381 -0.00085845072
-0.0025530928 -0.0033672305 -0.0009366197
-0.0029458762 0.0026624615 -0.0014838028
-0.0021603091 -0.00062646152 -0.0015619718
0.001453299 -0.0025058461 -0.00015492957
0.0009819587 -0.0025058461 -7.676056e-05
0.0026316494 -0.0038370767 -0.0014838028
0.00082484534 0.00023492306 -0.0009366197
0.0010605154 -0.0050899996 -0.00031126759
-0.00051061856 -0.0043852306 -0.00054577464
0.0030244328 -0.00070476922 -0.0021091548
-0.0020817525 0.0041503077 -0.0014838028
-0.001688969 -0.0032889228 -0.0020309859
0.0025530928 -0.0050116922 0.00031408449
-0.0020817525 -0.0032889228 -0.0019528168
-0.00035350514 -0.0035238459 -0.0009366197
-0.0020817525 -0.0025058461 -0.002421831
0.0020817525 -0.0028973846 -7.676056e-05
0.00035350514 0.0015661538 -0.0009366197
0.0011390721 -0.00070476922 -0.0019528168
0.0016104124 0.0025058461 -0.0014838028
0.00074628863 -0.0032106154 -0.0023436621
0.00074628863 -0.00054815382 -0.0009366197
0.002474536 0.00070476922 -0.0015619718
0.0027887628 0.003758769 -0.0014838028
0.0020817525 -0.0014095384 -0.002421831
0.0026316494 -0.0033672305 -0.0009366197
0.0023959794 -0.0050116922 0.00039225351
0.0028673196 0.00031323076 -0.0014838028
0.0028673196 -0.0024275384 -0.002421831
-0.0018460824 0.002270923 -0.0009366197
-0.0023959794 -0.003054 -0.00062394363
0.0010605154 -0.00070476922 -0.0022654929
-0.0028673196 -0.0032889228 -0.0009366197
0.0010605154 -0.0050899996 -7.676056e-05
0.0012176288 -0.0050116922 -0.00078028167
0.00090340205 0.0036804613 -0.0015619718
-0.0027887628 -0.0047767689 0.00086126762
-0.0023174225 -0.004541846 0.0015647887
-0.0018460824 0.0017227691 -0.0009366197
-0.0023959794 -0.0049333842 -0.0010929578
-0.0013747422 -0.0048550768 -0.0012492958
-0.00058917527 -0.0031323077 -0.0009366197
-0.0019246391 0.00054815382 -0.0015619718
0.0011390721 -0.0014095384 -0.00015492957
-0.0033386596 0.0021143076 -0.0009366197
-0.00011783505 0.0010963076 -0.0015619718
-0.0035743299 -0.0031323077 -0.0018746479
0.0034172165 -0.0019576922 -7.676056e-05
-0.0032601031 0.0021926153 -0.0014838028
0.0017675257 0.0046984614 -0.0014838028
-0.0027887628 7.830769e-05 -0.0014838028
0.0012176288 0.0025841538 -0.0009366197
-0.00011783505 -0.0044635381 0.0012521127
-0.0023959794 -0.004541846 0.0024246478
0.0033386596 -0.0014878461 -7.676056e-05
0.0029458762 0.0034455382 -0.0010147888
-0.0029458762 -0.0036021536 -0.0014838028
0.0022388659 0.002270923 -0.0015619718
0.0020817525 0.003758769 -0.0014838028
-0.0035743299 0.0011746153 -0.0009366197
-0.001688969 -0.0050899996 -0.00085845072
-0.0020817525 0.0021926153 -0.0014838028
-0.0037314433 -0.00070476922 -0.0010929578
0.0035743299 0.00039153846 -0.0009366197
-0.0029458762 -0.0046201535 -0.00015492957
0.0032601031 0.0024275384 -0.0012492958
-0.0018460824 0.00062646152 -0.0015619718
0.0019246391 -0.00070476922 -0.00023309859
-0.00019639175 -0.0050116922 -0.0009366197
0.001688969 0.0017227691 -0.0009366197
-0.0015318557 0.0049333842 -0.0014838028
-0.00043206185 -0.004541846 -7.676056e-05
0.00051061856 -0.003054 -7.676056e-05
0.0019246391 0.0050116922 -0.0010147888
0.00027494846 -0.0050899996 -0.00031126759
0.0013747422 -0.0033672305 -0.0009366197
-0.0023174225 -0.0050116922 -0.00070211268
-0.0011390721 -0.0044635381 -0.00023309859
-0.00019639175 -0.004541846 0.00062676053
0.001453299 0.001018 -0.0015619718
-0.0035743299 -0.0018793845 -0.002187324
0.0031815462 -0.00070476922 -0.0020309859
0.0010605154 -0.003758769 -0.0009366197
-0.0027887628 0.0028973846 -0.0009366197
0.00090340205 0.0018793845 -0.0015619718
-0.00058917527 0 -0.0009366197
0.0029458762 -0.0043069231 -0.00031126759
-0.00027494846 0.0032889228 -0.0014838028
0.00074628863 0.0046201535 -0.0009366197
0.0022388659 0.0038370767 -0.0009366197
-0.0029458762 -0.002270923 -0.0023436621
-0.001453299 -0.00078307692 -0.0019528168
-0.0010605154 0.0036804613 -0.0009366197
-0.0027102062 -0.0044635381 -0.0014056338
0.0010605154 -0.00062646152 -0.0009366197
0.0034957731 -0.0019576922 -0.0023436621
-0.00051061856 -0.0046984614 -7.676056e-05
-0.0026316494 0.0040719998 -0.0014838028
-0.00090340205 -0.003054 -0.00062394363
0.0021603091 -0.0029756923 -0.0009366197
0.00082484534 0.0027407692 -0.0014838028
0.0013747422 0.0020359999 -0.0009366197
-0.0016104124 0.0042286152 -0.0014838028
-0.00011783505 0.0046201535 -0.0014838028
0.00090340205 0.00023492306 -0.0009366197
0.00035350514 -0.0032106154 -0.002187324
-0.0037314433 -0.00054815382 -0.0014838028
-3.9278348e-05 -0.0036021536 -0.0014838028
0.0023959794 0.0029756923 -0.0014838028
0.001688969 0.0046201535 -0.0009366197
0.0022388659 -0.0050899996 -7.676056e-05
0.0030244328 -0.0028973846 -0.00038943661
-0.0023174225 0.003054 -0.0014838028
0.0011390721 0.0021143076 -0.0009366197
0.0033386596 -0.0026624615 -0.0023436621
0.0010605154 -0.0032889228 -0.00031126759
0.0010605154 -0.00070476922 -0.00062394363
0.0016104124 0.00039153846 -0.0015619718
-0.00035350514 -0.0032106154 -0.0017964789
-0.0021603091 -0.0021926153 -7.676056e-05
-0.00058917527 -0.00054815382 -0.0015619718
0.00043206185 -0.00070476922 -0.002187324
-0.00082484534 -0.00078307692 -0.0018746479
0.0033386596 -0.0027407692 -0.0023436621
0.0028673196 -0.00070476922 -0.00085845072
-0.0027102062 0.0032889228 -0.0009366197
-0.00019639175 -0.0048550768 0.002737324
-0.0027102062 0.002270923 -0.0014838028
-0.0031029896 -0.004541846 -0.0009366197
-0.00066773192 0.0016444614 -0.0009366197
0.00011783505 0 -0.0015619718
-0.0036528865 -0.003054 -0.0012492958
3.9278348e-05 0.0026624615 -0.0009366197
0.0029458762 0.0039153844 -0.0010929578
0.0010605154 -0.0033672305 -0.0009366197
0.0027887628 -0.0046201535 0.0010176057
0.0010605154 -0.0017227691 -7.676056e-05
0.00090340205 -0.0034455382 -0.0009366197
-0.0036528865 0.00078307692 -0.0013274648
-0.0037314433 -0.00015661538 -0.0012492958
0.0034957731 -0.00023492306 -0.0014838028
-0.0013747422 -0.0010963076 -0.0023436621
0.0023959794 -0.0019576922 -0.002421831
-0.0011390721 0.0046201535 -0.0010147888
0.00066773192 -0.0048550768 -0.0012492958
-0.0034957731 -0.00086138456 -0.00078028167
0.0016104124 -0.0050899996 -0.00062394363
-0.00090340205 -0.0044635381 -0.00015492957
0.00019639175 -0.00070476922 -0.00031126759
0.0011390721 0.0026624615 -0.0014838028
0.0027102062 -0.0033672305 -0.0009366197
-0.0031029896 -0.0032106154 -0.0019528168
0.0012176288 0.004541846 -0.0009366197
0.0012176288 0.0018793845 -0.0015619718
-0.0035743299 -0.00062646152 -0.0015619718
-0.0027887628 -0.004541846 -0.00023309859
0.00027494846 -0.00070476922 -0.0017183098
-0.0016104124 -0.004541846 -0.00085845072
-0.0012176288 -0.0018010768 -0.0023436621
-0.0017675257 -0.0047767689 -7.676056e-05
-0.0035743299 -0.0014095384 -0.002187324
-0.0036528865 -0.0028973846 -0.0015619718
-0.0020031959 -0.0041503077 -0.0009366197
0.0029458762 -0.00046984613 -0.0009366197
0.0023174225 -0.004541846 0.0014866197
0.0034172165 -0.0031323077 -0.0009366197
-0.00058917527 -0.0043852306 -0.00078028167
-0.0016104124 0.0040719998 -0.0014838028
0.0020031959 -0.0029756923 -0.00070211268
0.0012961855 -0.0011746153 -0.00015492957
0.0033386596 0.001252923 -0.0014838028
0.00066773192 0.0043852306 -0.0014838028
0.00074628863 -0.0032106154 -0.0020309859
-0.0025530928 -0.0031323077 -0.0009366197
-0.00035350514 -0.0029756923 -7.676056e-05
0.00011783505 -0.0019576922 -7.676056e-05
0.00027494846 -0.003054 -0.00062394363
-0.0020817525 -0.0046984614 -7.676056e-05
0.0030244328 -0.0032106154 -0.0009366197
-0.0026316494 -0.00086138456 -0.0021091548
0.0016104124 -0.0046201535 -0.00038943661
-0.0018460824 -0.0036021536 -0.0014838028
-0.0023959794 -0.0025058461 -7.676056e-05
-0.0033386596 0.0018010768 -0.0009366197
0.001688969 -0.0035238459 -0.0015619718
0.0017675257 -0.0043069231 -0.0014838028
0.0026316494 0.0040719998 -0.0010147888
0.0038099999 -0.0024275384 -0.0010147888
0.00019639175 -0.0050899996 -0.00054577464
0.0021603091 -0.00070476922 -7.676056e-05
0.0016104124 0.0014878461 -0.0014838028
0.001453299 -0.0048550768 -0.00031126759
-0.0029458762 -0.0046984614 -0.0010147888
-0.0026316494 -0.0032889228 -0.0022654929
-0.0026316494 -0.0032106154 -0.0009366197
-0.0035743299 -0.0028973846 -0.00031126759
0.0033386596 0 -0.0009366197
-0.001453299 -0.0040719998 -0.0009366197
-0.0012961855 -0.0048550768 -0.00070211268
-0.0018460824 -0.00078307692 -0.0021091548
0.0033386596 0.0021143076 -0.0010147888
0.00035350514 -0.00078307692 -7.676056e-05
0.00043206185 -0.0043852306 -0.00046760563
0.00043206185 -0.0025841538 -7.676056e-05
-0.0020817525 -0.004541846 -0.00038943661
0.0019246391 -0.0024275384 -7.676056e-05
-0.0021603091 0.0010963076 -0.0009366197
-0.002474536 0.0014878461 -0.0009366197
0.001688969 -0.00046984613 -0.0009366197
-0.001453299 -0.00039153846 -0.0015619718
0.0013747422 0.0021143076 -0.0015619718
-0.0026316494 0.001018 -0.0009366197
-0.0021603091 -0.00023492306 -0.0009366197
-0.0023174225 -0.0027407692 -0.0023436621
0.0026316494 -0.00070476922 -0.00031126759
0.0012176288 -0.0018793845 -0.00023309859
-0.0032601031 -0.00078307692 -0.0009366197
-0.0027102062 -0.00023492306 -0.0009366197
-0.00051061856 -0.0025841538 -7.676056e-05
-0.0017675257 -0.0018793845 -7.676056e-05
-0.0017675257 -0.002270923 -0.0023436621
0.00074628863 -0.00070476922 -0.00085845072
-0.0034957731 -0.00031323076 -0.0009366197
0.00082484534 -0.0036021536 -0.0009366197
-0.0035743299 -0.0032106154 -0.0010147888
-0.0019246391 0.0017227691 -0.0014838028
-0.0034957731 0.00093969225 -0.0014056338
-0.0029458762 0.00093969225 -0.0014838028
-0.0010605154 0.0039936923 -0.0014838028
-0.0025530928 -0.0032106154 -0.0009366197
0.0030244328 0.0024275384 -0.0009366197
0.0032601031 0.0024275384 -0.0014056338
0.0027102062 -0.0044635381 0.0017211267
-0.0022388659 -0.00078307692 -0.00062394363
0.00027494846 -0.0046984614 0.0017992958
0.0038099999 -0.0014095384 -0.0014838028
0.0011390721 -0.004541846 -0.00015492957
-0.0031815462 0.003054 -0.0013274648
-0.0019246391 -0.002270923 -7.676056e-05
0.0009819587 0.0049333842 -0.0010147888
0.00027494846 0.00086138456 -0.0015619718
3.9278348e-05 -0.0011746153 -0.002421831
-0.0027102062 -0.0050116922 -0.00023309859
-0.0035743299 0.00078307692 -0.0009366197
0.0032601031 -0.00070476922 -0.0016401409
0.00074628863 -0.00046984613 -0.0009366197
-0.0019246391 -0.0050899996 -0.00015492957
0.00051061856 0.0014095384 -0.0015619718
-0.001688969 0.0035238459 -0.0014838028
0.0009819587 -0.0043852306 -0.00031126759
-0.0029458762 0.0038370767 -0.0009366197
0.0032601031 -0.0028190769 -0.0016401409
0.0011390721 0.0026624615 -0.0009366197
-0.0038099999 -0.00093969225 -0.0010929578
0.0027887628 0 -0.0009366197
-0.00011783505 -0.0018793845 -7.676056e-05
-0.0010605154 -0.0047767689 -0.00070211268
-0.0012176288 0.0032106154 -0.0009366197
-0.0027102062 -0.0046201535 7.9577461e-05
0.0027102062 -0.0044635381 0.0010957747
0.0019246391 -0.00046984613 -0.0009366197
-0.0019246391 -0.00093969225 -0.0022654929
0.00035350514 -0.0041503077 -0.0014838028
0.0038099999 -0.0014095384 -0.0010929578
0.0022388659 0.0050899996 -0.0012492958
-0.00027494846 -0.0025841538 -7.676056e-05
0.0023174225 0.00078307692 -0.0014838028
-0.0013747422 0.0021143076 -0.0009366197
0.0010605154 0.003054 -0.0009366197
0.0022388659 -0.0039153844 -0.0014838028
0.0022388659 -0.0028190769 -7.676056e-05
-0.0023959794 0.0042286152 -0.0014838028
-0.0037314433 -0.0017227691 -0.0020309859
-3.9278348e-05 -0.0039153844 -0.0015619718
-0.00082484534 -0.0039153844 -0.0014838028
0.0023174225 -0.00046984613 -0.0009366197
-0.0023959794 -0.0042286152 -0.0014838028
-0.0020817525 -0.0013312307 -7.676056e-05
-0.0009819587 0.0029756923 -0.0014838028
0.0037314433 -7.830769e-05 -0.0009366197
0.0018460824 0.0027407692 -0.0009366197
0.0027887628 -0.0048550768 0.00062676053
0.00027494846 -0.00070476922 -0.00062394363
-0.00090340205 -0.00078307692 -0.00054577464
0.0012176288 0.0039153844 -0.0009366197
-0.0021603091 -0.0021143076 -7.676056e-05
-0.0021603091 0.0018793845 -0.0014838028
-0.0013747422 0.0032106154 -0.0014838028
0.001688969 -0.0026624615 -0.0023436621
-0.0028673196 0.004541846 -0.0013274648
-0.00051061856 -0.0050116922 -0.0010929578
0.00011783505 -0.0046201535 0.002737324
0.00058917527 0.0028973846 -0.0009366197
-0.0031815462 0.00078307692 -0.0014838028
-0.0012176288 -0.0049333842 -0.0012492958
0.00027494846 -0.0043852306 -0.00070211268
0.00043206185 0.00070476922 -0.0014838028
-0.00027494846 0.0014878461 -0.0014838028
-0.0034957731 0.00078307692 -0.0009366197
0.00090340205 -7.830769e-05 -0.0009366197
3.9278348e-05 -0.00039153846 -0.0015619718
-0.0025530928 -0.0013312307 -0.0023436621
0.0027887628 0.002270923 -0.0009366197
-0.001688969 0.002270923 -0.0009366197
-0.002474536 -0.0046201535 0.0019556338
0.00066773192 -0.0032106154 -0.0015619718
0.001688969 0.00023492306 -0.0009366197
-0.0016104124 -0.0031323077 -0.00062394363
-3.9278348e-05 0.0048550768 -0.0010929578
0.0025530928 0.0042286152 -0.0010147888
-0.0019246391 0.0036021536 -0.0009366197
0.00043206185 -0.0034455382 -0.0015619718
0.00011783505 -0.0050899996 0.00054859155
0.001453299 0.00093969225 -0.0009366197
0.0013747422 0.0020359999 -0.0015619718
-0.0018460824 -0.0029756923 -0.0023436621
-0.0031029896 -0.00086138456 -0.00085845072
-0.0034957731 -0.003054 -0.0015619718
0.0017675257 -0.0013312307 -7.676056e-05
0.0023959794 -0.0031323077 -0.00038943661
3.9278348e-05 -0.001018 -0.002421831
0.0027102062 -0.0032106154 -0.00031126759
-0.00043206185 -0.0019576922 -7.676056e-05
-0.0018460824 0.0032889228 -0.0014838028
-0.0016104124 0.002270923 -0.0014838028
-0.0036528865 -0.0023492307 -0.00031126759
-0.00035350514 0 -0.0015619718
-0.0038099999 -0.0016444614 -0.00078028167
-0.0019246391 -0.00046984613 -0.0009366197
-0.0016104124 0.0021926153 -0.0014838028
0.0023174225 0.0048550768 -0.0010929578
0.0016104124 -0.0050116922 -0.00062394363
-0.0017675257 -0.0036021536 -0.0009366197
-0.0023174225 -0.0046201535 0.0015647887
0.0012176288 -0.00039153846 -0.0015619718
-0.0020031959 0.0050116922 -0.0011711267
0.0025530928 0.0036804613 -0.0014838028
-0.0015318557 -0.0015661538 -0.00015492957
-0.0035743299 -0.0029756923 -0.0015619718
0.00035350514 -0.0031323077 -0.0023436621
-0.0023174225 0.0032889228 -0.0009366197
0.0016104124 0.0036804613 -0.0009366197
-0.0013747422 0.00086138456 -0.0015619718
-0.0023174225 -0.00031323076 -0.0009366197
0.0012961855 0.00039153846 -0.0009366197
-0.0025530928 0.00078307692 -0.0014838028
-0.0037314433 -0.002270923 -0.0016401409
3.9278348e-05 -0.0044635381 0.00070492958
0.0026316494 0.0048550768 -0.0010929578
-0.0031815462 -0.0029756923 -0.00085845072
-0.00027494846 -0.0028190769 -0.0023436621
-0.0018460824 -0.00078307692 -0.00054577464
-0.00027494846 -0.0046201535 0.00086126762
-0.0035743299 0.00046984613 -0.0014838028
-0.00027494846 -0.0050116922 -0.0010929578
-0.0023959794 -0.0020359999 -0.0023436621
0.0018460824 0.0028190769 -0.0014838028
-0.001453299 -0.0046984614 -0.00085845072
-0.0022388659 0.0031323077 -0.0009366197
-0.002474536 0.0018793845 -0.0014838028
0.0036528865 -0.0026624615 -0.002187324
0.00019639175 -0.0044635381 0.00039225351
-0.0027102062 -0.0049333842 0.0013302817
-0.0010605154 -0.0032889228 -0.00046760563
-0.0037314433 0.00031323076 -0.0012492958
0.0023959794 -0.0038370767 -0.0009366197
0.0030244328 0.0013312307 -0.0009366197
-0.002474536 -0.0049333842 0.0028154929
0.0027102062 -7.830769e-05 -0.0009366197
0.001453299 0.00039153846 -0.0009366197
-0.0029458762 0.0041503077 -0.0010147888
0.0038099999 -0.0021143076 -0.00070211268
-0.0018460824 -0.0049333842 -7.676056e-05
0.0023174225 0.0032106154 -0.0009366197
0.002474536 -0.0032106154 -0.0020309859
-0.0027102062 -0.0029756923 -7.676056e-05
0.0030244328 -0.0013312307 -0.002421831
0.0032601031 0.0013312307 -0.0009366197
0.00051061856 0.0027407692 -0.0009366197
0.00043206185 0.0021143076 -0.0014838028
-0.001688969 -0.00023492306 -0.0015619718
0.0020031959 -0.0038370767 -0.0009366197
-0.0028673196 0.0026624615 -0.0009366197
0.0016104124 0.00078307692 -0.0014838028
-0.00035350514 0.0039936923 -0.0014838028
-0.0018460824 7.830769e-05 -0.0014838028
-0.0031029896 -0.0046984614 -0.00062394363
-0.0028673196 0.0025058461 -0.0014838028
-0.0009819587 0.00086138456 -0.0015619718
0.0011390721 -0.0050899996 -0.00054577464
0.0019246391 -0.0050899996 -0.00038943661
-0.0030244328 -0.004541846 -0.00038943661
0.0010605154 7.830769e-05 -0.0009366197
-0.0030244328 0.001252923 -0.0009366197
0.0022388659 -0.0049333842 0.0019556338
0.0023174225 -0.0021143076 -7.676056e-05
-0.0034172165 0.0018793845 -0.0011711267
-3.9278348e-05 -0.004541846 -0.0014838028
-0.0031029896 0.0031323077 -0.0009366197
0.0016104124 0.0016444614 -0.0015619718
-0.0027887628 -0.00078307692 -0.0016401409
0.00051061856 -0.0010963076 -7.676056e-05
-0.0031029896 0.0021926153 -0.0014838028
0.00051061856 -0.00086138456 -7.676056e-05
0.0031029896 -0.0039936923 -0.0014838028
-0.0011390721 0.00054815382 -0.0009366197
0.0012961855 -0.0036021536 -0.0014838028
-0.0028673196 -0.0049333842 -0.00085845072
-0.00082484534 0.00054815382 -0.0009366197
0.0012961855 -0.0014095384 -0.0023436621
-0.00058917527 0.0010963076 -0.0009366197
0.0030244328 -0.00046984613 -0.0015619718
-0.0032601031 -0.0026624615 -0.0023436621
-0.0009819587 -0.001252923 -0.00015492957
-0.00027494846 -0.0046201535 0.00054859155
0.00035350514 -0.0025841538 -0.002421831
-0.0010605154 0.0018793845 -0.0009366197
0.0031029896 0.0025058461 -0.0009366197
-0.0012176288 -0.0040719998 -0.0014838028
-0.0026316494 -0.0011746153 -0.0023436621
-0.0023959794 -0.0019576922 -7.676056e-05
-3.9278348e-05 -0.0046201535 0.0028154929
-0.0011390721 0.001252923 -0.0009366197
-0.0020817525 0.0016444614 -0.0014838028
-0.0035743299 -0.001252923 -0.002187324
-0.0020817525 0.004541846 -0.0014838028
-0.0015318557 -0.00078307692 -0.00062394363
0.00066773192 0 -0.0015619718
-0.001688969 0.0021143076 -0.0009366197
-0.0013747422 0.00039153846 -0.0014838028
0.0017675257 0.0029756923 -0.0014838028
0.0026316494 0.0011746153 -0.0009366197
0.0015318557 0.0038370767 -0.0014838028
0.00051061856 -0.00070476922 -0.002421831
-0.001688969 -0.0040719998 -0.0014838028
-0.0028673196 0.0035238459 -0.0009366197
-0.0010605154 -0.0025058461 -0.00015492957
0.0020031959 0.004541846 -0.0010147888
-0.0031815462 -0.0031323077 -0.0015619718
0.00090340205 -0.0015661538 -7.676056e-05
-0.0009819587 -0.0032889228 -0.0022654929
0.0029458762 -0.0023492307 -0.0023436621
0.0022388659 -0.00070476922 -0.002187324
0.0023959794 0.0018010768 -0.0014838028
0.00011783505 -0.0050899996 0.0013302817
0.0012961855 0.001252923 -0.0009366197
-0.00043206185 -0.0032106154 -0.0020309859
0.0031029896 -0.0043852306 -0.00078028167
0.0023174225 -0.0041503077 -0.0014838028
-0.0020817525 0.0024275384 -0.0014838028
0.0021603091 -0.003054 -0.0009366197
-0.00019639175 0.004541846 -0.0009366197
-0.0037314433 0.00031323076 -0.0013274648
-0.0015318557 -0.0014095384 -0.0023436621
-0.0025530928 -0.001252923 -0.0023436621
0.00035350514 0.0011746153 -0.0015619718
0.0012176288 -0.0029756923 -0.0023436621
-0.0009819587 0.0042286152 -0.0009366197
0.0013747422 7.830769e-05 -0.0015619718
-0.0022388659 -0.0026624615 -0.0023436621
-0.0027102062 -0.0032889228 -0.0018746479
0.0035743299 -0.0027407692 -0.0019528168
0.0034172165 0.0013312307 -0.0015619718
0.0010605154 0.00039153846 -0.0009366197
-0.0029458762 -0.0033672305 -0.0015619718
0.0023959794 -0.0031323077 -0.0022654929
-0.0018460824 0.0042286152 -0.0014838028
-0.00051061856 -0.00086138456 -7.676056e-05
0.00019639175 -0.0047767689 0.0016429578
-0.00058917527 -0.0014095384 -7.676056e-05
-0.0012961855 -0.0032889228 -0.00038943661
0.00082484534 -0.0017227691 -7.676056e-05
-0.0015318557 -0.0028973846 -0.00015492957
-0.00090340205 -0.00039153846 -0.0009366197
0.0021603091 0.0033672305 -0.0009366197
-0.00035350514 -0.0040719998 -0.0015619718
0.0034957731 -0.0034455382 -0.0014838028
-0.0037314433 -0.001018 -0.0017183098
0.0038099999 -0.0023492307 -0.0012492958
-0.001688969 -0.0014095384 -7.676056e-05
0.0033386596 -0.0039153844 -0.0009366197
-0.00019639175 -0.00023492306 -0.0014838028
0.001453299 7.830769e-05 -0.0015619718
-0.001453299 0.00023492306 -0.0015619718
0.0015318557 0.0043069231 -0.0014838028
0.0012176288 -0.00039153846 -0.0009366197
0.0030244328 -0.0036021536 -0.0009366197
-0.0027102062 -0.0050116922 -0.00015492957
-0.0019246391 0.00046984613 -0.0009366197
-0.0027102062 -0.0023492307 -0.002421831
-0.00011783505 -0.0036021536 -0.0014838028
0.0023174225 -0.0013312307 -7.676056e-05
-0.0030244328 -0.0017227691 -0.0023436621
0.0019246391 -0.00070476922 -0.0017964789
0.0032601031 -0.003758769 -0.0014838028
0.0016104124 0.0019576922 -0.0009366197
0.0029458762 0.0036021536 -0.0010147888
0.0027102062 -0.0050116922 0.00015774647
0.0010605154 0.004541846 -0.0014838028
0.0009819587 -0.0036021536 -0.0014838028
-0.0031815462 0.00039153846 -0.0014838028
0.0023174225 0.003054 -0.0014838028
-0.0029458762 0.00015661538 -0.0009366197
-0.0022388659 -0.0032106154 -0.0015619718
0.00011783505 -0.0024275384 -0.002421831
-0.0027102062 -0.0044635381 -0.00085845072
0.0023174225 -0.0050116922 -0.00062394363
-0.00027494846 0.0036804613 -0.0014838028
-0.0010605154 0.0042286152 -0.0009366197
0.0032601031 -0.0031323077 -0.0021091548
0.0010605154 0.0042286152 -0.0014838028
-0.0033386596 -0.00086138456 -0.00046760563
-0.0036528865 -0.00078307692 -0.0009366197
0.0026316494 0.0041503077 -0.0014838028
0.0032601031 0.0010963076 -0.0015619718
0.0033386596 -0.00039153846 -0.0015619718
-3.9278348e-05 -0.0044635381 0.002502817
0.0023959794 0.00023492306 -0.0009366197
0.0023174225 0.00015661538 -0.0009366197
0.0016104124 0.0050899996 -0.0012492958
-0.0034172165 0.00031323076 -0.0009366197
-0.0025530928 -0.0046201535 0.002502817
-0.0023959794 -0.0031323077 -7.676056e-05
0.0032601031 -0.00054815382 -0.0009366197
-0.0025530928 -0.003758769 -0.0009366197
0.00011783505 0.00039153846 -0.0009366197
0.0015318557 0.00046984613 -0.0009366197
-0.0020031959 -0.00078307692 -0.0021091548
-0.00051061856 0.0021143076 -0.0009366197
-0.0012961855 0.0039936923 -0.0014838028
0.0023959794 0.002270923 -0.0009366197
-0.0034172165 -0.0029756923 -7.676056e-05
0.00051061856 0.0024275384 -0.0009366197
0.0031815462 -0.0021143076 -7.676056e-05
0.00035350514 -0.0036021536 -0.0014838028
-0.0032601031 0.0025841538 -0.0011711267
0.0009819587 0.00023492306 -0.0009366197
-0.0012961855 0.0048550768 -0.0010929578
-0.0029458762 -0.00023492306 -0.0014838028
0.00011783505 0.0021143076 -0.0014838028
0.0031029896 -0.00070476922 -0.0017183098
-0.00019639175 -0.0048550768 0.0025809859
-0.0037314433 -0.00070476922 -0.0012492958
-0.0028673196 -0.0031323077 -0.00054577464
0.0035743299 0.001252923 -0.0010147888
0.0011390721 -0.00039153846 -0.0015619718
-0.001453299 -0.0048550768 -0.0012492958
0.0031815462 -0.0029756923 -0.00038943661
-0.00019639175 -0.0044635381 0.0017211267
-0.0009819587 0.00031323076 -0.0009366197
0.00090340205 0.0011746153 -0.0015619718
-0.00066773192 0.0034455382 -0.0014838028
0.0038099999 -0.0026624615 -0.0014838028
0.0013747422 0.0043852306 -0.0014838028
-0.00051061856 0.0023492307 -0.0015619718
-0.0012961855 -0.003054 -0.0009366197
-0.0020031959 -0.0050116922 -7.676056e-05
0.00019639175 -0.0032106154 -0.0017183098
-0.0034957731 0.0011746153 -0.0013274648
-0.0009819587 -0.00070476922 -0.0009366197
-0.0015318557 -0.00078307692 -0.0019528168
0.0023174225 -0.0017227691 -0.002421831
-0.00043206185 -0.0039936923 -0.0009366197
0.00066773192 -0.0020359999 -0.002421831
0.0038099999 -0.0026624615 -0.0010147888
-0.0012961855 -0.0044635381 -0.00038943661
0.0027102062 0.0017227691 -0.0009366197
0.0010605154 -0.0050899996 -0.00054577464
0.0020031959 0.0047767689 -0.0014838028
-0.0022388659 0.00039153846 -0.0014838028
0.0022388659 0.00054815382 -0.0015619718
0.00035350514 0.0049333842 -0.0010929578
-0.0026316494 -0.0050899996 0.00093943661
-0.0022388659 -0.0018793845 -7.676056e-05
-0.0034172165 0.0010963076 -0.0009366197
0.0027887628 -0.0046201535 0.0018774648
0.0026316494 0.0046984614 -0.0010929578
0.00066773192 0.0026624615 -0.0009366197
0.0025530928 -0.0021143076 -7.676056e-05
0.0009819587 0.0028190769 -0.0014838028
0.0027102062 -0.0050116922 0.00054859155
0.0022388659 -0.0025841538 -0.002421831
0.0031815462 -0.0046201535 -0.00054577464
-0.0027887628 0.0017227691 -0.0009366197
-0.0020031959 -0.0032889228 -0.0009366197
0.00074628863 -0.0043069231 -0.00085845072
0.00011783505 0.002270923 -0.0015619718
-0.0033386596 -0.0021926153 -0.0023436621
-0.0033386596 -0.0014878461 -7.676056e-05
0.00090340205 -0.00070476922 -0.0017183098
0.0038099999 -0.00086138456 -0.0010147888
0.0038099999 -0.0028973846 -0.0013274648
3.9278348e-05 -0.00070476922 -0.00023309859
0.0021603091 -0.0027407692 -7.676056e-05
0.0020031959 -0.0032106154 -0.00038943661
3.9278348e-05 0.0034455382 -0.0009366197
0.00035350514 -0.00070476922 -0.0017964789
-0.0030244328 0.003758769 -0.0014838028
0.0017675257 0.00015661538 -0.0015619718
0.0038099999 -0.0020359999 -0.0016401409
0.001688969 0.0042286152 -0.0014838028
-0.00027494846 0.0034455382 -0.0015619718
0.001453299 -0.00070476922 -0.002187324
0.0037314433 -0.00023492306 -0.0011711267
-0.0011390721 0.0047767689 -0.0010929578
-0.00066773192 -0.0050116922 -0.00015492957
0.0012176288 -0.0049333842 -0.0010147888
-0.0019246391 -0.00023492306 -0.0015619718
-0.0021603091 -0.0032106154 -0.0018746479
-0.0015318557 -0.0024275384 -0.0023436621
0.0023959794 -0.0013312307 -0.002421831
-0.0020817525 0.0010963076 -0.0009366197
0.0009819587 -0.0032106154 -0.00015492957
-0.00043206185 -0.0014878461 -0.002421831
-0.0009819587 -0.002270923 -0.0023436621
0.00058917527 0.00046984613 -0.0009366197
-0.00043206185 -0.0044635381 -0.00038943661
-0.00043206185 0.0038370767 -0.0009366197
0.0031815462 0.0025058461 -0.0014838028
-0.001453299 0.00093969225 -0.0009366197
0.0020817525 -0.00046984613 -0.0015619718
0.0012176288 -0.00070476922 -0.0017964789
0.00011783505 0.0028190769 -0.0014838028
3.9278348e-05 -0.0041503077 -0.0009366197
0.0038099999 -0.002270923 -0.0017183098
-0.0031029896 -0.0021926153 -0.0023436621
-0.0012176288 -0.0046201535 -0.0014056338
0.00011783505 -0.0044635381 0.0010957747
-0.0032601031 -0.0031323077 -0.00054577464
-0.001688969 -0.0016444614 -7.676056e-05
-0.00043206185 0.004541846 -0.0009366197
-0.0020031959 -0.0032106154 -0.0017964789
-0.0009819587 -0.00078307692 -0.00031126759
-0.0030244328 -0.00078307692 -0.00062394363
0.0029458762 -0.0031323077 -0.00038943661
0.0012961855 -0.0021143076 -0.0023436621
-0.0023959794 -0.0011746153 -0.0023436621
0.0028673196 0.002270923 -0.0009366197
0.0018460824 0.00046984613 -0.0015619718
-0.0010605154 -0.0025841538 -0.00015492957
-0.0031029896 -0.00015661538 -0.0009366197
0.00066773192 -0.0032106154 -0.0018746479
0.0021603091 -0.0029756923 -0.0023436621
0.0023174225 -0.0032106154 -0.00015492957
-0.00074628863 -0.0046201535 -0.0014056338
0.0027102062 0.004541846 -0.0010929578
0.0021603091 -0.0049333842 -0.0009366197
-0.0022388659 -0.00078307692 -0.00054577464
0.0012176288 0.0040719998 -0.0014838028
0.0026316494 0.0035238459 -0.0009366197
-0.0018460824 0.0021143076 -0.0009366197
0.0032601031 -0.0013312307 -7.676056e-05
-0.0027102062 -0.00031323076 -0.0009366197
0.0034172165 -0.0039936923 -0.0009366197
-3.9278348e-05 0.00086138456 -0.0009366197
0.0032601031 -0.0043852306 -0.00046760563
0.0018460824 0.0028973846 -0.0014838028
-0.0030244328 -0.0031323077 -0.0009366197
0.00090340205 -0.001018 -0.0023436621
0.0033386596 -0.0028190769 -0.0017964789
0.0038099999 -0.0016444614 -0.0009366197
-0.00066773192 -0.0043852306 -0.0014838028
0.0009819587 -0.0049333842 -0.00054577464
0.0016104124 0.0029756923 -0.0009366197
0.0027102062 0.0039936923 -0.0014838028
0.0038099999 -0.00062646152 -0.0010147888
0.0009819587 -0.0034455382 -0.0009366197
-0.0022388659 0.0024275384 -0.0014838028
0.0035743299 -0.001018 -0.0023436621
-0.0016104124 -0.00015661538 -0.0009366197
0.0025530928 -0.0044635381 0.0024246478
0.0023174225 -0.0048550768 0.0010957747
0.0033386596 -0.00078307692 -0.00031126759
0.00074628863 -0.0050899996 -0.00078028167
0.00090340205 -0.0026624615 -7.676056e-05
-0.0038099999 -0.001252923 -0.0012492958
-0.0018460824 -0.00015661538 -0.0009366197
0.0017675257 -0.0015661538 -7.676056e-05
-0.00082484534 0.0039153844 -0.0009366197
0.00027494846 -0.00086138456 -7.676056e-05
0.00019639175 -0.0034455382 -0.0009366197
0.0036528865 -0.0027407692 -0.002187324
-0.0023959794 -0.0023492307 -0.0023436621
0.0023959794 0.0027407692 -0.0015619718
-0.00035350514 0.0010963076 -0.0015619718
-0.0023174225 -0.0049333842 0.00070492958
0.0013747422 -0.00054815382 -0.0009366197
-0.00074628863 -0.00086138456 -7.676056e-05
0.0020817525 -0.0018010768 -0.002421831
0.00051061856 -0.002270923 -7.676056e-05
0.001453299 0.0031323077 -0.0015619718
-0.0033386596 0.0024275384 -0.0010929578
0.0030244328 -0.0028973846 -0.0023436621
0.0010605154 -0.00070476922 -0.00054577464
0.0038099999 -0.0011746153 -0.0012492958
-0.0037314433 -0.001018 -0.0020309859
-0.00019639175 7.830769e-05 -0.0015619718
-0.0012176288 -0.0016444614 -0.0023436621
0.002474536 -0.00070476922 -0.0018746479
-3.9278348e-05 -0.0020359999 -7.676056e-05
0.0015318557 0.0040719998 -0.0009366197
0.001688969 -0.0047767689 -0.00015492957
-0.0023174225 0.0041503077 -0.0014838028
0.0037314433 -0.003054 -0.0013274648
0.0018460824 0.0010963076 -0.0009366197
0.0020817525 -0.00039153846 -0.0009366197
0.0027887628 0.00023492306 -0.0014838028
-0.0027887628 0.0046984614 -0.0010929578
-0.0025530928 -0.0046201535 0.0017211267
0.0036528865 -0.003054 -0.00031126759
-0.0023174225 -0.0050116922 0.00062676053
-0.0011390721 -0.0044635381 -0.0014838028
-0.0019246391 0.002270923 -0.0009366197
0.00043206185 -0.00023492306 -0.0014838028
-0.002474536 -0.00078307692 -0.0019528168
-0.00066773192 0.0038370767 -0.0014838028
-0.00074628863 -0.0032889228 -0.0009366197
0.0023959794 -0.0044635381 0.00062676053
0.0034172165 0 -0.0015619718
0.001453299 0.0044635381 -0.0014838028
-0.00082484534 0.0027407692 -0.0014838028
0.0023174225 -0.0050116922 0.0015647887
0.00082484534 -0.0011746153 -0.0023436621
-0.0019246391 0.00039153846 -0.0009366197
-0.0025530928 -0.0050899996 -0.00038943661
-0.0023174225 -0.0032106154 -0.0018746479
0.00058917527 0.0011746153 -0.0014838028
0.00066773192 0.0042286152 -0.0014838028
0.0027102062 -0.0050116922 -0.00062394363
-0.0016104124 0.0039153844 -0.0009366197
-0.00074628863 0.0050899996 -0.0011711267
0.0027887628 -0.004541846 0.00039225351
0.0013747422 -0.0011746153 -0.0023436621
0.00090340205 -0.00070476922 -0.0020309859
-0.0022388659 -0.00093969225 -0.00015492957
-0.0023174225 0.0021143076 -0.0014838028
-0.0018460824 0.0018010768 -0.0009366197
0.0037314433 -0.00046984613 -0.0013274648
0.0016104124 -0.0034455382 -0.0014838028
0.00035350514 -0.0050116922 7.9577461e-05
-0.0026316494 -0.0032889228 -0.002187324
-3.9278348e-05 -0.00054815382 -0.0009366197
3.9278348e-05 -0.0044635381 0.0015647887
-0.0025530928 0.00086138456 -0.0009366197
0.00058917527 -0.0043852306 -0.0014838028
-0.0031029896 0.0033672305 -0.0009366197
0.0028673196 0.003054 -0.0014838028
-0.0009819587 -0.0031323077 -0.0023436621
-0.0011390721 0.00093969225 -0.0014838028
-0.00011783505 0.0027407692 -0.0009366197
-0.001688969 -0.001252923 -7.676056e-05
0.0038099999 -0.0020359999 -0.0010147888
0.0018460824 -0.0018010768 -0.0023436621
-0.0018460824 0.0041503077 -0.0009366197
0.00074628863 -0.0046984614 -7.676056e-05
-0.00058917527 0.0050899996 -0.0012492958
0.00082484534 -0.0032106154 -0.00054577464
0.00019639175 -0.0018010768 -0.002421831
-0.001453299 -0.0046984614 -0.00031126759
0.00035350514 -0.00086138456 -0.002421831
0.00051061856 -0.0014095384 -7.676056e-05
0.0012176288 -0.0014095384 -0.0023436621
-0.0028673196 -0.0047767689 7.9577461e-05
0.0012176288 0.00046984613 -0.0009366197
0.0028673196 0.00086138456 -0.0015619718
-0.0026316494 -0.00086138456 -0.0022654929
0.0027102062 0.00039153846 -0.0014838028
-0.0034957731 -0.0032106154 -0.0021091548
0.0030244328 0.0027407692 -0.0014838028
-0.0023959794 -0.001252923 -7.676056e-05
0.0013747422 0.00070476922 -0.0014838028
-0.00082484534 -0.0032106154 -7.676056e-05
0.0029458762 -0.0020359999 -0.002421831
0.0012176288 -0.00070476922 -0.0018746479
0.0038099999 -0.0026624615 -0.00078028167
0.0023959794 0.0025841538 -0.0015619718
0.00058917527 -0.0025841538 -0.0023436621
-0.001688969 0.0033672305 -0.0014838028
-0.0015318557 0.0028973846 -0.0014838028
0.0038099999 -0.0027407692 -0.0017964789
-0.0032601031 -0.0028190769 -0.0023436621
-0.00027494846 -0.0048550768 0.0017992958
-0.00011783505 0.0050116922 -0.0010929578
-0.0033386596 0 -0.0009366197
-0.0012961855 -0.0033672305 -0.0014838028
0.0027102062 0.0034455382 -0.0009366197
-0.0010605154 0.00039153846 -0.0009366197
0.00051061856 -0.004541846 -0.0014838028
-0.00051061856 -0.00039153846 -0.0015619718
-0.0019246391 -0.00062646152 -0.0015619718
-0.0037314433 -0.003054 -0.00046760563
-0.0017675257 0.0015661538 -0.0015619718
-0.00082484534 -0.0032889228 -0.0020309859
-0.0021603091 0.0025841538 -0.0014838028
0.00011783505 0.0018010768 -0.0009366197
-0.0011390721 -0.00093969225 -0.0023436621
0.00074628863 -0.00070476922 -0.00031126759
-0.0017675257 -0.0050899996 -0.00070211268
0.0025530928 0.0024275384 -0.0015619718
-3.9278348e-05 -0.0043852306 -0.00062394363
0.00019639175 -0.00070476922 -0.0017964789
-0.0015318557 0.00023492306 -0.0015619718
-0.00051061856 0.0039936923 -0.0009366197
-0.0016104124 0.001018 -0.0014838028
-0.00019639175 -0.0046201535 0.00031408449
-0.0012961855 0.0040719998 -0.0014838028
-0.00027494846 0.0046201535 -0.0009366197
-0.0012961855 0.0042286152 -0.0014838028
-0.0027887628 0.0034455382 -0.0009366197
-0.0020031959 -0.00078307692 -0.0019528168
-0.0012176288 -0.0021143076 -0.00023309859
-0.0017675257 -0.0029756923 -0.00070211268
-0.0032601031 0.00039153846 -0.0014838028
-0.0019246391 0.0040719998 -0.0009366197
-0.00058917527 -0.004541846 -0.0014838028
-0.00066773192 0.0048550768 -0.0010929578
-0.00035350514 0.0050899996 -0.0012492958
-0.00027494846 -0.0048550768 1.4084507e-06
0.0021603091 -0.00070476922 -0.0017183098
-0.0021603091 0.0032106154 -0.0014838028
0.0023959794 0.0042286152 -0.0009366197
0.0019246391 0.00054815382 -0.0009366197
0.0027102062 0.0043069231 -0.0010147888
0.00019639175 -0.0049333842 0.002502817
-0.00027494846 -0.0026624615 -0.0023436621
0.0019246391 -0.003054 -0.00046760563
0.0021603091 -0.0014878461 -7.676056e-05
0.0019246391 -0.00015661538 -0.0009366197
0.0023174225 -0.0047767689 0.0015647887
0.00019639175 -0.00015661538 -0.0009366197
-0.0027887628 -0.0046984614 7.9577461e-05
0.0036528865 -0.001018 -0.002187324
0.00074628863 0.0040719998 -0.0014838028
0.0027102062 -0.0032889228 -0.0009366197
-3.9278348e-05 0.0026624615 -0.0015619718
-0.0020817525 0.00023492306 -0.0009366197
0.0026316494 -0.00070476922 -0.002187324
-0.00074628863 -0.0032106154 -0.0021091548
0.001688969 -0.0031323077 -0.00054577464
0.0030244328 -0.0047767689 -0.00038943661
0.0020031959 -7.830769e-05 -0.0009366197
0.0012176288 0 -0.0009366197
0.00019639175 -0.0050116922 0.0017211267
-0.0028673196 -0.00062646152 -0.0015619718
0.0031029896 -0.001018 -0.0023436621
-0.0012176288 0.00093969225 -0.0014838028
-0.002474536 0.0047767689 -0.0014056338
0.0027102062 -0.0036021536 -0.0009366197
-0.0031029896 -0.0036021536 -0.0014838028
0.0012961855 0.0010963076 -0.0009366197
-0.0009819587 0.0049333842 -0.0010929578
0.0025530928 -0.0021926153 -0.002421831
0.0016104124 -0.00070476922 -0.00078028167
-0.001688969 -0.0044635381 -0.00062394363
-0.0026316494 -0.0029756923 -0.0023436621
0.0032601031 -0.0011746153 -0.0023436621
-3.9278348e-05 0.0024275384 -0.0009366197
-0.00058917527 0.0021143076 -0.0014838028
0.00035350514 0.00046984613 -0.0015619718
-0.00035350514 0.0047767689 -0.0009366197
0.0021603091 0.0043852306 -0.0010147888
-0.0027102062 -0.0046984614 0.0017992958
-0.0033386596 -0.0031323077 -0.00054577464
0.0029458762 0.0028973846 -0.0009366197
0.0013747422 0.0013312307 -0.0009366197
-0.0036528865 -0.00015661538 -0.0009366197
-0.0029458762 -0.0044635381 -0.00078028167
0.0012176288 -0.0019576922 -0.00023309859
-0.0010605154 -0.0049333842 -0.00062394363
0.001453299 -0.00070476922 -0.0018746479
0.0031029896 -0.0033672305 -0.0009366197
0.00090340205 0.0036021536 -0.0014838028
0.0016104124 -0.0050899996 -0.00015492957
3.9278348e-05 -0.0028190769 -0.0023436621
-0.0015318557 -0.0031323077 -7.676056e-05
-0.0012176288 -0.0043852306 -0.00031126759
0.00019639175 -0.0039936923 -0.0009366197
0.0018460824 -0.0046984614 -0.0012492958
-0.00082484534 0.0036804613 -0.0014838028
0.0021603091 0.00078307692 -0.0014838028
0.0026316494 0.0021926153 -0.0014838028
-0.0012176288 -0.003054 -0.00062394363
-0.0013747422 -0.0043852306 -0.00046760563
-0.0030244328 0.0015661538 -0.0014838028
0.001453299 0.003758769 -0.0014838028
-0.0034957731 0.0011746153 -0.0009366197
-0.0026316494 -0.0050899996 0.00054859155
3.9278348e-05 0.0044635381 -0.0014838028
0.001688969 -0.0032106154 -0.00015492957
0.0034957731 0.00070476922 -0.0012492958
-0.0021603091 0.0046201535 -0.0010147888
0.001688969 0.0050899996 -0.0010929578
0.0012961855 -0.00086138456 -0.0023436621
0.0028673196 0.0011746153 -0.0009366197
-0.0031029896 -7.830769e-05 -0.0009366197
0.00011783505 -0.0046201535 -0.0014838028
0.0013747422 -0.00070476922 -0.00038943661
-0.00035350514 -0.0050899996 -0.00015492957
-0.0033386596 -0.0018010768 -7.676056e-05
-0.0011390721 0.0040719998 -0.0009366197
0.0029458762 0.001018 -0.0015619718
0.00019639175 -0.0028190769 -7.676056e-05
0.0023174225 -0.0032889228 -0.0021091548
0.0017675257 -0.003054 -0.0023436621
0.00051061856 -0.0025841538 -0.002421831
-0.001453299 -0.0019576922 -0.0023436621
0.0037314433 0.00031323076 -0.0010147888
0.0015318557 0.0032106154 -0.0009366197
0.0031029896 -0.0020359999 -0.002421831
-0.0038099999 -0.0010963076 -0.0009366197
-0.0012961855 0.0015661538 -0.0009366197
0.0025530928 0.00023492306 -0.0015619718
-0.0011390721 -0.001018 -0.00023309859
-0.0013747422 -0.0014878461 -0.00023309859
0.0017675257 -0.0021143076 -7.676056e-05
0.0025530928 -0.0044635381 0.0025809859
0.0009819587 -0.0032106154 -0.0023436621
0.00019639175 -0.0050899996 0.0011739436
-0.00066773192 0.0023492307 -0.0015619718
3.9278348e-05 0.00078307692 -0.0014838028
0.00019639175 0.0050899996 -0.0013274648
-0.001688969 0.0025841538 -0.0009366197
-0.00019639175 -0.00039153846 -0.0015619718
0.0011390721 -0.0043069231 -0.00085845072
0.0009819587 -0.001252923 -0.0023436621
-0.00051061856 -0.002270923 -0.0023436621
0.002474536 -0.0044635381 0.00062676053
-0.00058917527 0.0016444614 -0.0009366197
-0.00043206185 -0.0035238459 -0.0014838028
0.0026316494 0.001018 -0.0015619718
-0.00090340205 -0.001252923 -7.676056e-05
0.0034957731 0.0016444614 -0.0010147888
0.0030244328 -0.00093969225 -0.0023436621
-0.0037314433 -0.0024275384 -0.00046760563
-0.0028673196 0.0044635381 -0.0014838028
-0.0023174225 -0.0023492307 -7.676056e-05
-0.0015318557 -0.0044635381 -0.00054577464
0.0012961855 0.0050899996 -0.0014838028
0.0010605154 -0.0043852306 -0.00054577464
-0.001688969 0 -0.0015619718
0.0023174225 -0.0035238459 -0.0009366197
0.00074628863 0.00054815382 -0.0009366197
-3.9278348e-05 -0.0050899996 -0.00031126759
-0.00090340205 0.0021926153 -0.0014838028
0.0018460824 -0.0033672305 -0.0009366197
0.00066773192 -0.004541846 -0.0014838028
-0.0012176288 -0.00039153846 -0.0015619718
-0.00074628863 0.0015661538 -0.0014838028
-0.00043206185 -0.0014095384 -7.676056e-05
0.0016104124 -0.0044635381 -0.00046760563
-0.0015318557 -0.0048550768 -0.0012492958
-0.002474536 -0.0050899996 0.00047042253
0.0028673196 0.0026624615 -0.0015619718
-0.0031029896 -0.0043852306 -0.0011711267
-0.0023959794 -0.0032106154 -0.0018746479
-0.0025530928 -0.0029756923 -0.00085845072
0.002474536 -0.0044635381 0.0014084507
0.0018460824 0.0035238459 -0.0009366197
-0.0026316494 -0.00039153846 -0.0015619718
0.0018460824 -0.0043852306 -0.00078028167
-0.0020031959 -0.0011746153 -7.676056e-05
0.0028673196 0.001018 -0.0015619718
-0.0019246391 -0.0032889228 -0.00038943661
-0.00066773192 -0.0014095384 -0.0023436621
0.00082484534 0.00070476922 -0.0009366197
0.0021603091 -0.0046201535 -0.0012492958
0.0017675257 -0.0029756923 -0.00085845072
-0.0022388659 -0.0035238459 -0.0014838028
0.0034172165 0.00015661538 -0.0014838028
0.0023959794 0.0016444614 -0.0009366197
-0.0034172165 -0.0021143076 -0.0023436621
0.0023174225 -0.0050116922 0.0014866197
-0.00082484534 -0.0032106154 -0.00062394363
-0.0010605154 -0.003758769 -0.0015619718
0.0031029896 0.0032106154 -0.0011711267
-0.0037314433 -0.0024275384 -0.0016401409
0.0020031959 0.0050899996 -0.0012492958
0.0013747422 -0.0046201535 -0.0013274648
-0.00043206185 0.004541846 -0.0014838028
-0.0038099999 -0.001018 -0.0013274648
-0.0023174225 -0.003054 -0.0023436621
-0.002474536 -0.0026624615 -7.676056e-05
0.0018460824 0.0046201535 -0.0014838028
0.0010605154 -0.003054 -0.0023436621
0.0028673196 -0.0046201535 -0.0011711267
0.0029458762 -0.0029756923 -0.00015492957
0.0016104124 0.00054815382 -0.0009366197
-0.0023959794 -0.0014878461 -7.676056e-05
-0.0021603091 -0.00039153846 -0.0009366197
0.0030244328 0.003758769 -0.0010929578
0.0038099999 -0.0019576922 -0.0018746479
-0.0037314433 0.00039153846 -0.0010147888
-0.0022388659 -0.0028973846 -7.676056e-05
0.0010605154 -0.0026624615 -7.676056e-05
0.0012176288 -0.003054 -0.00062394363
-0.00019639175 0.003758769 -0.0009366197
0.001688969 -0.0024275384 -7.676056e-05
0.0031815462 -0.0043852306 -0.0010929578
-0.00019639175 -0.0039153844 -0.0009366197
0.0019246391 -0.00039153846 -0.0015619718
-0.001688969 -0.0041503077 -0.0014838028
0.0031029896 -0.0011746153 -7.676056e-05
0.00066773192 -0.0044635381 -7.676056e-05
0.00043206185 0.0016444614 -0.0009366197
-0.0027102062 -0.0046201535 0.0015647887
0.0038099999 -0.0025058461 -0.00078028167
0.0037314433 -0.0028973846 -0.0021091548
0.0027102062 -0.0028973846 -0.00054577464
0.0010605154 0.0047767689 -0.0014838028
0.00011783505 0.0011746153 -0.0015619718
-0.0027887628 -0.0027407692 -0.002421831
0.002474536 -0.00070476922 -7.676056e-05
0.00051061856 -0.00070476922 -0.00054577464
-0.00090340205 0.00031323076 -0.0009366197
-0.0037314433 -0.0025058461 -0.0019528168
-0.0020817525 0.00062646152 -0.0015619718
-0.0027887628 -0.0015661538 -0.0023436621
-0.0023174225 -0.0046984614 -0.0013274648
0.0034172165 0.00070476922 -0.0009366197
-0.0012961855 -0.0050899996 -0.00038943661
-0.0027102062 -0.0050116922 0.00093943661
0.0027887628 0.00054815382 -0.0015619718
-0.0029458762 -0.0047767689 -0.00078028167
-0.0031815462 0.0018793845 -0.0009366197
0.0018460824 -0.0031323077 -0.0020309859
-0.0013747422 -0.0028190769 -0.00023309859
0.0013747422 -0.0029756923 -0.00015492957
0.0016104124 0.0028190769 -0.0014838028
-0.00090340205 0.00054815382 -0.0015619718
-0.0031815462 -0.0038370767 -0.0014838028
0.0016104124 -0.003054 -0.0017964789
-0.0019246391 0.0017227691 -0.0009366197
-0.0028673196 -0.0029756923 -7.676056e-05
