# .PCD v0.7 - Point Cloud Data file format
VERSION 0.7
FIELDS x y z
SIZE 4 4 4
TYPE F F F
COUNT 1 1 1
WIDTH 1227
HEIGHT 1
VIEWPOINT 0 0 0 1 0 0 0
POINTS 1227
DATA ascii
-0.0015688235 -0.00049111113 0.00034999999
0.0046317647 0.00056666665 0.000275
0.00097117643 -0.0017 -0.00025000001
-0.0029882351 -0.00064222224 0.00079999998
-0.0029882351 -0.00056666665 -0.0019
-0.00097117643 0.00049111113 -9.9999997e-05
-0.00074705877 -0.00079333334 -0.0013
-0.005677647 0.00049111113 -0.001825
0.0023905882 -0.00026444445 -0.00025000001
0.0017929411 0.00079333334 0.0011
0.0017929411 -0.00056666665 -0.0019
0.005005294 0.00079333334 -0.000925
-0.0031376469 -0.0017 -0.00017499999
-0.00074705877 0.00079333334 -0.0022
0.0020170587 0.00079333334 0.00050000002
0.0015688235 -0.00079333334 -2.4999999e-05
0.004258235 0.00071777776 0.00050000002
-0.0008217647 -0.00071777776 0.001775
0.0020917647 -0.00071777776 -0.0019749999
0.0026147058 -0.0017 -0.000325
-0.00029882352 -0.0011711111 -0.001
-8.6736174e-19 -0.00102 -0.00025000001
0.0020170587 0.00071777776 -0.002875
-0.0041835294 -0.00064222224 -0.00205
0.0029882351 0.00056666665 -0.0031000001
-0.0044076471 -0.0013222222 -0.001
0.0041835294 0.00064222224 -0.0016749999
0.0033617646 0.00049111113 -0.001525
0.0019423529 -0.00041555555 0.00050000002
0.0010458824 -0.00018888889 -0.00025000001
0.0059017646 0.00071777776 -0.001225
-0.0032870588 0.0017 -0.00069999998
-0.0046317647 0.00064222224 -0.0019
0.004332941 -0.00049111113 -0.002575
0.0041835294 0.00056666665 -0.0029500001
-0.0017929411 -0.00041555555 -0.0017500001
-0.0046317647 0.00064222224 -0.001075
0.001867647 -0.00079333334 -0.0021250001
0.0021664705 0.00056666665 -2.4999999e-05
-0.0017182352 -0.00064222224 0.00072499999
-0.0017929411 0.0017 -0.00055
-0.0019423529 0.00079333334 0.0011
-0.004258235 -0.00049111113 -0.0027999999
-0.0017182352 -0.00071777776 0.00185
-0.0054535293 0.00079333334 -2.4999999e-05
-0.0062005878 -0.00056666665 -2.4999999e-05
-0.005677647 -0.00041555555 0.00050000002
0.0029882351 0.00049111113 -0.0019
-0.0029882351 -0.00071777776 0.00072499999
0.0020170587 -0.00026444445 -0.00025000001
0.00037352939 0.00064222224 0.00185
-0.0011952941 0.0016244445 -2.4999999e-05
-0.0029882351 -0.00056666665 0.00155
-0.0008217647 0.00071777776 0.00050000002
0.0032870588 0.00041555555 -0.00025000001
0.0030629411 -0.00079333334 0.00155
-0.004930588 -0.00034 -0.00085000001
-0.0021664705 0.00102 -0.001
0.0031376469 -0.00041555555 -0.001225
0.0029882351 0.00064222224 -0.003175
-0.0028388235 0.0013222222 -0.000925
-0.0032123527 -0.00018888889 -0.001
-0.00014941176 0.0017 -0.00047500001
-0.0058270586 0.00011333334 -0.00025000001
0.0046317647 0.00049111113 -0.0032500001
0.0041835294 -0.00034 -0.001
0.0047811763 -0.00041555555 -2.4999999e-05
0.0056029409 -0.00041555555 -0.00017499999
0.0041088234 3.7777776e-05 -0.001
0.0021664705 -0.00049111113 0.00125
0.0032870588 0.00049111113 0.00057500001
0.00044823528 0.00079333334 -0.00355
-0.0059017646 -0.0011711111 -0.00025000001
-0.004258235 -0.00079333334 4.9999999e-05
0.0058270586 -0.00064222224 -0.0034749999
-0.0017182352 0.00049111113 -0.0022
-0.004332941 0.00056666665 -0.0032500001
0.0020170587 -0.00041555555 0.00057500001
-0.0044076471 -0.0015488889 -9.9999997e-05
-0.0031376469 0.0016244445 -0.00017499999
-0.0017929411 -0.0017 -0.00025000001
0.0016435294 0.00049111113 -0.003025
-0.0032870588 0.00094444444 -0.001
-0.00067235291 -0.00086888886 -0.0013
0.0034364704 -0.00056666665 -0.0033249999
-0.00052294118 -0.00086888886 -0.0016
0.0017929411 -0.00049111113 -0.0027999999
-0.00037352939 0.00049111113 -9.9999997e-05
-0.0010458824 0.0013222222 -0.00017499999
7.470588e-05 0.0010955556 -0.00025000001
-0.0020917647 0.00079333334 -0.00205
0.0041835294 -0.00011333334 -0.00025000001
-0.0048558824 0.0013977778 -0.00085000001
0.0048558824 -0.00071777776 -2.4999999e-05
0.004332941 -0.0013977778 -0.00017499999
-0.0011205882 -0.0013977778 -0.001
0.004332941 0.00049111113 -0.0021250001
0.0052294116 0.00094444444 -0.00017499999
-0.0017182352 0.00056666665 0.000275
0.0046317647 -0.00049111113 0.0011
0.0034364704 -0.00049111113 0.00019999999
-0.0008217647 0.00071777776 -0.003025
-0.0046317647 0.00064222224 0.00072499999
-0.0020917647 0.00064222224 0.001775
-0.0017182352 -0.00079333334 0.001775
0.0030629411 -0.00071777776 0.00072499999
-0.0020917647 -0.00064222224 -0.0032500001
-0.002465294 0.0017 -0.00025000001
0.004258235 0.00079333334 -2.4999999e-05
-0.0029882351 -0.00079333334 -0.002875
0.0029882351 -0.00056666665 -0.0017500001
-0.0051547056 0.00034 -0.00025000001
0.0047064703 -0.0016244445 -0.00085000001
-0.00037352939 0.00026444445 -0.00025000001
0.0048558824 -0.00011333334 -0.001
0.0019423529 -0.00086888886 -0.001525
-0.0017182352 -0.0017 -9.9999997e-05
-0.001867647 -0.0013977778 -0.00017499999
-0.0028388235 -0.00102 -0.001
-0.0033617646 0.00064222224 -0.003025
-0.004930588 0.0016244445 -0.00017499999
0.00067235291 -0.00086888886 0.001175
0.0019423529 -0.00049111113 -0.002875
-0.002465294 -0.0017 -0.00069999998
0.00014941176 -0.0014733333 -9.9999997e-05
-0.0053041177 -0.0017 -0.00069999998
-0.0008217647 0.00071777776 0.001775
0.00037352939 0.00034 -0.00025000001
-0.00059764704 -0.00049111113 0.000275
-0.0034364704 -0.00064222224 -0.001
0.0029882351 -0.00049111113 -0.00355
-0.00074705877 -0.00049111113 0.0014750001
0.001867647 -0.00079333334 -0.001525
0.0056029409 0.00049111113 0.000275
0.0015688235 -0.0017 -0.00077500002
0.004258235 -0.0017 -0.00025000001
0.0032870588 0.00079333334 -0.0026499999
0.0008217647 0.00056666665 0.00042500001
0.0032870588 0.00049111113 0.0020000001
0.0027641177 0.0015488889 -2.4999999e-05
-0.0029135293 -0.0010955556 -0.001
-0.0033617646 0.00064222224 0.000275
0.005677647 -0.00071777776 0.00012500001
0.00037352939 0.00079333334 -0.00235
-0.0020917647 0.0017 -0.00017499999
0.0032123527 -0.00086888886 -0.0033249999
-0.0017182352 0.00049111113 0.00087500003
-0.00037352939 -0.00064222224 -0.0024250001
0.0063499999 0.00049111113 -9.9999997e-05
-0.0059017646 -0.0017 -0.00077500002
-0.0019423529 -0.00049111113 -0.0027999999
0.0045570587 0.00079333334 -0.002875
-0.0046317647 -0.00049111113 -0.001225
-0.0053788233 -0.00041555555 -0.001
0.0041835294 0.0013222222 -0.00017499999
0.0036605881 0.00049111113 -0.00017499999
0.0041835294 0.00056666665 -0.001225
0.0041835294 0.00056666665 -0.0022
0.0057523525 -0.00079333334 -0.0022
0.004332941 0.0013222222 -0.00017499999
0.00052294118 -0.00071777776 -0.0017500001
0.00059764704 -0.00041555555 0.00012500001
-8.6736174e-19 -0.00011333334 -0.00025000001
-0.0023158824 0.0017 -0.000325
-0.00074705877 0.00064222224 0.0021500001
0.00089647056 -0.00086888886 -0.00017499999
0.0032123527 -0.0010955556 -0.00025000001
-0.0058270586 0.0013222222 -0.00085000001
-0.004930588 -0.0015488889 -9.9999997e-05
0.0046317647 -0.00064222224 0.00155
0.0047064703 -0.00056666665 -0.001
-0.0020170587 0.00049111113 -0.002875
-0.0030629411 -0.00064222224 0.002075
-0.0020917647 0.00056666665 -0.001525
-0.00037352939 -0.00071777776 0.00095000002
0.0017182352 0.00079333334 -0.0031000001
0.00052294118 0.00049111113 0.00019999999
-0.0017182352 -0.00064222224 0.001925
-0.0021664705 -0.00049111113 -0.0024250001
0.00037352939 0.00056666665 0.001775
0.0026894116 0.0017 -0.000325
-0.0046317647 0.00064222224 -0.0024250001
0.0008217647 0.00071777776 -0.00205
-0.0059764702 -0.0017 -0.00025000001
0.00089647056 -0.00049111113 0.00087500003
0.0020170587 -0.00041555555 -0.0022750001
-0.00052294118 0.00064222224 -0.00205
0.00037352939 0.0015488889 -2.4999999e-05
-0.0063499999 -0.00034 -0.00085000001
0.00097117643 0.0014733333 -0.001
-0.0046317647 0.0016244445 -0.00017499999
0.0053788233 0.0017 -0.00085000001
-0.0047811763 -0.0017 -0.00055
-0.0029135293 0.0016244445 -0.00085000001
-0.0054535293 -0.00071777776 -0.002575
-0.0017182352 0.00049111113 -0.0016749999
-0.00044823528 0.00049111113 0.001025
-0.00254 0.00026444445 -0.001
-0.0063499999 0.00071777776 -0.00055
0.0019423529 -0.00086888886 -0.003025
0.00089647056 -0.0013222222 -0.00017499999
0.0008217647 0.00071777776 -0.0026499999
0.0046317647 0.00064222224 -0.0034
0.0059017646 -0.00064222224 -0.001
-0.0041088234 0.00011333334 -0.00025000001
-0.0028388235 -0.00018888889 -0.00025000001
0.0020917647 -0.00086888886 0.0017
0.0056029409 0.00079333334 0.001325
-0.0019423529 -0.00034 -0.00025000001
0.00052294118 -0.0017 -0.00069999998
0.0059017646 0.00056666665 -0.003025
-0.0023905882 0.0017 -0.00077500002
-0.0019423529 -0.00086888886 -0.0036249999
-0.0008217647 0.00056666665 -0.0034749999
0.0017182352 0.00064222224 -0.002575
0.00508 -0.0016244445 -0.00017499999
-0.001867647 0.00049111113 0.00072499999
0.005677647 -0.00056666665 -0.0022
0.0026894116 -0.0017 -0.00069999998
-0.0046317647 -0.00071777776 0.001625
0.0040341173 -0.00041555555 -0.00017499999
0.0036605881 -0.00034 -0.000925
0.0056029409 0.00079333334 -0.00205
0.0032870588 -0.0017 -0.00077500002
-0.0052294116 0.00094444444 -0.00085000001
0.0020170587 -0.00086888886 4.9999999e-05
-0.0031376469 0.0010955556 -0.001
0.0017929411 -0.00049111113 -0.0016
-0.00037352939 -0.00079333334 -0.001525
0.0008217647 -0.00034 -0.001
-0.0044823526 -0.00049111113 0.001625
0.0031376469 0.00102 -0.00025000001
-0.0023158824 0.0012466667 -0.001
-0.0038847057 -0.0017 -0.00077500002
-0.0052294116 0.00011333334 -0.001
-0.00067235291 -0.00049111113 -0.0037750001
0.0014194117 0.0017 -0.00085000001
-0.00089647056 -0.00079333334 -0.001
0.00044823528 -0.00049111113 0.00185
-0.0029882351 -0.0011711111 -0.001
-0.0034364704 -0.00018888889 -0.001
-0.00044823528 0.0017 -0.00069999998
0.0041088234 3.7777776e-05 -0.00025000001
-0.0036605881 -0.0017 -0.00017499999
0.0063499999 -0.00071777776 -0.00025000001
0.00127 -0.0017 -0.000925
0.0029882351 -0.00049111113 -0.0026499999
0.0046317647 0.00034 -0.001
-0.0045570587 3.7777776e-05 -0.00025000001
-0.0059017646 -0.00071777776 -0.0019749999
-0.0030629411 0.0017 -0.00085000001
-0.0059017646 -0.00041555555 -0.001375
-0.00067235291 -0.00049111113 -0.0029500001
0.0020917647 0.00064222224 -0.00145
-0.0017929411 0.00079333334 -0.0021250001
-0.0046317647 -0.00041555555 -0.001225
0.0029135293 -0.00041555555 -0.001
-0.0017182352 -0.00064222224 0.00185
-0.0046317647 0.00049111113 -0.0034749999
-0.005005294 -0.0017 -0.00077500002
0.0044076471 0.00049111113 0.001925
0.00059764704 0.0017 -0.00085000001
0.00037352939 0.00071777776 0.00050000002
-0.0033617646 -0.00086888886 -2.4999999e-05
0.0037352941 -0.00064222224 -0.001
-0.0039594118 0.00064222224 -2.4999999e-05
0.004258235 3.7777776e-05 -0.001
-0.0021664705 -0.00086888886 -0.001
0.00074705877 -0.0014733333 -2.4999999e-05
-0.0052294116 -0.00102 -0.000925
-0.0047064703 -0.0017 -0.00085000001
0.0020170587 -0.00041555555 0.00072499999
-0.00254 -0.0013977778 -0.00017499999
0.0037352941 -0.0017 -0.00062499999
-0.0032123527 -0.00086888886 -0.0021250001
0.0022411763 3.7777776e-05 -0.00025000001
0.0046317647 0.00049111113 0.00155
0.0035858823 0.00018888889 -0.00025000001
0.0017182352 -0.00041555555 -0.00017499999
-0.0044076471 -0.00041555555 0.00019999999
0.0021664705 0.00049111113 -0.0017500001
0.0059017646 0.00064222224 -0.0033249999
-0.0056029409 0.00056666665 0.00072499999
-0.0032870588 -0.00071777776 0.0011
0.00074705877 0.00079333334 0.00034999999
0.0059017646 -0.00056666665 -0.0016
-0.0061258823 -0.0013222222 -0.00085000001
-0.002465294 -0.0017 -0.00047500001
-0.0029882351 0.0013222222 -0.00085000001
0.0019423529 -0.00079333334 -0.003025
0.00074705877 -0.00079333334 0.00185
-0.0058270586 -0.00079333334 -0.0034749999
-0.0060511762 -0.00094444444 -0.00085000001
0.00044823528 0.00049111113 -2.4999999e-05
0.0058270586 -0.0017 -0.00025000001
-0.004258235 -0.00049111113 -0.0037
0.0034364704 -0.00011333334 -0.00025000001
-0.0058270586 0.00064222224 -0.00355
-0.00074705877 3.7777776e-05 -0.001
-0.0017182352 0.0015488889 -2.4999999e-05
-0.0032870588 -0.0017 -0.00039999999
-0.0039594118 -0.0017 -0.00047500001
-0.00059764704 0.00071777776 0.002075
0.004930588 0.0012466667 -0.00085000001
0.0022411763 -0.0016244445 -0.00017499999
-0.0020917647 -0.00071777776 -0.0029500001
0.00044823528 -0.00049111113 -0.0013
-0.00037352939 -0.00056666665 0.0014750001
-0.0046317647 -0.00064222224 0.00079999998
0.004332941 -0.0017 -0.000325
0.0022411763 0.00086888886 -0.00085000001
0.00067235291 0.00079333334 -0.0027999999
0.0058270586 -0.00034 -0.00025000001
0.0033617646 -0.00056666665 -0.0031000001
0.00074705877 0.00049111113 -9.9999997e-05
0.0058270586 -0.00041555555 0.00057500001
-0.0026147058 -0.00049111113 -0.001
-0.0059017646 -0.00071777776 0.00079999998
-0.00074705877 -0.00071777776 0.00125
0.0031376469 -0.0017 -0.00017499999
0.0030629411 0.00079333334 0.0011
-0.0023158824 0.0013222222 -0.001
-0.0055282353 -0.00049111113 -0.001525
0.0044076471 -0.00064222224 -0.0029500001
0.0063499999 -0.00026444445 -0.00077500002
0.0046317647 0.00071777776 -0.0036249999
-0.0020917647 0.00079333334 -2.4999999e-05
-0.0020170587 -0.00079333334 -0.0024250001
-0.0063499999 -0.00064222224 -0.00055
-0.0008217647 -0.00064222224 -0.00145
0.0035858823 0.0013977778 -9.9999997e-05
0.0019423529 -0.00086888886 -0.002575
0.0014194117 0.0013222222 -0.00017499999
-0.0019423529 -0.00049111113 0.00042500001
-0.0023158824 0.0014733333 -0.00017499999
-0.0045570587 -0.00079333334 0.00019999999
0.0045570587 -0.00086888886 0.00087500003
0.0058270586 0.00049111113 -0.00017499999
-0.0055282353 -0.00079333334 0.00079999998
0.0022411763 -0.00056666665 -2.4999999e-05
0.0046317647 0.00071777776 -0.00115
-0.005677647 -0.00086888886 -0.0029500001
0.0044076471 -0.00079333334 0.00125
-0.0059017646 -0.00079333334 -0.0013
0.0008217647 -0.00064222224 -0.0019749999
-0.0062005878 -0.0015488889 -0.00062499999
0.0017929411 -0.0010955556 -0.00025000001
0.0058270586 0.00079333334 -0.003175
0.005005294 -0.0013222222 -0.00017499999
0.0027641177 0.00041555555 -0.001
-0.0020170587 -0.00079333334 0.00095000002
-0.0016435294 0.0011711111 -0.001
0.0038847057 -0.00071777776 -0.001
-0.0054535293 -0.00102 -0.00025000001
0.0031376469 0.00079333334 0.00072499999
0.00037352939 0.00049111113 0.00012500001
-0.0008217647 0.00064222224 0.001175
-0.0017182352 -0.00071777776 -0.0019749999
-0.004930588 0.00049111113 -9.9999997e-05
-0.0026147058 0.0014733333 -0.00085000001
-0.00014941176 -0.0016244445 -2.4999999e-05
0.005005294 0.0013222222 -0.00017499999
0.001867647 0.0016244445 -0.001
-0.0051547056 -0.00041555555 -0.00017499999
0.0054535293 0.00071777776 -0.003025
-8.6736174e-19 0.0012466667 -0.00025000001
0.0017929411 -0.00071777776 0.00087500003
-0.0063499999 0.00026444445 -0.00077500002
-0.002465294 -0.00086888886 -2.4999999e-05
-0.0015688235 -0.00056666665 0.00034999999
0.0044076471 -0.00056666665 0.000275
-0.00067235291 0.0013222222 -0.001
-0.0029882351 -0.00071777776 -0.0022
0.0054535293 0.00079333334 -0.0031000001
0.0017182352 0.0017 -2.4999999e-05
-0.00127 -0.00079333334 -0.001
0.005005294 -0.0010955556 -0.00025000001
-0.005677647 0.00049111113 -0.0022
-0.0021664705 -0.0013222222 -0.00017499999
0.0044823526 0.00049111113 -0.0034
-0.0045570587 0.00079333334 0.001175
-0.0014194117 -0.0017 -0.00077500002
0.00059764704 -0.00041555555 0.00072499999
-0.0023158824 -0.00086888886 -9.9999997e-05
0.0017929411 -0.00049111113 -0.001525
0.0020917647 -0.00086888886 0.00087500003
0.0037352941 0.00018888889 -0.00025000001
0.0031376469 0.00079333334 0.001925
-0.0034364704 0.00041555555 -0.001075
0.0057523525 -0.0014733333 -0.00025000001
-0.00508 -0.0010955556 -0.000925
0.005677647 -0.00064222224 -0.002575
-0.0008217647 0.00064222224 0.001625
-0.0044823526 -0.00049111113 -0.002575
-0.0032870588 0.00079333334 0.00050000002
-0.0030629411 0.00049111113 0.00050000002
-0.00089647056 0.00049111113 0.000275
-0.0017182352 -0.00041555555 0.00079999998
0.0013447058 -0.00018888889 -0.00025000001
0.00037352939 0.00071777776 -0.0027999999
-0.0037352941 -0.00086888886 -9.9999997e-05
-0.0054535293 -0.00056666665 -0.001375
-0.0028388235 -0.00049111113 -0.001
0.00044823528 0.00071777776 -0.0037
-0.0021664705 0.00049111113 -0.0027999999
0.0046317647 0.00056666665 0.00095000002
0.0045570587 0.00049111113 4.9999999e-05
0.0039594118 -0.00049111113 -0.001
-0.0030629411 0.0016244445 -0.00085000001
-0.0008217647 0.00026444445 -0.001
0.0029882351 0.00049111113 -2.4999999e-05
0.0032123527 0.00071777776 0.001925
0.0041088234 -0.00049111113 -2.4999999e-05
-0.0046317647 0.00071777776 -0.0031000001
-0.0020917647 0.00079333334 -0.00115
-0.0031376469 -0.00041555555 -0.00115
0.0019423529 0.00079333334 0.001775
-0.0059017646 -0.00056666665 -0.0027999999
-0.004258235 -0.00041555555 0.00072499999
0.0031376469 -0.00049111113 0.0017
-0.0037352941 0.00056666665 -0.000925
-0.0039594118 0.0013977778 -0.00017499999
0.0059017646 0.00064222224 -0.00235
-0.004332941 -0.0015488889 -9.9999997e-05
0.0035858823 -0.0012466667 -0.001
-0.0040341173 -0.0014733333 -0.000925
0.0008217647 -0.00071777776 -0.0029500001
-0.0015688235 0.00094444444 -0.00025000001
-0.00074705877 -0.00049111113 -0.0033249999
-0.0027641177 0.0013222222 -0.00025000001
0.00052294118 -0.00056666665 0.00050000002
-0.00052294118 0.00041555555 -0.00025000001
0.0031376469 0.00049111113 0.00072499999
0.00074705877 0.00049111113 -0.0032500001
-0.0062752939 0.0010955556 -0.00055
-0.0008217647 0.00049111113 -0.0026499999
-0.0041088234 0.00071777776 -2.4999999e-05
-0.0022411763 -0.00056666665 -2.4999999e-05
-0.0041835294 -0.00064222224 -0.0034
0.0038847057 0.0011711111 -0.00025000001
-0.0033617646 0.00064222224 0.00034999999
0.0029882351 0.00094444444 -0.001
0.002465294 -0.0015488889 -0.00017499999
0.0030629411 -0.00071777776 -0.003175
-0.0035858823 0.0016244445 -0.00017499999
-0.004930588 -0.00079333334 -2.4999999e-05
-0.0016435294 -0.0017 -0.00039999999
0.0055282353 0.00071777776 -0.00145
0.0011205882 0.0017 -0.00069999998
0.0016435294 0.00049111113 -0.001525
-0.0046317647 0.00049111113 0.00019999999
0.0032123527 0.00079333334 -0.001525
-0.00022411764 0.00049111113 -0.00017499999
0.005677647 0.00071777776 -0.0036249999
-0.0054535293 -0.00064222224 0.0011
0.0031376469 -0.0013222222 -0.000925
0.0044076471 -0.00064222224 0.0011
0.0020170587 0.00071777776 -0.0024999999
0.005677647 -0.00056666665 -0.0033249999
0.0017182352 0.00064222224 -0.0013
-0.0020170587 -0.00079333334 -0.00145
-0.0010458824 0.00094444444 -0.00025000001
-0.00089647056 -0.00094444444 -0.00025000001
-0.0057523525 0.00079333334 -0.0022
-0.0045570587 0.00079333334 -0.0031000001
-0.0057523525 0.0014733333 -0.00085000001
-0.0032870588 0.00079333334 0.00185
-0.0031376469 0.00079333334 0.00095000002
0.0045570587 -0.00086888886 0.00125
-0.0020917647 0.00071777776 -0.00145
-0.00059764704 -0.00086888886 0.00042500001
-0.0017182352 -0.00049111113 -0.003025
0.00014941176 3.7777776e-05 -0.00025000001
0.0020917647 -0.00086888886 -0.002575
-0.0032123527 0.00079333334 -0.0016749999
-0.0026147058 -0.0016244445 -9.9999997e-05
-0.0030629411 -0.00086888886 -0.0022
-0.0011952941 -0.00056666665 -2.4999999e-05
0.0059017646 0.00071777776 -0.0022750001
-0.00074705877 0.00026444445 -0.001
0.0016435294 0.00049111113 -0.0022
0.0037352941 -0.00064222224 -2.4999999e-05
0.00067235291 0.0017 -0.000325
-0.001867647 0.0013222222 -0.00017499999
0.0031376469 0.00049111113 0.00095000002
0.0020917647 0.00049111113 0.00125
0.0020917647 -0.00086888886 -0.00017499999
-0.0019423529 0.0011711111 -0.001
0.005005294 0.00049111113 -0.00017499999
-0.0030629411 -0.00086888886 -0.0016
0.00059764704 -0.00086888886 0.00012500001
0.00074705877 0.00079333334 0.001175
0.00074705877 0.00071777776 -0.002875
0.0056029409 0.00079333334 -0.0031000001
-0.002465294 -0.00071777776 -0.001
-0.0011205882 -0.0017 -0.00017499999
0.0063499999 -0.00056666665 -0.00085000001
-0.0028388235 -0.0016244445 -0.000925
0.0029882351 0.00079333334 0.0011
0.0019423529 -0.00079333334 -0.0036249999
-0.0045570587 -0.00049111113 0.00185
-0.0059017646 -0.00041555555 0.00012500001
-0.0029882351 -0.00049111113 -0.0032500001
0.0045570587 0.0017 -0.00077500002
0.00044823528 0.00049111113 -0.0027999999
0.0044823526 -0.00018888889 -0.001
-0.0026147058 -0.0017 -0.000925
-0.0014941175 3.7777776e-05 -0.000925
-0.0021664705 3.7777776e-05 -0.001
-0.0054535293 -0.00064222224 0.00079999998
-0.005677647 0.00064222224 -0.0026499999
0.004332941 0.00079333334 0.00072499999
-0.0038847057 0.0017 -0.00039999999
-0.0014941175 -0.0013222222 -0.001
0.00052294118 0.00049111113 0.0011
0.0060511762 0.00049111113 -9.9999997e-05
-0.0032870588 -0.00086888886 -0.0013
0.0019423529 -0.00041555555 -9.9999997e-05
-0.0059017646 -0.00049111113 -0.001825
0.0032123527 0.00049111113 0.00012500001
-0.0019423529 0.00079333334 0.00125
-0.0046317647 -0.00056666665 -0.0034
0.0038847057 -0.00056666665 -2.4999999e-05
-0.0058270586 0.00056666665 -0.001825
0.0062005878 0.00026444445 -0.000925
0.0019423529 -0.00086888886 4.9999999e-05
0.0053041177 0.00041555555 -0.001
-0.0026894116 0.0017 -0.00077500002
0.005005294 -0.00064222224 -0.001
-0.0020170587 0.00079333334 0.00065
0.0059017646 0.00049111113 0.00095000002
0.0044823526 -0.00086888886 -0.002575
0.0032870588 0.00071777776 0.00087500003
-0.0013447058 -0.00011333334 -0.00085000001
-0.0033617646 0.00011333334 -0.00025000001
0.0046317647 -0.00079333334 -0.002575
0.0046317647 -0.00064222224 0.00057500001
0.0030629411 -0.00079333334 -0.002725
-0.0014194117 0.0017 -0.000325
-0.00074705877 -0.00064222224 0.001925
0.0020917647 -0.00056666665 -0.0013
-0.0022411763 0.0017 -0.00069999998
-0.0026894116 -0.00056666665 -2.4999999e-05
0.0063499999 -0.00026444445 -0.00085000001
-0.0047811763 0.0012466667 -0.000925
0.0045570587 -0.00086888886 -0.0013
-0.005677647 -0.00049111113 -0.0024999999
-0.00044823528 -0.00086888886 -0.003025
0.0033617646 -0.0017 -0.00069999998
-0.005677647 0.00079333334 0.0017
0.0032123527 -0.00086888886 -0.0034749999
0.0061258823 -0.0015488889 -0.00025000001
0.0044823526 -0.00049111113 -0.00145
0.0062752939 0.0014733333 -0.000325
-0.0032123527 0.0013222222 -0.000925
-0.0046317647 -0.00064222224 0.00125
0.0059017646 3.7777776e-05 -0.00025000001
-0.0013447058 -0.00018888889 -0.00025000001
-0.0020170587 -0.00086888886 -0.003175
-0.0051547056 -0.0012466667 -0.00025000001
-0.00508 -0.00079333334 -0.00085000001
0.0026147058 -0.00034 -0.00025000001
-0.0057523525 0.00049111113 0.00079999998
-0.0059017646 0.00049111113 0.00050000002
0.0044823526 0.00079333334 -0.002875
-0.0030629411 -0.00086888886 -0.0034
0.005677647 0.0017 -0.000325
-0.0017929411 0.00064222224 -0.001225
-0.0008217647 0.00049111113 -0.0021250001
-0.00044823528 0.0017 -0.00062499999
-0.0029882351 0.0014733333 -0.00017499999
0.0054535293 0.00064222224 -0.0032500001
-0.0053788233 0.00011333334 -0.001
0.0032870588 0.00064222224 -0.00115
-0.0029882351 -0.00079333334 -0.0017500001
0.0044823526 0.00079333334 -0.0036249999
0.004258235 0.00079333334 0.001025
0.0027641177 0.00011333334 -0.001
0.0046317647 -0.00079333334 -0.0034749999
-0.0011205882 -0.0017 -9.9999997e-05
0.0031376469 -0.00018888889 -0.00025000001
0.0017929411 -0.00064222224 0.001625
0.0023905882 -0.0014733333 -0.000925
-0.0030629411 0.00049111113 0.00079999998
-0.00127 -0.0017 -0.00085000001
-0.0026147058 0.0013977778 -0.00085000001
-0.0032870588 -0.00086888886 4.9999999e-05
-0.00022411764 -0.00064222224 -0.001
-0.0062005878 -0.00018888889 -0.00025000001
-0.0037352941 -0.00071777776 -0.000925
0.00074705877 0.00049111113 -0.0029500001
-0.0023158824 -0.0015488889 -2.4999999e-05
0.0046317647 -0.00079333334 -0.0022750001
0.0020917647 0.00056666665 -0.0032500001
-0.0031376469 0.00064222224 0.00125
0.0044823526 3.7777776e-05 -0.001
0.00029882352 0.0017 -0.00047500001
0.0038099999 0.00026444445 -0.00025000001
0.0056029409 0.00049111113 0.001175
7.470588e-05 0.0014733333 -9.9999997e-05
0.00074705877 0.00071777776 -0.0021250001
0.0015688235 0.00071777776 -0.00115
0.0013447058 -0.00041555555 -0.001
-0.0057523525 -0.00049111113 -0.0016749999
0.0054535293 0.00064222224 -0.003025
0.0032870588 0.00049111113 -0.001825
-0.0038099999 0.0012466667 -0.00025000001
-0.00022411764 0.0013977778 -0.000925
0.0047811763 0.0017 -0.00055
-0.0019423529 -0.00086888886 -0.00355
0.0040341173 -0.0017 -0.000325
0.0035858823 -0.0013977778 -0.000925
0.0063499999 -0.00102 -0.00025000001
0.0059017646 0.0014733333 -0.00017499999
-0.0017929411 -0.00086888886 -0.0029500001
0.0032870588 0.00049111113 0.00087500003
-0.00059764704 0.00079333334 0.00050000002
0.00044823528 0.00079333334 0.0014
0.005677647 -0.00079333334 -0.002575
0.0020917647 -0.00041555555 -0.00017499999
-0.0017929411 0.00049111113 -2.4999999e-05
0.0022411763 -0.0014733333 -0.00085000001
0.0026894116 0.00086888886 -0.00017499999
-0.0029135293 -0.00079333334 4.9999999e-05
0.0046317647 -0.00056666665 -0.0034
0.0023905882 0.00026444445 -0.001
0.0021664705 0.00049111113 -0.0034
0.0033617646 -0.0017 -0.00085000001
0.004332941 0.00056666665 0.0020000001
-0.00052294118 0.00064222224 -0.0021250001
0.0010458824 -0.0010955556 -0.001
-0.0016435294 -0.00049111113 0.0014750001
0.002465294 -0.0016244445 -0.00085000001
7.470588e-05 -0.0013977778 -0.001
-0.0053788233 -0.0015488889 -2.4999999e-05
0.0059017646 0.0016244445 -2.4999999e-05
-0.0059017646 -0.00056666665 0.001625
0.0029882351 -0.0013222222 -0.00085000001
0.0021664705 0.0016244445 -0.000925
0.0008217647 0.00056666665 4.9999999e-05
0.0017929411 -0.0017 -0.000325
0.0035858823 0.0017 -0.00069999998
-0.00037352939 0.0015488889 -0.00085000001
-0.0032123527 -0.00086888886 -0.001075
-0.0008217647 0.00049111113 -0.0029500001
0.0021664705 -0.0015488889 -0.00017499999
-0.005677647 -0.00086888886 -0.0027999999
0.0037352941 -3.7777776e-05 -0.00025000001
-0.00067235291 -0.00011333334 -0.001
0.00067235291 -0.00086888886 0.00019999999
0.0019423529 0.00049111113 -0.0016
0.0055282353 0.00049111113 0.0014
-0.00037352939 -0.00056666665 -0.0017500001
0.0046317647 0.00034 -0.00025000001
0.0053788233 0.0016244445 -0.00085000001
0.001867647 0.00049111113 -0.0019749999
0.0034364704 -0.0015488889 -0.00085000001
0.0020917647 -0.00056666665 -0.0033249999
0.0058270586 -0.00026444445 -0.00025000001
-0.0037352941 -0.0014733333 -0.000925
-0.0032123527 0.00049111113 0.001325
-0.0052294116 0.0017 -0.00047500001
-0.0014941175 -0.00094444444 -0.001
0.0017929411 -0.00041555555 -9.9999997e-05
-0.005677647 -0.00041555555 -0.0019
0.0054535293 0.00064222224 -0.00115
-0.0020917647 -0.00056666665 -0.00115
0.0021664705 -0.00049111113 0.00012500001
0.0030629411 0.00079333334 -2.4999999e-05
0.0040341173 -0.0014733333 -0.00085000001
0.00044823528 0.00049111113 -0.00355
-0.0044823526 0.00049111113 -0.002725
-0.0019423529 0.0012466667 -0.00025000001
0.0032123527 -0.00056666665 -0.0037
0.0056029409 0.00079333334 0.00050000002
0.00067235291 -0.00049111113 0.001775
0.0038099999 -0.00026444445 -0.00025000001
-0.0030629411 0.00064222224 0.00057500001
-0.0008217647 -0.00071777776 -0.0019
-0.0008217647 -0.00056666665 -0.0024999999
0.0035858823 -0.0010955556 -0.00025000001
0.0051547056 0.00034 -0.00025000001
0.0017182352 0.00064222224 0.0014
-0.0055282353 -0.00079333334 -0.0026499999
0.0017929411 -0.0013977778 -0.001
-0.004930588 0.0017 -0.00025000001
0.0032870588 -0.00049111113 -0.0016749999
0.0057523525 0.00049111113 0.00072499999
-0.0031376469 -0.00079333334 0.0020000001
0.0019423529 -0.00086888886 -0.00017499999
0.0032870588 0.0017 -0.000325
-0.0011205882 0.00026444445 -0.001
0.0017929411 0.00079333334 0.00050000002
0.005677647 -0.00079333334 -0.00235
0.0030629411 -0.00041555555 0.00125
-0.00052294118 0.00071777776 0.001925
-0.0031376469 0.00079333334 0.000275
0.0061258823 0.00056666665 -2.4999999e-05
0.0055282353 0.00071777776 -0.0016749999
-0.00059764704 0.00079333334 -0.0019749999
-0.0008217647 0.00049111113 -0.0016749999
-0.0048558824 0.00018888889 -0.001
-0.0021664705 0.00071777776 -2.4999999e-05
0.0032123527 -0.00094444444 -0.001825
0.0056029409 -0.00049111113 -0.001375
-0.0058270586 -0.00086888886 -2.4999999e-05
0.0041835294 0.00071777776 -0.001075
-0.0033617646 -0.00049111113 0.0014750001
0.00037352939 0.00049111113 0.00095000002
0.0020917647 -0.00086888886 -0.0034
-0.0020170587 -0.00049111113 -0.0034
-0.0020917647 0.00079333334 -0.001075
-0.0032123527 -0.00086888886 0.0011
-0.0059017646 -0.00064222224 -0.0021250001
0.0044823526 0.00026444445 -0.001
-0.00022411764 0.0015488889 -2.4999999e-05
-0.00059764704 -0.0015488889 -0.001
0.0038099999 0.00102 -0.00025000001
0.0028388235 0.0017 -0.00039999999
-0.0045570587 0.00079333334 -0.0021250001
0.0017929411 -0.00064222224 0.0014
0.0008217647 0.0013977778 -0.001
0.0059017646 0.00071777776 -0.00355
-0.00044823528 0.00049111113 -0.00145
0.00037352939 0.00064222224 -0.0027999999
0.0020917647 0.00071777776 0.00155
0.0060511762 -0.00011333334 -0.00025000001
-0.0055282353 0.0017 -0.00077500002
-0.004258235 -0.0017 -0.00039999999
0.004332941 0.00079333334 0.001625
0.0017182352 0.00026444445 -0.00025000001
-0.0044076471 -0.00086888886 -0.0013
0.00254 0.00026444445 -0.001
0.00037352939 0.00056666665 0.00019999999
-0.0061258823 -0.00011333334 -0.00025000001
0.0041088234 0.0015488889 -2.4999999e-05
0.0053041177 -0.00094444444 -0.00025000001
0.0027641177 0.0017 -0.00069999998
-0.004332941 -0.00041555555 -2.4999999e-05
0.0021664705 -0.00041555555 0.00050000002
0.0052294116 0.00064222224 -0.001
-0.0046317647 -0.00041555555 -9.9999997e-05
-0.0046317647 0.00071777776 -0.0029500001
0.00059764704 -0.00086888886 0.00079999998
-0.0020170587 -0.00071777776 -0.00235
0.0020170587 0.00094444444 -0.001
0.0059017646 -0.00049111113 -0.0024250001
-0.0054535293 -0.00071777776 -0.002875
0.0032123527 0.00079333334 0.00155
0.001867647 0.00079333334 -0.0037750001
0.0008217647 0.00056666665 0.00034999999
0.0036605881 -0.00049111113 -2.4999999e-05
-0.0023158824 -0.0014733333 -2.4999999e-05
0.004332941 0.00056666665 0.002075
-0.005677647 0.00079333334 0.00087500003
0.0020917647 -0.00071777776 -0.0031000001
0.00089647056 0.0017 -0.00085000001
-0.0063499999 0.00079333334 -0.00017499999
0.0021664705 -0.00049111113 0.00034999999
-0.0008217647 0.00041555555 -0.00025000001
-0.0017182352 0.00056666665 0.00050000002
0.0031376469 -0.0017 -0.000325
-0.00044823528 -3.7777776e-05 -0.001
-0.0058270586 -0.00079333334 -0.0024250001
-0.00037352939 -0.00071777776 -0.0024250001
-0.0032870588 -0.00079333334 -0.0016749999
0.0020170587 -0.0012466667 -0.00025000001
-0.001867647 -0.00086888886 0.00012500001
0.00508 -0.00049111113 -2.4999999e-05
-0.0056029409 0.00056666665 -0.0021250001
0.0055282353 0.00079333334 0.00042500001
-0.0063499999 0.00079333334 -0.00025000001
-0.00029882352 -0.0013222222 -0.00017499999
0.0029882351 3.7777776e-05 -0.001
0.0044823526 -0.00049111113 -0.0032500001
-0.0047811763 0.0015488889 -0.00085000001
-0.00097117643 -0.0011711111 -0.00025000001
0.0016435294 -0.00071777776 -0.001
0.00508 0.0012466667 -0.000925
0.0020917647 0.0017 -0.00047500001
-0.00044823528 0.00049111113 0.00155
-0.0029882351 -0.00049111113 -0.0013
0.0033617646 -0.00049111113 -0.0021250001
-0.0046317647 -0.00049111113 0.00065
-0.0063499999 -0.00079333334 -0.00039999999
-0.0035111764 0.00049111113 -0.001
0.0044076471 -0.00064222224 -0.0016
0.0063499999 -0.00102 -0.00055
0.0026894116 0.00079333334 -9.9999997e-05
0.00059764704 -0.00049111113 -0.0024999999
0.0061258823 0.00049111113 -9.9999997e-05
-0.0023905882 -0.0014733333 -9.9999997e-05
0.0032123527 -0.00094444444 -0.00115
0.00067235291 0.00049111113 -0.0034
-0.00052294118 -0.00071777776 -0.00385
-0.0059017646 0.00049111113 0.0017
-0.00059764704 0.00049111113 -0.0016
0.0016435294 -0.0017 -0.00025000001
0.0053041177 0.00026444445 -0.00025000001
-0.0045570587 0.00049111113 -0.00355
-0.0055282353 -0.00049111113 -0.001375
0.0031376469 0.00079333334 -0.0037
0.005677647 3.7777776e-05 -0.001
0.0048558824 -0.0014733333 -0.00085000001
-0.0032870588 -0.00056666665 0.00034999999
0.0032870588 0.00071777776 -0.0036249999
0.0017929411 0.0017 -0.00039999999
0.0041088234 -0.0017 -0.00047500001
0.00037352939 0.00079333334 0.0017
0.0011205882 0.0017 -0.00025000001
0.0059017646 0.00049111113 0.001025
0.002465294 0.00079333334 -2.4999999e-05
-0.0040341173 -0.00064222224 -2.4999999e-05
-0.0056029409 0.0017 -0.00062499999
-0.0008217647 0.00064222224 0.002075
-0.0008217647 0.00071777776 -0.0027999999
-0.00037352939 -0.00064222224 -0.00145
-0.00067235291 -0.00056666665 0.002075
0.0020170587 -0.00086888886 0.00125
-0.0026894116 -0.0017 -0.00039999999
0.0032123527 -0.00094444444 -0.003175
-0.0055282353 -0.00034 -0.00025000001
-0.0054535293 3.7777776e-05 -0.00025000001
-0.0020170587 -0.00064222224 -0.0022
-0.0022411763 0.00086888886 -0.001
-0.0048558824 -0.0017 -0.00047500001
0.0054535293 0.0016244445 -9.9999997e-05
-0.0030629411 -0.00041555555 0.00087500003
0.0051547056 -0.0014733333 -0.00017499999
-0.0051547056 -0.00094444444 -0.00085000001
-0.005005294 0.00079333334 -2.4999999e-05
-0.00014941176 -0.00026444445 -0.001
0.00059764704 -0.0010955556 -0.00025000001
0.0044076471 -0.00056666665 -0.002725
0.0021664705 -0.00041555555 -0.00145
-0.0017182352 -0.00094444444 -0.001
-0.0055282353 -0.00079333334 -0.0029500001
0.00029882352 -0.0017 -0.00039999999
0.0011952941 0.00079333334 -2.4999999e-05
0.00074705877 -0.00086888886 -0.0029500001
0.0044076471 -0.00064222224 -0.0024999999
-0.00052294118 -0.0017 -0.000925
-0.0019423529 0.00049111113 -0.00355
-0.0008217647 -0.00056666665 -0.0019749999
0.0051547056 0.0010955556 -0.00025000001
0.0029882351 -0.00056666665 0.00079999998
-0.0017182352 -0.00086888886 -0.00017499999
-0.0035858823 0.0017 -0.00069999998
0.001867647 0.0013222222 -0.00017499999
0.0033617646 0.00049111113 0.001625
-0.004332941 0.00071777776 0.00125
0.00254 -0.00064222224 -0.001
0.0031376469 -0.00041555555 -0.0013
0.0060511762 0.00064222224 -0.001
-0.0020170587 -0.00071777776 0.00079999998
-0.0028388235 -0.00064222224 -2.4999999e-05
0.0008217647 -0.00086888886 -2.4999999e-05
0.0020170587 -0.00086888886 0.00050000002
0.0008217647 0.00086888886 -0.001
0.0019423529 0.0013222222 -0.001
-0.0060511762 0.00011333334 -0.001
0.0059764702 0.00049111113 -2.4999999e-05
-0.0047811763 0.00102 -0.000925
0.0016435294 0.00079333334 0.00012500001
-0.0041088234 -0.00086888886 -2.4999999e-05
0.0034364704 -0.00064222224 -0.0032500001
0.0032870588 -0.0017 -0.00017499999
0.0029882351 -0.0013977778 -0.00085000001
-0.0022411763 0.0017 -0.00017499999
0.0053788233 -0.00071777776 -2.4999999e-05
-0.0031376469 -0.00049111113 0.001625
-0.004332941 -0.0011711111 -0.001
0.0044823526 -0.00086888886 0.001325
0.00097117643 -0.0017 -0.00039999999
-0.0032870588 0.00049111113 -0.003175
-0.0041835294 -0.00056666665 0.00079999998
-0.00059764704 0.00079333334 0.00019999999
-0.00127 0.00034 -0.001
0.0020170587 0.00049111113 -0.0022
0.0037352941 -0.00034 -0.000925
-0.0019423529 0.00018888889 -0.00025000001
-0.0029882351 -0.00056666665 -0.001375
0.002465294 -0.00041555555 -9.9999997e-05
-0.0032123527 -0.00056666665 0.0020000001
-0.0021664705 0.00049111113 -0.001525
-0.0041835294 -0.00064222224 -0.001075
-0.0059017646 -0.00049111113 -0.0016749999
-0.0054535293 -0.00018888889 -0.00025000001
0.0017182352 0.00049111113 0.001325
0.00074705877 0.00018888889 -0.00025000001
0.00067235291 0.00064222224 -0.0037
0.0032870588 0.00079333334 -0.003175
0.0034364704 0.00071777776 -0.000925
-0.004332941 0.00049111113 -0.003025
0.001867647 0.00056666665 -0.0037
-0.0029882351 -0.00079333334 0.000275
-0.00014941176 -0.00086888886 -9.9999997e-05
-0.004332941 0.00049111113 -0.00235
-0.0046317647 0.00064222224 0.000275
-0.001867647 -0.00049111113 -0.0034
0.0019423529 0.00079333334 0.001325
-8.6736174e-19 -0.00049111113 -0.001
-0.00067235291 -0.00049111113 0.00065
0.004258235 0.00079333334 -0.0033249999
-0.004332941 0.00071777776 0.000275
-0.0011205882 -0.0013977778 -0.00017499999
-0.0020170587 -0.00102 -0.001
-0.0040341173 0.00026444445 -0.00025000001
-0.00022411764 -0.00102 -0.001
-0.0046317647 -0.00041555555 0.00019999999
0.005677647 0.00049111113 0.00065
-0.0020170587 0.00049111113 -0.00145
0.0023905882 0.00041555555 -0.00025000001
-0.00254 -0.0012466667 -0.001
0.0029135293 -0.0015488889 -0.00017499999
0.004332941 0.00049111113 0.00125
-0.00022411764 -0.0010955556 -0.00025000001
-0.00508 -0.00041555555 -0.00017499999
0.0021664705 0.00049111113 -0.0029500001
-0.0032870588 -0.00041555555 0.00125
-0.0008217647 0.00071777776 -0.0021250001
-0.0044823526 -0.00034 -0.00025000001
-0.0017182352 -0.00049111113 -0.0026499999
0.00254 -0.0013977778 -0.000925
0.0016435294 0.00056666665 0.00185
0.0016435294 0.00079333334 0.00019999999
0.00059764704 0.00064222224 0.0021500001
-0.0053041177 -0.00034 -0.00025000001
-0.0062752939 -0.0012466667 -0.000325
-0.0044823526 -0.00102 -0.00025000001
-0.0029135293 0.0017 -0.00017499999
0.00059764704 -0.0017 -0.000325
0.00052294118 -0.00064222224 0.00072499999
-0.0045570587 0.00079333334 0.00034999999
-0.0038847057 0.0011711111 -0.00025000001
0.0054535293 0.00079333334 -0.001225
-0.00067235291 0.00056666665 0.0021500001
0.0029882351 -0.00056666665 0.0011
0.001867647 -0.00041555555 0.00057500001
0.0032123527 -0.0011711111 -0.00025000001
-0.00044823528 0.0013222222 -0.00017499999
-0.0016435294 -0.00049111113 0.00079999998
0.0052294116 -0.00056666665 -0.001
-0.0029882351 0.00094444444 -0.00025000001
-0.004332941 0.00056666665 -0.002725
-0.0053788233 0.0017 -0.00062499999
-0.0021664705 -0.00049111113 -0.00205
-0.0055282353 -0.00049111113 0.00072499999
-0.0062752939 -0.00034 -0.00025000001
-0.0046317647 -0.00071777776 0.00065
0.0008217647 -0.00064222224 -0.0016
-0.00044823528 -0.00079333334 -0.0037750001
0.00037352939 0.00064222224 -0.00205
0.00097117643 0.0017 -0.000925
0.005005294 0.00064222224 -0.001
0.0014194117 -0.00086888886 -0.001
-0.0019423529 -0.00086888886 -0.001825
-0.0045570587 0.0017 -0.00039999999
0.0053041177 0.00086888886 -0.001
0.0031376469 -0.00086888886 0.00125
0.0032870588 0.00079333334 -0.002725
0.0026147058 -0.0017 -0.00017499999
0.001867647 0.00079333334 0.00057500001
0.001867647 -0.00079333334 -0.002725
-0.00074705877 -0.00041555555 0.00012500001
-0.0059017646 -0.00071777776 -0.002725
0.0032870588 0.0016244445 -0.00085000001
-0.001867647 -0.00086888886 0.00050000002
0.0030629411 0.0017 -2.4999999e-05
-0.0058270586 -0.00079333334 -0.003025
0.0026147058 -0.00018888889 -0.00025000001
0.0055282353 0.00064222224 -0.0019
0.0017182352 0.0017 -0.00085000001
-0.0057523525 -0.00079333334 -0.001375
-0.0031376469 0.00079333334 -0.001525
-0.00097117643 0.00056666665 -2.4999999e-05
0.0035111764 0.00102 -0.00025000001
0.0008217647 0.00049111113 0.00079999998
-0.0045570587 -0.00086888886 -0.0033249999
-0.005677647 0.00049111113 -0.0013
-0.0032123527 0.00049111113 0.000275
0.0031376469 0.00079333334 0.00125
-0.0031376469 0.00049111113 0.00042500001
0.0033617646 0.00049111113 0.0014
-0.0026894116 -0.00041555555 -9.9999997e-05
0.0044823526 -0.00049111113 0.00034999999
-0.00014941176 0.00094444444 -0.00025000001
-0.0052294116 0.0013222222 -0.00085000001
0.00067235291 0.00049111113 0.00155
0.005005294 0.0017 -0.00062499999
-0.0032870588 -0.0015488889 -2.4999999e-05
0.0035111764 0.00079333334 -9.9999997e-05
0.0031376469 -0.00079333334 -0.003025
0.0020170587 -0.00041555555 0.00155
0.0035111764 0.0013977778 -0.00085000001
0.0017929411 -0.00056666665 -0.001525
0.0063499999 0.00086888886 -0.00047500001
0.0052294116 0.0017 -0.00062499999
-0.004258235 0.00056666665 -0.001075
0.0017929411 0.00079333334 -0.0031000001
-0.005677647 -0.00086888886 0.001025
0.0034364704 -0.00041555555 0.00019999999
0.0058270586 -0.00049111113 0.0011
0.0046317647 0.00049111113 -0.00205
-0.0030629411 -3.7777776e-05 -0.001
-0.0030629411 -0.00086888886 -0.001225
0.005677647 -0.00064222224 -0.0032500001
-0.0008217647 0.0010955556 -0.001
-0.0041835294 -0.00064222224 -0.00145
0.0032870588 0.00049111113 -0.0022
-0.001867647 0.00049111113 -0.0027999999
-0.0020917647 -0.00071777776 -0.002875
0.0046317647 -0.00071777776 0.0011
0.004930588 -0.00011333334 -0.00025000001
-0.0011205882 -0.00056666665 -0.001
-0.0044076471 0.00049111113 0.0014
0.0031376469 0.00079333334 -0.00205
-0.00052294118 -0.00041555555 -0.0013
-0.001867647 0.00079333334 -2.4999999e-05
-0.004332941 -0.00086888886 -0.00205
0.0032123527 -0.0016244445 -0.00017499999
-0.0008217647 -0.00064222224 -0.002875
-0.0059017646 0.00094444444 -0.00085000001
0.00052294118 -0.00071777776 -0.003175
-0.0045570587 -0.00086888886 0.00057500001
0.00074705877 -0.0011711111 -0.00025000001
0.0044823526 -0.00049111113 0.001175
-0.0030629411 -0.00041555555 -0.0016
0.0020917647 0.0016244445 -0.000925
0.0030629411 -0.00041555555 0.001175
-0.00014941176 0.0013222222 -0.00017499999
0.00059764704 -0.00049111113 -0.0019749999
0.0029882351 0.00079333334 0.001775
0.0029135293 0.00064222224 -0.00115
-0.00052294118 0.00079333334 -0.001
0.0035858823 -0.00079333334 -2.4999999e-05
0.00044823528 0.00049111113 0.00042500001
0.001867647 0.00049111113 -0.0024999999
-0.0048558824 0.00049111113 -0.001
0.0051547056 0.0017 -0.00047500001
0.0016435294 0.00056666665 -0.003025
0.0058270586 0.00079333334 -0.0034
-0.0034364704 0.0015488889 -0.00017499999
-0.0011205882 0.0017 -0.000325
-0.005677647 0.00049111113 -0.003175
-0.00044823528 0.00049111113 -0.0013
-0.0054535293 -0.0017 -0.00025000001
-0.0059764702 -0.00102 -0.00085000001
0.0036605881 -0.00071777776 -0.001
-0.0022411763 0.00018888889 -0.001
-0.00037352939 -0.00079333334 0.00087500003
0.0036605881 0.00034 -0.000925
-0.00089647056 -0.00026444445 -0.00025000001
0.0053788233 0.0013977778 -0.000925
0.0037352941 0.0017 -0.00025000001
0.00029882352 0.0017 -0.000925
0.0033617646 -0.00079333334 0.00125
0.00044823528 -0.00041555555 -0.00017499999
-0.0045570587 -0.00079333334 -0.0016749999
-0.00037352939 -0.00049111113 -0.001225
-0.0058270586 0.00071777776 0.00072499999
-0.0026147058 -0.0013977778 -0.00017499999
0.00037352939 0.0017 -2.4999999e-05
0.004332941 0.00064222224 0.0020000001
-0.0044823526 -0.00049111113 0.000275
0.0058270586 0.00071777776 -0.0036249999
-0.0053788233 0.00094444444 -0.00025000001
0.0058270586 -0.00071777776 -0.002575
-0.0034364704 3.7777776e-05 -0.001
0.0035858823 -0.00034 -0.001
-0.0058270586 -0.0017 -0.00055
0.0031376469 -0.00079333334 -0.0033249999
-0.0026894116 -0.00026444445 -0.00025000001
0.00052294118 -0.00056666665 0.00095000002
-0.0046317647 -0.00041555555 -0.001375
-0.0046317647 -0.00064222224 -0.00145
-0.0010458824 0.0017 -0.000325
0.0015688235 0.0017 -0.00017499999
-0.00037352939 -0.00049111113 -0.0033249999
0.0054535293 0.00064222224 -0.0034
0.0046317647 -0.00064222224 -0.002575
-0.0011952941 0.0017 -0.00047500001
-0.0046317647 0.00018888889 -0.001
0.0032870588 0.00079333334 -0.0019
-0.0045570587 -0.0017 -0.00069999998
-0.0061258823 0.00041555555 -0.00085000001
-0.0059017646 -0.00049111113 0.00034999999
-0.00014941176 -0.00041555555 -0.001
0.0008217647 0.00049111113 -0.001825
0.0035111764 0.00079333334 -0.00085000001
-0.0008217647 0.00064222224 0.0020000001
0.0045570587 -0.0017 -0.00085000001
-0.0045570587 0.0014733333 -0.00017499999
0.0032123527 0.00049111113 -0.002575
0.00052294118 0.0017 -0.000925
0.0008217647 0.00049111113 0.00125
-0.005677647 0.00064222224 -0.0016749999
0.00022411764 -0.0017 -0.00025000001
-0.005677647 -0.00086888886 -0.0019
-0.0030629411 0.0011711111 -0.001
0.0063499999 -0.00041555555 -9.9999997e-05
0.0023905882 0.00071777776 -2.4999999e-05
0.0032123527 0.00049111113 -0.0019749999
0.0017182352 -0.0014733333 -9.9999997e-05
0.0046317647 -0.00049111113 0.00087500003
-0.0020917647 -0.00056666665 0.00019999999
0.0020917647 -0.00056666665 -0.001225
-0.0033617646 -0.00049111113 -0.0021250001
-0.0056029409 0.00056666665 0.001025
-0.0017929411 -0.00049111113 0.0017
-0.0011205882 -0.0017 -0.00062499999
-0.0027641177 0.0014733333 -0.000925
-0.0028388235 0.0011711111 -0.00025000001
-0.0017929411 -0.00026444445 -0.001
-0.0016435294 -0.00049111113 0.001925
-0.0020170587 0.00079333334 -0.0033249999
-0.0032870588 -0.00064222224 0.001325
0.0032870588 -0.0012466667 -0.001
-0.00059764704 0.00049111113 -0.001825
0.0020170587 -0.00086888886 -0.003175
0.0022411763 -0.00086888886 -2.4999999e-05
0.0048558824 -0.0017 -0.00017499999
-0.00029882352 -0.0011711111 -0.00025000001
0.0038847057 0.00079333334 -2.4999999e-05
0.0026894116 -0.00094444444 -0.001
0.0045570587 0.00049111113 0.00155
0.0041835294 0.00056666665 -0.0027999999
0.0047064703 -0.00041555555 -0.00017499999
-0.0044076471 -0.00041555555 -0.0019
-0.0044076471 -0.00049111113 -0.0026499999
-0.005677647 0.00049111113 0.001925
-0.00029882352 0.00102 -0.00025000001
-0.0011952941 0.0013222222 -0.001
0.0059764702 0.00056666665 -2.4999999e-05
-0.0044823526 -0.00049111113 -0.0024999999
-0.0011952941 0.00041555555 -0.00025000001
0.0033617646 -0.0016244445 -0.00085000001
0.0011952941 0.0017 -0.00062499999
0.0031376469 -0.00094444444 0.0011
0.0023158824 0.00094444444 -0.00017499999
-0.0040341173 -0.0017 -0.00025000001
0.00037352939 0.00071777776 -0.0031000001
-0.0063499999 -3.7777776e-05 -0.00085000001
0.0013447058 -0.0015488889 -2.4999999e-05
0.001867647 0.00079333334 -0.0031000001
0.0033617646 -0.00071777776 0.00079999998
0.00052294118 -0.00056666665 0.00042500001
-0.0058270586 -0.00079333334 -0.002875
-0.00052294118 0.0017 -0.00039999999
-0.0041835294 -0.00064222224 -0.0032500001
0.0014941175 -0.00079333334 -2.4999999e-05
0.0032870588 0.0013977778 -0.000925
0.00074705877 0.0014733333 -9.9999997e-05
-0.00067235291 -0.00086888886 -0.002875
0.0020170587 -3.7777776e-05 -0.00025000001
0.0010458824 -0.00086888886 -0.001
0.0008217647 -0.0013222222 -0.00017499999
0.0046317647 -0.00056666665 -0.002575
0.0019423529 -0.00018888889 -0.00025000001
0.0044076471 -0.00056666665 -0.0022
0.0020170587 -0.00041555555 -0.001075
-0.0008217647 0.00049111113 0.001775
-0.00067235291 -0.00086888886 0.00125
-0.0054535293 -0.00064222224 0.00087500003
0.0048558824 -0.00026444445 -0.001
0.0063499999 0.00026444445 -0.00047500001
-0.0011205882 0.00071777776 -2.4999999e-05
-0.0029135293 -0.00049111113 4.9999999e-05
0.0016435294 0.00071777776 -0.001225
-0.0040341173 0.0017 -0.00085000001
-0.0059017646 -0.00071777776 0.001775
-0.0040341173 0.00102 -0.000925
-0.0057523525 0.00049111113 -0.0036249999
-0.0031376469 0.00064222224 -0.0013
0.00037352939 0.00079333334 -0.0024250001
0.0045570587 0.00079333334 0.001175
0.0062752939 0.0013977778 -0.00069999998
-0.00037352939 -0.00056666665 -0.0013
-0.0046317647 -0.00056666665 -0.00235
0.0038847057 -0.00041555555 -0.00017499999
-0.0031376469 0.00079333334 -9.9999997e-05
0.0035111764 0.0010955556 -0.000925
-0.004332941 -0.00049111113 0.0020000001
-0.00254 3.7777776e-05 -0.00085000001
-0.0016435294 -0.00056666665 -0.001825
0.0063499999 -0.00026444445 -0.000325
-0.0022411763 0.00011333334 -0.00025000001
0.0045570587 -0.00064222224 -0.0037
0.0035111764 0.00049111113 -9.9999997e-05
0.0033617646 0.00049111113 0.00087500003
-0.0008217647 -0.00049111113 0.0011
-0.00074705877 0.00079333334 -0.00235
-0.0028388235 0.0015488889 -0.000925
-0.0014941175 -0.00011333334 -0.00025000001
-0.0033617646 -0.00041555555 -2.4999999e-05
-0.0057523525 0.00071777776 0.00057500001
0.00052294118 0.00011333334 -0.00025000001
0.0057523525 -0.00041555555 4.9999999e-05
0.0030629411 -0.00102 -0.00025000001
0.0019423529 0.0012466667 -0.00025000001
-0.00029882352 -0.0017 -0.00039999999
0.00059764704 -0.0017 -0.00039999999
-0.0031376469 0.00079333334 -0.0024999999
-0.0063499999 -3.7777776e-05 -0.00047500001
0.0055282353 -0.00064222224 4.9999999e-05
-0.00127 0.00102 -0.00025000001
-0.0045570587 -0.00049111113 -0.0034749999
0.0059017646 -0.00056666665 0.00050000002
-0.00044823528 0.00086888886 -0.000925
-0.0020170587 0.00049111113 -0.0037
-0.004930588 3.7777776e-05 -0.00025000001
0.0023905882 0.0015488889 -2.4999999e-05
0.0017182352 0.00071777776 -0.0024250001
0.0023158824 -3.7777776e-05 -0.001
-0.0029882351 -0.00049111113 0.00050000002
0.0019423529 -0.00086888886 0.001175
-0.0047064703 -0.00086888886 -2.4999999e-05
0.0008217647 -0.00049111113 -0.0026499999
0.00059764704 0.00049111113 0.00087500003
-0.0046317647 -0.00056666665 0.001625
-0.0029882351 -0.00071777776 -0.0013
0.0047811763 0.0012466667 -0.00085000001
0.0015688235 -0.00041555555 -9.9999997e-05
-0.00014941176 0.0011711111 -0.001
-0.0020917647 -0.0014733333 -9.9999997e-05
-0.0019423529 -0.00049111113 -0.0019
-0.0029882351 -0.00064222224 0.00125
