# .PCD v0.7 - Point Cloud Data file format
VERSION 0.7
FIELDS x y z
SIZE 4 4 4
TYPE F F F
COUNT 1 1 1
WIDTH 1161
HEIGHT 1
VIEWPOINT 0 0 0 1 0 0 0
POINTS 1161
DATA ascii
-0.0044132373 -0.0040826923 -0.00027439024
0.0036673381 -0.0038352562 0.0027051219
0.00080805755 0.0018557692 -0.00027439024
0.0061536692 -0.0048249997 -0.0010192683
0.0018025899 0.0016083333 -0.0066058538
0.004537554 -0.0023506409 -0.0066058538
-0.0065266187 -0.0022269229 -0.0001502439
0.0042889207 0.0023506409 -0.0001502439
0.0086399997 -0.0028455127 -0.0058609755
-0.008515683 -0.0047012819 -0.0030056098
0.0054077697 -0.0048249997 -0.0053643901
-0.00055942446 0.0038352562 -2.6097561e-05
0.0039159711 0.003958974 0.0020843903
0.0014296402 -0.0038352562 0.00084292685
0.0086399997 -0.0028455127 -0.0033780488
0.005283453 0.00061858969 -0.0066058538
0.0044132373 -0.0048249997 -0.00089512195
-0.0055320864 0.00024743588 -0.0066058538
-0.0051591368 -0.0048249997 -0.005612683
-0.007769784 0.00086602563 -0.0066058538
0.0072725178 0.0021032051 -0.0066058538
0.0057807192 0.0022269229 -0.0066058538
-0.0086399997 -0.00074230769 -0.0059851222
-0.0086399997 -0.0042064101 -0.002384878
-0.0080184173 0.0047012819 -0.0030056098
-0.0025484893 -0.00049487175 -0.0066058538
-0.004537554 -0.0048249997 -0.0022607318
0.0024241726 -0.0025980768 -0.0066058538
-0.0039159711 -0.0048249997 -0.0035021952
-0.008515683 -0.0018557692 -0.002384878
-0.007769784 -0.0048249997 -0.0046195122
-0.0054077697 -0.0028455127 -0.0001502439
0.0036673381 0.003958974 0.0025809756
-0.000683741 -0.00012371794 -0.00052268291
-0.0024241726 -0.0048249997 -0.004495366
-0.004537554 -0.0048249997 -0.0017641464
0.0025484893 0.003958974 -0.0066058538
-0.0065266187 0.0045775641 -0.00064682926
0.0049105035 0.004330128 -0.0066058538
0.0037916547 0.00024743588 -0.0066058538
-0.0040402878 0.0048249997 -0.0007709756
0.0060293525 -0.0030929486 -0.0066058538
-0.0068995683 -0.0021032051 -0.0001502439
0.0064023021 -0.0048249997 -0.0036263415
0.0086399997 -0.0017320513 -0.0011434146
0.0062779854 0.0037115384 0.0020843903
-0.0026728057 0.0048249997 -0.0041229269
-0.0065266187 -0.0032166666 -0.00052268291
-0.0035430216 0.0044538458 -0.00052268291
0.0016782733 0.00098974351 -0.00052268291
-0.0080184173 0.0045775641 -0.0063575609
0.003418705 -0.0021032051 -0.0001502439
-0.0086399997 0.0028455127 -0.00064682926
-0.0037916547 -0.0029692308 -0.0066058538
0.008515683 -0.0045775641 -0.0026331707
-0.0066509354 -0.0048249997 -0.0013917073
0.0026728057 0.0048249997 -0.0013917073
-0.0037916547 -0.0033403845 -0.0066058538
-0.0086399997 0.0038352562 -0.0035021952
0.0078941006 0.00012371794 -0.00052268291
-0.0075211511 0.001979487 -0.0066058538
-0.0073968344 0.0018557692 -0.0001502439
-0.0060293525 -0.0048249997 -0.0022607318
0.0060293525 0.0037115384 -0.0066058538
0.0083913673 0.0017320513 -0.0064817071
0.0086399997 -0.0024743588 -0.0028814634
0.00043510791 0.00074230769 -0.00052268291
0.0050348202 0.0040826923 -0.00027439024
0.0027971223 0.0048249997 -0.004495366
-0.0031700719 -0.0048249997 -0.0057368292
-0.005283453 -0.0038352562 -0.0001502439
0.0020512231 8.6736174e-19 -0.0066058538
0.0061536692 -0.0048249997 -0.0027573172
-0.0082670506 -0.00012371794 -0.0022607318
0.0029214388 0.0048249997 -0.0033780488
-0.0078941006 0.0047012819 -0.00089512195
0.00043510791 0.004330128 -0.00052268291
-6.2158273e-05 0.0037115384 -2.6097561e-05
-0.0072725178 0.0023506409 -2.6097561e-05
-0.00080805755 -0.00086602563 -0.00052268291
-0.008515683 -0.0018557692 -0.0026331707
0.0080184173 -0.0024743588 -0.0066058538
0.0061536692 -0.0048249997 -0.0026331707
0.0060293525 -0.0042064101 -0.0063575609
0.0013053237 0.0037115384 0.00034634146
-0.0086399997 -0.0033403845 -0.0033780488
-0.0039159711 -0.00074230769 -0.00052268291
0.0032943885 0.0048249997 -0.0007709756
0.0059050359 0.0042064101 -0.0066058538
-0.0054077697 0.00012371794 -0.0066058538
-0.0070238849 0.0040826923 -0.00064682926
0.0024241726 0.0048249997 -0.0064817071
-0.0057807192 0.0045775641 -0.0064817071
0.0086399997 -0.004330128 -0.0022607318
0.00031079137 0.0048249997 -0.0027573172
-0.0024241726 0.0034641025 -0.00052268291
0.0022998562 0.0048249997 -0.005612683
0.0032943885 0.0048249997 -0.0042470731
0.0026728057 -0.0048249997 -0.0037504877
0.0086399997 0.0037115384 -0.0049919514
-0.00031079137 -0.0048249997 -0.0033780488
0.0082670506 0.00012371794 -0.0032539025
0.0083913673 0.00086602563 -0.0054885368
0.0061536692 0.0047012819 -0.0066058538
-0.0016782733 -0.0032166666 -0.00052268291
-0.0064023021 -0.00049487175 -0.0066058538
0.0030457554 0.0048249997 -0.005612683
-0.004537554 0.0025980768 -0.0001502439
-0.0083913673 -0.00037115384 -0.0035021952
0.0086399997 -0.0024743588 -0.0013917073
0.0059050359 0.0048249997 -0.0042470731
0.008515683 0.00024743588 -0.00052268291
-0.0026728057 0.0048249997 -0.0063575609
-0.0086399997 -0.0024743588 -0.0048678047
0.0031700719 0.0038352562 -0.0066058538
0.0055320864 0.0048249997 -0.002384878
0.0047861869 0.0048249997 -0.0061092684
-0.0086399997 0.0044538458 -0.0007709756
-0.0022998562 0.0040826923 -2.6097561e-05
-0.0086399997 -0.004330128 -0.0058609755
-0.0013053237 0.0048249997 -0.0047436585
-0.0032943885 0.0048249997 -0.0043712193
0.00018647482 0.00024743588 -0.00052268291
-0.0065266187 0.0048249997 -0.0048678047
-0.0066509354 0.0045775641 -0.0064817071
-0.0013053237 -0.0048249997 -0.0021365853
-0.0083913673 0.00037115384 -0.0038746342
0.0062779854 -0.00098974351 -0.0066058538
-0.0015539568 -0.0048249997 -0.0013917073
-0.0020512231 -0.00098974351 -0.00052268291
-0.0086399997 -0.0027217946 -0.0064817071
-0.0086399997 -0.0033403845 -0.0026331707
-0.0082670506 0.00012371794 -0.0058609755
0.0050348202 0.003958974 -0.0066058538
0.0022998562 0.0044538458 -0.00052268291
0.0068995683 0.003958974 -0.0066058538
-0.0071482016 0.0048249997 -0.00164
-0.0086399997 -0.0038352562 -0.0042470731
0.0086399997 -0.0013608973 -0.0063575609
0.0010566906 -0.0014846154 -0.00052268291
0.0020512231 0.0042064101 -0.00052268291
-0.0030457554 -0.0048249997 -0.00052268291
-0.0021755395 -0.0048249997 -0.0032539025
0.0029214388 -0.0022269229 -0.0066058538
-0.0075211511 -0.00012371794 -0.00052268291
0.008515683 -0.001979487 -0.0015158537
0.0009323741 -0.001979487 -0.0001502439
-0.00031079137 0.0048249997 -0.0027573172
-0.0067752516 0.0018557692 -0.0001502439
-0.0086399997 0.00049487175 -0.00052268291
-0.0035430216 0.0028455127 -0.0066058538
0.0032943885 0.00098974351 -0.0066058538
-0.0031700719 0.0048249997 -0.00064682926
0.0072725178 -0.0047012819 -0.0018882927
-0.0035430216 8.6736174e-19 -0.00052268291
-0.0075211511 0.0017320513 -0.0066058538
-0.0046618707 -0.00061858969 -0.0066058538
-0.0025484893 0.0034641025 -0.00052268291
-0.0010566906 0.0048249997 -0.0021365853
-0.0010566906 0.0014846154 -0.0066058538
-0.0057807192 -0.0048249997 -0.00089512195
0.0073968344 -0.0018557692 -2.6097561e-05
0.0019269064 -0.0048249997 -0.0015158537
0.00018647482 0.00086602563 -0.00052268291
0.0032943885 -0.0021032051 -0.0066058538
-0.0018025899 0.0018557692 -0.0066058538
0.007769784 -0.0047012819 -0.0011434146
-0.0081427339 0.0047012819 -0.0043712193
-0.0036673381 0.0048249997 -0.0022607318
0.005656403 -0.00024743588 -0.00052268291
-0.0086399997 -0.0029692308 -0.0038746342
0.00080805755 -0.0048249997 -0.00052268291
0.0016782733 -0.0048249997 -0.0051160976
0.0051591368 0.004330128 -0.0066058538
-0.0083913673 0.00012371794 -0.0052402439
0.0067752516 0.0017320513 -0.00027439024
0.0062779854 -0.0048249997 -0.0035021952
-0.000683741 0.0012371794 -0.00052268291
0.0068995683 -0.0025980768 -0.0066058538
0.008515683 0.0018557692 -0.0027573172
-0.0018025899 -0.0042064101 -0.00052268291
0.0013053237 -0.0030929486 -0.0066058538
0.0080184173 -0.00061858969 -0.0066058538
0.0086399997 -0.00074230769 -0.00089512195
-0.00043510791 0.0037115384 -2.6097561e-05
0.0086399997 -0.0024743588 -0.0041229269
-0.00043510791 -0.00024743588 -0.0066058538
0.0031700719 0.0035878203 -0.00027439024
0.0062779854 -0.0011134614 -0.0066058538
-0.0083913673 0.0012371794 -0.0030056098
0.0083913673 0.0011134614 -0.0030056098
0.0057807192 0.0048249997 -0.0032539025
0.0013053237 0.0037115384 0.0029534146
-0.0083913673 -0.00086602563 -0.0031297561
-0.0064023021 0.001979487 -0.0001502439
0.00055942446 0.0048249997 -0.00164
0.0031700719 0.0013608973 -0.00052268291
-0.0086399997 -0.0037115384 -0.0047436585
-0.003418705 -0.0048249997 -0.0064817071
0.0021755395 -0.00098974351 -0.00052268291
-0.0086399997 -0.0025980768 -0.0038746342
0.0070238849 8.6736174e-19 -0.00052268291
-0.0025484893 0.0018557692 -0.0066058538
-0.00080805755 -0.0035878203 -0.00027439024
0.0051591368 -0.0013608973 -0.00052268291
-0.0076454678 -0.0048249997 -0.001267561
6.2158273e-05 -0.00086602563 -0.0066058538
0.0035430216 0.0045775641 -0.00052268291
-0.0086399997 0.00086602563 -0.0036263415
-0.0065266187 0.0012371794 -0.0066058538
0.0016782733 -0.0033403845 -0.0066058538
0.0014296402 -0.0034641025 -0.00052268291
-0.0054077697 -0.0048249997 -0.0036263415
-0.0014296402 0.0040826923 -0.0064817071
-0.0042889207 -0.001979487 -0.0066058538
-0.0078941006 0.0033403845 -0.0066058538
-0.0037916547 0.0048249997 -0.0048678047
-0.004537554 0.0022269229 -0.0001502439
0.007769784 -0.001979487 -2.6097561e-05
-0.0049105035 0.0038352562 -0.0001502439
0.0029214388 -0.0035878203 -0.0001502439
0.0086399997 0.0044538458 -0.00164
-0.00055942446 0.0048249997 -0.0011434146
-0.0026728057 -0.00098974351 -0.00052268291
-0.0047861869 0.0048249997 -0.002384878
-0.0010566906 0.0048249997 -0.0049919514
-0.0035430216 -0.0048249997 -0.0018882927
-0.0019269064 0.0048249997 -0.0035021952
-0.0083913673 0.0040826923 -0.00064682926
-0.0061536692 0.0048249997 -0.0058609755
0.0037916547 0.0048249997 -0.0053643901
0.0060293525 0.0048249997 -0.001267561
-0.00031079137 0.0014846154 -0.00052268291
-0.0050348202 -0.0048249997 -0.004495366
-6.2158273e-05 -0.0018557692 -0.00027439024
0.0030457554 -0.00012371794 -0.00052268291
0.0030457554 -0.00074230769 -0.0066058538
0.0066509354 0.0023506409 -0.0066058538
0.0054077697 0.0048249997 -0.0047436585
-0.0062779854 0.0027217946 -0.0001502439
0.008515683 -0.00098974351 -0.0011434146
0.0083913673 -0.00037115384 -0.001267561
0.0015539568 0.0040826923 -0.00027439024
0.0016782733 -0.0035878203 -0.00039853659
-0.0072725178 0.0048249997 -0.0033780488
0.0083913673 0.00098974351 -0.005612683
0.0044132373 0.0048249997 -0.0054885368
-0.0086399997 0.0035878203 -0.0035021952
-0.0013053237 0.0037115384 0.0007187805
0.00043510791 0.0048249997 -0.0048678047
0.0044132373 0.0045775641 -0.00052268291
-0.005283453 -0.0048249997 -0.0027573172
0.000683741 -0.0016083333 -0.0066058538
0.0062779854 0.0048249997 -0.0020124391
-0.0036673381 0.003958974 0.00059463416
-0.0037916547 0.0040826923 -0.0001502439
-0.00018647482 0.0037115384 -2.6097561e-05
0.0064023021 0.0048249997 -0.0033780488
-0.0014296402 0.0038352562 0.0029534146
-0.0042889207 -0.0014846154 -0.0066058538
0.0041646045 0.0042064101 -0.00052268291
-0.0031700719 0.0017320513 -0.00039853659
-0.0013053237 -0.0038352562 0.0025809756
-0.0068995683 0.0048249997 -0.0059851222
-0.0030457554 -0.0034641025 -0.00052268291
0.0055320864 -0.00024743588 -0.00052268291
0.0060293525 0.0048249997 -0.0017641464
0.0014296402 -0.003958974 0.0007187805
0.0086399997 -0.003958974 -0.0013917073
0.005283453 -0.00037115384 -0.00052268291
-0.0068995683 -0.0048249997 -0.0051160976
0.0071482016 -0.0035878203 -0.00039853659
0.0064023021 -0.0048249997 -0.0061092684
-0.0086399997 0.003958974 -0.0020124391
0.0068995683 0.0029692308 -0.00027439024
0.0070238849 -0.00061858969 -0.00052268291
-0.0082670506 -0.0047012819 -0.0031297561
-0.0047861869 0.0048249997 -0.0037504877
0.004537554 -0.0048249997 -0.0018882927
-0.0061536692 0.0037115384 0.002332683
-0.00055942446 0.0048249997 -0.0039987806
-0.00043510791 0.0016083333 -0.0066058538
-0.0055320864 -0.0011134614 -0.0066058538
-0.0039159711 0.0027217946 -0.0001502439
-0.0075211511 0.0025980768 -2.6097561e-05
0.0021755395 -0.0048249997 -0.0061092684
-0.0086399997 0.0025980768 -0.0041229269
0.0054077697 0.0044538458 -0.0066058538
0.0064023021 -0.00061858969 -0.00052268291
-0.0046618707 0.004330128 -0.00052268291
0.0086399997 -0.0035878203 -0.0033780488
0.0066509354 -0.0037115384 -0.00039853659
0.00055942446 -0.0048249997 -0.0035021952
0.0065266187 0.0037115384 9.8048782e-05
-0.0070238849 -0.0048249997 -0.0061092684
0.0083913673 -0.0037115384 -0.00064682926
0.0011810071 0.0033403845 -0.0066058538
0.0013053237 0.0037115384 0.003077561
-0.0009323741 0.0024743588 -0.0066058538
0.0066509354 0.003958974 -0.00052268291
6.2158273e-05 -0.0037115384 -2.6097561e-05
-0.0076454678 0.0023506409 -0.0066058538
-0.0039159711 -0.003958974 -0.0001502439
-0.0067752516 -0.00049487175 -0.00052268291
-0.0086399997 0.0027217946 -0.0052402439
0.0035430216 0.0038352562 9.8048782e-05
0.0082670506 0.00037115384 -0.0028814634
0.0009323741 0.0011134614 -0.0066058538
0.0020512231 -0.0048249997 -0.005612683
-0.0083913673 -0.0011134614 -0.004495366
0.0009323741 0.0023506409 -0.0001502439
0.0016782733 0.0048249997 -0.004495366
0.008515683 -0.00024743588 -0.0064817071
0.0080184173 0.0047012819 -0.0041229269
0.0086399997 -0.0033403845 -0.0041229269
-0.0086399997 0.00086602563 -0.0062334146
0.0072725178 -0.0047012819 -0.0038746342
0.0032943885 0.0012371794 -0.0066058538
-0.0014296402 0.0037115384 0.0017119512
-0.0082670506 0.0047012819 -0.0033780488
-0.004537554 0.00061858969 -0.00052268291
-0.0086399997 0.003958974 -0.0051160976
0.008515683 0.0022269229 -0.0022607318
0.0039159711 -0.0048249997 -0.0064817071
0.0082670506 0.00061858969 -0.0025090245
-0.0035430216 0.0038352562 -2.6097561e-05
0.0068995683 0.0032166666 -0.00052268291
0.0010566906 0.0013608973 -0.00052268291
-0.000683741 -0.0040826923 -0.00027439024
0.00018647482 0.00098974351 -0.00052268291
-0.0014296402 -0.0013608973 -0.0066058538
-0.008515683 0.0042064101 -0.0063575609
0.000683741 8.6736174e-19 -0.0066058538
0.005283453 -0.00037115384 -0.0066058538
-0.008515683 -0.0017320513 -0.0046195122
0.0086399997 0.00024743588 -0.0059851222
-0.0066509354 -0.0048249997 -0.001267561
0.0062779854 0.0048249997 -0.0022607318
-0.0011810071 -0.0038352562 0.0007187805
0.0065266187 0.0048249997 -0.0035021952
-0.0066509354 0.0035878203 -0.00039853659
0.0086399997 -0.00086602563 -0.00052268291
0.000683741 -0.0048249997 -0.004495366
-0.0080184173 -0.0047012819 -0.00064682926
-0.0049105035 0.0017320513 -0.0066058538
-0.0020512231 -0.0048249997 -0.0033780488
-0.0046618707 0.0034641025 -0.00027439024
-0.00031079137 -0.0017320513 -0.00027439024
0.0011810071 0.0040826923 -0.0066058538
-0.0013053237 -0.0024743588 -0.0066058538
0.0082670506 -0.0045775641 -0.0042470731
-0.0015539568 -0.0048249997 -0.0035021952
-0.0029214388 8.6736174e-19 -0.00052268291
0.0013053237 0.003958974 0.00059463416
0.0041646045 -0.0011134614 -0.00052268291
0.0014296402 0.0038352562 0.00059463416
0.008515683 -0.0021032051 -0.0018882927
-0.0068995683 -0.0045775641 -0.00064682926
-0.0042889207 0.0048249997 -0.0054885368
-0.0067752516 -0.0048249997 -0.0046195122
-0.0076454678 -0.0048249997 -0.0035021952
0.0046618707 -0.0023506409 -0.0066058538
-0.0030457554 -0.0048249997 -0.0041229269
0.0055320864 -0.0014846154 -0.00052268291
-0.0072725178 0.004330128 -0.00064682926
-0.008515683 0.0014846154 -0.0059851222
0.0029214388 -0.0048249997 -0.0039987806
-0.005283453 -0.0048249997 -0.0059851222
0.0076454678 0.001979487 -0.00027439024
0.00031079137 -0.0048249997 -0.0037504877
-0.0062779854 -0.0013608973 -0.00052268291
0.0025484893 0.0040826923 -0.0066058538
-0.0054077697 0.0048249997 -0.005612683
0.0072725178 -0.0028455127 -0.0066058538
-0.005283453 -0.0024743588 -0.0001502439
0.0014296402 -0.0048249997 -0.0021365853
0.0025484893 -0.0035878203 -0.0066058538
0.0068995683 0.0024743588 -0.0001502439
0.0011810071 -0.00098974351 -0.0066058538
0.0070238849 -0.0047012819 -0.0064817071
-0.0021755395 -0.0048249997 -0.0052402439
-0.000683741 0.004330128 -0.0064817071
-0.0011810071 -0.00061858969 -0.00052268291
0.000683741 0.0048249997 -0.002384878
-0.0042889207 -0.0040826923 -2.6097561e-05
0.00080805755 0.0042064101 -0.0066058538
0.0071482016 0.0048249997 -0.0062334146
-0.0057807192 -0.0029692308 -0.00027439024
-0.0059050359 0.00037115384 -0.0066058538
-0.003418705 -0.0048249997 -0.00052268291
6.2158273e-05 0.0025980768 -2.6097561e-05
-0.0083913673 -0.0014846154 -0.0025090245
0.0057807192 0.0047012819 -0.00064682926
-0.0067752516 0.0016083333 -0.0066058538
0.003418705 -0.0018557692 -0.0066058538
0.008515683 -0.00024743588 -0.00052268291
-0.0080184173 0.0038352562 -0.00064682926
0.0027971223 -0.0048249997 -0.0051160976
0.005656403 0.0034641025 -0.0066058538
-0.0060293525 0.0048249997 -0.0048678047
-0.0044132373 0.0048249997 -0.0042470731
-0.0021755395 0.0048249997 -0.0037504877
-0.0080184173 0.0047012819 -0.0031297561
-0.0025484893 -0.0048249997 -0.0015158537
0.0037916547 -0.0038352562 0.0027051219
0.0031700719 -0.0048249997 -0.0031297561
-0.0064023021 0.0045775641 -0.00064682926
0.0035430216 -0.0048249997 -0.0038746342
0.0083913673 0.0014846154 -0.0027573172
-0.0044132373 0.0028455127 -0.0066058538
0.0049105035 -0.0013608973 -0.0066058538
0.0083913673 -0.0011134614 -0.0054885368
-0.0076454678 0.001979487 -0.0001502439
0.004537554 0.0048249997 -0.0013917073
-0.0027971223 0.0042064101 -0.00052268291
-0.0049105035 -0.00061858969 -0.0066058538
0.0047861869 -0.0037115384 -2.6097561e-05
-0.0035430216 0.00061858969 -0.00052268291
-0.0024241726 -0.0048249997 -0.0031297561
-0.0042889207 -0.0024743588 -0.0001502439
0.0049105035 -0.0025980768 -0.0066058538
-0.0081427339 0.0037115384 -0.00064682926
-0.0078941006 -0.003958974 -0.0066058538
-0.0086399997 -0.0040826923 -0.0049919514
0.0050348202 -0.0048249997 -0.0015158537
-0.008515683 -0.0016083333 -0.0043712193
0.00043510791 0.0048249997 -0.0062334146
-0.00018647482 -0.0048249997 -0.0049919514
-0.0044132373 -0.00061858969 -0.00052268291
0.0060293525 -0.0024743588 -0.0001502439
-0.0086399997 0.0038352562 -0.0033780488
-0.0015539568 0.0025980768 -0.0066058538
0.0072725178 0.0017320513 -0.0066058538
0.0046618707 0.0017320513 -0.00027439024
0.0051591368 -0.0022269229 -2.6097561e-05
-0.0057807192 -0.0048249997 -0.0037504877
0.0082670506 0.00037115384 -0.0026331707
0.0060293525 -0.0035878203 -0.00027439024
-0.0020512231 -0.003958974 -0.0066058538
0.0039159711 0.0017320513 -0.00039853659
0.0054077697 0.0033403845 -0.0066058538
0.0082670506 -0.00024743588 -0.0030056098
0.0019269064 -0.00061858969 -0.0066058538
0.0037916547 -0.0048249997 -0.0063575609
0.00080805755 0.0035878203 -2.6097561e-05
0.0026728057 -0.0048249997 -0.0059851222
0.0013053237 -0.0037115384 0.0009670732
0.0086399997 0.0030929486 -0.0038746342
-0.0080184173 -0.0012371794 -0.00052268291
-0.0020512231 0.0028455127 -0.00027439024
-0.0051591368 -0.0045775641 -0.0066058538
0.005283453 -0.004330128 -0.00064682926
0.0076454678 -0.0047012819 -0.0035021952
0.0086399997 0.0017320513 -0.001267561
-0.0049105035 -0.0047012819 -0.00052268291
0.00055942446 0.0048249997 -0.004495366
0.005283453 0.0028455127 -0.0001502439
-0.0059050359 -0.0048249997 -0.0042470731
-0.0086399997 -0.0014846154 -0.0064817071
-0.0035430216 0.00037115384 -0.00052268291
0.0081427339 0.0047012819 -0.0048678047
-0.0071482016 -0.0048249997 -0.0022607318
-0.0059050359 -0.0048249997 -0.0047436585
-0.0067752516 0.0033403845 -0.00052268291
0.0060293525 -0.0042064101 -0.00064682926
-0.0051591368 0.0048249997 -0.0025090245
-0.0032943885 0.0022269229 -0.0066058538
0.0082670506 0.00024743588 -0.0030056098
-0.0020512231 0.0013608973 -0.0066058538
0.0018025899 0.0028455127 -0.0066058538
0.0024241726 -0.0038352562 -0.0064817071
0.0065266187 -0.0034641025 -0.00052268291
-0.0080184173 0.00061858969 -0.00052268291
0.0057807192 -0.0032166666 -0.0066058538
0.0086399997 0.003958974 -0.0058609755
0.004537554 0.0040826923 -0.00039853659
0.0071482016 -0.0025980768 -0.0066058538
-0.0014296402 -0.00037115384 -0.0066058538
-0.0026728057 0.00012371794 -0.00052268291
0.0082670506 -0.00061858969 -0.0064817071
-0.0009323741 0.0040826923 -0.00039853659
0.0062779854 0.0017320513 -0.00027439024
-0.0070238849 0.0022269229 -0.0066058538
-0.0026728057 0.0013608973 -0.00052268291
-0.0010566906 -0.001979487 -0.0066058538
-0.0086399997 0.0038352562 -0.0026331707
0.0013053237 0.0048249997 -0.0039987806
-0.0011810071 -0.003958974 0.0025809756
0.0009323741 0.0048249997 -0.0021365853
-0.0086399997 -0.0017320513 -0.0010192683
0.0060293525 0.0048249997 -0.0057368292
0.0054077697 -0.0035878203 -2.6097561e-05
-0.0086399997 -0.0035878203 -0.0020124391
0.0086399997 0.0033403845 -0.001267561
-0.0086399997 0.001979487 -0.0054885368
-0.0068995683 0.0034641025 -0.00039853659
0.0035430216 0.0048249997 -0.0036263415
-0.0022998562 0.0048249997 -0.0043712193
-0.0022998562 -0.00024743588 -0.00052268291
0.0013053237 -0.0048249997 -0.0022607318
0.0054077697 -0.0044538458 -0.00064682926
0.0050348202 0.00074230769 -0.0066058538
0.0042889207 -0.0048249997 -0.0042470731
0.0013053237 0.0024743588 -0.0066058538
0.0080184173 0.0047012819 -0.0026331707
-0.00031079137 0.0048249997 -0.0025090245
-0.0036673381 0.0035878203 -0.00039853659
-0.0066509354 0.0048249997 -0.0057368292
-0.0075211511 -0.0037115384 -0.0066058538
0.0086399997 -0.0025980768 -0.0039987806
-0.0064023021 -0.0011134614 -0.00052268291
0.0032943885 0.0021032051 -0.0001502439
-0.0036673381 0.0030929486 -0.0066058538
-0.0020512231 0.0048249997 -0.0011434146
-0.008515683 -0.0017320513 -0.0047436585
-0.0050348202 0.0035878203 -0.0066058538
-0.0016782733 -0.0045775641 -0.00052268291
0.0016782733 0.0030929486 -0.0066058538
0.0086399997 0.0042064101 -0.0028814634
0.005656403 -0.0048249997 -0.004495366
0.0075211511 0.0034641025 -0.00027439024
0.0086399997 -0.0016083333 -0.0059851222
-0.008515683 -0.0018557692 -0.0038746342
0.0082670506 -0.00061858969 -0.0058609755
0.0067752516 0.0048249997 -0.0025090245
-0.005656403 -0.0033403845 -0.0066058538
0.0066509354 0.00012371794 -0.0066058538
0.0024241726 -0.00086602563 -0.0066058538
-0.0057807192 0.0016083333 -0.00052268291
0.0057807192 -0.0048249997 -0.0042470731
0.008515683 -0.0023506409 -0.0048678047
0.0059050359 0.0037115384 -2.6097561e-05
-0.0054077697 0.0038352562 -0.0001502439
0.0015539568 0.0048249997 -0.0013917073
0.0072725178 -0.0047012819 -0.0064817071
-0.0086399997 0.0027217946 -0.0064817071
-0.0086399997 0.0027217946 -0.0010192683
0.0011810071 -0.0038352562 0.0028292683
-0.0010566906 0.0048249997 -0.0042470731
-0.0062779854 0.003958974 -0.00052268291
0.0066509354 -0.00061858969 -0.0066058538
-0.0019269064 0.00049487175 -0.00052268291
0.0086399997 0.004330128 -0.001267561
0.0013053237 -0.003958974 -0.0066058538
0.008515683 -0.0018557692 -0.00164
-0.0044132373 -0.0014846154 -0.00052268291
-0.0086399997 -0.0037115384 -0.0011434146
0.0051591368 -0.003958974 -0.00027439024
0.00055942446 -0.0034641025 -0.00052268291
-0.0019269064 -0.0035878203 -0.00027439024
0.0037916547 -0.0037115384 0.0020843903
-0.0014296402 0.0027217946 -0.0001502439
0.0086399997 0.0037115384 -0.0026331707
-0.008515683 -0.0022269229 -0.0043712193
-0.0086399997 0.0044538458 -0.0053643901
0.0068995683 -0.0035878203 -0.00039853659
0.00080805755 -0.0048249997 -0.0030056098
-0.004537554 -0.0022269229 -0.0066058538
-0.0086399997 0.0030929486 -0.0035021952
0.004537554 -0.0033403845 -0.0066058538
-0.0029214388 -0.0035878203 -0.0001502439
-0.0086399997 0.0029692308 -0.0032539025
-0.0010566906 -0.0035878203 -0.0001502439
-0.0016782733 -0.0024743588 -0.0001502439
-0.0059050359 0.0048249997 -0.0059851222
0.0013053237 0.0014846154 -0.00052268291
-0.0032943885 0.0047012819 -0.00064682926
-0.0086399997 -0.0029692308 -0.0062334146
0.0031700719 -0.0040826923 -0.00052268291
0.0078941006 -0.0045775641 -0.0036263415
0.0064023021 -0.0018557692 -2.6097561e-05
0.0050348202 -0.0013608973 -0.00052268291
0.0039159711 0.0040826923 -0.00027439024
-0.0050348202 0.0037115384 -0.0064817071
0.0016782733 0.0034641025 -0.0066058538
0.0086399997 -0.0037115384 -0.0031297561
0.0081427339 -0.0045775641 -0.0041229269
0.0060293525 0.004330128 -0.00064682926
-0.0032943885 -0.001979487 -0.0001502439
-0.008515683 -0.0017320513 -0.00039853659
-0.0015539568 0.00074230769 -0.00052268291
-0.00018647482 0.0048249997 -0.0018882927
0.004537554 0.0017320513 -0.00039853659
0.0013053237 0.0024743588 -0.0001502439
-0.0054077697 -0.0048249997 -0.0033780488
0.0082670506 -0.00012371794 -0.0047436585
0.0010566906 0.0048249997 -0.0027573172
0.0019269064 -0.0037115384 -0.0066058538
-0.0015539568 -0.00012371794 -0.0066058538
-0.0065266187 0.0011134614 -0.00052268291
-0.0061536692 -0.0047012819 -0.00052268291
-0.004537554 -0.0024743588 -0.0001502439
-0.0011810071 0.0048249997 -0.00089512195
0.0014296402 -0.003958974 0.0015878049
0.0086399997 -0.0038352562 -0.004495366
-6.2158273e-05 -0.0048249997 -0.0018882927
-0.0072725178 -0.0048249997 -0.0027573172
-0.008515683 -0.001979487 -0.0041229269
-0.0060293525 -0.0048249997 -0.0035021952
-0.0086399997 0.0025980768 -0.0051160976
0.0032943885 -0.00074230769 -0.00052268291
0.0086399997 -0.0029692308 -0.0013917073
0.0083913673 0.0025980768 -0.0001502439
0.0049105035 -0.0032166666 -0.00052268291
-0.0086399997 -0.0035878203 -0.0010192683
0.0019269064 -0.0022269229 -0.0001502439
0.0024241726 0.0032166666 -0.00052268291
0.0037916547 0.0037115384 0.0012153658
-0.0026728057 -0.0014846154 -0.00052268291
0.00080805755 0.0040826923 -2.6097561e-05
0.0086399997 -0.003958974 -0.0036263415
-0.0081427339 -0.0047012819 -0.0051160976
0.0021755395 0.0013608973 -0.00052268291
-0.000683741 -0.0048249997 -0.0017641464
0.0081427339 -0.0023506409 -0.0066058538
0.0071482016 -0.0047012819 -0.0047436585
0.0025484893 0.0048249997 -0.0011434146
-6.2158273e-05 0.0029692308 -0.00039853659
0.0015539568 -0.0048249997 -0.0043712193
-0.0040402878 0.0048249997 -0.0043712193
-0.0013053237 0.0033403845 -0.0066058538
0.0046618707 -0.00086602563 -0.0066058538
0.0032943885 -0.0016083333 -0.00039853659
-0.00043510791 0.0035878203 -0.0001502439
0.0086399997 -0.0029692308 -0.0017641464
0.0066509354 0.0018557692 -0.00027439024
-0.0086399997 -0.0025980768 -0.0059851222
0.0037916547 -0.004330128 -0.00052268291
-0.0013053237 0.00061858969 -0.00052268291
-0.00031079137 0.0029692308 -0.00039853659
-0.00043510791 -0.0035878203 -0.0066058538
-0.0025484893 -0.0025980768 -2.6097561e-05
-0.0057807192 0.0029692308 -0.0066058538
0.0014296402 0.0048249997 -0.0020124391
-0.0011810071 0.0025980768 -2.6097561e-05
-0.0049105035 0.0048249997 -0.0064817071
0.0018025899 0.0011134614 -0.0066058538
0.0022998562 -0.00049487175 -0.00052268291
-0.0037916547 0.0029692308 -0.00039853659
-0.0041646045 -0.0048249997 -0.0046195122
-0.0011810071 -0.00037115384 -0.00052268291
0.0086399997 0.00061858969 -0.0061092684
-0.0072725178 -0.0023506409 -0.0066058538
0.0019269064 -0.0047012819 -0.00052268291
0.0082670506 -0.00049487175 -0.0053643901
0.0086399997 -0.0032166666 -0.0025090245
0.0027971223 0.00024743588 -0.0066058538
-0.0030457554 0.0017320513 -0.0066058538
-0.0025484893 0.0048249997 -0.0028814634
0.0013053237 0.0048249997 -0.0015158537
-0.00055942446 0.003958974 -2.6097561e-05
-0.0040402878 0.00037115384 -0.00052268291
-0.0086399997 0.0029692308 -0.0052402439
-0.0036673381 0.00037115384 -0.0066058538
-0.008515683 0.00086602563 -0.0042470731
-0.0018025899 -0.00024743588 -0.0066058538
-0.0086399997 -0.0013608973 -0.0064817071
0.0064023021 0.0033403845 -0.00052268291
0.0046618707 0.004330128 -0.0066058538
0.008515683 0.0021032051 -0.0015158537
-0.005656403 -0.0048249997 -0.0020124391
0.004537554 -0.0042064101 -0.0064817071
-0.0030457554 0.0048249997 -0.0021365853
0.0086399997 0.0024743588 -0.0022607318
-0.0078941006 -0.00086602563 -0.0066058538
0.0024241726 -0.0048249997 -0.004495366
0.005283453 0.0034641025 -0.0001502439
0.0067752516 0.0012371794 -0.00052268291
0.0044132373 0.0014846154 -0.0066058538
-0.0086399997 0.00086602563 -0.0035021952
-0.0027971223 -0.0024743588 -2.6097561e-05
-0.0046618707 0.00049487175 -0.0066058538
-0.00018647482 -0.00086602563 -0.0066058538
-0.0029214388 -0.0012371794 -0.00052268291
0.0031700719 -0.0048249997 -0.0015158537
0.0078941006 -0.0038352562 -0.0064817071
0.0016782733 -0.0048249997 -0.0021365853
0.00080805755 0.0011134614 -0.0066058538
0.003418705 -0.0028455127 -0.0066058538
0.0051591368 0.0048249997 -0.0054885368
-0.005656403 0.0029692308 -0.0066058538
-0.0047861869 -0.0048249997 -0.0061092684
-0.0086399997 0.0035878203 -0.0010192683
-0.0083913673 0.00074230769 -0.004495366
-6.2158273e-05 0.0017320513 -0.0066058538
0.0067752516 -0.0048249997 -0.0037504877
0.00018647482 0.0048249997 -0.0048678047
0.008515683 -0.0016083333 -0.0013917073
0.0022998562 -0.0048249997 -0.001267561
-0.0065266187 0.0037115384 0.0022085365
-0.0009323741 0.0048249997 -0.0035021952
-0.0031700719 -0.0048249997 -0.0018882927
-0.0086399997 0.0042064101 -0.0042470731
-0.0015539568 -0.0018557692 -0.00027439024
-0.0086399997 -0.0037115384 -0.0051160976
-0.008515683 0.0013608973 -0.0041229269
0.0051591368 -0.0048249997 -0.0022607318
-0.003418705 -0.0023506409 -0.0066058538
0.0044132373 0.0047012819 -0.00064682926
-0.0064023021 0.0048249997 -0.0051160976
0.0086399997 -0.00098974351 -0.0063575609
-0.0076454678 -0.0022269229 -0.0066058538
-0.0081427339 0.00012371794 -0.00164
0.0061536692 -0.0045775641 -0.00064682926
-0.0054077697 -0.0048249997 -0.0018882927
0.0071482016 -0.0047012819 -0.0037504877
0.0082670506 0.00037115384 -0.0013917073
0.0016782733 -0.0048249997 -0.0031297561
-0.0015539568 -0.0029692308 -0.00039853659
0.00031079137 -0.001979487 -0.0066058538
-0.00043510791 0.0047012819 -0.00052268291
-0.0011810071 -0.001979487 -0.0066058538
-0.0010566906 0.0029692308 -0.0066058538
-0.0072725178 0.00074230769 -0.0066058538
0.0031700719 0.00024743588 -0.00052268291
-0.008515683 -0.0018557692 -0.00027439024
0.0086399997 -0.0030929486 -0.0011434146
-0.0011810071 0.0030929486 -0.0066058538
-0.0024241726 0.0048249997 -0.0041229269
0.0037916547 0.0048249997 -0.0062334146
0.0050348202 0.0028455127 -0.0001502439
-0.0064023021 0.0030929486 -0.00039853659
0.0086399997 -0.0024743588 -0.0030056098
-0.0060293525 -0.0018557692 -0.0066058538
0.0039159711 -0.0048249997 -0.0035021952
-0.0042889207 -0.0048249997 -0.0035021952
0.0026728057 0.0035878203 -2.6097561e-05
-0.0065266187 0.0037115384 0.00047048781
0.0018025899 0.0048249997 -0.0043712193
0.0086399997 0.0023506409 -0.00052268291
0.0040402878 -0.0025980768 -0.0066058538
-0.0026728057 -0.0048249997 -0.0042470731
0.0029214388 0.0048249997 -0.0047436585
-0.0086399997 -0.00086602563 -0.00089512195
0.005656403 0.0048249997 -0.0038746342
0.0030457554 -0.003958974 -2.6097561e-05
-0.0073968344 -0.0038352562 -0.00052268291
-0.0070238849 0.0037115384 -0.0066058538
-0.0059050359 -0.0037115384 -0.0066058538
0.0030457554 0.0048249997 -0.0052402439
0.0011810071 0.003958974 -0.0066058538
-0.0011810071 0.0048249997 -0.0036263415
0.0014296402 0.0037115384 0.00022219513
-0.0086399997 0.0029692308 -0.0030056098
-0.0029214388 -0.0028455127 -0.00027439024
-0.0032943885 0.00049487175 -0.00052268291
0.008515683 0.0047012819 -0.0025090245
0.0070238849 0.0048249997 -0.0054885368
0.0039159711 -0.0011134614 -0.0066058538
6.2158273e-05 -0.0017320513 -0.00027439024
0.0086399997 0.0033403845 -0.00064682926
-0.0036673381 -0.004330128 -0.0066058538
0.003418705 -0.00049487175 -0.0066058538
-0.0080184173 -0.0047012819 -0.0018882927
0.0041646045 -0.00049487175 -0.0066058538
0.0044132373 -0.0024743588 -0.0001502439
-0.0009323741 -0.0038352562 -0.0066058538
-0.00055942446 0.0048249997 -0.0046195122
0.0026728057 0.0048249997 -0.0021365853
-0.00031079137 -0.0040826923 -0.0066058538
-0.0049105035 0.0016083333 -0.00052268291
-0.0057807192 0.0023506409 -2.6097561e-05
-0.0064023021 0.0022269229 -0.0066058538
0.000683741 -0.0048249997 -0.0052402439
0.0068995683 0.0027217946 -0.0066058538
0.008515683 -0.0013608973 -0.001267561
-0.0080184173 0.0042064101 -0.00064682926
-0.0060293525 0.0048249997 -0.0057368292
-0.0036673381 -0.0025980768 -2.6097561e-05
0.0081427339 -0.00061858969 -0.0066058538
-0.0029214388 0.004330128 -0.00052268291
0.0014296402 -0.0027217946 -0.0001502439
0.0086399997 0.0037115384 -0.0031297561
-0.0026728057 -0.0047012819 -0.0064817071
0.005656403 -0.0042064101 -0.00064682926
0.0013053237 -0.0048249997 -0.0026331707
0.0083913673 -0.0045775641 -0.0017641464
0.00031079137 -0.0048249997 -0.0020124391
0.000683741 -0.0048249997 -0.0063575609
0.0086399997 -0.0033403845 -0.0013917073
0.0044132373 0.0034641025 -0.0001502439
-0.0014296402 -0.0040826923 -0.00027439024
-0.0013053237 -0.0038352562 0.002332683
0.0082670506 0.00049487175 -0.0033780488
-0.0046618707 -0.0032166666 -0.00052268291
-0.0068995683 -0.00049487175 -0.00052268291
0.0037916547 0.0048249997 -0.0028814634
0.0082670506 0.00012371794 -0.0052402439
0.008515683 -0.0023506409 -0.0037504877
0.0066509354 -0.0048249997 -0.0011434146
-0.0011810071 0.0037115384 0.00047048781
0.0067752516 0.0048249997 -0.0061092684
0.0021755395 0.00024743588 -0.00052268291
-0.0064023021 -0.0048249997 -0.0013917073
0.0019269064 0.00012371794 -0.0066058538
-0.000683741 -0.0048249997 -0.0062334146
0.0031700719 -0.0048249997 -0.004495366
-0.0047861869 0.0029692308 -0.00027439024
-0.0070238849 0.003958974 -0.00064682926
0.0026728057 0.0016083333 -0.0066058538
0.0031700719 -0.0048249997 -0.0046195122
0.007769784 0.0048249997 -0.0042470731
0.0046618707 0.0027217946 -0.0066058538
-0.0086399997 -0.0037115384 -0.0042470731
-0.0031700719 -0.0048249997 -0.0010192683
0.0061536692 -0.001979487 -0.0001502439
-0.0014296402 0.0037115384 0.002332683
0.0010566906 0.0038352562 0.0020843903
0.0054077697 -0.0048249997 -0.0054885368
-0.0086399997 0.003958974 -0.0046195122
0.00018647482 -0.0048249997 -0.0047436585
-0.0060293525 0.00074230769 -0.0066058538
0.0031700719 -0.003958974 -0.0064817071
0.0010566906 0.0025980768 -2.6097561e-05
-0.00018647482 -0.0037115384 -0.0066058538
0.0082670506 -0.00037115384 -0.0031297561
0.003418705 0.0047012819 -0.00064682926
-0.0059050359 -0.0048249997 -0.0051160976
-0.0083913673 0.00086602563 -0.0053643901
-0.0055320864 0.0018557692 -0.0066058538
0.0027971223 8.6736174e-19 -0.00052268291
-0.0049105035 0.00074230769 -0.0066058538
-0.0072725178 0.00074230769 -0.00052268291
0.0021755395 -0.0048249997 -0.0051160976
0.0030457554 -0.0018557692 -0.0001502439
-0.0046618707 -0.0017320513 -0.00027439024
-0.0010566906 0.0048249997 -0.0054885368
0.007769784 -0.0047012819 -0.0049919514
0.0025484893 -0.0042064101 -0.0064817071
0.00031079137 -0.0028455127 -0.0066058538
0.0044132373 -0.0025980768 -0.0066058538
-0.0066509354 0.0042064101 -0.00064682926
-0.0057807192 -0.0030929486 -0.00039853659
-0.00043510791 -0.00024743588 -0.00052268291
0.0072725178 -0.0047012819 -0.0037504877
0.0018025899 -0.0012371794 -0.00052268291
-0.0073968344 0.0022269229 -0.0066058538
0.0026728057 -0.0048249997 -0.0038746342
0.0081427339 -0.0045775641 -0.00064682926
0.0024241726 -0.0038352562 -2.6097561e-05
0.0086399997 0.0017320513 -0.0059851222
0.008515683 -0.0012371794 -0.0011434146
-0.0026728057 0.0048249997 -0.0049919514
0.008515683 0.0045775641 -0.0048678047
0.0070238849 -0.0029692308 -0.0066058538
-0.0049105035 0.0048249997 -0.0041229269
-0.0044132373 0.0040826923 -0.0064817071
0.0040402878 0.0048249997 -0.0030056098
-0.0062779854 0.0012371794 -0.0066058538
-0.0057807192 -0.003958974 -0.0066058538
-0.003418705 -0.0011134614 -0.0066058538
0.0068995683 -0.0048249997 -0.0061092684
0.008515683 -0.00098974351 -0.0059851222
-0.0086399997 -0.0033403845 -0.0010192683
0.0086399997 0.0027217946 -0.0062334146
0.0019269064 0.0048249997 -0.0061092684
0.0037916547 0.0012371794 -0.0066058538
-0.0082670506 0.00049487175 -0.0051160976
0.0061536692 -0.0048249997 -0.0037504877
-0.0066509354 0.00024743588 -0.0066058538
0.0026728057 0.0037115384 -2.6097561e-05
-0.0086399997 -0.0042064101 -0.0021365853
-0.0050348202 0.0048249997 -0.0035021952
-0.0037916547 -0.0040826923 -0.0066058538
0.00043510791 -0.00037115384 -0.0066058538
-0.00080805755 -0.004330128 -0.0064817071
-0.0011810071 0.0038352562 0.0010912195
-0.008515683 -0.0028455127 -0.00064682926
-0.0010566906 -0.0029692308 -0.0066058538
-0.00043510791 0.0042064101 -0.0064817071
0.0039159711 0.003958974 0.0029534146
-0.0086399997 0.0034641025 -0.0033780488
-0.0086399997 -0.0034641025 -0.0061092684
0.0032943885 0.0029692308 -0.00039853659
-0.0057807192 0.003958974 -0.00027439024
0.00031079137 -0.0048249997 -0.0039987806
0.0086399997 0.0011134614 -0.0011434146
-0.0036673381 0.0048249997 -0.0059851222
-0.0025484893 -0.003958974 -0.00027439024
-0.0049105035 -0.0013608973 -0.00052268291
-0.0062779854 0.0048249997 -0.005612683
0.0026728057 0.0048249997 -0.0031297561
-0.0010566906 0.0048249997 -0.0039987806
0.0040402878 0.0016083333 -0.0066058538
-0.0031700719 -0.00086602563 -0.0066058538
0.0068995683 -0.00086602563 -0.00052268291
0.0083913673 -0.0011134614 -0.0042470731
-0.0057807192 -0.0045775641 -0.00052268291
-0.000683741 -0.0029692308 -0.00039853659
-0.003418705 -0.0045775641 -0.00052268291
-0.0041646045 -0.0048249997 -0.0032539025
-0.0029214388 0.0040826923 -0.00039853659
-0.0075211511 0.0029692308 -0.0066058538
-0.0082670506 0.004330128 -0.00064682926
-0.00080805755 -0.0048249997 -0.004495366
-0.004537554 -0.0048249997 -0.005612683
-0.0081427339 -0.0047012819 -0.0037504877
-0.0057807192 0.0011134614 -0.00052268291
0.008515683 0.0022269229 -0.002384878
-0.0037916547 -0.0048249997 -0.002384878
0.0086399997 -0.0029692308 -0.0010192683
0.0072725178 0.0024743588 -0.0066058538
-0.0083913673 -0.00012371794 -0.0066058538
0.008515683 -0.0018557692 -0.0021365853
-0.0082670506 -0.0047012819 -0.0042470731
0.0070238849 -0.0048249997 -0.0057368292
0.008515683 0.0045775641 -0.0062334146
0.0041646045 -0.0038352562 -2.6097561e-05
0.000683741 -0.0048249997 -0.00064682926
-0.0083913673 -0.001979487 -2.6097561e-05
-0.0047861869 -0.0048249997 -0.00164
-0.0024241726 -0.0016083333 -0.00039853659
-0.0011810071 -0.0030929486 -0.0066058538
0.00080805755 0.0016083333 -0.00052268291
0.007769784 0.0047012819 -0.0064817071
0.003418705 0.00061858969 -0.0066058538
0.0031700719 0.0047012819 -0.00064682926
0.0009323741 0.0042064101 -0.00052268291
0.00055942446 -0.0048249997 -0.0064817071
0.0086399997 0.0013608973 -0.0062334146
-0.008515683 -0.001979487 -0.0026331707
0.00080805755 0.0024743588 -0.0066058538
0.0011810071 -0.0040826923 -0.00039853659
-0.0059050359 0.0025980768 -0.0001502439
0.0083913673 0.0035878203 -0.00064682926
0.008515683 0.0017320513 -0.00164
-0.0042889207 -0.0048249997 -0.0010192683
-0.0072725178 0.0030929486 -0.0066058538
0.0047861869 -0.0027217946 -0.0001502439
0.0046618707 -0.0029692308 -0.0066058538
0.0014296402 0.0034641025 -0.00052268291
0.005283453 0.0048249997 -0.0052402439
-0.0072725178 0.0048249997 -0.0032539025
-0.0086399997 -0.0044538458 -0.0063575609
0.0021755395 0.0047012819 -0.0064817071
-0.0029214388 -0.0048249997 -0.002384878
0.0051591368 -0.0048249997 -0.0010192683
6.2158273e-05 0.0048249997 -0.0015158537
-0.0015539568 -0.0048249997 -0.00089512195
-0.008515683 0.0023506409 -0.0039987806
-0.0013053237 -0.0037115384 0.0009670732
0.0073968344 -0.0017320513 -0.0066058538
-0.0086399997 -0.0038352562 -0.0017641464
-0.0070238849 0.0029692308 -0.00027439024
-0.0015539568 0.0023506409 -0.0001502439
0.0020512231 -0.00037115384 -0.0066058538
0.0073968344 0.0048249997 -0.0033780488
0.0010566906 0.0048249997 -0.0011434146
-0.0047861869 -0.0013608973 -0.0066058538
0.0078941006 -0.00074230769 -0.0066058538
0.008515683 -0.0023506409 -0.0038746342
-0.0055320864 -0.0025980768 -0.0066058538
-0.0015539568 -0.0045775641 -0.00052268291
-0.0086399997 8.6736174e-19 -0.00052268291
0.0049105035 -0.00049487175 -0.00052268291
0.008515683 -0.0018557692 -0.005612683
-0.0040402878 -0.00024743588 -0.0066058538
-0.0044132373 -0.0030929486 -0.00052268291
-0.0014296402 -0.0018557692 -0.00027439024
-0.0040402878 0.0048249997 -0.0026331707
-0.0047861869 0.0048249997 -0.0039987806
-0.0010566906 0.0048249997 -0.004495366
0.0022998562 -0.0012371794 -0.0066058538
0.0040402878 -0.0038352562 0.0029534146
0.0051591368 0.0048249997 -0.0026331707
0.0019269064 -0.0048249997 -0.0036263415
0.0022998562 -0.0048249997 -0.0057368292
0.0030457554 -0.0048249997 -0.005612683
-0.005283453 0.0048249997 -0.0037504877
0.0022998562 -0.0029692308 -0.0066058538
-0.0044132373 0.0048249997 -0.0027573172
-0.0086399997 0.0025980768 -0.0027573172
0.0086399997 -0.0030929486 -0.0010192683
-0.0049105035 0.0048249997 -0.005612683
-0.0029214388 -0.0027217946 -0.0066058538
0.0075211511 0.0035878203 -0.0066058538
-0.0018025899 0.0048249997 -0.0041229269
-0.0024241726 -0.0018557692 -0.0066058538
-0.00055942446 0.0012371794 -0.0066058538
-0.0044132373 -0.00061858969 -0.0066058538
0.0042889207 0.0048249997 -0.0041229269
0.0014296402 -0.0037115384 0.0014636585
-0.0086399997 -0.0035878203 -0.0062334146
0.0083913673 0.0028455127 -0.0064817071
-0.0080184173 -0.0021032051 -2.6097561e-05
0.0086399997 0.0040826923 -0.0057368292
-0.0086399997 -0.004330128 -0.00164
0.0072725178 0.00074230769 -0.00052268291
-0.0082670506 -0.00024743588 -0.0058609755
0.0082670506 0.0047012819 -0.0021365853
-0.0042889207 -0.0016083333 -0.0066058538
-0.005283453 -0.0048249997 -0.004495366
-0.0083913673 0.0018557692 -0.0001502439
0.0041646045 0.0017320513 -0.00027439024
-0.0086399997 0.0028455127 -0.0032539025
0.0086399997 0.0037115384 -0.0033780488
0.0083913673 0.0014846154 -0.0049919514
-0.0059050359 -0.0029692308 -0.0066058538
-0.0025484893 -0.0030929486 -0.0066058538
-0.0031700719 0.0035878203 -0.0066058538
0.0083913673 0.0012371794 -0.0058609755
0.005283453 0.00061858969 -0.00052268291
0.0086399997 -0.0012371794 -0.0063575609
0.0027971223 0.0035878203 -0.0001502439
0.008515683 0.0047012819 -0.0026331707
-0.0047861869 -0.0048249997 -0.0041229269
0.0054077697 0.0048249997 -0.0013917073
0.0055320864 0.00024743588 -0.00052268291
0.0041646045 0.0048249997 -0.0030056098
0.0040402878 -0.0038352562 0.0012153658
0.0070238849 -0.0033403845 -0.00052268291
0.0064023021 0.0021032051 -0.0001502439
0.005656403 0.003958974 -2.6097561e-05
-0.0042889207 -0.0042064101 -0.00052268291
-0.0019269064 -0.0023506409 -2.6097561e-05
0.0051591368 0.00049487175 -0.00052268291
-0.0082670506 8.6736174e-19 -0.0013917073
-0.0062779854 -0.0037115384 0.003077561
0.0061536692 0.0048249997 -0.0057368292
0.0010566906 -0.0045775641 -0.00052268291
-0.0080184173 -0.0042064101 -0.0064817071
-0.008515683 0.0029692308 -0.00052268291
0.0086399997 0.0023506409 -0.0062334146
0.0035430216 -0.0016083333 -0.0066058538
0.0086399997 -0.0017320513 -0.00064682926
-0.0049105035 -0.0047012819 -0.0064817071
-0.0060293525 0.0023506409 -2.6097561e-05
0.0015539568 -0.0048249997 -0.0037504877
-0.0068995683 0.00061858969 -0.0066058538
0.00018647482 0.0022269229 -0.0001502439
-0.0035430216 -0.0048249997 -0.0062334146
0.0018025899 -0.0018557692 -0.00027439024
-0.0022998562 -0.0014846154 -0.00052268291
-0.0075211511 0.0022269229 -0.0066058538
-0.008515683 8.6736174e-19 -0.001267561
0.0015539568 -0.0024743588 -0.0066058538
-0.0019269064 0.0038352562 -0.0066058538
-0.003418705 -0.0048249997 -0.0046195122
0.007769784 -0.0038352562 -0.0064817071
0.005283453 -0.0014846154 -0.00052268291
-0.0059050359 -0.0048249997 -0.0052402439
-0.0021755395 0.0048249997 -0.0062334146
-0.008515683 -0.0045775641 -0.0036263415
-0.0086399997 0.0037115384 -0.0052402439
-0.0071482016 0.00086602563 -0.00052268291
0.0051591368 0.0048249997 -0.0010192683
-0.004537554 -0.0023506409 -0.0001502439
-0.0065266187 -0.0048249997 -0.0011434146
0.0042889207 -0.0032166666 -0.0066058538
0.0083913673 -0.00098974351 -0.0021365853
0.0040402878 0.0048249997 -0.0018882927
0.0062779854 -0.0048249997 -0.0015158537
-0.0037916547 -0.0048249997 -0.00164
-0.0062779854 -0.003958974 0.0013395122
-0.0018025899 0.0017320513 -0.00039853659
0.00080805755 -0.0035878203 -0.00039853659
-0.0010566906 -0.0017320513 -0.00027439024
0.0026728057 -0.0042064101 -0.0064817071
0.00080805755 -0.0048249997 -0.0035021952
0.0057807192 -0.0038352562 -0.0064817071
-0.0026728057 -0.0037115384 -2.6097561e-05
0.0082670506 0.0040826923 -0.0064817071
-0.0083913673 -0.00086602563 -0.0035021952
-0.0014296402 0.0048249997 -0.0026331707
0.0039159711 0.0037115384 0.0017119512
-0.007769784 -0.0048249997 -0.0028814634
0.0025484893 0.0048249997 -0.0061092684
-0.0019269064 0.0029692308 -0.00039853659
-0.0036673381 0.0037115384 0.0009670732
0.0082670506 -0.00024743588 -0.0042470731
-0.0029214388 0.0038352562 -0.0064817071
-0.0082670506 -0.00049487175 -0.0030056098
0.0029214388 -0.0044538458 -0.00052268291
0.0040402878 0.0048249997 -0.0062334146
-0.0015539568 -0.0032166666 -0.0066058538
0.0029214388 0.001979487 -0.0066058538
0.0083913673 -0.00086602563 -0.0015158537
-0.0086399997 0.0022269229 -0.0038746342
0.008515683 0.0047012819 -0.0059851222
-0.0047861869 0.00074230769 -0.0066058538
0.0041646045 0.0022269229 -0.0066058538
-0.0016782733 0.0017320513 -0.00027439024
0.0086399997 -0.004330128 -0.0031297561
0.0046618707 -0.0040826923 -0.00039853659
0.0049105035 -0.0037115384 -0.0064817071
0.0082670506 0.0047012819 -0.0053643901
-0.0021755395 -0.0048249997 -0.00052268291
0.0021755395 -0.0038352562 -0.0066058538
-0.0035430216 -0.0048249997 -0.0017641464
6.2158273e-05 0.0048249997 -0.0026331707
-0.0035430216 -0.0048249997 -0.0049919514
-0.0082670506 0.0047012819 -0.004495366
0.003418705 0.0048249997 -0.0061092684
0.0051591368 -0.0029692308 -0.00027439024
-0.00043510791 -0.0047012819 -0.00052268291
-0.0083913673 0.0045775641 -0.00064682926
0.0013053237 -0.0037115384 0.0013395122
-0.0049105035 -0.0016083333 -0.0066058538
-0.0014296402 0.0013608973 -0.00052268291
0.0009323741 -0.0032166666 -0.00052268291
0.0041646045 0.0011134614 -0.0066058538
-0.0010566906 -0.0048249997 -0.0021365853
0.0009323741 8.6736174e-19 -0.00052268291
-0.00055942446 -0.0014846154 -0.00052268291
0.00043510791 0.0048249997 -0.0037504877
-0.007769784 -0.0027217946 -0.0001502439
0.0081427339 -0.0045775641 -0.0013917073
0.0013053237 -0.00049487175 -0.00052268291
0.0080184173 -0.004330128 -0.0064817071
-0.0086399997 -0.004330128 -0.0054885368
-0.0083913673 -0.0030929486 -0.0064817071
0.0086399997 0.0034641025 -0.00164
0.00043510791 -0.0032166666 -0.00052268291
-0.0086399997 0.0032166666 -0.0059851222
-0.0024241726 0.0017320513 -0.0066058538
-0.008515683 0.0022269229 -0.0057368292
0.00080805755 0.0048249997 -0.0051160976
0.0013053237 -0.0014846154 -0.00052268291
-0.0010566906 -0.0048249997 -0.0015158537
-0.0039159711 -0.0040826923 -2.6097561e-05
0.0078941006 -0.0022269229 -0.0066058538
0.0082670506 -0.00049487175 -0.0036263415
-0.0070238849 0.0029692308 -0.0066058538
-0.0013053237 0.003958974 0.0029534146
-0.0075211511 -0.0048249997 -0.0033780488
0.0051591368 -0.0014846154 -0.00052268291
-0.0062779854 -0.004330128 -0.0066058538
0.008515683 -0.0045775641 -0.0036263415
-0.0055320864 0.0048249997 -0.001267561
-0.0026728057 -0.0048249997 -0.0037504877
0.0068995683 -0.0021032051 -2.6097561e-05
-0.0013053237 0.0012371794 -0.00052268291
0.008515683 -0.0016083333 -0.0025090245
0.003418705 0.0016083333 -0.00052268291
-0.0086399997 -0.0035878203 -0.0047436585
0.008515683 0.0022269229 -0.0052402439
0.0050348202 0.0048249997 -0.0059851222
0.0054077697 -0.0034641025 -0.00052268291
-0.0030457554 -0.00012371794 -0.0066058538
0.0011810071 0.003958974 0.0019602438
-0.008515683 -0.0021032051 -0.0030056098
0.0073968344 0.0013608973 -0.00052268291
-0.0046618707 -0.0011134614 -0.0066058538
-0.00031079137 0.0014846154 -0.0066058538
0.0061536692 0.0048249997 -0.00089512195
0.0036673381 -0.0037115384 0.00084292685
-0.0041646045 -0.0048249997 -0.0022607318
0.008515683 0.0022269229 -0.0042470731
-0.0086399997 -0.0038352562 -0.0032539025
0.0060293525 0.001979487 -0.00027439024
-0.0072725178 0.00061858969 -0.0066058538
-0.0020512231 -0.0048249997 -0.0026331707
-0.0062779854 0.0038352562 0.0017119512
-0.0080184173 0.0025980768 -0.0001502439
-0.0064023021 -0.003958974 0.0012153658
0.0011810071 -0.0037115384 9.8048782e-05
0.0062779854 -0.0038352562 0.00034634146
-0.00055942446 -0.0011134614 -0.0066058538
-0.0044132373 -0.0048249997 -0.0035021952
-0.0057807192 0.0037115384 -0.0001502439
-0.0078941006 0.0022269229 -2.6097561e-05
