# .PCD v0.7 - Point Cloud Data file format
VERSION 0.7
FIELDS x y z
SIZE 4 4 4
TYPE F F F
COUNT 1 1 1
WIDTH 1158
HEIGHT 1
VIEWPOINT 0 0 0 1 0 0 0
POINTS 1158
DATA ascii
0.0026231578 0.0023924725 -0.00018781515
0.0035599999 0.001454248 -0.0016802521
0.0035599999 -0.0037059865 -0.001027311
-0.00074947363 0.0047380337 -0.00522479
0.0035599999 0.0022048275 -0.0049449583
-0.0035599999 -0.001454248 -0.0047584036
0.0035599999 0.0017357153 -0.00056092441
-0.0035599999 -0.0024862948 -0.0049449583
-0.0035599999 -0.0034245192 -0.002239916
0.0026231578 -0.0024862948 -0.0074634454
-0.0035599999 -0.0016418928 -0.0029861345
0.0017799999 0.0048318561 -0.0014936975
0.0021547368 -0.00014073367 -0.0004676471
-0.0035599999 0.0027677622 -0.0032659664
0.0011242105 0.00070366834 -0.0004676471
0.0017799999 0.0022986499 -0.0070903362
-0.0014989473 0.0031430519 -0.0061575631
-0.0016863158 -0.0048318561 -0.0034525211
-0.0035599999 0.0028615845 -0.0011205883
0.0035599999 0.00079749082 -0.0014936975
0.0012178947 0.00089131325 -0.007556723
-0.0035599999 -0.0021110051 -0.00056092441
0.0031852631 0.0047380337 -0.0030794118
0.0014989473 0.0038936315 0.0027970588
-0.0018736841 -0.0048318561 -0.0041987398
-0.0023421051 -0.0033306968 -0.00028109248
0.00018736841 0.0044565662 -0.00056092441
0.00074947363 0.0048318561 -0.0021466387
0.0024357894 0.0039874539 -0.0039189076
-0.00056210527 0.0047380337 -0.0046651261
0.0014052631 4.6911224e-05 -0.0004676471
-9.3684204e-05 -0.0039874539 -0.0073701683
-0.0035599999 0.0013604255 -0.0027995799
-0.0014052631 -0.0037998091 0.001957563
0.0014989473 -0.0048318561 -0.0017735295
-0.00065578945 0.00070366834 -0.007556723
0.0021547368 -0.0041750991 -0.0004676471
-0.0012178947 0.0037059865 0.0026105042
0 0.0046442109 -0.00065420172
-0.0029042105 -0.0048318561 -0.00065420172
-0.0033726315 -0.0044565662 -0.0069970591
0.0035599999 -0.0023924725 -0.00037436979
-0.0015926316 -0.0048318561 -0.0049449583
0.0035599999 0.00098513567 -0.0014936975
-0.0019673684 0.0016418928 -0.0004676471
-0.0012178947 0.0048318561 -0.0023331933
0.0019673684 -0.0015480703 -0.007556723
0.0035599999 0.00051602343 -0.0059710084
-0.0035599999 -0.0034245192 -0.0065306723
-0.0010305262 -0.0032368745 -0.0074634454
-0.0025294735 -0.0048318561 -0.0036390757
-0.00046842103 -0.0048318561 -0.0014936975
0.0035599999 -0.0028615845 -0.0039189076
-0.0029042105 -0.0048318561 -0.0056911767
0.0035599999 -0.0011727805 -0.0034525211
0.0035599999 -0.0038936315 -0.004571849
-0.0035599999 -0.0023924725 -0.001027311
0.0035599999 -0.0022986499 -0.0040121851
-0.0028105262 -0.0023924725 -0.0074634454
0.0035599999 0.0022986499 -0.0023331933
-0.00037473682 0.0035183418 -0.0058777314
-0.0025294735 -0.0048318561 -0.0043852944
0.0024357894 -0.0048318561 -0.0032659664
-0.0028105262 0.0042689214 -0.0044785715
0.0016863158 -0.0048318561 -0.0063441177
0.00018736841 -0.0046442109 -0.0069037816
-0.0035599999 0.0020171825 -0.0038256303
0.0034663158 0.0015480703 -0.00056092441
0.00084315788 -0.0038936315 -0.00018781515
-0.0026231578 -0.0048318561 -0.0036390757
-0.00074947363 -0.0048318561 -0.0064373952
0.0021547368 0.0037998091 -0.00037436979
0.00093684206 0.0027677622 -1.2605353e-06
0.0025294735 0.0042689214 -0.00065420172
0.0035599999 -0.0030492295 -0.0004676471
0.0035599999 0.001266603 -0.0035457984
-0.0014052631 -0.0040812762 -0.0004676471
-0.0031852631 -0.0047380337 -0.0068105045
0.0033726315 -0.0016418928 -0.00056092441
-0.0020610525 0.001454248 -0.0004676471
-0.0020610525 -0.0048318561 -0.0025197479
-0.0035599999 0.0029554071 -0.00056092441
-0.0035599999 0.0033306968 -0.00065420172
0.00093684206 -0.0011727805 -0.0004676471
-0.0019673684 0.0037998091 -0.00037436979
0.0029978945 0.0048318561 -0.00084075634
0.0035599999 -0.00098513567 -0.0013071429
-0.0035599999 -0.0028615845 -0.006064286
-0.00065578945 -0.0038936315 -1.2605353e-06
0.00028105263 -0.0048318561 -0.0057844538
-0.0031852631 -0.0048318561 -0.0017735295
0.0035599999 0.001266603 -0.0065306723
0.0035599999 -0.0021110051 -0.0070903362
-0.00084315788 -0.0048318561 -0.0053180675
0.0024357894 0.0048318561 -0.002239916
-0.0014052631 0.0037998091 0.0013046218
-0.0035599999 0.0031430519 -0.002239916
0.0035599999 0.0016418928 -0.0041054622
-0.0035599999 0.0015480703 -0.0050382353
-0.00028105263 0.0048318561 -0.0023331933
-0.0035599999 -0.0019233602 -0.0013071429
-0.0029978945 0.0040812762 -0.00522479
0.0035599999 -0.0010789582 -0.0065306723
-0.0026231578 -0.0037998091 -0.0004676471
-0.00037473682 0.00060984591 -0.007556723
9.3684204e-05 -0.0048318561 -0.0039189076
-0.00065578945 0.0047380337 -0.0044785715
0.0022484211 0.0048318561 -0.0013071429
0.00093684206 -0.0033306968 -0.00028109248
-0.0028105262 0.0039874539 -0.0004676471
-0.0016863158 0.0037059865 -1.2605353e-06
0.0035599999 0.0028615845 -0.0023331933
0.0030915788 -0.0044565662 -0.0069037816
-0.0035599999 0.0030492295 -0.0056911767
-0.0035599999 0.0031430519 -0.0043852944
0.0022484211 -0.0048318561 -0.0018668068
0.00065578945 0.0034245192 -0.00037436979
0.0032789472 -0.0046442109 -0.0029861345
-0.0035599999 -0.0026739398 -0.004571849
0.0035599999 0.0023924725 -0.0050382353
0.0023421051 0.0045503885 -0.0031726891
0.0020610525 -0.0015480703 -0.0004676471
-0.0035599999 -0.0035183418 -0.0041054622
0.00084315788 -0.0018295377 -0.0004676471
-0.0032789472 -0.0048318561 -0.0034525211
0.0019673684 0.0032368745 -0.006064286
-0.0033726315 0.0038936315 -0.0048516807
0.0016863158 -0.0048318561 -0.0066239499
-0.0025294735 -0.0048318561 -0.0016802521
0.0020610525 0.0046442109 -0.00522479
-0.0035599999 0.0013604255 -0.0071836137
0.00028105263 0.0040812762 -0.003732353
0.0035599999 -0.001454248 -0.003732353
0.0015926316 0.0047380337 -0.0049449583
0.0029042105 0.0040812762 -0.00065420172
0.0012178947 -0.0037059865 0.0016777311
0.0028105262 0.0016418928 -0.0004676471
-0.0016863158 -0.000422201 -0.0004676471
0.0035599999 -0.0035183418 -0.0012138656
-9.3684204e-05 -0.0010789582 -0.0004676471
-0.0012178947 0.0036121642 -0.0056911767
0.0027168421 0.0048318561 -0.0015869748
0.0020610525 0.0013604255 -0.0004676471
0.0019673684 -0.0048318561 -0.006064286
0.0035599999 0.0021110051 -0.0024264706
0.0035599999 -0.0037059865 -0.0017735295
0.0035599999 -0.001454248 -0.00084075634
-0.0018736841 0.0042689214 -0.00065420172
-0.0035599999 0.00014073367 -0.0069037816
0.00074947363 -0.0048318561 -0.0027995799
-0.0024357894 -0.0015480703 -0.0004676471
-0.0035599999 0.00089131325 -0.0025197479
-0.0030915788 0.0018295377 -0.0073701683
-0.0015926316 0.0023924725 -0.00018781515
0.0034663158 -0.00032837858 -0.00056092441
0.0025294735 -0.0020171825 -0.00037436979
0.0014052631 -0.0037998091 0.00046512601
-0.00046842103 -0.0048318561 -0.0058777314
0.0016863158 -0.0034245192 -0.00037436979
-0.0035599999 0.0029554071 -0.0051315129
0.0035599999 0.0021110051 -0.0050382353
-0.0035599999 0.00023455612 -0.0019600841
0.0013115789 -0.0046442109 -0.0069970591
0.0035599999 -0.0038936315 -0.0059710084
-0.0035599999 -0.0022986499 -0.00074747903
0.00028105263 -0.0048318561 -0.0065306723
0.00056210527 0.0034245192 -0.0058777314
9.3684204e-05 -0.0042689214 -0.0004676471
0.0035599999 -0.00060984591 -0.00084075634
0.0016863158 0.0048318561 -0.0027063026
-0.0023421051 0.0024862948 -0.00018781515
-0.0018736841 -0.0048318561 -0.0054113446
-0.0029042105 0.0033306968 -0.0058777314
0.00074947363 -0.0048318561 -0.0059710084
0.0014052631 -0.0030492295 -0.00018781515
0.0035599999 -0.00089131325 -0.0020533614
0.0035599999 0.0024862948 -0.0023331933
0.0024357894 0.0041750991 -0.0054113446
0.0035599999 0.0024862948 -0.0035457984
0.0029978945 -0.0045503885 -0.0067172269
-0.0035599999 -0.0034245192 -0.0069970591
0.00065578945 0.0022048275 -0.0070903362
0.0031852631 -0.0047380337 -0.0058777314
-0.0018736841 0.0034245192 -0.00037436979
0.0023421051 -0.0045503885 -0.00065420172
-0.0016863158 -0.0046442109 -0.0070903362
0.0019673684 -0.0048318561 -0.0036390757
-0.0035599999 0.00070366834 -0.0047584036
0.00093684206 -0.0040812762 -0.0073701683
0.0019673684 0.00089131325 -0.0004676471
-0.0026231578 0.0024862948 -0.0068105045
9.3684204e-05 -0.00023455612 -0.007556723
-0.0035599999 0.000422201 -0.00522479
0.00037473682 -0.0017357153 -0.007556723
-0.0035599999 -0.0022048275 -0.0064373952
0.0035599999 0.0013604255 -0.0033592437
-0.0012178947 -0.0047380337 -0.0069970591
0.0034663158 0.0019233602 -0.0070903362
-0.0034663158 0.0025801172 -0.0065306723
-0.0013115789 -0.0038936315 0.0021441176
0.00028105263 -0.0034245192 -0.00037436979
-0.0011242105 0.0037998091 0.0014911764
-0.0035599999 0.0022986499 -0.0031726891
-0.0035599999 0.0016418928 -0.0044785715
-0.0010305262 -0.0048318561 -0.0040121851
0.0012178947 0.0042689214 -0.0041054622
-0.0035599999 -0.0011727805 -0.0030794118
-0.0023421051 0.0040812762 -0.0036390757
0.0014052631 -0.0032368745 -0.00018781515
-0.0035599999 0.0021110051 -0.00084075634
0.0031852631 0.0048318561 -0.0017735295
-0.0010305262 0.00089131325 -0.0074634454
-9.3684204e-05 -0.0038936315 -1.2605353e-06
0.0012178947 -0.0037059865 0.00046512601
-0.0035599999 -0.0036121642 -0.0015869748
0.0035599999 0.00089131325 -0.0049449583
-0.0015926316 -0.0048318561 -0.0055046221
-0.0021547368 0.0032368745 -0.00018781515
0.0035599999 -0.0029554071 -0.0026130253
-0.00046842103 0.0043627438 -0.0034525211
-0.0032789472 0.00098513567 -0.0004676471
-0.0035599999 -0.0042689214 -0.006064286
-0.0035599999 -0.0032368745 -0.0032659664
9.3684204e-05 0.0043627438 -0.0033592437
-0.0035599999 -0.0013604255 -0.00522479
-0.0021547368 0.0042689214 -0.0034525211
0.0035599999 -0.0031430519 -0.0039189076
-0.0033726315 -0.0027677622 -0.00018781515
-0.00084315788 0.0046442109 -0.00522479
-9.3684204e-05 -0.0021110051 -0.007556723
0.0035599999 -0.0010789582 -0.0038256303
0.0016863158 0.0046442109 -0.00065420172
-0.0035599999 0.00032837858 -0.0042920168
-0.0012178947 -0.00014073367 -0.0004676471
0.0012178947 0.0040812762 -0.003732353
0.0035599999 0.00079749082 -0.0053180675
0.00093684206 -0.0048318561 -0.0051315129
0.0029042105 0.0038936315 -0.0055046221
0.00028105263 0.0021110051 -0.00028109248
0.00037473682 -0.00079749082 -0.007556723
-0.0035599999 0.0026739398 -0.0032659664
0.0014052631 0.0025801172 -9.4537849e-05
-0.00065578945 -0.000422201 -0.0004676471
0.0028105262 -0.0024862948 -0.0074634454
0.0033726315 -0.0021110051 -0.0074634454
0.0035599999 -0.0042689214 -0.0020533614
0.0035599999 0.00014073367 -0.0065306723
0.0029978945 -0.0047380337 -0.004571849
0.0035599999 0.00023455612 -0.0063441177
-0.0021547368 0.0044565662 -0.00522479
0.00065578945 -0.0048318561 -0.0050382353
0.0022484211 0.00079749082 -0.0004676471
-0.0011242105 -0.0038936315 0.0012113445
-0.0025294735 -0.0030492295 -0.0074634454
0.00056210527 -0.0048318561 -0.0059710084
-0.0035599999 0.00098513567 -0.0019600841
-0.0035599999 4.6911224e-05 -0.0017735295
-0.0035599999 0.0019233602 -0.004571849
-0.00065578945 -0.00023455612 -0.007556723
0.00093684206 -0.0025801172 -0.00018781515
-0.0022484211 0.0048318561 -0.0012138656
0.0035599999 -0.0025801172 -0.0067172269
0.0030915788 0.0018295377 -0.00056092441
-0.0015926316 0.00070366834 -0.0074634454
-0.0013115789 0.0037059865 -0.0055978992
0.00084315788 0.00060984591 -0.0004676471
-0.0014989473 0.0031430519 -0.0062508406
-0.0014052631 0.0043627438 -0.0041987398
-9.3684204e-05 -0.0038936315 -9.4537849e-05
0.0019673684 -0.000422201 -0.0004676471
-0.0021547368 0.0031430519 -0.00018781515
-0.0035599999 -0.0037998091 -0.0023331933
-0.0011242105 0.0048318561 -0.002239916
-0.0035599999 -0.00051602343 -0.006064286
0.0025294735 -0.0041750991 -0.00065420172
-0.0035599999 -0.0029554071 -0.00056092441
-0.00018736841 0.0048318561 -0.0012138656
-0.0015926316 -0.00060984591 -0.0074634454
-0.0035599999 -0.0041750991 -0.0033592437
0.00065578945 0.0041750991 -0.0036390757
0.00018736841 0.0023924725 -0.0069037816
0.0035599999 0.001266603 -0.0056911767
-0.0012178947 -0.0018295377 -0.0004676471
0.0011242105 0.0048318561 -0.0017735295
0.0024357894 -0.0022986499 -0.00028109248
0.00028105263 0.0025801172 -0.0066239499
-0.0022484211 -0.0047380337 -0.00056092441
0.0035599999 0.0037059865 -0.0013071429
-0.0030915788 -0.0044565662 -0.0072768908
0.0035599999 0.0027677622 -0.0039189076
0.0035599999 -0.0043627438 -0.0053180675
-0.0032789472 -0.0018295377 -0.0073701683
-0.00046842103 -0.0047380337 -0.0068105045
-0.0022484211 -0.0048318561 -0.0035457984
0.0020610525 0.00089131325 -0.0074634454
-0.0010305262 -0.0048318561 -0.0061575631
0.00018736841 0.0048318561 -0.0017735295
0.0022484211 -0.0048318561 -0.0014004202
-0.00018736841 0.00060984591 -0.007556723
-0.0035599999 0.00051602343 -0.0055978992
-0.00037473682 0.0046442109 -0.0042920168
-0.00074947363 0.0047380337 -0.0049449583
-0.0035599999 -0.0023924725 -0.0067172269
0.0015926316 -0.000422201 -0.0004676471
0.0035599999 -0.0033306968 -0.0027063026
-0.0014052631 -0.0043627438 -0.0004676471
0.0035599999 0.0019233602 -0.0024264706
0.0014052631 0.0038936315 0.00046512601
-0.00037473682 0.0048318561 -0.00074747903
-0.0015926316 -0.00032837858 -0.0004676471
-0.0014989473 -0.0048318561 -0.0032659664
0.0026231578 -0.0037059865 -0.0074634454
0.0012178947 0.0048318561 -0.00074747903
0.0035599999 0.0011727805 -0.0019600841
0.00018736841 0.00079749082 -0.0004676471
0 -0.0023924725 -0.007556723
-0.0035599999 0.00014073367 -0.004571849
0.0035599999 -0.0034245192 -0.0011205883
-0.0014989473 0.0038936315 -0.00018781515
-0.0035599999 -0.0040812762 -0.0033592437
-0.0017799999 -0.0048318561 -0.0048516807
-0.0035599999 -0.0044565662 -0.0023331933
-0.0032789472 0.0045503885 -0.00065420172
0.0035599999 -0.00079749082 -0.0014004202
0.0035599999 -0.00060984591 -0.0031726891
-0.0017799999 0.0044565662 -0.0042920168
-0.0035599999 -0.00070366834 -0.0034525211
-0.0027168421 0.00032837858 -0.0074634454
0.0035599999 -0.0026739398 -0.0015869748
0.00037473682 0.0047380337 -0.0046651261
-0.0035599999 -0.0023924725 -0.0064373952
-0.0035599999 -0.00098513567 -0.00522479
0.0032789472 0.0038936315 -0.0053180675
0.00037473682 -0.0048318561 -0.00093403365
0.00084315788 -0.0032368745 -0.00018781515
-0.0035599999 -0.0017357153 -0.0055978992
-0.0016863158 0.0041750991 -0.0004676471
0.0029042105 0.00060984591 -0.0004676471
0.00093684206 -0.0048318561 -0.0040121851
-0.0012178947 0.0047380337 -0.0047584036
0.0029978945 -0.0045503885 -0.0069037816
0.0018736841 0.0048318561 -0.0027995799
-0.0012178947 -0.0013604255 -0.0004676471
-0.0035599999 0.0030492295 -0.0036390757
-0.0010305262 -0.0028615845 -1.2605353e-06
-0.0031852631 -0.0038936315 -0.0073701683
-0.0021547368 0.0033306968 -0.0058777314
-0.0034663158 -0.0037059865 -0.0069970591
0.0022484211 0.0033306968 -0.0059710084
-0.00074947363 -0.0023924725 -0.00018781515
-0.0024357894 0.0022048275 -0.0071836137
0.0035599999 -0.0011727805 -0.0027995799
0.00074947363 0.0048318561 -0.00093403365
-0.0012178947 0.0037998091 0.0032634453
-0.0035599999 -0.000422201 -0.0070903362
0.0013115789 0.00032837858 -0.007556723
-0.0027168421 0.0010789582 -0.0074634454
-0.00074947363 0.0029554071 -9.4537849e-05
0.0014989473 0.0048318561 -0.0013071429
-0.0014989473 0.0048318561 -0.0020533614
-0.0016863158 0.0019233602 -0.0073701683
0.00084315788 -0.0048318561 -0.0047584036
0.0026231578 0.0043627438 -0.0048516807
-0.0026231578 -0.0037059865 -0.0074634454
-0.0031852631 0.0032368745 -0.00028109248
0.0035599999 -0.0039874539 -0.0013071429
0.0035599999 -0.0039874539 -0.0035457984
0.0015926316 -0.0035183418 -0.00037436979
0.0032789472 -0.0041750991 -0.0071836137
0.0035599999 0.0022048275 -0.0030794118
0.0035599999 -0.0040812762 -0.0027995799
-0.0035599999 0.00079749082 -0.0072768908
-0.00018736841 0.0038936315 -1.2605353e-06
-0.00084315788 -0.00014073367 -0.007556723
0.0022484211 -0.0024862948 -0.0074634454
0.0035599999 0.0026739398 -0.0044785715
0.00037473682 -0.0032368745 -0.00018781515
-0.0035599999 -0.00032837858 -0.0027063026
-0.0026231578 -0.0048318561 -0.0062508406
0.0014989473 0.00060984591 -0.007556723
-0.0017799999 0.0037059865 -0.0055978992
0.0034663158 0.0045503885 -0.0014936975
9.3684204e-05 -0.0011727805 -0.007556723
0.0035599999 -0.0022986499 -0.0028928572
0.0035599999 -0.00079749082 -0.0030794118
-0.0029978945 0.0038936315 -0.0039189076
-0.0016863158 -0.00060984591 -0.0004676471
0.0035599999 -0.0035183418 -0.0029861345
-0.0035599999 -0.0033306968 -0.0054113446
-0.0032789472 -0.0048318561 -0.0032659664
0.0022484211 0.0046442109 -0.0051315129
0.0035599999 -0.0021110051 -0.0042920168
-0.0035599999 0.0016418928 -0.0036390757
-0.0022484211 0.0048318561 -0.0025197479
0.0035599999 -4.6911224e-05 -0.0070903362
-0.0035599999 0.0017357153 -0.0047584036
-0.0035599999 -0.0035183418 -0.0053180675
0.0035599999 -0.0019233602 -0.004571849
0.0035599999 0.0024862948 -0.0019600841
0 -0.00098513567 -0.0004676471
0.0035599999 0.00032837858 -0.0044785715
0.0035599999 -0.0037059865 -0.0059710084
0.0010305262 -0.001266603 -0.0004676471
0.0014989473 -0.0016418928 -0.007556723
-0.0014052631 0.0016418928 -0.0004676471
-0.0025294735 0.0039874539 -0.0040121851
-0.0035599999 -0.0030492295 -0.0051315129
0.0035599999 0.0017357153 -0.0023331933
-0.0031852631 0.0018295377 -0.0073701683
-0.0023421051 0.0045503885 -0.0049449583
-0.0035599999 0.0024862948 -0.0046651261
0.0035599999 -0.0026739398 -0.0066239499
0.0025294735 0.00098513567 -0.0004676471
-0.0025294735 -0.0046442109 -0.0004676471
0.0035599999 -0.0022048275 -0.0034525211
-0.0021547368 0.0010789582 -0.0074634454
-0.0035599999 0.0040812762 -0.0024264706
0.0025294735 0.0044565662 -0.0043852944
0.0035599999 -0.0023924725 -0.0046651261
0.00037473682 0.000422201 -0.0004676471
0.0031852631 0.0045503885 -0.00065420172
-0.0035599999 0.0013604255 -0.0069037816
-0.0035599999 -0.0038936315 -0.0070903362
0.0035599999 -0.0016418928 -0.0014004202
0.00074947363 -0.0038936315 -0.0073701683
-0.0012178947 -0.0038936315 0.00055840332
0.0013115789 0.0039874539 -0.00037436979
-0.0015926316 -0.0037998091 -0.0074634454
-0.0023421051 -0.0048318561 -0.0029861345
0.0018736841 -0.0048318561 -0.0016802521
-0.0035599999 -0.0040812762 -0.0042920168
-0.0012178947 -0.0031430519 -0.0074634454
0.0034663158 0.0026739398 -0.0041054622
-0.0029978945 0.0031430519 -0.006064286
-0.0031852631 0.0019233602 -0.0072768908
0.0026231578 0.0019233602 -0.0073701683
-0.0014989473 -0.0048318561 -0.0027063026
0.0025294735 0.0044565662 -0.004571849
0.0017799999 0.0036121642 -0.0056911767
-0.0022484211 -0.0046442109 -0.0072768908
0.0029042105 0.0048318561 -0.0024264706
0.0023421051 -0.0022986499 -0.00028109248
-0.0023421051 -0.0022048275 -0.00037436979
-0.0035599999 -0.0033306968 -0.00522479
-0.0035599999 0.0021110051 -0.0018668068
0.0010305262 0.0044565662 -0.0041987398
-0.0034663158 -0.0042689214 -0.00065420172
0 0.0048318561 -0.0025197479
-0.0035599999 0.0018295377 -0.0026130253
-0.0014052631 -0.0038936315 0.00093151256
0.0035599999 0.0018295377 -0.0011205883
-0.0035599999 0.00098513567 -0.0014936975
9.3684204e-05 -0.0022986499 -0.00018781515
-0.0035599999 0.0017357153 -0.0048516807
0.0035599999 -0.00051602343 -0.0030794118
-0.0034663158 -0.0037998091 -0.0071836137
-0.0030915788 0.0040812762 -0.0050382353
-0.0026231578 0.0038936315 -0.0055046221
0.0021547368 0.000422201 -0.0074634454
-0.0029978945 -0.0043627438 -0.00056092441
0.0035599999 0.00051602343 -0.00093403365
-0.00028105263 -0.0048318561 -0.00522479
-0.0028105262 -0.0048318561 -0.001027311
-0.0020610525 -0.0048318561 -0.0048516807
0.0010305262 0.0030492295 -0.0063441177
0.0035599999 -0.0043627438 -0.004571849
-0.0020610525 0.001266603 -0.0004676471
-0.0012178947 0.0022986499 -0.00018781515
0.0020610525 -0.0048318561 -0.0038256303
0.0031852631 0.00098513567 -0.0004676471
-0.0024357894 0.0043627438 -0.0033592437
-0.0015926316 -0.0031430519 -1.2605353e-06
-0.0012178947 0.0033306968 -0.0059710084
-0.0031852631 -0.0047380337 -0.0043852944
0.00018736841 0.0038936315 -1.2605353e-06
-0.0013115789 0.0044565662 -0.0032659664
0.00056210527 -0.000422201 -0.007556723
-0.0035599999 0.00014073367 -0.0024264706
0.0035599999 -0.000422201 -0.0054113446
0.0035599999 0.00079749082 -0.0048516807
-0.0028105262 -0.0022986499 -0.00037436979
-0.0020610525 -0.0048318561 -0.0020533614
0.00074947363 0.0036121642 -0.00018781515
0.0035599999 0.0029554071 -0.0014004202
0.0015926316 -0.0048318561 -0.0038256303
0.0025294735 0.0019233602 -0.0073701683
-0.0029978945 -0.0048318561 -0.0053180675
0.0035599999 0.00032837858 -0.0027995799
0.0034663158 0.0045503885 -0.00074747903
-0.0014989473 -0.0039874539 -0.00037436979
-0.0035599999 0.00079749082 -0.0065306723
0.0029042105 -0.00014073367 -0.0004676471
-0.0019673684 -0.0048318561 -0.0057844538
-0.0035599999 0.00089131325 -0.0024264706
-0.0022484211 -0.0048318561 -0.0025197479
-0.0035599999 -0.0029554071 -0.0019600841
-0.00037473682 0.0048318561 -0.0026130253
0.00037473682 -0.00060984591 -0.0004676471
0.0014052631 -0.0037998091 0.0022373949
0.0035599999 -0.0020171825 -0.00084075634
0.0015926316 -0.0048318561 -0.004571849
0.0035599999 -0.0037059865 -0.003732353
0.00028105263 0.0043627438 -0.0034525211
0.00065578945 -0.0048318561 -0.003732353
-0.00028105263 0.0033306968 -0.00028109248
0.0035599999 -0.00089131325 -0.0043852944
-0.0035599999 0.0010789582 -0.0027063026
0.0017799999 -0.0031430519 -0.00018781515
-0.0035599999 -0.0036121642 -0.0065306723
-0.0035599999 -0.0043627438 -0.0051315129
-0.0013115789 0.0037059865 0.0025172269
0.00065578945 -0.0042689214 -0.0004676471
0.0034663158 -0.0045503885 -0.0058777314
-0.0034663158 -0.0045503885 -0.0011205883
-0.00018736841 0.0048318561 -0.0018668068
-0.0035599999 -0.0026739398 -0.0041987398
-0.0035599999 -0.0029554071 -0.0024264706
0.0035599999 0.001454248 -0.0028928572
0.0030915788 0.0048318561 -0.0021466387
-0.0035599999 0.000422201 -0.0062508406
-0.0027168421 0.001266603 -0.0074634454
0.0035599999 0.0029554071 -0.00084075634
-0.00056210527 -0.0023924725 -0.00018781515
0.0035599999 0.00023455612 -0.0069037816
0.0014052631 -0.0010789582 -0.0004676471
0.00093684206 0.0040812762 -0.0039189076
-0.0027168421 0.00089131325 -0.0074634454
0.00084315788 -0.0030492295 -9.4537849e-05
-0.0035599999 -0.0036121642 -0.003732353
-0.0012178947 -0.0048318561 -0.0038256303
0.0035599999 -0.00079749082 -0.00522479
0.0035599999 -0.0028615845 -0.0071836137
-0.0014989473 0.0048318561 -0.00074747903
-0.0035599999 -0.0031430519 -0.0033592437
-0.0035599999 -0.0022986499 -0.0039189076
-0.00056210527 -0.0048318561 -0.0029861345
-0.00046842103 0.0047380337 -0.0044785715
0.00093684206 0.00079749082 -0.0004676471
0.0035599999 0.00098513567 -0.0018668068
0.0032789472 -0.0046442109 -0.004571849
-0.0012178947 -0.0042689214 -0.0074634454
0.0023421051 0.0028615845 -9.4537849e-05
0.0035599999 -0.0030492295 -0.00065420172
0.00037473682 -0.0048318561 -0.0016802521
-9.3684204e-05 0.0045503885 -0.0053180675
0.0026231578 0.0021110051 -0.0004676471
0.0035599999 -0.00098513567 -0.004571849
9.3684204e-05 -0.0048318561 -0.00084075634
0.00028105263 0.0019233602 -0.0073701683
-0.0015926316 -0.0048318561 -0.0055978992
0.0015926316 4.6911224e-05 -0.007556723
-0.0014052631 0.0011727805 -0.0074634454
0.0035599999 -0.0020171825 -0.0012138656
0.0020610525 -0.0026739398 -9.4537849e-05
-0.0028105262 0.0024862948 -0.00018781515
0.0026231578 0.0030492295 -0.0061575631
0.0020610525 -0.0044565662 -0.0071836137
0.00065578945 -0.0048318561 -0.0043852944
0.0026231578 0.0015480703 -0.0004676471
-0.0034663158 0.0037998091 -0.0048516807
-0.0012178947 -0.0033306968 -0.00028109248
0.0025294735 0.0016418928 -0.0004676471
0.0029978945 -0.0042689214 -0.00065420172
-0.0025294735 -0.0043627438 -0.0004676471
0.0022484211 0.0040812762 -0.0055046221
-0.00018736841 -0.0048318561 -0.0013071429
-0.0028105262 0.001454248 -0.0073701683
0.0035599999 -0.0029554071 -0.0032659664
0.0013115789 -0.00070366834 -0.0004676471
-0.0013115789 -0.0048318561 -0.0038256303
0.00046842103 0.00070366834 -0.0004676471
0.0035599999 0.0018295377 -0.0041054622
-0.0035599999 -0.0033306968 -0.0016802521
0.00084315788 0.0040812762 -0.0041054622
-0.0035599999 -0.0038936315 -0.0066239499
0.0035599999 0.0031430519 -0.0049449583
0.0034663158 0.00032837858 -0.0074634454
0.0035599999 0.0029554071 -0.0049449583
-0.0019673684 -0.0022986499 -0.00028109248
0.0014052631 -0.0048318561 -0.00522479
0.0035599999 -0.0013604255 -0.0036390757
0.0032789472 -0.0037998091 -0.0004676471
-0.0035599999 0.00079749082 -0.0013071429
0.0011242105 0.0047380337 -0.004571849
0.0035599999 0.00051602343 -0.004571849
-0.00084315788 0.0048318561 -0.0023331933
-0.0012178947 -0.0037998091 0.0003718487
0.0024357894 -4.6911224e-05 -0.0004676471
-0.0023421051 -0.0031430519 -9.4537849e-05
-0.0027168421 0.0047380337 -0.0014936975
0.0026231578 0.0048318561 -0.0023331933
-0.00065578945 0.0046442109 -0.0044785715
-0.00046842103 0.00079749082 -0.007556723
-0.00028105263 -0.00060984591 -0.007556723
0.00065578945 0.0036121642 -0.0057844538
-0.0022484211 -0.0037998091 -0.0074634454
-0.0035599999 -0.0024862948 -0.0068105045
-0.00037473682 0.0041750991 -0.0055046221
-0.0024357894 0.0047380337 -0.00093403365
-0.0027168421 0.0041750991 -0.0042920168
0.0035599999 -0.0030492295 -0.0068105045
0.0035599999 -0.0011727805 -0.0073701683
0.0012178947 -0.0048318561 -0.0059710084
-0.0018736841 -0.0048318561 -0.0056911767
-0.0026231578 -0.0048318561 -0.0039189076
0.00037473682 -0.0048318561 -0.0013071429
-0.0016863158 -0.0018295377 -0.0004676471
0.00093684206 -0.0038936315 -0.00028109248
0.0011242105 -0.0037998091 0.0021441176
0.0026231578 0.0018295377 -0.0004676471
-0.0035599999 0.00089131325 -0.0054113446
-0.0035599999 0.00014073367 -0.003732353
0.0035599999 0.0017357153 -0.0041054622
-0.00018736841 -0.0037059865 -9.4537849e-05
0.0023421051 -0.0024862948 -0.00018781515
0.0035599999 0.00098513567 -0.0027063026
0.0029978945 0.0018295377 -0.00056092441
0.0034663158 0.00098513567 -0.0074634454
-0.0035599999 0.000422201 -0.0015869748
-0.0010305262 0.0047380337 -0.0046651261
-0.0035599999 0.0022986499 -0.0011205883
0.0014989473 -0.0023924725 -0.007556723
0.0013115789 -0.0037059865 0.003170168
-0.0035599999 4.6911224e-05 -0.0058777314
-0.0014052631 0.0038936315 -0.00018781515
0.0015926316 0.0048318561 -0.001027311
0.0035599999 -0.0019233602 -0.0034525211
0.00037473682 -0.00070366834 -0.0004676471
0.0035599999 -0.0041750991 -0.0035457984
-0.0035599999 -0.00032837858 -0.0051315129
-0.0035599999 -0.0036121642 -0.0014936975
0.0035599999 -0.0038936315 -0.0027063026
-0.0035599999 -0.0021110051 -0.0062508406
0.0034663158 -0.0045503885 -0.0034525211
0.00018736841 -0.0048318561 -0.0018668068
0.00084315788 -0.00070366834 -0.007556723
-0.0014052631 0.0015480703 -0.0074634454
-0.0035599999 0.00098513567 -0.0039189076
-0.0035599999 0.00023455612 -0.0035457984
0.0016863158 0.0048318561 -0.0019600841
-0.0035599999 -0.00070366834 -0.0058777314
9.3684204e-05 -0.0048318561 -0.0059710084
-0.0022484211 -0.0017357153 -0.007556723
-0.00028105263 0.0048318561 -0.0026130253
-0.0035599999 -0.00060984591 -0.0013071429
0.0018736841 -0.0048318561 -0.003732353
-0.0029978945 -0.0026739398 -0.0074634454
-0.0011242105 0.0042689214 -0.0055046221
-0.0025294735 -0.00023455612 -0.0004676471
0.0018736841 0.00023455612 -0.007556723
0.0035599999 -0.0044565662 -0.0038256303
0.0027168421 -0.0034245192 -0.00037436979
-0.0035599999 -0.0017357153 -0.0024264706
0.0023421051 0.0048318561 -0.00074747903
-0.0013115789 -0.0048318561 -0.0015869748
-0.00037473682 0.0044565662 -0.0054113446
-0.0035599999 0.0029554071 -0.0044785715
0 -0.001266603 -0.007556723
-0.0012178947 0.0037059865 0.0032634453
0.0013115789 -0.0022986499 -0.00018781515
0.0026231578 0.001454248 -0.0074634454
-0.0030915788 -4.6911224e-05 -0.0074634454
0 0.0045503885 -0.0054113446
-0.0014989473 -0.00014073367 -0.0074634454
-0.0016863158 0.000422201 -0.0004676471
0.0035599999 -0.0015480703 -0.0034525211
0.00074947363 -0.0048318561 -0.0015869748
0.0013115789 -0.0048318561 -0.0065306723
-0.0033726315 0.0036121642 -0.0004676471
-0.0010305262 -0.0048318561 -0.0053180675
-0.00037473682 -0.0027677622 -0.007556723
-0.0011242105 -0.0037998091 0.0017710084
0.00046842103 -0.0022986499 -0.00028109248
-0.00093684206 -0.0022048275 -0.007556723
0.0035599999 -0.0033306968 -0.006064286
0.0029978945 -0.0024862948 -0.0074634454
-0.0027168421 0.0038936315 -0.0004676471
0.0016863158 -0.0023924725 -0.00018781515
-0.0035599999 -0.0020171825 -0.002239916
-0.0035599999 -0.00023455612 -0.0059710084
-0.0030915788 -0.0019233602 -0.00056092441
-0.0014052631 0.0047380337 -0.0046651261
-0.00056210527 -0.0048318561 -0.0011205883
0.0035599999 0.00079749082 -0.0027063026
0.0015926316 -0.0039874539 -0.0073701683
0.00065578945 0.0048318561 -0.0024264706
-0.0035599999 -0.0019233602 -0.0035457984
-0.0019673684 0.0022986499 -0.00018781515
0.0010305262 -0.0038936315 -9.4537849e-05
-0.0034663158 0.0044565662 -0.002239916
-0.0035599999 -0.0036121642 -0.0053180675
-0.0035599999 0.0034245192 -0.0024264706
0.0035599999 -0.00032837858 -0.00093403365
-0.0031852631 -0.0040812762 -0.0073701683
-0.0035599999 0.0040812762 -0.0028928572
0.0011242105 0.0048318561 -0.0012138656
-0.0035599999 0.0031430519 -0.0041054622
-0.0031852631 -0.0039874539 -0.0004676471
-0.0029042105 -0.0048318561 -0.0040121851
-0.0035599999 0.0035183418 -0.0019600841
0.00037473682 -0.0034245192 -0.00037436979
0.0013115789 -0.0048318561 -0.0014936975
0.0016863158 -0.0048318561 -0.001027311
-0.0035599999 -0.001454248 -0.0055978992
0.0022484211 0.0039874539 -0.0039189076
0.00046842103 -0.0042689214 -0.0004676471
-0.0031852631 0.0034245192 -0.0004676471
-0.0030915788 0.00060984591 -0.0004676471
-0.0014052631 -0.0048318561 -0.0056911767
0.0035599999 0.001266603 -0.0070903362
-0.0027168421 -0.0044565662 -0.0004676471
-0.0035599999 0.0041750991 -0.00074747903
-9.3684204e-05 -0.0018295377 -0.0004676471
-0.0012178947 -0.0037059865 -0.00028109248
-0.00037473682 0.0047380337 -0.0029861345
-0.0035599999 0.0016418928 -0.0011205883
-0.0010305262 0.0025801172 -0.0068105045
-0.0013115789 -0.0038936315 -1.2605353e-06
-0.0025294735 0.0041750991 -0.0054113446
-0.0025294735 -0.00070366834 -0.0004676471
0.0035599999 0.0037998091 -0.0013071429
0.0035599999 -0.0025801172 -0.0066239499
-0.0010305262 -4.6911224e-05 -0.007556723
0.0020610525 0.0048318561 -0.0026130253
0.0017799999 -0.0045503885 -0.0071836137
-0.0013115789 -0.0038936315 0.0025172269
-0.0035599999 0.0011727805 -0.0038256303
-0.0016863158 -0.00060984591 -0.0074634454
-0.0012178947 0.00051602343 -0.0074634454
0.0035599999 0.0030492295 -0.0023331933
0.0020610525 0.0016418928 -0.0074634454
0.0023421051 0.0020171825 -0.0004676471
0.00018736841 0.0015480703 -0.007556723
0.0035599999 0.00070366834 -0.0042920168
-0.0035599999 0.000422201 -0.0039189076
-0.00074947363 0.0040812762 -0.003732353
0.0021547368 0.00032837858 -0.007556723
-0.0035599999 0.0018295377 -0.00074747903
-0.0013115789 0.00089131325 -0.0004676471
-0.0023421051 0.0040812762 -0.0004676471
0.00074947363 -0.0037059865 -0.00018781515
0.0025294735 0.0048318561 -0.00084075634
-0.00037473682 0.0045503885 -0.0032659664
0.0035599999 0.00023455612 -0.0065306723
-0.00028105263 -0.001266603 -0.007556723
-0.0035599999 0.0024862948 -0.0026130253
-9.3684204e-05 0.00098513567 -0.0004676471
-0.0034663158 0.001454248 -0.0072768908
0.0035599999 -0.0026739398 -0.0059710084
0.0014052631 0.0015480703 -0.0004676471
-9.3684204e-05 -0.0048318561 -0.0035457984
0.0035599999 0.0013604255 -0.0049449583
0.0015926316 -0.0044565662 -0.0071836137
0.0035599999 0.0021110051 -0.0056911767
-0.0021547368 0.0022986499 -0.00028109248
-0.0012178947 0.0021110051 -0.0072768908
-0.0035599999 0.00032837858 -0.0024264706
-0.0035599999 -0.0037059865 -0.0054113446
-0.00065578945 0.0044565662 -0.0054113446
0.0035599999 -0.0018295377 -0.0035457984
-0.00065578945 -0.0028615845 -1.2605353e-06
-0.00018736841 -0.0037059865 -0.0074634454
-0.0031852631 -0.0011727805 -0.0004676471
-0.0031852631 -0.00089131325 -0.0004676471
0.0035599999 -0.00023455612 -0.00084075634
0.0035599999 0.0029554071 -0.0055978992
-0.0014052631 -0.0020171825 -0.007556723
0.0034663158 0.0044565662 -0.0018668068
-0.0035599999 -0.0018295377 -0.0049449583
-0.0034663158 -0.00098513567 -0.00056092441
-0.0017799999 0.0036121642 -0.0055978992
0.0017799999 -0.0045503885 -0.00065420172
-0.0025294735 -0.0048318561 -0.0031726891
-0.0014052631 4.6911224e-05 -0.0074634454
0.0018736841 -0.00051602343 -0.007556723
-0.0032789472 0.0046442109 -0.0021466387
-0.00065578945 -0.0048318561 -0.0041054622
0.00056210527 0.0028615845 -0.0064373952
0.0014052631 0.0024862948 -0.00018781515
-0.0035599999 -0.0034245192 -0.0019600841
0.0020610525 -0.0027677622 -9.4537849e-05
0.00074947363 -0.0024862948 -0.007556723
-0.0033726315 -0.0042689214 -0.0067172269
-0.0018736841 0.0020171825 -0.0072768908
-9.3684204e-05 -0.0038936315 -0.00018781515
0.0025294735 -0.0048318561 -0.0049449583
0.0013115789 0.0044565662 -0.0041987398
0.0027168421 -0.0048318561 -0.0013071429
-0.0014989473 -0.0037998091 -1.2605353e-06
-0.0026231578 0.0043627438 -0.0046651261
-0.00028105263 -0.0037059865 -0.00028109248
0.0035599999 0.0018295377 -0.0069970591
0.0026231578 -0.00070366834 -0.007556723
-0.0014052631 -0.00023455612 -0.0004676471
-0.0035599999 -0.0020171825 -0.0033592437
0.00028105263 -0.0037998091 -1.2605353e-06
0.0035599999 -0.0041750991 -0.0056911767
-0.00084315788 0.00051602343 -0.007556723
-0.0012178947 0.0037998091 0.00055840332
-0.0027168421 0.0040812762 -0.0041987398
-0.0016863158 0.0048318561 -0.0019600841
0.0035599999 -0.0015480703 -0.001027311
0.00018736841 -0.0046442109 -0.0067172269
0.0035599999 -0.0019233602 -0.00093403365
0.0032789472 -0.00060984591 -0.0004676471
0.00028105263 -0.0048318561 -0.0013071429
0.0024357894 -0.0048318561 -0.002239916
0.0035599999 -0.0023924725 -0.0049449583
-0.00037473682 -0.0043627438 -0.0004676471
0.0015926316 -0.0041750991 -0.0004676471
0.0010305262 -0.0048318561 -0.006064286
0.0035599999 -0.0011727805 -0.0051315129
0.00093684206 0.0047380337 -0.0053180675
0.0020610525 -4.6911224e-05 -0.0004676471
0.0012178947 -0.0040812762 -0.0073701683
-0.0021547368 0.0025801172 -0.0068105045
0.0035599999 0.0027677622 -0.0058777314
-0.00037473682 -0.0048318561 -0.0047584036
0.0029042105 -0.0047380337 -0.0064373952
-0.0025294735 0.0036121642 -0.0004676471
0.00018736841 0.0022986499 -0.00018781515
-9.3684204e-05 -0.00051602343 -0.0004676471
-9.3684204e-05 0.0047380337 -0.00065420172
0.0021547368 0.00060984591 -0.0004676471
-0.0028105262 0.0015480703 -0.0004676471
-0.00028105263 -0.0048318561 -0.0017735295
-0.0013115789 4.6911224e-05 -0.0074634454
0.0035599999 0.00051602343 -0.0067172269
-0.00056210527 -0.00014073367 -0.0004676471
0.00056210527 -0.0048318561 -0.004571849
0.0015926316 -0.0048318561 -0.0025197479
-0.0013115789 0.0015480703 -0.0004676471
-0.0033726315 -0.0043627438 -0.00065420172
-0.0035599999 0.001454248 -0.0046651261
-0.0035599999 0.00032837858 -0.0035457984
0.0035599999 -0.0019233602 -0.0042920168
0.0035599999 -0.0034245192 -0.0014004202
0.00074947363 -0.0027677622 -9.4537849e-05
0.0035599999 0.0039874539 -0.0023331933
0.0035599999 -0.0037998091 -0.0042920168
0.0035599999 -0.00070366834 -0.0038256303
-0.00074947363 -0.0010789582 -0.007556723
0.0034663158 -0.0045503885 -0.0042920168
-0.0015926316 0.0048318561 -0.0027063026
-0.0012178947 0.0037998091 0.00065168063
0.0022484211 0.0038936315 -0.0004676471
-0.0022484211 0.0039874539 -0.0055046221
-0.0035599999 0.0027677622 -0.0035457984
0.0035599999 -0.0035183418 -0.0057844538
-0.0035599999 -0.00051602343 -0.001027311
-0.0012178947 -0.0046442109 -0.00065420172
-0.0035599999 0.0013604255 -0.0013071429
-0.0019673684 -0.001266603 -0.007556723
-0.0025294735 -0.0048318561 -0.0050382353
9.3684204e-05 -0.0048318561 -0.0013071429
0.0033726315 0.0035183418 -0.0004676471
0.00065578945 0.0046442109 -0.0042920168
0.0011242105 -0.0047380337 -0.0069037816
-0.0012178947 -0.0023924725 -0.00018781515
0.0019673684 -0.00032837858 -0.0004676471
-0.00074947363 -0.0048318561 -0.00074747903
0.0029042105 -0.0047380337 -0.001027311
-0.0035599999 -0.0029554071 -0.0031726891
-0.0022484211 -0.0013604255 -0.007556723
0.00065578945 -0.0034245192 -0.0074634454
-0.0035599999 0.0032368745 -0.001027311
-0.0035599999 0.0037998091 -0.0034525211
0.00056210527 0.0029554071 -1.2605353e-06
0.0034663158 -0.0046442109 -0.002239916
0.0015926316 -0.0048318561 -0.0028928572
-0.0029978945 0.0047380337 -0.00056092441
-0.0015926316 0.0022048275 -0.0071836137
-0.0027168421 -0.0030492295 -0.00018781515
-0.0031852631 0.0037998091 -0.0004676471
0.0035599999 0.0016418928 -0.0062508406
-0.0020610525 0.00023455612 -0.0004676471
-0.0012178947 -0.0048318561 -0.002239916
-0.0011242105 0.0027677622 -0.0065306723
0.0012178947 -0.0048318561 -0.0032659664
-0.0024357894 -0.0036121642 -0.00028109248
-0.0026231578 -0.0041750991 -0.0074634454
0.0035599999 -0.0011727805 -0.0041054622
0.0035599999 -0.000422201 -0.0011205883
0.0024357894 4.6911224e-05 -0.0004676471
0.0035599999 0.0017357153 -0.0055978992
-0.0015926316 0.0035183418 -0.0057844538
-0.0019673684 0.00051602343 -0.0004676471
-0.0028105262 0.0011727805 -0.0004676471
-0.00084315788 0.0027677622 -0.0065306723
0.0020610525 0.0048318561 -0.001027311
-0.0035599999 -0.0025801172 -0.0027995799
-0.0035599999 0.0028615845 -0.0038256303
9.3684204e-05 0.0047380337 -0.0047584036
0.0035599999 -0.0011727805 -0.0019600841
0.0029978945 -0.000422201 -0.0074634454
-0.0035599999 -0.0025801172 -0.0055046221
-0.00046842103 -0.0048318561 -0.0051315129
-0.00018736841 0.0046442109 -0.0030794118
-0.00018736841 -0.0023924725 -0.00018781515
-0.0035599999 0.0035183418 -0.003732353
-0.0035599999 0.0030492295 -0.003732353
-0.0021547368 0.0011727805 -0.0074634454
0.0013115789 -0.0017357153 -0.007556723
0.0035599999 -0.0026739398 -0.0028928572
-0.0035599999 -0.0016418928 -0.0014936975
0.0035599999 0.0018295377 -0.0030794118
-0.0010305262 0.0018295377 -0.0004676471
9.3684204e-05 0.00089131325 -0.0004676471
-0.0035599999 0.00089131325 -0.0020533614
0.00046842103 -0.0040812762 -0.0004676471
-0.0035599999 -0.00079749082 -0.0069970591
-0.0030915788 -0.0048318561 -0.0017735295
0.0014052631 -0.0037998091 -0.0073701683
-0.0015926316 -0.00079749082 -0.0004676471
-0.00037473682 -0.0048318561 -0.0051315129
-0.0018736841 -0.0015480703 -0.007556723
-0.00046842103 0.0038936315 -1.2605353e-06
0.0020610525 -0.0048318561 -0.006064286
0.0014052631 0.0030492295 -0.0063441177
0.0032789472 0.0022048275 -0.0069037816
-0.0035599999 -0.0018295377 -0.0069970591
0.0035599999 -0.0038936315 -0.0064373952
0.0027168421 0.0016418928 -0.0004676471
0.0020610525 0.00014073367 -0.007556723
0.0027168421 -0.0010789582 -0.0004676471
0.0031852631 -0.001454248 -0.0074634454
-0.00056210527 0.0039874539 -0.0040121851
-0.0023421051 0.0036121642 -0.0055978992
-0.00037473682 -0.0040812762 -0.00037436979
-0.0024357894 0.0043627438 -0.0053180675
-0.0035599999 -0.0033306968 -0.00084075634
-0.00046842103 0.0041750991 -0.0036390757
0.0035599999 -0.0021110051 -0.0051315129
0.0032789472 -0.0046442109 -0.0016802521
-0.00056210527 0.0032368745 -0.006064286
-0.0035599999 -0.0022986499 -0.0054113446
0.0019673684 0.0020171825 -0.0004676471
-0.00018736841 -0.0048318561 -0.0032659664
-0.00065578945 0.0033306968 -0.00028109248
0.0035599999 -0.0018295377 -0.0040121851
0.0029978945 0.0016418928 -0.0074634454
-0.0034663158 0.0011727805 -0.0073701683
0.00056210527 0.001454248 -0.0004676471
-0.0035599999 0.0025801172 -0.0041054622
-0.0022484211 -0.0048318561 -0.0058777314
0.00065578945 -0.0037059865 -0.00028109248
9.3684204e-05 0.0047380337 -0.0048516807
-0.0029042105 0.0017357153 -0.0004676471
-0.0023421051 0.00098513567 -0.0074634454
-0.0012178947 0.0037059865 0.0017710084
-0.0032789472 -0.0019233602 -0.00056092441
0.0022484211 -0.0027677622 -0.0074634454
0.0035599999 0.0032368745 -0.0043852944
0.0035599999 0.00089131325 -0.0028928572
-0.0014989473 -0.0010789582 -0.007556723
-0.0015926316 -0.0010789582 -0.0004676471
0.0035599999 -0.0040812762 -0.0032659664
-0.0019673684 -0.0022986499 -0.00018781515
-0.0014052631 -0.0048318561 -0.0065306723
0.0016863158 0.0048318561 -0.0020533614
0.00056210527 0.001454248 -0.007556723
-0.0035599999 -0.0016418928 -0.001027311
-0.0024357894 0.0047380337 -0.0028928572
-0.00037473682 -0.0048318561 -0.0065306723
-0.0014052631 0.0038936315 0.00074495794
-0.0019673684 -0.0048318561 -0.001027311
0.0031852631 -0.0017357153 -0.00056092441
-0.0022484211 -0.0022048275 -0.0074634454
-0.0015926316 -0.00023455612 -0.0074634454
-0.00074947363 0.0022986499 -0.0069970591
0.00028105263 -0.001266603 -0.0004676471
-0.0013115789 -0.0032368745 -9.4537849e-05
-0.0012178947 0.0038936315 0.0028903361
0.0030915788 0.0023924725 -0.0068105045
0.0033726315 0.00032837858 -0.0004676471
0.00037473682 -0.0011727805 -0.007556723
-0.0030915788 -0.0048318561 -0.0051315129
-0.0011242105 -0.0048318561 -0.0043852944
0.00093684206 -0.0029554071 -0.0074634454
0.00056210527 -0.0048318561 -0.0034525211
-0.0033726315 0.0022048275 -0.0069037816
0.0035599999 -0.0034245192 -0.004571849
0.0016863158 0.0037998091 -9.4537849e-05
0.0015926316 -0.0015480703 -0.0004676471
-0.0024357894 -0.0034245192 -0.0074634454
0.00028105263 -0.001454248 -0.0004676471
0 -0.0048318561 -0.0027995799
-0.0035599999 -0.0041750991 -0.0018668068
-0.0035599999 -0.001454248 -0.0012138656
0.0012178947 -0.0016418928 -0.007556723
0.0021547368 -0.00070366834 -0.0004676471
0.0014989473 0.0046442109 -0.0043852944
0.0035599999 -0.0022986499 -0.0030794118
-0.0014052631 0.0035183418 -0.0058777314
0.0035599999 0.0016418928 -0.0019600841
0.0010305262 0.0039874539 -0.00028109248
0.0035599999 -0.0043627438 -0.0042920168
0.0035599999 -0.0032368745 -0.00093403365
-0.0035599999 -0.0019233602 -0.0021466387
0.0011242105 -0.0038936315 -9.4537849e-05
0.0013115789 -0.0024862948 -0.00018781515
0.0035599999 0.001266603 -0.0021466387
-0.0035599999 -0.0040812762 -0.0019600841
0.00093684206 0.00023455612 -0.0004676471
-0.00084315788 0.0029554071 -1.2605353e-06
0.0017799999 -0.0033306968 -0.0074634454
0.0033726315 0.000422201 -0.0074634454
-0.0028105262 0.0024862948 -0.0068105045
-0.0023421051 0.0024862948 -0.0068105045
0.0035599999 0.0015480703 -0.0033592437
0.0012178947 -0.0038936315 0.0029836134
-0.0026231578 -0.0048318561 -0.0038256303
-0.0028105262 -0.0048318561 -0.0029861345
0.0011242105 -0.0037998091 0.0027970588
0.0035599999 0.0029554071 -0.0057844538
-0.0035599999 -0.0024862948 -0.0069970591
0.00046842103 -0.0048318561 -0.0034525211
-0.0035599999 -0.0013604255 -0.00056092441
-0.0035599999 -0.0032368745 -0.0013071429
-0.0024357894 -0.0032368745 -0.00018781515
0.0035599999 0.0039874539 -0.0030794118
-0.00056210527 -0.0011727805 -0.0004676471
-0.0024357894 -0.0048318561 -0.0024264706
0.0026231578 0.0048318561 -0.0020533614
0.0013115789 -0.0038936315 -1.2605353e-06
-0.0011242105 -0.0021110051 -0.007556723
-0.0035599999 0.0030492295 -0.0021466387
0.0035599999 0.00014073367 -0.00093403365
0.0020610525 -0.00023455612 -0.007556723
-0.0030915788 -0.0027677622 -0.00018781515
-0.0015926316 0.0048318561 -0.002239916
0.0026231578 -0.00023455612 -0.007556723
0.0014989473 0.0029554071 -1.2605353e-06
0.0016863158 0.0037059865 -1.2605353e-06
0.0029042105 -4.6911224e-05 -0.0004676471
-0.0028105262 -0.0037998091 -0.0074634454
-0.00018736841 0.00089131325 -0.0004676471
0.0024357894 0.0022048275 -0.0004676471
-9.3684204e-05 0.001454248 -0.0004676471
-0.0014989473 -0.0048318561 -0.0065306723
0.0017799999 -0.00070366834 -0.0004676471
-0.0019673684 -0.0048318561 -0.0056911767
-0.0035599999 0.0032368745 -0.0044785715
-0.0035599999 -0.00060984591 -0.00522479
-0.0035599999 0.0035183418 -0.0035457984
0.0025294735 0.0048318561 -0.0018668068
0.00028105263 -0.0039874539 -0.00037436979
0.0018736841 0.0040812762 -0.0039189076
-0.0035599999 -0.0030492295 -0.0050382353
-0.0028105262 0.0042689214 -0.00065420172
-0.00065578945 -0.0047380337 -0.0067172269
-0.00084315788 0.0047380337 -0.0048516807
0.0035599999 0.0010789582 -0.0061575631
-0.0035599999 -0.0011727805 -0.0046651261
-0.0011242105 -0.0048318561 -0.0027995799
0.00046842103 -0.0048318561 -0.0054113446
0.00037473682 0.00023455612 -0.007556723
0.00074947363 -0.0020171825 -0.007556723
0.0035599999 -0.0013604255 -0.0054113446
-0.0034663158 -0.00051602343 -0.0074634454
-0.0020610525 -0.0038936315 -0.0074634454
-0.0031852631 0.0047380337 -0.0028928572
-0.0034663158 0.0021110051 -0.0004676471
-0.0035599999 0.0021110051 -0.00056092441
9.3684204e-05 0.0028615845 -0.0064373952
-0.0015926316 0.0021110051 -0.00037436979
-0.0015926316 -0.0030492295 -0.0074634454
-0.0030915788 -0.0048318561 -0.0019600841
-0.0027168421 -0.0020171825 -0.0074634454
0.0012178947 -0.0038936315 0.0016777311
-0.0034663158 -0.001266603 -0.0074634454
-0.00084315788 0.0025801172 -0.00018781515
0.0035599999 0.0031430519 -0.0012138656
0.00084315788 -0.00079749082 -0.007556723
-0.00037473682 -0.0021110051 -0.007556723
0.0035599999 0.0037059865 -0.0016802521
-0.0017799999 -0.0048318561 -0.0027995799
0.0035599999 -0.0017357153 -0.0011205883
-0.0031852631 0.0039874539 -0.0047584036
-0.0027168421 -0.0024862948 -0.0074634454
-0.0035599999 -0.0034245192 -0.0053180675
0.0010305262 0.0040812762 -0.0055046221
-0.00093684206 0.00032837858 -0.0004676471
-0.0030915788 0.0011727805 -0.0074634454
-0.0034663158 -0.0045503885 -0.0030794118
0.0025294735 -0.0024862948 -0.0074634454
-0.0029978945 -0.0027677622 -0.00018781515
-0.0035599999 0.00079749082 -0.00065420172
0.0035599999 0.0038936315 -0.0016802521
0.0035599999 0.0011727805 -0.0055046221
-0.0034663158 -0.0045503885 -0.0056911767
0.0035599999 0.00051602343 -0.0049449583
0.0035599999 -0.0018295377 -0.0046651261
0.0010305262 0.0045503885 -0.0041987398
-0.0024357894 0.00098513567 -0.0074634454
0.0012178947 0.0041750991 -0.0036390757
-0.0026231578 0.0047380337 -0.0015869748
-0.0035599999 -0.0032368745 -0.0064373952
0.0032789472 0.00032837858 -0.0004676471
-0.0035599999 -0.00089131325 -0.0033592437
-0.0017799999 -0.0040812762 -0.0004676471
0.0012178947 -0.0038936315 0.00065168063
-0.0014052631 -0.0036121642 -0.00037436979
-0.0016863158 0.0022986499 -0.0069970591
-0.0027168421 0.0032368745 -0.006064286
-0.0012178947 0.0037998091 0.0013978991
-0.00046842103 0.0029554071 -1.2605353e-06
-0.0029978945 -0.0048318561 -0.0026130253
-0.0027168421 -0.0048318561 -0.0047584036
0.0035599999 -0.001266603 -0.0044785715
-0.0035599999 0.0043627438 -0.0015869748
0.0028105262 0.0048318561 -0.0015869748
0.0035599999 0.0011727805 -0.0027063026
-0.0035599999 -0.00070366834 -0.0072768908
-0.0033726315 -0.0045503885 -0.0067172269
-0.00018736841 0.0029554071 -1.2605353e-06
0.0034663158 -0.0045503885 -0.00084075634
-0.0011242105 0.0037998091 9.2016773e-05
0.0024357894 -0.0023924725 -0.00018781515
0.0014052631 -0.0048318561 -0.0062508406
-0.00037473682 -0.0042689214 -0.0073701683
-0.0015926316 -0.0048318561 -0.00522479
0.0033726315 0.0031430519 -0.0059710084
-0.0012178947 0.0038936315 0.0016777311
0.0035599999 0.0025801172 -0.00522479
0.0019673684 0.001266603 -0.0074634454
-0.0015926316 0.0039874539 -0.0040121851
-0.0024357894 0.0028615845 -0.0063441177
-0.00093684206 0.00051602343 -0.007556723
-0.0031852631 -0.0027677622 -0.00018781515
0.0024357894 0.0043627438 -0.0041987398
-0.00028105263 0.0048318561 -0.0011205883
-0.0032789472 0.0010789582 -0.00056092441
-0.0010305262 0.0048318561 -0.001027311
0.0021547368 0.0048318561 -0.0020533614
0.0021547368 0.0031430519 -0.0061575631
0.0014989473 -0.0039874539 -0.0004676471
-0.0031852631 0.00089131325 -0.0004676471
-0.0034663158 0.0034245192 -0.0056911767
-0.0019673684 -0.0020171825 -0.0004676471
0.0035599999 0.00060984591 -0.0015869748
-0.0016863158 0.0041750991 -0.0041054622
-0.0018736841 -0.0030492295 -1.2605353e-06
-0.0033726315 -0.0047380337 -0.0054113446
0.0035599999 -0.0035183418 -0.0023331933
-0.0035599999 -0.0037059865 -0.0051315129
-0.0015926316 0.0047380337 -0.0029861345
0.00018736841 -0.0048318561 -0.0053180675
0.0035599999 -0.0017357153 -0.0065306723
0.0022484211 -0.00032837858 -0.0004676471
0.0020610525 0.0037059865 -0.0055978992
-0.0035599999 0.0024862948 -0.0051315129
-0.00093684206 0.0047380337 -0.00065420172
-0.0035599999 0.00079749082 -0.0041054622
0.0034663158 0.0044565662 -0.001027311
-0.0035599999 -0.0037059865 -0.0056911767
-0.0015926316 -0.0048318561 -0.0040121851
0.0035599999 -0.0021110051 -0.0017735295
