# .PCD v0.7 - Point Cloud Data file format
VERSION 0.7
FIELDS x y z
SIZE 4 4 4
TYPE F F F
COUNT 1 1 1
WIDTH 1201
HEIGHT 1
VIEWPOINT 0 0 0 1 0 0 0
POINTS 1201
DATA ascii
-0.00483 -0.0016784342 -0.0053077983
0.0037114737 -0.0047301329 -0.0015399083
0.0012710526 0.0047301329 -0.0044931192
-0.0026946315 0.0025939438 -0.00021605508
0.0010676841 -0.0028991136 -0.00021605508
0.0043215789 -0.0024922204 -0.0074463305
-0.0028979999 -0.0048318561 -0.0056133028
0.00483 -0.00035603149 -0.0066316514
-0.00086431578 0.00045775477 -0.00052155968
0.0047283159 -0.0020853274 -0.0074463305
0.004423263 0.0021870506 -0.007038991
-0.00483 -0.00055947807 -0.003169266
0.0024912632 -0.0039163465 0.0015151376
0.0022878947 0.00340773 -0.0061224774
0.00483 0.001576711 -0.0012344037
-0.00483 -0.0043232394 -0.0016417431
0.0025929473 0.0044249627 -0.0054096333
0.00015252631 -0.0037129 0.00019128437
-0.0016777895 -0.0037129 -0.00021605508
-0.00483 0.001576711 -0.002558257
-0.0021862106 5.0861643e-05 -0.0074463305
0.00055926316 0.0037129 -0.00021605508
0.003406421 0.0037129 -0.0057151378
-0.0013727368 -0.0011698178 -0.007548165
0.00483 -0.0032042835 -0.00072522939
-0.0032030526 0.0047301329 -0.00052155968
0.0016777895 0.00086464791 -0.00052155968
0.0022878947 -0.0039163465 -0.00041972482
0.00035589474 0.0031025601 -0.0063261469
-0.00483 0.0014749876 -0.0042894497
0.0013727368 0.00055947807 -0.00052155968
-0.0047283159 -0.0037129 -0.007140826
-0.0036097893 0.0044249627 -0.00052155968
-0.0012710526 0.0045266859 -0.00052155968
0.0046266313 0.004119793 -0.0029655963
0.00483 -0.0025939438 -0.0030674313
0.00015252631 -0.0038146232 0.00080229354
0.0010676841 -0.0035094533 -0.00041972482
-0.00015252631 -0.0039163465 0.0018206422
0.00483 -0.0026956671 -0.002456422
-0.00076263153 -0.0025939438 -0.007548165
0.0045249471 -0.0039163465 -0.00062339456
0.0024912632 -0.0025939438 -0.00021605508
0.0043215789 0.0033060068 -0.00031788994
0.0047283159 0.0028991136 -0.0055114678
-0.00483 0.001271541 -0.0056133028
-0.004016526 -0.0046284096 -0.007038991
0.0015761052 0.0030008368 -0.0064279819
-0.00045757895 -0.004119793 -0.00052155968
-0.0037114737 0.0011698178 -0.0074463305
0.00483 -0.0022887739 -0.0041876147
-0.00483 -0.0033060068 -0.0020490827
-0.0029996841 0.0027973903 -0.0066316514
0.00483 0.0032042835 -0.0039839451
-0.0043215789 -0.0048318561 -0.0029655963
0.001474421 0.0045266859 -0.00052155968
-0.0019828421 -0.0025939438 -0.00021605508
-0.0042198948 -0.0038146232 -0.0073444955
0.00015252631 -0.0037129 0.0017188073
0.00483 0.0018818808 -0.0059188074
0.00483 0.001576711 -0.0047986237
0.00483 -0.0026956671 -0.0012344037
-0.0032030526 0.00015258492 -0.00052155968
-0.0031013684 0.0048318561 -0.002456422
0.0013727368 0.0042215162 -0.00052155968
0.0018811579 -0.0044249627 -0.007140826
0.0025929473 -0.0039163465 0.00019128437
0.0039148419 0.0033060068 -0.00031788994
-0.0037114737 5.0861643e-05 -0.0074463305
0.0020845262 -0.0031025601 -0.0074463305
0.0025929473 0.0037129 0.00049678894
-0.00483 -0.001271541 -0.0064279819
0.0022878947 0.0039163465 -0.00031788994
0.0021862106 0.0042215162 -0.0055114678
0.0037114737 -0.0047301329 -0.0046967892
0.0032030526 -0.0019836039 -0.00041972482
-0.0032030526 5.0861643e-05 -0.00052155968
0.0043215789 0.0042215162 -0.0034747708
0.0026946315 -0.0048318561 -0.0030674313
-0.00096599996 -0.0019836039 -0.007548165
0.0029996841 0.00015258492 -0.007548165
-0.0043215789 -0.0028991136 -0.0074463305
-0.00483 0.00055947807 -0.0012344037
0.0023895788 0.0018818808 -0.00052155968
0.0045249471 -0.0045266859 -0.0028637615
0.0041182106 0.0014749876 -0.00052155968
-0.0013727368 0.0036111765 -0.00031788994
-0.00483 -0.001576711 -0.0051041287
-0.00483 0.0021870506 -0.0059188074
0.0023895788 -5.0861643e-05 -0.007548165
-0.00045757895 -0.0025939438 -0.00021605508
-0.0047283159 0.0033060068 -0.0052059633
0.00483 -0.00025430822 -0.0026600917
-0.0046266313 0.0011698178 -0.00052155968
0.0037114737 0.00066120137 -0.00052155968
-0.00483 -0.0032042835 -0.0020490827
-0.0035081052 0.0037129 -0.00031788994
-0.001474421 0.0042215162 -0.00052155968
0.0017794736 0.0048318561 -0.00072522939
5.0842104e-05 -0.0039163465 -0.00031788994
-0.00483 0.0039163465 -0.0026600917
0.0010676841 -0.0031025601 -1.2385352e-05
-0.0016777895 -0.0048318561 -0.0018454129
-0.00483 -0.0039163465 -0.0066316514
0.0039148419 -0.00066120137 -0.00052155968
0.00035589474 0.0048318561 -0.001030734
-0.0045249471 -0.0047301329 -0.0018454129
0.004423263 -0.0046284096 -0.003271101
-0.0011693684 0.0020853274 -0.0072426605
0.00483 5.0861643e-05 -0.0044931192
0.00096599996 -0.0048318561 -0.0057151378
0.0043215789 0.00055947807 -0.00052155968
0.0028979999 0.0048318561 -0.0022527524
-0.0015761052 -0.0045266859 -0.00052155968
0.00483 -0.00340773 -0.0039839451
-0.0021862106 -0.0048318561 -0.0030674313
0.00483 -0.0019836039 -0.0037802754
-0.0022878947 -0.0048318561 -0.0064279819
-0.001474421 -0.0048318561 -0.0059188074
-0.003406421 0.00015258492 -0.00052155968
-0.0039148419 -0.0030008368 -0.00021605508
-0.0012710526 0.0010680945 -0.00052155968
-0.004423263 -0.0033060068 -0.00021605508
0.0024912632 0.0027973903 -1.2385352e-05
0.004423263 0.0048318561 -0.0022527524
-0.00483 0.0043232394 -0.0018454129
-0.0035081052 -0.00035603149 -0.00052155968
5.0842104e-05 -0.0037129 -0.00031788994
0.0045249471 -0.0048318561 -0.0052059633
0.0027963158 0.0043232394 -0.0040857797
-0.00483 0.0016784342 -0.0066316514
-0.0043215789 0.0044249627 -0.00052155968
0.0010676841 0.0048318561 -0.0009288991
-0.0021862106 -0.0017801574 -0.00052155968
0.0026946315 -0.0027973903 -0.00021605508
-0.0033047367 -0.0048318561 -0.0047986237
-0.00483 0.00035603149 -0.00062339456
0.00483 0.00035603149 -0.007038991
-5.0842104e-05 -0.00086464791 -0.00052155968
0.00483 -0.0025939438 -0.0027619267
0.0020845262 -0.0048318561 -0.0030674313
0.0026946315 -0.0036111765 -0.00041972482
0.00015252631 0.0027973903 -0.0066316514
0.00483 0.0011698178 -0.00052155968
0.00076263153 0.0024922204 -0.00021605508
0.00483 0.001271541 -0.0073444955
-0.0031013684 -0.0048318561 -0.0030674313
-0.00483 0.0011698178 -0.0061224774
0.003406421 -0.001576711 -0.00052155968
0.0029996841 0.0048318561 -0.002558257
-0.00086431578 -0.00066120137 -0.00052155968
-0.0039148419 0.00015258492 -0.0074463305
0.001474421 -0.00035603149 -0.00052155968
-0.001474421 -0.0043232394 -0.00052155968
-0.0026946315 -0.0048318561 -0.006835321
0.00483 0.0011698178 -0.0043912847
-0.0011693684 0.0047301329 -0.0045949542
-0.00015252631 -0.0048318561 -0.0020490827
0.00055926316 -0.0048318561 -0.0055114678
0.0041182106 -0.0017801574 -0.0074463305
0.0027963158 -0.0048318561 -0.003271101
-0.0019828421 -0.0047301329 -0.0066316514
0.00483 5.0861643e-05 -0.0058169723
0.0011693684 0.00025430822 -0.00052155968
-0.00483 0.00076292461 -0.0055114678
-0.0042198948 0.0048318561 -0.002456422
-0.0028979999 -0.0048318561 -0.0011325688
-0.00483 0.0022887739 -0.0021509174
-0.0019828421 -0.0048318561 -0.003169266
-0.0025929473 0.0039163465 -0.00011422022
0.0046266313 0.0038146232 -0.0043912847
-0.00483 -0.0019836039 -0.0050022937
0.0038131578 0.0045266859 -0.0050022937
0.00025421052 0.0048318561 -0.0046967892
-0.00483 -0.0023904971 -0.0057151378
0.0018811579 -0.0031025601 -0.00011422022
-0.00483 -0.0035094533 -0.0066316514
0.0041182106 0.0040180697 -0.00062339456
0.0017794736 -0.0048318561 -0.0016417431
0.0015761052 0.0048318561 -0.002558257
0.00045757895 -0.0025939438 -0.007548165
-0.00483 -0.0025939438 -0.0055114678
0.0032030526 -0.00086464791 -0.007548165
0.0039148419 -0.0033060068 -0.0074463305
0.00483 0.0037129 -0.0035766056
-0.00066094735 -0.0048318561 -0.0060206424
-0.00015252631 -0.00025430822 -0.007548165
-5.0842104e-05 0.00035603149 -0.007548165
0.0024912632 -0.0038146232 -0.0074463305
0.0021862106 5.0861643e-05 -0.00052155968
-0.00483 -0.0013732644 -0.0047986237
5.0842104e-05 -0.0039163465 -0.0073444955
-0.00025421052 0.0013732644 -0.0074463305
0.004423263 -0.00086464791 -0.00052155968
-0.00483 0.0016784342 -0.0016417431
0.00086431578 -0.0025939438 -0.00011422022
-0.0031013684 -0.004119793 -0.00052155968
-0.0023895788 0.0038146232 0.0028389909
-0.0017794736 -0.00076292461 -0.00052155968
0.00483 0.00076292461 -0.0015399083
-0.0019828421 -0.0043232394 -0.0073444955
0.00483 0.0020853274 -0.0012344037
-0.0010676841 0.0048318561 -0.001743578
-0.00066094735 0.0045266859 -0.0034747708
0.0017794736 0.0028991136 -0.0065298164
-0.0041182106 -0.0033060068 -0.0074463305
-0.00076263153 0.004119793 -0.0055114678
0.0036097893 0.0025939438 -0.006835321
-0.00483 -0.0017801574 -0.002558257
0.00483 -0.0013732644 -0.0043912847
-0.00483 0.00015258492 -0.0050022937
-0.0025929473 -0.00066120137 -0.00052155968
-0.00483 0.00086464791 -0.0067334864
-0.0016777895 -0.00015258492 -0.0074463305
5.0842104e-05 0.004119793 -0.0055114678
-0.00066094735 0.0044249627 -0.00052155968
0.00483 -0.00035603149 -0.0060206424
-0.00483 0.00096637121 -0.0065298164
0.0046266313 -0.0016784342 -0.0074463305
0.0042198948 -0.0046284096 -0.0053077983
-0.00076263153 0.0045266859 -0.0041876147
-0.0036097893 -0.0026956671 -0.0074463305
-0.00035589474 0.0022887739 -0.007140826
0.001474421 -0.0017801574 -0.007548165
-0.0020845262 0.0037129 -0.0057151378
0.0020845262 -0.0048318561 -0.0064279819
0.0039148419 -0.001271541 -0.00052155968
-0.00086431578 -0.0010680945 -0.007548165
0.00483 -0.00015258492 -0.001030734
-0.00483 -0.0030008368 -0.0039839451
-0.001474421 -0.0038146232 -1.2385352e-05
-0.00483 -0.0030008368 -0.0066316514
-0.0028979999 -0.0021870506 -0.0074463305
-0.0035081052 -0.00096637121 -0.00052155968
0.00096599996 0.0011698178 -0.007548165
0.00483 -0.0027973903 -0.00031788994
-0.0019828421 -0.0048318561 -0.0011325688
-0.0013727368 -0.00025430822 -0.0074463305
0.0043215789 -0.0014749876 -0.0074463305
-0.0047283159 -0.00096637121 -0.0074463305
0.0037114737 -0.0013732644 -0.0074463305
-0.00483 0.00035603149 -0.003169266
0.003406421 -0.0047301329 -0.00082706427
-0.00035589474 0.0048318561 -0.0046967892
0.0025929473 -0.0026956671 -0.0074463305
-0.0029996841 0.0047301329 -0.0030674313
-0.00035589474 0.0026956671 -1.2385352e-05
0.0011693684 -0.0020853274 -0.00041972482
-0.0042198948 0.0044249627 -0.00052155968
0.0029996841 0.0044249627 -0.0033729358
-5.0842104e-05 0.0048318561 -0.0023545872
0.00483 -0.0039163465 -0.00062339456
0.0036097893 -0.0047301329 -0.0064279819
-0.0022878947 -0.0014749876 -0.007548165
0.0020845262 0.0048318561 -0.0013362386
0.0026946315 -0.0039163465 0.0018206422
0.00483 0.00055947807 -0.0022527524
-0.00025421052 -0.0018818808 -0.00052155968
-0.00483 0.0037129 -0.002558257
0.0047283159 0.0036111765 -0.0050022937
-0.00483 -0.0025939438 -0.0054096333
-0.00096599996 0.00086464791 -0.0074463305
0.001474421 -0.0039163465 -0.00021605508
-0.00483 0.0022887739 -0.0049004587
0.0029996841 0.0040180697 -0.00052155968
5.0842104e-05 0.0039163465 0.0013114678
0.00483 -0.001576711 -0.0051041287
0.0037114737 0.0026956671 -0.0067334864
-0.0025929473 0.0048318561 -0.001030734
-0.0035081052 -0.0048318561 -0.0021509174
0.0024912632 -0.0048318561 -0.0046967892
-0.0020845262 0.0042215162 -0.0040857797
0.00483 -0.0037129 -0.0016417431
0.0025929473 -0.0039163465 0.0027371559
-0.00483 -0.0031025601 -0.0047986237
-0.0015761052 -0.00025430822 -0.00052155968
0.00035589474 0.0037129 -0.00041972482
-0.00483 0.0020853274 -0.0029655963
0.0016777895 -0.0020853274 -0.007548165
-0.00483 0.0017801574 -0.00072522939
-0.00045757895 0.0046284096 -0.0054096333
0.0026946315 0.0037129 0.0025334863
0.0027963158 -0.00015258492 -0.00052155968
0.0041182106 -0.0014749876 -0.00052155968
0.00483 0.0017801574 -0.00072522939
-0.00483 -0.00076292461 -0.003271101
0.00025421052 0.0038146232 -0.0056133028
-0.00483 -0.00340773 -0.0014380735
-0.00483 -0.00055947807 -0.001743578
5.0842104e-05 0.0040180697 -0.00041972482
0.00483 -0.00340773 -0.0066316514
0.00483 0.00045775477 -0.0040857797
0.0036097893 -0.00076292461 -0.00052155968
-0.00483 -5.0861643e-05 -0.0065298164
5.0842104e-05 -0.00035603149 -0.00052155968
-0.0018811579 -0.0035094533 -0.00041972482
-0.0023895788 0.0043232394 -0.00052155968
0.0016777895 -0.0027973903 -0.0074463305
-0.0026946315 0.0038146232 0.0018206422
0.004016526 0.0048318561 -0.0021509174
-0.00483 0.0018818808 -0.00052155968
-0.0033047367 -0.0048318561 -0.0020490827
0.0047283159 0.001576711 -0.0066316514
-0.0024912632 -0.0039163465 0.0010059633
-0.0043215789 0.0027973903 -0.00021605508
0.0046266313 0.0046284096 -0.001030734
-0.00096599996 0.0048318561 -0.0011325688
-0.0020845262 0.0019836039 -0.0073444955
-0.001474421 -0.0014749876 -0.00052155968
-0.00015252631 0.0037129 0.001209633
-0.00483 -0.0032042835 -0.0044931192
0.0045249471 0.0036111765 -0.0056133028
-0.0012710526 0.0026956671 -0.006835321
-0.003406421 -0.0021870506 -0.00041972482
0.00483 5.0861643e-05 -0.0057151378
-0.0023895788 0.0035094533 -0.0059188074
0.0028979999 -0.0048318561 -0.0051041287
0.0027963158 0.0043232394 -0.0033729358
-0.00096599996 -0.0048318561 -0.0015399083
-0.0025929473 -0.0039163465 0.0023298166
0.0038131578 -0.0042215162 -0.00062339456
0.0011693684 -0.0048318561 -0.0019472478
-0.0010676841 -0.0021870506 -0.00041972482
0.00483 0.001271541 -0.0016417431
-0.0045249471 -0.0048318561 -0.0029655963
0.0011693684 -0.0030008368 -0.00011422022
0.0019828421 -0.0017801574 -0.00052155968
0.0042198948 0.0040180697 -0.0054096333
0.00096599996 0.0026956671 -0.00011422022
-0.00483 0.0030008368 -0.0023545872
-0.00086431578 -0.0048318561 -0.0045949542
0.003406421 0.0043232394 -0.0041876147
0.00483 0.00066120137 -0.0041876147
0.0022878947 0.0048318561 -0.0020490827
-0.00483 -0.0022887739 -0.00062339456
0.0035081052 -0.0023904971 -0.00021605508
-0.0016777895 0.0043232394 -0.0040857797
-0.00483 -0.00045775477 -0.0018454129
-0.00483 -0.0022887739 -0.0057151378
0.0031013684 -0.0048318561 -0.002558257
0.00483 -0.0045266859 -0.0050022937
-0.00483 0.00045775477 -0.0065298164
-0.00483 5.0861643e-05 -0.0015399083
5.0842104e-05 -0.0014749876 -0.007548165
-0.0013727368 0.0021870506 -0.00041972482
0.00483 0.0011698178 -0.0028637615
0.00045757895 0.0048318561 -0.0015399083
0.0018811579 0.0048318561 -0.0026600917
0.00483 0.0018818808 -0.0051041287
0.00483 -5.0861643e-05 -0.0022527524
-0.00483 -0.0026956671 -0.0055114678
-0.0010676841 -0.0048318561 -0.0026600917
0.0035081052 -0.0047301329 -0.0040857797
0.001474421 0.00035603149 -0.007548165
0.00483 0.0017801574 -0.0028637615
-0.0020845262 -0.0048318561 -0.0021509174
-0.00035589474 0.0043232394 -0.0055114678
-0.00096599996 -0.0048318561 -0.0041876147
-0.0018811579 0.0040180697 -0.00041972482
0.0018811579 0.0042215162 -0.0040857797
0.0042198948 0.0040180697 -0.0037802754
-0.0015761052 -0.0039163465 -0.00031788994
0.0046266313 0.0046284096 -0.0013362386
-0.0043215789 0.0031025601 -0.00021605508
-0.0028979999 0.0022887739 -0.00031788994
-0.00483 -0.0042215162 -0.0042894497
0.0011693684 -0.0048318561 -0.0039839451
0.00483 -0.0036111765 -0.0027619267
0.00096599996 -0.0032042835 -0.0074463305
0.0047283159 -0.0045266859 -0.0055114678
-0.00025421052 0.0025939438 -1.2385352e-05
0.00015252631 -0.00045775477 -0.007548165
0.0035081052 0.0040180697 -0.0054096333
-0.0012710526 -0.0022887739 -0.00031788994
0.00483 -0.004119793 -0.0044931192
-0.0024912632 -0.0048318561 -0.003271101
0.0028979999 0.0039163465 -0.00041972482
-0.00045757895 0.0046284096 -0.00062339456
0.0016777895 -0.0011698178 -0.007548165
0.0029996841 -0.0048318561 -0.0067334864
-0.0026946315 -0.0048318561 -0.0053077983
0.0047283159 -0.0045266859 -0.0043912847
0.00483 -0.0040180697 -0.0028637615
0.0015761052 0.0039163465 -0.00031788994
-0.0039148419 -0.0048318561 -0.0014380735
-0.00035589474 0.0011698178 -0.00052155968
-0.00483 -0.0040180697 -0.0055114678
-0.0045249471 -0.0047301329 -0.0067334864
-0.0032030526 -0.0030008368 -0.00021605508
-0.0022878947 -0.00035603149 -0.00052155968
0.00483 -0.00055947807 -0.00082706427
0.00483 -0.0040180697 -0.0064279819
0.0047283159 0.0028991136 -0.0060206424
0.0010676841 -0.0010680945 -0.007548165
-0.0020845262 -0.0048318561 -0.003169266
0.00483 -0.004119793 -0.0009288991
0.0039148419 0.0036111765 -0.0057151378
-0.00483 -0.0021870506 -0.0053077983
0.0045249471 -0.0045266859 -0.0033729358
0.0038131578 -0.0017801574 -0.00052155968
-0.00066094735 0.0044249627 -0.0054096333
-0.00483 -0.0010680945 -0.0058169723
0.0017794736 -0.0048318561 -0.0051041287
0.0042198948 0.0048318561 -0.00072522939
0.00015252631 0.0045266859 -0.00052155968
-0.00483 0.0016784342 -0.0054096333
-0.0032030526 0.0047301329 -0.0030674313
0.00045757895 0.0047301329 -0.0051041287
-0.0032030526 0.0047301329 -0.00062339456
-0.00483 -0.0023904971 -0.0056133028
0.0033047367 -0.00340773 -0.00041972482
0.00483 5.0861643e-05 -0.0030674313
0.0041182106 0.0030008368 -0.0063261469
0.0021862106 0.0048318561 -0.0050022937
-5.0842104e-05 0.0043232394 -0.0035766056
0.00483 -0.0013732644 -0.001743578
-0.0010676841 0.00025430822 -0.0074463305
-0.00045757895 -0.0048318561 -0.0043912847
-0.00096599996 -0.0033060068 -0.0074463305
-0.0037114737 -0.0020853274 -0.0074463305
-0.0031013684 -0.0048318561 -0.0055114678
-0.00483 5.0861643e-05 -0.002456422
-0.0026946315 0.0037129 -1.2385352e-05
0.001474421 -0.00086464791 -0.00052155968
0.0043215789 -0.0046284096 -0.0044931192
-0.0032030526 0.0048318561 -0.00082706427
0.00483 -0.00340773 -0.0065298164
0.00045757895 -0.0048318561 -0.0058169723
-0.00086431578 0.00055947807 -0.00052155968
-0.0033047367 -0.0048318561 -0.0039839451
0.0038131578 -0.0047301329 -0.0046967892
-0.00076263153 0.0017801574 -0.0074463305
0.00096599996 5.0861643e-05 -0.00052155968
0.0046266313 -0.0045266859 -0.0057151378
0.00483 -0.0019836039 -0.0049004587
5.0842104e-05 0.0039163465 0.0028389909
0.00035589474 -0.0048318561 -0.002558257
-0.0027963158 -0.00025430822 -0.00052155968
0.00483 0.0024922204 -0.0051041287
0.0036097893 0.0048318561 -0.001030734
0.00066094735 -0.00076292461 -0.007548165
-0.0025929473 -0.00086464791 -0.007548165
-0.0028979999 0.0048318561 -0.00072522939
0.00483 0.0024922204 -0.0033729358
0.00483 -0.0036111765 -0.0059188074
0.0024912632 0.00086464791 -0.0074463305
-5.0842104e-05 0.0047301329 -0.0044931192
-0.0016777895 -0.0024922204 -0.00021605508
0.00483 -0.0016784342 -0.0013362386
0.0023895788 -0.00045775477 -0.00052155968
-0.00483 0.00025430822 -0.0061224774
-0.00483 0.001271541 -0.006835321
-0.00096599996 -0.0039163465 -0.00011422022
0.00483 -0.0014749876 -0.0065298164
-5.0842104e-05 0.0037129 0.001922477
-0.0013727368 0.0048318561 -0.0026600917
-0.00483 -0.0032042835 -0.0018454129
-0.0017794736 0.0048318561 -0.0016417431
0.00483 0.00035603149 -0.0026600917
-0.00483 -0.0038146232 -0.0049004587
0.00483 -0.0030008368 -0.0038821101
0.00483 -0.0037129 -0.0012344037
-0.0046266313 0.0043232394 -0.00062339456
0.00015252631 -0.0048318561 -0.0053077983
-0.00086431578 -0.0048318561 -0.0021509174
0.0012710526 -0.0044249627 -0.007140826
0.0047283159 0.0037129 -0.0045949542
0.0043215789 -0.0046284096 -0.0057151378
-0.0019828421 -0.004119793 -0.0074463305
-0.0032030526 -0.0020853274 -0.00052155968
0.0013727368 0.0035094533 -0.00041972482
-0.0039148419 -0.0045266859 -0.00052155968
-0.0022878947 -0.0030008368 -0.00011422022
0.0047283159 0.0025939438 -0.0063261469
0.001474421 0.00055947807 -0.00052155968
0.0033047367 -0.001271541 -0.00052155968
0.0039148419 -0.0040180697 -0.0072426605
0.00483 -0.0024922204 -0.0014380735
-0.00483 -0.00025430822 -0.001030734
-0.0013727368 0.0031025601 -0.00021605508
0.00483 -0.0027973903 -0.0041876147
0.00483 -0.0044249627 -0.0047986237
0.00483 -0.0026956671 -0.0028637615
0.00076263153 0.0031025601 -0.0063261469
-0.00483 0.00086464791 -0.007038991
-0.0017794736 -0.0048318561 -0.0038821101
-0.0031013684 0.0037129 -0.00011422022
-0.0047283159 -0.0037129 -0.006937156
-0.0032030526 0.00035603149 -0.0074463305
0.0024912632 0.0048318561 -0.002558257
0.0037114737 -0.0047301329 -0.0057151378
0.0041182106 0.0031025601 -0.0061224774
-0.00066094735 0.0048318561 -0.0046967892
-0.0038131578 -0.0048318561 -0.0059188074
-0.00483 0.0021870506 -0.00062339456
-0.004016526 -0.0048318561 -0.0029655963
0.0029996841 0.0027973903 -0.0067334864
-0.00483 0.00076292461 -0.0018454129
-0.0032030526 -0.0048318561 -0.0037802754
0.00483 0.0021870506 -0.0056133028
-0.0017794736 0.0036111765 -0.00021605508
-0.0043215789 -0.0037129 -0.0074463305
0.0013727368 0.0030008368 -1.2385352e-05
-0.0045249471 -0.0047301329 -0.002456422
-0.00483 -0.0031025601 -0.0023545872
0.00483 0.00045775477 -0.001743578
-0.00055926316 -0.0043232394 -0.00052155968
-0.00483 0.0013732644 -0.001743578
-5.0842104e-05 0.0037129 -0.00041972482
0.00483 -0.00066120137 -0.003271101
0.00483 -0.0024922204 -0.0049004587
0.0012710526 0.0043232394 -0.0055114678
0.0042198948 -0.0037129 -0.00052155968
-0.0011693684 0.004119793 -0.00052155968
-0.0031013684 0.0032042835 -0.0062243119
-0.0042198948 0.00015258492 -0.00052155968
0.00096599996 0.00086464791 -0.007548165
-0.00483 0.0025939438 -0.003169266
-0.00483 0.00015258492 -0.0016417431
0.00066094735 0.0048318561 -0.0023545872
0.00483 -0.0031025601 -0.0015399083
-0.0042198948 0.0039163465 -0.0037802754
0.00483 5.0861643e-05 -0.0037802754
0.0028979999 -0.0048318561 -0.0060206424
0.00483 0.0016784342 -0.001743578
0.0015761052 -0.0014749876 -0.007548165
-0.0026946315 0.0037129 -0.00031788994
0.001474421 0.0047301329 -0.0044931192
0.0012710526 0.00340773 -0.00031788994
-0.0036097893 5.0861643e-05 -0.00052155968
0.0041182106 -0.00035603149 -0.0074463305
-0.00015252631 0.0048318561 -0.0050022937
0.004016526 0.0044249627 -0.00062339456
-0.00055926316 -0.0048318561 -0.003169266
0.00483 0.00025430822 -0.003169266
-0.0026946315 0.00076292461 -0.00052155968
0.00483 0.00025430822 -0.0051041287
0.0024912632 -0.0026956671 -0.0074463305
-0.0026946315 -0.0039163465 8.944951e-05
-0.0037114737 0.0043232394 -0.0042894497
-0.0025929473 0.0022887739 -0.00031788994
-0.0024912632 0.0039163465 0.0031444954
-0.00483 0.0031025601 -0.0050022937
-0.0047283159 0.0024922204 -0.0055114678
0.0010676841 0.0044249627 -0.0055114678
0.00483 -0.00025430822 -0.007140826
0.0023895788 0.0038146232 0.0028389909
-0.0045249471 -0.0047301329 -0.0052059633
-0.0023895788 -0.0037129 0.00090412842
0.00483 -0.00340773 -0.003169266
-0.0021862106 -0.0031025601 -1.2385352e-05
-5.0842104e-05 0.004119793 -0.0037802754
0.0021862106 -0.00045775477 -0.007548165
0.0035081052 -0.0047301329 -0.0051041287
0.0012710526 0.0040180697 -0.0038821101
-0.00096599996 5.0861643e-05 -0.00052155968
-0.00483 0.0030008368 -0.0015399083
5.0842104e-05 0.0037129 0.0026353211
0.004423263 0.0024922204 -0.00041972482
0.0029996841 0.001271541 -0.0074463305
0.00066094735 0.001271541 -0.00052155968
-0.00025421052 -0.0048318561 -0.0009288991
0.0023895788 0.0048318561 -0.0050022937
0.00483 0.0024922204 -0.0053077983
0.00086431578 0.0035094533 -0.0059188074
-0.0024912632 0.0048318561 -0.0018454129
0.003406421 -0.0037129 -0.0074463305
0.00483 0.00086464791 -0.0012344037
-0.0010676841 0.00096637121 -0.00052155968
0.0012710526 0.0028991136 -1.2385352e-05
0.0038131578 0.0014749876 -0.00052155968
-0.0038131578 0.0046284096 -0.0030674313
0.00055926316 -0.0028991136 -1.2385352e-05
-0.00483 0.0010680945 -0.0030674313
0.0039148419 -0.0027973903 -1.2385352e-05
0.00045757895 -0.00015258492 -0.00052155968
0.0031013684 -0.0042215162 -0.0072426605
0.00483 0.00086464791 -0.0037802754
-0.00483 0.0017801574 -0.0053077983
0.0020845262 0.0039163465 -0.00031788994
-0.00483 -0.0013732644 -0.003271101
0.00483 5.0861643e-05 -0.0034747708
0.00483 -0.00025430822 -0.0072426605
-0.00483 0.0016784342 -0.00082706427
-0.0017794736 -0.0048318561 -0.0042894497
0.00483 0.0023904971 -0.0020490827
-0.0033047367 0.0046284096 -0.0051041287
-0.00483 -0.00015258492 -0.0064279819
0.00483 0.001576711 -0.0049004587
0.00483 -0.00045775477 -0.0072426605
-0.00483 -0.0035094533 -0.0013362386
0.0022878947 0.0038146232 0.00019128437
-0.0026946315 0.0013732644 -0.0074463305
-0.0033047367 0.0031025601 -0.00021605508
0.00483 -0.0028991136 -0.0038821101
0.00483 0.001576711 -0.002558257
0.0021862106 0.0032042835 -0.0062243119
0.00483 0.0031025601 -0.0022527524
0.004423263 0.0036111765 -0.0056133028
0.00025421052 -0.0027973903 -1.2385352e-05
0.00015252631 -0.0023904971 -0.00021605508
-0.0022878947 0.0019836039 -0.00041972482
0.00483 0.001576711 -0.0021509174
0.0045249471 -0.00066120137 -0.00052155968
0.0045249471 -0.0048318561 -0.0060206424
-0.00086431578 5.0861643e-05 -0.00052155968
-0.0042198948 0.0048318561 -0.0009288991
-0.00483 -0.0026956671 -0.0040857797
-0.00015252631 -0.0048318561 -0.0060206424
-0.00086431578 -0.0048318561 -0.0023545872
0.003406421 -0.0022887739 -0.00021605508
-0.00015252631 0.0031025601 -0.0063261469
-0.00483 0.001576711 -0.0067334864
0.0038131578 0.0042215162 -0.0034747708
-5.0842104e-05 -0.0048318561 -0.0009288991
-0.0021862106 0.0014749876 -0.0074463305
0.00483 -0.0018818808 -0.0013362386
-0.00096599996 -0.00045775477 -0.007548165
-0.0038131578 -0.0048318561 -0.0066316514
-0.00483 0.0010680945 -0.0060206424
0.00483 -0.0027973903 -0.0064279819
0.00483 0.0026956671 -0.00031788994
0.0021862106 -0.0024922204 -0.0074463305
0.00483 0.0022887739 -0.0018454129
0.00483 -0.0011698178 -0.003169266
0.0036097893 0.0048318561 -0.0014380735
-0.00483 -0.0033060068 -0.0009288991
-0.00086431578 0.0011698178 -0.00052155968
-0.001474421 -0.0047301329 -0.0067334864
-0.0017794736 -0.0048318561 -0.001743578
0.00483 5.0861643e-05 -0.0039839451
-0.00483 0.0027973903 -0.0026600917
-0.00483 -0.0033060068 -0.0047986237
0.0022878947 -0.0011698178 -0.00052155968
0.0047283159 0.0046284096 -0.0016417431
0.0021862106 0.0043232394 -0.00052155968
0.004016526 -0.0046284096 -0.0029655963
-0.0025929473 -0.0028991136 -0.0074463305
-0.001474421 0.0043232394 -0.00052155968
-0.0025929473 -0.0040180697 -0.0073444955
0.0013727368 0.0016784342 -0.0074463305
-0.00483 -0.0039163465 -0.0020490827
-0.00483 0.0042215162 -0.0023545872
0.0045249471 0.0040180697 -0.0046967892
-0.00483 -0.0011698178 -0.0019472478
0.00483 -0.0027973903 -0.0049004587
-5.0842104e-05 0.0043232394 -0.0055114678
-0.0022878947 0.00015258492 -0.0074463305
-0.00483 -0.0027973903 -0.0037802754
0.00483 0.00045775477 -0.0056133028
-0.0039148419 -0.0048318561 -0.0057151378
0.00483 0.00025430822 -0.0063261469
-0.0020845262 0.0039163465 -0.00031788994
-0.0033047367 -0.0045266859 -0.00052155968
-0.00055926316 -0.0017801574 -0.007548165
0.0013727368 -0.0048318561 -0.0064279819
-0.00096599996 0.0048318561 -0.0050022937
5.0842104e-05 0.0018818808 -0.0074463305
0.0047283159 -0.0033060068 -0.00052155968
0.0032030526 0.0036111765 -0.00011422022
0.0031013684 -0.00055947807 -0.00052155968
0.0032030526 0.00045775477 -0.00052155968
-0.00483 -0.00076292461 -0.0014380735
0.00096599996 -0.0046284096 -0.00062339456
-0.0026946315 -0.0023904971 -0.00021605508
-0.00483 -0.0024922204 -0.0063261469
0.0019828421 -0.0048318561 -0.0040857797
0.0026946315 -0.0038146232 0.0025334863
0.001474421 -0.0048318561 -0.0020490827
0.00483 -0.0027973903 -0.0026600917
-0.0022878947 0.0013732644 -0.00052155968
-0.0025929473 0.0044249627 -0.0042894497
0.00483 -0.0025939438 -0.0021509174
0.00483 -0.00015258492 -0.0056133028
0.00055926316 -0.0040180697 -0.0073444955
0.0011693684 0.0013732644 -0.00052155968
0.00483 -0.0032042835 -0.0011325688
-0.00483 -0.0044249627 -0.0023545872
0.0022878947 0.0022887739 -0.00031788994
-0.0037114737 -0.0036111765 -0.00031788994
0.0023895788 -0.0048318561 -0.0011325688
-0.00483 -0.00086464791 -0.006835321
-0.0046266313 0.0032042835 -0.00031788994
-0.0026946315 5.0861643e-05 -0.00052155968
0.00483 -0.00025430822 -0.0052059633
0.00483 -0.00076292461 -0.003271101
-0.00483 -0.0021870506 -0.0051041287
-0.0042198948 -0.0048318561 -0.0012344037
0.00015252631 0.0024922204 -0.006937156
0.00483 -0.0023904971 -0.0040857797
-0.0011693684 -0.0048318561 -0.0063261469
-0.00096599996 -0.0048318561 -0.0051041287
0.00483 0.0010680945 -0.0018454129
0.00483 -0.0020853274 -0.0028637615
0.0029996841 -0.0028991136 -1.2385352e-05
-0.0045249471 -0.0037129 -0.0072426605
-0.0029996841 -0.0026956671 -0.00021605508
-0.004423263 0.0048318561 -0.0019472478
0.003406421 0.0040180697 -0.0054096333
-0.00483 0.00096637121 -0.002558257
-0.0021862106 0.0039163465 -0.00011422022
-0.0023895788 -0.0039163465 0.00080229354
-0.0033047367 -0.00076292461 -0.00052155968
-0.00045757895 0.0021870506 -0.00041972482
0.00483 -0.00076292461 -0.003169266
0.0037114737 -0.0047301329 -0.0011325688
0.0039148419 -0.00096637121 -0.00052155968
0.00483 -0.00340773 -0.00062339456
5.0842104e-05 -0.0039163465 0.0017188073
-0.0027963158 -0.0042215162 -0.00052155968
-0.00483 -0.0026956671 -0.003271101
0.0013727368 0.004119793 -0.0037802754
0.00066094735 -0.00025430822 -0.00052155968
-0.0012710526 -0.0048318561 -0.0012344037
0.0046266313 0.0021870506 -0.00052155968
0.0043215789 0.00045775477 -0.0074463305
-0.00483 0.00066120137 -0.0055114678
-0.00086431578 0.0039163465 -0.0055114678
-0.0012710526 -0.0048318561 -0.003271101
0.0023895788 0.00066120137 -0.00052155968
0.004016526 0.0043232394 -0.0046967892
-0.004016526 -0.0040180697 -0.0074463305
-0.0022878947 -0.0021870506 -0.00041972482
0.0011693684 0.00055947807 -0.007548165
0.001474421 0.00045775477 -0.00052155968
-0.00025421052 0.0045266859 -0.00062339456
0.004016526 -0.0028991136 -0.0074463305
-0.00055926316 0.0028991136 -0.0065298164
-0.0028979999 0.0048318561 -0.0021509174
-0.00096599996 0.0042215162 -0.0036784403
0.0028979999 0.00045775477 -0.00052155968
0.0016777895 0.0047301329 -0.0052059633
0.0046266313 -0.0045266859 -0.0027619267
-0.00055926316 -0.0016784342 -0.007548165
-0.0015761052 -0.0048318561 -0.0033729358
-0.00483 -0.0017801574 -0.0050022937
0.00015252631 0.0043232394 -0.0035766056
-0.0012710526 -0.0046284096 -0.00052155968
-0.0023895788 0.00045775477 -0.00052155968
-0.00076263153 -0.0039163465 -0.00031788994
0.0024912632 -0.0048318561 -0.0063261469
-0.0019828421 0.0044249627 -0.0053077983
-0.00483 -0.0023904971 -0.0073444955
-0.00483 0.0033060068 -0.0029655963
-0.0027963158 0.001576711 -0.0074463305
0.00483 0.0014749876 -0.0065298164
-0.0045249471 0.0048318561 -0.0015399083
-0.0011693684 0.00340773 -0.00041972482
0.0041182106 -0.0046284096 -0.0022527524
0.0018811579 -0.0048318561 -0.0052059633
0.0028979999 -0.0022887739 -0.00031788994
-0.0043215789 -0.0043232394 -0.00052155968
0.0046266313 0.0017801574 -0.00052155968
0.0012710526 0.0021870506 -0.00041972482
0.00096599996 0.0023904971 -0.007038991
0.0012710526 -0.0032042835 -0.0074463305
-0.00483 0.0035094533 -0.0009288991
0.00483 -0.0045266859 -0.0042894497
-0.0022878947 0.0011698178 -0.0074463305
0.0026946315 0.0038146232 0.00029311923
0.0018811579 -0.0027973903 -1.2385352e-05
0.0047283159 0.001271541 -0.0060206424
-0.00483 0.0028991136 -0.0026600917
0.00076263153 -0.00340773 -0.0074463305
-0.00483 0.0018818808 -0.00062339456
-0.0046266313 -0.0035094533 -0.00052155968
-0.0024912632 0.0043232394 -0.0041876147
-0.0033047367 0.0040180697 -0.00052155968
0.00483 -0.00076292461 -0.0073444955
-0.00483 0.0044249627 -0.0013362386
0.00483 -0.0014749876 -0.0021509174
-0.00483 0.0030008368 -0.0026600917
0.0035081052 -0.0047301329 -0.0054096333
-0.00483 -0.00015258492 -0.0009288991
0.00025421052 0.0014749876 -0.00052155968
-0.0033047367 -0.0048318561 -0.001743578
-0.0046266313 0.0028991136 -0.0063261469
0.0019828421 0.0040180697 -0.0039839451
0.0031013684 -0.0048318561 -0.001030734
0.0017794736 0.00035603149 -0.007548165
-0.00066094735 0.0025939438 -0.00011422022
0.00096599996 -0.0036111765 -0.00052155968
-0.0047283159 -0.0046284096 -0.0018454129
-0.00483 -0.0031025601 -0.0018454129
0.0026946315 -0.0048318561 -0.0034747708
-0.0017794736 0.0044249627 -0.00052155968
-0.00483 0.004119793 -0.002558257
-0.0046266313 -0.00055947807 -0.00052155968
-0.0010676841 -0.0048318561 -0.0055114678
0.0037114737 -0.0032042835 -0.00021605508
-0.00483 -0.0011698178 -0.0036784403
-5.0842104e-05 0.00035603149 -0.00052155968
0.0019828421 0.0023904971 -0.007038991
0.0039148419 -0.0038146232 -0.0073444955
0.00076263153 0.0020853274 -0.0073444955
0.00086431578 0.0047301329 -0.0029655963
-0.0033047367 -0.0011698178 -0.0074463305
-0.00483 0.0018818808 -0.00072522939
-0.00483 0.0010680945 -0.0020490827
0.00483 -0.0040180697 -0.0057151378
0.0010676841 0.0033060068 -0.00031788994
-0.0010676841 0.0033060068 -0.00031788994
-0.00483 0.0028991136 -0.0043912847
0.0019828421 -0.0045266859 -0.00062339456
-0.00015252631 -0.00025430822 -0.00052155968
0.0022878947 0.0038146232 8.944951e-05
0.00483 -0.00340773 -0.0036784403
0.0042198948 -0.0033060068 -0.00031788994
-0.0015761052 0.0042215162 -0.0037802754
-0.00483 -0.0043232394 -0.0040857797
0.0018811579 -0.0048318561 -0.0014380735
-0.00055926316 0.00340773 -0.0059188074
0.0021862106 -0.0021870506 -0.0074463305
0.0026946315 -0.0011698178 -0.00052155968
0.0035081052 0.0048318561 -0.0014380735
-0.00483 -0.0023904971 -0.0038821101
5.0842104e-05 -0.0039163465 0.0023298166
0.0023895788 0.00096637121 -0.0074463305
5.0842104e-05 0.0036111765 -0.00052155968
0.0027963158 0.0013732644 -0.00052155968
0.0013727368 0.0033060068 -0.00031788994
0.0045249471 -0.00340773 -0.00052155968
0.0013727368 0.0023904971 -0.00021605508
0.001474421 0.0013732644 -0.00052155968
-0.0026946315 0.0038146232 0.0024316513
0.0011693684 0.0043232394 -0.00052155968
0.004423263 0.00076292461 -0.00052155968
-0.00086431578 -0.00096637121 -0.007548165
-0.0012710526 -0.001576711 -0.007548165
-0.00055926316 -0.0021870506 -0.007548165
-0.00483 0.0024922204 -0.0028637615
0.00483 0.001271541 -0.0020490827
0.00483 0.0010680945 -0.0021509174
-0.0035081052 0.0045266859 -0.0051041287
0.00025421052 0.004119793 -0.0037802754
-0.00483 -0.00025430822 -0.0021509174
-0.00483 0.0024922204 -0.0051041287
0.00483 -0.0042215162 -0.002558257
0.00483 0.00035603149 -0.0073444955
-0.00483 0.0036111765 -0.00072522939
0.00096599996 0.0045266859 -0.0041876147
-0.0020845262 0.00045775477 -0.00052155968
0.00483 -0.0044249627 -0.0046967892
0.0023895788 -0.0048318561 -0.002456422
0.00025421052 -0.00025430822 -0.007548165
-0.00483 0.00045775477 -0.003169266
0.00076263153 -0.00340773 -0.00041972482
-0.0046266313 -0.0039163465 -0.006835321
0.0010676841 -0.0037129 -0.00041972482
-0.00015252631 -0.0039163465 0.0026353211
-0.0025929473 -0.0039163465 0.0018206422
0.0032030526 -0.0014749876 -0.0074463305
0.0012710526 -0.0048318561 -0.0064279819
0.0031013684 -0.0014749876 -0.00052155968
-0.00483 -0.001576711 -0.003271101
0.004423263 0.0046284096 -0.0030674313
0.0026946315 0.0038146232 -0.0056133028
0.00483 0.001271541 -0.0049004587
-0.00483 -0.0022887739 -0.0054096333
-0.00015252631 0.0037129 -0.00021605508
-0.0012710526 -0.0048318561 -0.0062243119
0.0036097893 0.0045266859 -0.00062339456
-0.00483 -0.00086464791 -0.003271101
-0.0029996841 0.0042215162 -0.0035766056
0.0035081052 -0.0047301329 -0.0066316514
0.00483 0.00076292461 -0.0050022937
-0.004016526 -0.0048318561 -0.0044931192
-0.00483 -0.00035603149 -0.0043912847
0.00483 0.00035603149 -0.0053077983
0.0028979999 0.004119793 -0.0038821101
0.00483 0.0023904971 -0.0060206424
0.00483 -0.0016784342 -0.0065298164
0.0039148419 -0.0047301329 -0.0014380735
0.0045249471 -0.0025939438 -0.0074463305
0.0041182106 -0.0046284096 -0.0037802754
-0.00035589474 0.004119793 -0.00052155968
0.00483 -0.0025939438 -0.0065298164
-0.0041182106 0.0048318561 -0.00072522939
0.0041182106 0.0048318561 -0.0028637615
-0.0045249471 -0.0048318561 -0.0011325688
0.0026946315 -0.0048318561 -0.00082706427
-0.0016777895 -0.0017801574 -0.00052155968
0.00045757895 0.0036111765 -0.0058169723
0.00483 -0.00015258492 -0.006937156
0.0036097893 -0.0046284096 -0.007038991
0.0029996841 0.0017801574 -0.0074463305
0.00483 -0.0042215162 -0.0050022937
-0.0035081052 -0.0048318561 -0.0016417431
0.00483 -0.00340773 -0.0062243119
-0.00483 -0.0038146232 -0.0041876147
0.0028979999 0.0024922204 -0.006937156
-0.0028979999 -0.0020853274 -0.0074463305
-0.003406421 -0.0011698178 -0.0074463305
0.00483 0.0023904971 -0.00062339456
-0.0045249471 0.00096637121 -0.0074463305
0.00483 -0.001271541 -0.007038991
0.00483 0.00066120137 -0.0045949542
-0.0025929473 -0.0038146232 0.00029311923
0.0015761052 -0.0031025601 -1.2385352e-05
0.00483 -0.0016784342 -0.0074463305
-0.0039148419 -0.0037129 -0.00031788994
0.0036097893 0.0046284096 -0.003169266
0.0025929473 0.00055947807 -0.0074463305
0.0022878947 0.0048318561 -0.001743578
-0.0036097893 -0.0048318561 -0.0065298164
0.0029996841 0.0037129 -0.0056133028
0.003406421 -0.0038146232 -0.00052155968
-0.0018811579 0.004119793 -0.0055114678
0.00483 0.0031025601 -0.0019472478
0.0035081052 -0.0045266859 -0.00072522939
0.00483 0.0016784342 -0.0037802754
-0.0041182106 0.00086464791 -0.00052155968
-0.00483 -0.0032042835 -0.006835321
0.00483 0.00035603149 -0.0029655963
0.0023895788 -0.0039163465 8.944951e-05
-0.0039148419 -0.0047301329 -0.007038991
-0.0022878947 0.0036111765 -0.00041972482
0.0023895788 -0.0026956671 -0.00011422022
5.0842104e-05 0.0048318561 -0.0050022937
-0.0024912632 -0.0018818808 -0.007548165
-0.001474421 0.0030008368 -0.0064279819
-0.00096599996 -0.0048318561 -0.0062243119
-0.0025929473 -0.0038146232 0.0031444954
-0.00483 0.0016784342 -0.0036784403
0.0016777895 -0.0048318561 -0.0064279819
-0.001474421 0.00076292461 -0.0074463305
-0.0010676841 -0.0016784342 -0.00052155968
-0.0025929473 0.0027973903 -0.0067334864
0.00483 0.0014749876 -0.0057151378
0.0031013684 -0.0048318561 -0.0046967892
0.00086431578 -0.0048318561 -0.0014380735
0.0036097893 0.0013732644 -0.00052155968
0.00025421052 0.0032042835 -0.0062243119
0.00483 -0.00096637121 -0.0065298164
-0.0024912632 0.0039163465 8.944951e-05
0.0018811579 -0.001576711 -0.00052155968
-0.0043215789 0.0032042835 -0.0061224774
0.0029996841 0.0043232394 -0.0054096333
0.00483 5.0861643e-05 -0.001030734
0.00483 0.0023904971 -0.0036784403
-0.0026946315 0.00035603149 -0.0074463305
-0.00483 0.0013732644 -0.00072522939
-0.00086431578 0.0047301329 -0.0029655963
0.001474421 -0.0048318561 -0.0028637615
0.0031013684 0.0048318561 -0.001743578
0.00483 -0.0032042835 -0.0019472478
-0.0022878947 0.0025939438 -0.006937156
0.003406421 0.0048318561 -0.0009288991
-0.0025929473 -0.00055947807 -0.007548165
-0.0024912632 0.00086464791 -0.00052155968
-0.0033047367 0.0046284096 -0.0049004587
-0.00483 -0.001271541 -0.0057151378
0.0019828421 -0.0048318561 -0.0009288991
-0.00483 0.00096637121 -0.0027619267
0.003406421 -0.0047301329 -0.0046967892
-0.0019828421 -0.0048318561 -0.0047986237
-0.0027963158 0.0048318561 -0.0015399083
0.00066094735 -0.0019836039 -0.007548165
-0.0023895788 0.0038146232 0.00039495411
-0.0045249471 0.0038146232 -0.0040857797
0.00483 -0.0018818808 -0.0054096333
0.0029996841 0.0023904971 -0.00031788994
0.00483 0.00025430822 -0.0044931192
-0.00483 0.0037129 -0.001030734
-0.0017794736 -0.0048318561 -0.0022527524
0.00096599996 -0.00340773 -0.00031788994
-0.004016526 -0.0036111765 -0.00041972482
-0.0025929473 0.0042215162 -0.00052155968
0.00483 -0.00015258492 -0.0053077983
0.00025421052 0.00055947807 -0.00052155968
-0.0018811579 0.00086464791 -0.00052155968
-0.0033047367 -0.0033060068 -0.00021605508
0.00483 -0.0027973903 -0.0021509174
0.00483 0.00086464791 -0.003169266
-0.0036097893 0.001271541 -0.00052155968
-0.0033047367 -0.00096637121 -0.0074463305
0.00483 -5.0861643e-05 -0.0039839451
0.0017794736 0.0036111765 -0.0059188074
-0.0027963158 0.00025430822 -0.00052155968
-0.0027963158 -0.0048318561 -0.0062243119
0.0043215789 0.0048318561 -0.0014380735
-0.004423263 -0.00076292461 -0.00052155968
-0.0015761052 0.0047301329 -0.0028637615
0.0032030526 -0.00340773 -0.0074463305
-0.00045757895 0.0045266859 -0.003271101
-0.0042198948 -0.0040180697 -0.00052155968
0.00055926316 -0.0048318561 -0.0034747708
0.0015761052 0.0022887739 -0.00031788994
-0.001474421 -0.0031025601 -0.0074463305
-0.0028979999 0.0047301329 -0.0050022937
-0.0025929473 0.0037129 0.001209633
0.0011693684 -0.0016784342 -0.00052155968
0.0011693684 -0.0020853274 -0.007548165
0.00483 -0.0014749876 -0.0044931192
0.0037114737 0.0042215162 -0.00062339456
0.0023895788 0.0038146232 0.00080229354
-0.00483 0.0036111765 -0.0013362386
-0.00015252631 -0.0048318561 -0.0028637615
0.00483 -5.0861643e-05 -0.0042894497
0.0042198948 0.0048318561 -0.0013362386
-0.00096599996 0.0047301329 -0.00072522939
-0.00483 0.00055947807 -0.007038991
-0.0027963158 -0.0023904971 -0.00021605508
0.0027963158 -0.0048318561 -0.0016417431
0.00483 0.0022887739 -0.0014380735
-0.0021862106 -0.00096637121 -0.00052155968
-0.004016526 -0.0048318561 -0.0012344037
0.00483 0.0026956671 -0.0021509174
-0.0047283159 0.0017801574 -0.0072426605
-0.00483 -0.00055947807 -0.0050022937
-0.0039148419 0.0037129 -0.0055114678
-0.0028979999 0.0032042835 -0.00021605508
-0.0011693684 0.0047301329 -0.0051041287
0.00015252631 0.0037129 0.00029311923
0.00076263153 0.001271541 -0.007548165
0.00483 -0.00096637121 -0.0012344037
-0.00483 0.0032042835 -0.0018454129
-0.00035589474 -0.0037129 -1.2385352e-05
-0.00483 0.0020853274 -0.0052059633
0.0047283159 -0.0039163465 -0.00062339456
0.00483 -0.0036111765 -0.0047986237
0.0046266313 -0.0032042835 -0.00031788994
-0.0046266313 0.0038146232 -0.0037802754
-0.00483 -0.0037129 -0.0030674313
-0.00015252631 -0.0048318561 -0.0013362386
-0.00025421052 0.0016784342 -0.0074463305
0.00045757895 0.0047301329 -0.00062339456
0.0023895788 -0.0046284096 -0.006835321
0.0023895788 0.0044249627 -0.0041876147
0.0025929473 -0.0048318561 -0.0016417431
-0.00483 0.0042215162 -0.002456422
-0.0027963158 -0.0048318561 -0.0027619267
-0.00015252631 0.0022887739 -0.007140826
-0.00025421052 0.0038146232 8.944951e-05
-0.0023895788 0.00076292461 -0.0074463305
-0.0042198948 -0.0024922204 -0.0074463305
-0.00483 -0.0017801574 -0.0016417431
0.0042198948 -0.0014749876 -0.0074463305
-0.0016777895 0.001271541 -0.00052155968
0.00483 0.0037129 -0.0009288991
-0.0026946315 0.0037129 0.0015151376
0.00483 0.00035603149 -0.0054096333
-0.0043215789 0.004119793 -0.0046967892
0.0045249471 -0.0045266859 -0.0029655963
0.0038131578 0.0048318561 -0.00072522939
0.0016777895 -0.00340773 -0.00031788994
-0.0027963158 0.0036111765 -0.0057151378
-0.0043215789 -0.0048318561 -0.0012344037
0.0036097893 0.0020853274 -0.00052155968
0.00483 0.0017801574 -0.0052059633
-0.0024912632 -0.0037129 0.0018206422
-0.0025929473 0.0037129 0.00080229354
0.00483 -0.0011698178 -0.0052059633
0.00483 0.0017801574 -0.0035766056
0.003406421 -0.0040180697 -0.00052155968
-0.0026946315 -0.0016784342 -0.007548165
-0.00035589474 0.00055947807 -0.00052155968
-0.00483 0.001271541 -0.0035766056
-0.00025421052 -0.0014749876 -0.00052155968
-0.00483 -0.0043232394 -0.001030734
-0.0026946315 0.0011698178 -0.00052155968
0.0043215789 0.0048318561 -0.0018454129
0.004016526 0.0046284096 -0.00062339456
0.00055926316 0.0030008368 -0.0064279819
-0.0023895788 0.0038146232 0.00070045871
0.0029996841 -0.0048318561 -0.0044931192
0.0036097893 -0.0030008368 -1.2385352e-05
-0.0018811579 0.0039163465 -0.00011422022
-0.00483 -0.00015258492 -0.0018454129
-0.0046266313 0.0043232394 -0.003271101
0.00483 0.0027973903 -0.0040857797
-0.00483 -5.0861643e-05 -0.00052155968
0.0010676841 0.00086464791 -0.007548165
-0.00025421052 -0.0048318561 -0.0050022937
0.0032030526 0.0038146232 -1.2385352e-05
0.0032030526 0.0048318561 -0.001743578
0.00483 -5.0861643e-05 -0.0056133028
-0.00483 -0.0017801574 -0.0027619267
0.0020845262 -0.0048318561 -0.0057151378
0.0015761052 -0.0027973903 -1.2385352e-05
-0.00086431578 0.0047301329 -0.0045949542
-0.00483 0.00035603149 -0.0016417431
0.0020845262 0.0022887739 -0.007140826
-0.00086431578 0.0048318561 -0.0047986237
0.0046266313 -0.0047301329 -0.0067334864
-0.0020845262 0.0044249627 -0.0033729358
-0.00483 0.0014749876 -0.0066316514
-0.00483 0.00086464791 -0.00052155968
-0.00483 -0.00015258492 -0.007140826
-0.00483 -0.0023904971 -0.0009288991
-0.0038131578 -0.0018818808 -0.0074463305
-0.003406421 -0.0048318561 -0.0020490827
-0.0028979999 -0.0048318561 -0.0029655963
-0.0047283159 0.0036111765 -0.0040857797
-0.0020845262 -0.0036111765 -0.00021605508
0.0042198948 -0.0046284096 -0.0028637615
0.00483 -0.0038146232 -0.0022527524
0.00035589474 -0.0042215162 -0.00052155968
0.0022878947 -0.0036111765 -0.0074463305
-0.0047283159 -0.0022887739 -0.0074463305
-0.0024912632 -0.0032042835 -0.0074463305
0.00015252631 -0.0024922204 -0.007548165
-0.00483 -0.0017801574 -0.0018454129
-0.004423263 -0.0048318561 -0.001743578
0.00483 -0.0037129 -0.00082706427
0.00066094735 0.0018818808 -0.00052155968
0.00483 -0.0025939438 -0.0036784403
-0.00096599996 -0.004119793 -0.00052155968
-0.00055926316 0.00076292461 -0.007548165
-0.00483 -0.0010680945 -0.006835321
0.00483 -0.0025939438 -0.0015399083
-0.0011693684 0.0043232394 -0.00052155968
-0.00015252631 0.001271541 -0.007548165
0.0011693684 0.0032042835 -0.0062243119
-0.00483 0.001271541 -0.0046967892
-0.0016777895 0.0048318561 -0.0015399083
0.0043215789 -0.0042215162 -0.00072522939
0.00483 -0.00025430822 -0.0050022937
-0.004423263 -0.00086464791 -0.0074463305
-0.004016526 0.0033060068 -0.00031788994
-0.0013727368 0.0048318561 -0.00082706427
0.00076263153 -0.0045266859 -0.0066316514
-0.00055926316 -0.0038146232 -0.0074463305
-0.00035589474 -0.0048318561 -0.0056133028
0.00483 0.0016784342 -0.0009288991
0.00055926316 0.004119793 -0.0055114678
0.0031013684 -0.0046284096 -0.007140826
-0.00483 -0.0010680945 -0.0019472478
-0.00076263153 -0.00096637121 -0.007548165
-0.00483 0.0031025601 -0.0027619267
-0.0021862106 -0.0045266859 -0.0073444955
5.0842104e-05 0.0039163465 0.00029311923
0.0016777895 0.00076292461 -0.007548165
0.0035081052 0.0023904971 -0.00031788994
0.00483 0.0042215162 -0.002456422
-0.00483 0.00055947807 -0.0030674313
0.0032030526 -0.0027973903 -1.2385352e-05
-0.0012710526 -0.0014749876 -0.00052155968
0.0012710526 0.0046284096 -0.0043912847
-5.0842104e-05 0.0030008368 -0.00011422022
0.0016777895 0.00340773 -0.0061224774
-0.00483 -0.0035094533 -0.0050022937
-0.0016777895 0.0023904971 -0.006937156
0.0031013684 -0.0038146232 -0.0073444955
0.0037114737 0.0018818808 -0.0074463305
0.0047283159 -0.0045266859 -0.0053077983
0.0017794736 0.0046284096 -0.0043912847
-0.00025421052 -0.0030008368 -0.007548165
0.00483 -0.0010680945 -0.0049004587
0.00483 -0.0027973903 -0.0072426605
-0.0043215789 0.0037129 -0.00052155968
-0.0026946315 -0.00025430822 -0.00052155968
0.00035589474 0.00066120137 -0.007548165
0.00483 -0.0028991136 -0.0015399083
-0.0018811579 -0.00015258492 -0.00052155968
0.0038131578 0.0024922204 -0.006835321
-0.00076263153 0.0047301329 -0.0030674313
-0.00045757895 -0.0020853274 -0.007548165
-0.0038131578 0.0023904971 -0.006937156
-0.0032030526 -0.0048318561 -0.001030734
-0.00483 -0.0020853274 -0.0041876147
-0.00045757895 -0.0048318561 -0.0009288991
-0.00086431578 -0.0037129 -0.00031788994
0.0021862106 0.0028991136 -0.0065298164
-0.0047283159 0.0035094533 -0.0054096333
-0.00483 -0.0035094533 -0.0049004587
0.00055926316 0.0045266859 -0.0055114678
0.0022878947 0.0021870506 -0.00041972482
-0.0010676841 0.004119793 -0.0055114678
-0.00076263153 -0.0048318561 -0.001030734
-0.0043215789 -0.0023904971 -0.00031788994
-0.0027963158 -0.0048318561 -0.0011325688
-0.00483 0.0038146232 -0.00082706427
-0.00483 0.0033060068 -0.0040857797
-0.00076263153 0.0040180697 -0.0039839451
-0.0038131578 -0.00025430822 -0.00052155968
-0.00483 0.0014749876 -0.007038991
-0.0018811579 -0.0048318561 -0.0043912847
0.0037114737 -0.0011698178 -0.00052155968
0.0036097893 -0.0013732644 -0.00052155968
0.0042198948 -0.0046284096 -0.002456422
-0.0013727368 0.0030008368 -0.0064279819
-0.0047283159 -0.0019836039 -0.0073444955
-0.0042198948 0.00045775477 -0.00052155968
0.0043215789 -0.0046284096 -0.0064279819
-0.0027963158 0.0048318561 -0.002558257
-0.004016526 -0.0017801574 -0.0074463305
-0.003406421 -5.0861643e-05 -0.00052155968
0.00483 -0.0013732644 -0.0037802754
-0.00055926316 0.0026956671 -0.0067334864
0.0017794736 0.0031025601 -0.0063261469
-0.0024912632 0.0038146232 0.0032463302
0.0010676841 0.0039163465 -0.0055114678
-0.0015761052 -0.0048318561 -0.0019472478
0.00483 5.0861643e-05 -0.0052059633
-0.0028979999 -0.0019836039 -0.0074463305
0.0035081052 -0.0047301329 -0.0012344037
-0.00483 0.0024922204 -0.003169266
-0.00483 0.0027973903 -0.003271101
-0.00035589474 -0.0045266859 -0.0066316514
0.0025929473 0.0037129 0.001922477
