# .PCD v0.7 - Point Cloud Data file format
VERSION 0.7
FIELDS x y z
SIZE 4 4 4
TYPE F F F
COUNT 1 1 1
WIDTH 1218
HEIGHT 1
VIEWPOINT 0 0 0 1 0 0 0
POINTS 1218
DATA ascii
-0.0089889169 -0.00083999999 -0.0066194446
0.0014633121 0.0032200001 -0.0057777776
-0.0066197449 0.00070000003 -0.00058750005
-0.010382547 -0.0049000001 -0.0056375
0.00912828 0.00434 -0.00058750005
0.00076649681 -0.00392 -2.6388921e-05
-0.0088495538 -0.00168 -0.00016666669
0.00062713376 0.0047599999 -0.0056375
-0.0057835667 0.00336 -0.00058750005
-0.0066197449 -0.00056000001 -0.00058750005
-0.00090585987 0.00434 -0.00058750005
-0.006759108 0.0015400001 -0.00030694448
-0.006759108 0.0044800001 -0.00058750005
0.0064803818 -0.00098000001 -0.00058750005
0.0095463693 0.00182 -0.0057777776
-0.0020207642 0.00196 -2.6388921e-05
-0.010661273 0.0047599999 -0.0021305557
0.0045292992 -0.00364 -0.0059180558
-0.0085708275 0.00238 -0.0057777776
-0.0043899361 0.00392 -2.6388921e-05
-0.0034143948 0.0049000001 -0.0017097222
0.010939999 -0.0022400001 -0.00072777783
-0.010939999 0.00238 -0.0056375
-0.0052261143 -0.0014000001 -0.00058750005
0.010939999 0.0044800001 -0.0035333333
0.0084314644 0.00098000001 -0.00058750005
0.0014633121 0.0049000001 -0.0038138889
-0.0031356686 -0.00364 -0.00030694448
0.010661273 0.00126 -0.0010083334
0.001323949 -0.0037800001 0.0019375
-0.0049473885 0.0049000001 -0.001288889
6.9681526e-05 0.0015400001 -2.6388921e-05
-0.0071771974 -0.00112 -0.00058750005
0.0064803818 -0.0037800001 -0.00044722226
-0.006759108 -0.00126 -0.00058750005
-0.0046686623 -0.0042000003 -0.00058750005
0.00090585987 -0.0015400001 -0.00044722226
-0.010939999 -0.0015400001 -0.0025513889
0.0057835667 -0.0049000001 -0.0046555558
0.00731656 -0.00392 -0.0056375
0.0092676431 0.00336 -0.00058750005
-0.0099644586 -0.0047599999 -0.0026916668
0.010939999 -0.00336 -0.0053569446
0.0059229298 -0.00056000001 -0.0067597223
-0.0088495538 0.0037800001 0.0015166666
0.010382547 0.0047599999 -0.0035333333
0.0027175795 -0.0044800001 -0.00058750005
0.00048777068 0.00392 -0.0057777776
0.0041112099 0.0044800001 -0.0057777776
0.00912828 -0.0049000001 -0.0040944447
0.00062713376 0.0015400001 -0.0059180558
0.01052191 0.0030800002 -0.00058750005
0.0050867512 0 -0.00058750005
-0.0075952862 -0.0049000001 -0.004375
0.00062713376 -0.0049000001 -0.0029722224
-0.0029963057 0.0030800002 -0.00058750005
-0.01052191 0.0047599999 -0.0035333333
-0.0028569426 0.0049000001 -0.0014291668
0.010800636 -0.00196 -0.0038138889
-0.0059229298 0.00014 -0.00058750005
-0.0018814012 -0.00070000003 -0.0061986111
0.0032750317 -0.0014000001 -2.6388921e-05
0.0062016556 0.00112 -0.00058750005
-0.010939999 -0.0042000003 -0.0032527777
-0.00090585987 0.0049000001 -0.0036736112
-0.0050867512 0.0049000001 -0.0010083334
-0.0041112099 -0.0028000001 -0.00058750005
0.0096857324 0.00392 -0.0057777776
0.0041112099 -0.0037800001 -0.00016666669
0.0050867512 0.0014000001 -0.00044722226
-0.0029963057 -0.0049000001 -0.0049361112
0.0087101907 -0.0049000001 -0.0045152777
0.0077346493 0.0049000001 -0.0028319445
-0.0096857324 0.00028000001 -0.00058750005
-0.0070378343 -0.00434 -0.0057777776
-0.0089889169 -0.00112 -0.0066194446
-0.0041112099 -0.0021000002 -2.6388921e-05
0.0014633121 0.00182 -0.0059180558
-0.0059229298 -0.0042000003 -0.0057777776
0.0094070062 0.00028000001 -0.0057777776
-0.0018814012 -0.00028000001 -0.0059180558
0.0024388535 -0.0042000003 -0.00058750005
-0.0034143948 -0.00126 -0.00058750005
0.0059229298 0.0030800002 -0.0057777776
0.0021601273 0.0049000001 -0.00185
0.0038324839 0.00028000001 -0.0061986111
0.0032750317 0.00168 -0.00016666669
-0.0094070062 -0.0042000003 -0.0057777776
0.0021601273 0.0021000002 -0.0059180558
0.0077346493 0.0022400001 -0.00016666669
-0.0018814012 0.0049000001 -0.0056375
-0.0074559231 -0.00056000001 -0.0057777776
-0.010939999 0.00083999999 -0.004375
0.00034840763 0.00168 -0.0059180558
0.01052191 0.00238 -0.0056375
0.0059229298 0.00112 -0.0057777776
0.010800636 0.00336 -0.0031125001
0.010939999 0.00434 -0.0046555558
0.010939999 0.0040600002 -0.0039541665
-0.010939999 0.00112 -0.0024111113
0.00731656 0.00364 -2.6388921e-05
-0.010939999 0.00182 -0.0019902778
0.0098250955 0.00042 -0.00058750005
-0.0070378343 0.0049000001 -0.0036736112
0.010800636 -0.00266 -0.0026916668
0.010800636 -0.0046200003 -0.005216667
-0.0050867512 0.00056000001 -0.00058750005
0.0055048405 0.0049000001 -0.0011486112
-0.0052261143 0.0049000001 -0.0010083334
0.010661273 0.00126 -0.0014291668
0.0031356686 0.00182 -0.0059180558
0.0081527382 0.0049000001 -0.0035333333
0.0032750317 0.0049000001 -0.0039541665
-0.010661273 0.0047599999 -0.0014291668
0.00090585987 0.0021000002 -2.6388921e-05
-0.0020207642 0.0015400001 -0.0059180558
-6.9681526e-05 -0.0015400001 -0.00016666669
-0.0057835667 0.0042000003 -0.00058750005
-0.010939999 -0.0035000001 -0.0015694445
0.01052191 0 -0.0017097222
0.0059229298 0.00042 -0.00058750005
-0.0038324839 0.0046200003 -0.0057777776
0.010939999 -0.00266 -0.0038138889
0.001184586 -0.0046200003 -0.0057777776
0.0089889169 -0.0028000001 -0.0057777776
0.0010452229 0.0022400001 -2.6388921e-05
-0.004250573 0.0049000001 -0.0042347223
-0.0028569426 -0.00042 -0.0057777776
-0.0087101907 0.0049000001 -0.0032527777
0.0056442036 -0.0049000001 -0.0053569446
-0.006759108 0.0049000001 -0.00086805562
-0.010939999 0.00168 -0.0047958335
0.0045292992 -0.00056000001 -0.0066194446
0.0028569426 -0.0042000003 -0.00058750005
0.0056442036 -0.0049000001 -0.0036736112
-0.0055048405 -0.00042 -0.0057777776
-0.0049473885 -0.0049000001 -0.0025513889
-0.0088495538 -0.00083999999 -0.00058750005
0.010800636 -0.0021000002 -0.0038138889
-0.01052191 0.0047599999 -0.0040944447
0.0043899361 0.0022400001 -0.00044722226
0.001184586 0.00336 -0.0057777776
0.00731656 0.0049000001 -0.0025513889
-0.010382547 0.0049000001 -0.0028319445
0.0094070062 -0.00434 -0.0056375
0.0031356686 0.00294 -0.0059180558
0.0063410187 -0.00336 -0.00058750005
0.0063410187 0.00014 -0.00058750005
-0.0085708275 -0.0049000001 -0.0036736112
-0.0092676431 -0.0049000001 -0.0025513889
-0.006759108 0.0014000001 -0.0057777776
-0.0092676431 0.0049000001 -0.00185
0.00062713376 0.0015400001 -0.00044722226
0.0064803818 0.00070000003 -0.00058750005
0.0028569426 0.0049000001 -0.0026916668
0.0017420382 0.0047599999 -0.00058750005
0.0038324839 0.0049000001 -0.0035333333
-0.0020207642 0.00126 -0.0057777776
0.0049473885 -0.00266 -0.00058750005
0.006062293 0.00042 -0.0061986111
-0.0095463693 -0.0049000001 -0.001288889
0.0081527382 0.0040600002 -0.00058750005
-0.0080133751 -0.0049000001 -0.0025513889
0.0018814012 -0.0049000001 -0.0026916668
0.010939999 -0.0042000003 -0.0047958335
0.0028569426 0.0022400001 -0.00030694448
0.0092676431 -0.00434 -0.00072777783
0.0056442036 0.00014 -0.0060583334
0.0017420382 -0.0049000001 -0.0047958335
-0.0017420382 -0.0049000001 -0.0019902778
-0.004250573 -0.00168 -0.0067597223
0.0075952862 -0.00070000003 -0.00058750005
-0.0066197449 0.00364 -0.00030694448
0.0034143948 0.00266 -0.00058750005
-0.004250573 0.0049000001 -0.00072777783
0.00090585987 -0.0049000001 -0.0046555558
0.0036931208 -0.0044800001 -0.0057777776
0.0084314644 0.00126 -0.00058750005
-0.0018814012 -0.00014 -0.0060583334
0.0075952862 -0.00126 -0.0057777776
0.0080133751 -0.0042000003 -0.00072777783
-0.010939999 -0.00182 -0.0014291668
-0.0081527382 0.0040600002 -0.0056375
0.0034143948 0.0049000001 -0.00058750005
-0.010939999 0.00112 -0.0046555558
0.01052191 0.00336 -0.00072777783
0.001323949 -0.0037800001 0.001236111
0.010939999 -0.0025200001 -0.0035333333
-0.0068984712 -0.0049000001 -0.0053569446
-0.0016026751 0.0028000001 -0.0059180558
0.0094070062 0.0042000003 -0.00058750005
0.0088495538 0.00056000001 -0.00058750005
-0.010800636 -0.0044800001 -0.0045152777
0.0020207642 -0.0025200001 -0.0059180558
-0.010243184 0.00098000001 -0.0057777776
-0.0085708275 0.00056000001 -0.00058750005
-0.0056442036 -0.00364 -0.0057777776
-0.0053654774 -0.0049000001 -0.0039541665
-0.0085708275 0.00434 -0.0056375
0.0036931208 -0.00042 -0.00058750005
0.010939999 -0.0044800001 -0.0017097222
-0.0071771974 -0.00364 -2.6388921e-05
-0.0057835667 -0.0049000001 -0.0031125001
0.010800636 0.00294 -0.0047958335
-0.010939999 0.00042 -0.0042347223
-0.010939999 -0.0037800001 -0.0040944447
-0.0032750317 -0.00083999999 -0.0063388888
0.0038324839 0.0049000001 -0.0019902778
-0.010103821 -0.0028000001 -0.00058750005
0.0035537579 0.0049000001 -0.0021305557
0.00034840763 -0.0049000001 -0.0017097222
0.0016026751 0.0049000001 -0.0038138889
-0.010243184 0.0049000001 -0.0014291668
-0.010939999 -0.00056000001 -0.001288889
0.0039718468 -0.0037800001 -0.00016666669
-0.010939999 0.0037800001 -0.00185
0.010939999 -0.00336 -0.0035333333
0.0063410187 -0.00392 -0.0057777776
0.0020207642 0.0015400001 -0.00016666669
-0.0089889169 0.00042 -0.00058750005
0.0068984712 0.00434 -0.00058750005
0.010103821 -0.0014000001 -0.0057777776
0.00062713376 -0.00028000001 -0.0060583334
0.0021601273 0.0047599999 -0.00058750005
-0.0028569426 -0.00182 -2.6388921e-05
0.010939999 -0.00434 -0.0049361112
-0.0045292992 0.0021000002 -0.0057777776
0.0077346493 0.0049000001 -0.00072777783
0.001184586 0.00168 -0.0059180558
0.01052191 0.00098000001 -0.0024111113
0.010103821 -0.00168 -0.00058750005
-0.007874012 0.0014000001 -0.00044722226
-0.0048080254 -0.00196 -0.0057777776
0.0027175795 -0.0022400001 -0.0059180558
-0.0010452229 0.00294 -0.0059180558
0.0039718468 -0.0037800001 0.0016569444
0.0098250955 0.00238 -0.00044722226
-0.0048080254 0.0049000001 -0.0025513889
-0.0017420382 0.0049000001 -0.0026916668
-0.0074559231 -0.0022400001 -2.6388921e-05
-0.0039718468 -0.0021000002 -0.0063388888
-0.010939999 -0.00098000001 -0.004375
-0.0099644586 0.0025200001 -0.0057777776
-0.0038324839 0.0044800001 -0.00058750005
6.9681526e-05 0.0042000003 -0.00058750005
-0.0045292992 0.0049000001 -0.0047958335
0.0099644586 0.0030800002 -0.0057777776
-0.0056442036 -0.00168 -0.0064791669
-0.0041112099 0.0049000001 -0.0025513889
-0.0056442036 0.00434 -0.0056375
0.0039718468 -0.0049000001 -0.0047958335
0.00048777068 -0.00098000001 -0.0059180558
0.007874012 -0.0049000001 -0.00185
-0.0050867512 -0.0042000003 -0.0057777776
-0.0052261143 -0.0049000001 -0.00086805562
-0.00076649681 0.00098000001 -0.00058750005
-0.010939999 0.00083999999 -0.005216667
-0.00034840763 0.0049000001 -0.0011486112
0.0048080254 -0.0049000001 -0.0022708334
0.0074559231 -0.00196 -2.6388921e-05
-0.010939999 0.0037800001 -0.004375
-0.0087101907 -0.0040600002 -0.00058750005
0.0014633121 0.00126 -0.0060583334
-0.0018814012 -0.00126 -0.0064791669
0.006759108 -0.00434 -0.0056375
6.9681526e-05 0.00392 -0.00016666669
0.0071771974 0.0049000001 -0.0010083334
-0.0025782164 -0.0049000001 -0.0038138889
0.0017420382 0.00042 -0.00058750005
0.0045292992 -0.00196 -0.0061986111
-0.010382547 -0.00294 -0.0057777776
-0.010939999 -0.00168 -0.0042347223
0.0036931208 0.0015400001 -0.00016666669
0.010661273 0.00014 -0.0056375
0.0088495538 -0.0037800001 0.0019375
0.001184586 -0.0049000001 -0.0014291668
-0.001184586 0.0030800002 -0.00058750005
-0.0041112099 0.00392 -2.6388921e-05
0.0055048405 -0.00392 -0.00058750005
-0.0038324839 0.0037800001 0.0026388888
0.010243184 -0.00266 -0.00058750005
-0.010939999 0.00434 -0.00086805562
0.0056442036 -0.00112 -0.0059180558
-0.0027175795 -0.0032200001 -0.0059180558
-0.0070378343 0.0035000001 -0.00058750005
0.010800636 0.0044800001 -0.0026916668
-0.01052191 -0.0047599999 -0.0015694445
-0.0094070062 0.00042 -0.0057777776
-0.010103821 0.0021000002 -0.00058750005
0.010939999 -0.0044800001 -0.0049361112
-0.010939999 -0.0022400001 -0.0042347223
-0.0056442036 -0.0049000001 -0.0035333333
0.010243184 -0.0014000001 -0.00058750005
-0.0068984712 -0.00182 -0.0063388888
0.0071771974 0.0049000001 -0.0017097222
0.0088495538 -0.0049000001 -0.0029722224
0.0055048405 0.0049000001 -0.0056375
0.00034840763 0.0049000001 -0.0015694445
-0.010382547 -0.00112 -0.00058750005
-0.010800636 -0.00434 -0.0014291668
-0.00048777068 -0.00364 -0.0057777776
-0.010661273 -0.0047599999 -0.0054972223
0.00048777068 0.00070000003 -0.00058750005
0.0048080254 -0.0046200003 -0.00058750005
-0.0088495538 0.0047599999 -0.0056375
0.0045292992 0.0021000002 -0.00016666669
0.006759108 -0.0022400001 -0.0060583334
0.010800636 -0.00336 -0.0015694445
0.010800636 -0.00098000001 -0.00086805562
-0.0074559231 0.00266 -0.0057777776
-0.0024388535 0.0049000001 -0.0040944447
0.0049473885 0.00364 -0.0057777776
0.004250573 0.0049000001 -0.0045152777
-0.0010452229 -0.00294 -0.0059180558
0.0021601273 -0.0022400001 -0.0059180558
0.010661273 -0.00098000001 -0.0036736112
0.0088495538 0.0049000001 -0.0031125001
-0.0062016556 0.0044800001 -0.0056375
0.010800636 0.0046200003 -0.0014291668
-0.00912828 -0.00196 -0.0060583334
0.0022994904 -0.0014000001 -0.00016666669
-0.00912828 -0.00014 -0.0064791669
-0.0043899361 0.00070000003 -0.0059180558
-0.00731656 -0.0049000001 -0.0026916668
0.004250573 0.0049000001 -0.00058750005
-0.00062713376 0.00392 -0.00044722226
-0.0046686623 -0.0049000001 -0.00072777783
-0.007874012 0.00098000001 -0.0057777776
0.001184586 -0.0049000001 -0.0022708334
0.0022994904 0.00434 -0.0057777776
-0.0038324839 -0.0021000002 -0.0066194446
0.0016026751 0.0049000001 -0.00185
-0.0048080254 0.0049000001 -0.00086805562
-0.0094070062 0.00083999999 -0.0057777776
-0.0022994904 -0.0046200003 -0.00058750005
-0.0087101907 -0.0049000001 -0.0053569446
-0.0031356686 -0.0028000001 -0.00058750005
-0.010243184 0.00294 -0.00058750005
-0.0050867512 0.00112 -0.00058750005
0.010939999 0.00392 -0.001288889
0.0092676431 -0.0022400001 -0.0057777776
-0.0084314644 -0.0049000001 -0.0053569446
0.0094070062 0.0030800002 -0.00058750005
0.0046686623 0.0049000001 -0.0022708334
-0.0059229298 0.00364 -0.00058750005
-0.010939999 0.00126 -0.0038138889
0.01052191 0.0047599999 -0.0017097222
0.0089889169 -0.0049000001 -0.00072777783
-0.010939999 0.00238 -0.005216667
-0.0046686623 -0.0049000001 -0.0031125001
0.0089889169 -0.0049000001 -0.0036736112
-0.0032750317 -0.0015400001 -0.00016666669
0.0071771974 0.00070000003 -0.0057777776
0.0050867512 -0.0040600002 -0.00058750005
0.00062713376 -0.0015400001 -2.6388921e-05
6.9681526e-05 0.0049000001 -0.0011486112
-0.0028569426 -0.00196 -2.6388921e-05
0.0031356686 0.0049000001 -0.0056375
0.010800636 -0.00056000001 -0.00072777783
0.00062713376 -0.00098000001 -0.0066194446
0.0074559231 -0.00056000001 -0.0059180558
0.0052261143 -0.00112 -0.0059180558
-0.0021601273 -0.00364 -0.00044722226
-0.010243184 0.00042 -0.0057777776
-0.0050867512 -0.0049000001 -0.0038138889
-0.010382547 -0.00042 -0.00058750005
0.0031356686 0.00126 -0.0059180558
-0.0094070062 -0.0015400001 -2.6388921e-05
-0.010800636 0.0046200003 -0.0011486112
0.0074559231 -0.0049000001 -0.0028319445
-0.0070378343 -0.0044800001 -0.00058750005
-0.0092676431 0.0049000001 -0.0022708334
0.0099644586 -0.00028000001 -0.00044722226
-0.010243184 -0.00364 -0.0057777776
-0.0043899361 -0.0049000001 -0.0053569446
-0.00912828 0.0044800001 -0.0056375
0.0099644586 -0.00434 -0.0040944447
-0.001323949 -0.0021000002 -2.6388921e-05
0.0062016556 -0.00168 -0.0066194446
-0.0075952862 -0.0046200003 -0.0057777776
0.0094070062 0.00392 -0.00058750005
-0.010939999 -0.00112 -0.0022708334
-0.0010452229 0.0015400001 -0.00016666669
-0.010939999 -0.00112 -0.0042347223
-0.0070378343 0.0014000001 -0.00044722226
-0.0016026751 0.0049000001 -0.0046555558
-0.00034840763 0.0044800001 -0.0056375
0.0036931208 -0.0022400001 -0.00016666669
0.0048080254 0.0049000001 -0.0032527777
-0.010939999 0.00014 -0.0045152777
0.01052191 0.00112 -0.0038138889
0.01052191 0.00056000001 -0.0026916668
-0.0029963057 -0.00364 -0.0059180558
0.0038324839 0.0042000003 -0.00058750005
-0.01052191 0.0032200001 -0.0056375
0.01052191 0.00168 -0.0025513889
-0.0022994904 0.00014 -0.00058750005
0.006062293 -0.00392 -0.00058750005
-0.0028569426 -0.0035000001 -0.0059180558
-0.0056442036 -0.0049000001 -0.0039541665
-0.0096857324 -0.0015400001 -0.0059180558
0.0014633121 -0.0030800002 -0.0059180558
0.0057835667 -0.0049000001 -0.0047958335
-0.0064803818 -0.00238 -0.00030694448
-0.0088495538 0.00070000003 -0.00058750005
-0.0088495538 0.0049000001 -0.0047958335
0.010661273 -0.00070000003 -0.0042347223
-0.0070378343 0.0030800002 -0.0057777776
0.0010452229 0.0049000001 -0.0019902778
0.0041112099 0.00070000003 -0.0061986111
-0.001184586 -0.0015400001 -0.00016666669
0.0045292992 -0.0049000001 -0.0035333333
-0.0020207642 0.0049000001 -0.00058750005
-0.0045292992 -0.0049000001 -0.0026916668
0.010661273 -0.00083999999 -0.0042347223
-0.0018814012 0.00336 -0.0059180558
-0.00034840763 -0.0030800002 -0.0059180558
-0.010939999 -0.00014 -0.0017097222
0.0036931208 0.0037800001 -0.00016666669
0.0066197449 0.0047599999 -0.0056375
0.0025782164 -0.0032200001 -0.0059180558
-0.0056442036 -0.0037800001 -0.00016666669
-0.0029963057 0.0049000001 -0.0049361112
0.001323949 -0.00014 -0.0067597223
-0.0092676431 -0.0049000001 -0.00086805562
0.0025782164 0.0049000001 -0.00086805562
0.0050867512 -0.0049000001 -0.00185
-0.0041112099 0.00196 -2.6388921e-05
-0.00076649681 -0.0049000001 -0.0025513889
-0.0024388535 0.0049000001 -0.004375
0.00034840763 0.0025200001 -0.0059180558
0.0062016556 -0.00238 -0.00030694448
-0.010661273 -0.0047599999 -0.0022708334
0.0064803818 -0.0042000003 -0.0056375
0.0020207642 -0.0022400001 -0.00016666669
0.0085708275 0.0049000001 -0.0019902778
-0.00076649681 0.0015400001 -0.0059180558
0.006759108 0.0049000001 -0.0017097222
0.0032750317 0.00028000001 -0.0060583334
0.00034840763 -0.00364 -0.00030694448
0.0035537579 -0.00196 -0.0066194446
0.0062016556 -0.0032200001 -0.00058750005
0.00076649681 0.0049000001 -0.0014291668
0.010243184 -0.0046200003 -0.0056375
-0.010939999 0.00336 -0.0022708334
-0.0050867512 0.00098000001 -0.00058750005
-0.0099644586 -0.0040600002 -0.00058750005
0.0096857324 0.00392 -0.00058750005
0.0045292992 0.00126 -0.0059180558
0.007874012 0.0015400001 -0.0057777776
0.0096857324 0.0047599999 -0.004375
-0.0098250955 -0.00364 -0.0057777776
0.0075952862 0.0049000001 -0.00185
0.0098250955 0.0042000003 -0.00058750005
0.0055048405 -0.00042 -0.00058750005
-0.0053654774 -0.00028000001 -0.00058750005
-0.00020904458 0.0015400001 -0.00030694448
-0.010939999 0.0028000001 -0.0031125001
-0.010800636 -0.0044800001 -0.0036736112
-0.010939999 -0.00294 -0.005216667
-0.001184586 0.0049000001 -0.0050763888
0.0032750317 0.0049000001 -0.0036736112
0.0082921013 -0.00083999999 -0.0066194446
0.0048080254 -0.00070000003 -0.00058750005
0.00034840763 0.0049000001 -0.0022708334
0.0057835667 0.0046200003 -0.0057777776
0.0052261143 0.0049000001 -0.001288889
-0.010382547 0.0049000001 -0.0021305557
-0.0028569426 -0.0049000001 -0.0025513889
-0.00048777068 -0.00168 -0.0060583334
-0.0095463693 0.00238 -0.00058750005
0.01052191 -0.0046200003 -0.0035333333
0.0043899361 -0.00056000001 -0.00058750005
-0.00090585987 0.0049000001 -0.005216667
0.010800636 -0.00182 -0.0038138889
0.010800636 -0.00364 -0.0029722224
-0.0028569426 -0.0049000001 -0.00058750005
-0.00912828 -0.00434 -0.0057777776
0.00912828 0.0030800002 -0.0057777776
-0.0032750317 0.0021000002 -0.0059180558
0.0080133751 0.0022400001 -0.0057777776
0.0066197449 -0.00364 -0.00058750005
-0.0027175795 -0.00434 -0.00058750005
0.0043899361 0.0049000001 -0.0040944447
-0.0029963057 0.0049000001 -0.005216667
0.0062016556 0.0037800001 0.0013763888
-0.00912828 0.00196 -2.6388921e-05
0.0087101907 0.0044800001 -0.00058750005
-0.0056442036 0.0049000001 -0.0032527777
0.0096857324 -0.0047599999 -0.0035333333
0.0096857324 -0.0047599999 -0.0036736112
0.0088495538 -0.00182 -0.0061986111
0.01052191 0.00182 -0.0029722224
0.01052191 0.00014 -0.0017097222
0.0085708275 -0.00182 -0.0066194446
-0.004250573 -0.0049000001 -0.0039541665
-0.0099644586 -0.0049000001 -0.0021305557
-0.0094070062 -0.00014 -0.0061986111
0.0018814012 0 -0.0060583334
-0.0025782164 -0.0049000001 -0.0021305557
0.0028569426 0.0049000001 -0.00185
-0.0032750317 -0.0044800001 -0.0057777776
-0.006062293 -0.0014000001 -0.0067597223
0.004250573 0.0021000002 -0.00016666669
-0.0022994904 0.0032200001 -0.00058750005
0.00062713376 -0.00042 -0.00058750005
-0.0014633121 0.00196 -0.0059180558
0.0029963057 0.0015400001 -0.00016666669
0.0057835667 0.0049000001 -0.0038138889
-0.00062713376 -0.00364 -2.6388921e-05
-0.0085708275 0.0049000001 -0.005216667
0.0041112099 -0.00238 -0.00044722226
0.0031356686 0.0049000001 -0.0021305557
0.0055048405 0.00196 -0.00016666669
-0.0094070062 0.0037800001 -0.00058750005
-0.010103821 -0.0047599999 -0.0022708334
0.0010452229 -0.0044800001 -0.0057777776
6.9681526e-05 0.0049000001 -0.00072777783
-0.00912828 0.0049000001 -0.005216667
0.010939999 -0.00294 -0.0053569446
-0.0035537579 0.0040600002 -0.0057777776
-0.0096857324 -0.0022400001 -0.0057777776
0.0088495538 -0.00434 -0.00072777783
0.0025782164 -0.00112 -0.0057777776
-0.0048080254 0.0042000003 -0.0057777776
0.0074559231 -0.0042000003 -0.00058750005
0.010800636 -0.00098000001 -0.0054972223
0.0038324839 0.0049000001 -0.0033930556
0.010939999 0.00112 -0.0056375
0.00090585987 -0.0049000001 -0.0021305557
0.00090585987 -0.0049000001 -0.0019902778
0.0050867512 0.0037800001 -0.0057777776
-0.004250573 -0.00112 -0.0067597223
-0.0057835667 -0.00434 -0.0057777776
0.0077346493 -0.00168 -0.00016666669
-0.0099644586 0.0049000001 -0.0045152777
0.0034143948 -0.00364 -0.00044722226
-0.0096857324 -0.00112 -0.0059180558
-0.010939999 0.00168 -0.0010083334
-0.010939999 0.0040600002 -0.0032527777
0.0035537579 0.0035000001 -0.0057777776
0.0071771974 0.0049000001 -0.0029722224
-0.0075952862 0.00056000001 -0.0057777776
6.9681526e-05 -0.00364 -0.00030694448
0.0031356686 0.0014000001 -0.00044722226
-0.0074559231 -0.0049000001 -0.0033930556
-0.0022994904 -0.0044800001 -0.0057777776
0.0034143948 -0.0049000001 -0.0046555558
0.0031356686 0.0049000001 -0.0025513889
-0.0063410187 0.00042 -0.0060583334
0.0068984712 -0.0035000001 -0.00058750005
0.0027175795 -0.0049000001 -0.0046555558
-0.010939999 0.00238 -0.0022708334
-0.010939999 -0.00014 -0.0032527777
-0.00912828 -0.0015400001 -0.0066194446
0.0062016556 0.00042 -0.00058750005
-0.010939999 0.00238 -0.0050763888
-0.0056442036 -0.0049000001 -0.004375
0.0027175795 -0.00434 -0.0057777776
0.0024388535 0.0049000001 -0.00086805562
0.0071771974 -0.00070000003 -0.0064791669
-0.010939999 -0.00098000001 -0.0010083334
0.0027175795 -0.0049000001 -0.0047958335
0.010800636 -0.00182 -0.0039541665
-0.0048080254 -0.00126 -0.00058750005
-0.0066197449 0.0049000001 -0.005216667
0.0059229298 -0.0049000001 -0.0054972223
0.010243184 -0.0035000001 -0.0056375
0.0022994904 0.0014000001 -0.0059180558
0.0010452229 0.0021000002 -2.6388921e-05
0.0027175795 -0.0049000001 -0.0026916668
0.0056442036 -0.0049000001 -0.0056375
0.0029963057 0.00028000001 -0.00058750005
0.0027175795 0.0049000001 -0.0011486112
0.0038324839 0.0049000001 -0.0039541665
0.010939999 0.0040600002 -0.0026916668
0.0071771974 -0.0049000001 -0.0015694445
-0.0022994904 0.0049000001 -0.0036736112
-0.0031356686 0.00392 -0.00016666669
0.0027175795 -0.0049000001 -0.0049361112
0.0064803818 -0.0028000001 -0.0057777776
0.0095463693 -0.0049000001 -0.0047958335
-0.0098250955 0.0049000001 -0.0035333333
-0.0050867512 0.0014000001 -0.00044722226
-0.0098250955 0.00182 -0.0057777776
-0.0016026751 0.0049000001 -0.00072777783
-0.0068984712 -0.00098000001 -0.0066194446
0.0062016556 -0.0047599999 -0.00072777783
-0.0024388535 -0.0044800001 -0.00058750005
0.010939999 0.0030800002 -0.00072777783
-0.010939999 -0.00014 -0.0056375
-0.0018814012 -0.0049000001 -0.0047958335
-0.00912828 -0.00238 -0.0057777776
0.0043899361 -0.00182 -2.6388921e-05
-0.0081527382 -0.00168 -2.6388921e-05
0.0064803818 0.00028000001 -0.0061986111
-0.001323949 0.00196 -2.6388921e-05
-0.0050867512 -0.0044800001 -0.00058750005
0.0074559231 -0.0049000001 -0.004375
-0.0059229298 -0.0049000001 -0.0032527777
-0.010939999 -0.00056000001 -0.0022708334
0.001184586 -0.0037800001 0.00067499996
0.0038324839 0.0014000001 -0.00044722226
-0.0066197449 -0.00336 -0.00058750005
6.9681526e-05 0.0040600002 -0.00044722226
-0.0035537579 -0.0049000001 -0.001288889
0.0099644586 0.0047599999 -0.0014291668
-0.0087101907 -0.0049000001 -0.0033930556
-0.0036931208 0.00392 0.0022180555
-0.0095463693 0.00168 -0.00016666669
-0.0016026751 0.0037800001 -0.00016666669
-0.0074559231 0.0049000001 -0.0039541665
-0.001323949 0.0049000001 -0.0014291668
0.010800636 -0.00126 -0.0045152777
-0.010939999 0.00434 -0.0053569446
0.0062016556 -0.0035000001 -0.0057777776
0.0035537579 0.0049000001 -0.00185
0.0077346493 -0.0025200001 -0.0057777776
0.006062293 0.00168 -0.00016666669
-0.0031356686 -0.0022400001 -0.0059180558
0.0021601273 -0.0049000001 -0.0036736112
-0.004250573 -0.0035000001 -0.00058750005
0.00020904458 0.00392 -0.00030694448
-0.0028569426 0.0049000001 -0.0029722224
0.0075952862 -0.0014000001 -0.00044722226
-0.010939999 0.00238 -0.0057777776
0.01052191 0.00070000003 -0.0010083334
0.00048777068 -0.0049000001 -0.0025513889
-0.0010452229 -0.0049000001 -0.0026916668
-0.0021601273 -0.0046200003 -0.00058750005
-0.004250573 0.00112 -0.00058750005
-0.0025782164 0.0049000001 -0.00072777783
-0.0031356686 -0.00014 -0.00058750005
-0.01052191 -0.00083999999 -0.0057777776
0.00731656 0.0022400001 -0.0057777776
0.0024388535 -0.00434 -0.0057777776
0.0032750317 -0.0049000001 -0.0050763888
-0.0092676431 0.0014000001 -0.00044722226
0.01052191 0.0047599999 -0.004375
0.0063410187 0.0025200001 -0.0057777776
-0.0020207642 -0.0049000001 -0.0029722224
-0.00020904458 -0.00112 -0.0059180558
0.0024388535 -0.0049000001 -0.004375
-0.0031356686 -0.0049000001 -0.00086805562
0.0059229298 0.0049000001 -0.0014291668
0.0082921013 -0.0032200001 -0.0057777776
-0.00912828 0.0049000001 -0.0056375
0.0018814012 -0.0032200001 -0.00058750005
0.00020904458 0.0049000001 -0.0014291668
0.0084314644 0.0028000001 -0.00058750005
-0.007874012 -0.00238 -0.00030694448
0.0046686623 -0.00056000001 -0.0059180558
0.010661273 0.0021000002 -0.0025513889
-0.001184586 0.00196 -2.6388921e-05
0.010103821 0.0047599999 -0.0036736112
0.0024388535 -0.0049000001 -0.0026916668
-0.00048777068 0.00098000001 -0.0059180558
0.0082921013 -0.0049000001 -0.004375
0.0082921013 0.00028000001 -0.0057777776
0.0028569426 -0.0049000001 -0.0019902778
0.001184586 -0.0044800001 -0.00058750005
-0.0092676431 -0.00014 -0.0064791669
0.010800636 -0.00182 -0.0024111113
0.0089889169 0.0049000001 -0.001288889
-0.0094070062 0.0049000001 -0.0042347223
-0.0018814012 0.0014000001 -2.6388921e-05
-0.0049473885 0.0035000001 -0.00058750005
0.0034143948 -0.0049000001 -0.004375
0.0064803818 -0.0015400001 -0.00030694448
0.0024388535 -0.00083999999 -0.00058750005
-0.0016026751 0.00028000001 -0.00058750005
0.0010452229 -0.0049000001 -0.0010083334
-0.00048777068 0.0049000001 -0.0024111113
0.00912828 -0.00126 -0.0066194446
-0.0081527382 -0.0049000001 -0.0042347223
-0.0063410187 -0.0037800001 0.00053472217
0.0041112099 0.00238 -0.0059180558
-0.006759108 -0.0030800002 -0.0057777776
0.0082921013 -0.0022400001 -0.0057777776
0.0085708275 -0.0021000002 -2.6388921e-05
-0.0077346493 -0.00364 -0.0057777776
-0.0066197449 0.00182 -2.6388921e-05
0.0025782164 0.0032200001 -0.0059180558
0.010800636 -0.00182 -0.0033930556
0.0099644586 0.0022400001 -0.0057777776
0.0027175795 -0.0049000001 -0.00086805562
0.0041112099 0.0046200003 -0.00058750005
0.006062293 0.00434 -0.00058750005
-0.0075952862 -0.0044800001 -0.00058750005
0.0034143948 0.0046200003 -0.0057777776
0.0053654774 0.0049000001 -0.00185
-0.0032750317 0.0044800001 -0.00058750005
0.010939999 -0.00336 -0.00086805562
0.0066197449 0.0049000001 -0.0014291668
0.0022994904 -0.00364 -0.0059180558
0.010939999 -0.0032200001 -0.0049361112
0.0063410187 0.0047599999 -0.00058750005
-0.0048080254 -0.00182 -2.6388921e-05
0.0057835667 0.0047599999 -0.00058750005
0.0050867512 0.0046200003 -0.0057777776
-0.0055048405 -0.00336 -0.0057777776
0.0045292992 -0.00434 -0.00058750005
-0.0029963057 0.0025200001 -0.00058750005
0.0043899361 -0.0014000001 -0.00016666669
0.0080133751 0.0015400001 -0.00044722226
0.0053654774 0.0049000001 -0.0021305557
0.0045292992 0.00098000001 -0.00058750005
-0.0041112099 0.00042 -0.0060583334
-0.0095463693 -0.0046200003 -0.00058750005
0.0045292992 -0.0014000001 -0.0064791669
0.00912828 0.0049000001 -0.0024111113
-0.010661273 -0.0049000001 -0.005216667
0.010661273 -0.00070000003 -0.0056375
-0.0074559231 -0.00168 -0.00016666669
-0.00090585987 0.0015400001 -0.00030694448
-0.0038324839 0.0049000001 -0.0021305557
-0.00731656 -0.0040600002 -0.00058750005
-0.0021601273 -0.0014000001 -0.00058750005
-0.0066197449 0.0035000001 -0.00058750005
-0.0034143948 -0.0032200001 -0.0059180558
-0.0085708275 0.0037800001 -0.0056375
-0.0096857324 0.0022400001 -0.0057777776
-0.0059229298 0.00336 -0.0057777776
0.0084314644 -0.0044800001 -0.0056375
-0.00731656 -0.0049000001 -0.0049361112
0.0031356686 -0.0014000001 -0.0060583334
-0.00076649681 0.0049000001 -0.0014291668
-0.0043899361 -0.00126 -0.0063388888
0.0062016556 -0.0022400001 -0.00016666669
-0.0048080254 0.0049000001 -0.0042347223
-0.0088495538 0.0046200003 -0.0056375
0.010800636 -0.0046200003 -0.0042347223
-0.0074559231 0.00070000003 -0.00058750005
0.0034143948 0.0049000001 -0.0036736112
-0.010939999 -0.00126 -0.0019902778
0.0099644586 -0.0047599999 -0.0032527777
0.0084314644 -0.00238 -0.00030694448
-0.0056442036 0.0028000001 -0.00058750005
-0.0049473885 0.00098000001 -0.0057777776
0.010243184 -0.0044800001 -0.0056375
0.0043899361 -0.0049000001 -0.00086805562
0.010661273 -0.0042000003 -0.00185
0.0063410187 0.0037800001 0.00011388886
-0.0080133751 0.0049000001 -0.0011486112
0.00020904458 0.0049000001 -0.0029722224
0.0098250955 -0.0046200003 -0.004375
0.006759108 0.0049000001 -0.001288889
-0.00076649681 -0.0049000001 -0.0026916668
-0.0063410187 -0.0037800001 0.0019375
0.0064803818 0.00392 -0.0057777776
0.0018814012 0.00196 -2.6388921e-05
-0.010382547 -0.0040600002 -0.0057777776
-0.0066197449 -0.00070000003 -0.0066194446
-0.0063410187 -0.0049000001 -0.0025513889
-0.0089889169 -0.0022400001 -0.00016666669
0.0032750317 0.0037800001 -0.00016666669
0.0022994904 -0.0022400001 -0.00030694448
-0.0034143948 -0.00014 -0.00058750005
0.0052261143 -0.0015400001 -0.00016666669
0.010243184 -0.00070000003 -0.0057777776
-0.0049473885 -0.00336 -0.0057777776
-0.010939999 0.0037800001 -0.0021305557
-0.010939999 0.0014000001 -0.0015694445
0.0049473885 0.0015400001 -0.0057777776
0.0057835667 -0.0049000001 -0.0033930556
-0.006062293 0.0049000001 -0.00072777783
0.0088495538 0.0042000003 -0.00058750005
0.0028569426 0.0047599999 -0.00058750005
-0.0049473885 0.0049000001 -0.004375
-0.00090585987 0.00266 -0.00058750005
0.0096857324 -0.0032200001 -0.0057777776
-0.0045292992 -0.00392 -2.6388921e-05
-0.0071771974 -0.00182 -0.00016666669
-0.0080133751 0.0049000001 -0.00185
0.0035537579 -0.0030800002 -0.0059180558
-0.010103821 0.0025200001 -0.0057777776
0.00062713376 0.00042 -0.00058750005
0.0029963057 0.00126 -0.00058750005
-0.0038324839 -0.0040600002 -0.00058750005
0.010382547 -0.0015400001 -0.00058750005
-0.0095463693 -0.0049000001 -0.0036736112
-0.010939999 -0.00042 -0.00185
0.0028569426 0.00392 -0.0057777776
-0.010939999 0.00196 -0.0026916668
0.010661273 -0.00028000001 -0.00072777783
-0.0010452229 0.0014000001 -0.00058750005
0.0024388535 -0.0032200001 -0.0059180558
0.0094070062 0 -0.0059180558
-0.010939999 -0.0032200001 -0.0026916668
-0.001323949 -0.0049000001 -0.0046555558
-0.0066197449 -0.0049000001 -0.005216667
-0.0039718468 0.00392 -0.00044722226
-0.0081527382 -0.00112 -0.0061986111
-0.0038324839 -0.0049000001 -0.0022708334
0.0094070062 -0.0021000002 -2.6388921e-05
-0.0050867512 0.0037800001 -0.0057777776
0.0063410187 -0.0032200001 -0.00058750005
0.0050867512 -0.0049000001 -0.0049361112
-0.010939999 0.00364 -0.0019902778
0.01052191 0.00168 -0.0056375
-6.9681526e-05 -0.0049000001 -0.00185
-0.00090585987 0.0030800002 -0.00058750005
-0.00062713376 -0.0015400001 -0.00030694448
0.01052191 0.0047599999 -0.0033930556
0.0045292992 0.00014 -0.00058750005
-0.0046686623 0.00196 -0.00016666669
0.010661273 0.00028000001 -0.00072777783
0.01052191 0.0015400001 -0.00058750005
0.0017420382 -0.0049000001 -0.0033930556
0.0043899361 -0.0049000001 -0.0054972223
-0.0027175795 0.00364 -0.0059180558
0.0043899361 0.0047599999 -0.0057777776
0.0018814012 -0.00083999999 -0.0064791669
-0.010800636 0.0037800001 -0.0056375
0.0035537579 0.0049000001 -0.0054972223
-0.010939999 0.0025200001 -0.0022708334
-0.010939999 -0.00196 -0.0022708334
0.0045292992 -0.0049000001 -0.0047958335
0.0028569426 -0.00336 -0.00058750005
-0.010243184 0.0049000001 -0.0054972223
0.0063410187 0.00112 -0.0057777776
0.0080133751 -0.0035000001 -0.00058750005
0.01052191 -0.0046200003 -0.0039541665
0.0085708275 -0.0037800001 -0.0056375
-0.010939999 -0.00070000003 -0.00058750005
-0.0071771974 -0.0049000001 -0.0036736112
0.0075952862 0.0049000001 -0.0015694445
0.010661273 0.00196 -0.0049361112
-0.0075952862 0.0035000001 -0.0057777776
-0.0028569426 0.0049000001 -0.0049361112
0.010939999 -0.0035000001 -0.0054972223
0.0014633121 -0.00083999999 -0.00058750005
-0.010939999 0.0040600002 -0.0033930556
-0.010939999 0.00126 -0.0039541665
0.0039718468 0.0040600002 -0.00058750005
0.0096857324 0.00070000003 -0.0057777776
-0.0036931208 0.00392 0.0017972222
-0.00076649681 -0.0030800002 -0.00058750005
0.0014633121 0 -0.0061986111
-0.0089889169 -0.0049000001 -0.004375
-0.0057835667 0.00196 -0.0057777776
-0.0087101907 -0.00083999999 -0.00058750005
-0.00062713376 0.0049000001 -0.0053569446
0.00062713376 -0.0049000001 -0.005216667
6.9681526e-05 0.0015400001 -0.00044722226
-0.0074559231 -0.00014 -0.0057777776
-0.0031356686 0.0046200003 -0.0056375
0.001184586 0.00070000003 -0.0060583334
-0.00048777068 0.00028000001 -0.00058750005
0.010800636 0.00434 -0.00072777783
0.0016026751 -0.0046200003 -0.00058750005
-0.0038324839 0 -0.00058750005
0.006759108 0.00294 -0.00058750005
0.010382547 0.0046200003 -0.00072777783
-0.0082921013 -0.0028000001 -0.00058750005
-0.010800636 -0.00196 -0.0057777776
-0.0021601273 0.00112 -0.00058750005
-0.010939999 0 -0.0024111113
-0.0038324839 -0.0022400001 -2.6388921e-05
0.0077346493 -0.0015400001 -0.0059180558
-0.0066197449 0.0049000001 -0.0032527777
-0.00731656 0.0025200001 -0.0057777776
0.0038324839 0.00294 -0.0059180558
-0.00731656 0.0049000001 -0.0015694445
0.006759108 -0.0049000001 -0.0054972223
0.00731656 0.00336 -0.0057777776
0.010243184 0.0047599999 -0.0046555558
0.0035537579 -0.00056000001 -0.00058750005
-0.0036931208 0.0037800001 0.0015166666
-0.0074559231 -0.00392 -0.00058750005
-0.0098250955 0.0025200001 -0.00058750005
0.0017420382 0.0049000001 -0.0054972223
0.010800636 -0.0044800001 -0.0014291668
-0.010939999 -0.00266 -0.001288889
0.0063410187 0.0044800001 -0.0057777776
-0.0066197449 -0.0049000001 -0.0039541665
-0.00034840763 0.00083999999 -0.00058750005
-0.0031356686 0.0047599999 -0.0056375
-0.0056442036 0.0025200001 -0.0057777776
0.010661273 0.0046200003 -0.0046555558
0.0041112099 -0.0040600002 -0.00058750005
0.0017420382 0.0049000001 -0.0021305557
-0.010939999 0.00028000001 -0.0036736112
0.0043899361 -0.00294 -0.00058750005
-0.0077346493 0.00182 -2.6388921e-05
-0.010661273 -0.00364 -0.0056375
-0.0038324839 -0.0049000001 -0.00058750005
0.0032750317 0.0047599999 -0.0057777776
0.0014633121 -0.00028000001 -0.0067597223
-0.00731656 0.0014000001 -0.00044722226
-0.0041112099 0.00364 -0.0057777776
-0.0021601273 0.00070000003 -0.00058750005
0.001323949 0.00126 -0.00058750005
0.0059229298 0 -0.0066194446
-0.0063410187 -0.00364 -0.00058750005
0.0016026751 0.0046200003 -0.0056375
0.0055048405 0.0049000001 -0.0026916668
-0.0035537579 0 -0.0066194446
0.0053654774 -0.0049000001 -0.0017097222
0.0029963057 -0.00126 -0.00058750005
0.0032750317 -0.00083999999 -0.0066194446
-0.0016026751 0.00042 -0.0060583334
0.0036931208 -0.0022400001 -0.00030694448
-0.0099644586 0.0040600002 -0.00072777783
-0.00062713376 -0.0035000001 -0.00058750005
-0.0092676431 -0.00056000001 -0.00058750005
0.00062713376 -0.00056000001 -0.0061986111
0.001323949 -0.0030800002 -0.00058750005
0.010939999 0.0044800001 -0.0045152777
-0.0038324839 0.0022400001 -0.00044722226
-0.010939999 -0.00182 -0.0050763888
-0.0049473885 -0.0042000003 -0.0057777776
-0.001323949 0.0014000001 -0.00044722226
-0.010661273 -0.0047599999 -0.0028319445
-0.0099644586 -0.0032200001 -0.00058750005
0.0018814012 -0.00196 -2.6388921e-05
-0.0088495538 -0.0037800001 -0.0057777776
-0.010939999 -0.00168 -0.00058750005
-0.0022994904 -0.0035000001 -0.00058750005
0.0056442036 -0.0049000001 -0.0054972223
0.0053654774 -0.0047599999 -0.00058750005
0.0050867512 -0.0049000001 -0.0045152777
0.0049473885 0 -0.00058750005
-0.0010452229 0.00168 -0.0059180558
0.010939999 0.0037800001 -0.0010083334
-0.0052261143 -0.0049000001 -0.0019902778
-0.010243184 -0.0044800001 -0.0057777776
0.0071771974 0.00042 -0.00058750005
-0.0095463693 0.0049000001 -0.0053569446
-0.010243184 0.0049000001 -0.0040944447
-0.0085708275 0.0049000001 -0.00185
-0.0039718468 0.0037800001 0.00053472217
0.0016026751 -0.0049000001 -0.00185
-0.010939999 0.0021000002 -0.001288889
-0.0035537579 -0.00238 -0.0060583334
-0.00912828 -0.0028000001 -0.00058750005
0.0084314644 0.00168 -0.00016666669
-0.00034840763 0.00056000001 -0.0059180558
-0.0080133751 -0.0049000001 -0.0010083334
0.0036931208 0.00098000001 -0.0061986111
-0.010800636 -0.0035000001 -0.0056375
0.00048777068 0.0015400001 -0.00030694448
0.0035537579 -0.0049000001 -0.0047958335
-0.0029963057 -0.0049000001 -0.0029722224
-0.0034143948 0.00070000003 -0.0059180558
-0.0094070062 -0.00083999999 -0.0066194446
-0.010382547 0.00028000001 -0.00058750005
-0.0055048405 0.00392 -0.0057777776
0.0048080254 0.0032200001 -0.0057777776
-0.0048080254 -0.0042000003 -0.0057777776
0.01052191 0.00112 -0.0028319445
0.0039718468 -0.0037800001 0.0026388888
0.006062293 -0.0049000001 -0.0014291668
0.010800636 -0.0030800002 -0.00185
0.010800636 0 -0.00086805562
-0.0057835667 -0.0049000001 -0.0045152777
0.0084314644 -0.00098000001 -0.00058750005
-0.010939999 -0.0035000001 -0.0021305557
-0.0050867512 0.0049000001 -0.00086805562
0.0021601273 0.00112 -0.00058750005
-0.006062293 -0.00168 -2.6388921e-05
0.0028569426 0.0049000001 -0.0031125001
0.0092676431 -0.0025200001 -0.00044722226
0.01052191 0.0015400001 -0.0047958335
-0.0070378343 0.0049000001 -0.00072777783
0.0049473885 0.0014000001 -0.0057777776
0.001184586 0.00392 -0.0057777776
-0.0057835667 0.00294 -0.0057777776
-0.0055048405 0.0032200001 -0.00058750005
0.0098250955 0.0032200001 -0.00058750005
-0.010939999 -0.00056000001 -0.0026916668
-0.0017420382 -0.00168 -0.0064791669
0.010243184 0.0047599999 -0.0038138889
0.0043899361 0.00098000001 -0.00058750005
-0.00090585987 0.0040600002 -0.0057777776
0.0092676431 0.0049000001 -0.0022708334
0.0052261143 -0.0049000001 -0.0056375
-0.0043899361 -0.0015400001 -0.00044722226
0.0066197449 0.0049000001 -0.0056375
0.010382547 -0.0046200003 -0.0017097222
0.00090585987 0.0015400001 -0.00044722226
-0.006759108 -0.00070000003 -0.0066194446
0.0053654774 -0.00083999999 -0.0059180558
-0.0075952862 0.00112 -0.0057777776
0.0077346493 -0.0049000001 -0.0036736112
0.01052191 0.00112 -0.0045152777
-0.010939999 -0.0015400001 -0.004375
0.0021601273 -0.0049000001 -0.0046555558
0.01052191 -0.0046200003 -0.00086805562
-0.0025782164 -0.0049000001 -0.0028319445
-0.0080133751 -0.00126 -0.0059180558
-0.0022994904 -0.0049000001 -0.0038138889
0.0038324839 0.00336 -0.00058750005
0.010382547 -0.00238 -0.00072777783
0.001323949 -0.0037800001 0.0027791667
-0.0038324839 -0.0049000001 -0.00072777783
0.0081527382 0.00238 -0.00044722226
0.010661273 -0.00098000001 -0.0042347223
0.00912828 0.00294 -0.0057777776
0.0056442036 -0.00070000003 -0.0064791669
0.0053654774 0.0049000001 -0.0033930556
0.0070378343 -0.0049000001 -0.005216667
-0.0046686623 0.0049000001 -0.0026916668
0.0010452229 -0.0049000001 -0.00086805562
0.0056442036 -0.00238 -0.00030694448
0.00048777068 0.00238 -0.0059180558
-0.0092676431 -0.00392 -0.0057777776
-0.0077346493 0.0015400001 -0.00030694448
0.00020904458 -0.00168 -0.0057777776
-0.0081527382 -0.0040600002 -0.00058750005
-0.004250573 0.0049000001 -0.001288889
-0.0029963057 0.0042000003 -0.0057777776
0.00020904458 -0.0021000002 -0.0059180558
0.0074559231 0.0049000001 -0.00086805562
-0.0080133751 -0.0022400001 -0.0059180558
-0.001184586 0.0040600002 -0.0057777776
-0.00020904458 0.0021000002 -2.6388921e-05
0.0049473885 0.0049000001 -0.0015694445
0.0028569426 0.0049000001 -0.0038138889
-0.010661273 0.00266 -0.0057777776
-0.007874012 -0.0015400001 -0.00030694448
0.0039718468 0.0049000001 -0.0053569446
0.010939999 -0.0028000001 -0.0042347223
-0.0084314644 0.0032200001 -0.00058750005
0.0032750317 0.0021000002 -0.0059180558
-0.0043899361 -0.0047599999 -0.0056375
0.0046686623 -0.0049000001 -0.0028319445
0.0032750317 -0.0014000001 -0.0064791669
-0.0080133751 0.00238 -0.00030694448
0.0080133751 -0.00294 -0.00058750005
0.0010452229 -0.00168 -2.6388921e-05
0.0099644586 -0.0035000001 -0.0056375
-0.0094070062 -0.0049000001 -0.0031125001
-0.010939999 0.00042 -0.0056375
0.0088495538 0.00392 -0.00044722226
0.010800636 -0.00336 -0.00072777783
-0.0043899361 0.0022400001 -0.00044722226
0.00076649681 -0.00196 -0.0063388888
-0.0045292992 0.0046200003 -0.0057777776
0.010661273 -0.0015400001 -0.00058750005
-0.0062016556 0.0049000001 -0.00058750005
0.0096857324 -0.0025200001 -0.0057777776
0.0062016556 -0.0040600002 -0.00058750005
0.004250573 0.0049000001 -0.0025513889
0.0020207642 -0.00392 -0.00030694448
-0.0081527382 0.00238 -0.00044722226
-0.006062293 0.00364 -0.00058750005
-0.004250573 0.0049000001 -0.0015694445
-0.010939999 0.00434 -0.0035333333
0.0028569426 0.0049000001 -0.0049361112
-0.00034840763 -0.0044800001 -0.0056375
0.0050867512 0.0049000001 -0.00185
0.0018814012 -0.00112 -0.0063388888
0.0092676431 0.00014 -0.00058750005
0.00062713376 -0.00364 -2.6388921e-05
-0.0043899361 -0.00168 -0.0061986111
0.0021601273 -0.00238 -0.0059180558
0.004250573 0.0049000001 -0.0042347223
0.0088495538 0.0049000001 -0.0033930556
-0.00076649681 -0.0047599999 -0.00058750005
-0.0087101907 0.0049000001 -0.0022708334
0.00034840763 -0.0044800001 -0.00058750005
-0.0017420382 -0.00083999999 -0.0067597223
-0.00062713376 0.00336 -0.00058750005
0.0074559231 -0.0049000001 -0.00072777783
0.0077346493 0.0049000001 -0.0033930556
-0.0098250955 0.00083999999 -0.0057777776
0.0088495538 0.00364 -0.0057777776
0.0063410187 -0.0032200001 -0.0057777776
-0.00076649681 0.0049000001 -0.0011486112
-0.0087101907 -0.0049000001 -0.0026916668
0.004250573 0.00182 -0.00016666669
-0.010800636 -0.00434 -0.0035333333
-0.0049473885 0.0037800001 -2.6388921e-05
0.00076649681 0.00056000001 -0.0060583334
-0.010939999 0.0028000001 -0.0057777776
-0.0014633121 0.0049000001 -0.00072777783
0.00090585987 -0.00364 -0.0057777776
-0.0020207642 -0.00364 -0.0057777776
-0.0034143948 0.00042 -0.0060583334
0.010103821 0 -0.00058750005
-0.0031356686 0.00434 -0.0057777776
-0.0087101907 0.00364 -0.0057777776
0.010661273 0.0046200003 -0.0028319445
0.0034143948 -0.00056000001 -0.0067597223
0.010661273 0.0028000001 -0.0022708334
0.0063410187 0.0049000001 -0.0026916668
0.010243184 -0.0040600002 -0.00072777783
0.0032750317 0.0049000001 -0.0049361112
0.010939999 0.00168 -0.00086805562
0.0041112099 -0.0049000001 -0.0010083334
-0.001323949 -0.0037800001 0.0023583334
0.0027175795 0.0049000001 -0.0054972223
-0.0022994904 0.0049000001 -0.00185
-0.0068984712 -0.00028000001 -0.0064791669
0.001184586 -0.00392 -2.6388921e-05
0.0098250955 -0.00434 -0.0032527777
-0.001184586 0.0015400001 -0.00016666669
0.00048777068 0.00196 -2.6388921e-05
0.0039718468 0.0021000002 -0.0059180558
0.0094070062 -0.00042 -0.00058750005
-0.0062016556 0.0049000001 -0.0045152777
0.0088495538 -0.0046200003 -0.0056375
-0.0050867512 -0.0049000001 -0.0028319445
-0.010243184 0.0046200003 -0.00072777783
-0.0095463693 0.0040600002 -0.0056375
-0.0081527382 -0.0049000001 -0.0054972223
0.00731656 -0.00266 -0.0057777776
0.00731656 0.00083999999 -0.00058750005
0.00062713376 0.00392 -0.0057777776
0.00076649681 -0.0022400001 -0.00030694448
-0.0062016556 0.0014000001 -0.00044722226
0.0084314644 0.00083999999 -0.00058750005
-0.0048080254 0.0037800001 -0.00030694448
-0.010939999 -0.0022400001 -0.0026916668
0.010939999 0.00364 -0.0015694445
0.006759108 -0.00266 -0.0057777776
-0.010939999 -0.00182 -0.0025513889
-0.010939999 0.00182 -0.0049361112
-0.010939999 -0.00098000001 -0.0029722224
0.0017420382 0.00392 -0.00030694448
-0.010243184 -0.0030800002 -0.00058750005
-0.0074559231 0.0049000001 -0.0050763888
0.0081527382 -0.00070000003 -0.0064791669
-0.0055048405 0.00238 -0.00044722226
0.0031356686 -0.0032200001 -0.0059180558
0.0018814012 0.0022400001 -0.00030694448
-0.010382547 0.0042000003 -0.00072777783
0.0075952862 -0.00294 -0.0057777776
0.0063410187 -0.0049000001 -0.0045152777
0.0027175795 -0.0049000001 -0.004375
-0.0018814012 -0.00266 -0.00058750005
-0.010800636 -0.0046200003 -0.0025513889
0.00090585987 -0.0049000001 -0.0035333333
0.0055048405 -0.0021000002 -2.6388921e-05
0.0017420382 -0.0047599999 -0.0057777776
-0.010939999 -0.00294 -0.0025513889
0.0092676431 -0.00056000001 -0.00058750005
-0.010939999 -0.00168 -0.0017097222
0.0049473885 -0.00238 -0.00030694448
-0.010800636 -0.00070000003 -0.0057777776
-0.0035537579 0.0049000001 -0.0017097222
-0.00090585987 0 -0.0064791669
-0.0088495538 -0.0042000003 -0.0057777776
0.001184586 -0.0049000001 -0.0054972223
-0.004250573 -0.00434 -0.00058750005
0.001323949 0.00070000003 -0.0060583334
-0.0077346493 -0.0049000001 -0.0047958335
-0.0094070062 0.0030800002 -0.00058750005
0.0081527382 0.0042000003 -0.0057777776
0.00076649681 -0.00098000001 -0.0066194446
-0.0036931208 0.0049000001 -0.00072777783
-0.0075952862 0.00126 -0.0057777776
-0.0052261143 -0.00392 -0.0057777776
0.0021601273 0.00112 -0.0059180558
0.0010452229 -0.0049000001 -0.0049361112
0.0039718468 0.00294 -0.00058750005
-0.0048080254 0.00238 -0.0057777776
-0.0052261143 0.0030800002 -0.0057777776
0.0036931208 -0.0049000001 -0.0022708334
-0.0068984712 0.00112 -0.0057777776
0.0053654774 -0.00126 -0.0059180558
-0.00090585987 0.00028000001 -0.00058750005
0.0080133751 0.00182 -0.00016666669
0.0074559231 -0.00294 -0.0057777776
0.0043899361 0.00056000001 -0.0059180558
-0.0087101907 -0.0049000001 -0.0050763888
0.010661273 0.00238 -0.0038138889
0.0075952862 -0.0049000001 -0.0024111113
0.0035537579 0.0014000001 -0.00044722226
0.0052261143 0.00028000001 -0.0057777776
0.0089889169 -0.00098000001 -0.00058750005
-0.0049473885 -0.0014000001 -0.00058750005
-0.0059229298 -0.00392 -0.0057777776
0.0032750317 -0.0049000001 -0.0032527777
6.9681526e-05 -0.0049000001 -0.0025513889
0.0041112099 0 -0.0066194446
0.010939999 -0.00392 -0.00072777783
-0.0043899361 -0.0049000001 -0.005216667
0.0088495538 0.0049000001 -0.0029722224
0.004250573 -0.0021000002 -0.0063388888
-0.006062293 -0.00098000001 -0.0066194446
-6.9681526e-05 -0.00238 -0.00044722226
0.0070378343 0.0047599999 -0.00058750005
0.0099644586 -0.0047599999 -0.0028319445
-0.00020904458 -0.0044800001 -0.00058750005
0.0017420382 0.0049000001 -0.0033930556
0.0024388535 0.0049000001 -0.0033930556
-0.010800636 0.0047599999 -0.0026916668
0.0041112099 0.0049000001 -0.0031125001
0.00090585987 0.0049000001 -0.0031125001
0.001184586 -0.0044800001 -0.0057777776
0.0056442036 0.00112 -0.0057777776
0.010800636 0.00112 -0.00086805562
-0.0099644586 -0.0049000001 -0.0036736112
-0.0075952862 -0.0049000001 -0.0019902778
0.0025782164 -0.0049000001 -0.0053569446
-0.010939999 -0.0032200001 -0.0054972223
-0.0094070062 -0.0037800001 -0.0057777776
0.0038324839 0.0025200001 -0.00058750005
0.0063410187 0.0015400001 -0.00016666669
-0.0064803818 -0.00364 -0.00044722226
0.0094070062 0.00238 -0.00030694448
-0.0071771974 0.0014000001 -0.0057777776
-0.004250573 -0.0022400001 -0.00030694448
-0.010243184 -0.0022400001 -0.00058750005
0.00062713376 -0.0021000002 -0.0059180558
0.001184586 -0.00098000001 -0.0067597223
0.010939999 -0.00126 -0.0056375
-0.0018814012 0.0049000001 -0.0038138889
0.0034143948 0.00168 -0.0059180558
6.9681526e-05 -0.0040600002 -0.00058750005
-0.006759108 0 -0.0064791669
0.00731656 -0.0030800002 -0.00058750005
0.010939999 -0.00434 -0.0045152777
0.010800636 -0.0046200003 -0.0021305557
0.0080133751 -0.0021000002 -0.0057777776
-0.010939999 0.00056000001 -0.00185
