# .PCD v0.7 - Point Cloud Data file format
VERSION 0.7
FIELDS x y z
SIZE 4 4 4
TYPE F F F
COUNT 1 1 1
WIDTH 1180
HEIGHT 1
VIEWPOINT 0 0 0 1 0 0 0
POINTS 1180
DATA ascii
0.0069940286 0.0025150001 -0.0004081034
0.0021066351 -0.0019946552 -0.0065591377
0.0083422754 -0.00078051729 -0.0065591377
0.013903792 -0.00095396553 -0.0065591377
-0.0096905213 -0.0025150001 -0.0055339653
0.016094692 0.0025150001 -0.0033127586
-0.0016010427 0.0025150001 -0.00092068961
0.0019381043 -0.0016477586 -0.0065591377
-0.0017695735 -0.00078051729 -0.00057896547
-0.015083508 -0.0011274138 -6.6379245e-05
-0.0098590525 -0.0025150001 -0.0041670687
0.015252038 0.0025150001 -0.004850517
0.0049716588 0.0016477586 -0.0004081034
0.0041290047 0.00026017241 -0.0065591377
0.011207298 -0.0021681036 -0.0063882759
0.016768815 -0.0025150001 -0.0029710345
-0.016937347 0.0025150001 -0.00092068961
0.0056457822 -0.0025150001 -0.0010915516
-0.015926162 0.0019946552 -0.0065591377
0.0083422754 0.00043362071 -0.00057896547
0.0012639811 0.0013008622 0.00027534491
0.017442938 0.0025150001 -0.0045087929
-0.00311782 0.0025150001 -0.0050213793
-0.011712891 -0.001821207 -0.0065591377
0.0016010427 -0.0025150001 -0.00092068961
-0.0048031281 -0.0025150001 -0.0045087929
-0.00733109 0.0025150001 -0.0051922412
-0.0081737442 0.0025150001 -0.0033127586
-0.014577915 -0.00095396553 -0.00057896547
-0.0078366827 0.0014743104 -0.0065591377
0.016768815 -0.0025150001 -0.0055339653
0.017105877 0.0025150001 -0.0004081034
0.0098590525 -0.0025150001 -0.0055339653
0.01761147 -0.0021681036 -0.0041670687
-0.0014325118 0.0016477586 -0.0004081034
0.0046345973 -0.000607069 -0.0065591377
-0.0081737442 -0.0011274138 -0.0065591377
-0.0090163983 0.00078051729 -0.0065591377
0.013061138 0.0025150001 -0.0031418966
-0.011207298 -0.0013008622 0.0013005174
0.011207298 0.00078051729 -0.0065591377
-0.010364645 0.0014743104 -0.0065591377
0.0093534598 -0.0025150001 -0.0028001724
-0.017442938 -0.0021681036 -0.0065591377
0.0034548815 0.0013008622 -0.0004081034
0.007668152 -0.00078051729 -0.0065591377
0.011712891 0.0025150001 -0.0046796552
-0.010533175 0.0016477586 -0.0004081034
0.0032863508 -0.0025150001 -0.0050213793
0.0022751659 0.0025150001 -0.0010915516
0.011712891 -0.00078051729 -0.0065591377
-0.016263222 -0.0025150001 -0.001945862
-0.011038768 0.0016477586 -0.0065591377
-0.014072322 -0.0025150001 -0.0050213793
-0.0091849295 -0.0013008622 0.0023256897
-0.0155891 0.00078051729 -0.0065591377
-0.009521991 -0.0025150001 -0.0031418966
0.0088478671 -0.0013008622 0.00078793109
0.011544361 -8.672414e-05 -0.0065591377
-0.017105877 0.0025150001 -0.00074982754
0.01137583 0.0025150001 -0.0045087929
-0.012892607 -0.0025150001 -0.0036544828
0.013903792 -0.0025150001 -0.0051922412
0.014914976 0.000607069 -0.00057896547
0.0036234125 -0.0025150001 -0.0062174136
0.0088478671 0.0011274138 0.00078793109
-0.00042132701 -0.0025150001 -0.004850517
-0.01778 -0.0011274138 -0.0024584483
-0.015926162 -0.00078051729 -0.00057896547
-0.0026122276 0.0025150001 -0.0029710345
-0.01778 -0.00026017241 -0.0010915516
0.010533175 -0.0025150001 -0.0043379311
0.017105877 -0.0023415517 -0.0031418966
-0.0010954503 -0.0025150001 -0.0012624137
-0.011881422 -0.0025150001 -0.0055339653
0.00733109 -8.672414e-05 -0.00057896547
-0.0086793369 -0.0014743104 -0.00023724131
0.00025279622 -0.0023415517 -0.0065591377
0.0056457822 0.0025150001 -0.00023724131
0.0036234125 0.0025150001 -0.0041670687
0.013061138 0.0013008622 -0.0065591377
-0.0041290047 0.0023415517 -0.0065591377
0.007668152 0.0019946552 -0.00057896547
0.010364645 0.0025150001 -6.6379245e-05
-0.0014325118 -0.0025150001 -0.0050213793
0.007668152 0.0025150001 -0.0026293104
0.013398199 0.000607069 -0.0065591377
-0.0019381043 -0.0025150001 -0.00092068961
0.014746446 0.0013008622 -0.0004081034
-0.0039604739 0.0025150001 -0.0004081034
0.013735261 -0.0025150001 -0.0053631035
0.017105877 0.0025150001 -0.0036544828
0.0085108057 -0.0011274138 -0.0065591377
0.005814313 0.00043362071 -0.00057896547
0.0053087203 -0.0023415517 -6.6379245e-05
0.016937347 0.0014743104 -0.00023724131
0.0016010427 -0.0019946552 -0.0065591377
-0.0066569671 -0.0025150001 -0.004850517
-0.009521991 -0.0025150001 -0.0026293104
-0.013735261 0.0025150001 -0.0033127586
-0.010027583 -0.0025150001 -0.0004081034
0.0069940286 0.0025150001 -0.0038253448
0.0086793369 0.0025150001 -0.0045087929
0.0056457822 -0.0025150001 -0.0004081034
0.0081737442 -0.00095396553 -0.0065591377
0.015252038 -0.0025150001 -0.0062174136
-0.01778 -0.000607069 -0.0058756894
-0.011881422 0.0025150001 -0.0063882759
0.0059828437 -0.0025150001 -0.0055339653
-0.017105877 0.00026017241 -0.00057896547
0.016431754 -0.0011274138 0.0014713794
0.0090163983 -0.001821207 -0.0065591377
0.0017695735 0.0013008622 -0.0065591377
-0.00092691946 0.0025150001 -0.0065591377
-0.015083508 -0.0025150001 -0.0016041378
-0.0085108057 -0.00026017241 -0.00057896547
0.017105877 -0.00043362071 -0.0065591377
0.010701707 -0.0025150001 -0.0024584483
0.010533175 0.001821207 -0.0065591377
-0.0010954503 -0.0025150001 -0.0045087929
-0.0091849295 0.0021681036 -0.00023724131
-0.009521991 0.000607069 -0.00057896547
-0.0041290047 -0.001821207 -0.0065591377
0.0088478671 -0.00078051729 -0.0065591377
0.0046345973 0.0025150001 -0.00057896547
0.011712891 0.0014743104 -0.00023724131
-0.014072322 0.0025150001 -0.0028001724
-0.0053087203 0.0025150001 -0.0051922412
0.0024436968 0.0025150001 -0.0029710345
-0.0068254978 -0.0025150001 -0.0026293104
-0.00042132701 0.000607069 -0.0065591377
-0.0081737442 -0.0025150001 -0.004850517
-0.0083422754 0.0014743104 -0.00023724131
-0.0041290047 0.0025150001 -0.0028001724
0.0068254978 -0.0013008622 -0.0065591377
0.0093534598 0.0025150001 -0.0017749999
-0.00058985781 -0.000607069 -0.00057896547
-0.013566731 -0.0025150001 -0.0063882759
0.013735261 0.0025150001 -6.6379245e-05
-0.010870237 -0.0013008622 -6.6379245e-05
-0.013061138 -0.0025150001 -0.0041670687
-0.016768815 0.00043362071 -0.0065591377
-0.0091849295 0.0013008622 0.0016422415
0.0053087203 0.0021681036 -0.0004081034
0.016094692 0.0025150001 -0.0004081034
0.0049716588 -0.00095396553 -0.0065591377
-0.015926162 0.0025150001 -0.0063882759
0.015252038 -0.000607069 -0.00057896547
-0.01778 -0.0021681036 -0.0041670687
-0.011207298 -0.0011274138 -0.00057896547
-0.017442938 0.0021681036 -0.0012624137
0.016263222 0.0025150001 -0.0028001724
-0.0068254978 0.0025150001 -0.0021167242
-0.0026122276 -0.0025150001 -0.0053631035
0.00042132701 -0.0025150001 -0.00023724131
0.0063199052 0.0011274138 0.00078793109
0.0098590525 0.0025150001 -0.0026293104
0.0014325118 -8.672414e-05 -0.0065591377
-0.0046345973 -0.0025150001 -0.0065591377
-0.0034548815 -0.0025150001 -0.0065591377
0.010364645 0.0014743104 -6.6379245e-05
0.0039604739 -0.0011274138 0.00078793109
-0.0049716588 -0.0025150001 -0.0039962069
0.011712891 -0.0025150001 -0.0063882759
0.015420569 -0.0016477586 -0.0065591377
-0.008005213 -0.0014743104 -0.00023724131
-0.0059828437 -0.0025150001 -0.001945862
0.0022751659 0.0025150001 -0.0014332758
-0.011038768 0.0025150001 -0.00057896547
-0.010196114 -0.0025150001 -0.0004081034
-0.00025279622 -0.0013008622 -0.0065591377
-0.014072322 0.0025150001 -0.0045087929
0.013398199 0.0025150001 -0.0034836207
-0.01778 -8.672414e-05 -0.0029710345
0.00075838866 -0.00043362071 -0.0065591377
-0.014072322 -0.0013008622 0.0014713794
-0.015757632 0.00095396553 -0.00057896547
0.0053087203 -0.00043362071 -0.0065591377
0.00058985781 -0.00043362071 -0.0065591377
0.00733109 0.0025150001 -0.0051922412
0.012724076 0.0025150001 -0.0063882759
-0.0029492893 -0.000607069 -0.00057896547
0.015083508 -0.0025150001 -0.00092068961
-0.0093534598 0.0025150001 -0.00074982754
-0.015083508 0.0025150001 -0.00057896547
0.0014325118 0.0013008622 0.00010448282
-0.0051401895 0.0025150001 -0.0063882759
0.01778 0.000607069 -0.004850517
0.01778 -0.000607069 -0.0063882759
0.0044660666 -0.00026017241 -0.0065591377
-0.008005213 0.00078051729 -0.00057896547
0.015757632 -0.00026017241 -0.00057896547
-0.0064884364 -0.0025150001 -0.0014332758
0.0048031281 0.0025150001 -0.0022875862
0.014914976 -0.0025150001 -0.0045087929
0.01137583 -0.0025150001 -0.0029710345
0.01137583 0.0013008622 0.0011296553
-0.0085108057 0.0025150001 -0.0043379311
-0.00025279622 -0.0025150001 -0.0051922412
0.00025279622 8.672414e-05 -0.0065591377
0.010027583 0.0025150001 -0.0029710345
-0.0048031281 0.0025150001 -0.0029710345
-0.010533175 -0.0011274138 -6.6379245e-05
-0.0032863508 0.0025150001 -0.0062174136
0.007668152 -0.00043362071 -0.0065591377
0.016768815 -0.0025150001 -0.0022875862
0.016431754 0.0011274138 -6.6379245e-05
-0.011881422 0.0025150001 -0.0062174136
-0.00311782 0.0023415517 -6.6379245e-05
-0.0078366827 -0.000607069 -0.00057896547
0.0086793369 0.0025150001 -0.0053631035
-0.0037919432 0.0013008622 0.0011296553
-0.0049716588 -0.0011274138 -0.0065591377
-0.0021066351 0.0025150001 -0.0022875862
0.0016010427 0.0025150001 -0.0031418966
0.0096905213 0.0013008622 -0.00023724131
0.010870237 0.0025150001 -0.0055339653
0.011207298 0.0025150001 -0.0060465517
-0.016431754 -0.0025150001 -0.0010915516
-0.0081737442 -0.00026017241 -0.0065591377
-0.0090163983 0.0025150001 -0.00057896547
-0.016263222 0.001821207 -0.00057896547
-0.0034548815 -0.0025150001 -0.0060465517
-0.0021066351 -0.0016477586 -0.0004081034
-0.0041290047 0.0025150001 -0.0012624137
-0.00025279622 -0.0025150001 -0.0034836207
-0.0071625593 -0.0013008622 -6.6379245e-05
0.0036234125 -0.00095396553 -0.0065591377
0.01778 0.0013008622 -0.0063882759
-0.010196114 -0.0019946552 -0.0065591377
-0.014409384 -0.0011274138 -0.00023724131
0.0059828437 0.0025150001 -0.00057896547
-0.0056457822 -0.0025150001 -0.00023724131
-0.0064884364 -0.0023415517 -0.0065591377
0.0085108057 0.0025150001 -0.001945862
0.0048031281 -0.0025150001 -0.0028001724
0.0027807583 0.0016477586 -0.00023724131
0.013903792 -0.0014743104 0.0024965517
0.0041290047 0.0023415517 -6.6379245e-05
0.010364645 0.0019946552 -0.0065591377
0.0041290047 0.0021681036 -0.00023724131
0.0036234125 0.0021681036 -0.0065591377
0.015083508 0.0025150001 -0.0036544828
-0.0041290047 -0.0025150001 -0.0017749999
0.012049953 0.0013008622 -6.6379245e-05
0.0063199052 -0.0014743104 -6.6379245e-05
-0.0061513744 -0.0025150001 -0.0033127586
0.0063199052 -0.0025150001 -0.0060465517
0.0012639811 0.0013008622 0.0014713794
-0.011038768 0.00026017241 -0.00057896547
0.0049716588 -0.0013008622 -6.6379245e-05
0.005814313 -0.0025150001 -0.0028001724
0.012387015 0.0025150001 -0.0033127586
-0.007668152 0.0019946552 -0.0065591377
-0.0036234125 0.0025150001 -0.0043379311
0.00311782 0.0025150001 -0.0028001724
-0.00025279622 -0.0025150001 -0.0063882759
0.01778 -0.0019946552 -0.0058756894
-0.005814313 -0.0025150001 -0.0016041378
-0.010701707 0.0011274138 -0.00057896547
-0.012892607 -0.0025150001 -0.0057048276
-0.01778 0.0011274138 -0.0039962069
-0.01778 -0.0014743104 -0.00092068961
-0.0039604739 -0.0014743104 -0.0065591377
-0.0024436968 -0.0025150001 -0.00023724131
0.0066569671 -0.0025150001 -0.0053631035
0.0051401895 -0.0021681036 -0.0004081034
0.0036234125 -0.0013008622 0.00078793109
-0.0078366827 -0.0021681036 -0.0065591377
0.013903792 -0.0014743104 0.00010448282
0.01778 -8.672414e-05 -0.00057896547
-0.011038768 0.0025150001 -0.0050213793
-0.0039604739 -0.0021681036 -0.0004081034
-0.0068254978 0.0021681036 -0.0063882759
-0.0061513744 0.0025150001 -0.0034836207
-0.012218484 0.0013008622 -0.0065591377
-0.014746446 -0.000607069 -0.00057896547
-0.011881422 0.0013008622 -6.6379245e-05
0.013229668 -8.672414e-05 -0.0065591377
0.013566731 -0.0025150001 -0.0038253448
-0.014577915 -0.0025150001 -0.0029710345
-0.014409384 0.0025150001 -0.0038253448
-0.00058985781 0.0025150001 -0.00023724131
0.0048031281 -0.00043362071 -0.0065591377
-0.012218484 -0.0025150001 -0.0038253448
-0.0049716588 0.0025150001 -0.0051922412
0.011038768 0.0025150001 -6.6379245e-05
0.016263222 0.0013008622 0.00044620698
-0.007668152 0.0014743104 -6.6379245e-05
0.0017695735 -0.0021681036 -0.0065591377
0.014914976 -0.00043362071 -0.0065591377
0.0042975359 0.0025150001 -0.0051922412
0.010870237 0.00043362071 -0.00057896547
0.0064884364 0.0011274138 0.0014713794
-0.0086793369 -0.001821207 -0.00057896547
-0.0042975359 -0.0011274138 -0.00057896547
0.009521991 0.0025150001 -6.6379245e-05
-0.0049716588 -0.0019946552 -0.00057896547
-0.014577915 -0.0025150001 -0.0033127586
0.0010954503 0.0014743104 -0.00023724131
0.0042975359 0.0025150001 -0.0046796552
-0.0090163983 -0.0011274138 0.0016422415
0.014409384 0.0025150001 -0.00023724131
-0.01778 -0.001821207 -0.0057048276
-0.016431754 -0.0025150001 -0.0045087929
0.0041290047 -0.0025150001 -0.0029710345
-0.014072322 -8.672414e-05 -0.0065591377
0.016768815 -0.00078051729 -0.0063882759
0.014240853 -0.0023415517 -0.0065591377
0.01778 -0.00043362071 -0.00057896547
0.0059828437 0.0025150001 -0.0057048276
-0.0090163983 0.00095396553 -0.0065591377
0.0042975359 -0.0025150001 -0.0050213793
0.005814313 -0.0025150001 -0.0055339653
0.0037919432 0.0013008622 0.0023256897
-0.0016010427 0.0025150001 -0.0028001724
-0.0086793369 0.000607069 -0.0065591377
0.011207298 0.00095396553 -0.0065591377
0.011712891 0.0025150001 -0.0024584483
-0.01778 0.0014743104 -0.0043379311
0.0069940286 0.0011274138 -0.00057896547
0.016600285 -0.0019946552 -0.0065591377
0.0066569671 0.0025150001 -0.0046796552
0.01761147 -0.00026017241 -0.00057896547
-0.0039604739 0.0025150001 -0.0046796552
0.014914976 -0.0019946552 -0.0063882759
-0.016600285 0.0021681036 -0.0065591377
0.0022751659 0.0025150001 -0.0031418966
0.0037919432 -0.0011274138 0.0014713794
-0.010533175 0.0016477586 -0.0065591377
0.0026122276 -0.00026017241 -0.00057896547
-0.0017695735 -0.0025150001 -0.00023724131
0.015420569 -0.0013008622 -6.6379245e-05
-0.0014325118 -0.0016477586 -0.0065591377
0.00075838866 -0.001821207 -0.00057896547
0.0019381043 0.0025150001 -0.0063882759
0.0046345973 0.0025150001 -0.0010915516
-0.0026122276 -0.00078051729 -0.00057896547
0.017442938 0.0025150001 -0.0039962069
0.010701707 0.0025150001 -0.0051922412
-0.00025279622 0.0025150001 -0.0010915516
0.0068254978 -0.0011274138 -0.00057896547
-0.0032863508 0.0011274138 -0.00057896547
0.010533175 -0.0019946552 -0.0063882759
0.0029492893 -0.0025150001 -0.0036544828
0.0046345973 -0.0021681036 -0.0065591377
-0.012387015 -0.0025150001 -0.0014332758
0.016600285 0.0025150001 -0.0045087929
0.016263222 0.00078051729 -0.00057896547
-0.0029492893 -0.001821207 -0.0065591377
0.0034548815 -0.00043362071 -0.0065591377
0.011712891 -0.0021681036 -0.0004081034
0.010196114 -0.00095396553 -0.00057896547
0.009521991 -0.0025150001 -0.0053631035
0.009521991 0.0025150001 -0.0034836207
-0.014240853 -0.0025150001 -0.00074982754
0.0042975359 0.0025150001 -0.0036544828
-0.0037919432 0.0025150001 -0.0041670687
-0.0093534598 -0.0023415517 -6.6379245e-05
0.012387015 0.0025150001 -0.0036544828
-0.010701707 -0.0025150001 -0.0058756894
-0.017442938 0.0021681036 -0.0022875862
-0.0085108057 0.0025150001 -0.0012624137
0.0029492893 0.0025150001 -0.0062174136
-0.014914976 -0.0025150001 -0.0065591377
-0.00042132701 0.00043362071 -0.00057896547
-0.0090163983 0.0013008622 0.00078793109
0.01778 -0.00026017241 -0.0055339653
0.01778 0.00043362071 -0.0038253448
0.0068254978 0.0025150001 -0.0017749999
-0.00058985781 -0.0011274138 -6.6379245e-05
-0.01137583 0.0025150001 -0.0043379311
-0.01778 0.00043362071 -0.0024584483
-0.015757632 0.0011274138 -0.00057896547
-0.0086793369 -0.0013008622 0.0011296553
-0.0016010427 0.0025150001 -0.0010915516
0.016094692 -0.0011274138 -6.6379245e-05
-0.015083508 0.0025150001 -0.0033127586
0.015420569 -0.0014743104 -6.6379245e-05
-0.008005213 0.0016477586 -0.0004081034
-0.0046345973 0.0025150001 -0.0063882759
-0.0071625593 0.0025150001 -0.0029710345
-0.0034548815 0.0013008622 -6.6379245e-05
-0.0012639811 -0.0011274138 0.00044620698
0.010701707 -0.0025150001 -6.6379245e-05
-0.017442938 -0.0025150001 -0.00023724131
0.0054772515 -0.00043362071 -0.00057896547
-0.0019381043 0.0025150001 -0.0053631035
0.01137583 0.0025150001 -0.00023724131
0.00092691946 0.0013008622 -0.0065591377
0.015252038 0.0021681036 -0.0004081034
0.0090163983 -0.0014743104 -0.0065591377
0.0069940286 0.0025150001 -0.0050213793
-0.014240853 0.0025150001 -0.0022875862
-0.0085108057 -0.0025150001 -0.0050213793
0.014746446 0.0013008622 -0.0065591377
0.008005213 -0.0013008622 -0.00023724131
-0.011712891 -0.0014743104 -6.6379245e-05
0.0074996212 0.0025150001 -0.0043379311
0.0098590525 -0.0021681036 -0.0063882759
-0.0090163983 -0.0025150001 -0.0034836207
0.01778 -0.00043362071 -0.001945862
0.017274408 -0.0021681036 -0.0004081034
-0.013229668 0.000607069 -0.0065591377
0.0032863508 0.0025150001 -0.00023724131
0.0029492893 -0.0025150001 -0.0065591377
0.015420569 0.0025150001 -0.0024584483
-0.0048031281 -0.0025150001 -0.0055339653
-0.0078366827 -0.0025150001 -0.0046796552
-0.007668152 0.0025150001 -0.0055339653
0.00733109 -0.0025150001 -0.0024584483
0.0066569671 0.0013008622 -6.6379245e-05
-0.007668152 -0.00095396553 -0.00057896547
-0.01778 0.00043362071 -0.00074982754
-0.0085108057 -0.0013008622 -0.0004081034
-0.0032863508 0.00095396553 -0.00057896547
-0.007668152 0.0025150001 -0.0012624137
-0.0056457822 0.0011274138 -0.00057896547
0.01778 0.0014743104 -0.0031418966
0.0155891 -0.0025150001 -0.0017749999
0.00042132701 0.00095396553 -0.0065591377
-0.01778 0.001821207 -0.0031418966
-0.009521991 -0.0025150001 -0.0041670687
-0.0096905213 0.0019946552 -0.0063882759
-0.00311782 0.0025150001 -0.0034836207
-0.0014325118 0.0011274138 0.00027534491
0.013566731 0.0023415517 -6.6379245e-05
0.0063199052 -0.0025150001 -0.0012624137
0.0016010427 0.0011274138 -0.0065591377
0.016263222 -0.00026017241 -0.00057896547
0.016094692 0.000607069 -0.00057896547
0.0042975359 -0.0025150001 -0.00092068961
-0.0012639811 -0.0019946552 -0.0065591377
-0.0012639811 -0.00095396553 -0.00057896547
0.01778 0.0021681036 -0.0060465517
0.010870237 0.001821207 -0.00057896547
0.012049953 -0.0025150001 -0.0036544828
0.0090163983 -0.0011274138 -0.00057896547
0.013229668 -0.0025150001 -0.0063882759
-0.0049716588 -0.00043362071 -0.00057896547
0.014240853 0.0025150001 -0.0053631035
-0.0053087203 0.0013008622 -0.00023724131
0.015083508 -0.0025150001 -0.0051922412
-0.013903792 -0.0011274138 0.0011296553
0.0085108057 -0.0025150001 -0.0016041378
0.011881422 -0.0025150001 -0.0016041378
-0.0041290047 0.0025150001 -0.0017749999
-0.012892607 -0.0025150001 -0.0060465517
0.01778 0.0016477586 -0.00057896547
-0.0061513744 0.0025150001 -0.004850517
-0.01761147 -0.00043362071 -0.00057896547
-0.0039604739 -0.0025150001 -0.0014332758
0.0069940286 0.0025150001 -0.0051922412
-0.0016010427 0.0025150001 -0.0012624137
0.01778 0.001821207 -0.0039962069
0.013061138 -0.0011274138 -0.00023724131
-0.0098590525 -0.0025150001 -0.004850517
-0.016768815 0.0025150001 -0.0039962069
0.0091849295 -0.0025150001 -0.00057896547
-0.0012639811 0.0011274138 0.00061706902
-0.014240853 -0.0025150001 -6.6379245e-05
-0.0054772515 -0.0021681036 -0.0065591377
0.013566731 0.0014743104 -0.0065591377
0.01137583 0.0025150001 -0.0039962069
-0.0016010427 0.0025150001 -0.0004081034
-0.0041290047 0.0014743104 -0.0065591377
0.0029492893 0.0014743104 -0.0065591377
0.0036234125 -0.0011274138 -0.0065591377
-0.0010954503 0.0021681036 -0.00023724131
-0.0096905213 -0.001821207 -0.0065591377
0.00042132701 -0.0013008622 -0.00023724131
0.015926162 0.0025150001 -0.0053631035
0.0063199052 -0.0025150001 -0.0031418966
0.0090163983 -0.0013008622 0.0028382759
-0.0039604739 0.0025150001 -0.0028001724
-0.0010954503 0.0013008622 0.00010448282
0.0016010427 0.0014743104 -0.0065591377
0.0155891 0.0011274138 -0.0065591377
0.011544361 -0.0021681036 -0.0004081034
0.011207298 -0.0013008622 -0.00023724131
0.014914976 0.0013008622 -0.0065591377
0.0051401895 0.0025150001 -0.0029710345
-0.0088478671 -0.0025150001 -0.0024584483
-0.01761147 -0.001821207 -0.0065591377
0.00311782 -0.0019946552 -0.00057896547
0.013903792 -0.0025150001 -0.0033127586
0.015420569 -0.00095396553 -0.00057896547
-0.012724076 0.000607069 -0.0065591377
0.0037919432 -0.0025150001 -0.0014332758
0.0039604739 0.0011274138 0.00078793109
0.0027807583 0.0025150001 -0.0045087929
-0.015083508 0.000607069 -0.0065591377
0.016768815 0.0025150001 -0.0016041378
-0.012724076 -0.0025150001 -0.00074982754
0.0021066351 0.0025150001 -0.0014332758
-0.0041290047 -0.00095396553 -0.00057896547
-0.011207298 0.0025150001 -0.0004081034
-0.012892607 0.000607069 -0.00057896547
0.017105877 0.0014743104 -0.00023724131
0.0019381043 -0.0025150001 -0.0063882759
-0.0019381043 0.0025150001 -0.0041670687
0.014072322 0.0025150001 -0.0021167242
-0.01778 0.000607069 -0.0017749999
-0.0066569671 0.001821207 -0.00057896547
0.01778 -0.00026017241 -0.0046796552
0.0086793369 0.0013008622 0.00061706902
-0.0024436968 -0.0025150001 -0.0022875862
-0.014240853 0.0016477586 -0.0063882759
-0.01778 -0.00095396553 -0.00057896547
-0.0081737442 8.672414e-05 -0.00057896547
-0.011712891 -0.0013008622 0.00061706902
0.0086793369 0.0011274138 -0.00057896547
0.017274408 -0.0023415517 -0.004850517
0.012218484 0.0019946552 -0.00057896547
-0.0021066351 0.00078051729 -0.0065591377
-0.01137583 0.0025150001 -0.004850517
0.0081737442 -0.000607069 -0.00057896547
-0.0088478671 0.0013008622 -6.6379245e-05
0.014240853 -0.0011274138 -0.00057896547
0.0061513744 -0.0013008622 0.0023256897
0.01137583 0.0025150001 -0.0036544828
-0.014914976 -0.000607069 -0.0065591377
0.0071625593 -8.672414e-05 -0.0065591377
0.01778 0.00095396553 -0.0058756894
-0.010196114 0.0025150001 -0.0029710345
0.010196114 -0.0025150001 -0.0026293104
-0.0088478671 0.0013008622 0.0014713794
0.0019381043 0.000607069 -0.00057896547
0.0098590525 -0.00095396553 -0.0065591377
-0.0021066351 0.0023415517 -0.0065591377
0.0022751659 0.0013008622 -6.6379245e-05
-0.012892607 -0.0025150001 -0.0045087929
0.0012639811 -0.0011274138 0.00078793109
-0.008005213 -0.0021681036 -0.00023724131
-0.010027583 -0.0025150001 -0.004850517
0.013398199 0.0025150001 -0.001945862
-0.01778 0.000607069 -0.0038253448
-0.012892607 -0.0025150001 -0.0029710345
-0.0039604739 0.0025150001 -0.0039962069
0.013061138 0.0025150001 -0.00057896547
0.01778 0.0014743104 -0.0024584483
0.013903792 0.0025150001 -0.0022875862
-0.01778 0.00026017241 -0.0033127586
0.00092691946 0.0025150001 -0.0060465517
0.012218484 0.0023415517 -6.6379245e-05
-0.0088478671 -0.0025150001 -0.0038253448
0.0063199052 -0.0013008622 0.0011296553
-0.011881422 0.0025150001 -0.0058756894
0.013398199 0.00043362071 -0.00057896547
0.0090163983 -0.0023415517 -6.6379245e-05
-0.0088478671 -0.0025150001 -0.0057048276
-0.010027583 -0.0016477586 -0.0004081034
-0.0083422754 0.0013008622 -6.6379245e-05
0.0021066351 0.00026017241 -0.0065591377
-0.017442938 0.0021681036 -0.0029710345
0.0022751659 0.0025150001 -6.6379245e-05
-0.010533175 0.0025150001 -0.0036544828
-0.0090163983 -0.00043362071 -0.00057896547
0.0048031281 -0.00043362071 -0.00057896547
-0.012387015 0.0019946552 -0.00057896547
-0.00075838866 0.0025150001 -0.0004081034
-0.0088478671 -0.0014743104 -0.00023724131
-0.015926162 -0.0025150001 -0.0058756894
0.0027807583 0.0025150001 -0.0017749999
0.013566731 0.0025150001 -0.0055339653
0.008005213 -0.0025150001 -0.0063882759
-0.010196114 0.0025150001 -0.0046796552
-0.0016010427 0.0011274138 0.00010448282
0.015252038 -0.0014743104 -0.0063882759
0.011207298 -0.0025150001 -0.0017749999
-0.0064884364 -0.0025150001 -0.001945862
0.00025279622 0.0025150001 -0.0038253448
-0.014240853 -0.0011274138 0.00010448282
0.016431754 0.0014743104 -6.6379245e-05
-0.0090163983 -0.00095396553 -0.0065591377
-0.013398199 0.0025150001 -0.0028001724
0.013229668 -0.0025150001 -0.0043379311
-0.015757632 0.00078051729 -0.0065591377
0.0069940286 0.0014743104 -6.6379245e-05
-0.00042132701 -0.0025150001 -0.0017749999
0.014072322 -0.0011274138 0.00010448282
-0.01778 -0.0011274138 -6.6379245e-05
0.016094692 0.0025150001 -0.0051922412
-0.007668152 0.0025150001 -0.0033127586
0.0061513744 0.0021681036 -0.00023724131
0.0049716588 -0.0025150001 -0.0058756894
-0.011712891 -0.00078051729 -0.0065591377
0.014240853 -0.0025150001 -0.0050213793
0.013566731 -8.672414e-05 -0.0065591377
-0.01137583 0.0025150001 -0.0016041378
0.0034548815 0.0016477586 -0.00023724131
0.0064884364 -0.0025150001 -0.0024584483
0.0042975359 0.0025150001 -0.0053631035
0.014072322 0.0025150001 -6.6379245e-05
0.012724076 -0.00095396553 -0.0065591377
0.0063199052 -0.0011274138 -6.6379245e-05
0.0012639811 0.0011274138 0.00027534491
0.01778 -0.00026017241 -0.0017749999
0.00075838866 0.0013008622 -0.00023724131
-0.0066569671 -0.0019946552 -0.0065591377
0.01778 -0.00026017241 -0.001945862
-0.011544361 -0.0014743104 -0.00023724131
0.017442938 0.0025150001 -0.0051922412
-0.0059828437 0.0025150001 -0.0062174136
-0.0081737442 0.0025150001 -0.0036544828
0.01778 0.0016477586 -0.0060465517
-0.011712891 -8.672414e-05 -0.00057896547
-0.013229668 0.0025150001 -0.0016041378
-0.009521991 0.0025150001 -0.004850517
-0.016600285 0.00078051729 -0.0065591377
0.0010954503 -0.0025150001 -0.00092068961
0.0012639811 0.0011274138 0.0021548276
0.0012639811 -0.0014743104 0.0024965517
-0.015420569 0.0025150001 -0.0057048276
-0.00733109 -0.0016477586 -0.0004081034
-0.0054772515 0.0025150001 -0.0060465517
-0.009521991 0.0025150001 -0.00023724131
0.0096905213 -0.0025150001 -0.004850517
-0.0081737442 0.0025150001 -0.0057048276
0.013566731 -0.0011274138 -6.6379245e-05
0.0053087203 0.0019946552 -0.0065591377
0.016768815 -0.0014743104 -0.0065591377
-0.013061138 0.0025150001 -0.0021167242
0.016768815 0.0013008622 0.0016422415
-0.016431754 0.0025150001 -0.0050213793
-0.011038768 -0.0025150001 -0.0014332758
0.01778 -0.0014743104 -0.0055339653
0.010870237 -0.0025150001 -0.0014332758
0.0024436968 -0.0025150001 -0.0060465517
0.0064884364 0.0023415517 -6.6379245e-05
0.0064884364 -0.0016477586 -0.0004081034
-0.015083508 -0.0021681036 -0.00023724131
-0.0078366827 0.00095396553 -0.0065591377
0.005814313 0.0013008622 -0.0004081034
-0.012387015 -0.0014743104 -6.6379245e-05
0.014240853 -0.000607069 -0.00057896547
0.015757632 0.0025150001 -0.0055339653
-0.014577915 -0.0011274138 -6.6379245e-05
-0.0053087203 0.0025150001 -0.0041670687
-0.0068254978 0.0025150001 -0.0051922412
0.009521991 -0.0025150001 -0.0050213793
-0.015083508 -0.0013008622 -6.6379245e-05
-0.01778 -0.0021681036 -0.0029710345
0.012387015 -0.0021681036 -0.0063882759
-0.016094692 0.0011274138 -0.0065591377
-0.0041290047 0.0025150001 -0.0016041378
0.013903792 0.0025150001 -0.00023724131
-0.010196114 0.0025150001 -0.0055339653
-0.0014325118 0.0013008622 0.0028382759
-0.009521991 -0.0025150001 -0.0017749999
-0.011544361 0.0011274138 0.0028382759
-0.014746446 -0.00095396553 -0.00057896547
0.00311782 -0.0025150001 -0.0041670687
0.017105877 0.0025150001 -0.00023724131
0.012555545 0.0025150001 -0.0036544828
0.012218484 -0.0025150001 -0.0058756894
0.0046345973 -0.0025150001 -0.0010915516
0.0046345973 0.0025150001 -0.001945862
0.0061513744 -0.0025150001 -0.0051922412
0.011038768 0.0025150001 -0.0041670687
-0.00733109 -0.00095396553 -0.00057896547
0.0085108057 0.0025150001 -0.0024584483
-0.014746446 -0.0025150001 -0.0024584483
-0.010701707 0.00095396553 -0.00057896547
0.013398199 -0.0025150001 -0.0010915516
0.0042975359 0.0016477586 -0.0065591377
0.0036234125 -0.0025150001 -0.0012624137
0.00042132701 0.00043362071 -0.00057896547
0.0078366827 8.672414e-05 -0.00057896547
0.0068254978 0.0025150001 -0.0051922412
0.013398199 -0.0025150001 -0.00023724131
-0.0051401895 0.00095396553 -0.00057896547
0.010870237 -0.00043362071 -0.00057896547
-0.00311782 -0.0025150001 -0.0046796552
0.0034548815 0.0013008622 -0.0065591377
-0.012892607 -0.0023415517 -0.0065591377
0.015757632 -0.0025150001 -0.0024584483
-0.0042975359 -0.000607069 -0.00057896547
-0.0041290047 0.0016477586 -0.0004081034
-0.0051401895 0.0025150001 -0.00074982754
0.0022751659 -0.0025150001 -0.0033127586
0.0039604739 0.0011274138 0.0013005174
0.011544361 -0.00026017241 -0.00057896547
-0.01137583 0.0021681036 -0.0004081034
0.0086793369 0.001821207 -0.0065591377
-0.0037919432 -0.0013008622 0.00078793109
0.0034548815 -8.672414e-05 -0.0065591377
0.016600285 0.0025150001 -0.0062174136
-0.011881422 0.0025150001 -0.0017749999
0.01778 -0.0013008622 -0.0010915516
0.00025279622 0.0025150001 -0.0051922412
0.0081737442 0.0025150001 -0.0046796552
-0.0039604739 -0.0011274138 0.00095879316
0.011712891 0.0013008622 -0.0004081034
-0.012049953 -8.672414e-05 -0.0065591377
-0.011881422 -0.0011274138 -6.6379245e-05
0.01137583 -0.0011274138 0.0021548276
-0.005814313 -0.0025150001 -0.0050213793
-0.00058985781 0.0025150001 -0.0050213793
0.017442938 0.0025150001 -0.0021167242
-0.010701707 0.0025150001 -0.0045087929
0.0048031281 -0.0025150001 -0.0060465517
-0.00733109 0.0013008622 -0.00023724131
-0.0034548815 0.0019946552 -0.0065591377
-0.012892607 -0.0025150001 -0.0062174136
0.00075838866 -0.0021681036 -0.0065591377
-0.0059828437 0.0025150001 -0.0053631035
0.014240853 0.0013008622 0.00061706902
-0.011207298 -0.0013008622 -0.0004081034
-0.00311782 -0.00043362071 -0.00057896547
-0.0056457822 0.0025150001 -0.0034836207
-0.012387015 -0.0025150001 -0.0045087929
-0.0034548815 -0.0025150001 -0.004850517
-0.010364645 -0.0025150001 -0.00057896547
-0.016263222 -0.0013008622 0.0021548276
-0.01778 -0.0021681036 -0.0039962069
-0.0039604739 -0.0025150001 -0.0004081034
0.0083422754 -0.0019946552 -0.0065591377
-0.0061513744 0.0025150001 -0.0057048276
0.014072322 -0.0025150001 -0.004850517
-0.0081737442 -0.0025150001 -0.0046796552
0.014409384 -0.00078051729 -0.0065591377
-0.010364645 0.0025150001 -0.0004081034
0.01778 0.00078051729 -0.00074982754
0.0022751659 0.0016477586 -0.0065591377
-0.017105877 0.0013008622 -0.0004081034
-0.014240853 -0.0014743104 -0.00023724131
0.017274408 -0.0023415517 -0.0041670687
-0.0155891 -0.0025150001 -0.0036544828
0.0068254978 0.0016477586 -0.00023724131
0.00025279622 0.00095396553 -0.0065591377
-0.0024436968 -0.0025150001 -0.0043379311
-0.00092691946 -0.0025150001 -0.0033127586
0.014914976 0.0025150001 -0.0063882759
0.016263222 0.0014743104 0.00095879316
-0.016768815 -8.672414e-05 -0.00057896547
-0.017105877 0.000607069 -0.0065591377
0.013566731 0.0025150001 -0.0026293104
-8.4265404e-05 0.00043362071 -0.00057896547
0.0068254978 0.00026017241 -0.0065591377
-0.0081737442 -0.001821207 -0.00057896547
-0.014746446 0.00095396553 -0.0065591377
0.0016010427 -8.672414e-05 -0.0065591377
0.010701707 -0.0025150001 -0.0041670687
0.011038768 0.0025150001 -0.0057048276
0.01778 -8.672414e-05 -0.001945862
-0.00042132701 0.0011274138 -0.0065591377
-0.0022751659 0.0023415517 -6.6379245e-05
-0.0091849295 0.0025150001 -0.0034836207
0.0024436968 -0.0025150001 -0.0063882759
0.005814313 0.0025150001 -0.0051922412
0.0078366827 -0.0025150001 -0.00057896547
-0.01778 -0.0011274138 -0.0053631035
0.0059828437 0.0021681036 -0.00023724131
-0.01761147 -0.0019946552 -0.0045087929
-0.00058985781 8.672414e-05 -0.0065591377
-0.0059828437 0.0014743104 -0.0065591377
-0.0026122276 0.0025150001 -0.0045087929
-0.0091849295 -0.0014743104 -0.00023724131
0.015252038 -0.0011274138 -0.00057896547
-0.0042975359 0.0025150001 -0.0050213793
0.01778 -0.000607069 -0.0034836207
0.0066569671 -0.0025150001 -0.0060465517
0.01778 -0.00026017241 -0.0033127586
0.0021066351 -0.0025150001 -0.0014332758
0.00058985781 -0.0016477586 -0.00057896547
8.4265404e-05 0.0021681036 -0.00023724131
-0.0024436968 -0.0011274138 -0.00057896547
0.0078366827 0.00043362071 -0.0065591377
0.016431754 0.0021681036 -0.00023724131
8.4265404e-05 -0.0025150001 -0.0038253448
-0.008005213 -0.0025150001 -0.00074982754
0.0037919432 0.0025150001 -0.0016041378
-0.0096905213 -0.0025150001 -0.004850517
-0.0021066351 -0.0025150001 -0.0043379311
0.0090163983 0.0013008622 0.0023256897
-0.0021066351 0.00095396553 -0.0065591377
0.014409384 0.0011274138 -0.00057896547
0.011207298 0.0013008622 0.0016422415
0.00042132701 -0.0025150001 -0.0038253448
-0.0036234125 -0.0011274138 -6.6379245e-05
-0.013735261 0.0011274138 -0.00057896547
0.0066569671 -0.0025150001 -0.0016041378
0.009521991 0.0025150001 -0.0031418966
-0.0098590525 0.0025150001 -0.0057048276
0.014746446 -0.0014743104 -0.00023724131
-0.010533175 0.0025150001 -0.0004081034
-0.012892607 0.0019946552 -0.0063882759
0.017105877 -0.0023415517 -0.0036544828
-0.0054772515 0.0025150001 -0.0065591377
0.0034548815 0.0025150001 -0.0055339653
-0.0086793369 -0.0025150001 -0.0043379311
0.01778 0.00043362071 -0.0024584483
0.01761147 8.672414e-05 -0.00057896547
0.016600285 -0.0021681036 -0.0065591377
0.0012639811 -0.0011274138 0.0014713794
-0.0064884364 0.00095396553 -0.00057896547
0.0017695735 -0.0025150001 -0.0016041378
0.014577915 0.0025150001 -0.0055339653
0.0022751659 0.0025150001 -0.0024584483
0.016094692 0.0025150001 -0.00092068961
0.0024436968 -0.00026017241 -0.00057896547
-0.00058985781 0.0025150001 -0.0028001724
-0.0088478671 0.0011274138 0.0026674138
0.011544361 -0.00043362071 -0.00057896547
0.01778 0.000607069 -0.0034836207
-0.007668152 8.672414e-05 -0.0065591377
0.015926162 -0.0025150001 -0.00023724131
-0.013229668 -0.0025150001 -0.0045087929
-0.0051401895 -0.0025150001 -0.001945862
0.016431754 -0.0013008622 0.0028382759
0.015757632 8.672414e-05 -0.00057896547
0.0042975359 0.0025150001 -0.001945862
-0.0071625593 0.0025150001 -0.0058756894
-0.007668152 -0.0011274138 -6.6379245e-05
0.0048031281 0.0025150001 -0.0021167242
0.014914976 -0.0025150001 -0.0062174136
-0.01761147 -0.00095396553 -0.0065591377
0.0036234125 -0.0025150001 -0.0041670687
0.01761147 0.0019946552 -0.0039962069
-0.0091849295 0.00026017241 -0.00057896547
-0.0091849295 0.0025150001 -0.0050213793
-0.01778 -0.0013008622 -0.0017749999
0.012049953 -0.0025150001 -0.0060465517
-0.0059828437 0.0025150001 -0.0036544828
0.010533175 0.000607069 -0.00057896547
-0.014914976 -0.0013008622 -0.0004081034
-0.012218484 -0.0025150001 -0.0058756894
0.0090163983 -0.0011274138 0.0024965517
0.010533175 -0.0025150001 -0.00023724131
0.00058985781 -0.0025150001 -0.0046796552
-0.01778 -8.672414e-05 -0.0010915516
-0.014072322 -0.0011274138 -0.0065591377
-0.0046345973 8.672414e-05 -0.0065591377
-8.4265404e-05 -0.00043362071 -0.0065591377
0.016094692 0.0025150001 -0.0041670687
0.010870237 0.0025150001 -0.0053631035
-0.01778 0.0016477586 -0.0041670687
0.0044660666 -0.0011274138 -6.6379245e-05
0.0017695735 -0.0023415517 -6.6379245e-05
0.005814313 0.0025150001 -0.0053631035
0.011038768 -0.0025150001 -0.0029710345
-0.0053087203 8.672414e-05 -0.0065591377
-0.012555545 0.0025150001 -0.0053631035
0.014409384 -0.0025150001 -6.6379245e-05
0.01778 0.00078051729 -0.0024584483
-0.015926162 -0.0025150001 -0.0004081034
-0.00311782 -0.00078051729 -0.00057896547
-0.016768815 0.0025150001 -0.0053631035
-0.0066569671 0.0016477586 -0.0065591377
-0.00092691946 -0.0025150001 -0.00057896547
-0.0059828437 -0.0019946552 -0.00057896547
0.0053087203 0.0025150001 -0.0043379311
-0.013229668 -0.0025150001 -0.00057896547
0.0016010427 0.0025150001 -0.0014332758
-0.013061138 0.0011274138 -0.00057896547
-0.0061513744 0.0025150001 -6.6379245e-05
-0.010870237 -0.0025150001 -0.0022875862
0.010870237 -0.0025150001 -0.0017749999
0.011544361 -0.0025150001 -0.0045087929
-0.0078366827 0.0025150001 -0.0029710345
-0.014409384 -0.0025150001 -0.0063882759
-0.016937347 0.0023415517 -0.0063882759
0.0061513744 0.0013008622 0.00027534491
-0.016263222 0.0025150001 -0.00057896547
-0.0066569671 -0.00078051729 -0.0065591377
-0.015252038 -0.0025150001 -0.0034836207
0.0049716588 -0.000607069 -0.0065591377
0.013903792 -0.0016477586 -0.0063882759
-0.01778 0.001821207 -0.0060465517
-0.008005213 -0.0023415517 -6.6379245e-05
0.0039604739 0.0021681036 -0.0065591377
0.01778 0.00078051729 -0.0045087929
-0.0063199052 0.0023415517 -0.0063882759
0.017442938 0.0019946552 -0.0065591377
0.0019381043 -0.0025150001 -0.0029710345
0.0068254978 0.0025150001 -0.0045087929
0.013229668 -0.00078051729 -0.00057896547
-0.0056457822 0.0025150001 -0.0065591377
-0.015926162 0.0025150001 -0.0012624137
0.0071625593 0.0019946552 -0.00057896547
0.00042132701 -0.0025150001 -0.0062174136
-0.013229668 -0.0025150001 -0.0028001724
0.011544361 0.0025150001 -0.0036544828
0.0093534598 -0.0025150001 -0.0014332758
-0.01778 -0.00095396553 -0.0065591377
-0.0036234125 -0.0025150001 -0.00092068961
0.013229668 0.0016477586 -0.0065591377
0.012049953 -8.672414e-05 -0.0065591377
0.0044660666 -0.0025150001 -0.0058756894
-0.014577915 0.0025150001 -0.0026293104
0.0059828437 -0.0013008622 -0.0004081034
0.013061138 -0.0025150001 -0.0031418966
0.008005213 -0.0025150001 -6.6379245e-05
0.0083422754 0.0025150001 -0.0010915516
0.0026122276 0.0025150001 -0.0022875862
0.0012639811 -0.0011274138 -6.6379245e-05
0.0051401895 -0.0025150001 -0.0046796552
0.011544361 0.0025150001 -0.0063882759
-0.012724076 0.0023415517 -0.0063882759
0.014072322 0.0013008622 0.0011296553
0.011712891 0.0011274138 -0.00023724131
-0.012387015 -0.0014743104 -0.0065591377
0.0053087203 -0.0014743104 -0.00023724131
0.013229668 -0.001821207 -0.0063882759
0.0090163983 0.0013008622 0.00095879316
0.0034548815 -0.0025150001 -0.0017749999
-0.013398199 0.0023415517 -6.6379245e-05
0.0085108057 0.0025150001 -0.0021167242
-0.012724076 -0.0025150001 -0.0014332758
0.010870237 -0.0025150001 -0.0021167242
-0.014240853 -0.0025150001 -0.0012624137
-0.007668152 -0.0011274138 -0.00057896547
0.0071625593 -0.0025150001 -0.0041670687
-0.0036234125 -0.0014743104 -6.6379245e-05
-0.0036234125 -0.0025150001 -0.0039962069
0.015252038 0.0025150001 -0.0033127586
-0.010027583 -0.0025150001 -0.0024584483
-0.005814313 -0.0025150001 -0.00074982754
-0.010701707 0.0019946552 -0.0063882759
0.00311782 -0.00026017241 -0.00057896547
0.0090163983 0.0011274138 0.00044620698
-0.014072322 -0.0025150001 -0.0046796552
0.011544361 0.0011274138 0.00078793109
0.016094692 -0.000607069 -0.00057896547
-0.0098590525 0.00026017241 -0.0065591377
-0.017442938 -0.0025150001 -0.0034836207
-0.0024436968 -0.00043362071 -0.0065591377
-0.01778 0.00043362071 -0.0057048276
-0.015420569 -0.0025150001 -0.0053631035
-0.010701707 -0.0011274138 -0.00057896547
0.0061513744 0.0013008622 -6.6379245e-05
0.0056457822 0.00043362071 -0.00057896547
-0.0081737442 0.0016477586 -0.0065591377
0.016263222 0.0025150001 -0.0021167242
0.016263222 0.000607069 -0.0065591377
-0.00075838866 0.0025150001 -0.0022875862
0.00025279622 0.00026017241 -0.00057896547
-8.4265404e-05 0.0016477586 -0.00057896547
0.015420569 -0.0025150001 -0.0014332758
0.0093534598 -0.0025150001 -0.0058756894
-0.0017695735 -0.0013008622 -0.0004081034
-0.0036234125 0.0013008622 -0.0004081034
0.0056457822 0.0025150001 -0.0062174136
0.014072322 -0.00095396553 -0.00057896547
0.011881422 0.0013008622 -0.0065591377
-0.014409384 -0.0025150001 -0.0057048276
-0.0046345973 0.0013008622 -0.00023724131
0.0063199052 0.0025150001 -0.0055339653
0.013229668 0.0023415517 -0.0065591377
-0.0054772515 -0.0021681036 -0.0004081034
-0.0068254978 -0.00095396553 -0.00057896547
0.017442938 0.0025150001 -0.0004081034
-0.0098590525 0.0025150001 -0.0014332758
-0.01778 0.0016477586 -0.0036544828
0.0064884364 -0.0014743104 -0.00023724131
-0.014240853 -0.0025150001 -0.0014332758
0.015083508 -0.0025150001 -6.6379245e-05
0.0051401895 0.0019946552 -0.0065591377
0.0085108057 0.0025150001 -0.0028001724
-0.012049953 -8.672414e-05 -0.00057896547
-0.012049953 0.0025150001 -0.00074982754
-0.016768815 -0.0025150001 -0.0045087929
0.00042132701 0.0025150001 -0.0041670687
-0.0027807583 -0.0025150001 -0.0063882759
0.0024436968 -0.0025150001 -0.0053631035
0.014746446 0.0025150001 -0.0038253448
-0.017274408 0.0011274138 -0.0063882759
-0.015083508 -0.001821207 -0.00057896547
-0.01778 -0.00026017241 -0.00074982754
-0.016600285 0.0025150001 -0.0029710345
-0.011881422 0.0025150001 -0.0055339653
0.013903792 0.0013008622 0.00095879316
0.016431754 0.0025150001 -0.0022875862
0.0027807583 -0.00078051729 -0.0065591377
0.00733109 -0.0025150001 -0.0028001724
0.0091849295 0.0025150001 -0.0057048276
-0.0051401895 -0.0014743104 -6.6379245e-05
0.0010954503 -0.0025150001 -0.00057896547
0.01778 -0.00078051729 -0.0053631035
0.015252038 0.0025150001 -0.0062174136
0.014409384 -0.0025150001 -0.0051922412
-0.016937347 -0.0025150001 -0.0016041378
0.0088478671 -0.0025150001 -0.0038253448
0.0096905213 -0.0025150001 -0.0029710345
-0.0041290047 -0.001821207 -0.00057896547
0.0059828437 -0.0013008622 -6.6379245e-05
0.0071625593 -0.0025150001 -0.0028001724
-0.011207298 0.0025150001 -0.0046796552
0.010870237 0.0013008622 -0.00023724131
0.012387015 -0.0025150001 -0.0063882759
-0.0074996212 0.0025150001 -0.0014332758
-0.0014325118 -0.0025150001 -0.0026293104
0.012049953 -0.0016477586 -0.0004081034
0.016263222 -0.0025150001 -0.0024584483
-0.01778 0.00043362071 -0.0055339653
0.016768815 0.0025150001 -0.00057896547
-0.0010954503 -0.0014743104 -0.00023724131
0.01137583 0.00043362071 -0.00057896547
-0.010870237 -0.0025150001 -0.0021167242
-0.012892607 -0.0025150001 -0.00057896547
0.012387015 -0.0014743104 -0.0065591377
-0.012218484 -0.0016477586 -0.0004081034
0.0069940286 -0.0013008622 -0.0004081034
-0.0053087203 0.0025150001 -0.0021167242
0.01778 0.0019946552 -0.0016041378
0.0049716588 -0.0021681036 -0.0004081034
0.011712891 -0.0025150001 -0.0022875862
-0.014409384 -0.0021681036 -0.00023724131
0.0027807583 -0.0025150001 -0.0034836207
-0.0027807583 -0.0025150001 -0.0031418966
0.0053087203 0.0013008622 -0.0065591377
0.011712891 -0.0025150001 -0.004850517
0.017442938 -0.0019946552 -0.0063882759
0.0029492893 0.0011274138 -0.0065591377
-0.0053087203 -0.0025150001 -0.0038253448
-0.0098590525 -0.0025150001 -0.0004081034
0.0010954503 0.0013008622 0.0016422415
0.015252038 0.0025150001 -0.00057896547
-8.4265404e-05 0.0025150001 -0.0041670687
0.0037919432 -0.0011274138 0.00095879316
0.010196114 -0.0025150001 -6.6379245e-05
0.014072322 0.0013008622 -0.0065591377
-0.00042132701 0.0021681036 -0.0004081034
-0.0027807583 -0.0025150001 -0.0021167242
0.01761147 0.0023415517 -0.0058756894
-0.013398199 -0.0023415517 -6.6379245e-05
-0.0098590525 -0.0021681036 -0.0004081034
-0.008005213 -8.672414e-05 -0.0065591377
0.0049716588 0.0025150001 -0.0010915516
-0.012387015 0.00043362071 -0.00057896547
-0.0022751659 0.0023415517 -0.0065591377
0.016263222 0.0013008622 0.00027534491
-0.00733109 0.0016477586 -0.0065591377
0.0044660666 0.00026017241 -0.00057896547
0.015757632 -0.0025150001 -0.0055339653
-0.0071625593 -0.0019946552 -0.00057896547
0.007668152 -0.0025150001 -0.0028001724
-0.015926162 0.0025150001 -0.0043379311
-0.0029492893 -0.00026017241 -0.00057896547
0.011038768 0.0014743104 -0.0065591377
0.0046345973 0.000607069 -0.00057896547
0.00042132701 0.0025150001 -0.0060465517
0.0064884364 -0.0013008622 -0.0065591377
-0.016768815 -0.0013008622 0.00027534491
0.01761147 -0.0021681036 -0.00092068961
0.016600285 -0.0023415517 -0.0004081034
0.0054772515 -0.000607069 -0.00057896547
0.0046345973 0.0025150001 -0.0045087929
-0.0034548815 -0.0025150001 -0.0034836207
0.011881422 -0.00078051729 -0.0065591377
0.0019381043 -0.0013008622 -6.6379245e-05
-0.017105877 0.0011274138 -0.0063882759
0.0093534598 -8.672414e-05 -0.00057896547
0.0066569671 -0.0014743104 -6.6379245e-05
0.0039604739 0.001821207 -0.00057896547
-0.0061513744 -0.0011274138 -6.6379245e-05
0.01137583 -0.00026017241 -0.0065591377
0.014914976 0.0021681036 -0.0065591377
0.0083422754 -0.0021681036 -0.00023724131
0.015083508 -0.0025150001 -0.0026293104
0.0064884364 0.0011274138 0.0011296553
0.0022751659 -0.000607069 -0.00057896547
-0.0014325118 -0.0021681036 -0.0065591377
-0.0014325118 0.0011274138 0.0023256897
0.014914976 0.001821207 -0.0065591377
-0.01761147 -0.0019946552 -0.0014332758
-0.011544361 -0.0016477586 -0.0004081034
-0.0063199052 -0.0025150001 -0.0012624137
-0.012218484 -0.0025150001 -0.0014332758
-0.0014325118 0.0025150001 -0.0060465517
-0.01778 0.000607069 -0.0021167242
0.015757632 0.0023415517 -0.00023724131
0.012555545 -8.672414e-05 -0.00057896547
0.0036234125 0.0025150001 -0.0021167242
-0.0010954503 0.0011274138 0.0014713794
-0.0042975359 -0.0025150001 -0.0058756894
0.00042132701 -0.0021681036 -0.00023724131
-0.0049716588 -0.0025150001 -0.0043379311
-0.010027583 -0.0025150001 -0.00074982754
0.00042132701 0.0023415517 -6.6379245e-05
-0.0085108057 -0.0011274138 -0.0065591377
0.0090163983 0.0025150001 -0.0029710345
0.016094692 0.0025150001 -0.0036544828
0.0074996212 -0.00026017241 -0.00057896547
-0.00042132701 0.0019946552 -0.00057896547
0.0053087203 0.0025150001 -0.0010915516
0.0071625593 -0.0025150001 -0.00092068961
0.013061138 -0.0025150001 -0.0017749999
-0.0037919432 -0.0011274138 0.00027534491
0.014746446 -0.0025150001 -0.0045087929
0.0091849295 0.0013008622 -6.6379245e-05
-0.016431754 -0.0011274138 0.0021548276
-0.0012639811 -0.0025150001 -0.001945862
0.0042975359 0.0025150001 -0.0028001724
0.01778 0.0014743104 -0.0022875862
-0.012218484 -0.00095396553 -0.00057896547
-0.0010954503 0.0014743104 -6.6379245e-05
-0.0081737442 -0.0014743104 -0.00023724131
0.012049953 0.0016477586 -0.0065591377
0.016431754 0.0025150001 -0.0046796552
0.012218484 0.0025150001 -0.0004081034
-0.016768815 -0.00026017241 -0.0065591377
-0.017442938 -0.0025150001 -0.0060465517
0.0093534598 -0.0025150001 -0.00023724131
-0.015083508 0.0025150001 -0.0026293104
0.0029492893 -0.0011274138 -6.6379245e-05
0.016600285 0.0025150001 -0.00057896547
-0.014746446 -0.0013008622 -0.0065591377
0.0044660666 0.0021681036 -0.0004081034
-0.0085108057 -0.0025150001 -0.0022875862
-0.0034548815 -0.0023415517 -6.6379245e-05
-0.016263222 0.0025150001 -0.0041670687
-0.008005213 -0.0011274138 -0.0065591377
0.015757632 0.0025150001 -0.0021167242
-0.0064884364 8.672414e-05 -0.00057896547
0.0012639811 -0.0025150001 -0.0029710345
-0.0022751659 0.0025150001 -0.0022875862
0.013735261 0.0011274138 0.0014713794
0.0054772515 -0.0025150001 -0.0050213793
0.0066569671 -0.0025150001 -0.00074982754
-0.0071625593 0.0025150001 -0.0053631035
0.0069940286 -0.0019946552 -0.0065591377
0.0032863508 -0.0021681036 -0.00023724131
-0.0012639811 0.0019946552 -0.00057896547
0.0066569671 0.0025150001 -6.6379245e-05
-0.013398199 -0.0025150001 -0.0004081034
-0.00058985781 0.00078051729 -0.0065591377
-0.0053087203 -0.0025150001 -0.0029710345
-0.0064884364 0.0016477586 -0.0004081034
0.01778 -0.0016477586 -0.0036544828
-0.0086793369 -0.0025150001 -0.0029710345
-0.00092691946 0.00078051729 -0.0065591377
-0.0155891 -0.0025150001 -0.00092068961
-0.011207298 0.0025150001 -0.0021167242
-0.011207298 -0.001821207 -0.0065591377
-0.01778 -0.00026017241 -0.0031418966
0.014409384 -0.0025150001 -0.0012624137
0.014746446 0.0025150001 -0.0060465517
0.0041290047 0.001821207 -0.00057896547
0.01778 0.0013008622 -0.0050213793
0.015083508 -0.0023415517 -0.0065591377
-0.01778 0.00078051729 -0.0051922412
0.0081737442 -0.0025150001 -0.0012624137
0.00311782 0.0025150001 -0.0063882759
0.0014325118 0.0025150001 -0.0012624137
-0.0014325118 -0.0011274138 0.00061706902
-0.0091849295 -0.0025150001 -0.00023724131
0.012724076 -0.0025150001 -0.0039962069
0.014577915 -0.00095396553 -0.00057896547
0.0083422754 -0.0016477586 -0.0065591377
0.0042975359 0.0025150001 -0.00023724131
-0.0068254978 0.0025150001 -0.0033127586
0.013735261 -0.000607069 -0.00057896547
0.009521991 0.0025150001 -0.0016041378
0.0037919432 0.0025150001 -0.0026293104
-0.0093534598 -0.0025150001 -0.0046796552
0.00733109 0.0025150001 -0.0060465517
-0.0032863508 -0.0021681036 -0.0004081034
0.011038768 0.0013008622 -0.0004081034
0.013061138 0.0025150001 -0.0053631035
-0.0098590525 -0.0025150001 -0.0062174136
-0.0081737442 0.00078051729 -0.00057896547
-0.012555545 0.0025150001 -0.0031418966
-0.0093534598 0.0025150001 -0.0017749999
-0.0048031281 0.0025150001 -0.0026293104
-0.0071625593 -0.0025150001 -0.0036544828
0.013566731 -0.0025150001 -0.00057896547
8.4265404e-05 0.0025150001 -0.0036544828
0.0022751659 -0.0011274138 -6.6379245e-05
0.012049953 -0.0013008622 -6.6379245e-05
-0.015757632 -0.0025150001 -0.00074982754
0.0039604739 0.0011274138 0.0021548276
0.0155891 -0.0025150001 -0.0026293104
-0.012892607 0.00026017241 -0.00057896547
-0.0098590525 0.0025150001 -0.0031418966
0.0039604739 0.00043362071 -0.0065591377
-0.00733109 -0.0025150001 -0.0034836207
-0.0034548815 -0.00026017241 -0.00057896547
0.010364645 0.00043362071 -0.0065591377
