# .PCD v0.7 - Point Cloud Data file format
VERSION 0.7
FIELDS x y z
SIZE 4 4 4
TYPE F F F
COUNT 1 1 1
WIDTH 1248
HEIGHT 1
VIEWPOINT 0 0 0 1 0 0 0
POINTS 1248
DATA ascii
-0.00049560977 0.00254 -0.0014374265
0.00089209754 0.00254 -0.00043794126
0.0014868292 -0.00254 -0.0024369119
0.0060464391 0.0001016 -0.0054353676
0.0036675122 -0.00030479999 -0.0092334114
-0.01932878 0.00254 -0.0010376325
-0.0040639997 0.00254 -3.8147133e-05
-0.0060464391 0.00254 -3.8147133e-05
-0.0040639997 0.0013208 -0.0024369119
0.011597268 0.0013208 -0.00023804419
0.010011317 0.00254 -0.0024369119
-0.018932292 0.0001016 -0.0064348532
0.0064429268 0.00030479999 0.00036164699
0.018932292 -0.00030479999 0.0023606175
0.011597268 0.0001016 -0.0038361913
-0.0098130731 -0.00254 -0.0014374265
-0.01932878 -0.00254 -0.0016373236
-0.0066411705 0.0001016 0.0025605147
0.018932292 0.0001016 -0.0086337207
-0.0064429268 -0.0007112 -0.0024369119
-0.0062446827 -0.0023368001 -0.0024369119
0.013777951 0.00254 -0.0010376325
-0.0014868292 0.0001016 -0.0042359852
-0.018932292 0.0017272 -0.0022370147
-0.015958633 -0.0017272 -0.00023804419
-0.014174439 -0.00050800003 -0.0024369119
-0.0062446827 -0.00030479999 -0.0040360885
-0.02032 -0.0007112 -0.00063783833
0.02032 0.0013208 -0.0014374265
-0.0086236093 -0.00254 -0.00083773537
-0.010804293 0.0011176 -0.0024369119
-0.014570926 0.00030479999 -0.0024369119
0.012588488 0.0021335999 -0.0024369119
0.0040639997 0.00030479999 -0.0086337207
-0.0040639997 0.0001016 -0.006234956
0.01932878 -0.0001016 -0.006234956
0.017742829 0.0007112 -0.00023804419
0.019923512 0.00091439998 -0.0024369119
-0.0084253652 0.00254 -0.0018372206
0.01932878 0.0023368001 -0.00063783833
-0.0040639997 -0.0001016 0.0025605147
0.015562146 0.00030479999 -3.8147133e-05
0.02032 0.0011176 -0.0012375294
0.017941073 0.0001016 -3.8147133e-05
-0.008227122 -0.0019304 -0.0024369119
0.0056499513 -0.0023368001 -3.8147133e-05
-0.014967415 0.00254 -0.00063783833
0.019923512 0.0001016 -0.0022370147
-0.0026762926 -0.001524 -0.00023804419
-0.0066411705 -0.00254 -0.0018372206
0.0070376582 -0.00254 -0.0012375294
-0.01576039 -0.00030479999 -0.0024369119
0.019130535 0.0001016 -0.0068346472
0.0060464391 -0.0021335999 -0.0024369119
0.0032710242 0.0017272 -0.00023804419
0.01476917 -0.0023368001 -0.0022370147
-0.014174439 -0.0001016 0.0019608235
0.0014868292 -0.00030479999 -0.0028367059
-0.0010903415 0.00030479999 -0.0074343383
0.012984975 0.00254 -0.0022370147
-0.016355122 -0.00030479999 0.0021607205
0.0038657561 -0.00030479999 -0.0046357797
0.0014868292 0.00030479999 -0.0078341328
-0.016355122 0.00254 -0.0020371177
-0.018139316 0.00254 -0.00023804419
0.011002536 -0.0013208 -0.00023804419
0.0050552194 0.00254 -0.00043794126
-0.0024780487 -0.0017272 -0.00023804419
0.0060464391 0.00030479999 -0.0024369119
0.01576039 -0.0017272 -0.0022370147
0.0036675122 -0.00030479999 -0.0052354708
-0.012588488 0.00254 -0.0022370147
0.018932292 0.00030479999 -0.005835162
0.0040639997 -0.0013208 -0.0024369119
-0.02032 -0.0017272 -0.0012375294
0.014372682 -0.00254 -0.0012375294
-0.0060464391 -0.00254 -0.0010376325
-0.0090200976 0.00030479999 -0.0078341328
0.010011317 0.00254 -0.00083773537
-0.011597268 0.0001016 -0.0082339263
0.02032 0.0001016 -0.00083773537
-0.01675161 -0.0001016 0.00096133817
-0.0036675122 -0.0011176 -0.00023804419
0.01675161 -0.0001016 -0.0072344411
0.017742829 0.00254 -0.0020371177
0.0094165849 -0.00091439998 -0.00023804419
0.017941073 -0.0013208 -0.00023804419
0.016355122 -0.0001016 -0.0028367059
0.007434146 -0.0013208 -0.00023804419
0.0066411705 0.0001016 -0.0036362943
0.012192 -0.0001016 -0.0024369119
0.0030727803 -0.001524 -0.0024369119
-0.0064429268 -0.0017272 -0.00023804419
0.0090200976 -0.00030479999 -0.0074343383
0.0040639997 0.00254 -0.0010376325
0.0012885854 0.00030479999 -0.0070345444
0.01675161 0.0001016 0.0029603087
9.9121949e-05 -0.0007112 -0.00023804419
0.0088218534 0.0023368001 -0.0024369119
-0.0028745364 0.0017272 -0.0024369119
0.013579707 0.0013208 -0.00023804419
-0.0034692681 0.0001016 -0.0082339263
-0.015363902 0.00050800003 -0.00023804419
0.016355122 0.0001016 -0.0086337207
0.0062446827 -0.00254 -0.00043794126
-0.015562146 0.0011176 -0.0022370147
0.014174439 0.00091439998 -0.00023804419
0.016553365 0.00254 -0.0014374265
-0.0022798048 -0.00050800003 -0.0024369119
-0.01675161 0.00254 -0.00023804419
-0.019527024 0.0011176 -0.00023804419
-0.0014868292 -0.00254 -0.0018372206
0.0050552194 0.0019304 -0.0024369119
-0.00069385365 0.0019304 -0.0024369119
0.0064429268 -0.0011176 -0.0024369119
0.018535804 -0.00254 -0.0016373236
-0.018932292 -0.00254 -0.0016373236
0.018337561 -0.0023368001 -0.0022370147
-0.0010903415 0.00030479999 -3.8147133e-05
-0.019130535 0.00254 -0.0020371177
-0.011597268 0.00030479999 -0.0088336179
0.011597268 -0.00254 -3.8147133e-05
-0.013777951 -0.00050800003 -0.0024369119
-0.013381463 0.0011176 -0.00023804419
-0.011399024 0.00254 -0.0014374265
0.0062446827 -0.00030479999 -0.0090335151
0.011399024 -0.00030479999 -0.0072344411
-0.00089209754 -0.00254 -0.00083773537
0.018932292 0.00030479999 -0.0064348532
-0.019923512 -0.0013208 -0.0024369119
0.015363902 0.0017272 -0.0024369119
-0.013976195 0.00030479999 0.0023606175
0.0032710242 0.0013208 -0.0024369119
-0.0012885854 -0.00030479999 -0.0060350588
0.012786731 -0.00254 -0.0018372206
-0.02032 -0.00091439998 -0.0016373236
0.0088218534 0.00254 -0.00063783833
-0.001883317 -0.00050800003 -0.00023804419
0.0016850731 -0.0017272 -0.0024369119
-0.0032710242 0.00254 -0.0012375294
-0.012192 0.00254 -0.0018372206
0.012192 -0.00254 -3.8147133e-05
0.0034692681 0.00254 -0.0018372206
0.018337561 -0.0021335999 -0.00023804419
0.0012885854 -0.00030479999 -0.0026368089
-0.0040639997 0.0019304 -0.0024369119
0.0064429268 -0.0001016 -0.0096332058
0.0056499513 -0.0011176 -0.0024369119
-0.011399024 0.00030479999 -0.0034363971
0.011399024 -0.00030479999 -0.008034029
-0.0038657561 -0.0023368001 -0.0024369119
0.00069385365 -0.0001016 -0.0024369119
0.01675161 0.0001016 -0.0064348532
0.0080288779 -0.0013208 -0.0024369119
-0.0014868292 0.0001016 0.00016174992
0.014174439 0.00030479999 0.0027604117
0.0014868292 -0.00030479999 0.0021607205
-0.0084253652 0.0001016 -3.8147133e-05
-0.013777951 -0.0001016 0.0023606175
0.02032 0.0019304 -0.00023804419
-0.017148098 -0.0011176 -0.0024369119
-0.0088218534 -0.00050800003 -0.0024369119
0.0070376582 -0.00254 -0.0018372206
0.01675161 0.0001016 0.0013611323
0.0064429268 0.00030479999 0.0031602057
-0.0052534635 -0.0013208 -0.0024369119
-0.014174439 -0.00030479999 0.0025605147
0.0040639997 0.00030479999 -0.0072344411
0.009614829 -0.00050800003 -0.0024369119
-0.0070376582 0.0017272 -0.00023804419
0.0090200976 0.00030479999 -0.0034363971
-0.013976195 0.00254 -0.0010376325
0.018932292 0.00254 -0.0014374265
0.0042622439 -0.001524 -0.00023804419
-0.011399024 0.00030479999 -0.0064348532
-0.0098130731 0.0001016 -0.0024369119
0.01675161 0.0001016 0.0019608235
-0.011597268 -0.0001016 0.0017609263
0.018734049 0.00254 -0.00043794126
0.012192 -0.0019304 -0.0024369119
0.01120078 0.00091439998 -0.00023804419
-0.015165658 -0.0013208 -0.0024369119
0.011399024 -0.0019304 -0.0024369119
-0.011795511 -0.0011176 -0.00023804419
0.01120078 0.0001016 0.0027604117
0.00069385365 0.00254 -0.00083773537
0.019923512 0.0017272 -0.0024369119
-0.001883317 -0.00254 -0.00023804419
0.013976195 0.0019304 -0.00023804419
0.018932292 -0.00030479999 0.00056154403
-0.0088218534 0.001524 -0.00023804419
-0.019130535 0.00254 -0.0014374265
-0.0014868292 0.0019304 -0.00023804419
0.016355122 0.0001016 -0.0026368089
0.018337561 -0.0013208 -0.0022370147
-0.017148098 -0.00091439998 -0.0024369119
-0.010606049 0.0019304 -0.00023804419
-0.0066411705 -0.001524 -0.00023804419
-0.0038657561 -0.0021335999 -0.00023804419
-0.014570926 -0.00254 -0.0022370147
-0.0064429268 0.00030479999 -3.8147133e-05
-0.016355122 0.0001016 -0.008034029
-0.010011317 -0.001524 -0.0024369119
0.01476917 0.00030479999 -3.8147133e-05
0.0048569753 0.00050800003 -0.0024369119
0.0044604875 -0.0019304 -0.00023804419
-0.019130535 -0.00030479999 -0.0028367059
0.013976195 -0.00030479999 -0.0032365001
0.0014868292 -0.0001016 -0.0086337207
-0.0014868292 -0.00030479999 -0.0040360885
-0.018932292 -0.0007112 -0.0024369119
0.016355122 -0.00030479999 -3.8147133e-05
-0.02032 0.0011176 -0.00023804419
0.011597268 -0.0001016 -0.0070345444
0.0060464391 0.00254 -3.8147133e-05
0.0090200976 0.0001016 0.00016174992
-0.0078306338 0.001524 -0.00023804419
0.0020815609 0.0001016 -3.8147133e-05
0.0036675122 0.00030479999 0.0011612353
0.0066411705 -0.00254 -0.00043794126
0.0042622439 0.0007112 -0.00023804419
-0.011993756 -0.0011176 -0.00023804419
-0.013777951 0.00030479999 -3.8147133e-05
0.011795511 0.001524 -0.00023804419
0.013777951 0.00091439998 -0.00023804419
-0.0080288779 0.00254 -0.0024369119
-0.012588488 0.00091439998 -0.0024369119
0.011597268 0.00030479999 -0.0070345444
0.016949853 -0.00254 -0.0018372206
-0.018932292 -0.0017272 -0.00023804419
-0.017148098 0.00254 -0.00083773537
0.014967415 -0.0021335999 -0.00023804419
-0.014570926 0.0019304 -0.0024369119
-0.01932878 -0.0007112 -0.00023804419
-0.0062446827 0.0001016 0.00076144107
0.0020815609 0.0021335999 -3.8147133e-05
-0.0010903415 0.0001016 0.0031602057
0.0072359024 0.0017272 -0.00023804419
-0.013183219 -0.0001016 -3.8147133e-05
-0.0024780487 -0.00254 -3.8147133e-05
0.001883317 0.00254 -0.0022370147
-0.0054517072 -0.0023368001 -3.8147133e-05
-0.011597268 -0.0001016 -0.0094333086
0.018932292 -0.0001016 -0.0042359852
0.017742829 -0.0021335999 -0.00023804419
0.02032 -0.0013208 -0.0022370147
-0.010606049 0.0007112 -0.00023804419
0.014570926 0.00050800003 -0.0024369119
-0.0078306338 -0.0017272 -0.0024369119
0.01120078 -0.0023368001 -3.8147133e-05
-0.0062446827 0.0001016 0.00036164699
0.0060464391 -0.00091439998 -0.0024369119
0.0038657561 0.0011176 -0.0024369119
-0.014174439 0.00030479999 -0.0026368089
-0.02032 0.00030479999 -0.0010376325
0.012984975 0.00254 -0.00063783833
0.0048569753 -0.0013208 -0.0024369119
-0.001883317 0.0001016 -3.8147133e-05
-0.0090200976 0.00030479999 -0.0038361913
0.016949853 -0.0011176 -0.0024369119
0.01120078 -0.0021335999 -0.0024369119
-0.0090200976 -0.00030479999 -3.8147133e-05
-0.0046587316 -0.00254 -0.00083773537
-0.00029736586 -0.0017272 -0.00023804419
0.016553365 -0.00030479999 0.00016174992
0.0044604875 -0.0013208 -0.00023804419
-0.0090200976 0.00030479999 -0.006234956
0.0090200976 0.00030479999 -0.0042359852
-0.016355122 0.0001016 -0.0048356764
-0.011597268 -0.00030479999 -0.008034029
0.02032 0.001524 -0.00043794126
0.014174439 0.0001016 -0.0026368089
0.0072359024 -0.0007112 -0.0024369119
-0.0090200976 -0.00030479999 -0.0066347499
-0.001883317 -0.0013208 -0.00023804419
-0.0040639997 0.00030479999 -0.0032365001
-0.017941073 -0.0001016 -3.8147133e-05
-0.0010903415 0.00030479999 0.0017609263
0.00049560977 0.00254 -0.0018372206
0.011399024 0.00254 -0.0022370147
0.0090200976 -0.0021335999 -0.0022370147
-0.0086236093 -0.0001016 0.00076144107
0.0050552194 -0.00254 -0.0010376325
-0.0090200976 -0.0001016 0.0031602057
0.014174439 0.00091439998 -0.0024369119
0.0092183417 -0.0013208 -0.00023804419
0.011597268 0.0001016 0.0019608235
-0.0010903415 0.0013208 -0.00023804419
-0.0088218534 0.0021335999 -0.00023804419
-0.0014868292 0.00030479999 0.0015610293
0.0016850731 -0.0011176 -0.00023804419
0.017742829 -0.00254 -0.0022370147
-0.00049560977 0.00050800003 -0.0024369119
0.012192 -0.0021335999 -0.0024369119
-0.016355122 -0.00254 -0.0016373236
-0.020121755 0.0001016 -0.00023804419
-0.012390244 -0.0011176 -0.00023804419
-0.0040639997 0.00030479999 0.0023606175
-9.9121949e-05 0.00254 -0.0020371177
-0.011597268 0.0007112 -0.00023804419
-0.00069385365 0.00050800003 -0.0024369119
0.013183219 -0.001524 -0.00023804419
-0.0090200976 -0.00030479999 0.0021607205
-0.01476917 -0.0013208 -0.00023804419
0.0088218534 -0.0001016 -0.0056352648
-0.018535804 0.00254 -0.00043794126
0.0012885854 -0.00091439998 -0.0024369119
0.0062446827 -0.00030479999 -0.006234956
-0.010407805 -0.0017272 -0.0024369119
-0.018139316 0.00254 -0.00063783833
0.0088218534 -0.00030479999 0.0015610293
-0.0040639997 0.0001016 -0.0050355736
0.01576039 -0.00254 -0.0010376325
-0.012390244 -0.00254 -0.0010376325
-0.0034692681 -0.00254 -0.00023804419
0.012390244 0.00091439998 -0.00023804419
0.016553365 0.0011176 -0.00023804419
0.0014868292 -0.0013208 -0.0024369119
0.018932292 -0.00030479999 -0.0030366031
0.0040639997 -0.0001016 0.0017609263
-0.0086236093 0.00254 -0.0014374265
0.0014868292 -0.00030479999 -0.0032365001
-0.0022798048 -0.0023368001 -0.0024369119
-0.007434146 -0.0017272 -0.0024369119
0.0060464391 0.0019304 -0.0024369119
-0.018734049 -0.00254 -0.0010376325
0.012984975 -0.0021335999 -3.8147133e-05
0.015562146 0.0013208 -0.00023804419
-0.009614829 -0.0021335999 -0.00023804419
-0.0048569753 -0.0019304 -0.00023804419
-0.014174439 -0.00030479999 -0.0028367059
0.012390244 -0.00254 -0.0010376325
-0.0060464391 0.0001016 -3.8147133e-05
-9.9121949e-05 0.0023368001 -0.0024369119
-0.011597268 0.0001016 -0.0042359852
0.0040639997 0.0001016 -0.0084338235
-0.0086236093 -0.0021335999 -0.0024369119
0.017941073 -0.0007112 -0.0024369119
0.012588488 -0.0021335999 -0.0022370147
0.00049560977 -0.00254 -0.00023804419
-0.02032 0.001524 -0.0014374265
0.0026762926 0.00254 -0.0024369119
0.0064429268 -0.00030479999 -0.0078341328
-0.0060464391 -0.0019304 -0.0024369119
-0.0014868292 0.00030479999 -0.0050355736
0.018337561 0.001524 -0.00023804419
-0.0092183417 -0.001524 -0.0024369119
0.00069385365 0.0021335999 -3.8147133e-05
0.0084253652 0.00254 -0.0012375294
0.020121755 -0.0021335999 -0.0012375294
0.0086236093 0.00091439998 -0.0024369119
-0.0042622439 -0.00091439998 -0.00023804419
-0.0042622439 -0.00254 -0.0024369119
-0.0012885854 0.0013208 -0.0024369119
-0.0050552194 0.00254 -0.0014374265
-0.018337561 -0.00091439998 -0.0024369119
-0.0056499513 0.0019304 -0.00023804419
-0.012390244 0.00254 -0.0016373236
-0.011002536 -0.0017272 -0.00023804419
-0.013777951 -0.0001016 -0.0086337207
-0.0088218534 0.00030479999 0.0029603087
-0.01476917 -0.00254 -0.0014374265
-0.0010903415 0.00030479999 -0.0038361913
0.0010903415 0.00254 -0.0022370147
-0.014174439 -0.0001016 -0.0060350588
-0.011597268 -0.00030479999 -0.0084338235
0.019130535 0.00030479999 -0.0028367059
-0.016553365 -0.00030479999 0.0013611323
0.0062446827 0.00030479999 -0.0064348532
0.019130535 -0.0001016 -0.0036362943
0.019130535 -0.00091439998 -0.00023804419
-0.013777951 -0.00030479999 -0.0046357797
-0.0094165849 -0.0011176 -0.0024369119
-0.00089209754 -0.00254 -0.0012375294
-0.01120078 -0.00030479999 -0.0034363971
0.0010903415 -0.0017272 -0.00023804419
0.014570926 0.0001016 -0.0024369119
-0.017544584 -0.0011176 -0.0024369119
0.001883317 -0.00254 -0.0010376325
-0.020121755 -0.0023368001 -0.00063783833
0.0010903415 -0.00254 -0.0012375294
0.0094165849 -0.0017272 -0.0024369119
0.008227122 -0.0023368001 -3.8147133e-05
-0.0034692681 -0.00254 -0.0024369119
-0.0066411705 -0.00254 -0.0016373236
0.010804293 -0.00254 -0.0022370147
0.0066411705 0.0001016 -0.0046357797
0.013381463 -0.00254 -0.00023804419
0.007434146 -0.001524 -0.0024369119
0.010606049 -0.0011176 -0.0024369119
-0.01932878 0.0001016 -0.0034363971
0.00029736586 -0.0007112 -0.0024369119
0.011597268 -0.00254 -0.00043794126
-0.011597268 -0.00030479999 -0.0064348532
-0.0054517072 0.0001016 -3.8147133e-05
0.0064429268 0.001524 -0.00023804419
0.0040639997 -0.0001016 0.0015610293
0.011597268 -0.00030479999 -0.008034029
-0.0038657561 -0.00030479999 0.00036164699
-0.016355122 -0.00030479999 -0.005835162
-0.012984975 -0.00091439998 -0.00023804419
0.0076323901 0.00254 -0.0020371177
-0.016553365 -0.00030479999 -0.0090335151
0.0076323901 0.0007112 -0.0024369119
-0.018932292 0.00030479999 0.0019608235
0.013777951 0.00030479999 -0.0032365001
0.012984975 -0.00030479999 -3.8147133e-05
-0.0086236093 -0.0001016 -0.008034029
0.0012885854 -0.00030479999 -0.0046357797
-0.0014868292 -0.0001016 -0.0070345444
-0.01120078 0.0001016 0.0015610293
-0.018139316 -0.0013208 -0.00023804419
-0.01576039 -0.00091439998 -0.0024369119
0.0064429268 0.0001016 0.0031602057
0.0040639997 -0.001524 -0.0024369119
-0.0084253652 0.00254 -0.00083773537
-0.013777951 0.0001016 -0.0066347499
-0.0088218534 -0.00254 -0.0022370147
-0.0090200976 -0.0019304 -0.0024369119
0.0044604875 0.00254 -0.00043794126
0.011993756 0.00254 -0.00083773537
-0.011002536 0.00254 -0.0016373236
0.0088218534 0.00254 -0.0024369119
0.0050552194 0.00254 -0.00063783833
0.0014868292 0.0001016 0.0017609263
0.01120078 0.0001016 -0.0070345444
0.01476917 0.00254 -0.00063783833
-0.0032710242 -0.0011176 -0.00023804419
0.0062446827 0.00254 -0.0020371177
0.0014868292 0.00254 -0.0018372206
-0.0060464391 -0.0001016 -0.0088336179
-0.0080288779 0.00254 -0.0018372206
-0.013777951 -0.00030479999 -0.0086337207
0.01675161 0.001524 -0.00023804419
-0.0068394146 -0.0019304 -0.00023804419
9.9121949e-05 0.00254 -0.0018372206
-0.0088218534 -0.0021335999 -0.0024369119
-0.0048569753 0.0007112 -0.0024369119
-0.014372682 -0.00254 -3.8147133e-05
-0.014372682 -0.0023368001 -0.0022370147
-0.0032710242 0.001524 -0.0024369119
0.012786731 0.0007112 -0.00023804419
0.017346341 -0.00030479999 -0.0024369119
0.018932292 0.0001016 0.0011612353
0.013777951 0.00030479999 -0.005835162
-0.0060464391 -0.0001016 0.00076144107
-0.0062446827 -0.00050800003 -0.00023804419
0.018139316 0.00030479999 -0.0024369119
-0.0052534635 0.0017272 -0.0024369119
0.016355122 0.00030479999 0.00016174992
-0.0046587316 -0.0019304 -0.00023804419
-0.0012885854 -0.00254 -0.0016373236
0.0066411705 -0.0001016 -0.0086337207
0.02032 0.0011176 -0.0024369119
-0.0066411705 -0.00030479999 -0.0034363971
0.0034692681 -0.0011176 -0.00023804419
-0.013976195 0.0021335999 -3.8147133e-05
0.01932878 -0.0001016 -0.0026368089
-0.011597268 0.0019304 -0.0024369119
0.0036675122 0.0007112 -0.0024369119
-0.00049560977 0.0011176 -0.00023804419
-0.010407805 -0.00254 -0.0016373236
-0.0034692681 -0.0021335999 -0.0024369119
-0.019130535 0.00030479999 -0.0026368089
-0.0062446827 0.0001016 -0.0026368089
0.0012885854 -0.0021335999 -0.0024369119
-0.0048569753 -0.0013208 -0.0024369119
0.018932292 0.0001016 -0.0030366031
-0.013579707 -0.00254 -0.0022370147
0.0044604875 -0.00254 -0.0018372206
-0.01675161 -0.0001016 -0.0084338235
0.0042622439 -0.00091439998 -0.0024369119
-9.9121949e-05 0.00254 -3.8147133e-05
-0.016553365 0.00030479999 -0.0046357797
-0.0014868292 -0.00030479999 0.00076144107
0.02032 0.0007112 -0.00083773537
-0.0042622439 0.00030479999 -3.8147133e-05
0.0030727803 -0.00030479999 -0.0024369119
-0.01120078 0.0001016 -0.0026368089
-0.016355122 0.0001016 -0.0042359852
0.0078306338 0.00254 -0.00083773537
0.0012885854 -0.0019304 -0.0024369119
0.0092183417 -0.00254 -0.0016373236
0.0012885854 -0.00030479999 0.0023606175
-0.01576039 0.00254 -0.00083773537
0.011399024 0.00030479999 -0.0094333086
0.0090200976 -0.0001016 0.0027604117
-0.014174439 0.00254 -0.00023804419
0.0038657561 0.00030479999 -0.0086337207
0.016355122 0.0001016 0.0015610293
-0.014570926 0.0023368001 -0.0022370147
0.010804293 0.0001016 -0.0024369119
0.010606049 0.00254 -0.0020371177
0.0064429268 -0.00030479999 -0.0092334114
0.0066411705 0.0023368001 -3.8147133e-05
0.0062446827 0.00030479999 -0.0066347499
0.014372682 0.00091439998 -0.00023804419
0.0078306338 0.00091439998 -0.00023804419
-0.01675161 0.0001016 0.0029603087
-0.01120078 0.00050800003 -0.0024369119
-0.018139316 -0.0019304 -0.00023804419
0.014174439 0.00030479999 -0.0052354708
0.0052534635 -0.00254 -0.0016373236
0.01675161 0.0023368001 -0.0024369119
-0.0064429268 0.00254 -0.0020371177
-0.019527024 0.0017272 -0.00023804419
0.009614829 -0.0013208 -0.00023804419
0.01476917 0.00050800003 -0.00023804419
0.0058481949 -0.00091439998 -0.0024369119
-0.013976195 0.00254 -0.0014374265
-0.001883317 -0.00254 -0.0016373236
0.0088218534 -0.0023368001 -0.0024369119
0.0090200976 0.00030479999 -0.0082339263
0.0052534635 -0.0023368001 -3.8147133e-05
-0.0014868292 0.0001016 -0.0028367059
0.014570926 -0.00254 -0.0016373236
0.011002536 -0.00091439998 -0.00023804419
0.0036675122 -0.00030479999 0.00036164699
0.0084253652 -0.0001016 -3.8147133e-05
0.015958633 0.00254 -0.0014374265
-0.0090200976 -0.00030479999 -0.0082339263
0.013976195 0.00030479999 -0.0044358824
0.0064429268 -0.00254 -3.8147133e-05
-0.02032 0.00050800003 -0.0010376325
-0.018734049 -0.00050800003 -0.00023804419
-0.010804293 0.001524 -0.0024369119
0.02032 0.001524 -0.00063783833
-0.013976195 0.00030479999 -0.0084338235
0.01932878 0.0001016 -0.0078341328
0.018932292 -0.00030479999 -0.0054353676
0.014174439 0.0019304 -0.0024369119
-0.01476917 -0.00254 -0.00023804419
-0.018337561 -0.00030479999 -3.8147133e-05
-0.0090200976 0.00254 -0.00083773537
0.018932292 0.0017272 -0.0024369119
-0.0078306338 -0.0013208 -0.00023804419
-0.007434146 -0.0023368001 -3.8147133e-05
0.019725269 0.0023368001 -0.0020371177
-0.0064429268 -0.0021335999 -0.00023804419
0.0090200976 0.0001016 -0.0030366031
0.0010903415 -0.0001016 0.0011612353
0.001883317 -0.0017272 -0.0024369119
0.0058481949 -0.0007112 -0.0024369119
0.0064429268 -0.00254 -0.0014374265
0.0044604875 0.00030479999 -3.8147133e-05
-0.014174439 0.0001016 0.0025605147
0.001883317 0.00254 -0.0016373236
0.011002536 0.0023368001 -0.0024369119
-0.013579707 0.00030479999 -3.8147133e-05
-0.01932878 0.0001016 -0.0088336179
-0.0078306338 0.00091439998 -0.00023804419
0.00069385365 -0.0011176 -0.0024369119
-0.0066411705 -0.0001016 -0.0030366031
0.0014868292 0.00030479999 0.00056154403
-0.0060464391 0.00254 -0.0018372206
-0.01932878 -0.0001016 0.0021607205
0.0012885854 -0.00050800003 -0.00023804419
0.008227122 0.00254 -0.0016373236
0.0014868292 0.00030479999 0.00076144107
-0.011399024 -0.00254 -0.0010376325
-0.01120078 -0.00030479999 0.0011612353
0.012588488 0.0011176 -0.00023804419
0.018139316 0.0013208 -0.0024369119
0.018734049 0.00254 -0.0016373236
-0.01120078 0.0001016 -0.0048356764
0.014967415 0.00254 -0.00023804419
-0.0084253652 0.00091439998 -0.0024369119
0.01932878 -0.0001016 -0.0072344411
0.0064429268 0.00254 -0.0020371177
-0.015562146 0.0019304 -0.0022370147
0.00029736586 -0.00091439998 -0.0024369119
0.013579707 0.0021335999 -3.8147133e-05
-0.0086236093 0.00050800003 -0.0024369119
0.0064429268 -0.00030479999 0.0023606175
-0.018932292 0.0001016 0.0011612353
-0.012588488 0.0023368001 -0.0024369119
0.00069385365 0.0019304 -0.00023804419
0.01675161 0.0001016 0.0011612353
0.011399024 0.00030479999 -0.0072344411
0.018139316 0.0011176 -0.00023804419
-0.009614829 0.0011176 -0.0024369119
-0.015562146 0.00254 -0.00083773537
0.0034692681 0.00254 -0.00083773537
0.00089209754 -0.00254 -0.0014374265
0.0028745364 0.0017272 -0.00023804419
0.010606049 0.0013208 -0.00023804419
-0.0030727803 -0.001524 -0.0024369119
-0.018932292 0.00030479999 -0.0064348532
0.0072359024 0.0023368001 -3.8147133e-05
-0.0062446827 0.0001016 -0.0090335151
0.0036675122 -0.00254 -0.0024369119
0.017544584 0.0019304 -0.00023804419
0.0012885854 -0.00254 -0.00023804419
0.0080288779 0.0019304 -0.00023804419
0.0058481949 -0.00254 -0.0022370147
-0.0020815609 -0.0013208 -0.00023804419
0.0054517072 0.0013208 -0.0024369119
0.0038657561 -0.00030479999 -0.0088336179
-0.0048569753 -0.0021335999 -0.0024369119
-0.0012885854 -0.0007112 -0.00023804419
0.010804293 0.00050800003 -0.00023804419
-0.014570926 -0.00254 -0.0014374265
-0.013976195 0.00254 -0.0012375294
0.014967415 -0.0013208 -0.00023804419
0.01675161 0.0001016 -0.008034029
-0.01576039 -0.0017272 -0.00023804419
-0.0034692681 -0.0011176 -0.00023804419
0.0012885854 -0.00254 -0.00063783833
-0.010011317 -0.0011176 -0.00023804419
-0.0088218534 -0.0001016 0.0031602057
-0.0052534635 0.00050800003 -0.00023804419
-0.012786731 -0.0007112 -0.0024369119
0.019923512 -0.0023368001 -0.0012375294
0.018139316 -0.00254 -0.00023804419
0.018932292 0.0001016 -0.0050355736
0.01576039 0.0007112 -0.00023804419
0.013777951 -0.0001016 -0.0044358824
0.013183219 -0.00254 -0.00023804419
-0.013976195 0.00030479999 -0.0030366031
-0.020121755 0.00050800003 -0.0022370147
-0.0088218534 0.00254 -0.0020371177
-0.016355122 0.00030479999 0.00036164699
0.019130535 0.00030479999 -0.0066347499
-0.00089209754 0.0019304 -0.0024369119
0.00029736586 -0.00091439998 -0.00023804419
0.0014868292 -0.00254 -0.00023804419
0.0024780487 0.00254 -0.00083773537
0.0040639997 0.0001016 -0.0026368089
-0.0066411705 -0.00030479999 -0.0066347499
0.0088218534 0.00030479999 -0.0048356764
-0.012984975 -0.00254 -0.0010376325
0.02032 0.00091439998 -0.0022370147
-0.012192 0.00254 -0.0024369119
0.0016850731 -0.00254 -0.00043794126
-0.01476917 0.0013208 -0.00023804419
0.0072359024 -0.0017272 -0.00023804419
0.0044604875 0.0017272 -0.0024369119
0.018932292 -0.0001016 0.0021607205
-0.019923512 0.00050800003 -0.00023804419
-0.018535804 0.0001016 -0.0024369119
-0.008227122 0.0007112 -0.0024369119
0.0050552194 0.0021335999 -0.0024369119
0.011993756 -0.0023368001 -3.8147133e-05
-0.0064429268 0.00030479999 0.0011612353
0.012390244 -0.00254 -0.0016373236
-0.0040639997 -0.0023368001 -0.0024369119
-0.014967415 0.00050800003 -0.00023804419
-0.01120078 -0.0001016 0.0017609263
-0.014174439 -0.001524 -0.00023804419
0.0010903415 0.0001016 -0.005835162
-0.0014868292 0.0001016 0.0015610293
-0.0088218534 0.0013208 -0.00023804419
-0.010804293 -0.00254 -0.0020371177
0.00029736586 0.0001016 -3.8147133e-05
-0.01120078 -0.0001016 -0.006234956
0.016355122 0.0001016 0.00036164699
0.01932878 -0.0023368001 -0.0016373236
0.0034692681 -0.0017272 -0.0024369119
-0.016355122 -0.00030479999 -0.0054353676
-0.007434146 0.0001016 -0.0024369119
0.018734049 -0.00091439998 -0.0022370147
-0.015562146 -0.00254 -0.0016373236
-0.016156878 0.0021335999 -0.0022370147
0.0066411705 0.0001016 -0.0076342351
-0.0050552194 0.0007112 -0.00023804419
-0.013777951 0.00091439998 -0.0024369119
0.011597268 -0.0001016 0.00076144107
-0.012192 0.00254 -0.0014374265
0.0014868292 0.00030479999 -0.0056352648
0.0090200976 0.00254 -0.0020371177
-0.012390244 0.00254 -0.00043794126
0.0040639997 0.0001016 -0.0038361913
-0.013777951 -0.0001016 -0.0040360885
-0.014967415 -0.0013208 -0.00023804419
-0.013777951 0.0001016 -0.0082339263
-0.0066411705 0.0001016 -0.0082339263
0.013976195 -0.00030479999 0.0015610293
-0.02032 0.0013208 -0.00083773537
-0.0014868292 -0.00030479999 -0.0064348532
-0.019725269 0.00091439998 -0.0022370147
-0.0040639997 0.00030479999 0.00056154403
-0.018932292 -0.00254 -0.0010376325
0.0084253652 0.0021335999 -3.8147133e-05
-0.016553365 -0.00030479999 -0.0048356764
-0.017544584 -0.0013208 -0.0024369119
0.01932878 0.0013208 -0.0024369119
0.0094165849 -0.0013208 -0.00023804419
0.0010903415 -0.0001016 -0.0086337207
0.011399024 0.0007112 -0.0024369119
-9.9121949e-05 0.0021335999 -3.8147133e-05
0.0088218534 0.00030479999 0.00076144107
-0.0062446827 0.0001016 -0.0030366031
-0.0052534635 0.00254 -0.00063783833
0.0028745364 -0.00050800003 -0.00023804419
-0.019527024 -0.0023368001 -0.0014374265
-0.0020815609 -0.00254 -0.00023804419
-0.011597268 -0.00030479999 0.0019608235
-0.015562146 -0.0019304 -0.00023804419
0.019725269 0.0013208 -0.00023804419
-0.0040639997 -0.0001016 -0.0038361913
-0.0070376582 0.00050800003 -0.0024369119
-0.001883317 0.00030479999 -0.0024369119
0.0090200976 0.0001016 0.0023606175
-0.0048569753 0.0001016 -3.8147133e-05
-0.02032 -0.0007112 -0.0012375294
0.0088218534 -0.0001016 -0.0084338235
0.0090200976 0.00030479999 -0.006234956
-0.0062446827 -0.00091439998 -0.0024369119
-0.00069385365 -0.00254 -0.0024369119
0.014174439 0.0011176 -0.0024369119
0.016355122 -0.0001016 -0.0042359852
-0.001883317 -0.00030479999 -0.0024369119
-0.0044604875 0.00091439998 -0.00023804419
0.0058481949 -0.00091439998 -0.00023804419
-0.012390244 -0.00050800003 -0.00023804419
-0.0026762926 0.00050800003 -0.00023804419
0.0010903415 0.0001016 0.0011612353
0.011399024 0.00254 -0.0010376325
-0.009614829 -0.0007112 -0.00023804419
-0.00069385365 0.00254 -0.0022370147
-0.012984975 -0.00254 -0.00063783833
0.016553365 0.00030479999 -0.005835162
0.0086236093 -0.0013208 -0.0024369119
-0.0014868292 0.00091439998 -0.00023804419
0.0058481949 -0.0013208 -0.0024369119
-0.011795511 0.00254 -0.00083773537
0.01020956 0.00254 -0.0012375294
-0.013579707 -0.0019304 -0.0024369119
0.0088218534 -0.00030479999 -0.0030366031
-0.0092183417 -0.0001016 -0.0036362943
-0.01120078 0.00254 -0.00023804419
-0.0060464391 0.0007112 -0.0024369119
0.019130535 0.00030479999 -0.0042359852
-0.02032 -0.0011176 -0.00023804419
0.015165658 0.0019304 -0.00023804419
0.0040639997 0.00030479999 0.0027604117
0.0038657561 0.00030479999 -0.005835162
0.01675161 -0.0001016 0.00056154403
0.013183219 0.00254 -0.0018372206
-0.013183219 -0.0011176 -0.00023804419
0.018932292 0.0001016 -0.0070345444
-0.011399024 -0.00030479999 0.0025605147
-0.018535804 0.00030479999 -0.0024369119
-0.018932292 -0.0001016 0.0017609263
0.011597268 0.0001016 -0.005835162
0.0042622439 0.00254 -0.0024369119
0.01120078 0.0001016 -0.0034363971
0.016355122 -0.0001016 0.0013611323
0.016355122 0.00254 -0.00063783833
0.0050552194 0.0023368001 -3.8147133e-05
-0.017544584 -0.00254 -0.0014374265
-0.001883317 -0.0023368001 -0.0024369119
-0.017544584 -0.0017272 -0.00023804419
0.0036675122 -0.00030479999 -0.008034029
-0.0038657561 0.00030479999 0.0017609263
9.9121949e-05 -0.0021335999 -0.0024369119
-0.015562146 -0.00050800003 -0.0024369119
0.013579707 0.0011176 -0.0024369119
-0.011597268 -0.001524 -0.00023804419
-0.0030727803 0.0023368001 -3.8147133e-05
-0.01576039 -0.0021335999 -3.8147133e-05
0.0040639997 0.00030479999 0.00016174992
0.013381463 -0.0017272 -0.0024369119
0.010606049 -0.00254 -0.0022370147
0.0040639997 0.0001016 0.0017609263
-0.018139316 0.0017272 -0.00023804419
0.010011317 0.00254 -0.0018372206
-0.0066411705 0.0001016 0.0011612353
-0.0076323901 -0.0011176 -0.0024369119
0.00089209754 0.0021335999 -3.8147133e-05
0.0010903415 -0.00254 -0.0016373236
-0.013777951 -0.00254 -3.8147133e-05
0.016949853 0.00254 -0.0010376325
0.008227122 -0.0013208 -0.0024369119
0.011597268 -0.0001016 -0.0032365001
0.0034692681 -0.00254 -0.0016373236
-0.0068394146 -0.00254 -0.0020371177
-0.0050552194 0.001524 -0.00023804419
-0.0086236093 -0.0019304 -0.0024369119
-0.0070376582 -0.0001016 -0.0024369119
0.0066411705 0.0021335999 -3.8147133e-05
-0.0062446827 -0.001524 -0.00023804419
-0.019923512 -0.0019304 -0.00023804419
0.015165658 0.0007112 -0.00023804419
0.0064429268 -0.00030479999 0.0025605147
-0.0010903415 0.0001016 -0.0072344411
0.0078306338 0.00254 -0.0018372206
-0.012786731 0.00254 -0.00043794126
-0.01476917 0.00254 -0.0022370147
-0.013777951 -0.00030479999 -0.0084338235
0.012588488 0.00050800003 -0.0024369119
-0.0036675122 -0.00254 -0.0018372206
-0.0014868292 -0.00030479999 -0.0044358824
-0.0056499513 -0.001524 -0.00023804419
0.0042622439 0.00254 -0.0010376325
-0.017346341 0.00050800003 -0.00023804419
-0.018932292 -0.0001016 -0.0052354708
0.019725269 -0.0023368001 -0.0014374265
-0.013777951 0.0001016 -0.0030366031
0.012984975 -0.0019304 -0.00023804419
-0.01932878 -0.0023368001 -0.0014374265
-0.014372682 -0.00091439998 -0.0024369119
-0.010804293 0.0023368001 -0.0024369119
0.010804293 0.00254 -0.0022370147
-0.018932292 -0.0001016 -0.0034363971
0.0026762926 0.0023368001 -0.0024369119
0.0038657561 0.00030479999 -3.8147133e-05
-0.0060464391 0.0023368001 -3.8147133e-05
-0.0034692681 -0.00254 -3.8147133e-05
-0.016355122 -0.00030479999 -0.0052354708
0.0086236093 -0.00254 -0.0020371177
0.014174439 -0.0001016 -0.0036362943
0.02032 0.0011176 -0.0022370147
-0.013777951 -0.0001016 0.0017609263
0.0014868292 0.0001016 0.0029603087
-0.016553365 0.0017272 -0.0022370147
0.0038657561 -0.00030479999 -0.0032365001
-0.0030727803 0.00254 -0.0018372206
-0.019527024 0.00254 -0.00063783833
-0.012588488 -0.0023368001 -3.8147133e-05
0.0072359024 -0.00254 -3.8147133e-05
0.018337561 0.00254 -3.8147133e-05
0.019725269 0.0023368001 -0.0016373236
0.0078306338 0.00030479999 -3.8147133e-05
-0.01476917 -0.00254 -0.0022370147
-0.0022798048 0.00254 -3.8147133e-05
0.016355122 0.00030479999 -0.0026368089
-0.0010903415 -0.00030479999 -0.0086337207
-0.0036675122 -0.0011176 -0.0024369119
0.007434146 -0.00254 -0.0020371177
0.0062446827 0.00030479999 -0.0076342351
0.0046587316 0.0017272 -0.00023804419
0.017941073 -0.00254 -0.0014374265
0.017742829 -0.001524 -0.00023804419
0.0010903415 0.00030479999 0.0027604117
-0.0028745364 -0.00254 -0.0016373236
-0.00089209754 0.0011176 -0.00023804419
0.0014868292 -0.0001016 -0.0072344411
0.014174439 0.00030479999 -0.0046357797
0.0056499513 -0.00050800003 -0.00023804419
0.014174439 0.00254 -0.0018372206
-0.017742829 -0.0017272 -0.00023804419
-0.010804293 0.00254 -3.8147133e-05
0.0092183417 0.00091439998 -0.00023804419
0.0072359024 0.00254 -3.8147133e-05
0.018734049 -0.001524 -0.00023804419
-0.0066411705 -0.0001016 -0.0074343383
0.01675161 0.0001016 -0.0082339263
0.016553365 -0.00030479999 -0.0074343383
-0.0090200976 -0.00030479999 0.0017609263
-0.0064429268 0.00050800003 -0.0026368089
0.010804293 -0.0017272 -0.00023804419
0.0036675122 0.00254 -0.00023804419
0.0012885854 0.0021335999 -0.0024369119
0.014570926 -0.00254 -0.0014374265
0.0010903415 -0.00030479999 -0.005835162
-0.0052534635 0.00254 -0.0020371177
-0.0058481949 0.0021335999 -0.0024369119
-0.014570926 0.00050800003 -0.00023804419
0.0090200976 -0.00254 -0.00063783833
0.0070376582 -0.00254 -0.00023804419
-0.0062446827 0.0001016 -0.0068346472
0.0030727803 -0.0007112 -0.00023804419
-0.0090200976 -0.00030479999 -0.0064348532
-0.0070376582 0.00091439998 -0.00023804419
0.0042622439 -0.0021335999 -0.0024369119
-0.01120078 0.0021335999 -0.0024369119
-0.012984975 0.00254 -0.00063783833
-0.01476917 0.00254 -0.00043794126
0.013381463 0.00254 -0.00023804419
0.016949853 0.0023368001 -3.8147133e-05
0.001883317 0.001524 -0.0024369119
0.0012885854 0.00030479999 0.0029603087
-0.014570926 0.00254 -0.0012375294
-0.0014868292 0.0001016 -0.0032365001
-0.0090200976 0.0001016 -0.0078341328
0.0042622439 0.00254 -0.0012375294
9.9121949e-05 0.00030479999 -0.0024369119
0.011993756 0.0021335999 -3.8147133e-05
-0.0038657561 0.00030479999 -0.0094333086
0.0088218534 0.001524 -0.00023804419
0.0032710242 -0.0001016 -0.0024369119
-0.018734049 -0.0013208 -0.0024369119
-0.0044604875 0.0023368001 -0.0024369119
-0.018139316 0.0019304 -0.0022370147
0.015562146 0.001524 -0.0024369119
-0.011399024 0.0017272 -0.00023804419
0.0090200976 -0.0001016 -0.0046357797
0.016553365 -0.00050800003 -0.00023804419
-0.0046587316 -0.0023368001 -3.8147133e-05
0.0064429268 0.00030479999 -0.0030366031
-0.014570926 0.0019304 -0.00023804419
0.00049560977 0.00254 -0.00023804419
-0.013976195 -0.00030479999 0.0023606175
0.012786731 -0.0013208 -0.00023804419
0.0064429268 -0.00030479999 0.0029603087
-0.00029736586 0.00254 -0.00083773537
-0.016949853 -0.00254 -0.0022370147
-0.011399024 -0.00030479999 -0.0074343383
-0.01675161 -0.0023368001 -3.8147133e-05
-0.0032710242 0.00254 -0.00063783833
-0.0014868292 -0.00030479999 0.0023606175
-0.018337561 -0.0001016 -0.0024369119
0.012588488 -0.0023368001 -0.0022370147
-0.0020815609 0.0013208 -0.00023804419
-0.01675161 -0.00050800003 -0.00023804419
0.01020956 0.00254 -0.0024369119
0.0010903415 -0.00030479999 0.0017609263
-0.012390244 -0.0007112 -0.0024369119
-0.01120078 -0.00030479999 -0.0044358824
0.0056499513 -0.0021335999 -3.8147133e-05
-0.0038657561 0.00030479999 -0.0042359852
-0.01120078 0.00030479999 -0.0070345444
0.0090200976 -0.0011176 -0.00023804419
0.0040639997 0.00091439998 -0.00023804419
0.0084253652 0.00050800003 -0.0024369119
0.011597268 -0.0007112 -0.00023804419
-0.010407805 -0.00254 -0.0018372206
-0.0058481949 -0.00254 -0.0010376325
-0.011002536 -0.00254 -0.0020371177
0.010804293 -0.0011176 -0.0024369119
0.0090200976 0.0001016 -0.0026368089
0.0090200976 0.0017272 -0.0024369119
-0.011399024 -0.00030479999 -0.0036362943
-0.01932878 0.0001016 -0.0056352648
-0.018535804 -0.00091439998 -0.0024369119
-0.0064429268 0.0011176 -0.0024369119
-0.02032 0.0011176 -0.0010376325
0.017941073 -0.00254 -0.0018372206
0.012192 -0.0023368001 -0.0022370147
-0.0050552194 0.0013208 -0.0024369119
-0.0092183417 -0.0001016 -0.0056352648
0.012192 -0.0007112 -0.00023804419
0.0010903415 -0.00254 -0.0018372206
0.0040639997 0.00030479999 -0.0026368089
0.0088218534 0.0013208 -0.0024369119
0.0054517072 0.00254 -0.0014374265
-0.00029736586 0.00254 -0.0012375294
-0.0010903415 0.00030479999 -0.0092334114
0.018139316 -0.00030479999 -3.8147133e-05
-0.007434146 0.00254 -0.0018372206
0.0060464391 -0.001524 -0.0024369119
-0.013976195 -0.00254 -0.00083773537
-0.0032710242 0.0023368001 -0.0024369119
0.018932292 0.0001016 -0.0064348532
-0.01932878 0.001524 -0.0022370147
0.0010903415 -0.0001016 -0.008034029
-0.0050552194 -0.0007112 -0.00023804419
-0.015562146 -0.0001016 -3.8147133e-05
0.00089209754 0.0019304 -0.0024369119
0.016355122 0.00030479999 -0.0074343383
-0.0010903415 -0.0001016 0.0015610293
-0.0020815609 0.0017272 -0.0024369119
0.01020956 0.0011176 -0.0024369119
0.014570926 0.00254 -0.0016373236
0.0070376582 -0.00254 -0.00083773537
-0.0022798048 -0.00254 -0.0024369119
-0.012390244 -0.00254 -0.0022370147
-0.011399024 -0.0001016 0.0029603087
0.019527024 -0.0021335999 -0.0022370147
-0.0036675122 -0.00030479999 0.0021607205
-0.016949853 -0.00254 -0.0010376325
-0.01576039 0.00254 -0.0014374265
0.0048569753 0.00254 -0.0022370147
-0.00069385365 -0.001524 -0.00023804419
0.01476917 -0.0013208 -0.00023804419
-0.01120078 0.00030479999 0.0015610293
0.0030727803 0.0001016 -0.0024369119
0.012786731 0.0007112 -0.0024369119
-0.009614829 0.00254 -0.00063783833
-0.0010903415 -0.00050800003 -0.00023804419
0.02032 0.0011176 -0.00043794126
0.011597268 0.00030479999 -0.0084338235
0.019130535 0.00030479999 -0.0048356764
0.019130535 0.00254 -0.00023804419
-0.0054517072 -0.00254 -0.0014374265
0.0040639997 -0.001524 -0.00023804419
0.0020815609 0.00254 -0.00023804419
0.0022798048 -0.00254 -0.0018372206
-0.0010903415 -0.0001016 -0.005835162
0.0078306338 -0.00254 -0.0014374265
0.018932292 -0.00030479999 -0.0082339263
0.010407805 -0.0001016 -3.8147133e-05
0.018932292 -0.0023368001 -0.00043794126
-0.00049560977 -0.00254 -0.00063783833
0.0090200976 -0.0017272 -0.00023804419
-0.0014868292 -0.00254 -0.00083773537
-0.015165658 0.00254 -0.0022370147
0.011795511 -0.00254 -0.00063783833
0.014372682 0.0017272 -0.00023804419
0.0090200976 0.0021335999 -0.0024369119
-0.011993756 -0.00254 -0.0024369119
-0.009614829 0.00254 -0.00083773537
-0.014174439 -0.0001016 -0.0090335151
0.0068394146 0.0019304 -0.00023804419
-0.011002536 -0.00254 -0.0022370147
0.0066411705 0.00254 -3.8147133e-05
-0.0066411705 -0.0021335999 -0.0024369119
0.0072359024 -0.0001016 -0.0024369119
0.011597268 0.00030479999 -0.0090335151
0.018535804 0.0007112 -0.0024369119
-0.010011317 0.00254 -0.00043794126
-0.01476917 0.0001016 -3.8147133e-05
-0.019130535 0.00030479999 -0.0044358824
0.0010903415 -0.00030479999 -0.0052354708
-0.016355122 0.0021335999 -0.0022370147
0.014967415 0.00254 -0.0012375294
0.0014868292 -0.00030479999 0.0015610293
0.011597268 0.0001016 -0.0050355736
-0.013381463 0.0023368001 -0.0022370147
0.0052534635 0.0001016 -0.0024369119
-0.0086236093 -0.0001016 0.0025605147
-0.011597268 -0.0001016 -0.0038361913
-0.016355122 -0.0011176 -0.00023804419
0.0064429268 -0.00030479999 -0.0086337207
0.0066411705 -0.00254 -0.0010376325
0.0014868292 0.00030479999 -0.0074343383
0.0070376582 -0.0013208 -0.0024369119
-0.0062446827 0.0001016 -0.0092334114
-0.0090200976 -0.00254 -0.0010376325
0.0056499513 -0.00254 -0.0024369119
-0.0040639997 -0.00254 -0.00083773537
-0.018932292 -0.00091439998 -0.00023804419
-0.0072359024 0.00254 -0.00023804419
0.0072359024 -0.00254 -0.00023804419
-0.012192 -0.00254 -0.0012375294
-0.013777951 0.00030479999 -0.0036362943
-0.011597268 0.0001016 -0.0026368089
-0.018734049 -0.00254 -0.00063783833
-0.0090200976 0.00254 -0.0022370147
0.0036675122 -0.00091439998 -0.00023804419
-0.0092183417 -0.0001016 -0.0092334114
-0.019923512 0.00091439998 -0.0022370147
-0.0036675122 -0.00030479999 -3.8147133e-05
-0.012390244 0.0019304 -0.0024369119
-0.0060464391 -0.0001016 -0.0030366031
-0.013381463 0.00254 -0.0018372206
-0.015958633 0.00254 -0.0016373236
-0.0038657561 -0.00050800003 -0.0026368089
0.011597268 0.00254 -0.0024369119
0.017346341 -0.0023368001 -0.0022370147
-0.0016850731 -0.00254 -0.0012375294
0.0024780487 -0.0021335999 -0.0024369119
-0.00049560977 -0.0019304 -0.0024369119
-0.013976195 0.00030479999 -0.0044358824
-0.0036675122 0.00030479999 -0.0028367059
-0.018535804 0.0011176 -0.00023804419
0.0010903415 0.0001016 -0.0044358824
-0.0030727803 0.00030479999 -0.0024369119
0.0022798048 -0.0013208 -0.0024369119
-0.0040639997 -0.00030479999 -0.0030366031
0.02032 -0.00030479999 -0.00063783833
-0.0090200976 -0.00254 -0.0016373236
0.013976195 0.00030479999 0.0029603087
-0.016355122 -0.00254 -0.0010376325
0.0066411705 -0.0013208 -0.0024369119
-0.0034692681 0.0021335999 -0.0024369119
-0.00029736586 0.0021335999 -0.0024369119
-0.016355122 -0.00254 -0.0014374265
-0.0054517072 0.0011176 -0.00023804419
0.0036675122 0.0017272 -0.00023804419
-0.0036675122 0.0001016 0.0019608235
0.0010903415 0.00254 -0.00023804419
9.9121949e-05 -0.00254 -0.0012375294
-0.01020956 -0.0021335999 -0.0024369119
0.013183219 0.0023368001 -3.8147133e-05
0.0098130731 0.00030479999 -3.8147133e-05
-0.0086236093 0.0001016 -0.0030366031
0.011597268 -0.0001016 -0.0050355736
0.018337561 0.00254 -0.0012375294
0.0040639997 0.00254 -0.0024369119
-0.014967415 -0.0019304 -0.00023804419
0.015165658 -0.00091439998 -0.00023804419
0.0056499513 -0.001524 -0.0024369119
-0.01020956 0.00254 -0.0022370147
-0.017346341 -0.0011176 -0.00023804419
-0.0088218534 0.0001016 -0.0096332058
-0.0066411705 0.00254 -0.0010376325
0.01675161 -0.0001016 -0.0066347499
0.0088218534 -0.0019304 -0.00023804419
0.008227122 -0.00050800003 -0.00023804419
-0.017544584 0.0001016 -3.8147133e-05
0.01932878 0.00050800003 -0.00023804419
0.012786731 0.00050800003 -0.00023804419
-0.018932292 0.00030479999 -0.0034363971
-0.0034692681 -0.0021335999 -3.8147133e-05
-0.0010903415 0.0001016 0.0011612353
-0.0024780487 0.00254 -0.00023804419
-0.0010903415 0.00030479999 -0.0046357797
-0.00049560977 0.0007112 -0.0024369119
-0.016355122 -0.0001016 -0.0092334114
0.0052534635 0.0019304 -0.0024369119
-0.0076323901 -0.0001016 -0.0024369119
0.0012885854 -0.00030479999 -0.0030366031
0.0014868292 -0.00091439998 -0.00023804419
-0.0058481949 -0.0001016 -3.8147133e-05
-0.011795511 0.00050800003 -0.0024369119
-0.0094165849 -0.0019304 -0.00023804419
0.007434146 0.00254 -0.0018372206
-0.0014868292 -0.001524 -0.00023804419
-0.0040639997 0.0011176 -0.0024369119
-0.011597268 0.00030479999 -0.0048356764
0.0090200976 -0.0001016 -0.0032365001
0.01476917 0.0013208 -0.0024369119
-0.012786731 0.0001016 -0.0024369119
0.013976195 -0.00030479999 0.0029603087
0.010011317 0.0007112 -0.00023804419
0.010804293 -0.00254 -0.0018372206
0.014174439 0.0017272 -0.00023804419
-0.01120078 -0.0001016 0.0025605147
0.00089209754 0.00091439998 -0.00023804419
0.01120078 0.00030479999 -0.0066347499
0.010011317 0.0013208 -0.00023804419
0.0036675122 -0.00030479999 -0.0068346472
0.0090200976 -0.0001016 0.0025605147
0.010407805 -0.0011176 -0.0024369119
0.019923512 0.001524 -0.00023804419
-0.0032710242 0.00030479999 -3.8147133e-05
-0.0064429268 -0.0019304 -0.00023804419
0.017346341 -0.00254 -0.0022370147
0.0060464391 0.00254 -0.0020371177
-0.0066411705 -0.0001016 -0.0048356764
-0.0034692681 0.0011176 -0.00023804419
0.011597268 -0.00030479999 -0.0088336179
-0.0076323901 0.00254 -0.00063783833
0.0010903415 -0.00030479999 -0.0078341328
0.014967415 0.0021335999 -3.8147133e-05
-0.0076323901 -0.00030479999 -0.0024369119
-0.01576039 0.0013208 -0.0024369119
0.014174439 -0.0001016 0.0027604117
0.00069385365 0.0001016 -3.8147133e-05
0.01675161 0.0001016 0.0025605147
-0.010011317 -0.00030479999 -3.8147133e-05
-0.0038657561 0.001524 -0.00023804419
0.0098130731 -0.0001016 -0.0024369119
-0.013976195 0.00030479999 -0.0074343383
0.014174439 0.00254 -0.0012375294
-0.013976195 0.0001016 -0.0092334114
0.0098130731 -0.00254 -0.00063783833
-0.01020956 -0.00050800003 -0.0024369119
-0.017346341 0.00050800003 -0.0024369119
0.02032 0.00030479999 -0.0012375294
0.018734049 -0.0023368001 -0.00043794126
0.015562146 0.0021335999 -3.8147133e-05
0.0014868292 0.0021335999 -0.0024369119
0.011002536 0.0021335999 -0.0024369119
-0.0012885854 0.00254 -0.0022370147
-0.0028745364 0.00254 -0.0018372206
-0.0064429268 -0.00030479999 -0.0046357797
0.0038657561 0.0023368001 -3.8147133e-05
-0.0054517072 0.0011176 -0.0024369119
-0.0036675122 0.00030479999 0.0015610293
-0.0020815609 0.0007112 -0.0024369119
-0.0034692681 -0.001524 -0.0024369119
0.015165658 0.00254 -0.0020371177
-0.012390244 0.00254 -0.0010376325
0.014174439 -0.00030479999 -0.0060350588
0.0094165849 0.0023368001 -0.0024369119
0.0026762926 0.00254 -0.0010376325
0.0056499513 -0.00254 -0.0022370147
0.011597268 0.00254 -0.0016373236
0.014570926 0.0023368001 -0.0024369119
-0.011597268 0.00254 -0.00023804419
-0.018535804 -0.00254 -0.00023804419
0.013381463 -0.0023368001 -0.0022370147
0.0038657561 0.001524 -0.0024369119
0.015562146 0.0011176 -0.0024369119
-0.0044604875 0.00254 -0.0020371177
-0.012786731 0.00030479999 -3.8147133e-05
0.0062446827 0.00254 -0.00083773537
0.015165658 -0.00030479999 -0.0024369119
-0.0072359024 0.00254 -0.0014374265
-0.016553365 0.00030479999 -0.0092334114
-0.019130535 0.0023368001 -0.00023804419
0.014174439 0.00030479999 0.0017609263
0.012390244 -0.00050800003 -0.0024369119
0.016156878 0.0019304 -0.00023804419
0.010011317 0.00254 -0.0014374265
-0.015562146 0.00091439998 -0.00023804419
0.013976195 0.0001016 0.0031602057
-0.01932878 -0.0001016 -0.0030366031
0.008227122 -0.00254 -0.00063783833
-0.00069385365 -0.00254 -0.00063783833
0.0010903415 -0.00254 -0.0014374265
0.017742829 0.0011176 -0.00023804419
0.0098130731 0.00254 -0.0020371177
0.0092183417 0.0011176 -0.00023804419
0.010804293 -0.00091439998 -0.0024369119
-0.010407805 -0.0013208 -0.00023804419
0.00069385365 0.00254 -3.8147133e-05
-0.00049560977 -0.00030479999 -0.0024369119
0.011002536 0.00254 -0.0012375294
0.0040639997 -0.0001016 0.00016174992
0.01476917 0.00254 -0.0010376325
0.0050552194 -0.00254 -0.0018372206
-0.0086236093 0.00091439998 -0.00023804419
-0.013976195 -0.00030479999 -0.0084338235
0.019527024 0.001524 -0.00023804419
-0.018932292 -0.0001016 -0.005835162
-0.016553365 0.00030479999 -0.0036362943
0.00089209754 -0.00030479999 -0.0024369119
-0.0024780487 -0.0013208 -0.0024369119
-0.0032710242 -0.0021335999 -3.8147133e-05
0.018139316 0.001524 -0.00023804419
-0.018337561 -0.0011176 -0.0024369119
-0.02032 0.0019304 -0.0020371177
0.0036675122 0.0011176 -0.00023804419
0.01120078 0.00030479999 -0.0038361913
0.018337561 -0.0017272 -0.00023804419
-0.0038657561 -0.00254 -0.0010376325
-0.0048569753 0.00254 -0.0018372206
0.019527024 -0.00030479999 -0.00023804419
-0.016156878 -0.001524 -0.00023804419
0.01120078 0.00030479999 0.0021607205
-0.0022798048 -0.0001016 -3.8147133e-05
-0.0010903415 0.0001016 0.00076144107
-0.0070376582 -0.00254 -0.0020371177
-0.011795511 0.0001016 -3.8147133e-05
0.016355122 0.00030479999 -0.006234956
0.0016850731 -0.00091439998 -0.0024369119
-0.012192 0.0017272 -0.0024369119
0.0010903415 -0.0001016 0.0027604117
0.018932292 0.00030479999 0.0021607205
-0.0034692681 0.0001016 -0.0088336179
-0.0070376582 -0.0017272 -0.0024369119
-0.016553365 -0.00030479999 0.0011612353
0.0050552194 0.00254 -0.00083773537
0.0090200976 0.00030479999 -0.0074343383
0.015562146 -0.0019304 -0.0022370147
-0.015958633 0.00254 -0.0020371177
0.014174439 -0.0001016 -0.0074343383
-0.01120078 -0.00030479999 -0.0048356764
0.0036675122 0.00030479999 -0.0078341328
0.0094165849 0.00254 -0.0014374265
0.012786731 0.00254 -0.0020371177
0.017742829 0.001524 -0.00023804419
-0.0092183417 0.0013208 -0.00023804419
-0.0042622439 -0.00254 -0.0014374265
0.0024780487 -0.0023368001 -0.0024369119
0.016355122 -0.00254 -0.0014374265
-0.0058481949 0.00030479999 -3.8147133e-05
0.013976195 0.0021335999 -3.8147133e-05
0.01675161 0.0007112 -0.0024369119
-0.0022798048 0.00254 -0.0018372206
0.017346341 0.00254 -0.00083773537
-0.0014868292 0.0001016 -0.0050355736
-0.0044604875 0.00254 -0.0014374265
0.0088218534 0.001524 -0.0024369119
