# .PCD v0.7 - Point Cloud Data file format
VERSION 0.7
FIELDS x y z
SIZE 4 4 4
TYPE F F F
COUNT 1 1 1
WIDTH 1189
HEIGHT 1
VIEWPOINT 0 0 0 1 0 0 0
POINTS 1189
DATA ascii
0.0071419664 0.009503291 -0.012675152
-0.0071419664 0.00064585468 -0.0043511307
-0.0054724156 0.0098723508 -0.013045109
-0.0076984833 -0.0056281625 -0.005276022
0.0075129778 -0.0030447436 -0.0015764565
-0.0076984833 -0.0058126925 -0.0089755869
0.0052869101 -0.01042594 -0.0062009133
0.0036173596 0.010795 -0.0034262391
-0.005843427 -0.0041519231 -9.6630407e-05
0.0021333147 0.0096878204 -0.013785022
0.0078839893 -0.0059972224 -0.01193524
0.0075129778 -0.0030447436 -0.0089755869
-0.0078839893 0.0059972224 -0.010640391
-0.0076984833 0.0085806409 -0.013600044
0.0026898314 -0.010241411 -0.0099004786
-0.0056579215 0.010795 -0.008050696
0.0069564609 0.0089497007 -0.00028160866
0.001947809 0.010795 -0.0093455436
0.0025043259 -0.0098723508 -0.013600044
-0.0036173596 0.010795 -0.0067558479
0.0013912922 0.0011994444 -0.013970001
-0.0051014046 0.0010149146 0.0017531522
-0.0075129778 0.0034138034 -0.0082356744
0.0078839893 0.0063662822 -0.005276022
0.0054724156 -0.0091342311 -9.6630407e-05
-0.0067709549 0.010610471 -0.010085457
0.0075129778 0.0024911538 -0.00083654345
-0.0082550002 -0.0028602136 0.00082826091
0.00064926967 0.010795 -0.0010215217
-0.0054724156 -0.0096878204 -0.011010348
-0.0065854494 -0.010610471 -0.00046658693
-0.0082550002 0.01005688 -0.01193524
0.0080694947 0.010241411 -0.011565283
-0.0078839893 0.0054436326 -0.00083654345
0.0075129778 -0.0030447436 -0.0071258047
0.0075129778 -0.0098723508 -0.00046658693
-0.0049158991 0.00064585468 0.00082826091
0.0013912922 -0.0035983333 -0.013970001
0.00083477527 0.0023066239 -9.6630407e-05
0.0025043259 -0.010241411 -0.011195326
-0.0076984833 -0.0048900428 -0.012860131
-0.0080694947 -0.0078425212 -0.0087906085
0.0045448877 0.0080270516 -9.6630407e-05
-0.0034318541 -0.010241411 -0.0065708696
0.0073274719 0.0034138034 -0.01193524
-0.0021333147 0.0037828633 -9.6630407e-05
-0.0071419664 -0.0017530342 -0.010640391
-0.0075129778 -0.0034138034 -0.0013914782
0.0015767978 0.01005688 -0.013600044
0.001947809 -0.0039673932 -0.013970001
0.0043593822 -9.2264956e-05 0.0011982175
0.0071419664 0.0011994444 -0.0010215217
0.006399944 0.010795 -0.0065708696
-0.0065854494 0.0076579917 -9.6630407e-05
-0.00083477527 0.010795 -0.0021313913
-0.0069564609 0.004336453 -0.013785022
-0.0043593822 -0.01042594 -0.0087906085
-0.0065854494 -0.0087651713 -0.013600044
0.0051014046 0.0032292735 -9.6630407e-05
-0.0080694947 -0.0098723508 -0.012860131
0.0076984833 -0.0087651713 -0.0076807393
0.0082550002 -0.0076579917 -0.0058309566
-0.006399944 0.0039673932 0.002308087
0.0069564609 0.00027679486 -0.010085457
-0.0075129778 0.0035983333 -0.0012065
-0.00046376404 -0.0091342311 0.001568174
0.0010202809 0.0015685043 -0.013970001
-0.0078839893 0.0054436326 -0.0099004786
0.0041738763 -0.004336453 -0.013785022
0.0078839893 0.0056281625 -0.0093455436
-0.0056579215 -0.0093187606 -0.011750261
-0.0012057865 -0.0039673932 -0.013970001
0.0076984833 0.0024911538 -0.0013914782
-0.0078839893 0.0056281625 -0.00065156521
0.0065854494 0.010795 -0.0067558479
0.0017623034 0.0047055129 -9.6630407e-05
0.0080694947 -0.0035983333 8.8347857e-05
-0.0073274719 0.0017530342 -0.003981174
0.0043593822 -0.0026756837 -9.6630407e-05
-0.0062144385 0.0028602136 -9.6630407e-05
-0.00064926967 -0.0098723508 -0.0084206527
0.0075129778 0.0030447436 -9.6630407e-05
-0.0043593822 -0.01042594 -0.008050696
0.0041738763 0.0037828633 0.0019381305
-0.0013912922 -0.0010149146 -0.013970001
-0.0052869101 -0.0058126925 -0.013785022
-0.0065854494 0.0011994444 -0.013785022
0.0069564609 -0.0063662822 -0.013600044
-0.0013912922 0.010795 -0.0073107826
-0.0067709549 -0.0089497007 -0.012120218
0.006399944 0.0096878204 -0.012675152
0.0082550002 0.0098723508 -0.0082356744
0.0071419664 -0.00083038461 -0.0036112175
0.0069564609 -0.0041519231 -9.6630407e-05
0.0062144385 0.0067353421 -9.6630407e-05
0.0041738763 -0.0078425212 -9.6630407e-05
-0.00083477527 0.0093187606 -9.6630407e-05
-0.0062144385 0.010795 -0.005276022
9.2752809e-05 0.010795 -0.0073107826
-0.0071419664 0.00046132479 -0.011010348
-0.0034318541 0.0096878204 -0.00028160866
0.0073274719 -0.0021220939 -0.011195326
0.0026898314 -0.010241411 -0.00083654345
0.0082550002 -0.004336453 -0.00065156521
-0.0071419664 0.00027679486 -0.011565283
-0.0082550002 0.0085806409 -0.005276022
-0.0082550002 0.0096878204 -0.0093455436
-0.0065854494 0.0063662822 -0.013785022
0.00027825843 -0.0089497007 -0.013785022
-0.0078839893 -0.0087651713 -0.013415066
0.0082550002 0.01005688 -0.012305196
0.0071419664 0.0011994444 -0.0026863262
0.0032463484 0.0028602136 -0.013785022
-0.0076984833 0.0047055129 -0.0095305219
0.0015767978 0.010795 -0.0043511307
0.0075129778 0.0030447436 -0.0025013478
-0.0060289325 0.0076579917 -9.6630407e-05
-0.0065854494 0.0048900428 -0.013785022
0.0071419664 0.010795 -0.0030562826
-0.0052869101 -0.0061817523 -0.013785022
-0.0080694947 0.0067353421 -0.0069408263
-0.0078839893 -0.0063662822 -0.0074957609
0.0038028653 -0.0083961114 -9.6630407e-05
0.0078839893 -0.0054436326 -0.0087906085
-0.0076984833 -0.0054436326 -0.011010348
-9.2752809e-05 -0.0015685043 -9.6630407e-05
0.0051014046 0.0032292735 -0.013785022
-0.0028753371 0.010795 -0.0054609999
-0.0073274719 -0.0026756837 -0.0028713043
-0.0080694947 -0.01005688 -0.010455414
0.0071419664 0.0017530342 -0.0086056311
-0.0082550002 -0.0085806409 -0.0076807393
-0.0078839893 -0.0087651713 -0.0030562826
0.0054724156 -0.0096878204 -0.0030562826
-0.0039883708 -0.0065508122 -9.6630407e-05
0.0069564609 0.00046132479 -0.0069408263
-0.0069564609 -0.0087651713 -0.013230087
0.0076984833 -0.004336453 -0.0093455436
-0.005843427 0.006919872 -0.013785022
0.0073274719 -0.0087651713 -0.0091605652
-0.0047303932 -0.0065508122 -9.6630407e-05
-0.005843427 -0.0091342311 0.00045830439
0.006399944 0.01005688 -0.012305196
0.0021333147 -0.0037828633 -0.013970001
0.0032463484 -0.0026756837 -0.013970001
0.0032463484 -0.0035983333 -9.6630407e-05
-0.0051014046 0.010610471 -0.013600044
0.0021333147 0.010795 -0.005276022
0.0028753371 0.00083038461 -9.6630407e-05
0.0067709549 -0.0047055129 -0.013600044
-0.0082550002 0.0080270516 -0.0095305219
0.0047303932 0.010795 -0.011195326
-0.0026898314 -0.010241411 -0.0054609999
0.0075129778 -0.0072889319 -0.013600044
-0.0023188202 -0.010241411 -0.0026863262
-0.0015767978 -0.0061817523 -9.6630407e-05
-0.00027825843 -0.00083038461 -9.6630407e-05
0.0080694947 0.010610471 -0.00083654345
9.2752809e-05 0.0013839743 -0.013970001
-0.0021333147 0.010795 -0.0028713043
0.0076984833 -0.0059972224 -9.6630407e-05
0.00064926967 0.006919872 -9.6630407e-05
-0.0017623034 -0.0074734618 -0.013785022
0.0071419664 -0.0047055129 -9.6630407e-05
0.0076984833 0.010241411 -0.00028160866
0.00064926967 0.0026756837 -0.013970001
0.0076984833 0.0048900428 -0.0025013478
0.0034318541 0.010795 -0.010270435
0.0052869101 0.0056281625 -0.013785022
0.0041738763 -0.0056281625 -0.013785022
0.0030608426 0.010795 -0.00083654345
0.0015767978 0.0026756837 -9.6630407e-05
-0.00027825843 0.010795 -0.0049060653
-0.0080694947 0.0065508122 -0.0041661523
-0.0036173596 0.01042594 -0.012490174
-0.0034318541 -0.00083038461 -9.6630407e-05
0.00083477527 -0.0011994444 -9.6630407e-05
-0.00046376404 0.010795 -0.00028160866
-0.0073274719 0.0023066239 -0.0019464131
-0.0073274719 -0.0024911538 -0.0056459783
0.0028753371 0.010795 -0.0078657176
-0.00046376404 -0.0019375641 -0.013970001
0.0069564609 -0.0052591027 -9.6630407e-05
-0.0076984833 -0.0054436326 -0.0082356744
0.0032463484 -0.010241411 -0.013045109
0.0078839893 -0.0054436326 -0.011380305
-0.0056579215 0.0039673932 -9.6630407e-05
-0.0043593822 -0.00046132479 -0.013785022
-0.0047303932 -0.0089497007 -9.6630407e-05
0.0082550002 0.0089497007 -0.00028160866
0.0075129778 -0.0035983333 -0.005276022
0.0071419664 0.0011994444 -0.0084206527
-0.0017623034 0.0041519231 -0.013970001
9.2752809e-05 -0.0098723508 -0.013045109
0.0080694947 -0.0087651713 -0.0071258047
0.0023188202 0.009503291 -0.013785022
-0.0023188202 -0.0013839743 -0.013970001
0.0039883708 -0.01042594 -0.010085457
0.006399944 0.01042594 -9.6630407e-05
-0.0012057865 -0.0080270516 -9.6630407e-05
-0.0030608426 0.006919872 -0.013785022
0.0069564609 0.0091342311 -0.012675152
-0.0039883708 0.01005688 -0.013600044
-0.00064926967 0.0024911538 -0.013970001
-0.0041738763 0.0072889319 -9.6630407e-05
-0.00064926967 0.010795 -0.003241261
0.006399944 0.0098723508 -0.012490174
0.0052869101 -0.01005688 -0.0089755869
0.0082550002 0.0083961114 -0.0078657176
-0.0075129778 -0.0087651713 -0.012675152
-0.0021333147 -0.0087651713 -9.6630407e-05
-0.0013912922 -0.010241411 -0.011010348
0.0075129778 0.004336453 -0.0078657176
-0.0010202809 0.0039673932 -9.6630407e-05
0.0013912922 -0.006919872 -0.013970001
0.0069564609 -0.00064585468 0.001568174
0.0060289325 0.009503291 -0.012675152
-0.0028753371 -0.01005688 -0.013785022
-0.0071419664 -0.0039673932 -0.013600044
0.001947809 0.0089497007 -0.013785022
-0.00027825843 0.010795 -0.0074957609
-0.0025043259 0.010610471 -0.00028160866
-0.0075129778 0.0035983333 -0.013045109
-0.0080694947 0.01042594 -0.0023163697
0.0026898314 0.004520983 -0.013970001
-0.0075129778 0.0052591027 -9.6630407e-05
-0.0078839893 -0.0059972224 -0.01082537
-0.0051014046 0.0030447436 -9.6630407e-05
-0.001947809 0.010795 -0.003241261
0.006399944 0.0011994444 -0.013785022
-0.0080694947 -0.0078425212 -0.011750261
0.0082550002 0.0096878204 -0.01082537
0.0067709549 0.0058126925 -0.013600044
0.0038028653 0.010795 -0.003241261
0.0067709549 0.0091342311 -0.00028160866
-0.00064926967 -0.0059972224 -9.6630407e-05
0.0076984833 -0.0047055129 -0.0082356744
-0.0030608426 -0.004336453 -0.013785022
-0.0067709549 0.00064585468 -9.6630407e-05
-0.0076984833 -0.0052591027 -0.0041661523
-0.00083477527 -0.01005688 -0.012860131
0.0025043259 -0.010241411 -0.012305196
-0.0052869101 0.0010149146 0.002308087
-0.0025043259 0.010795 -0.0078657176
0.0073274719 0.0015685043 -0.0043511307
-0.0073274719 0.0059972224 -0.013600044
0.0080694947 0.0034138034 -0.00083654345
0.0049158991 -0.010610471 -0.010270435
0.0028753371 -0.00083038461 -9.6630407e-05
0.00064926967 -0.0063662822 0.0021231088
0.0047303932 -0.0059972224 -9.6630407e-05
-0.0047303932 -0.0083961114 -9.6630407e-05
0.0076984833 -0.0050745727 -0.011010348
0.0075129778 0.0032292735 -0.013415066
0.0075129778 -0.009503291 -0.00046658693
-0.0025043259 -0.010241411 -0.0078657176
0.0047303932 -0.01042594 -0.0041661523
0.0082550002 0.0085806409 -0.011565283
-0.00064926967 0.0021220939 -0.013970001
0.0036173596 0.010795 -0.0093455436
-0.0043593822 -0.00027679486 0.001568174
0.0073274719 -0.0026756837 -0.0063858912
0.00083477527 -0.0013839743 -0.013970001
-0.0071419664 -0.00027679486 8.8347857e-05
-0.0039883708 -0.0039673932 -0.013785022
-0.0082550002 0.01005688 -0.0015764565
0.0025043259 0.0059972224 -0.013970001
-0.0071419664 0.0010149146 -0.013415066
-0.00064926967 0.0093187606 -0.013785022
-0.0078839893 -0.0087651713 -0.0062009133
0.0078839893 0.0083961114 -9.6630407e-05
-0.001947809 0.010795 -0.0078657176
0.0073274719 0.0030447436 -0.0054609999
0.0017623034 -0.0015685043 -0.013970001
-9.2752809e-05 0.010795 -0.00028160866
-0.0076984833 0.0050745727 -0.012675152
-0.0017623034 0.0059972224 -0.013970001
-0.0026898314 0.00083038461 -9.6630407e-05
0.0073274719 0.0030447436 -9.6630407e-05
0.0056579215 0.0098723508 -0.012490174
-0.0071419664 -0.0011994444 -0.003981174
-0.0082550002 0.01042594 -0.0082356744
-0.0032463484 -0.00046132479 -0.013970001
0.0080694947 0.0072889319 -0.011380305
0.0026898314 -0.0037828633 -9.6630407e-05
0.0080694947 -0.0071044019 -0.0091605652
0.0041738763 0.0059972224 -0.013785022
-0.0023188202 0.010795 -0.0058309566
0.0082550002 -0.0071044019 -0.00083654345
-0.0049158991 0.0085806409 -9.6630407e-05
0.0082550002 0.01005688 -0.0065708696
-0.0026898314 0.010795 -0.0037961956
-0.0075129778 -0.0037828633 -0.01082537
-0.00083477527 0.0085806409 -0.013785022
-0.00083477527 -0.0087651713 -9.6630407e-05
0.0056579215 9.2264956e-05 0.0026780437
0.00046376404 0.0080270516 -9.6630407e-05
0.0054724156 -0.0093187606 -0.010640391
0.0075129778 -0.00046132479 -0.00028160866
-0.0025043259 -0.010241411 -0.0082356744
0.0051014046 0.0089497007 -0.013785022
-0.0062144385 -0.0085806409 -0.013600044
0.0075129778 -0.0035983333 -0.0086056311
-0.0071419664 0.0011994444 -0.0091605652
-0.0075129778 0.0030447436 -0.0047210869
0.0049158991 0.010795 -0.0058309566
-0.0080694947 -0.0098723508 -0.0063858912
-0.0082550002 0.008211581 -0.0034262391
-0.0054724156 -0.0074734618 -9.6630407e-05
-0.0054724156 -0.0098723508 -0.010085457
-0.0071419664 -0.0019375641 -0.0087906085
0.0060289325 -0.0091342311 -0.0017614348
0.0060289325 -0.0013839743 0.002308087
0.0067709549 -0.0096878204 -0.00046658693
0.0082550002 0.0087651713 -0.0041661523
-0.0078839893 0.0056281625 -0.011010348
-0.0052869101 -0.008211581 -0.013785022
-0.0076984833 0.0039673932 -0.012675152
-0.001947809 -0.010241411 -0.013230087
0.0078839893 0.0059972224 -0.0045361086
0.0075129778 0.0032292735 -0.0013914782
-0.0075129778 -0.004336453 -0.010455414
-0.0034318541 0.010795 -0.011750261
-0.0032463484 -0.0091342311 8.8347857e-05
-0.0080694947 0.009503291 -0.00028160866
-0.0082550002 -0.0091342311 -0.0062009133
-0.0076984833 -0.0052591027 -0.0062009133
-0.0025043259 0.0041519231 -0.013970001
0.0017623034 -0.0080270516 -9.6630407e-05
-0.0032463484 0.004520983 -0.013970001
-0.0015767978 -0.010241411 -0.00065156521
-0.0065854494 0.010610471 -0.0071258047
0.0076984833 0.0087651713 -0.013045109
-0.0054724156 -0.0098723508 -0.013415066
0.0054724156 -0.0098723508 -0.013415066
-0.0047303932 -0.01042594 -0.0073107826
0.0030608426 -0.0080270516 -9.6630407e-05
-0.0013912922 -0.010241411 -0.0021313913
-0.0038028653 0.0047055129 -9.6630407e-05
-0.0013912922 -0.01005688 -9.6630407e-05
0.0078839893 -0.0059972224 -0.0071258047
0.0082550002 0.0096878204 -0.0076807393
-0.006399944 -0.0011994444 0.0024930653
0.0078839893 -0.0059972224 -0.011195326
-0.0075129778 -0.004520983 -0.012305196
0.0049158991 -0.010610471 -0.010085457
-0.0054724156 -0.010610471 -0.0084206527
0.0025043259 0.010795 -0.003241261
-0.0054724156 0.0011994444 8.8347857e-05
-0.00064926967 0.00046132479 -0.013970001
0.0054724156 -0.0063662822 0.001568174
0.0078839893 0.006919872 -0.013600044
-0.0062144385 -0.0089497007 -0.0025013478
-0.0073274719 0.010610471 -0.0028713043
-0.0036173596 -0.0083961114 -9.6630407e-05
-0.0078839893 -0.0061817523 -0.0058309566
-0.0075129778 -0.0041519231 -0.011195326
-0.0080694947 -0.0087651713 -0.0056459783
0.0078839893 9.2264956e-05 -9.6630407e-05
-0.0038028653 -0.01042594 -0.010455414
0.0082550002 0.009503291 -0.0036112175
-0.0062144385 -0.0023066239 -9.6630407e-05
-0.0010202809 0.0067353421 -9.6630407e-05
0.0045448877 -0.0017530342 -9.6630407e-05
-0.0076984833 -0.0047055129 -0.0012065
-0.0076984833 -0.0087651713 -0.011380305
0.0052869101 -0.010241411 -0.011380305
-0.0039883708 0.010795 -0.0089755869
-0.0045448877 -0.0065508122 0.0026780437
0.0075129778 0.0078425212 -0.00028160866
-0.0073274719 0.0015685043 -0.0099004786
-0.0041738763 -0.0015685043 -0.013785022
-0.0080694947 -0.004520983 -9.6630407e-05
0.0067709549 -0.0037828633 -9.6630407e-05
0.0043593822 -0.0052591027 -9.6630407e-05
-0.006399944 0.010795 -0.012120218
-0.0021333147 -0.00083038461 -0.013970001
-0.00064926967 0.010795 -0.010640391
-0.0071419664 0.00027679486 -0.0062009133
0.00046376404 -0.0021220939 -9.6630407e-05
0.0054724156 -0.009503291 -0.0058309566
-0.005843427 0.010795 -0.0097155003
-0.0056579215 -0.0091342311 -0.013230087
9.2752809e-05 -0.0024911538 -0.013970001
-0.0028753371 -0.0019375641 -9.6630407e-05
0.0080694947 -0.0071044019 -0.0021313913
0.0051014046 -0.010241411 -0.00028160866
-0.005843427 0.004336453 -9.6630407e-05
-9.2752809e-05 0.01005688 -0.00028160866
-0.0045448877 -0.0030447436 -9.6630407e-05
-0.0067709549 -0.0089497007 -0.00083654345
0.006399944 0.0059972224 -9.6630407e-05
0.001947809 0.0019375641 -9.6630407e-05
-0.0025043259 9.2264956e-05 -0.013970001
9.2752809e-05 -0.00064585468 -0.013970001
0.00027825843 -0.0080270516 -9.6630407e-05
0.0076984833 0.0048900428 -0.0087906085
-0.006399944 -0.0089497007 -0.010270435
0.0076984833 -0.004520983 -0.0062009133
0.0078839893 -0.0056281625 -0.0062009133
-0.0054724156 0.010795 -0.0087906085
-0.0071419664 -0.0013839743 -0.011565283
0.0073274719 -0.0087651713 -0.0043511307
0.0075129778 -0.00083038461 -0.0012065
0.0047303932 0.00083038461 0.0010132391
-0.0036173596 -0.01042594 -0.0030562826
0.0065854494 -0.0010149146 0.0019381305
-0.0025043259 0.0091342311 -9.6630407e-05
-0.0054724156 -0.0063662822 -9.6630407e-05
-0.0067709549 0.0037828633 0.0011982175
0.0038028653 0.0039673932 8.8347857e-05
-0.0013912922 0.009503291 -0.013785022
-0.0073274719 -0.0021220939 -0.0019464131
0.00046376404 -0.0098723508 -0.006015935
-0.0062144385 -0.0089497007 -0.012120218
9.2752809e-05 0.0023066239 -9.6630407e-05
0.0073274719 0.00046132479 -0.00083654345
-0.0041738763 -0.006919872 -0.013785022
-0.0078839893 0.0054436326 -0.0019464131
0.0069564609 -9.2264956e-05 -0.0082356744
-0.0025043259 -0.010241411 -0.0062009133
-0.001947809 0.010795 -0.00028160866
0.0041738763 0.0065508122 -9.6630407e-05
0.0078839893 0.0067353421 -0.006015935
-0.0080694947 -0.0078425212 -0.0071258047
0.0054724156 0.0098723508 -0.012860131
-0.0056579215 0.010795 -0.006015935
-0.0073274719 0.0017530342 -0.0019464131
-0.0078839893 0.0059972224 -0.00083654345
-0.0069564609 9.2264956e-05 -0.0015764565
-0.00083477527 -0.0080270516 -9.6630407e-05
0.0075129778 0.004520983 -0.012675152
-0.0076984833 -0.0052591027 -0.0045361086
-9.2752809e-05 0.010795 -0.00083654345
-0.006399944 0.0067353421 -0.013785022
-0.0034318541 -0.01042594 -0.012120218
0.0071419664 -0.0032292735 -0.013600044
0.0062144385 -0.0035983333 -0.013785022
-0.0069564609 -0.0011994444 -9.6630407e-05
-0.0052869101 0.0093187606 -0.013600044
0.0082550002 0.0096878204 -0.0065708696
0.00064926967 -0.0021220939 -9.6630407e-05
-0.0076984833 -0.0054436326 -0.011380305
0.0082550002 -0.0083961114 -0.005276022
0.0069564609 -9.2264956e-05 -0.006015935
-0.0080694947 -0.0096878204 -0.010455414
-0.0082550002 0.01042594 -0.0093455436
0.0076984833 0.0048900428 -0.006015935
-0.0030608426 0.010795 -0.0028713043
0.0069564609 0.00064585468 -0.0086056311
0.0071419664 -0.00027679486 0.0011982175
0.0041738763 -0.0059972224 -9.6630407e-05
-0.0076984833 -0.0087651713 -0.0058309566
-0.0045448877 -0.0041519231 -9.6630407e-05
0.0080694947 -0.0067353421 -0.012120218
-0.0082550002 0.0080270516 -0.010455414
-0.0038028653 0.0059972224 -0.013970001
0.0080694947 0.0083961114 -0.013415066
-0.0021333147 0.0076579917 -9.6630407e-05
-0.0017623034 0.010795 -0.0034262391
-0.005843427 -0.010610471 -0.00028160866
-0.0047303932 0.00027679486 0.0026780437
0.0078839893 0.006919872 -0.0097155003
0.0082550002 0.0098723508 -0.0037961956
-0.00046376404 -0.01005688 -0.0037961956
-0.0060289325 -0.0034138034 -9.6630407e-05
-0.006399944 0.0096878204 -0.00028160866
0.0047303932 0.0089497007 -9.6630407e-05
-0.0015767978 0.010795 -0.01193524
0.0041738763 -0.01042594 -0.0041661523
-0.0080694947 0.01042594 -0.0071258047
0.0076984833 -0.004336453 -0.0054609999
0.0013912922 0.010795 -0.0023163697
-0.0013912922 -0.01005688 -0.0047210869
0.00027825843 0.010795 -0.0021313913
-0.0047303932 0.0039673932 -9.6630407e-05
-0.0082550002 0.0091342311 -0.0015764565
0.005843427 -0.0091342311 -0.011010348
-0.0073274719 0.0023066239 -0.0067558479
0.0054724156 -0.009503291 -0.0071258047
0.0030608426 -0.0083961114 -0.013785022
-0.0028753371 -0.004336453 -9.6630407e-05
-0.0054724156 -0.010610471 -0.0074957609
0.00064926967 0.0098723508 -0.013415066
-0.0062144385 0.010795 -0.0062009133
-0.0073274719 -0.0087651713 -0.0074957609
-0.0032463484 -0.0035983333 -9.6630407e-05
0.0080694947 0.0078425212 -0.0062009133
0.0043593822 0.0026756837 -9.6630407e-05
-0.0076984833 -0.0050745727 -0.011380305
0.0065854494 0.010795 -0.006015935
-0.0073274719 0.0026756837 -0.0026863262
0.0043593822 -0.01042594 -0.0093455436
0.0080694947 0.0074734618 -0.00028160866
0.0030608426 -0.00083038461 -0.013785022
0.00064926967 0.010795 -0.006015935
-0.0069564609 -0.00046132479 -0.0037961956
0.0067709549 -0.0026756837 -0.013600044
-0.0039883708 0.008211581 -9.6630407e-05
0.0078839893 0.0059972224 -0.011195326
-0.0047303932 0.010795 -0.0023163697
0.0067709549 -0.0089497007 -0.0041661523
0.0076984833 0.0052591027 -0.0073107826
0.0062144385 -0.0089497007 -0.0058309566
-0.001947809 0.0063662822 -9.6630407e-05
0.0049158991 0.0037828633 -0.013785022
0.0017623034 0.010795 -0.0045361086
-0.0080694947 -0.0098723508 -0.0054609999
0.0012057865 -0.01005688 -0.0067558479
-0.00083477527 -0.0061817523 -9.6630407e-05
-0.0080694947 -0.01005688 -0.0049060653
0.0025043259 0.0019375641 -0.013970001
0.0065854494 0.0037828633 0.00064328266
-0.0080694947 -0.0072889319 -0.013415066
0.0078839893 -0.0061817523 -0.0034262391
-0.0071419664 0.010610471 -0.011565283
0.0078839893 0.0056281625 -0.003981174
-0.0056579215 -0.0093187606 -0.0056459783
0.0080694947 0.0071044019 -0.0073107826
0.0010202809 -0.0061817523 -9.6630407e-05
0.0078839893 -0.0052591027 -0.0043511307
0.0049158991 0.010795 -0.005276022
-9.2752809e-05 -0.0080270516 -0.013785022
-0.0080694947 0.006919872 -0.0076807393
-0.0082550002 -0.0089497007 -0.0013914782
0.0052869101 -0.010610471 -0.0089755869
0.0071419664 0.010795 -0.0062009133
0.0056579215 -0.0032292735 -0.013785022
-0.0082550002 -0.0083961114 -0.0036112175
0.0075129778 0.004336453 -0.0047210869
0.0073274719 -0.0023066239 -0.008050696
0.0080694947 0.006919872 -0.0023163697
-0.0065854494 0.008211581 -0.00028160866
-0.0062144385 -0.0011994444 0.0011982175
0.0032463484 -0.0037828633 -9.6630407e-05
-0.0073274719 0.0021220939 -0.012490174
-0.0075129778 0.0030447436 -0.0049060653
-0.0082550002 0.0085806409 -0.010085457
0.0082550002 0.0085806409 -0.0034262391
0.0076984833 -0.0019375641 -9.6630407e-05
-0.001947809 -0.009503291 -9.6630407e-05
-0.00064926967 -0.0098723508 -0.0030562826
0.0082550002 -0.0085806409 -0.0084206527
-0.0043593822 -0.0019375641 -0.013785022
-0.0076984833 -0.0054436326 -0.010455414
0.0071419664 -0.00027679486 -0.012120218
-0.0069564609 -0.00064585468 -0.0067558479
-0.0017623034 -0.0091342311 -0.013785022
0.0028753371 -0.0056281625 -0.013970001
0.0017623034 0.0093187606 -9.6630407e-05
0.0017623034 0.0026756837 -9.6630407e-05
-0.0010202809 -0.0050745727 -0.013970001
-0.0080694947 -0.00027679486 -0.00028160866
-0.0082550002 0.01042594 -0.0049060653
-0.0054724156 -0.01005688 -0.010270435
-0.001947809 9.2264956e-05 -9.6630407e-05
-0.0036173596 0.010795 -0.0026863262
-0.0054724156 -0.0096878204 -0.008050696
0.0076984833 -0.0041519231 -0.012120218
0.0073274719 0.0017530342 -0.0023163697
-0.0078839893 -0.0059972224 -0.0065708696
0.0043593822 0.0080270516 -9.6630407e-05
0.0039883708 0.0091342311 -9.6630407e-05
-0.0067709549 0.0021220939 -9.6630407e-05
-0.0023188202 -0.0063662822 -0.013970001
0.0073274719 -0.0024911538 -0.0015764565
0.0039883708 -0.0072889319 -0.013785022
-0.0049158991 -0.010610471 -0.0084206527
-0.0080694947 0.0076579917 -0.013600044
0.0071419664 0.01042594 -0.00028160866
-0.0023188202 0.010795 -0.0069408263
-0.0078839893 -0.006919872 -0.011010348
-0.0080694947 0.0065508122 -0.0028713043
-0.0082550002 0.0080270516 -0.0041661523
-0.0069564609 -0.00064585468 -0.0054609999
0.0078839893 0.0059972224 -0.0086056311
-0.0039883708 -0.01042594 -0.0073107826
-0.0043593822 -0.0050745727 -0.013785022
0.0065854494 -0.010795 -0.0091605652
0.0075129778 0.0041519231 -0.010640391
-0.0025043259 -0.0072889319 -9.6630407e-05
-0.0041738763 -0.00046132479 -9.6630407e-05
0.0039883708 0.0028602136 -0.013785022
0.0052869101 -0.0085806409 -0.013785022
0.0039883708 0.0039673932 0.00045830439
-0.0080694947 -0.0098723508 -0.00083654345
-0.0073274719 -0.0028602136 -0.011010348
0.0078839893 -0.0063662822 -9.6630407e-05
0.0047303932 0.010795 -0.010455414
-0.0043593822 -0.0074734618 -0.013785022
-0.0036173596 0.0076579917 -9.6630407e-05
0.0075129778 -0.0030447436 -0.012120218
0.0078839893 0.0059972224 -0.0010215217
-0.0076984833 -0.0039673932 -0.013415066
0.0071419664 -0.00083038461 -0.011565283
-0.0076984833 0.0041519231 -0.013045109
0.0047303932 0.006919872 -0.013785022
-0.0078839893 -0.0052591027 -0.0013914782
0.0071419664 0.0015685043 -0.010085457
-0.0080694947 -0.0072889319 -0.0087906085
0.0071419664 0.0013839743 -0.0034262391
0.0052869101 -0.01042594 -0.010640391
-0.0054724156 -0.0023066239 -9.6630407e-05
0.0082550002 0.0083961114 -0.0069408263
0.0080694947 -0.0067353421 -0.011195326
-0.0025043259 0.010241411 -0.012860131
0.0065854494 0.010795 -0.0019464131
-0.0049158991 -0.010610471 -0.003981174
0.0075129778 -0.0034138034 -0.0073107826
0.00046376404 0.0037828633 -0.013970001
0.0023188202 -0.010241411 -0.0082356744
0.0038028653 -0.0010149146 -0.013785022
-0.0080694947 0.006919872 -0.005276022
0.0062144385 0.0054436326 -9.6630407e-05
0.0082550002 0.0089497007 -0.0010215217
0.0075129778 -0.0032292735 -0.0073107826
-0.0078839893 0.008211581 -0.00028160866
0.0026898314 0.010795 -0.0045361086
0.005843427 -0.0089497007 -0.0084206527
0.0049158991 -0.0072889319 -0.013785022
0.0076984833 -0.0050745727 -0.011565283
-0.0026898314 -0.0028602136 -9.6630407e-05
-0.0041738763 -0.0019375641 -9.6630407e-05
0.0069564609 0.00083038461 -0.005276022
0.0039883708 0.0096878204 -0.013785022
-0.0073274719 0.0093187606 -0.012675152
0.0047303932 0.00083038461 0.0024930653
-0.005843427 -0.0089497007 -0.011750261
-0.0034318541 0.0039673932 -9.6630407e-05
0.0073274719 0.0024911538 -0.006015935
0.00027825843 0.0089497007 -9.6630407e-05
-0.0073274719 0.010610471 -0.0041661523
-0.0032463484 -0.0091342311 0.0024930653
0.0071419664 0.0015685043 -0.013230087
0.0069564609 0.010795 -0.00065156521
-0.0065854494 0.010610471 -0.0025013478
-0.0010202809 -0.0019375641 -9.6630407e-05
0.0056579215 -0.0065508122 0.0010132391
-0.0082550002 0.0080270516 -0.0086056311
0.0076984833 0.0039673932 -0.0015764565
-0.0028753371 0.0058126925 -9.6630407e-05
-0.0054724156 -0.0028602136 -0.013785022
-0.0078839893 -0.0067353421 -0.01193524
-0.0036173596 -0.008211581 -9.6630407e-05
0.0052869101 -0.010241411 -0.010455414
-0.0015767978 -0.00083038461 -9.6630407e-05
0.0034318541 -0.010241411 -0.0025013478
0.0080694947 0.01042594 -0.013045109
-0.0052869101 0.0037828633 -9.6630407e-05
-0.0069564609 -0.00046132479 -0.011010348
0.0082550002 -0.0087651713 -0.01193524
0.0017623034 0.00046132479 -9.6630407e-05
0.005843427 0.010795 -0.01082537
0.0067709549 0.00027679486 0.0026780437
-0.0052869101 -0.0071044019 -0.013785022
-0.0049158991 -0.010610471 -0.00028160866
0.0054724156 -0.01042594 -0.0043511307
0.0073274719 -0.0061817523 -9.6630407e-05
0.0069564609 -0.0050745727 -9.6630407e-05
0.0052869101 0.0059972224 -0.013785022
0.0052869101 -0.0011994444 0.00082826091
0.0069564609 9.2264956e-05 -0.0058309566
0.0078839893 -0.0061817523 -0.0074957609
-0.0036173596 0.0023066239 -9.6630407e-05
-0.0073274719 -0.0026756837 -0.0087906085
-0.0013912922 0.010795 -0.01082537
0.0067709549 -0.0054436326 -9.6630407e-05
0.0080694947 -0.0067353421 -0.003241261
0.0026898314 0.0063662822 -9.6630407e-05
0.0034318541 -0.0080270516 -0.013785022
-0.0076984833 0.0039673932 -0.013045109
-0.0080694947 0.0050745727 -0.00046658693
0.0080694947 0.008211581 -0.0054609999
-0.0041738763 0.0032292735 -9.6630407e-05
0.0054724156 -0.009503291 -0.011565283
0.0071419664 -0.00083038461 -0.011750261
0.0082550002 0.009503291 -0.00083654345
-0.0080694947 0.0065508122 -0.01082537
-0.0075129778 -0.0035983333 -0.011565283
0.0026898314 0.0065508122 -9.6630407e-05
-0.0028753371 0.010795 -0.005276022
-0.0078839893 -0.0063662822 -0.008050696
0.006399944 0.010795 -0.0045361086
0.0056579215 0.0048900428 -9.6630407e-05
0.0078839893 0.010610471 -0.0069408263
-0.0075129778 -0.0063662822 -9.6630407e-05
-0.0023188202 -0.010241411 -0.0089755869
0.0034318541 -0.0035983333 -0.013970001
-0.0075129778 0.006919872 -9.6630407e-05
-0.0032463484 -0.0010149146 -9.6630407e-05
0.0082550002 0.0085806409 -0.0037961956
-0.0034318541 -0.0050745727 -9.6630407e-05
-0.0080694947 -0.0071044019 -0.0097155003
0.0078839893 0.0063662822 -0.0071258047
-0.0060289325 0.01005688 -0.00028160866
-0.0065854494 0.0037828633 0.00027332612
0.0080694947 0.0078425212 -0.0084206527
0.0075129778 0.0028602136 -0.0012065
-0.0075129778 -0.0028602136 -0.0012065
0.0043593822 0.004336453 -9.6630407e-05
0.0021333147 -0.01005688 -0.012120218
-0.0054724156 0.0093187606 -0.013045109
-0.0015767978 0.0035983333 -9.6630407e-05
0.0051014046 -0.0061817523 -9.6630407e-05
0.0071419664 -0.0054436326 -0.013600044
-0.0025043259 0.0039673932 -0.013970001
-0.0078839893 0.0054436326 -0.012120218
0.0082550002 -0.0023066239 -0.00083654345
0.0080694947 0.0058126925 -0.013600044
-0.00046376404 -0.0023066239 -9.6630407e-05
0.0082550002 -0.0085806409 -0.0013914782
0.00027825843 0.0098723508 -0.013785022
-0.0012057865 0.008211581 -9.6630407e-05
0.0073274719 -0.0052591027 -9.6630407e-05
-0.0030608426 -0.0063662822 -0.013785022
-0.0012057865 0.010795 -0.00046658693
0.0045448877 -0.0058126925 -9.6630407e-05
0.0034318541 0.010795 -0.0012065
0.0012057865 -0.0015685043 -9.6630407e-05
-0.0078839893 0.0059972224 -0.0013914782
0.0039883708 -0.00046132479 -0.013785022
0.0076984833 0.0054436326 -0.0045361086
-0.0080694947 0.0071044019 -0.013045109
0.001947809 0.010241411 -0.012490174
0.0078839893 0.0059972224 -0.0076807393
0.0069564609 0.0010149146 -0.013600044
0.0076984833 0.0052591027 -0.0097155003
0.00046376404 0.0096878204 -9.6630407e-05
-0.0045448877 -0.004336453 -9.6630407e-05
0.00027825843 0.010795 -0.0050910437
-0.0082550002 -0.0083961114 -0.0069408263
-0.0078839893 0.0059972224 -0.013600044
-0.0076984833 -0.0058126925 -0.0063858912
-0.0056579215 -0.0093187606 -0.003241261
0.0054724156 -0.0093187606 -0.010455414
-0.0075129778 -0.0039673932 -0.010270435
-0.0015767978 0.0063662822 -0.013970001
0.0080694947 -0.0063662822 -0.010270435
0.0075129778 0.0037828633 -0.006015935
-0.0073274719 -0.0017530342 -0.0010215217
-0.0078839893 -0.0061817523 -0.010270435
-0.0023188202 -0.010241411 -0.012860131
-0.0015767978 0.010795 -0.0047210869
-0.0073274719 -0.0023066239 -0.013600044
0.0036173596 0.010795 -0.0019464131
0.0076984833 -0.004520983 -0.011565283
-0.0082550002 -0.0089497007 -0.0076807393
-0.0071419664 -0.0019375641 -0.0037961956
-0.0047303932 0.009503291 -9.6630407e-05
-0.0017623034 -0.0071044019 -0.013785022
0.0036173596 -0.0010149146 -9.6630407e-05
-0.0038028653 0.0041519231 -0.013970001
-0.0026898314 -0.010241411 -0.0062009133
-0.0073274719 -0.0030447436 -0.00083654345
-0.006399944 -0.0080270516 -0.013600044
0.0025043259 -0.0085806409 -9.6630407e-05
-0.0073274719 -0.0034138034 -0.003981174
-0.0026898314 0.010795 -0.0082356744
0.0039883708 0.010795 -0.0013914782
0.00064926967 -0.0078425212 -9.6630407e-05
-0.00083477527 0.0056281625 -9.6630407e-05
0.0075129778 0.010610471 -0.0041661523
0.0054724156 -0.0056281625 -0.013785022
0.0028753371 -0.0093187606 -0.013785022
-0.0080694947 -0.0034138034 -0.00028160866
-0.0082550002 0.0093187606 -0.010640391
-0.0025043259 0.0034138034 -9.6630407e-05
0.0075129778 0.010610471 -0.011380305
-0.0023188202 0.010795 -0.0025013478
-0.00027825843 -0.0059972224 -0.013970001
-0.0073274719 -0.0023066239 -0.005276022
0.0051014046 -0.010610471 -0.0063858912
0.0071419664 0.00046132479 -0.0026863262
0.0071419664 -0.0010149146 -0.0028713043
0.0069564609 0.00083038461 -0.0062009133
0.0076984833 -0.0039673932 -0.0087906085
0.0010202809 -0.0071044019 -0.013970001
0.0067709549 -9.2264956e-05 -0.013785022
0.0056579215 -0.0063662822 0.00045830439
-0.0075129778 0.0030447436 -0.0078657176
-0.0028753371 0.0056281625 -0.013970001
0.0032463484 0.010795 -0.0037961956
-0.0071419664 0.0013839743 -0.0076807393
0.0082550002 0.0093187606 -0.0036112175
-0.0054724156 -0.01042594 -0.0087906085
0.0052869101 0.0059972224 -9.6630407e-05
0.0078839893 0.0087651713 -0.00028160866
0.0047303932 -0.01042594 -0.010085457
0.0082550002 -0.0080270516 -0.0071258047
0.0073274719 0.0024911538 -0.012860131
-0.0015767978 0.009503291 -9.6630407e-05
-0.0032463484 0.0076579917 -0.013785022
-0.0076984833 -0.0056281625 -0.003241261
-0.0078839893 0.0061817523 -0.0030562826
-0.0062144385 0.010795 -0.0049060653
0.0028753371 0.004336453 -9.6630407e-05
-0.0071419664 -0.0087651713 -0.0069408263
0.0075129778 0.0032292735 -0.0034262391
-0.0080694947 -0.0096878204 -0.0065708696
0.0052869101 0.010241411 -0.013600044
-0.0043593822 -0.0024911538 -9.6630407e-05
0.0021333147 -0.0059972224 -0.013970001
-0.0078839893 0.0052591027 -0.0073107826
-0.005843427 0.00027679486 0.0026780437
-0.0045448877 -0.00064585468 0.0024930653
0.0051014046 0.0034138034 -9.6630407e-05
-0.0069564609 9.2264956e-05 -0.013415066
-0.0073274719 0.0023066239 -0.0069408263
0.0082550002 0.01005688 -0.01082537
0.006399944 -0.0089497007 -0.011195326
-0.0073274719 0.0019375641 -0.0050910437
-0.0051014046 -0.010610471 -0.0025013478
0.0073274719 -0.0087651713 -0.0054609999
-0.0082550002 -0.0050745727 -0.00028160866
0.005843427 -0.0047055129 -0.013785022
0.0080694947 0.01042594 -0.012120218
-0.001947809 -0.0076579917 -9.6630407e-05
-0.0017623034 0.0063662822 -9.6630407e-05
0.0036173596 -0.01042594 -0.0062009133
-0.0075129778 0.010610471 -0.0045361086
0.0080694947 -0.0087651713 -0.012675152
-0.0038028653 -0.01042594 -0.0076807393
-0.00064926967 -0.0021220939 -9.6630407e-05
0.00083477527 -0.0011994444 -0.013970001
-0.0041738763 -0.010610471 -0.00028160866
0.006399944 0.0089497007 -0.012860131
-0.006399944 0.0037828633 0.002308087
0.0082550002 0.0058126925 -0.00065156521
0.006399944 0.010795 -0.0023163697
-0.0075129778 -0.004336453 -0.0091605652
0.0052869101 -0.0030447436 -0.013785022
-0.005843427 -0.0089497007 -0.010455414
0.00046376404 0.010795 -0.0086056311
0.0030608426 -0.010241411 -0.0084206527
-0.0082550002 0.01042594 -0.0063858912
0.0041738763 0.010795 -0.011565283
-0.0080694947 0.0011994444 -0.00028160866
9.2752809e-05 -0.0098723508 -9.6630407e-05
0.0071419664 0.0021220939 -0.0093455436
0.0071419664 -0.010795 -0.00046658693
0.0056579215 -0.0089497007 -0.0058309566
-0.0073274719 0.010610471 -0.011565283
0.0012057865 -0.01005688 -0.0017614348
-0.0082550002 0.0091342311 -0.011380305
-0.005843427 -0.0091342311 0.001568174
0.0082550002 0.0089497007 -0.011565283
0.005843427 -0.0091342311 -0.01193524
0.0051014046 0.0010149146 0.0026780437
0.0075129778 -0.0028602136 -0.0093455436
0.0041738763 0.010795 -0.0067558479
-0.00064926967 -0.0071044019 -0.013785022
0.0054724156 0.0054436326 -9.6630407e-05
-0.0038028653 -0.01042594 -0.0028713043
-0.0080694947 -0.0074734618 -0.0099004786
-0.0052869101 0.0067353421 -0.013785022
0.0082550002 0.0098723508 -0.005276022
0.0054724156 -0.01005688 -0.0041661523
-0.0073274719 -0.0026756837 -0.0097155003
0.0071419664 -0.0010149146 -0.0050910437
0.0030608426 -0.0041519231 -0.013970001
0.0078839893 0.0065508122 -0.011750261
0.0034318541 0.0037828633 -0.013785022
-0.0082550002 -0.0083961114 -0.01082537
0.001947809 0.0050745727 -9.6630407e-05
0.0082550002 0.0085806409 -9.6630407e-05
0.0076984833 0.0048900428 -0.011750261
0.0060289325 0.00064585468 0.0026780437
0.0021333147 0.010795 -0.0023163697
-0.0023188202 0.010795 -0.0049060653
0.0052869101 -0.010241411 -0.008050696
0.0075129778 -0.0034138034 -0.0074957609
-0.005843427 -0.0032292735 -9.6630407e-05
0.0082550002 -0.0083961114 -0.010455414
0.0032463484 -0.0076579917 -9.6630407e-05
-0.0082550002 0.0096878204 -0.0062009133
-0.0041738763 0.00046132479 -0.013785022
-0.0054724156 -0.009503291 -0.0028713043
-0.0032463484 0.010795 -0.011195326
-0.0023188202 -0.0096878204 -0.013785022
0.00083477527 0.0098723508 -0.012675152
-0.006399944 0.010795 -0.011195326
-0.0073274719 -0.0024911538 -0.005276022
0.0073274719 0.00027679486 -9.6630407e-05
0.0067709549 -0.0089497007 -0.0065708696
-0.0069564609 -0.0021220939 -9.6630407e-05
-0.005843427 0.010795 -0.005276022
-0.0071419664 -0.0087651713 -0.0095305219
0.0025043259 -0.0028602136 -0.013970001
-0.0047303932 0.00046132479 0.00064328266
0.0034318541 0.0015685043 -9.6630407e-05
0.0080694947 -0.0071044019 -0.006015935
-0.0056579215 0.0037828633 -9.6630407e-05
0.0049158991 0.01042594 -0.013600044
0.0010202809 -9.2264956e-05 -9.6630407e-05
0.0076984833 0.0047055129 -0.010270435
-0.0078839893 -0.0087651713 -0.0058309566
-0.0030608426 -0.010241411 -0.0067558479
0.0062144385 0.0047055129 -0.013785022
-0.0065854494 0.006919872 -9.6630407e-05
0.0073274719 -0.0037828633 -0.013600044
-0.0054724156 -0.0019375641 -9.6630407e-05
-0.0028753371 -0.0071044019 -0.013785022
0.0065854494 -0.0089497007 -0.005276022
-0.0075129778 -0.004520983 -0.0086056311
-0.0071419664 0.0011994444 -0.0017614348
-0.001947809 -0.006919872 -9.6630407e-05
-0.0076984833 0.0047055129 -0.013600044
0.00027825843 -0.0056281625 -9.6630407e-05
0.0026898314 -0.0078425212 -0.013785022
-9.2752809e-05 -0.0011994444 -0.013970001
-0.0036173596 -0.0041519231 -9.6630407e-05
-0.0073274719 -0.0017530342 -0.0012065
0.0060289325 -0.0013839743 0.00082826091
0.0082550002 0.0085806409 -0.0065708696
-0.0012057865 0.0058126925 -0.013970001
0.0078839893 -0.0028602136 -0.0012065
0.0051014046 -0.0050745727 -9.6630407e-05
-0.0069564609 -0.00064585468 -0.0095305219
-0.0012057865 0.0017530342 -0.013970001
-0.0075129778 -0.0037828633 -0.0019464131
-0.00064926967 -0.01005688 -0.011380305
-0.0069564609 9.2264956e-05 -0.013045109
0.0073274719 0.0030447436 -0.0074957609
0.0078839893 0.0059972224 -0.0028713043
-0.0010202809 0.00083038461 -0.013970001
-0.0073274719 -0.0087651713 -0.0062009133
0.0052869101 0.0024911538 -0.013785022
0.0082550002 0.0085806409 -0.0050910437
0.0043593822 0.010795 -0.003981174
-0.0080694947 0.0067353421 -0.010085457
-0.0075129778 0.0037828633 -0.0087906085
0.0065854494 -0.0089497007 -0.013785022
0.0054724156 0.010795 -0.0012065
-0.001947809 -0.0093187606 -9.6630407e-05
0.0052869101 0.010795 -0.00028160866
0.0069564609 0.00064585468 -0.0069408263
-0.0076984833 0.0087651713 -0.00028160866
0.0054724156 -0.01005688 -0.0015764565
0.0015767978 -0.01005688 -0.0012065
-0.0071419664 -0.0013839743 -0.010640391
0.0012057865 0.0011994444 -9.6630407e-05
-0.00027825843 0.010795 -0.0034262391
-0.0075129778 -0.0037828633 -0.012120218
-0.0067709549 0.010610471 -0.0073107826
0.0051014046 0.0089497007 -9.6630407e-05
-0.0075129778 -0.0037828633 -0.0028713043
0.0026898314 0.010241411 -0.012675152
0.00064926967 -0.0065508122 0.00045830439
0.0080694947 0.010241411 -0.0023163697
-0.0047303932 0.008211581 -9.6630407e-05
0.00027825843 0.010795 -0.008050696
0.0047303932 0.004336453 -9.6630407e-05
0.0076984833 -0.0039673932 -0.012120218
-0.0069564609 -0.00064585468 -0.005276022
-0.0034318541 0.0011994444 -9.6630407e-05
0.0054724156 -0.0093187606 -0.0050910437
-0.0076984833 0.0039673932 -0.00065156521
0.0051014046 0.004520983 -9.6630407e-05
-0.0073274719 0.0021220939 -0.0023163697
-0.0073274719 0.0017530342 -0.013785022
-0.0026898314 0.009503291 -0.013785022
-0.005843427 -0.0089497007 -0.0026863262
0.0073274719 0.0034138034 -0.0063858912
0.0043593822 -0.0091342311 0.0021231088
0.0013912922 -0.0076579917 -0.013785022
-0.001947809 0.0093187606 -0.013785022
-0.0073274719 -0.0032292735 -0.011750261
-0.0069564609 -0.00064585468 -0.010085457
-0.0080694947 0.0071044019 -0.011010348
-0.0073274719 0.0087651713 -0.013415066
-0.0049158991 -0.00083038461 0.0026780437
-0.0069564609 9.2264956e-05 -0.011010348
-0.0073274719 0.0021220939 -0.0063858912
0.0032463484 0.0089497007 -9.6630407e-05
0.0078839893 -0.0061817523 -0.012120218
-0.0075129778 0.0017530342 -0.00028160866
0.0071419664 -0.004336453 -0.013600044
0.005843427 0.010795 -9.6630407e-05
0.0047303932 0.0021220939 -9.6630407e-05
-0.0047303932 0.0071044019 -9.6630407e-05
-0.0071419664 0.00027679486 -0.005276022
-0.0054724156 -0.0048900428 -0.013785022
-0.0023188202 0.0034138034 -0.013970001
0.0078839893 -0.0059972224 -0.0043511307
-0.0039883708 0.01005688 -0.00028160866
-0.0078839893 0.0061817523 -0.0045361086
0.0021333147 -0.009503291 -0.013785022
0.0078839893 -0.0058126925 -0.0076807393
0.0028753371 -0.010241411 -0.0091605652
-0.0056579215 -0.0091342311 -0.01082537
-0.0069564609 -0.00046132479 -0.012120218
-0.0056579215 0.010795 -0.011565283
0.0075129778 0.0028602136 -0.0021313913
0.00064926967 -0.0065508122 0.002308087
-0.0023188202 0.010795 -0.01193524
0.0067709549 0.00083038461 -9.6630407e-05
-0.0075129778 0.0032292735 -0.010455414
0.0054724156 -0.01005688 -0.0034262391
-0.0051014046 -0.0091342311 -0.013785022
0.0052869101 0.010795 -0.01082537
0.0082550002 0.0093187606 -0.0082356744
0.0032463484 0.010241411 -0.012860131
-0.0078839893 0.0083961114 -0.00028160866
0.0039883708 -0.0074734618 -0.013785022
0.00083477527 0.0052591027 -0.013970001
0.00046376404 0.0098723508 -0.013600044
0.0032463484 -0.0067353421 0.0019381305
0.0032463484 -0.0065508122 0.00045830439
0.00064926967 0.0035983333 -0.013970001
0.0056579215 0.010795 -0.0012065
0.0043593822 -9.2264956e-05 0.0019381305
0.0047303932 0.0041519231 -9.6630407e-05
-0.0062144385 0.0065508122 -9.6630407e-05
0.0071419664 0.010795 -0.010640391
-0.0060289325 0.0089497007 -0.013045109
0.00046376404 0.010795 -0.0062009133
-0.0039883708 -0.0041519231 -0.013785022
-0.0082550002 0.0076579917 -0.010455414
-0.0069564609 -0.0019375641 -9.6630407e-05
-0.0060289325 0.010795 -0.0065708696
-0.0045448877 -0.01042594 -0.0047210869
-0.0054724156 -0.010241411 -0.008050696
-0.0054724156 -0.01042594 -0.00083654345
0.0028753371 -0.0072889319 -0.013785022
0.0076984833 -0.0050745727 -0.010455414
0.0078839893 0.0065508122 -0.0069408263
0.0017623034 -0.01005688 -0.011750261
-0.0056579215 0.010795 -0.00065156521
-0.0080694947 -0.008211581 -0.010270435
-0.0062144385 -0.00027679486 -0.013785022
-0.0062144385 -0.0065508122 -0.013785022
-0.0012057865 0.010795 -0.0091605652
-0.0071419664 -0.0021220939 -0.013600044
-0.0054724156 -0.01005688 -0.006015935
0.0076984833 -0.0050745727 -0.0089755869
-0.0080694947 0.0052591027 -0.013415066
0.0067709549 -0.00083038461 0.00064328266
-0.0075129778 0.010610471 -0.0069408263
-0.00083477527 -0.0098723508 -0.0086056311
0.0075129778 0.0024911538 -9.6630407e-05
0.0075129778 -0.0034138034 -0.0036112175
-0.0012057865 0.010795 -0.0099004786
0.0080694947 0.0078425212 -0.013415066
-0.0026898314 0.0078425212 -9.6630407e-05
-0.0080694947 -0.0063662822 -0.013600044
-0.0062144385 -0.0056281625 -0.013785022
-0.0080694947 0.006919872 -0.0045361086
-0.0054724156 -0.0032292735 -0.013785022
-0.0034318541 -0.008211581 -9.6630407e-05
0.0073274719 -0.0015685043 -0.0054609999
-0.0073274719 0.0074734618 -9.6630407e-05
0.0026898314 -0.004520983 -9.6630407e-05
-0.0039883708 0.0034138034 -9.6630407e-05
-0.001947809 -0.0061817523 -9.6630407e-05
-0.0071419664 -0.0013839743 -0.0043511307
0.0076984833 0.004520983 -0.0030562826
-0.00027825843 0.010795 -0.011750261
0.0023188202 -0.010241411 -0.012490174
-9.2752809e-05 0.010795 -0.0065708696
0.0073274719 -0.0024911538 -0.0041661523
0.0013912922 0.0021220939 -9.6630407e-05
-0.0073274719 0.0026756837 -0.0017614348
0.0039883708 0.01005688 -0.013600044
0.0071419664 0.0011994444 -0.0034262391
0.0065854494 0.0030447436 -9.6630407e-05
-0.0082550002 0.0091342311 -0.010640391
0.0017623034 0.0048900428 -0.013970001
-0.0021333147 -0.01005688 -0.0058309566
0.0078839893 0.010610471 -0.0019464131
0.00064926967 -0.0074734618 -9.6630407e-05
-0.0065854494 -0.0054436326 -0.013785022
0.0082550002 0.0083961114 -0.0071258047
-0.0036173596 0.0024911538 -0.013970001
-0.0017623034 -0.0041519231 -9.6630407e-05
0.0069564609 -0.0087651713 -0.0073107826
0.0075129778 -0.0058126925 -0.013600044
-0.0054724156 0.0098723508 -9.6630407e-05
-0.0076984833 0.0039673932 -0.010270435
-0.0073274719 0.0017530342 -0.008050696
0.0071419664 -0.0011994444 -0.0015764565
0.0080694947 -0.0087651713 -0.012490174
-0.0080694947 0.0071044019 -0.011380305
-0.0069564609 -0.00046132479 -0.010270435
-0.0076984833 0.0039673932 -0.0045361086
-0.0030608426 -0.0072889319 -0.013785022
0.0073274719 0.0026756837 -0.0095305219
-0.00083477527 -0.0089497007 8.8347857e-05
0.0041738763 0.010795 -0.003241261
-0.0021333147 -0.008211581 -0.013785022
-0.0078839893 0.0037828633 -0.013415066
0.001947809 -0.01005688 -0.0012065
-0.0034318541 0.010795 -0.0069408263
-0.0015767978 0.0059972224 -0.013970001
0.0036173596 0.010610471 -0.012305196
-0.0069564609 0.0087651713 -0.013600044
-0.0052869101 0.010795 -0.0093455436
0.0076984833 -0.004336453 -0.0084206527
-0.0082550002 0.0096878204 -0.01193524
-0.00046376404 -0.0026756837 -0.013970001
0.0026898314 -0.0089497007 -0.013785022
-0.0021333147 0.01042594 -0.00028160866
-0.0047303932 0.010795 -0.0026863262
0.001947809 0.00046132479 -0.013970001
-0.0025043259 -9.2264956e-05 -0.013970001
0.005843427 0.006919872 -9.6630407e-05
-0.0076984833 -0.0052591027 -0.011195326
-0.001947809 0.010795 -0.0030562826
-0.0034318541 0.0071044019 -0.013785022
-0.0073274719 0.0021220939 -0.0012065
-0.0021333147 -0.0059972224 -0.013970001
0.0082550002 0.01005688 -0.0095305219
-0.0082550002 -0.0076579917 -9.6630407e-05
-0.0080694947 0.0072889319 -0.0097155003
0.0025043259 -0.010241411 -0.012860131
-0.0062144385 -0.0089497007 -0.00028160866
0.0073274719 -0.0021220939 -0.0086056311
0.0015767978 -0.01005688 -0.0084206527
-0.0069564609 -0.00046132479 -0.0058309566
0.0047303932 0.0017530342 -9.6630407e-05
-0.0041738763 0.0034138034 -0.013970001
-0.0073274719 0.0023066239 -0.0028713043
-0.0082550002 -0.0085806409 -0.003241261
-0.0049158991 -0.0085806409 -9.6630407e-05
0.0049158991 0.010795 -0.0043511307
-0.0082550002 -0.0080270516 -0.0028713043
-0.0047303932 -0.010610471 -0.00083654345
0.0082550002 -0.0078425212 -0.013415066
0.0043593822 0.0021220939 -9.6630407e-05
-0.0041738763 0.0015685043 -0.013970001
-0.0075129778 0.010610471 -0.0078657176
0.005843427 0.010795 -0.00083654345
-0.0071419664 0.0067353421 -9.6630407e-05
-0.0047303932 -0.01005688 -9.6630407e-05
0.005843427 0.00083038461 0.0026780437
-0.0039883708 0.010795 -0.0050910437
0.006399944 -0.0056281625 -9.6630407e-05
-0.0078839893 0.0058126925 -0.0063858912
0.0015767978 -0.0048900428 -0.013970001
0.0034318541 -0.010241411 -0.003241261
-0.0071419664 0.0013839743 -0.0058309566
0.0075129778 0.0041519231 -0.012860131
0.0069564609 0.00046132479 0.001568174
-0.0013912922 0.0026756837 -0.013970001
0.0078839893 -0.0078425212 -9.6630407e-05
0.0080694947 -0.0067353421 -0.0025013478
-0.0043593822 0.01042594 -0.013415066
-0.0045448877 0.010795 -0.00028160866
-0.0069564609 -0.00046132479 -0.0078657176
0.0010202809 -0.01005688 -0.010270435
-0.0075129778 -0.0039673932 -0.0076807393
-0.0034318541 -0.010241411 -0.0054609999
-0.0026898314 0.004520983 -0.013970001
0.0036173596 -0.004520983 -0.013970001
-0.0049158991 -0.0074734618 -0.013785022
0.0069564609 0.0010149146 -0.012490174
0.0071419664 -0.0013839743 -0.0021313913
0.0080694947 -0.0067353421 -0.0026863262
-0.0054724156 -0.0098723508 -0.0030562826
-0.0015767978 -0.004336453 -0.013970001
0.0021333147 -0.0028602136 -0.013970001
-0.0034318541 -0.010241411 -0.0023163697
0.0069564609 0.006919872 -0.013600044
-0.00046376404 -0.0091342311 0.0011982175
0.0032463484 0.0093187606 -0.013785022
-0.0071419664 -0.0087651713 -0.010270435
0.0010202809 0.010795 -0.0015764565
-0.0080694947 -0.0072889319 -0.0089755869
0.0071419664 0.0011994444 -0.0093455436
-0.0082550002 0.0083961114 -0.0019464131
-0.0032463484 -0.0072889319 -9.6630407e-05
0.0071419664 -0.00046132479 -0.011750261
0.0023188202 -0.0017530342 -9.6630407e-05
-0.0043593822 0.010795 -0.0073107826
-0.0026898314 -0.0091342311 -0.013785022
-0.0073274719 0.0026756837 -0.0095305219
-0.0013912922 -0.0091342311 -9.6630407e-05
-0.0082550002 -0.0085806409 -0.0054609999
0.0076984833 -0.004336453 -0.012305196
0.0076984833 0.0050745727 -0.0010215217
-0.0025043259 0.0096878204 -0.013600044
-0.0036173596 0.0010149146 -9.6630407e-05
-0.0043593822 0.010795 -0.0023163697
0.0080694947 -0.0050745727 -9.6630407e-05
0.006399944 0.0028602136 -0.013785022
0.0071419664 0.00046132479 -0.0017614348
-0.0060289325 0.010795 -0.0054609999
0.0082550002 0.0098723508 -0.00028160866
-0.0043593822 -0.01042594 -0.0065708696
-0.0071419664 -0.0054436326 -0.013600044
