# .PCD v0.7 - Point Cloud Data file format
VERSION 0.7
FIELDS x y z
SIZE 4 4 4
TYPE F F F
COUNT 1 1 1
WIDTH 1279
HEIGHT 1
VIEWPOINT 0 0 0 1 0 0 0
POINTS 1279
DATA ascii
-0.000474 -6.4e-05 -0.0046731709
-0.0022436001 -0.001472 -0.00048780497
-0.0012956 -0.001344 -0.001185366
0.0022436001 0.001088 -0.0046731709
-0.0015484 -0.00019200001 -0.0046731709
-0.00041080001 0.00128 -0.0046097562
0.003002 -0.000512 -0.0046731709
-0.0037604 0.00019200001 -0.00010731715
-0.0012324 0.001152 -4.3902517e-05
-0.00028440001 0.00128 -0.00099512201
-0.0033179999 0.00070400001 -0.0029609757
0.0021172001 -0.00044800001 -4.3902517e-05
0.0028124 -0.001088 -0.0023268294
-0.001422 0.00128 -0.0023268294
0.0037604 -0.000256 -0.00036097568
-0.00041080001 0.00128 -0.0039756098
-0.0028756 0.000512 -4.3902517e-05
9.4800002e-05 0.00128 -0.0020097562
0.002686 -0.001152 -0.0042292685
-0.0022436001 0.00128 -0.00042439034
-0.00053720002 0.00128 -0.0030878051
0.00091639999 -0.001344 -0.0010585367
-0.0007268 0.00128 -0.0040390245
-0.0018012 -0.001344 -0.0032146343
0.0016116 0.001472 -0.00017073179
0.0012324 -0.00128 -0.0046097562
0.0035707999 -0.00031999999 -0.0023268294
-0.0034443999 -0.00076800003 -0.0025804879
0.00085319998 -0.001472 -0.00023414643
-0.003634 -0.00095999998 -0.00017073179
-9.4800002e-05 -0.001344 -0.0040390245
0.003634 -0.00063999998 -0.00036097568
0.0033179999 -0.00063999998 -0.0022634147
0.00085319998 0.00128 -0.0011219513
-0.0036972 0.00031999999 -0.00017073179
0.0002212 -0.001344 -0.0027073172
-0.0002212 -0.001344 -0.0032146343
-0.001738 0.00128 -0.0034048783
-0.000158 -0.001344 -0.0014390245
0.0035707999 -0.000256 -0.003785366
-0.0035075999 -0.00063999998 -0.0023268294
0.0019908 0.00128 -0.0043560979
0.0024331999 -0.001472 -0.00029756106
0.00053720002 0.00057600002 -4.3902517e-05
-0.002054 -0.00128 -0.0028341464
-0.0028756 0.001088 -0.0011219513
-0.0031284001 -0.00038400001 -0.0046731709
0.0031284001 0.00095999998 -0.0020097562
0.0011692001 -0.00128 -0.0021365855
-0.0036972 0.00031999999 -0.00029756106
0.000474 0.001408 -0.00010731715
0.0035075999 -0.000256 -0.0015658538
0.0002212 -0.001344 -0.0030878051
-0.0033179999 -0.00089600001 -0.0045463415
0.003634 0.00076800003 -0.00036097568
0.002054 -0.0012159999 -0.0012487806
0.0023699999 -0.001472 -0.00029756106
-0.003002 -0.000512 -0.0046731709
0.0035075999 -0.00044800001 -0.0031512196
0.0027492 0.001472 -0.00023414643
-0.0014852 -0.001344 -0.0011219513
0.00066359999 -0.001344 -0.0044829268
-0.0018012 -0.001344 -0.0023268294
0.0037604 -6.4e-05 -0.00048780497
-0.0035707999 0.00044800001 -4.3902517e-05
-0.0019276 -0.00128 -0.0015024391
0.0011692001 0.00128 -0.0034048783
0.0019908 -0.001344 -0.00023414643
0.0028124 0.001152 -0.0035317075
0.00041080001 -0.00063999998 -0.0046731709
0.0034443999 0.00095999998 -0.00055121962
-0.0035707999 0.000128 -0.00099512201
0.0029388 0.00128 -4.3902517e-05
0.0012956 0.00128 -0.0029609757
0.003634 0.00019200001 -0.0027707319
-0.0019908 -0.00128 -0.0016292684
-0.0016747999 0.00128 -0.0028975611
-0.0016116 0.00128 -0.0026439026
-0.0030652001 0.00095999998 -0.0018829269
-0.0033811999 0.00083199999 -0.00017073179
-0.0016116 0.00031999999 -0.0046731709
0.0016747999 -0.00128 -0.0041658538
-0.0002212 0.001088 -0.0046731709
0.0012324 0.00128 -0.0015024391
-0.0027492 -0.0012159999 -0.0026439026
0.002054 0.00128 -0.00080487813
0.0026227999 -6.4e-05 -0.0046731709
0.0028756 0.001408 -0.00036097568
0.0010428 -2.1684043e-19 -0.0046731709
0.00079000002 -0.000128 -0.0046731709
-0.0011692001 0.00076800003 -0.0046731709
-9.4800002e-05 -0.001344 -0.0036585368
9.4800002e-05 0.00128 -0.0043560979
0.0031916001 -0.00083199999 -0.0012487806
-0.001422 -0.001344 -0.0030878051
-0.0018644 -0.000128 0.0019219512
-0.00079000002 -0.001344 -4.3902517e-05
-0.00097960001 -0.001344 -0.003785366
0.0015484 0.00128 -0.0014390245
-0.0031916001 -0.00095999998 -0.0041658538
-0.0026227999 -0.000256 -0.0046731709
-0.0003476 -0.001344 -0.0022000002
-0.001106 -0.001344 -0.0014390245
-0.0019276 -2.1684043e-19 8.2926752e-05
-0.0026227999 0.001152 -0.0042292685
-0.00060039997 -0.001024 -0.0046731709
-0.003002 -0.001088 -0.0026439026
-0.0014852 0.00128 -0.0037219515
0.0038236 0.00038400001 -0.00010731715
9.4800002e-05 -2.1684043e-19 -0.0047365855
0.0023068001 0.0012159999 -0.0037219515
-0.0012956 0.00128 -0.0025804879
0.0007268 -0.001408 -0.0044829268
0.0011692001 -0.00128 -0.0020097562
-0.00097960001 0.00128 -0.001185366
-0.0016116 0.00128 -0.0013756099
0.00097960001 0.001152 -0.0046731709
0.0024331999 -0.0012159999 -0.0025170734
0.00097960001 -0.001088 -4.3902517e-05
0.0014852 -0.00076800003 -4.3902517e-05
-0.0024963999 -0.00128 -0.0042926832
-0.003634 -0.00019200001 -0.0035317075
-0.0027492 -0.001344 -0.00010731715
0.0024331999 -0.0012159999 -0.0028341464
0.0013588 -0.001152 -4.3902517e-05
-0.0012324 0.0012159999 -0.0046731709
0.0007268 -2.1684043e-19 -0.0046731709
-0.00053720002 -0.001344 -0.0007414635
0.0021804001 0.00128 -0.0033414636
0.0014852 0.00128 -0.0025170734
0.0010428 -0.001344 -0.0007414635
0.001738 0.00128 -0.0016926831
-0.0032548001 0.000512 -0.0046731709
-0.0018012 0.00128 -0.001185366
-0.0035707999 -0.000512 -0.0015024391
-0.0010428 0.00128 -0.0011219513
0.0018012 -0.00128 -0.0030243904
-0.0035707999 -0.00038400001 -0.0043560979
0.0035707999 -0.00031999999 -0.0027707319
0.0035707999 0.00031999999 -0.0042292685
0.003002 -0.00076800003 -4.3902517e-05
-0.0035707999 -0.00019200001 -0.0042926832
-0.003002 0.00076800003 -4.3902517e-05
0.0035707999 0.000256 -0.0030243904
-0.0012324 -0.00038400001 -4.3902517e-05
-0.0015484 -0.001344 -0.0038487806
-0.0035075999 0.00019200001 -0.0019463416
0.002054 0.001408 -0.00055121962
0.0002212 -0.001344 -0.00067804888
-0.0014852 -0.00044800001 -4.3902517e-05
-0.0035707999 -0.00057600002 -0.003785366
-0.0028756 -0.001024 -4.3902517e-05
-0.001422 -0.001344 -0.0015024391
-0.0012324 -0.00019200001 -0.0046731709
0.0025595999 -0.001152 -0.0015658538
-0.003002 0.001024 -0.0039756098
-0.0036972 -0.000128 -4.3902517e-05
0.0035707999 0.00057600002 -0.0038487806
-0.0031916001 0.00089600001 -0.0041658538
0.0003476 -0.001152 -0.0046731709
0.002686 0.001152 -4.3902517e-05
0.0019276 -2.1684043e-19 8.2926752e-05
0.0037604 -0.000256 -0.00029756106
0.0030652001 0.000128 -4.3902517e-05
0.000474 -0.001472 -0.00048780497
0.00053720002 0.00128 -0.0015024391
-0.00060039997 -0.001344 -0.0034048783
-0.00028440001 -0.001344 -0.0013121952
-0.0002212 0.00128 -0.0018195123
0.003002 0.001088 -0.0015658538
0.0015484 -0.00128 -0.0025804879
-0.0024331999 0.0012159999 -0.0015024391
0.0002212 0.001152 -4.3902517e-05
-0.0024331999 0.0012159999 -0.0040390245
0.002686 -0.001152 -0.0025804879
-0.0018012 0.00128 -0.0020097562
0.002686 0.0012159999 -0.0013756099
-0.0019908 -0.00128 -0.0021365855
-0.0019908 0.001152 -0.0046097562
0.0025595999 0.0012159999 -0.0018195123
-0.00085319998 -0.00089600001 -4.3902517e-05
0.0012956 0.00128 -0.0022634147
0.0025595999 0.0012159999 -0.0025804879
-0.0032548001 6.4e-05 -4.3902517e-05
-0.00085319998 0.001344 -4.3902517e-05
0.0012324 -0.00076800003 -0.0046731709
-0.0031916001 0.00089600001 -0.0027073172
-0.0024963999 -0.00128 -0.002390244
-0.00028440001 0.00128 -0.0046097562
0.0019908 -0.00128 -0.00067804888
-0.00079000002 -0.001344 -0.0020731709
-0.0024963999 0.00057600002 -4.3902517e-05
3.1600001e-05 -0.001344 -0.0020097562
-0.0035075999 -0.00063999998 -0.0042926832
-0.000474 0.001408 -0.00061463425
0.002054 -0.0012159999 -0.0013756099
-0.0016747999 0.00128 -0.0034048783
-0.00097960001 0.00089600001 -4.3902517e-05
0.0033811999 -0.00057600002 -0.0026439026
0.00066359999 -0.001408 -0.0044195126
-0.002686 -0.001408 -0.00048780497
-0.0011692001 0.00128 -0.0033414636
0.0022436001 0.001472 -0.00017073179
-0.000158 -0.001344 -0.00099512201
0.0016747999 0.00128 -0.0027707319
0.0025595999 -0.00019200001 -4.3902517e-05
0.003002 -0.001024 -0.00061463425
0.000474 -0.001408 -0.0035317075
0.0019276 0.000128 0.00027317065
-0.0013588 0.00128 -4.3902517e-05
-0.0016116 -6.4e-05 -4.3902517e-05
-0.00060039997 6.4e-05 -0.0046731709
-0.000158 -6.4e-05 -0.0047365855
-0.0018012 -0.000128 0.0026195121
0.0035075999 0.000256 -0.0046731709
-0.0027492 -2.1684043e-19 -4.3902517e-05
-0.0016747999 -0.001408 -4.3902517e-05
0.0025595999 -2.1684043e-19 -0.0046731709
-0.0021172001 -0.00128 -0.002390244
-0.00066359999 -0.001344 -4.3902517e-05
-0.001106 -0.001344 -0.0018829269
0.0035707999 6.4e-05 -0.0018829269
0.001106 0.00038400001 -4.3902517e-05
-0.0023068001 0.001472 -0.00036097568
9.4800002e-05 0.00128 -0.0035317075
-0.0014852 -0.001344 -0.0017560977
-0.0029388 -0.00095999998 -0.0046731709
0.003634 0.00019200001 -0.0039121951
0.00041080001 -0.00128 -4.3902517e-05
0.0016116 0.00128 -0.0018829269
-0.00053720002 -0.001344 -0.0011219513
0.0011692001 -0.00128 -0.0023268294
-0.0021804001 -0.00128 -0.0036585368
0.0035075999 -0.00063999998 -0.00048780497
0.0019908 -0.001152 -0.0044829268
-0.0002212 -0.001344 -0.0041024392
-0.0027492 -0.00089600001 -4.3902517e-05
0.00091639999 -0.001408 -0.00055121962
-0.0033811999 -0.000512 -0.0046731709
-0.000474 0.00128 -0.0016926831
0.00091639999 -0.001344 -0.0030878051
0.0021172001 -0.00083199999 -0.0046731709
0.0003476 0.001344 -4.3902517e-05
0.0007268 -0.001408 -0.0011219513
0.0032548001 -0.001024 -0.00023414643
0.003002 -0.000256 -0.0046731709
0.0028124 0.00057600002 -4.3902517e-05
-0.00053720002 -0.001344 -0.0027073172
-0.0018644 0.00128 -0.0037219515
0.00060039997 0.00128 -0.0011219513
0.00060039997 0.00128 -0.0046097562
-0.0019908 -6.4e-05 -4.3902517e-05
0.0021804001 0.00128 -0.0027073172
-0.0025595999 -0.000256 -0.0046731709
0.00079000002 -0.001344 -0.0030878051
-0.0035707999 -0.000256 -0.0025804879
-0.00028440001 -0.001344 -0.0022634147
0.0003476 -0.00031999999 -4.3902517e-05
0.00066359999 0.001088 -4.3902517e-05
0.0029388 0.001152 -0.0007414635
0.0035075999 0.00070400001 -0.0042292685
-0.0023068001 -0.001472 -0.00010731715
0.0007268 0.001024 -4.3902517e-05
0.0025595999 0.0012159999 -0.0028975611
0.0012956 0.000128 -4.3902517e-05
0.0021804001 -0.00076800003 -0.0046731709
0.00066359999 -0.001408 -0.00086829276
0.0031916001 0.00095999998 -0.0046097562
-0.0035707999 -0.00019200001 -4.3902517e-05
0.0035707999 0.000512 -0.0036585368
-0.0038236 -0.00019200001 -0.00017073179
-0.0019276 -0.001472 -0.00017073179
0.0014852 0.00128 -0.0041024392
0.0011692001 0.000128 -4.3902517e-05
-0.0007268 -0.0012159999 -0.0046731709
-0.00066359999 0.00128 -0.0018829269
0.003634 0.00019200001 -0.0026439026
0.0035707999 -2.1684043e-19 -0.0046097562
-0.0011692001 -0.001344 -0.0030878051
-0.0035707999 -0.00044800001 -0.0012487806
-0.0035707999 -0.000512 -0.0013121952
0.00066359999 0.000128 -0.0046731709
-0.0015484 0.001472 -0.00042439034
-0.0003476 -0.001344 -0.0030243904
0.0010428 -0.001344 -0.0019463416
0.00066359999 -0.00128 -4.3902517e-05
0.0016116 0.001472 -0.00048780497
-0.0011692001 -0.001344 -0.0044829268
-0.0019908 0.001152 -0.0044829268
0.00091639999 0.00128 -0.0032146343
0.000158 0.00128 -0.0024536587
-0.000474 -0.00070400001 -4.3902517e-05
-0.0011692001 -0.001472 -0.00029756106
-0.0024963999 -0.00044800001 -4.3902517e-05
0.0023068001 0.000256 -0.0046731709
0.0035707999 6.4e-05 -0.0022000002
0.0034443999 0.00076800003 -0.0022000002
-0.0035075999 0.00044800001 -0.0038487806
0.0003476 -0.001344 -0.0035951221
0.0025595999 0.0012159999 -0.0041658538
0.003634 -0.000512 -0.00048780497
-0.00091639999 0.00128 -0.0028341464
0.0035707999 -6.4e-05 -0.001185366
0.0022436001 -0.000512 -0.0046731709
0.00041080001 -0.001344 -0.0039756098
-0.0032548001 -0.00095999998 -0.0022000002
-0.003002 0.001024 -0.0018195123
0.001422 -0.001408 -0.00017073179
0.0024963999 0.00128 -0.0007414635
0.00097960001 0.00044800001 -0.0046731709
-0.0035707999 6.4e-05 -0.0025170734
0.0022436001 -0.0012159999 -0.00093170744
-0.0010428 -0.000128 -4.3902517e-05
3.1600001e-05 -0.001472 -0.00042439034
0.0021804001 -0.00128 -0.00048780497
0.00085319998 0.0015360001 -0.00042439034
-3.1600001e-05 -0.00044800001 -4.3902517e-05
-0.0032548001 0.00083199999 -0.0028975611
0.00041080001 -0.001344 -0.0042292685
-0.002686 0.00057600002 -0.0046731709
0.000158 -0.001344 -0.0020731709
-0.0035075999 0.00031999999 -0.00080487813
-0.0035075999 0.00031999999 -0.0014390245
0.0018644 -0.00128 -0.0035317075
0.003002 0.001088 -0.0015024391
0.0031284001 -0.00095999998 -0.0034048783
0.00091639999 -0.001472 -0.00029756106
-0.00079000002 -0.001344 -0.00093170744
0.0021804001 0.00128 -0.0016926831
0.0025595999 -0.00063999998 -0.0046731709
-0.0024331999 -0.001472 -0.00036097568
-0.0014852 -0.001344 -0.0019463416
9.4800002e-05 0.0012159999 -0.0046731709
0.0019908 -0.00128 -0.0042292685
0.0018644 -0.001344 -0.00023414643
0.0036972 -0.00044800001 -0.00042439034
-0.0015484 -0.001344 -0.00086829276
-0.0021172001 0.001152 -0.0044829268
-0.0022436001 -0.00128 -0.0030243904
0.0019908 0.00063999998 -4.3902517e-05
0.0034443999 -0.00031999999 -0.0042926832
0.0028756 6.4e-05 -0.0046731709
-0.00097960001 -0.001344 -0.0027073172
-0.0026227999 -0.00044800001 -0.0046731709
-0.0035707999 -0.00038400001 -0.0019463416
-0.0019276 -0.00128 -0.0037219515
-0.0035707999 0.000128 -4.3902517e-05
-0.001106 0.001344 -0.00067804888
-0.0015484 0.00128 -0.0030243904
0.0027492 -0.001088 -0.0018195123
0.0012324 0.000512 -4.3902517e-05
3.1600001e-05 -0.001344 -0.0022000002
-0.0018012 -0.001344 -0.0034048783
-0.0014852 0.00128 -0.0019463416
0.0002212 0.00128 -0.0046731709
0.00079000002 -0.001344 -0.00061463425
0.0035707999 -2.1684043e-19 -0.0037219515
-0.0018012 -0.001344 -0.0025804879
-0.0016116 -0.001344 -0.0036585368
0.0033179999 6.4e-05 -4.3902517e-05
0.0029388 -0.001024 -0.00067804888
9.4800002e-05 0.00128 -0.0030243904
0.003002 -0.001024 -0.0032780489
0.0028756 -0.001024 -0.0042926832
0.00097960001 -0.001344 -0.0031512196
-0.0033811999 0.000512 -0.0031512196
-0.0021172001 -0.00128 -0.0015024391
-0.0002212 0.00128 -0.0039756098
-0.0035707999 -0.000512 -0.0027073172
0.0007268 0.0015360001 -0.00036097568
-0.0021804001 0.00057600002 -0.0046731709
-0.0035707999 -0.00044800001 -0.001185366
0.0013588 0.00128 -0.0012487806
0.0034443999 -0.00031999999 -0.0043560979
-0.0035707999 -0.00057600002 -0.0042926832
-0.00041080001 -0.00128 -0.0046731709
-0.0035075999 -0.00063999998 -0.0033414636
0.0037604 0.00031999999 -4.3902517e-05
-0.0029388 0.001024 -0.0020731709
-0.0028124 -0.001152 -0.0035317075
0.0011692001 0.0016 -0.00036097568
0.0035707999 -0.00076800003 -0.00036097568
-0.0010428 -0.001344 -0.0029609757
0.001106 -0.001344 -0.00086829276
0.0030652001 0.001024 -0.0017560977
0.0015484 0.00128 -0.0046097562
-0.0028124 0.001152 -0.0032146343
-0.0035707999 -0.00031999999 -4.3902517e-05
0.0012956 0.00128 -0.0038487806
0.001738 -0.00063999998 -4.3902517e-05
0.0019908 0.000128 -4.3902517e-05
-0.0033811999 0.00057600002 -0.0015024391
0.0023699999 0.0012159999 -0.0015658538
9.4800002e-05 0.00128 -0.0021365855
0.0038236 0.000512 -0.00010731715
0.0027492 -0.001088 -0.0041658538
-0.001422 -0.001344 -0.00086829276
-0.0014852 -0.00076800003 -4.3902517e-05
-0.0024331999 0.0012159999 -0.00086829276
-0.0014852 6.4e-05 -0.0046731709
0.0012956 -0.00076800003 -4.3902517e-05
0.002054 -0.0012159999 -0.003785366
-0.0019276 -0.00128 -0.0046731709
0.0019276 0.00128 -4.3902517e-05
-0.0012956 0.00031999999 -4.3902517e-05
-0.0019276 0.00128 -0.0022000002
0.001738 -0.00128 -0.002390244
-0.00079000002 -0.001088 -0.0046731709
-0.001738 0.00128 -0.002390244
-0.0023699999 0.0012159999 -0.0025804879
-0.0013588 -0.001344 -0.0013121952
0.0024331999 0.0012159999 -0.0032780489
-0.00091639999 -0.001472 -4.3902517e-05
0.0010428 0.00128 -0.0044195126
-0.0035707999 -0.000128 -0.0037219515
0.0035707999 0.00076800003 -0.00029756106
-0.001738 0.00076800003 -0.0046731709
-0.002686 0.001152 -0.0030878051
0.0010428 0.00128 -0.0040390245
0.00091639999 -0.001344 -0.0040390245
-0.002054 0.001088 -4.3902517e-05
-0.0035707999 -0.00038400001 -0.0042926832
-0.0036972 -0.000128 -0.00067804888
-0.0035707999 -0.000512 -0.0032146343
-0.0034443999 0.00038400001 -0.0028975611
0.0023699999 0.001344 -0.00061463425
-0.00097960001 -0.001344 -0.0025804879
-0.0012956 0.00128 -0.0036585368
0.0035707999 -0.00019200001 -0.0033414636
0.0013588 0.00128 -0.0022634147
0.001422 -2.1684043e-19 -4.3902517e-05
0.0013588 0.00128 -0.0044195126
-0.0038236 -0.00057600002 -0.00036097568
0.00053720002 0.00128 -0.0039121951
0.000474 0.00128 -0.003785366
0.0029388 0.00070400001 -4.3902517e-05
-0.00060039997 0.00128 -0.0030878051
0.0035707999 -0.00038400001 -0.002390244
0.0012956 0.001472 -0.00048780497
0.002054 -0.00019200001 -4.3902517e-05
-0.0024331999 -0.00128 -0.0026439026
0.0019276 -0.00128 -0.0027707319
-0.0023699999 0.0012159999 -0.00086829276
-0.0035075999 0.00019200001 -0.0035951221
-0.0028756 0.001088 -0.00061463425
0.0035075999 -0.00031999999 -0.0037219515
0.0031916001 0.00095999998 -0.0027073172
-0.0032548001 0.00083199999 -0.0015024391
-0.0016747999 0.00128 -0.0013121952
-0.0016747999 -0.001152 -4.3902517e-05
0.0015484 -0.00128 -0.0044829268
0.001422 -0.00128 -0.00099512201
9.4800002e-05 0.00128 -0.0019463416
0.0012956 -0.00128 -0.0024536587
-0.0021804001 0.00031999999 -0.0046731709
0.0010428 0.00076800003 -4.3902517e-05
0.0007268 -0.00031999999 -0.0046731709
0.0035707999 0.000128 -0.0046097562
0.0035707999 0.00038400001 -0.0007414635
0.0031916001 0.00095999998 -0.0030243904
-0.0035075999 -0.00070400001 -0.0013121952
-0.0035707999 -0.000256 -0.0032780489
0.00079000002 -0.001472 -0.00048780497
-0.0016747999 0.00128 -0.0028341464
0.0031916001 0.00095999998 -0.0016292684
-0.002686 0.001152 -0.002390244
0.0012956 -0.00128 -0.0043560979
0.0011692001 0.00083199999 -0.0046731709
0.001422 -0.00128 -0.002390244
0.0035707999 -2.1684043e-19 -0.0035951221
0.0027492 0.00044800001 -0.0046731709
-0.0028124 -0.00083199999 -0.0046731709
-0.0019908 -0.00128 -0.0037219515
0.0028124 -6.4e-05 -0.0046731709
0.0019276 0.00128 -0.0041658538
0.0022436001 -0.0012159999 -0.0010585367
-0.0010428 -0.00063999998 -0.0046731709
-0.0021804001 -0.00128 -0.0039121951
0.0011692001 -0.00128 -0.0014390245
-0.0019908 0.00038400001 -4.3902517e-05
0.0011692001 0.000512 -4.3902517e-05
-0.003634 -0.00019200001 -0.0031512196
0.00041080001 0.00128 -0.0035317075
0.002054 0.00128 -0.0024536587
0.0014852 0.00128 -0.0030878051
-0.0026227999 -0.0012159999 -0.0018195123
0.0019276 0.00095999998 -0.0046731709
-0.0034443999 -0.00019200001 -4.3902517e-05
0.0010428 -0.000128 -4.3902517e-05
-0.0011692001 0.00128 -0.002390244
0.00060039997 -0.001408 -0.0037219515
0.0022436001 0.00057600002 -0.0046731709
-0.0012956 -0.00031999999 -4.3902517e-05
-0.001738 0.001472 -0.00023414643
0.00060039997 -0.001408 -0.0042292685
-0.00060039997 0.00070400001 -4.3902517e-05
3.1600001e-05 -0.00057600002 -4.3902517e-05
0.0036972 -0.00031999999 -0.00023414643
-0.0033811999 -0.00083199999 -0.0020097562
0.0021172001 -0.0012159999 -0.0016292684
-0.00097960001 -0.00038400001 -0.0046731709
0.00066359999 0.00128 -0.0028975611
-0.002054 -0.00128 -0.0014390245
0.003002 0.00057600002 -0.0046731709
-0.003634 0.000256 -4.3902517e-05
-0.0031284001 0.00089600001 -0.00017073179
-0.0011692001 -0.000128 -4.3902517e-05
0.00085319998 0.00128 -0.0013121952
-0.00079000002 -0.001344 -0.0016292684
0.0018012 0.00038400001 -0.0046731709
-0.0026227999 0.001152 -0.0014390245
-0.00028440001 -0.001344 -0.0020731709
0.00041080001 -0.000256 -0.0046731709
-0.0019276 0.00128 -0.00017073179
0.0029388 0.001344 -0.00055121962
-0.0010428 -6.4e-05 -4.3902517e-05
0.0033811999 -0.00063999998 -0.0045463415
-0.000474 -0.001472 -0.00042439034
-0.0023068001 -6.4e-05 -0.0046731709
-0.0035707999 -0.000512 -0.0040390245
0.0014852 -0.00128 -0.0030878051
0.0025595999 0.0012159999 -0.0022634147
9.4800002e-05 -0.00089600001 -4.3902517e-05
0.00085319998 -0.001344 -0.00086829276
0.0035707999 -6.4e-05 -0.0016292684
0.0029388 -0.00044800001 -4.3902517e-05
0.0021804001 -0.0012159999 -0.0015024391
-3.1600001e-05 0.001344 -0.00067804888
0.0037604 0.00057600002 -0.00017073179
0.0015484 0.00089600001 -4.3902517e-05
-0.0031916001 -0.00044800001 -4.3902517e-05
-0.0018644 0.00128 -0.0042292685
-0.00041080001 0.00063999998 -0.0046731709
0.0012324 0.00128 -0.0018829269
0.0021804001 -0.000512 -4.3902517e-05
-0.001738 0.00128 -0.0040390245
0.003002 0.00089600001 -0.0046731709
0.001106 0.001472 -0.00055121962
-0.0016747999 -0.001344 -0.0036585368
0.0025595999 0.00128 -0.0007414635
-0.0012324 0.00038400001 -4.3902517e-05
0.0013588 0.001344 -0.00080487813
0.003002 0.00083199999 -4.3902517e-05
9.4800002e-05 0.0015360001 -0.00042439034
-0.00066359999 -0.00044800001 -0.0046731709
-0.00053720002 0.00128 -0.0011219513
0.00053720002 -0.00128 -0.00010731715
0.00091639999 -0.001344 -0.0044829268
0.0035707999 -6.4e-05 -0.0036585368
0.0021172001 0.00089600001 -0.0046731709
-0.0019276 -0.001408 -4.3902517e-05
-0.0035707999 0.000256 -0.0038487806
0.00091639999 0.00128 -0.0033414636
-0.0033811999 -0.00089600001 -0.00061463425
-0.001738 -0.001344 -0.0015658538
0.00053720002 -0.00070400001 -4.3902517e-05
0.00091639999 -0.001344 -0.0042292685
0.001422 -0.00044800001 -0.0046731709
-0.00097960001 -0.001344 -0.0028341464
-0.0023699999 -0.00038400001 -4.3902517e-05
0.00041080001 0.001152 -4.3902517e-05
0.0011692001 0.00128 -0.0020097562
-0.000158 -0.001344 -0.001185366
0.001422 0.00083199999 -0.0046731709
-0.00085319998 -0.001344 -0.0034682928
-0.00060039997 -0.001344 -0.0023268294
-0.001738 0.001408 -0.00023414643
0.0022436001 0.001408 -0.00010731715
-0.0035707999 -0.00031999999 -0.0024536587
0.00053720002 0.00128 -0.0018829269
0.0023068001 0.001088 -4.3902517e-05
-0.0003476 0.001152 -4.3902517e-05
-0.00091639999 -0.001344 -0.0022000002
-0.0030652001 0.00095999998 -0.0027707319
0.0015484 -0.00128 -0.0016926831
-0.0028756 -0.001152 -0.0015024391
0.0033811999 -0.000512 -0.0032780489
0.0013588 0.00128 -0.002390244
0.00079000002 0.00128 -0.0039121951
-0.0033811999 0.00095999998 -0.00036097568
0.0021172001 -0.0012159999 -0.0037219515
-0.003634 -0.00019200001 -0.0011219513
0.0003476 -0.001344 -0.0035317075
-0.0002212 0.00128 -0.0025804879
0.00028440001 0.000256 -0.0046731709
-0.0012956 0.00128 -0.0027073172
-0.00091639999 0.00128 -0.0015024391
0.0024331999 0.00128 -4.3902517e-05
0.0002212 -0.000512 -4.3902517e-05
-0.001106 -0.001344 -0.0042292685
0.0028124 -0.001088 -0.0010585367
-0.0003476 0.0016 -0.00036097568
-0.00060039997 0.00128 -0.0010585367
3.1600001e-05 -0.001344 -0.0021365855
0.00060039997 -0.001408 -0.0023268294
0.0025595999 -0.001152 -0.0034048783
0.0010428 -0.00076800003 -4.3902517e-05
-0.0035707999 -0.00083199999 -0.00017073179
-9.4800002e-05 0.00128 -0.002390244
-0.002054 -0.00128 -0.0027073172
0.0018644 -0.000128 -0.0046731709
0.00041080001 -0.001344 -0.0027073172
-0.0027492 0.001152 -0.00055121962
-0.00066359999 0.00128 -0.00086829276
-0.0035075999 -0.00070400001 -0.0032780489
0.0031916001 0.00038400001 -0.0046731709
0.0019908 -0.00128 -0.0033414636
0.0023068001 0.00019200001 -4.3902517e-05
0.000158 0.00128 -0.0044195126
0.0031284001 0.00095999998 -0.0032780489
-0.0024963999 -0.00083199999 -4.3902517e-05
-0.0014852 0.001472 -0.00023414643
-0.0012324 0.00128 -0.0022000002
0.0016116 -0.00128 -0.0040390245
-0.0033811999 0.00057600002 -0.0007414635
-0.001422 -0.001344 -0.0027707319
0.0015484 0.001344 -0.00080487813
3.1600001e-05 0.00128 -0.00093170744
-3.1600001e-05 -0.001344 -0.00061463425
-0.00097960001 -0.00063999998 -4.3902517e-05
0.0034443999 -0.00044800001 -0.0026439026
-0.0031284001 0.00095999998 -0.0041658538
-0.0031916001 -0.00044800001 -0.0046731709
0.000474 -0.000128 -0.0046731709
0.0034443999 0.00038400001 -4.3902517e-05
0.0011692001 0.00128 -0.0027707319
0.0034443999 -0.00038400001 -0.0032780489
-0.0012956 -0.001344 -0.0023268294
0.0031916001 0.00070400001 -0.0046731709
-0.0033179999 -0.00057600002 -4.3902517e-05
0.000474 -0.00095999998 -4.3902517e-05
-0.0035075999 -0.00063999998 -0.0044195126
-0.00091639999 -0.00095999998 -0.0046731709
-0.0024963999 0.0012159999 -0.0027073172
0.0016747999 -0.00128 -0.0018195123
-0.0031284001 -0.001024 -0.0028341464
0.00066359999 -6.4e-05 -0.0046731709
0.0019908 0.00128 -0.0039121951
0.0016747999 -0.00128 -0.0022000002
0.0034443999 -0.000512 -0.0044829268
-0.0023699999 0.001472 -0.00023414643
9.4800002e-05 -0.001344 -0.00099512201
0.0028756 -0.00038400001 -0.0046731709
-0.0035707999 -6.4e-05 -0.0041658538
0.002686 0.000128 -4.3902517e-05
-9.4800002e-05 0.001344 -0.0007414635
0.0018644 -0.001472 -0.00042439034
-0.0013588 0.001344 -0.00010731715
-0.0030652001 -0.00095999998 -0.0046731709
-0.0035707999 0.000128 -0.0015024391
0.00085319998 0.00070400001 -4.3902517e-05
-0.00041080001 -0.00076800003 -4.3902517e-05
0.0024963999 0.0012159999 -0.0015658538
-0.0033811999 -0.00083199999 -0.0019463416
0.0029388 -0.001024 -0.0034048783
-0.00085319998 0.00076800003 -0.0046731709
0.003634 0.00057600002 -0.00067804888
-0.003634 -0.00019200001 -0.001185366
-0.001106 0.001472 -0.00036097568
0.0022436001 0.0012159999 -0.0036585368
0.0010428 0.00019200001 -4.3902517e-05
-0.0021804001 0.0012159999 -0.0027073172
0.00041080001 -0.00095999998 -4.3902517e-05
0.0024331999 0.0012159999 -0.0022634147
-3.1600001e-05 -0.001344 -0.0013121952
-0.0035707999 -0.00044800001 -0.0028975611
0.0024331999 0.00031999999 -0.0046731709
0.0018644 0.001088 -0.0046731709
0.0021804001 0.001152 -0.0046731709
-0.0019908 -0.00128 -0.0039756098
0.0011692001 -0.00128 -0.0011219513
-0.0028756 -0.001152 -0.0030243904
-0.001422 0.00128 -0.0016292684
0.0021804001 0.001408 -0.00010731715
0.00041080001 -0.001344 -0.00099512201
0.0033811999 -0.00063999998 -0.0013121952
0.0012956 0.00128 -0.0020731709
0.0033811999 -0.00057600002 -0.00086829276
0.0025595999 0.001472 -0.00048780497
0.0014852 0.00128 -0.0018195123
0.0034443999 -0.000512 -0.0032146343
-0.00097960001 0.001344 -0.00061463425
-0.0033811999 -0.00083199999 -0.0022000002
-0.0031916001 0.00089600001 -0.0042292685
-0.0023068001 -2.1684043e-19 -0.0046731709
0.0034443999 0.00038400001 -0.0046731709
-0.0015484 -0.00031999999 -0.0046731709
0.0002212 -0.001344 -0.0032780489
-0.0021804001 0.0012159999 -0.00086829276
-0.0018012 0.00063999998 -0.0046731709
-0.0010428 0.001472 -0.00048780497
0.00060039997 0.00063999998 -4.3902517e-05
-0.0013588 -0.0012159999 -0.0046731709
0.0014852 -0.00128 -0.0024536587
0.0019908 0.00128 -0.0023268294
-0.0007268 0.00031999999 -0.0046731709
0.0030652001 -0.00089600001 -0.0026439026
0.0033179999 -0.00076800003 -0.0016926831
-0.00091639999 -0.001344 -0.0023268294
0.0031284001 -0.00089600001 -0.00093170744
-0.00041080001 -0.001344 -0.0012487806
-0.0033179999 0.001024 -0.00036097568
0.0031284001 0.001024 -0.0038487806
-0.0024963999 0.00083199999 -4.3902517e-05
0.001422 0.001344 -0.00067804888
-0.00091639999 -0.001344 -0.0031512196
0.00097960001 -0.001344 -0.0010585367
-0.0031284001 0.00019200001 -0.0046731709
-0.0033179999 -0.001152 -0.00055121962
0.0025595999 -0.001152 -0.0027073172
0.0018644 -6.4e-05 -4.3902517e-05
-0.0022436001 0.0012159999 -0.0016292684
0.0019276 -0.00128 -0.0028975611
-9.4800002e-05 0.00128 -0.0027073172
0.0032548001 0.00089600001 -0.0028341464
-0.00085319998 -0.001344 -0.0027707319
3.1600001e-05 -0.001344 -0.0023268294
-0.0033179999 -0.00083199999 -0.0046731709
-0.0021172001 0.0012159999 -0.0036585368
0.0003476 0.001408 -0.00017073179
-0.0026227999 -0.00057600002 -4.3902517e-05
-0.0024963999 -0.00128 -0.0018829269
0.0018644 0.00128 -0.0021365855
-0.0016747999 0.001344 -0.00010731715
0.00085319998 0.001344 -0.00080487813
0.0003476 0.00128 -0.0046731709
0.0034443999 0.00070400001 -0.0020731709
-0.002054 -0.00128 -0.0016926831
-0.00060039997 0.00128 -0.0041024392
-0.0035707999 0.000128 -0.0029609757
0.0012324 -0.00128 -0.0027073172
0.0019276 0.001472 -0.00048780497
-0.0026227999 -0.001408 -0.00017073179
-0.0032548001 0.00083199999 -0.0016926831
0.0035707999 6.4e-05 -0.0012487806
0.002686 0.0012159999 -0.0018829269
-0.0027492 -0.00128 -4.3902517e-05
0.00097960001 0.001472 -0.00017073179
0.0016116 -0.00128 -0.0022000002
0.0014852 -0.00128 -0.0033414636
0.0012956 0.000256 -4.3902517e-05
-0.0028124 0.001152 -0.0017560977
-0.0035707999 0.00063999998 -0.00023414643
0.003634 0.00019200001 -0.0034048783
0.0016116 0.00128 -0.0024536587
-0.0031284001 0.00095999998 -0.00017073179
-0.0012324 -0.001344 -0.0040390245
0.0026227999 0.0012159999 -0.002390244
-0.000158 0.001344 -0.00061463425
0.0032548001 -0.001024 -0.00055121962
-0.0013588 -0.001344 -0.0020731709
-0.0018012 -0.001344 -0.0042926832
-0.0037604 0.000128 -0.00029756106
-0.00028440001 -0.001408 -0.00010731715
0.0031916001 -0.001088 -0.00048780497
-9.4800002e-05 0.0015360001 -0.00042439034
0.0035707999 -6.4e-05 -0.0023268294
0.0002212 0.00128 -0.0041658538
0.00028440001 -0.001344 -0.0034682928
0.003634 0.000256 -4.3902517e-05
-0.0010428 0.00128 -0.0025170734
0.0015484 -0.00128 -0.0032780489
-0.0035707999 -0.00095999998 -0.00042439034
-0.0026227999 -0.00128 -0.0039121951
0.0014852 -0.00044800001 -4.3902517e-05
-0.0035707999 6.4e-05 -0.0034048783
3.1600001e-05 -0.001344 -0.0026439026
-0.0015484 0.00128 -0.0016292684
0.0035707999 6.4e-05 -0.0044829268
0.0013588 0.001344 -0.0007414635
0.0033811999 0.00044800001 -0.0046731709
-0.00079000002 0.001472 -0.00055121962
-0.0036972 -0.00076800003 -0.00042439034
-0.0030652001 -0.001088 -0.0014390245
0.001106 -0.001344 -0.0029609757
0.0010428 -0.001152 -0.0046097562
0.00060039997 -0.001408 -0.0041658538
0.0027492 0.0012159999 -0.0015024391
0.001422 -0.00128 -0.0028341464
0.0024331999 0.0012159999 -0.0044829268
-0.0012956 0.00128 -0.0026439026
0.0030652001 0.001088 -0.0042292685
0.003002 -0.000512 -4.3902517e-05
0.0018644 -0.00128 -0.0012487806
-0.0019908 -0.00128 -0.0041024392
-0.0035707999 -0.00083199999 -0.00048780497
-0.001738 -0.00038400001 -0.0046731709
0.0024331999 -0.00063999998 -4.3902517e-05
-0.0036972 0.000128 -4.3902517e-05
-0.0016747999 -0.00031999999 -4.3902517e-05
-0.0024963999 -0.001472 -0.00036097568
-0.0033811999 -0.00095999998 -4.3902517e-05
-0.0029388 -0.00044800001 -4.3902517e-05
0.00091639999 0.00128 -0.0015024391
0.0034443999 -0.00044800001 -0.0046097562
-0.0033811999 0.00063999998 -0.0017560977
-0.0016747999 0.001024 -4.3902517e-05
0.0024963999 0.00057600002 -0.0046731709
-0.0012956 -0.001344 -0.0029609757
0.000158 0.00128 -0.0040390245
-0.0010428 0.001152 -4.3902517e-05
0.0026227999 0.0012159999 -0.0041658538
0.0016116 -0.00128 -0.0044829268
0.0012324 6.4e-05 -0.0046731709
0.000158 -0.00063999998 -4.3902517e-05
-0.003002 0.001024 -0.0020731709
-3.1600001e-05 -0.001344 -0.0028975611
-0.0012956 -0.001344 -0.0039756098
3.1600001e-05 -0.00128 -4.3902517e-05
-0.0024963999 0.0012159999 -0.0036585368
0.0012324 0.00128 -0.0016926831
0.0022436001 0.001472 -0.00048780497
-0.00085319998 -0.000256 -0.0046731709
0.0035707999 0.000128 -0.0031512196
-0.0029388 0.001152 -0.00048780497
0.0012324 -0.000512 -4.3902517e-05
0.0028124 -0.0012159999 -0.00023414643
0.0024331999 0.0012159999 -0.001185366
0.000158 0.0016 -0.00042439034
0.000474 -0.001408 -0.001185366
-0.0015484 -0.00095999998 -4.3902517e-05
0.00097960001 0.001408 -4.3902517e-05
0.002054 0.00128 -0.0020731709
-0.0002212 0.0012159999 -0.0046731709
-0.0028124 -0.001152 -0.0030243904
0.00028440001 0.00128 -0.0020731709
3.1600001e-05 0.00128 -0.0044829268
-0.0016747999 0.00128 -0.0014390245
-0.0007268 -0.001344 -0.0042292685
-0.00053720002 -0.00019200001 -0.0046731709
-0.003634 -0.00019200001 -0.00099512201
0.0019908 -0.00128 -0.0041024392
-0.0028124 -0.00076800003 -0.0046731709
0.0027492 -0.00019200001 -0.0046731709
0.0035707999 -0.000128 -0.0016926831
0.001738 -0.001408 -0.00042439034
0.0035707999 0.00038400001 -0.0037219515
0.00079000002 0.00128 -0.00086829276
-0.00079000002 -0.001472 -0.00010731715
-0.0028124 0.001152 -0.00017073179
-0.0033811999 -0.001088 -0.00048780497
-0.0037604 -0.000256 -4.3902517e-05
0.000158 0.0016 -0.00036097568
0.0024963999 0.001408 -4.3902517e-05
0.0016747999 -0.00128 -0.0016292684
0.00085319998 -0.001344 -0.0018195123
0.0029388 -0.001024 -0.0039756098
0.00079000002 0.00128 -0.0045463415
0.0019908 0.00128 -0.0021365855
0.0026227999 0.00031999999 -0.0046731709
0.0012324 0.0015360001 -0.00036097568
0.0011692001 0.00128 -0.0043560979
0.0035707999 0.00044800001 -0.0026439026
0.001738 0.00128 -0.0042292685
0.0035707999 0.00057600002 -0.0039121951
0.0035707999 0.000256 -0.0021365855
0.0026227999 -0.00070400001 -0.0046731709
0.0007268 0.0016 -0.00042439034
-0.0019908 -0.00128 -0.0030878051
0.0035707999 0.00031999999 -0.0025170734
-0.0035075999 -0.00070400001 -0.0041658538
0.002054 -0.0012159999 -0.0020097562
-0.00091639999 -0.000256 -0.0046731709
-0.0012956 -0.001344 -0.0045463415
-0.0035075999 0.00031999999 -0.00093170744
-0.0016747999 0.00128 -0.0044829268
0.0021172001 -0.0012159999 -0.0042926832
0.000474 -0.00044800001 -0.0046731709
0.0030652001 0.001024 -0.001185366
-0.0011692001 0.00128 -0.0027073172
0.002054 0.00128 -4.3902517e-05
0.0021804001 0.00128 -0.0018829269
-0.0011692001 -0.001344 -0.0032146343
-0.0029388 -0.001152 -0.0012487806
0.0015484 0.00128 -0.0026439026
-3.1600001e-05 0.001024 -0.0046731709
-0.0025595999 0.000128 -0.0046731709
0.001106 -0.001344 -0.0019463416
0.0035707999 -0.00031999999 -0.0021365855
-0.001422 -6.4e-05 -4.3902517e-05
0.0035707999 0.00044800001 -0.0025804879
0.0031284001 0.00095999998 -0.0018829269
-9.4800002e-05 -0.000128 -4.3902517e-05
0.001106 -0.001024 -4.3902517e-05
-0.0023699999 0.00063999998 -4.3902517e-05
-0.0032548001 0.00083199999 -0.0029609757
-0.0031284001 0.001088 -0.00055121962
-0.003002 -0.001088 -0.0019463416
-0.0014852 -0.00128 -0.0046731709
-0.0021172001 -0.00128 -0.0022634147
-0.0028124 0.001152 -0.0031512196
0.00097960001 -0.0012159999 -0.0046097562
-0.0027492 -0.0012159999 -0.0027707319
0.0026227999 0.0012159999 -4.3902517e-05
0.0032548001 -6.4e-05 -4.3902517e-05
-0.0012324 -0.001344 -0.0018829269
0.0029388 -0.001088 -0.0028341464
-0.00060039997 0.00128 -0.0018829269
-0.00041080001 -0.00070400001 -0.0046731709
0.00053720002 0.00128 -0.0035317075
-0.0034443999 -0.00076800003 -0.0016292684
-0.0027492 -0.000512 -4.3902517e-05
0.0012324 -0.00128 -0.0030243904
-0.002686 -0.0012159999 -0.0039756098
0.0002212 0.00128 -0.0029609757
0.001422 0.0016 -0.00036097568
-0.0018012 -0.001344 -0.0025170734
-0.0023699999 0.0012159999 -0.0019463416
0.0015484 -0.00128 -0.0032146343
-0.00079000002 0.00095999998 -4.3902517e-05
-0.00053720002 0.001152 -0.0046731709
0.003002 -0.001024 -0.0025170734
0.0029388 -0.001024 -0.0042926832
0.0010428 0.00128 -0.0013756099
0.00097960001 -0.001344 -0.0032780489
9.4800002e-05 -0.001344 -0.0029609757
0.0032548001 0.00038400001 -4.3902517e-05
-0.0035707999 -0.00044800001 -0.0018829269
0.0027492 -0.001088 -0.0039756098
0.0021804001 -0.00083199999 -0.0046731709
-0.0013588 -0.001024 -4.3902517e-05
-0.00053720002 -0.001344 -0.0025170734
0.0015484 0.00128 -0.0019463416
0.0014852 -0.00128 -0.0040390245
-0.0038236 -2.1684043e-19 -0.00055121962
-0.0033811999 -0.00070400001 -4.3902517e-05
-0.0018644 -0.000128 0.0013512195
0.0033811999 6.4e-05 -4.3902517e-05
-9.4800002e-05 6.4e-05 -4.3902517e-05
0.0026227999 -0.001152 -0.00061463425
-0.0018012 -0.001344 -0.0041658538
-0.001738 -0.00019200001 -0.0046731709
-0.0033811999 -0.000256 -4.3902517e-05
0.0031284001 0.001024 -4.3902517e-05
0.0026227999 -0.00063999998 -4.3902517e-05
0.001106 0.00128 -0.0025804879
0.000158 0.001472 -0.00048780497
0.0016116 0.00128 -0.003785366
-0.0007268 0.00076800003 -4.3902517e-05
-0.0012956 -0.00076800003 -0.0046731709
0.000158 0.00128 -0.0035951221
0.0011692001 -0.001088 -0.0046731709
0.0033811999 -6.4e-05 -0.0046731709
9.4800002e-05 -0.001344 -0.0022634147
-0.0031284001 0.00083199999 -0.00010731715
-0.002054 0.0012159999 -0.0027073172
0.0031916001 0.00095999998 -0.0014390245
-0.0035707999 0.000256 -0.0026439026
0.0026227999 -0.00095999998 -0.0046097562
-0.00085319998 -0.001472 -0.00042439034
0.0024963999 0.00083199999 -4.3902517e-05
0.00066359999 -0.00089600001 -4.3902517e-05
9.4800002e-05 -0.001344 -0.0020097562
-0.00060039997 0.001472 -0.00055121962
-0.0035707999 -0.000512 -0.0044195126
-0.0018644 -0.00063999998 -0.0046731709
0.00060039997 0.001408 -4.3902517e-05
0.001422 -0.00070400001 -4.3902517e-05
0.0019276 -0.00128 -0.0044829268
-0.0032548001 0.00083199999 -0.0025804879
0.00053720002 0.001472 -0.00055121962
0.0002212 0.00128 -0.0017560977
-0.0027492 0.001152 -0.0016292684
0.0035707999 -2.1684043e-19 -0.00080487813
-0.0019908 0.00076800003 -4.3902517e-05
0.0019908 0.0012159999 -0.0046731709
0.000158 0.001024 -0.0046731709
-0.0031284001 6.4e-05 -4.3902517e-05
0.0021172001 0.0012159999 -4.3902517e-05
-0.0032548001 0.00083199999 -0.0016292684
-0.0002212 0.000256 -0.0046731709
-0.0033811999 0.000512 -0.0015024391
-0.0032548001 -0.00089600001 -0.0020097562
0.00085319998 0.00128 -0.00086829276
-0.0002212 -0.001344 -0.0016926831
0.0018012 0.00128 -0.0013756099
0.0019276 0.00044800001 -4.3902517e-05
0.0034443999 -0.00044800001 -0.0022000002
0.00091639999 -0.00057600002 -4.3902517e-05
-0.00066359999 0.00128 -0.0046097562
0.0021172001 -0.001152 -0.0044829268
-0.003002 -0.001088 -0.0016292684
0.001422 -0.00019200001 -4.3902517e-05
-0.0026227999 -0.001024 -4.3902517e-05
-0.000474 -0.001344 -0.0028975611
-0.0019276 -0.00044800001 -4.3902517e-05
-0.0027492 -0.0012159999 -0.003785366
0.0012956 0.00128 -0.0012487806
0.0012324 -0.00128 -4.3902517e-05
-0.0023068001 -0.00128 -0.0019463416
-0.0033811999 -0.001024 -0.00055121962
0.003634 -0.00057600002 -0.00023414643
-0.000158 -0.001344 -0.0038487806
-0.0021804001 0.0012159999 -0.0034048783
0.0032548001 0.00089600001 -0.002390244
0.0035075999 0.00095999998 -0.00055121962
-0.0023068001 0.00083199999 -0.0046731709
-0.0023068001 -0.00128 -0.0020097562
-0.0012324 -0.001344 -0.0023268294
-0.0022436001 0.0012159999 -0.0027707319
0.0010428 0.001472 -0.00023414643
-0.0012324 -0.00089600001 -4.3902517e-05
-0.0031916001 -0.00095999998 -0.0037219515
-0.00085319998 0.00128 -0.0022000002
0.0019276 0.00128 -0.0033414636
-0.0015484 -0.00128 -0.0046731709
0.001422 0.00089600001 -4.3902517e-05
9.4800002e-05 -0.001344 -0.0013756099
0.0022436001 -0.0012159999 -0.0029609757
-0.0012956 0.00128 -0.0030243904
0.0019276 -0.001472 -0.00036097568
-0.0035707999 -0.000256 -0.0040390245
-0.002686 0.001152 -0.0021365855
0.00041080001 0.00128 -0.0013121952
0.002686 -0.001024 -4.3902517e-05
-0.001106 0.001472 -0.00029756106
-0.0019276 -0.00128 -0.0030878051
0.0029388 -0.000512 -0.0046731709
-0.0023699999 -0.00128 -0.0045463415
0.0021804001 0.00128 -0.0013121952
0.0002212 -0.00089600001 -0.0046731709
-0.003002 0.001024 -0.0034048783
0.0007268 0.00057600002 -4.3902517e-05
0.0033179999 0.00076800003 -0.0046731709
0.0035075999 0.00070400001 -0.0043560979
-0.0025595999 0.001152 -0.00080487813
-0.0018644 0.00063999998 -0.0046731709
0.0012956 0.000512 -0.0046731709
0.00079000002 0.00128 -0.0040390245
-0.0033811999 -0.00083199999 -0.0017560977
0.0015484 0.00128 -0.0044195126
9.4800002e-05 0.00128 -0.0034048783
0.00091639999 0.001344 -0.00067804888
-0.0023699999 0.0012159999 -0.0030878051
-0.0034443999 0.00083199999 -0.00017073179
-0.0021172001 0.000256 -4.3902517e-05
0.0035075999 -0.000512 -0.0038487806
0.001738 0.00128 -0.0016292684
-0.0035707999 -0.00044800001 -0.0010585367
0.0033811999 -0.000256 -4.3902517e-05
0.00079000002 0.00128 -0.0017560977
-0.0014852 0.00128 -0.0025170734
0.0035707999 -0.00031999999 -0.0020731709
0.0031916001 -0.00083199999 -0.0043560979
-0.0035707999 -0.00031999999 -0.001185366
0.0023068001 0.001088 -0.0046731709
0.0018012 0.00128 -0.0044829268
-0.00028440001 0.00128 -0.0013756099
0.0024331999 -0.001472 -0.00036097568
0.0016116 -0.00128 -0.0020097562
-0.0032548001 -0.00095999998 -0.00093170744
-0.0018012 -0.000128 0.0007170731
-0.001106 -0.00057600002 -4.3902517e-05
-0.0021804001 -0.00128 -0.0041024392
0.0035707999 0.00044800001 -0.0022000002
0.0011692001 0.001024 -4.3902517e-05
-0.0031916001 -0.00063999998 -4.3902517e-05
0.00085319998 -0.001344 -0.0030878051
0.003002 -6.4e-05 -0.0046731709
-0.0016116 -0.001344 -0.0033414636
0.00028440001 -0.00076800003 -4.3902517e-05
-0.0024331999 -0.00089600001 -0.0046731709
-0.0003476 -0.001344 -0.001185366
0.0035075999 0.00063999998 -0.0035951221
-0.0024331999 0.0012159999 -0.0035317075
0.0028124 -0.001152 -0.00055121962
0.0015484 0.00044800001 -4.3902517e-05
-0.00079000002 0.00128 -0.0027707319
0.0029388 0.001152 -0.0042292685
0.002054 -0.0012159999 -0.00017073179
0.0038236 0.00019200001 -0.00036097568
0.0011692001 -0.00089600001 -0.0046731709
0.0035075999 -0.00019200001 -0.0036585368
-0.0033179999 0.00019200001 -4.3902517e-05
-0.0011692001 0.001152 -4.3902517e-05
-0.00079000002 -0.001344 -0.0036585368
0.0019908 0.00128 -0.001185366
0.0002212 -0.00070400001 -0.0046731709
-0.0007268 0.001408 -4.3902517e-05
-0.0018644 -0.00128 -0.0028975611
-0.000158 -0.00038400001 -0.0046731709
-0.0026227999 -0.000512 -0.0046731709
-0.0015484 0.00128 -0.0018195123
0.0007268 -0.001408 -0.0036585368
0.0033811999 0.00083199999 -0.003785366
-0.0021804001 -0.00128 -0.0027073172
0.00060039997 -0.00128 -0.00010731715
-0.0012324 0.001152 -0.0046731709
0.0023068001 -2.1684043e-19 -0.0046731709
-0.0012956 0.00128 -0.0028341464
-0.0013588 -0.001344 -0.0033414636
-0.0038236 -0.00031999999 -4.3902517e-05
-0.0019908 -0.0012159999 -0.0046731709
0.00091639999 0.00057600002 -4.3902517e-05
0.0035707999 0.00057600002 -0.0045463415
0.00097960001 0.001408 -0.00055121962
0.0003476 6.4e-05 -4.3902517e-05
-0.001422 -0.00095999998 -4.3902517e-05
-0.00041080001 0.00044800001 -0.0046731709
-0.0031916001 -0.00095999998 -0.0031512196
0.0024331999 0.0012159999 -0.0046097562
-0.000158 0.00057600002 -4.3902517e-05
0.0022436001 -0.0012159999 -0.0039756098
0.00091639999 -0.001344 -0.0029609757
-0.0012324 0.00089600001 -0.0046731709
0.0002212 0.00128 -0.0032780489
-0.0034443999 0.00044800001 -0.0027073172
-0.000474 -0.001344 -4.3902517e-05
0.00028440001 0.001152 -4.3902517e-05
0.0035707999 0.00044800001 -0.002390244
0.0021804001 -0.00128 -0.00023414643
-0.0012956 -0.001344 -0.0013121952
-0.0035707999 -0.00057600002 -0.001185366
-0.0012324 -0.001344 -0.0030243904
9.4800002e-05 -0.001344 -0.0042292685
-0.00028440001 -0.001344 -0.0034682928
-0.0016116 0.00128 -0.0032780489
-0.00060039997 0.00128 -0.0034682928
-0.0028124 0.00128 -0.00023414643
-0.0016747999 0.00070400001 -0.0046731709
0.0003476 0.0016 -0.00036097568
0.0016116 -0.00095999998 -4.3902517e-05
-0.0023699999 0.001152 -0.0044195126
-0.0010428 0.00095999998 -4.3902517e-05
-0.0035075999 0.00019200001 -0.0036585368
-0.0014852 0.00128 -0.0041658538
-0.0034443999 -0.00076800003 -0.00099512201
-0.0019276 0.00070400001 -0.0046731709
-0.0028124 -0.000256 -0.0046731709
-0.0019276 -0.00128 -0.0034682928
-0.0023699999 0.0012159999 -0.0034682928
0.001106 0.000128 -4.3902517e-05
-9.4800002e-05 -0.001408 -0.00055121962
0.0012956 0.00128 -0.0022000002
-0.00028440001 0.00044800001 -4.3902517e-05
0.0012324 -0.00070400001 -4.3902517e-05
-0.002686 0.001088 -0.0044195126
0.0003476 0.000128 -4.3902517e-05
-0.0010428 0.001344 -0.00061463425
-0.0024963999 -0.000512 -4.3902517e-05
0.0027492 -0.00070400001 -0.0046731709
0.0023699999 -0.0012159999 -0.0030878051
0.001106 -0.001344 -0.0013756099
-0.0021804001 -0.00128 -0.0025804879
-0.0024331999 -0.00128 -0.0035317075
-0.003002 -0.001088 -0.00086829276
-0.002054 0.0012159999 -0.0032146343
0.0032548001 -0.00038400001 -4.3902517e-05
0.0031916001 0.00095999998 -0.0041658538
0.0033179999 0.00089600001 -0.003785366
-0.0019908 -0.00128 -0.0014390245
-0.00053720002 -0.001344 -0.0013121952
-0.0021172001 0.00019200001 -0.0046731709
0.00085319998 0.00128 -0.0027707319
-0.0029388 -0.00095999998 -4.3902517e-05
0.0016747999 -0.00128 -0.0026439026
0.0034443999 0.00076800003 -0.0012487806
0.001422 0.001344 -0.0007414635
-0.0013588 -0.00038400001 -4.3902517e-05
-0.0015484 -0.000256 -0.0046731709
0.0023699999 -0.000256 -0.0046731709
0.000158 -0.001344 -0.00093170744
0.0019276 0.00128 -0.0028341464
0.0022436001 0.0012159999 -0.0020097562
-0.0024963999 -0.00019200001 -0.0046731709
0.0021804001 0.001472 -0.00048780497
0.0030652001 -0.00044800001 -0.0046731709
0.0035075999 0.00063999998 -0.0018195123
-0.0033811999 0.000512 -0.0023268294
0.0011692001 -0.00128 -0.0030243904
-0.003002 0.001024 -0.0030878051
-0.002054 -0.00128 -0.0020097562
-0.0018644 -0.00128 -0.0020097562
0.0019276 0.00128 -0.0044195126
0.000474 0.001472 -0.00023414643
-0.0023699999 0.0012159999 -0.0014390245
0.001738 -0.00128 -0.00017073179
0.001422 0.00128 -0.0037219515
-0.0035075999 0.00031999999 -0.0039121951
0.001106 0.0016 -0.00042439034
0.0013588 0.001344 -0.00067804888
-0.0018644 -0.000128 8.2926752e-05
-0.0023699999 0.00070400001 -4.3902517e-05
-0.00041080001 0.001024 -4.3902517e-05
0.002686 -0.001152 -0.0012487806
0.002686 -0.001152 -0.0035317075
-0.0035707999 -0.000128 -0.0044829268
-0.0003476 -0.001344 -0.0020731709
0.0035075999 0.00089600001 -0.00023414643
-0.0012324 -0.001344 -0.002390244
0.0028756 -0.001024 -0.0020731709
-0.0019908 -0.00128 -0.0046731709
-0.00053720002 -0.001344 -0.00086829276
-0.0029388 0.00089600001 -4.3902517e-05
-0.0024331999 -0.00038400001 -0.0046731709
-0.0033179999 0.00070400001 -0.0021365855
-0.0035707999 -0.00044800001 -0.0020097562
0.0018012 -0.00095999998 -4.3902517e-05
-0.0014852 -0.001344 -0.00067804888
-0.00085319998 0.00128 -0.0010585367
0.0018644 0.00128 -0.0016926831
-0.0014852 -0.001344 -0.0022634147
-0.002054 -0.00128 -0.0039121951
-0.0014852 0.00128 -0.003785366
-0.000474 -0.001344 -0.0046097562
0.0035707999 0.00057600002 -0.0023268294
-0.0034443999 0.00038400001 -0.0020097562
0.0035075999 -0.000256 -0.0022000002
-0.0012956 -0.001344 -0.0022634147
0.003002 0.001088 -0.0025170734
-0.0003476 -0.0012159999 -0.0046731709
0.00060039997 -0.00044800001 -4.3902517e-05
0.003002 -0.001152 -0.00023414643
0.0032548001 0.00095999998 -0.0039121951
-0.001106 0.00057600002 -0.0046731709
0.00060039997 0.00128 -0.0014390245
0.0027492 0.000128 -4.3902517e-05
0.0013588 0.00031999999 -4.3902517e-05
0.0018644 6.4e-05 0.00078048772
-0.0026227999 0.001152 -0.0036585368
-0.002054 -0.001472 -0.00042439034
-0.0037604 0.00019200001 -0.00023414643
0.0030652001 0.001024 -0.0015024391
0.0035707999 0.000256 -0.003785366
0.00085319998 -0.001344 -0.0042926832
0.003002 -0.0012159999 -0.00042439034
3.1600001e-05 -0.00019200001 -0.0046731709
0.00060039997 -0.001408 -0.0036585368
-0.000474 0.00128 -0.0014390245
0.0026227999 -0.001152 -0.0013121952
-0.0024963999 0.00070400001 -4.3902517e-05
0.00041080001 -0.001344 -0.0026439026
-3.1600001e-05 -2.1684043e-19 -4.3902517e-05
0.0019908 -0.00128 -0.0012487806
-0.0033179999 -0.00063999998 -0.0046731709
0.00041080001 0.001472 -0.00017073179
0.00085319998 0.00128 -0.0034682928
-0.001106 0.00076800003 -0.0046731709
-0.00097960001 0.00128 -0.0046731709
0.0018644 0.00128 -0.0013756099
-0.0030652001 0.00095999998 -0.0012487806
0.0003476 0.00128 -0.00099512201
-0.0013588 -0.001472 -0.00055121962
-9.4800002e-05 0.00128 -0.001185366
-0.0018012 0.00128 -0.0028975611
0.002686 -0.001024 -0.0045463415
0.003634 0.00063999998 -0.00055121962
9.4800002e-05 0.001152 -0.0046731709
-0.001738 -0.001344 -0.0017560977
-0.0014852 0.00128 -0.001185366
0.0030652001 0.001024 -0.0016292684
0.00028440001 0.001472 -0.00029756106
-0.002686 -0.00128 -4.3902517e-05
-0.0033179999 -0.00089600001 -0.0030243904
-0.002686 0.001152 -0.0035317075
-0.0023068001 0.001344 -0.00042439034
0.002686 -0.001152 -0.0015658538
-0.0025595999 0.001408 -0.00029756106
-0.003002 0.00089600001 -4.3902517e-05
-0.0012324 0.001024 -0.0046731709
0.00091639999 0.001344 -0.0007414635
0.0031916001 0.00095999998 -0.0011219513
-0.000158 -0.00083199999 -4.3902517e-05
0.002686 -0.001152 -0.0039121951
0.0012956 0.00128 -0.0020097562
0.0002212 -6.4e-05 -0.0046731709
-0.0031284001 -0.0012159999 -0.00055121962
0.0012956 -0.00057600002 -0.0046731709
-0.0030652001 0.00095999998 -0.0032146343
0.0026227999 6.4e-05 -4.3902517e-05
0.0007268 -0.00089600001 -4.3902517e-05
0.0025595999 -0.001408 -0.00042439034
-0.000474 0.00128 -0.0012487806
-0.0035707999 -0.00076800003 -0.00067804888
-0.00060039997 0.00128 -4.3902517e-05
-0.0013588 -0.001344 -0.0045463415
-0.0002212 0.001152 -4.3902517e-05
-0.00053720002 0.00070400001 -0.0046731709
0.0018644 -0.000512 -4.3902517e-05
