# .PCD v0.7 - Point Cloud Data file format
VERSION 0.7
FIELDS x y z
SIZE 4 4 4
TYPE F F F
COUNT 1 1 1
WIDTH 1196
HEIGHT 1
VIEWPOINT 0 0 0 1 0 0 0
POINTS 1196
DATA ascii
-0.0035107008 -0.00011545455 -0.023315268
-0.011438089 0.00034636364 -0.0035244275
-0.011438089 -0.00034636364 -0.0035244275
-0.016874013 -0.00127 -0.0014770993
-0.016647516 -0.00127 -0.0014770993
-0.01642102 -0.00127 -0.0014770993
-0.016194522 -0.00127 -0.0014770993
-0.015968027 -0.00127 -0.0014770993
-0.0087201279 0.00034636364 -0.012851145
-0.011211593 -0.00011545455 -0.0035244275
-0.0087201279 0.00034636364 -0.009438931
-0.0062286626 0.00034636364 -0.023315268
-0.0062286626 -0.00034636364 -0.023315268
-0.015515032 -0.00127 -0.0014770993
-0.0064551593 0.00034636364 -0.023315268
-0.0064551593 -0.00034636364 -0.023315268
-0.015288536 -0.00127 -0.0014770993
-0.015062039 -0.00127 -0.0014770993
-0.014835542 -0.00127 -0.0014770993
-0.0014722294 0.00034636364 -0.0073916032
-0.014609045 -0.00127 -0.0014770993
0.017327007 0.00127 -0.0017045802
-0.0064551593 -0.00034636364 -0.015125955
-0.0064551593 0.00034636364 -0.015125955
-0.0062286626 -0.00034636364 -0.015125955
-0.0062286626 0.00034636364 -0.015125955
0.0035107008 -0.00011545455 -0.02149542
-0.0010192357 -0.00034636364 -0.023315268
-0.0062286626 0.00034636364 -0.009438931
-0.0062286626 -0.00034636364 -0.009438931
-0.0035107008 -0.00011545455 -0.016263358
0.017100509 -0.00127 -0.0017045802
0.017100509 0.00127 -0.0017045802
-0.014382548 -0.00127 -0.0014770993
0.01778 0.00011545455 -0.0017045802
0.01778 0.00034636364 -0.0017045802
-0.0035107008 -0.00011545455 -0.0073916032
-0.0035107008 0.00011545455 -0.0073916032
-0.0064551593 0.00034636364 -0.009438931
-0.01778 -0.00034636364 -0.0014770993
-0.01778 -0.00011545455 -0.0014770993
-0.01778 0.00011545455 -0.0014770993
-0.01778 0.00034636364 -0.0014770993
-0.011211593 0.00011545455 -0.0035244275
-0.010305605 -0.00127 -0.0014770993
-0.011891083 -0.00127 -0.0014770993
-0.011211593 0.00011545455 -0.009438931
-0.011438089 0.00034636364 -0.023315268
-0.011438089 -0.00034636364 -0.023315268
-0.011664586 -0.00127 -0.0014770993
-0.011438089 0.00034636364 -0.009438931
-0.011438089 -0.00127 -0.0014770993
-0.011211593 -0.00127 -0.0014770993
-0.010985096 -0.00127 -0.0014770993
-0.010758599 -0.00127 -0.0014770993
-0.010532103 -0.00127 -0.0014770993
-0.0010192357 -0.00034636364 -0.0073916032
-0.010079108 -0.00127 -0.0014770993
-0.011438089 -0.00034636364 -0.009438931
-0.013703058 0.00011545455 -0.023315268
-0.013703058 -0.00011545455 -0.023315268
-0.0098526115 -0.00127 -0.0014770993
-0.013929554 0.00034636364 -0.023315268
-0.013929554 -0.00034636364 -0.023315268
-0.014156051 0.00011545455 -0.023315268
-0.0096261147 -0.00127 -0.0014770993
-0.009399618 -0.00127 -0.0014770993
-0.0089466246 -0.00034636364 -0.023315268
-0.014156051 -0.00127 -0.0014770993
-0.013929554 -0.00127 -0.0014770993
-0.013703058 0.00011545455 -0.0035244275
-0.013703058 -0.00011545455 -0.0035244275
-0.0035107008 -0.00011545455 -0.015125955
-0.0035107008 0.00011545455 -0.015125955
-0.0087201279 0.00034636364 -0.023315268
-0.0087201279 -0.00034636364 -0.023315268
-0.013703058 -0.00127 -0.0014770993
-0.0089466246 0.00034636364 -0.009438931
-0.0089466246 0.00034636364 -0.023315268
0.0010192357 0.00034636364 -0.023315268
-0.013929554 -0.00034636364 -0.0035244275
-0.013476561 -0.00127 -0.0014770993
-0.014156051 0.00011545455 -0.0035244275
-0.0089466246 -0.00034636364 -0.009438931
-0.013250064 -0.00127 -0.0014770993
-0.013023567 -0.00127 -0.0014770993
-0.012797071 -0.00127 -0.0014770993
-0.012570574 -0.00127 -0.0014770993
-0.012344076 -0.00127 -0.0014770993
-0.01211758 -0.00127 -0.0014770993
-0.0050961785 0.00127 -0.0017045802
-0.0062286626 -0.00127 -0.0017045802
-0.0062286626 0.00127 -0.0017045802
-0.0060021658 -0.00127 -0.0017045802
-0.0060021658 0.00127 -0.0017045802
-0.0057756691 -0.00127 -0.0017045802
-0.0057756691 0.00127 -0.0017045802
-0.0055491719 -0.00127 -0.0017045802
-0.0055491719 0.00127 -0.0017045802
-0.0053226752 -0.00127 -0.0017045802
-0.0053226752 0.00127 -0.0017045802
-0.0050961785 -0.00127 -0.0017045802
-0.0089466246 -0.00034636364 -0.0073916032
-0.0048696818 -0.00127 -0.0017045802
-0.0048696818 0.00127 -0.0017045802
-0.0087201279 0.00034636364 -0.023087787
-0.0046431846 -0.00127 -0.0017045802
-0.0089466246 0.00034636364 -0.023087787
-0.0087201279 0.00034636364 -0.0073916032
-0.0089466246 -0.00034636364 -0.023087787
-0.0046431846 0.00127 -0.0017045802
-0.0044166879 -0.00127 -0.0017045802
-0.0044166879 0.00127 -0.0017045802
-0.006681656 0.00127 -0.0017045802
-0.0064551593 -0.00034636364 -0.0035244275
-0.0075876433 -0.00127 -0.0017045802
-0.0075876433 0.00127 -0.0017045802
-0.0073611466 -0.00127 -0.0017045802
-0.0073611466 0.00127 -0.0017045802
-0.0071346499 -0.00127 -0.0017045802
-0.0071346499 0.00127 -0.0017045802
-0.0069081532 -0.00127 -0.0017045802
0.0010192357 0.00034636364 -0.02149542
-0.0069081532 0.00127 -0.0017045802
-0.006681656 -0.00127 -0.0017045802
-0.011211593 0.00011545455 -0.023087787
-0.0064551593 -0.00127 -0.0017045802
-0.014156051 0.00011545455 -0.015125955
-0.013929554 -0.00034636364 -0.015125955
-0.0062286626 0.00034636364 -0.023087787
-0.0062286626 -0.00034636364 -0.023087787
-0.0064551593 0.00034636364 -0.023087787
-0.0064551593 -0.00034636364 -0.023087787
-0.013703058 -0.00011545455 -0.015125955
-0.013703058 0.00011545455 -0.015125955
-0.0064551593 0.00127 -0.0017045802
0.014156051 -0.00011545455 -0.013306106
-0.0089466246 -0.00034636364 -0.0035244275
0.011438089 -0.00034636364 -0.023315268
-0.011211593 -0.00011545455 -0.015125955
-0.011211593 0.00011545455 -0.015125955
-0.0062286626 -0.00034636364 -0.0073916032
0.0010192357 0.00034636364 -0.009438931
0.0089466246 0.00034636364 -0.023315268
0.0089466246 -0.00034636364 -0.023315268
0.0087201279 -0.00034636364 -0.023315268
-0.0062286626 0.00034636364 -0.0073916032
-0.0010192357 -0.00034636364 -0.009438931
0.011438089 0.00034636364 -0.023315268
-0.0014722294 0.00034636364 -0.009438931
0.0064551593 -0.00034636364 -0.023315268
0.0062286626 0.00034636364 -0.023315268
0.0062286626 -0.00034636364 -0.023315268
-0.0089466246 -0.00034636364 -0.015125955
-0.0087201279 -0.00034636364 -0.015125955
-0.0087201279 0.00034636364 -0.015125955
-0.0035107008 0.00011545455 -0.009438931
-0.0035107008 -0.00011545455 -0.009438931
-0.0089466246 -0.00034636364 -0.012851145
0.016647516 -0.00011545455 -0.023315268
-0.011211593 -0.00011545455 -0.023087787
-0.011438089 0.00034636364 -0.023087787
-0.011438089 -0.00034636364 -0.023087787
-0.013703058 0.00011545455 -0.023087787
-0.013703058 -0.00011545455 -0.023087787
-0.0064551593 -0.00034636364 -0.0073916032
-0.0010192357 -0.00034636364 -0.016263358
-0.014156051 0.00011545455 -0.023087787
-0.016194522 -0.00011545455 -0.023087787
-0.0064551593 0.00034636364 -0.0073916032
-0.0014722294 0.00034636364 -0.016263358
0.011438089 0.00034636364 -0.015353435
0.01642102 -0.00034636364 -0.023315268
0.016194522 0.00011545455 -0.023315268
0.016194522 -0.00011545455 -0.023315268
-0.0087201279 0.00034636364 -0.0035244275
-0.011438089 -0.00034636364 -0.015125955
0.014156051 -0.00011545455 -0.023315268
-0.0087201279 -0.00034636364 -0.0035244275
0.013929554 -0.00034636364 -0.023315268
-0.011438089 0.00034636364 -0.015125955
-0.0089466246 0.00034636364 -0.0035244275
-0.0089466246 -0.00034636364 -0.0089839697
0.015741529 -0.00127 -0.0023870228
-0.0087201279 -0.00034636364 -0.0089839697
0.015741529 -0.00011545455 -0.0023870228
0.015741529 0.00011545455 -0.0023870228
0.015741529 0.00080818182 -0.0023870228
0.015741529 0.0010390909 -0.0023870228
0.015741529 0.00127 -0.0023870228
0.015968027 -0.00057727273 -0.0023870228
0.015968027 -0.00034636364 -0.0023870228
0.015968027 0.00011545455 -0.0023870228
-0.0064551593 -0.00034636364 -0.0076190839
-0.01642102 -0.00034636364 -0.016035877
-0.0064551593 0.00034636364 -0.0076190839
0.015968027 0.00034636364 -0.0023870228
0.015968027 0.00080818182 -0.0023870228
0.015968027 0.0010390909 -0.0023870228
0.016194522 -0.00080818182 -0.0023870228
-0.0062286626 -0.00034636364 -0.0076190839
-0.0062286626 0.00034636364 -0.0076190839
0.016194522 -0.00057727273 -0.0023870228
-0.011438089 -0.00034636364 -0.02149542
-0.011438089 0.00034636364 -0.02149542
0.016194522 -0.00034636364 -0.0023870228
0.015288536 0.00034636364 -0.0023870228
-0.0087201279 0.00034636364 -0.0089839697
0.015062039 0.00011545455 -0.0023870228
0.015062039 0.00034636364 -0.0023870228
0.011438089 0.00034636364 -0.0035244275
0.015062039 0.00057727273 -0.0023870228
0.015062039 0.0010390909 -0.0023870228
0.015062039 0.00127 -0.0023870228
0.011438089 -0.00034636364 -0.0035244275
0.015288536 -0.00127 -0.0023870228
0.0062286626 0.00034636364 -0.013078626
0.015288536 -0.00011545455 -0.0023870228
0.016194522 0.00057727273 -0.0023870228
0.015288536 0.0010390909 -0.0023870228
0.015288536 0.00127 -0.0023870228
-0.016194522 -0.00011545455 -0.016035877
0.015515032 -0.00127 -0.0023870228
0.0062286626 -0.00034636364 -0.013078626
0.015515032 -0.0010390909 -0.0023870228
0.015515032 0.00011545455 -0.0023870228
0.015515032 0.00057727273 -0.0023870228
0.015515032 0.0010390909 -0.0023870228
0.015515032 0.00127 -0.0023870228
-0.017553503 0.0010390909 -0.0021595419
0.016647516 0.00034636364 -0.016263358
0.016647516 -0.00011545455 -0.016263358
-0.011438089 0.00034636364 -0.0089839697
-0.011438089 -0.00034636364 -0.0089839697
0.01642102 0.00034636364 -0.016263358
0.01642102 -0.00034636364 -0.016263358
-0.01778 -0.00034636364 -0.0021595419
0.016194522 0.00011545455 -0.016263358
-0.01778 -0.00011545455 -0.0021595419
-0.01778 0.00011545455 -0.0021595419
-0.01778 0.00034636364 -0.0021595419
-0.011211593 0.00011545455 -0.0089839697
-0.0014722294 0.00034636364 -0.0076190839
-0.017100509 -0.00127 -0.0021595419
-0.016874013 -0.00127 -0.0021595419
-0.016647516 -0.00127 -0.0021595419
-0.01642102 -0.00127 -0.0021595419
-0.0035107008 -0.00011545455 -0.022405343
-0.013703058 -0.00011545455 -0.0089839697
-0.0010192357 -0.00034636364 -0.0076190839
-0.013929554 -0.00034636364 -0.0089839697
-0.014156051 0.00011545455 -0.0089839697
0.016874013 0.00080818182 -0.0023870228
0.016194522 0.00127 -0.0023870228
-0.011211593 -0.00011545455 -0.02149542
-0.011211593 0.00011545455 -0.02149542
0.01642102 -0.00057727273 -0.0023870228
0.01642102 -0.00034636364 -0.0023870228
0.016647516 -0.00034636364 -0.0023870228
0.016647516 -0.00011545455 -0.0023870228
-0.0064551593 -0.00034636364 -0.015353435
0.016647516 0.00080818182 -0.0023870228
0.016647516 0.0010390909 -0.0023870228
-0.0064551593 0.00034636364 -0.015353435
0.014835542 0.00127 -0.0023870228
0.0089466246 0.00034636364 -0.0035244275
0.016874013 0.00127 -0.0023870228
0.017100509 0.00080818182 -0.0023870228
0.017100509 0.0010390909 -0.0023870228
0.0087201279 -0.00011545455 -0.0035244275
-0.0035107008 -0.00011545455 -0.0076190839
-0.0062286626 -0.00034636364 -0.015353435
-0.0062286626 0.00034636364 -0.015353435
-0.0010192357 -0.00034636364 -0.022405343
-0.0014722294 0.00034636364 -0.022405343
-0.013703058 -0.00011545455 -0.02149542
0.012570574 -0.00057727273 -0.0023870228
-0.011438089 0.00034636364 -0.0076190839
0.012570574 -0.00034636364 -0.0023870228
-0.0062286626 0.00034636364 -0.0089839697
0.016194522 0.00011545455 -0.0035244275
0.012570574 -0.00011545455 -0.0023870228
0.012570574 0.00011545455 -0.0023870228
0.012570574 0.00034636364 -0.0023870228
0.012570574 0.00057727273 -0.0023870228
0.012570574 0.00080818182 -0.0023870228
-0.0062286626 -0.00034636364 -0.0089839697
0.012570574 -0.0010390909 -0.0023870228
-0.013703058 0.00011545455 -0.02149542
0.012570574 0.0010390909 -0.0023870228
0.012797071 -0.00127 -0.0023870228
0.016194522 -0.00011545455 -0.0035244275
0.0064551593 -0.00034636364 -0.022405343
0.012797071 -0.00080818182 -0.0023870228
0.012797071 -0.00057727273 -0.0023870228
0.012797071 -0.00034636364 -0.0023870228
0.012797071 -0.00011545455 -0.0023870228
0.0062286626 0.00034636364 -0.022405343
-0.011211593 -0.00011545455 -0.0076190839
0.012344076 -0.00011545455 -0.0023870228
0.01211758 -0.00127 -0.0023870228
0.01211758 -0.0010390909 -0.0023870228
0.01211758 0.00011545455 -0.0023870228
0.01211758 0.00034636364 -0.0023870228
0.01211758 0.00057727273 -0.0023870228
0.01211758 0.00080818182 -0.0023870228
0.01211758 0.0010390909 -0.0023870228
0.01211758 0.00127 -0.0023870228
-0.011438089 -0.00034636364 -0.0076190839
0.012344076 -0.00127 -0.0023870228
0.012344076 -0.0010390909 -0.0023870228
0.0062286626 -0.00034636364 -0.022405343
-0.014156051 0.00011545455 -0.02149542
0.012344076 0.00011545455 -0.0023870228
0.012344076 0.00034636364 -0.0023870228
0.012344076 0.00057727273 -0.0023870228
0.012344076 0.00080818182 -0.0023870228
0.012344076 0.0010390909 -0.0023870228
0.012344076 0.00127 -0.0023870228
0.012570574 -0.00127 -0.0023870228
-0.013929554 -0.00034636364 -0.02149542
-0.013929554 0.00034636364 -0.02149542
0.014609045 -0.0010390909 -0.0023870228
0.014156051 -0.0010390909 -0.0023870228
0.014156051 -0.00080818182 -0.0023870228
0.014156051 0.00127 -0.0023870228
0.013703058 -0.00011545455 -0.0035244275
0.014382548 -0.0010390909 -0.0023870228
0.014382548 -0.00080818182 -0.0023870228
0.014382548 -0.00057727273 -0.0023870228
-0.0087201279 0.00034636364 -0.015353435
0.014382548 0.0010390909 -0.0023870228
-0.0089466246 -0.00034636364 -0.0076190839
-0.0089466246 0.00034636364 -0.0076190839
0.014156051 -0.00127 -0.0023870228
-0.0087201279 -0.00034636364 -0.0076190839
0.014609045 -0.00057727273 -0.0023870228
0.014609045 -0.00034636364 -0.0023870228
-0.0087201279 0.00034636364 -0.0076190839
0.014609045 0.00080818182 -0.0023870228
0.014835542 -0.00080818182 -0.0023870228
0.014835542 -0.00011545455 -0.0023870228
0.014835542 0.00034636364 -0.0023870228
0.014835542 0.00057727273 -0.0023870228
0.014835542 0.00080818182 -0.0023870228
0.013023567 0.00034636364 -0.0023870228
0.012797071 0.00011545455 -0.0023870228
0.012797071 0.00034636364 -0.0023870228
0.012797071 0.00057727273 -0.0023870228
-0.0064551593 0.00034636364 -0.0089839697
-0.0064551593 -0.00034636364 -0.0089839697
0.014156051 -0.00011545455 -0.0035244275
0.013023567 -0.00057727273 -0.0023870228
0.013023567 -0.00034636364 -0.0023870228
0.013023567 -0.00011545455 -0.0023870228
0.013023567 0.00011545455 -0.0023870228
-0.0089466246 -0.00034636364 -0.015353435
-0.0062286626 0.00034636364 -0.022405343
0.013250064 -0.00057727273 -0.0023870228
0.013250064 -0.00034636364 -0.0023870228
0.013250064 -0.00011545455 -0.0023870228
0.013250064 0.00127 -0.0023870228
0.013476561 -0.00057727273 -0.0023870228
0.013476561 -0.00034636364 -0.0023870228
0.013476561 0.00127 -0.0023870228
0.013929554 -0.0010390909 -0.0023870228
0.013929554 -0.00080818182 -0.0023870228
0.013929554 0.00127 -0.0023870228
0.013703058 -0.00011545455 -0.022860305
-0.013250064 0.00127 -0.001932061
-0.013023567 0.00127 -0.001932061
-0.012797071 0.00127 -0.001932061
-0.012570574 0.00127 -0.001932061
-0.012344076 0.00127 -0.001932061
-0.01211758 0.00127 -0.001932061
-0.011891083 0.00127 -0.001932061
-0.011664586 0.00127 -0.001932061
0.014156051 -0.00011545455 -0.022860305
-0.011438089 0.00127 -0.001932061
0.013703058 0.00011545455 -0.022860305
0.016194522 -0.00011545455 -0.022860305
-0.011211593 0.00127 -0.001932061
0.0089466246 -0.00034636364 -0.016263358
-0.010985096 0.00127 -0.001932061
-0.010758599 0.00127 -0.001932061
-0.010532103 0.00127 -0.001932061
0.0087201279 -0.00011545455 -0.0076190839
-0.010305605 0.00127 -0.001932061
-0.010079108 0.00127 -0.001932061
-0.0098526115 0.00127 -0.001932061
0.0087201279 -0.00034636364 -0.016263358
-0.0096261147 0.00127 -0.001932061
-0.014835542 0.00127 -0.001932061
-0.016647516 0.00127 -0.001932061
-0.01642102 0.00127 -0.001932061
-0.016194522 0.00127 -0.001932061
-0.0062286626 -0.00034636364 -0.02149542
-0.0062286626 0.00034636364 -0.02149542
0.0064551593 -0.00034636364 -0.0076190839
-0.015968027 0.00127 -0.001932061
-0.015741529 0.00127 -0.001932061
-0.015515032 0.00127 -0.001932061
-0.015288536 0.00127 -0.001932061
-0.015062039 0.00127 -0.001932061
-0.009399618 0.00127 -0.001932061
-0.014609045 0.00127 -0.001932061
-0.014382548 0.00127 -0.001932061
-0.014156051 0.00127 -0.001932061
-0.013929554 0.00127 -0.001932061
-0.013703058 0.00127 -0.001932061
0.0035107008 -0.00011545455 -0.0035244275
0.016647516 -0.00011545455 -0.022860305
-0.013476561 0.00127 -0.001932061
0.01642102 -0.00034636364 -0.022860305
0.016194522 0.00011545455 -0.022860305
0.011438089 0.00034636364 -0.0076190839
0.0087201279 0.00034636364 -0.015353435
-0.0064551593 0.00127 -0.001932061
-0.0062286626 0.00127 -0.001932061
-0.0014722294 0.00034636364 -0.0092114508
-0.0060021658 0.00127 -0.001932061
0.0089466246 0.00034636364 -0.015353435
0.0064551593 -0.00034636364 -0.022860305
0.011438089 -0.00034636364 -0.0076190839
0.0062286626 0.00034636364 -0.022860305
0.0062286626 -0.00034636364 -0.022860305
-0.0057756691 0.00127 -0.001932061
-0.006681656 0.00127 -0.001932061
0.0010192357 0.00034636364 -0.0035244275
-0.0055491719 0.00127 -0.001932061
-0.0053226752 0.00127 -0.001932061
-0.0035107008 0.00011545455 -0.0092114508
-0.0050961785 0.00127 -0.001932061
0.013703058 -0.00011545455 -0.013306106
-0.0035107008 -0.00011545455 -0.0092114508
0.0035107008 -0.00011545455 -0.022860305
0.013703058 0.00011545455 0.0023900764
0.011438089 -0.00034636364 -0.015353435
0.013929554 0.00034636364 0.0023900764
0.011438089 0.00034636364 -0.022860305
0.011438089 -0.00034636364 -0.022860305
0.0010192357 0.00034636364 -0.0092114508
-0.0091731213 0.00127 -0.001932061
-0.0089466246 0.00127 -0.001932061
0.0089466246 0.00034636364 -0.0076190839
-0.0087201279 0.00127 -0.001932061
-0.0084936311 0.00127 -0.001932061
-0.0082671335 0.00127 -0.001932061
-0.0080406368 0.00127 -0.001932061
-0.0078141401 0.00127 -0.001932061
-0.016874013 0.00127 -0.001932061
-0.0010192357 -0.00034636364 -0.0092114508
-0.0075876433 0.00127 -0.001932061
0.0089466246 0.00034636364 -0.022860305
0.0089466246 -0.00034636364 -0.022860305
0.0087201279 0.00034636364 -0.022860305
0.0087201279 -0.00034636364 -0.022860305
-0.0073611466 0.00127 -0.001932061
-0.0071346499 0.00127 -0.001932061
0.0087201279 -0.00034636364 -0.015353435
-0.0069081532 0.00127 -0.001932061
0.013703058 -0.00011545455 -0.0092114508
0.016194522 -0.00011545455 -0.022632824
0.014156051 -0.00011545455 -0.022632824
0.013929554 0.00034636364 -0.022632824
-0.0087201279 0.00034636364 -0.02149542
0.014156051 -0.00011545455 -0.016263358
0.014156051 -0.00011545455 -0.0092114508
0.013929554 0.00034636364 -0.016263358
0.011438089 0.00034636364 -0.022632824
0.011438089 -0.00034636364 -0.022632824
0.0062286626 0.00034636364 -0.0035244275
0.0062286626 -0.00034636364 -0.0035244275
0.016194522 0.00011545455 -0.022632824
0.0089466246 0.00034636364 -0.022632824
0.0089466246 -0.00034636364 -0.022632824
0.0087201279 -0.00034636364 -0.022632824
0.013703058 -0.00011545455 -0.016263358
0.011438089 0.00034636364 -0.0092114508
-0.0014722294 0.00034636364 -0.015353435
0.011438089 -0.00034636364 -0.0092114508
0.0064551593 -0.00034636364 -0.022632824
0.0062286626 0.00034636364 -0.022632824
0.0062286626 -0.00034636364 -0.022632824
-0.013703058 0.00011545455 -0.022405343
-0.0062286626 -0.00034636364 -0.022405343
-0.0064551593 0.00034636364 -0.022405343
-0.0064551593 -0.00034636364 -0.022405343
-0.0087201279 0.00034636364 -0.022405343
-0.0089466246 -0.00034636364 -0.022405343
-0.0035107008 -0.00011545455 -0.015353435
0.0010192357 0.00034636364 -0.0076190839
-0.0035107008 0.00011545455 -0.015353435
-0.011438089 0.00034636364 -0.022405343
-0.011438089 -0.00034636364 -0.022405343
0.016647516 -0.00011545455 0.0023900764
-0.0010192357 -0.00034636364 -0.015353435
-0.013703058 -0.00011545455 -0.022405343
-0.013929554 0.00034636364 -0.022405343
-0.014156051 0.00011545455 -0.022405343
-0.0091731213 0.00011545455 -0.02149542
0.016194522 0.00011545455 -0.0092114508
-0.0089466246 -0.00034636364 -0.02149542
0.016194522 -0.00011545455 -0.0092114508
0.0064551593 -0.00034636364 -0.0035244275
0.016647516 -0.00011545455 -0.022632824
0.01642102 -0.00034636364 -0.022632824
0.0064551593 -0.00034636364 -0.015353435
0.0062286626 -0.00034636364 -0.015353435
0.0062286626 0.00034636364 -0.015353435
0.017100509 -0.00127 -0.0021595419
0.017100509 0.00127 -0.0021595419
0.017327007 0.00127 -0.0021595419
-0.013703058 0.00011545455 -0.022632824
-0.013703058 -0.00011545455 -0.022632824
-0.013929554 -0.00034636364 -0.022632824
0.01778 0.00011545455 -0.0021595419
0.01778 0.00034636364 -0.0021595419
-0.014156051 0.00011545455 -0.022632824
-0.011438089 -0.00034636364 -0.022632824
-0.01778 -0.00034636364 -0.001932061
-0.01778 -0.00011545455 -0.001932061
-0.01778 0.00011545455 -0.001932061
-0.01778 0.00034636364 -0.001932061
-0.017553503 0.0010390909 -0.001932061
-0.0064551593 -0.00034636364 -0.02149542
-0.0064551593 0.00034636364 -0.02149542
-0.017100509 -0.00127 -0.001932061
0.0062286626 -0.00034636364 -0.0076190839
0.0062286626 0.00034636364 -0.0076190839
-0.011438089 0.00034636364 -0.012851145
0.0035107008 -0.00011545455 -0.0076190839
0.0089466246 0.00034636364 -0.0092114508
0.0087201279 0.00034636364 -0.0092114508
0.0087201279 -0.00011545455 -0.0092114508
0.016194522 0.00011545455 0.0023900764
0.0010192357 0.00034636364 -0.015353435
0.016194522 -0.00011545455 0.0023900764
-0.011438089 -0.00034636364 -0.012851145
-0.0010192357 -0.00034636364 -0.022632824
0.0062286626 0.00034636364 -0.0092114508
0.0062286626 -0.00034636364 -0.0092114508
-0.014156051 0.00011545455 -0.013306106
-0.0035107008 -0.00011545455 -0.022632824
-0.0062286626 0.00034636364 -0.022632824
-0.0062286626 -0.00034636364 -0.022632824
-0.0064551593 0.00034636364 -0.022632824
-0.0064551593 -0.00034636364 -0.022632824
-0.0087201279 0.00034636364 -0.022632824
-0.0087201279 -0.00034636364 -0.022632824
-0.0089466246 0.00034636364 -0.022632824
-0.0089466246 -0.00034636364 -0.022632824
-0.011438089 0.00034636364 -0.022632824
-0.013929554 -0.00034636364 -0.012168703
0.011438089 -0.00034636364 -0.014443511
-0.0062286626 0.00034636364 -0.013306106
-0.011211593 0.00011545455 -0.012168703
0.014156051 -0.00011545455 -0.011031298
-0.014156051 0.00011545455 -0.025590077
-0.011438089 0.00034636364 -0.012168703
-0.011438089 -0.00034636364 -0.012168703
-0.013929554 0.00034636364 -0.025590077
0.016194522 -0.00011545455 -0.011031298
0.0062286626 -0.00034636364 0.0017076336
0.0062286626 0.00034636364 0.0017076336
0.0064551593 -0.00034636364 0.0017076336
-0.013703058 0.00011545455 -0.025590077
-0.013703058 -0.00011545455 -0.012168703
-0.0062286626 0.00034636364 -0.0039793891
-0.014156051 0.00011545455 -0.012168703
0.0035107008 -0.00011545455 0.0003427481
0.0087201279 -0.00011545455 0.0017076336
0.0087201279 0.00034636364 0.0017076336
0.0062286626 -0.00034636364 -0.0067091603
0.0089466246 -0.00034636364 0.0017076336
0.0089466246 0.00034636364 0.0017076336
-0.014156051 0.00011545455 -0.010803817
-0.013929554 -0.00034636364 -0.010803817
-0.013703058 -0.00011545455 -0.010803817
-0.013703058 0.00011545455 -0.010803817
0.0062286626 0.00034636364 -0.0067091603
-0.011438089 0.00034636364 0.0023900764
0.011438089 0.00034636364 -0.0069366414
-0.011438089 0.00034636364 -0.013078626
0.013703058 0.00011545455 -0.012851145
-0.0014722294 0.00034636364 0.0017076336
-0.0010192357 -0.00034636364 0.0017076336
-0.0014722294 0.00034636364 -0.012168703
-0.0014722294 0.00034636364 0.0023900764
-0.0035107008 -0.00011545455 -0.012168703
0.0089466246 0.00034636364 -0.011031298
0.014156051 -0.00011545455 -0.013761069
-0.0062286626 0.00034636364 -0.012168703
-0.0062286626 -0.00034636364 -0.012168703
0.011438089 -0.00034636364 -0.011031298
0.011438089 0.00034636364 -0.011031298
-0.0064551593 0.00034636364 -0.012168703
-0.0064551593 -0.00034636364 -0.012168703
-0.011438089 -0.00034636364 0.0023900764
0.0064551593 -0.00034636364 0.0003427481
-0.011211593 0.00011545455 0.0023900764
-0.011211593 -0.00011545455 0.0023900764
0.0062286626 0.00034636364 0.0003427481
0.0062286626 -0.00034636364 0.0003427481
-0.0087201279 0.00034636364 -0.012168703
0.0035107008 -0.00011545455 0.0017076336
0.016194522 -0.00011545455 -0.013761069
0.016194522 0.00011545455 -0.013761069
0.0035107008 -0.00011545455 -0.0042068702
-0.0089466246 -0.00034636364 -0.012168703
0.011438089 0.00034636364 -0.014443511
-0.0062286626 -0.00034636364 -0.0039793891
-0.011438089 -0.00034636364 0.0019351145
-0.0064551593 0.00034636364 -0.013078626
0.0062286626 -0.00034636364 -0.014443511
-0.014156051 0.00011545455 0.0019351145
-0.013929554 0.00034636364 0.0019351145
-0.013703058 -0.00011545455 0.0019351145
-0.013703058 0.00011545455 0.0019351145
-0.0064551593 -0.00034636364 -0.010803817
-0.0064551593 0.00034636364 -0.010803817
-0.0062286626 -0.00034636364 -0.010803817
-0.0062286626 0.00034636364 -0.010803817
-0.014156051 0.00011545455 -0.013533588
-0.0035107008 -0.00011545455 0.0003427481
-0.013929554 -0.00034636364 -0.013533588
-0.011438089 0.00011545455 0.0030725191
0.0062286626 0.00034636364 -0.014443511
-0.011438089 0.00034636364 0.0019351145
-0.0089466246 -0.00034636364 -0.025590077
-0.011438089 -0.00034636364 -0.013078626
-0.011211593 -0.00011545455 0.0019351145
-0.011211593 0.00011545455 0.0019351145
0.0089466246 0.00034636364 -0.012396183
-0.0060021658 -0.00011545455 0.0003427481
-0.0035107008 -0.00011545455 -0.010803817
-0.013703058 -0.00011545455 -0.013533588
-0.0062286626 0.00034636364 0.0003427481
-0.0062286626 -0.00034636364 0.0003427481
-0.0064551593 0.00034636364 0.0003427481
-0.0064551593 -0.00034636364 0.0003427481
0.014156051 -0.00011545455 -0.012851145
0.013703058 0.00011545455 0.0017076336
0.011438089 -0.00034636364 -0.0069366414
0.0089466246 0.00034636364 -0.014443511
0.016194522 -0.00011545455 -0.012396183
0.0010192357 0.00034636364 0.0003427481
0.0064551593 -0.00034636364 -0.0067091603
-0.011438089 -0.00034636364 -0.025590077
0.014156051 -0.00011545455 -0.012396183
0.0087201279 -0.00034636364 -0.014443511
-0.011438089 -0.00034636364 -0.010803817
-0.011438089 0.00034636364 -0.010803817
0.011438089 -0.00034636364 0.0017076336
-0.011211593 -0.00011545455 -0.010803817
0.011438089 0.00034636364 0.0017076336
0.013703058 -0.00011545455 0.0017076336
0.011438089 0.00034636364 -0.013761069
-0.0089466246 -0.00034636364 -0.010803817
0.013929554 0.00034636364 0.0017076336
0.014156051 -0.00011545455 0.0017076336
-0.0010192357 -0.00034636364 0.0003427481
0.011438089 0.00034636364 -0.012396183
-0.0087201279 0.00034636364 -0.010803817
0.016194522 -0.00011545455 0.0017076336
0.016194522 0.00011545455 0.0017076336
-0.0014722294 0.00034636364 0.0003427481
-0.0010192357 -0.00034636364 0.0023900764
0.016647516 -0.00011545455 0.0017076336
0.0064551593 -0.00034636364 -0.014443511
0.011438089 -0.00034636364 -0.012396183
0.0087201279 0.00034636364 -0.012168703
0.013929554 0.00034636364 0.0014801527
0.014156051 -0.00011545455 -0.0069366414
-0.0089466246 0.00034636364 0.00057022902
0.014156051 -0.00011545455 0.0014801527
-0.0089466246 -0.00034636364 0.00057022902
0.014156051 0.00011545455 -0.025817558
0.016194522 -0.00011545455 0.0014801527
0.016194522 0.00011545455 0.0014801527
-0.0010192357 -0.00034636364 -0.011031298
0.016647516 -0.00011545455 0.0014801527
0.013929554 -0.00011545455 0.0028450382
0.0064551593 -0.00034636364 -0.0042068702
0.0089466246 0.00034636364 -0.012168703
-0.011211593 -0.00011545455 0.00057022902
0.013703058 0.00011545455 0.0014801527
0.0062286626 0.00034636364 -0.0042068702
0.0062286626 -0.00034636364 -0.0042068702
-0.011438089 0.00034636364 0.00057022902
-0.011438089 -0.00034636364 0.00057022902
0.0010192357 0.00034636364 -0.011031298
-0.013703058 0.00011545455 0.00057022902
-0.013703058 -0.00011545455 0.00057022902
-0.013929554 -0.00034636364 0.0017076336
-0.013929554 0.00034636364 0.0017076336
-0.013703058 -0.00011545455 0.0017076336
-0.013703058 0.00011545455 0.0017076336
0.0087201279 -0.00034636364 -0.012168703
-0.013929554 -0.00034636364 0.00057022902
-0.011438089 -0.00034636364 0.0017076336
-0.0064551593 -0.00034636364 -0.0039793891
0.016647516 -0.00011545455 -0.021267939
-0.0062286626 -0.00034636364 0.00057022902
0.0087201279 -0.00011545455 0.0014801527
-0.0064551593 0.00034636364 0.00057022902
-0.0064551593 -0.00034636364 0.00057022902
-0.013703058 0.00011545455 -0.014216031
0.0089466246 -0.00034636364 0.0014801527
0.0089466246 0.00034636364 0.0014801527
-0.013703058 -0.00011545455 -0.014216031
0.013703058 0.00011545455 -0.012168703
0.013703058 -0.00011545455 -0.012168703
-0.013929554 -0.00034636364 -0.014216031
-0.014156051 0.00011545455 -0.014216031
0.0010192357 0.00034636364 -0.013761069
-0.011438089 0.00034636364 0.0017076336
-0.0064551593 0.00034636364 -0.0039793891
-0.0035107008 -0.00011545455 -0.011031298
-0.0091731213 -0.00011545455 0.0023900764
-0.0035107008 0.00011545455 -0.011031298
0.011438089 -0.00034636364 0.0014801527
0.011438089 0.00034636364 0.0014801527
-0.011211593 -0.00011545455 -0.013078626
0.01642102 0.00034636364 -0.016718321
0.011438089 0.00034636364 -0.012168703
-0.0014722294 0.00034636364 -0.011031298
-0.0087201279 0.00034636364 0.00057022902
0.011438089 -0.00034636364 -0.012168703
0.013703058 -0.00011545455 0.0014801527
0.0087201279 -0.00034636364 -0.013761069
0.011438089 -0.00034636364 0.0003427481
0.016194522 -0.00011545455 -0.014443511
0.0062286626 -0.00034636364 -0.011031298
0.0062286626 0.00034636364 -0.011031298
0.0064551593 -0.00034636364 -0.011031298
-0.0064551593 -0.00034636364 0.0017076336
-0.0062286626 -0.00034636364 -0.013306106
-0.0064551593 0.00034636364 0.0017076336
-0.0062286626 -0.00034636364 0.0017076336
-0.0062286626 0.00034636364 0.0017076336
-0.0060021658 -0.00011545455 0.0017076336
-0.0060021658 0.00011545455 0.0017076336
0.0035107008 -0.00011545455 -0.012168703
-0.0064551593 -0.00034636364 -0.013078626
0.011438089 0.00034636364 0.0003427481
0.013703058 -0.00011545455 -0.0069366414
0.0089466246 0.00034636364 0.0003427481
0.0089466246 0.00034636364 -0.013761069
-0.0035107008 -0.00011545455 0.0017076336
0.014156051 -0.00011545455 -0.014443511
0.0087201279 0.00034636364 0.0003427481
0.0010192357 0.00034636364 -0.012168703
0.013703058 -0.00011545455 -0.012851145
0.0087201279 -0.00011545455 0.0003427481
-0.0010192357 -0.00034636364 -0.012168703
0.016647516 -0.00011545455 0.0028450382
0.0087201279 -0.00034636364 -0.011031298
0.011438089 -0.00034636364 -0.013761069
-0.0087201279 0.00034636364 0.0017076336
-0.014156051 0.00011545455 0.00057022902
-0.011211593 -0.00011545455 0.0017076336
0.016647516 -0.00011545455 -0.016718321
0.016647516 0.00034636364 -0.016718321
0.014156051 -0.00011545455 0.0028450382
-0.011211593 0.00011545455 0.0017076336
0.011438089 -0.00034636364 -0.012851145
0.0064551593 -0.00034636364 -0.021267939
0.011438089 0.00034636364 -0.012851145
0.0064551593 -0.00034636364 -0.012168703
0.0062286626 0.00034636364 -0.012168703
0.016647516 -0.00011545455 0.0003427481
-0.0089466246 -0.00034636364 0.0017076336
-0.0089466246 0.00034636364 0.0017076336
-0.0014722294 0.00034636364 -0.010803817
0.016194522 -0.00011545455 0.0003427481
0.0062286626 -0.00034636364 -0.012168703
0.014156051 -0.00011545455 0.0003427481
0.013929554 0.00034636364 0.0003427481
0.0062286626 0.00034636364 -0.021267939
0.0062286626 -0.00034636364 -0.021267939
0.013703058 0.00011545455 0.0003427481
0.013703058 -0.00011545455 0.0003427481
-0.0064551593 0.00034636364 -0.013306106
0.0062286626 -0.00034636364 -0.013761069
0.0062286626 0.00034636364 -0.013761069
0.0064551593 -0.00034636364 -0.013761069
0.016194522 0.00011545455 -0.014443511
0.011438089 0.00034636364 -0.0067091603
-0.0062286626 -0.00034636364 -0.010576336
-0.0062286626 0.00034636364 -0.010576336
-0.011438089 -0.00034636364 -0.012396183
0.0010192357 0.00034636364 -0.013533588
0.0087201279 -0.00011545455 0.0019351145
0.0087201279 0.00034636364 0.0019351145
0.0089466246 -0.00034636364 0.0019351145
0.0089466246 0.00034636364 0.0019351145
-0.013703058 0.00011545455 -0.012396183
-0.014156051 0.00011545455 -0.021040458
-0.0035107008 -0.00011545455 -0.010576336
-0.0035107008 0.00011545455 -0.010576336
-0.013703058 -0.00011545455 -0.012396183
-0.013929554 -0.00034636364 -0.012396183
-0.0064551593 0.00034636364 -0.010576336
0.0064551593 -0.00034636364 -0.0069366414
-0.0014722294 0.00034636364 -0.010576336
-0.0010192357 -0.00034636364 -0.010576336
-0.014156051 0.00011545455 -0.012396183
0.016194522 0.00011545455 -0.014670992
0.016194522 -0.00011545455 -0.014670992
0.0010192357 0.00034636364 -0.010576336
0.011211593 0.00011545455 -0.025590077
0.014156051 -0.00011545455 -0.014670992
0.013703058 0.00011545455 -0.014670992
0.013703058 -0.00011545455 -0.014670992
0.011438089 -0.00034636364 0.0019351145
-0.0035107008 0.00011545455 0.00011526718
0.0062286626 -0.00034636364 -0.010576336
0.0062286626 0.00034636364 0.0019351145
-0.0087201279 -0.00034636364 -0.012396183
0.0064551593 -0.00034636364 0.00011526718
-0.013703058 -0.00011545455 -0.010576336
0.0062286626 0.00034636364 0.00011526718
0.0062286626 -0.00034636364 0.00011526718
-0.013703058 0.00011545455 -0.010576336
-0.011438089 -0.00034636364 -0.010576336
-0.011438089 0.00034636364 -0.010576336
-0.011211593 -0.00011545455 -0.010576336
-0.0089466246 -0.00034636364 -0.012396183
-0.0062286626 -0.00034636364 -0.013078626
-0.0062286626 -0.00011545455 0.0030725191
0.0062286626 -0.00034636364 0.0019351145
0.011438089 -0.00034636364 -0.0067091603
0.0062286626 0.00034636364 -0.010576336
-0.0089466246 -0.00034636364 -0.010576336
-0.013703058 0.00011545455 -0.014443511
-0.013703058 -0.00011545455 -0.014443511
-0.0087201279 0.00034636364 -0.010576336
-0.011211593 -0.00011545455 -0.012396183
-0.013929554 -0.00034636364 -0.014443511
0.0062286626 0.00034636364 -0.025590077
-0.014156051 0.00011545455 -0.014443511
-0.0010192357 -0.00034636364 -0.0042068702
0.0064551593 -0.00034636364 0.0019351145
-0.011438089 0.00034636364 -0.012396183
0.0035107008 -0.00011545455 0.00011526718
-0.0064551593 -0.00034636364 -0.010576336
-0.013929554 -0.00034636364 0.0021625955
-0.0064551593 -0.00034636364 0.00011526718
0.011438089 -0.00034636364 -0.010576336
0.016647516 -0.00011545455 0.0019351145
-0.0014722294 0.00034636364 -0.0042068702
0.0035107008 -0.00011545455 -0.013533588
0.011438089 0.00034636364 -0.010576336
-0.0035107008 0.00011545455 -0.016718321
-0.0035107008 -0.00011545455 -0.016718321
0.0089466246 0.00034636364 -0.014670992
0.0087201279 0.00034636364 -0.014670992
-0.016194522 -0.00011545455 0.0021625955
0.0087201279 -0.00034636364 -0.014670992
-0.0010192357 -0.00034636364 -0.012851145
0.013703058 -0.00011545455 -0.010576336
-0.0064551593 0.00034636364 0.00011526718
-0.013929554 0.00034636364 0.0021625955
-0.0087201279 0.00034636364 0.00011526718
-0.013703058 -0.00011545455 0.0021625955
-0.013703058 0.00011545455 0.0021625955
0.016194522 0.00011545455 -0.025590077
0.014156051 -0.00011545455 -0.010576336
0.014156051 -0.00011545455 -0.012623664
-0.011438089 -0.00034636364 0.0021625955
-0.011438089 0.00034636364 0.0021625955
-0.0089466246 -0.00034636364 0.00011526718
0.016194522 -0.00011545455 -0.010576336
0.016194522 0.00011545455 -0.010576336
-0.011211593 -0.00011545455 0.0021625955
-0.011211593 0.00011545455 0.0021625955
0.0062286626 0.00034636364 -0.0069366414
0.011438089 0.00034636364 0.0019351145
-0.0035107008 -0.00011545455 -0.013306106
-0.013929554 -0.00034636364 -0.021040458
0.011438089 0.00034636364 -0.014670992
0.011438089 -0.00034636364 -0.014670992
-0.013929554 0.00034636364 -0.021040458
0.013703058 -0.00011545455 0.0019351145
0.013703058 0.00011545455 0.0019351145
0.013703058 -0.00011545455 -0.025590077
0.013929554 0.00034636364 0.0019351145
0.0087201279 -0.00034636364 -0.010576336
0.0087201279 0.00034636364 -0.010576336
0.013929554 -0.00034636364 -0.025590077
0.0089466246 0.00034636364 -0.010576336
0.0010192357 0.00034636364 0.0023900764
0.0062286626 -0.00034636364 -0.0069366414
0.014156051 -0.00011545455 -0.025590077
0.016194522 0.00011545455 -0.012623664
-0.0060021658 0.00011545455 0.00011526718
-0.0060021658 -0.00011545455 0.00011526718
0.016194522 -0.00011545455 -0.012623664
0.016194522 -0.00011545455 0.0019351145
-0.0035107008 0.00011545455 -0.013306106
-0.0062286626 0.00034636364 0.00011526718
-0.013703058 -0.00011545455 -0.021040458
0.016194522 0.00011545455 0.0019351145
-0.0062286626 -0.00034636364 0.00011526718
-0.013703058 0.00011545455 -0.021040458
0.0062286626 -0.00034636364 -0.010803817
-0.011211593 0.00011545455 -0.013533588
-0.0035107008 -0.00011545455 -0.014443511
-0.0064551593 -0.00034636364 0.0019351145
0.016647516 -0.00011545455 0.00011526718
0.016194522 -0.00011545455 0.00011526718
0.0087201279 -0.00011545455 -0.0069366414
-0.0014722294 0.00034636364 -0.016718321
0.014156051 -0.00011545455 0.00011526718
0.013929554 0.00034636364 0.00011526718
0.0010192357 0.00034636364 -0.012851145
-0.0064551593 0.00034636364 0.0019351145
-0.0062286626 -0.00034636364 0.0019351145
-0.0062286626 0.00034636364 0.0019351145
0.0010192357 0.00034636364 -0.0042068702
-0.0035107008 0.00011545455 -0.014443511
-0.0012457325 -0.00034636364 -0.025590077
0.0062286626 0.00034636364 -0.010803817
-0.0010192357 0.00011545455 -0.025590077
-0.0089466246 -0.00034636364 -0.013533588
-0.0089466246 0.00034636364 -0.013533588
0.0087201279 -0.00011545455 -0.0067091603
-0.0087201279 0.00034636364 -0.013533588
-0.0062286626 0.00034636364 -0.014443511
-0.0062286626 -0.00034636364 -0.014443511
0.016194522 -0.00011545455 -0.012851145
-0.0064551593 0.00034636364 -0.014443511
-0.0035107008 -0.00011545455 0.0019351145
-0.0064551593 -0.00034636364 -0.014443511
0.0087201279 -0.00034636364 -0.010803817
-0.0010192357 -0.00034636364 -0.014443511
0.0087201279 -0.00034636364 -0.012396183
0.0010192357 0.00034636364 -0.014443511
-0.0062286626 -0.00034636364 -0.025590077
-0.0010192357 -0.00034636364 -0.016718321
-0.0010192357 -0.00034636364 -0.010803817
0.0010192357 0.00034636364 -0.010803817
-0.0089466246 -0.00034636364 0.0019351145
-0.0087201279 0.00034636364 0.0003427481
-0.0089466246 0.00034636364 0.0019351145
-0.0089466246 0.00034636364 0.0003427481
-0.0089466246 -0.00034636364 0.0003427481
0.0089466246 -0.00011545455 0.0030725191
-0.0087201279 0.00034636364 0.0019351145
0.0062286626 0.00034636364 -0.012396183
0.0010192357 0.00034636364 -0.012396183
0.0062286626 -0.00034636364 -0.012396183
-0.0014722294 0.00034636364 -0.014443511
-0.011438089 0.00034636364 0.0003427481
-0.011438089 -0.00034636364 0.0003427481
0.0035107008 -0.00011545455 -0.010803817
0.0089466246 0.00034636364 -0.0069366414
-0.013703058 0.00011545455 0.0003427481
-0.013703058 -0.00011545455 0.0003427481
-0.0089466246 0.00011545455 0.0030725191
-0.011438089 -0.00034636364 -0.013533588
-0.011438089 0.00034636364 -0.013533588
-0.011211593 -0.00034636364 -0.013533588
-0.013929554 -0.00034636364 0.0003427481
-0.0064551593 -0.00034636364 -0.012396183
0.013703058 0.00011545455 -0.010803817
-0.013703058 0.00011545455 0.0023900764
-0.013703058 -0.00011545455 0.0023900764
-0.0035107008 -0.00011545455 -0.013533588
0.014156051 -0.00011545455 -0.010803817
0.0089466246 0.00034636364 0.00011526718
0.0089466246 -0.00034636364 0.00011526718
0.0087201279 0.00034636364 0.00011526718
0.0087201279 -0.00011545455 0.00011526718
0.016194522 -0.00011545455 -0.010803817
0.016194522 0.00011545455 -0.010803817
-0.0062286626 0.00034636364 -0.012396183
-0.0062286626 -0.00034636364 -0.012396183
-0.0064551593 0.00034636364 -0.012396183
0.013703058 -0.00011545455 -0.010803817
-0.013929554 0.00034636364 0.0023900764
0.0035107008 0.00034636364 0.0019351145
-0.0014722294 0.00034636364 -0.013533588
-0.013929554 -0.00034636364 0.0023900764
-0.011211593 -0.00011545455 -0.014443511
0.0037371975 -0.00034636364 -0.025590077
-0.014156051 0.00011545455 -0.010576336
-0.0010192357 -0.00034636364 -0.013533588
-0.011438089 0.00034636364 -0.014443511
0.0039636944 0.00034636364 -0.025590077
-0.011438089 -0.00034636364 -0.014443511
-0.013929554 -0.00034636364 -0.010576336
-0.0087201279 0.00034636364 -0.012396183
-0.0014722294 0.00034636364 0.0019351145
0.0087201279 0.00034636364 -0.010803817
0.011438089 0.00034636364 0.00011526718
0.011438089 -0.00034636364 0.00011526718
0.016194522 0.00011545455 -0.012851145
0.0089466246 0.00034636364 -0.010803817
-0.0010192357 -0.00034636364 -0.012396183
-0.0014722294 0.00034636364 -0.012396183
0.011211593 -0.00011545455 -0.010803817
-0.0064551593 -0.00034636364 -0.013533588
-0.0087201279 0.00034636364 -0.014443511
-0.0087201279 -0.00034636364 -0.014443511
-0.0064551593 0.00034636364 -0.013533588
0.011438089 -0.00034636364 -0.010803817
0.0010192357 -0.00011545455 -0.025590077
0.014156051 -0.00011545455 -0.012168703
0.011438089 0.00034636364 -0.010803817
-0.013703058 0.00011545455 -0.013306106
-0.0062286626 -0.00034636364 -0.013533588
-0.0089466246 0.00034636364 -0.014443511
-0.0089466246 -0.00034636364 -0.014443511
-0.0010192357 -0.00034636364 0.0019351145
-0.0062286626 0.00034636364 -0.013533588
-0.013703058 -0.00011545455 -0.013306106
0.0089466246 0.00034636364 -0.0067091603
-0.0035107008 0.00011545455 -0.012396183
-0.0035107008 -0.00011545455 -0.012396183
-0.01642102 -0.00034636364 -0.016490839
0.0010192357 0.00034636364 0.0019351145
0.0087201279 -0.00034636364 -0.01398855
0.0089466246 -0.00034636364 0.00079770992
-0.0062286626 -0.00034636364 0.0012526717
-0.0062286626 0.00034636364 0.0012526717
0.014156051 -0.00011545455 -0.0042068702
0.0087201279 -0.00011545455 0.00079770992
0.0087201279 -0.00034636364 -0.012851145
-0.011211593 -0.00011545455 -0.0039793891
-0.011211593 0.00011545455 -0.0039793891
0.016194522 0.00011545455 -0.014216031
0.016194522 -0.00011545455 -0.014216031
-0.0010192357 -0.00034636364 -0.01171374
0.011438089 -0.00034636364 -0.011486259
0.011438089 0.00034636364 -0.011486259
-0.0014722294 0.00034636364 -0.01171374
-0.0064551593 0.00034636364 0.0012526717
0.013703058 -0.00011545455 -0.011486259
0.0064551593 -0.00034636364 0.00079770992
0.0087201279 0.00034636364 -0.01398855
0.013703058 0.00011545455 -0.011486259
0.0062286626 0.00034636364 0.00079770992
0.0062286626 -0.00034636364 0.00079770992
0.014156051 -0.00011545455 -0.011486259
-0.013929554 -0.00034636364 -0.013078626
0.0089466246 0.00034636364 -0.01398855
-0.0089466246 -0.00011545455 -0.025817558
-0.0087201279 -0.00011545455 -0.025817558
0.016194522 -0.00011545455 -0.011486259
0.016194522 0.00011545455 -0.011486259
0.014156051 -0.00011545455 -0.014216031
0.0062286626 0.00034636364 -0.011486259
0.016194522 0.00011545455 0.00079770992
-0.0064551593 0.00034636364 0.0023900764
0.016194522 -0.00011545455 0.00079770992
0.014156051 -0.00011545455 0.00079770992
0.013929554 0.00034636364 0.00079770992
-0.011438089 -0.00034636364 -0.0039793891
-0.0064551593 -0.00034636364 0.0023900764
0.013703058 0.00011545455 0.00079770992
0.013703058 -0.00011545455 0.00079770992
0.011438089 0.00034636364 0.00079770992
0.011438089 -0.00034636364 0.00079770992
0.0062286626 -0.00034636364 -0.011486259
-0.011438089 0.00034636364 -0.0039793891
0.016194522 0.00011545455 -0.0042068702
-0.0087201279 0.00034636364 -0.0067091603
0.016194522 -0.00011545455 -0.0042068702
0.0064551593 -0.00034636364 -0.011486259
-0.011438089 0.00011545455 -0.025817558
-0.0089466246 -0.00034636364 -0.013078626
0.0010192357 0.00034636364 -0.01171374
0.0062286626 -0.00034636364 -0.01398855
0.0087201279 -0.00034636364 -0.011486259
0.0062286626 0.00034636364 -0.01398855
0.0087201279 0.00034636364 -0.011486259
0.0064551593 -0.00034636364 -0.01398855
-0.0064551593 -0.00034636364 0.0012526717
0.0089466246 0.00034636364 -0.011486259
0.0089466246 0.00034636364 0.00079770992
-0.0087201279 0.00034636364 -0.011258778
-0.0062286626 -0.00034636364 -0.01171374
-0.0064551593 0.00034636364 -0.01171374
0.013703058 -0.00011545455 -0.016718321
-0.0064551593 -0.00034636364 -0.01171374
-0.0087201279 0.00034636364 -0.01171374
0.013703058 -0.00011545455 -0.021267939
0.013703058 0.00011545455 -0.021267939
-0.0087201279 -0.00034636364 -0.01171374
-0.0089466246 -0.00034636364 -0.011258778
-0.0089466246 -0.00034636364 -0.01171374
0.0010192357 0.00034636364 0.0012526717
-0.0010192357 -0.00034636364 0.00079770992
0.0012457325 0.00011545455 -0.026045037
0.013703058 -0.00011545455 -0.01398855
0.011438089 -0.00034636364 -0.014216031
0.013703058 0.00011545455 -0.01398855
0.014156051 -0.00011545455 -0.01398855
-0.011211593 -0.00011545455 -0.01171374
-0.0014722294 0.00034636364 0.00079770992
-0.011438089 0.00034636364 -0.01171374
-0.011438089 -0.00034636364 -0.01171374
-0.0064551593 -0.00034636364 -0.011258778
0.0089466246 0.00034636364 -0.014216031
0.0089466246 0.00034636364 -0.012851145
-0.0064551593 0.00034636364 -0.011258778
0.0087201279 0.00034636364 -0.014216031
0.0087201279 -0.00034636364 -0.014216031
-0.0035107008 -0.00011545455 -0.0067091603
-0.013703058 -0.00011545455 -0.01171374
-0.013703058 0.00011545455 -0.011258778
-0.0035107008 0.00011545455 -0.01171374
-0.0035107008 -0.00011545455 0.0012526717
-0.0035107008 -0.00011545455 -0.01171374
0.013703058 0.00011545455 -0.014216031
0.013703058 -0.00011545455 -0.014216031
0.013703058 0.00011545455 -0.0042068702
0.013703058 -0.00011545455 -0.0042068702
0.0062286626 -0.00011545455 0.0028450382
-0.0089466246 -0.00034636364 -0.0067091603
-0.0087201279 0.00034636364 -0.013306106
-0.014156051 0.00011545455 -0.011258778
-0.013929554 -0.00034636364 -0.011258778
-0.013703058 -0.00011545455 -0.011258778
0.0087201279 0.00034636364 -0.012851145
0.016647516 -0.00011545455 0.00079770992
-0.011438089 -0.00034636364 -0.011258778
-0.011438089 0.00034636364 -0.011258778
0.011438089 -0.00034636364 -0.01398855
0.011438089 0.00034636364 -0.01398855
-0.011211593 -0.00034636364 -0.011258778
-0.0014722294 0.00034636364 0.0012526717
-0.011211593 0.00011545455 -0.011258778
-0.0062286626 -0.00011545455 -0.025817558
0.0091731213 0.00011545455 -0.016718321
0.0091731213 -0.00011545455 -0.016718321
-0.0062286626 0.00034636364 -0.01171374
0.011438089 0.00034636364 -0.014216031
-0.0010192357 -0.00034636364 0.0012526717
0.0037371975 0.00034636364 0.0028450382
-0.0014722294 0.00034636364 0.0010251908
0.0064551593 -0.00034636364 0.0010251908
-0.0087201279 0.00034636364 -0.011486259
0.0062286626 0.00034636364 -0.012851145
-0.0087201279 0.00034636364 -0.01398855
0.011438089 0.00034636364 -0.01171374
0.011438089 -0.00034636364 -0.01171374
-0.0089466246 -0.00034636364 -0.01398855
-0.0014722294 0.00034636364 -0.01398855
-0.0035107008 -0.00011545455 0.0010251908
-0.0010192357 -0.00034636364 -0.01398855
-0.013703058 0.00011545455 -0.0039793891
-0.0064551593 -0.00034636364 -0.011486259
-0.0064551593 0.00034636364 -0.011486259
-0.0089466246 -0.00034636364 -0.011486259
-0.014156051 0.00011545455 -0.013078626
0.0087201279 -0.00011545455 0.0010251908
0.0062286626 -0.00034636364 -0.012851145
0.0087201279 0.00034636364 0.0010251908
-0.0062286626 -0.00034636364 -0.011486259
0.0089466246 -0.00034636364 0.0010251908
0.0089466246 0.00034636364 0.0010251908
-0.0062286626 0.00034636364 -0.011486259
-0.0064551593 0.00034636364 -0.0067091603
0.0089466246 0.00034636364 -0.01171374
0.0087201279 -0.00034636364 -0.01171374
-0.0039636944 0.00034636364 -0.011486259
-0.0062286626 0.00034636364 0.0023900764
-0.0062286626 -0.00034636364 0.0023900764
-0.013703058 -0.00011545455 -0.0039793891
0.0035107008 -0.00011545455 0.0010251908
-0.0060021658 -0.00011545455 0.0023900764
-0.0062286626 0.00034636364 -0.0067091603
-0.013929554 -0.00034636364 -0.0039793891
-0.014156051 0.00011545455 -0.011486259
-0.013929554 -0.00034636364 -0.011486259
0.016194522 -0.00011545455 -0.01171374
-0.0035107008 -0.00011545455 -0.01398855
-0.0035107008 0.00011545455 -0.01398855
-0.013703058 -0.00011545455 -0.011486259
-0.013703058 0.00011545455 -0.011486259
0.014156051 -0.00011545455 -0.01171374
-0.011438089 -0.00034636364 -0.011486259
-0.014156051 0.00011545455 -0.0039793891
-0.0060021658 -0.00011545455 0.0010251908
-0.0062286626 -0.00034636364 -0.0067091603
-0.011438089 0.00034636364 -0.011486259
-0.0062286626 0.00034636364 -0.01398855
-0.0062286626 -0.00034636364 -0.01398855
0.0064551593 -0.00034636364 -0.012851145
-0.0064551593 0.00034636364 -0.01398855
-0.0064551593 -0.00034636364 -0.01398855
0.0062286626 -0.00034636364 0.0010251908
0.0062286626 0.00034636364 0.0010251908
