# .PCD v0.7 - Point Cloud Data file format
VERSION 0.7
FIELDS x y z
SIZE 4 4 4
TYPE F F F
COUNT 1 1 1
WIDTH 1198
HEIGHT 1
VIEWPOINT 0 0 0 1 0 0 0
POINTS 1198
DATA ascii
0.026712807 0.00023090906 -0.01423125
0.027740223 0.0011545453 -0.015377083
0.027169436 0.00069272728 -0.015377083
0.029224269 0.00011545458 -0.021335417
0.02774022 0.0011545453 -0.015835414
0.028767642 0.00069272734 -0.015377083
0.028311012 0.00069272728 -0.015377083
-0.021347415 -0.00011545459 -0.018814582
-0.021347415 0.00011545458 -0.019272916
-0.021347415 -0.00011545454 -0.019272916
-0.021347415 0.00011545458 -0.018814582
-0.025228767 -0.00069272728 -0.017210416
-0.025228767 -0.00023090906 -0.017210416
-0.022831459 0.00023090915 -0.017210416
-0.026370337 -0.0001924242 -0.017630557
-0.026826967 -0.00057727279 -0.017554168
-0.024163296 -0.00019242421 -0.018814584
-0.023858875 -0.00011545458 -0.018814582
-0.023858875 0.0001154546 -0.018241666
-0.023858875 0.00011545451 -0.0187
-0.023858875 -0.0001154545 -0.018241666
0.010274158 -0.00069272734 -0.017210416
0.026370337 0.00011545455 -0.014804167
0.025228767 0.00023090915 -0.017210416
0.026370337 0.00019242427 -0.017630557
0.024163296 -0.00019242418 -0.022252083
0.023858875 -0.00011545457 -0.022825001
0.022831459 -0.00023090911 -0.017210416
0.021347413 -0.00011545448 -0.018241666
0.021651836 -0.0001924242 -0.018814584
0.021651834 -0.00019242428 -0.019272916
0.024163296 0.00019242418 -0.019731252
0.023858875 0.00011545457 -0.020075001
0.014041348 -0.00023090915 -0.008272917
0.015753709 -0.0011545455 -0.0023145834
0.015753709 -0.0011160607 -0.015415277
0.015753709 -0.00057727279 -0.015377084
0.016324494 -0.0001154546 -0.014231251
0.014041348 -0.00023090908 -0.011252084
0.014041348 0.00023090909 -0.011252084
0.014041348 0.00023090914 -0.011710417
0.016628912 -0.00019242418 -0.010335417
0.014041348 -0.00023090912 -0.0097625004
0.014041348 -0.00023090915 -0.010335417
0.013813034 -0.00011545452 -0.0097625004
0.014041348 0.00023090914 -0.010335417
0.014041348 0.00023090911 -0.0097625004
0.012785618 -0.0011160607 -0.015415277
0.012328989 -0.0011160607 -0.015415277
0.016628912 -0.00019242428 -0.0036895834
0.019140376 0.00019242428 -0.0032312502
0.019728454 0.00070322317 -0.0023041666
0.013813034 -0.00011545458 -0.022710416
0.016324494 0.00011545451 -0.022252083
0.011301572 0.00080818182 -0.017554168
0.011758201 0.0011545453 -0.017210416
0.010274157 -0.0011545453 -0.016293749
0.0086759552 -0.0011545455 -0.017210416
0.0086759552 -0.0011545456 -0.016752085
0.0092467424 -0.0011545453 -0.016752085
0.0092467424 -0.0011545453 -0.015835416
0.0086759552 -0.0011545456 -0.016293749
0.008219325 -0.0011545453 -0.016752085
0.008219325 -0.00069272734 -0.017210416
0.0087901121 0.00023090912 -0.01973125
0.0018265168 0.00057727285 -0.0152625
0.002750153 -0.000241405 -0.015283334
0.00022831456 -0.00023090911 -0.0022
-0.0012557303 -0.0011545455 -0.0011687502
-0.0027397752 -0.00069272728 -0.0022
-0.0032127125 -0.00070922083 -0.002298214
-0.0018265168 -0.0011545453 -0.0017416668
-0.0018265168 -0.0011545453 -0.0011687502
-0.0022831461 -0.0011545455 -0.0011687502
0.00022831466 -0.0011545456 -0.0011687502
0.00068494381 -0.0011545453 -0.0017416668
0.00068494369 -0.0011545455 -0.0011687502
0.021347415 -0.00011545459 -0.0032312502
0.027740225 -0.00023090909 -0.015377083
0.027740225 0.00023090911 -0.015377083
0.02226067 0.0011545455 -0.0017416663
0.022831459 0.00023090908 -0.00025208294
0.023288088 0.00023090912 -0.00025208294
0.023744717 0.0011545453 -0.00071041659
0.023304397 0.001138052 -0.002298214
0.022215009 0.00069272728 -0.0022916668
0.022228058 0.00024740255 -0.0022327383
0.021347415 -0.0001154545 -0.0052937502
0.021347415 0.00011545452 -0.004835417
0.02157573 0.00023090909 -0.0066687502
0.021651836 -0.00019242428 -0.0066687502
0.021575732 0.00023090906 -0.0072416677
0.02157573 0.00023090905 -0.006210417
0.026370337 -0.00011545455 -0.0081583336
0.021651834 0.0001154546 0.0026888894
0.021632809 -0.00017318176 0.0026697917
0.021347415 -0.0001154545 0.0026125005
0.019140376 -0.00019242417 0.0018104166
0.017237753 -0.00073121203 -0.00029027741
0.01780854 -0.0011545455 -0.00071041659
0.017237753 -0.0011545453 -0.0011687502
0.01780854 -0.0011545453 -0.0017416668
0.020776628 -0.0011545453 -0.0011687502
0.020760318 -0.00070922077 -0.002298214
0.021651836 -0.00019242418 -0.0078145834
0.02157573 0.00023090903 -0.0078145843
0.021651836 -0.00019242424 -0.0057520834
0.019140376 0.0001924242 -0.0036895834
0.027169436 0.0011545453 -0.016293749
0.026256178 -0.0011545455 -0.016293749
-0.024657978 0.0011545453 -0.016752085
-0.024657978 0.0011545453 -0.017210416
-0.025196148 0.0011710387 -0.017128572
-0.024163296 0.0001924242 -0.018241666
-0.023288088 0.0011545455 -0.015835416
-0.023744717 0.0011545455 -0.015377083
-0.021233259 0.0011545455 -0.016293749
-0.02168989 0.0011545455 -0.015835417
-0.022260673 0.0011545453 -0.016293751
-0.021689886 0.0011160607 -0.015415278
-0.022831459 0.00023090906 -0.015377083
-0.022831459 -0.00023090906 -0.015377083
-0.02224724 -0.00022411766 -0.015275979
-0.02224311 0.00022202796 -0.015350641
-0.02283146 0.00065424253 -0.015415277
-0.024201348 0.0011545455 -0.016293749
-0.024201348 0.0011545453 -0.016752085
-0.024657978 0.0011545455 -0.015835416
-0.026256178 0.0011545453 -0.016293749
-0.027169436 0.0011545455 -0.016293749
-0.02623987 0.0011710391 -0.017194048
-0.025799554 -0.00023090909 -0.017210416
-0.021347415 0.0001154545 -0.0078145834
-0.021651834 0.00019242421 -0.008272917
-0.021347415 0.00011545452 -0.008272917
-0.016666966 -0.0011545455 -0.00071041659
-0.019140374 -0.0001924243 -0.0042625004
-0.018835954 -0.00011545455 -0.0042625004
-0.018835954 -0.00011545449 -0.004835417
-0.018835954 -0.0001154545 -0.006210417
-0.016324494 -0.00011545451 -0.0036895834
-0.016598471 -0.00020781822 -0.0037125
-0.018265169 0.0011545455 -0.016752085
-0.018721797 0.0011545453 -0.016752085
-0.021667054 0.00016163634 -0.010770833
-0.021347415 -0.0001154545 -0.011710417
-0.021347415 0.0001154545 -0.011252084
-0.016628912 -0.00019242428 -0.01216875
-0.016628912 0.0001924243 -0.011710417
-0.016628912 0.00019242424 -0.013314583
-0.015297078 -0.00069272728 -0.0022
0.025799554 -0.0011545453 -0.0011687502
0.024163296 -0.00019242421 -0.004835417
0.026674755 -0.00019242427 -0.0057520834
0.024163296 -0.00019242428 -0.0057520834
-0.026674755 0.0001924243 -0.0032312502
-0.026279012 0.00066963641 -0.0022458336
-0.027740225 -0.00023090909 -0.0022
-0.02831101 -0.00069272728 -0.0022
-0.014269664 -0.0011545455 -0.00025208294
-0.020776629 -0.0011545453 -0.0017416668
-0.020776629 -0.0011545455 -0.0011687502
-0.021233259 -0.0011545455 -0.00071041659
-0.021233259 -0.0011545455 -0.0011687502
-0.020776629 -0.0011545455 -0.0022
-0.016598471 -0.00020781819 -0.0032083336
-0.017180674 -0.00023090905 -0.0022572917
-0.019155595 -0.00016163633 -0.0032083336
-0.019140376 0.00019242428 -0.0036895834
-0.019178428 -0.0011545453 -0.0017416668
-0.0027397752 -0.0011545455 -0.00025208294
-0.0022831459 -0.0011545453 -0.00071041659
-0.0043379776 -0.0011545455 -0.00025208294
-0.004794606 -0.0011545455 -0.00071041659
-0.0037671914 -0.0011545455 -0.0017416663
0.0022831461 -0.0011545455 -0.0011687502
0.0027397752 -0.0011545453 -0.0017416668
0.0027397752 -0.0011545455 -0.0011687502
0.0086759552 -0.0011545455 -0.00025208294
0.0043379776 -0.0011545453 -0.00071041659
0.0043379776 -0.0011545455 -0.00025208294
0.0037671912 -0.0011545453 -0.00025208294
0.0031964045 -0.0011545455 -0.00071041659
0.0031964043 -0.0011545453 -0.00025208294
0.002739775 -0.0011545455 -0.00025208294
0.0077626966 -0.0011545455 -0.00025208294
0.0073060673 -0.00073121209 -0.00029027741
0.0073060673 -0.0011545455 -0.00025208294
0.0012557303 -0.0011545455 -0.0022
0.0018265168 -0.0011545455 -0.0022
0.0048326589 0.00023090909 -0.0022763889
0.0087901121 -0.0002078182 -0.0042625004
0.0098175285 -0.00073121215 -0.00029027741
0.010274157 -0.00073121215 -0.00029027741
0.006506966 -0.00020781824 0.0012833336
0.0087901121 -0.00020781823 0.0012833336
0.008219325 -0.0011545455 -0.00025208294
0.008219325 -0.0007312122 -0.00029027741
0.011301572 -0.00023090906 0.0022687502
0.0087901121 -0.00023090908 0.0022687502
0.014117453 0.0001924242 0.0012375005
0.015297078 -0.00073121215 -0.00029027741
0.015753709 -0.00073121209 -0.00029027741
0.013813034 0.00011545449 -0.0072416668
0.011301572 0.00019242424 -0.0062486115
0.014041348 -0.00023090908 -0.006210417
0.011301572 -0.00019242425 -0.0053319447
0.014041348 -0.00023090909 -0.0052937502
0.016324494 -0.00011545451 -0.0072416668
0.016324494 0.0001154546 -0.0072416668
0.016324494 0.00011545451 -0.0066687502
0.011301572 0.00011545451 -0.0032312502
0.013813034 -0.0001154545 -0.0036895834
0.013813034 0.00011545452 -0.0057520838
0.015753709 0.0011545455 -0.01595
0.018835954 -0.00011545453 -0.021793749
0.018835954 0.00011545456 -0.021793749
0.019140376 -0.00019242428 -0.021335417
0.018835954 -0.00011545458 -0.021335417
0.019140376 -0.0001924243 -0.021793751
0.021347415 -0.00011545456 -0.021793749
0.021347415 0.00011545457 -0.021793749
0.019140376 0.0001924242 -0.021335417
0.021632809 0.0002020455 -0.020791147
0.018265169 0.0011545455 -0.016752085
0.018265167 0.00069272728 -0.017210416
0.019178428 0.0011545455 -0.015835416
0.019178426 0.0011545455 -0.015377083
0.022260675 0.0011545453 -0.016293751
0.024657978 0.0011545453 -0.015835416
0.023858875 0.00019242424 -0.017630557
0.014041348 -0.00023090914 -0.01973125
0.014041348 -0.00023090909 -0.018814582
0.011529887 -0.00023090903 -0.018814582
0.011529887 -0.00023090906 -0.019272916
0.011529887 -0.00057727273 -0.017554168
0.012328989 0.00069272728 -0.0023145834
0.011529887 0.00023090914 -0.008272917
0.011529886 0.00023090905 -0.0072416668
0.011187416 0.0011160607 -0.015186111
0.010730785 0.0011160607 -0.015186111
0.010257849 0.00061025983 -0.015229762
0.013813034 0.0001154546 -0.0087312507
0.013813034 0.00011545458 -0.008272917
0.014840447 0.00069272728 -0.017210416
0.013813034 0.00057727267 -0.017554168
0.014117453 0.00019242421 -0.018814584
0.013813034 -0.00057727279 -0.017554168
0.006506966 -0.00019242422 -0.021297224
0.0087901121 0.00023090917 -0.018814582
0.006506966 0.00023090909 -0.020762501
0.0090184268 -0.00023090908 -0.022710416
0.011301572 0.00023090903 -0.020189583
0.011301572 0.00019242427 -0.019234722
0.011529887 0.00023090914 -0.019272916
0.0090184268 -0.00023090903 -0.021793749
0.0090184277 -0.00023090911 -0.020762501
0.011301572 -0.00023090914 -0.021793749
-0.026256178 -0.0011545455 -0.016752085
-0.026712807 -0.0011545455 -0.016752085
-0.027740223 -0.0011545455 -0.017210416
-0.023858875 0.00011545452 -0.014231251
-0.026370337 0.00011545458 -0.014689583
-0.025799554 0.00069272734 -0.015377084
-0.025228767 -0.00023090903 -0.015377083
-0.024163296 -0.00019242427 -0.014231251
-0.025228767 -0.00069272734 -0.015377083
-0.025799554 -0.00069272722 -0.015377083
-0.025228767 -0.0011545453 -0.015377083
-0.026696499 0.00021441559 -0.013756549
-0.024163296 -0.00019242422 -0.013314583
-0.024163296 0.00019242424 -0.013314583
-0.023858875 0.0001154546 -0.012283334
-0.021651836 0.00019242425 -0.01216875
-0.021651834 -0.0001924242 -0.013314583
-0.021347415 -0.00011545453 -0.013314584
-0.021347413 -0.00011545457 -0.012741667
-0.021651834 -0.00019242428 -0.011710417
-0.024163296 0.0001924242 -0.010335417
-0.024163296 0.0001924243 -0.01079375
-0.024178516 -0.00016163637 -0.010816667
-0.021347415 -0.00011545455 -0.0036895834
-0.019140376 -0.00019242427 -0.004835417
-0.018835954 -0.00011545453 -0.0052937502
-0.024163296 0.00019242424 -0.0042625004
-0.024201348 -0.0001154546 -0.0052937502
-0.023858875 -0.0001154545 -0.0042625004
-0.021651834 -0.00019242428 -0.0078145834
-0.021347415 -0.00011545454 -0.0073562502
-0.021347415 -0.00011545452 -0.0066687502
-0.027740223 -0.0011545453 -0.00071041659
-0.025799554 -0.0011545453 -0.00071041659
-0.024201348 -0.0011545455 -0.00071041659
-0.023744717 -0.0011545455 -0.00071041659
-0.028311012 0.00069272722 -0.015377083
-0.020319998 0.00065424241 -0.017172223
-0.020319998 0.0011545455 -0.017095834
-0.02032 0.00023090905 -0.017210416
-0.018835954 -0.00011545448 -0.01973125
-0.019140376 -0.00019242422 -0.020762503
-0.019140376 0.00019242427 -0.022252083
-0.023858875 -0.00011545451 -0.020762501
-0.018265169 0.00069272728 -0.017210416
-0.018265171 0.0011545455 -0.016293749
-0.018835954 -0.00057727267 -0.017554168
0.022831459 -0.00023090903 -0.015377083
0.019140376 -0.0001924242 -0.019272916
0.019140376 -0.00019242428 -0.019731252
0.018835954 -0.00011545448 -0.01973125
0.021347415 -0.00011545451 -0.01973125
0.01780854 0.00069272734 -0.017210416
0.017237753 0.00069272722 -0.017210416
0.018835954 0.0001154546 -0.018814582
0.016628912 0.00019242427 -0.019272916
0.019749215 -0.0011545455 -0.0017416663
0.019140376 -0.00019242427 -0.0036895834
0.018835954 -0.00011545455 -0.0042625004
-0.008219325 0.0011160605 -0.015415277
-0.0087901121 0.00023090903 -0.014689583
-0.006506966 0.00023090903 -0.01973125
-0.006506966 0.00023090903 -0.018814582
-0.0073060668 0.00023090906 -0.017210416
-0.006506966 -0.00023090903 -0.018241668
-0.0062786518 -0.00023090908 -0.01973125
-0.0062786518 -0.00023090909 -0.018814582
-0.0037671907 -0.00023090914 -0.019272916
-0.0073060677 -0.00023090906 -0.015262499
-0.025228767 -0.0011545455 -0.00025208294
-0.024657978 -0.00073121203 -0.00029027741
-0.024657978 -0.0011545453 -0.00025208294
-0.024201348 -0.0011545455 -0.00025208294
-0.021651834 -0.00019242418 0.0018104166
-0.021347415 -0.00011545459 0.0018104166
-0.022260671 -0.0011545453 -0.0017416663
-0.022260673 -0.00073121203 -0.00029027741
-0.019178428 -0.0011545455 -0.00025208294
-0.019749211 -0.0011545453 -0.0011687502
-0.023288088 -0.0011545455 -0.00071041659
-0.023288088 0.00023090914 -0.00025208294
-0.02283146 -0.0007312122 -0.00029027741
-0.018835954 0.00011545456 0.0012374995
-0.016324494 -0.00011545452 0.00066458341
-0.022260673 -0.0011545455 -0.0011687502
-0.012785617 -0.0010390909 -0.0152625
-0.014041348 -0.00019242421 -0.010297223
-0.014041348 0.00023090915 -0.010335417
-0.013242247 -0.0011545455 -0.016293749
-0.012785619 -0.0011545453 -0.016293749
-0.016324494 0.00017318176 -0.0097052082
-0.020319998 -0.00069272734 -0.015491667
-0.019716596 -0.00023090911 -0.015327976
-0.019749211 0.00069272722 -0.015491667
-0.016552808 -0.00057727267 -0.017554168
-0.0061644949 0.0011545453 -0.0017416668
-0.0067352806 0.0011545455 -0.0017416663
-0.0090184268 -0.00011545457 -0.0036895834
-0.010274157 0.00069272728 -0.0022
-0.010274157 0.0011545455 -0.0022
0.02577672 -0.00071581831 -0.00032083318
0.01780854 -0.00073121203 -0.00029027741
0.01780854 -0.00023090903 -0.00025208294
0.02283146 -0.0007312122 -0.00029027741
0.012785618 0.0011545456 -0.00071041659
0.012785619 0.0011545455 -0.00025208294
0.019140376 0.00019242421 0.0018104166
0.018835954 -0.00011545448 0.0018104166
0.019140376 0.00019242427 0.00066458341
0.019749213 0.00073121215 -0.00029027741
0.020319998 0.00073121209 -0.00029027741
0.018835954 0.00011545452 0.00066458341
0.01780854 0.0011545455 -0.00025208294
0.019749211 0.0011545453 -0.00071041659
0.015753709 0.0011545453 -0.0011687502
0.014269664 0.0011545455 -0.00025208294
0.014840448 0.0011545455 -0.0011687502
0.015297078 0.0011545455 -0.00071041659
0.015753709 0.0011545453 -0.00025208294
0.015753709 0.0011545455 -0.00071041659
0.016628912 0.00019242422 0.0022687502
0.016210336 0.0011545455 -0.0011687502
0.016210336 0.0011545455 -0.00071041659
0.016666966 0.0011545455 -0.00071041659
0.017237753 0.0011545453 -0.00025208294
0.017237753 0.0011545453 -0.00071041659
0.017237753 0.0011545453 -0.0011687502
0.01780854 0.0011545455 -0.00071041659
0.016210336 0.0011314546 -0.015308334
0.018265171 0.0011545453 -0.0017416668
0.02876764 0.0011545455 -0.0022
0.028311009 0.0011545453 -0.0017416668
0.026689976 -0.00016163642 -0.0087541677
0.015313386 0.00067623373 -0.015295238
0.015741024 0.00067989901 -0.015237037
0.016628912 -0.00019242425 -0.0032312502
0.016628914 0.00019242422 -0.0097625004
0.016628912 0.00019242418 -0.010335417
0.016324494 0.00011545458 -0.010335417
0.023744717 0.0011545455 -0.015835416
0.022831459 0.0011545455 -0.016293749
0.020319998 0.0011545455 -0.0023145834
0.020776629 0.0011545453 -0.0017416668
0.019749213 -0.00057727273 -0.015377085
0.019140376 0.00019242421 -0.01423125
0.018835954 0.00019242424 -0.013734723
0.018835954 -0.00011545457 -0.012741667
0.018835954 -0.00011545458 -0.01216875
0.020776629 0.0011545455 -0.015835417
0.020319998 0.0011545456 -0.015835416
0.019749211 0.0010968181 -0.015319792
0.021347415 0.00011545459 -0.0091895834
0.021347415 0.00011545459 -0.0087312507
0.021651838 -0.00019242428 -0.0097625004
0.019140376 -0.0001924243 -0.010335417
0.018835954 -0.00011545457 -0.010335417
0.018835954 0.00019242418 -0.013352779
0.018835954 0.00017318183 -0.012741667
0.018835954 -0.00011545451 -0.013772917
0.020776628 0.00023090906 -0.0152625
0.024178516 -0.00016163637 -0.0078375004
0.024163296 0.0001924243 -0.0078145834
0.024163296 0.00019242428 -0.0072416672
0.024657978 0.0011545455 -0.0011687502
0.024201348 0.0011545455 -0.0011687502
0.026712807 0.0011545455 -0.00071041659
0.027740225 0.0011545453 -0.0011687502
0.026256178 0.0011545455 -0.0011687502
0.020319998 -0.00023090908 -0.0022
0.020319998 0.00023090903 -0.0022
0.021689888 -0.0011545455 -0.00025208294
0.020776628 -0.0011545455 -0.00025208294
0.0052512363 0.0011545455 -0.0022
0.0077626971 0.0011545455 -0.0017416668
0.0057078656 0.0011545455 -0.00071041659
0.0073060668 0.00023090903 -0.00025208294
0.0067352802 0.0011545455 -0.0017416663
0.0061644949 0.0011545455 -0.0011687502
0.0062025473 0.00019242424 0.00066458341
0.0022831459 0.0011545452 -0.0017416668
-0.016628912 0.00019242418 0.0018104166
-0.016324494 -0.00011545459 0.0018104166
-0.019140376 -0.00019242421 0.0022687502
-0.021347415 0.00011545449 0.0018104166
-0.021347415 0.00011545457 0.0022687502
-0.018835954 0.00011545457 0.00066458341
-0.013813034 0.0001154546 -0.0032312502
0.016628912 -0.00019242418 0.0018104166
0.016609887 -0.00017318179 0.0026697917
0.014041348 -0.00023090903 0.0022687502
0.013813034 -0.00011545458 0.0022687502
0.011301572 0.0001154546 0.00066458341
0.010730787 0.0011545453 -0.00025208294
0.010730786 -0.0011545455 -0.00025208294
0.008219325 0.0011545455 -0.00071041659
0.0092467424 -0.0011545453 -0.0011687502
0.0086759552 -0.0011545455 -0.0011687502
0.0098175267 -0.0011545455 -0.0011687502
0.0098175267 -0.0011545453 -0.0017416668
0.0062786518 -0.00023090914 -0.0066687502
0.011187416 -0.0011160608 -0.015415278
0.010714479 -0.001105065 -0.015360714
0.008219325 0.00073121209 -0.00029027741
0.006506966 -0.00011545453 -0.0052937502
0.0098175276 0.0011545455 -0.016752085
0.011301572 0.00017318186 -0.012741667
0.0087901121 0.00023090915 -0.0097625004
0.0090184268 0.00011545458 -0.0032312502
0.0098012192 0.00024740264 -0.002298214
0.0090184268 -0.0001924243 -0.0036513889
0.014117453 0.00019242427 -0.004835417
0.014041348 -0.00023090909 -0.004835417
0.013813034 0.00023090912 -0.0052937502
0.013813034 0.00020781819 -0.0043083332
0.014117453 0.00019242424 -0.0042625004
0.0090184268 0.00011545452 -0.004835417
0.018835954 0.00011545461 -0.0078145834
-0.021651836 0.00019242427 0.0022687502
-0.0061644949 0.0011545455 -0.00071041659
-0.0047717751 0.0011314546 -0.0022458336
-0.011529887 0.00023090906 0.00066458341
-0.012328989 0.00073121209 -0.00029027741
-0.011301572 -0.00023090917 0.00066458341
-0.013242248 0.00073121209 -0.00029027741
0.0012557303 0.00023090912 -0.0062104166
0.0073060673 -0.00057727279 -0.015377084
0.0087901121 0.00023090914 -0.014231251
-0.0062786518 -0.00023090908 -0.014231251
-0.016324494 0.00011545455 -0.011710417
-0.016324494 -0.00011545454 -0.010335417
-0.014041348 -0.0001924242 -0.010831945
-0.0073060668 0.0011930303 -0.015797222
-0.013813034 -0.00023090912 -0.0042625
-0.013813034 -0.00023090903 -0.011252083
-0.014830071 -0.000241405 -0.015283334
-0.014041348 -0.00011545459 -0.0087312507
-0.00068494381 -0.0011930303 -0.01579722
-0.00068494381 -0.0011314546 -0.015308334
-0.00068494381 -0.0011545455 -0.016408334
-0.00068494375 -0.00057727279 -0.0152625
-0.0062786518 0.00023090911 -0.0032312502
-0.0057078646 0.00069272722 -0.0022
-0.0052512358 0.0011545455 -0.0022
-0.011529887 0.00023090902 -0.01079375
-0.011301572 0.00023090912 -0.0097625004
-0.011529886 0.00023090912 -0.0097625004
-0.011301572 0.00023090905 -0.0091895834
-0.011529887 0.00023090911 -0.0091895834
-0.006506966 -0.00019242418 -0.010373612
-0.0087330332 -0.0002020454 -0.0097338539
-0.0087444503 -0.0002078182 -0.010816666
-0.00022831459 0.00069272722 -0.0022
-0.001301393 -0.0002078182 0.00066458341
0.0013013931 -0.00020781816 0.00066458341
0.0022831461 -0.00073121209 -0.00029027741
0.0022831459 0.00023090914 -0.00025208294
0.029224269 0.00011545452 -0.014231251
-0.0057078646 -0.0011545455 -0.016293749
-0.0052512363 -0.0011545455 -0.016752085
-0.0031964043 0.0011545453 -0.016752085
-0.0022831461 0.00023090905 -0.017210416
-0.0043379776 -0.0011545455 -0.016752085
-0.0027397752 -0.00069272722 -0.017210416
-0.0087901121 0.00017318182 -0.020762501
-0.0087444503 -0.00020781822 -0.021358334
-0.0087140081 -0.00019242424 -0.020189583
-0.0087140081 -0.00019242421 -0.020762503
-0.0077626961 -0.00023090914 -0.017210416
-0.0072933827 0.00021808088 -0.015338889
-0.0090184268 0.00023090915 -0.01423125
-0.0098175267 0.00023090914 -0.0152625
-0.0090184268 -0.00011545461 -0.011252084
-0.0090184268 0.00011545453 -0.011710417
-0.0090184268 0.00020781813 -0.0098083336
-0.0067352806 0.0011545453 -0.016293751
-0.018835954 0.00011545461 -0.018814582
-0.019140376 0.00019242428 -0.018814584
-0.019749211 0.00068223145 -0.017200001
-0.023858875 -0.00011545455 -0.019272916
-0.011301572 0.00023090908 -0.011252083
-0.011529887 0.00023090914 -0.013314584
-0.011529887 -0.00023090903 -0.013772918
-0.010730787 0.0011160607 -0.015415278
-0.018835954 0.00011545451 -0.0097625004
-0.019140376 0.00019242425 -0.0066687502
-0.018835954 0.0001154546 -0.0078145834
-0.018835954 0.0001154546 -0.01079375
-0.021347415 -0.00011545448 -0.01079375
0.0013013931 -0.00020781824 -0.018814584
-0.00022831463 0.00069272728 -0.017210416
-0.021347415 -0.00011545454 -0.022710416
-0.018835954 -0.00011545458 -0.021793749
-0.016628912 -0.00019242418 -0.022252083
-0.0062786518 -0.00023090915 -0.022252083
-0.006506966 -0.00023090903 -0.022252083
-0.0061644944 0.0011545455 -0.016752085
-0.013242246 0.0011545455 -0.016752085
-0.012328989 0.0011545455 -0.016752085
-0.012328989 0.0011545455 -0.017210416
-0.012328989 0.0011930303 -0.015873611
-0.011529887 0.00023090914 -0.020189583
-0.011529887 -0.00023090911 -0.019272916
-0.011529887 0.00023090903 -0.019272916
-0.011529887 0.00023090914 -0.01973125
-0.011529887 -0.00023090912 -0.020189583
-0.012328989 0.00069272734 -0.017210416
-0.011758202 0.0011545455 -0.016293751
-0.016324494 0.00017318188 -0.018184375
-0.015753709 0.00069272734 -0.017210416
-0.015753709 0.0011545455 -0.017210416
-0.015297078 0.0011545455 -0.017210416
-0.016210338 0.0011545455 -0.016293749
-0.016324494 -0.00011545455 -0.022252083
-0.016324494 0.00011545457 -0.020762501
-0.016324494 0.00011545454 -0.020189583
-0.027740223 0.0011545453 -0.00071041659
-0.028311012 0.0011545455 -0.00025208294
-0.028767642 0.0011545453 -0.00025208294
-0.02831101 0.00069272728 -0.0022
-0.027169436 0.00069272728 -0.0022
-0.027169436 0.00073121209 -0.00029027741
0.0027397752 0.00069272722 -0.017210416
-0.010274157 -0.0011545455 -0.016293749
-0.0098175276 -0.00023090909 -0.017210416
0.011529887 -0.00023090908 0.00066458341
0.013698876 0.0011545455 -0.016293749
0.013242247 0.0011545455 -0.01595
0.008219325 0.0011545455 -0.016752085
0.0027397752 -0.00069272728 -0.0022
0.0031964043 -0.0011545455 -0.0023145834
0.0027397752 -0.0011545455 -0.0022
0.0042999252 -0.00069272728 -0.0022763889
0.0027397752 0.0011545453 -0.0017416668
0.0027397752 0.0011545455 -0.00071041659
0.0031964043 0.00073121215 -0.00029027741
-0.0012557303 -0.00063500012 -0.017554168
0.0077626961 -0.00023090914 -0.017210416
0.02157573 0.00023090914 -0.010335417
0.018835954 -0.00011545459 -0.011710417
0.019140376 -0.00019242422 -0.011710417
0.018835954 0.00011545457 -0.011710417
0.018835954 -0.00011545453 -0.011252084
0.019140376 -0.0001924243 -0.011252083
0.018835954 0.0001154545 -0.011252084
0.016628912 0.0001924242 -0.01216875
0.016628912 -0.00019242427 -0.01216875
0.016628914 -0.00019242424 -0.012741666
0.016324494 0.00011545455 -0.011710417
0.016324494 0.00011545453 -0.01216875
0.016628912 0.0001924242 -0.011710417
0.016628912 -0.0001924242 -0.011710417
0.016324494 -0.00011545457 -0.010335417
0.013813034 -0.00011545449 -0.013314584
0.014041348 -0.00023090911 -0.013314584
0.013813034 -0.00019242418 -0.013734723
0.014041348 -0.00023090915 -0.012741666
0.014041348 0.00023090914 -0.01216875
0.014041348 -0.00023090912 -0.01216875
0.014041348 0.00023090911 -0.012741667
0.0090184268 0.00011545455 -0.011710417
0.011529887 -0.00023090911 -0.01079375
0.011529887 0.00023090911 -0.011252084
0.0090184268 0.00011545459 -0.01079375
0.016324494 -0.00011545453 0.00066458341
0.013813034 -0.00011545458 0.0018104166
0.015297078 -0.00069272728 -0.0022
0.015297078 -0.00023090909 -0.0022
0.015753709 -0.00069272722 -0.0023145834
0.015770016 -0.00024740267 -0.002298214
-0.020776629 -0.0011545455 -0.015491667
-0.020776629 -0.00069272734 -0.015491667
-0.026712807 -0.0011545452 -0.016293749
-0.027169436 -0.0011545453 -0.015835416
-0.0018265167 -0.0011545455 -0.016408334
-0.0013013933 -0.0002078182 -0.012741668
-0.0013013933 0.00020781824 -0.012741668
-0.00068494381 -0.0011545455 -0.016752085
-0.0043379776 0.0011545453 -0.0017416668
-0.0090184268 0.00019242427 -0.0066305562
-0.0090184268 0.00020781813 -0.0072875
-0.0087901121 0.00023090914 -0.0072416668
-0.0052512358 0.0011545453 -0.015377084
-0.0038128539 0.00020781826 -0.013314584
-0.0037671912 -0.00023090912 -0.013314583
-0.0042808987 0.00057727267 -0.015205208
-0.0038128537 0.00020781826 -0.011252083
0.016552808 -0.00057727267 -0.017554168
0.015297078 -0.00069272722 -0.017210416
0.016552808 0.00057727279 -0.017554168
0.015297078 0.00023090905 -0.017210416
0.014269664 -0.0011545455 -0.015835414
0.013698876 -0.0011160605 -0.015415278
0.014132674 0.0001616363 -0.0226875
0.014117453 0.00011545458 -0.021755556
0.013813034 0.00019242422 -0.021831945
0.014132674 0.00016163639 -0.021358334
0.016628912 -0.00019242422 -0.021335417
0.016324494 -0.00011545452 -0.020762501
0.016628912 0.0001924243 -0.020189583
0.016324494 0.0001154545 -0.020189583
0.018835954 -0.00011545457 -0.020762501
0.016628912 -0.00019242418 -0.01973125
0.01780854 -0.0011545455 -0.016752085
0.019140376 -0.00019242421 -0.022252085
0.01780854 -0.00023090914 -0.015377084
0.01780854 0.00023090908 -0.015308334
0.020336306 -0.001138052 -0.002298214
0.019749213 -0.0011545455 -0.0022
0.019178428 -0.0011545455 -0.0022
0.019140376 -0.00019242424 -0.01216875
0.024163296 0.00019242422 -0.01216875
0.024163296 -0.00019242428 -0.01216875
0.023288088 -0.0011545453 -0.015835416
0.022831459 -0.0011545455 -0.016293749
0.020319998 -0.0011545455 -0.015835416
0.020776629 -0.0011545453 -0.016293749
0.019140372 -0.00019242418 -0.018241666
0.019749211 -0.00069272739 -0.017210416
0.019140376 -0.00019242422 -0.020762501
0.018835954 -0.00011545459 -0.020189583
0.019140376 -0.00019242422 -0.020189583
0.019140376 0.00019242427 -0.020189583
0.019140374 0.00019242427 -0.020762501
0.020319998 -0.0011545455 -0.016752085
0.021271311 -0.0011545455 -0.017172223
0.01780854 -0.0011545455 -0.015835417
0.018265169 -0.0011545455 -0.015835417
0.018265169 -0.0011545455 -0.016293749
0.018265169 -0.0010390909 -0.015377084
0.016324494 0.0001154546 -0.013314584
0.016628912 0.00019242422 -0.013314583
0.021575732 0.00023090912 -0.012741667
0.02157573 0.00023090909 -0.01216875
0.025783245 -0.00067623379 -0.017194049
0.025799554 -0.00023090908 -0.017210416
0.023858875 -0.00011545454 -0.014689583
0.026370337 -0.00011545449 -0.010908334
0.024163296 0.00019242427 -0.01079375
0.026674755 -0.00019242428 -0.011710417
0.0037671912 0.00023090906 -0.0091895834
0.00068494375 0.00127 -0.015835416
-0.00068494387 0.0011545455 -0.016752085
-0.00025114606 0.0012238182 -0.016316665
-0.00022831466 -0.00023090903 -0.015262499
-0.024657978 0.0011545453 -0.0017416668
-0.024657978 0.0011545455 -0.0022
-0.024163296 0.0001924243 -0.011710417
-0.024163296 0.0001924243 -0.01216875
-0.026712809 0.0011545455 -0.0022
-0.026712811 0.0011545453 -0.0017416668
-0.027169436 0.0011545453 -0.0017416668
-0.026712807 0.0011545455 -0.00071041659
-0.026256179 0.0011545453 -0.0017416668
-0.024201348 0.0011545455 -0.0022
-0.025228763 0.0011545453 -0.0022
-0.016324494 0.00017318182 -0.0072416668
-0.011758201 0.0011545453 -0.0011687502
-0.011187415 0.0011545455 -0.0011687502
-0.013242247 0.0011545455 -0.0011687502
-0.011529887 0.00023090914 0.0018104166
-0.0090184268 -0.00011545458 0.0018104166
-0.0062786518 0.00023090903 0.00066458341
-0.006506966 0.00023090903 0.0022687502
-0.006506966 0.00023090915 0.0012374995
0.022260675 0.0011545453 -0.00071041659
0.022260673 0.0011545453 -0.00025208294
0.022831459 0.0011545455 -0.00025208294
0.022260673 0.00073121203 -0.00029027741
0.021233259 0.0011545453 -0.00071041659
0.020776629 0.0011545455 -0.0011687502
0.021651834 -0.00019242418 0.00066458341
0.024163296 0.00019242425 0.0022687502
0.025228767 0.0011545453 -0.00071041659
0.025228767 0.0011545453 -0.0011687502
-0.015297078 0.00069272734 -0.0022
-0.015753709 0.00069272728 -0.0022
-0.015753709 0.00073121209 -0.00029027741
-0.014041348 0.00023090906 0.00066458341
-0.014840448 0.00023090905 -0.00025208294
-0.018265167 0.00073121209 -0.00029027741
-0.019140376 0.00019242427 -0.008272917
-0.018265169 0.0011545455 -0.0011687502
-0.018721798 0.0011545453 -0.0017416668
-0.018265169 0.0011545453 -0.0017416668
-0.018721797 0.0011545456 -0.0022
-0.019178428 0.0011545455 -0.0022
-0.021347413 0.00011545452 0.0012374995
-0.021689888 0.0011545455 -0.017210416
-0.021651834 0.00019242425 -0.018814584
-0.022260673 0.0011545453 -0.016752085
-0.022831459 0.0011545453 -0.016752085
-0.021347415 0.0001154546 -0.0087312507
-0.021233259 0.0011545455 -0.0011687502
-0.019178428 0.0011545453 -0.0017416663
-0.019749217 0.0011545455 -0.0017416668
-0.019749211 0.0011545453 -0.0022
0.023744717 0.0011545455 -0.016752085
0.01906427 0.00057727267 -0.017554168
0.019749211 0.00069272734 -0.017210416
-0.016324494 -0.0001154546 -0.0072416668
-0.013813034 -0.00023090903 -0.0072416668
-0.014117453 -0.0001924243 -0.014689584
-0.014041348 0.00023090905 -0.014231251
-0.014087011 0.00020781822 -0.0147125
-0.013698876 0.0011545453 -0.015835416
-0.013698876 0.0011545455 -0.016293749
-0.014269664 0.0011545453 -0.015835416
-0.013242247 0.0011545455 -0.015835417
-0.012801924 0.0011710391 -0.015851786
-0.014041348 0.00023090914 -0.012741667
-0.0090184268 0.00023090912 -0.013314584
-0.0086759552 0.0011545455 -0.016293749
-0.010741166 0.00024140503 -0.015283334
-0.010274157 0.00023090905 -0.015377083
-0.016324494 -0.00011545454 -0.0057520838
-0.006506966 0.00011545458 -0.012741667
-0.0057078651 -0.0011930303 -0.01579722
-0.0057306965 -0.0010390909 -0.015308334
-0.0061644944 -0.0010390909 -0.015377084
-0.0073288986 -0.0010390909 -0.015308334
-0.0047946055 -0.00023090905 -0.015262499
-0.0031964043 -0.0011545455 -0.016408334
-0.0090184268 -0.00011545457 -0.01216875
-0.0087901121 0.00011545453 -0.011710417
-0.0062786518 0.00023090903 -0.011252084
0.0052512363 -0.00023090914 -0.0152625
0.0090184268 -0.00011545454 -0.0078145834
0.0090184268 -0.0001154545 -0.0087312507
0.0090184268 0.00011545461 -0.0091895834
0.0090184268 -0.00011545452 -0.0091895834
0.0098175285 -0.00057727273 -0.015377084
0.010274157 -0.00057727273 -0.015377084
0.010274157 -0.0011160607 -0.015415278
0.010730786 -0.00057727267 -0.015377084
0.008219325 -0.0011160607 -0.0022763889
0.0062786518 -0.00023090915 -0.0036895834
0.0056915572 -0.0011710388 -0.002298214
0.0052512363 -0.00065424241 -0.0022763889
0.0062786522 -0.00023090906 -0.0042625009
0.026684267 -0.00017318182 -0.0072703129
0.026750861 0.00019242425 -0.0052937507
-0.011187415 0.0011545455 -0.00071041659
-0.0077626961 0.00069272728 -0.0022
-0.0087901121 0.00023090912 -0.0032312502
-0.0062786518 0.00023090908 -0.004835417
-0.0082573779 0.0011545455 -0.0022763889
-0.0077626966 -0.0011545453 -0.00071041659
-0.0057078651 0.0011545453 -0.0017416668
-0.0037671907 0.0011545453 -0.00071041659
-0.0031964043 0.0011545455 -0.0011687502
-0.012785617 -0.00023090915 -0.0022
-0.011529887 0.00023090914 -0.0032312502
-0.013242248 -0.00069272728 -0.0022
-0.0098175276 0.00023090915 -0.00025208294
-0.011187415 -0.0011545455 -0.016752085
-0.011301572 -0.00023090905 -0.0087312507
-0.0087140081 -0.00019242422 -0.008272917
-0.0087444503 -0.00020781814 -0.0077916668
-0.0087330341 -0.00020204544 -0.0072416672
-0.013813034 -0.00023090906 -0.0066687502
-0.0090184268 -0.0001154545 -0.006210417
-0.0087444494 -0.00020781819 -0.0057291673
-0.0090184268 0.00019242424 -0.0061722226
-0.011301572 0.00023090914 -0.006210417
-0.011301572 -0.00023090909 -0.0057520838
-0.011301572 -0.00023090909 -0.004835417
-0.024163296 -0.00019242424 -0.0032312502
-0.025228763 -0.00069272734 -0.0022
-0.02579955 -0.00069272734 -0.0022
-0.025228767 -0.00023090914 -0.0022
-0.02579955 -0.00023090908 -0.0022
-0.026256178 -0.0011545453 -0.0011687502
-0.024201348 -0.0011545453 -0.017210416
-0.025799554 -0.0011545455 -0.016293749
-0.025228767 -0.0011545453 -0.016293751
-0.025228767 -0.0011545456 -0.015835414
-0.025228767 -0.0011545453 -0.016752085
-0.024657978 -0.0011545455 -0.016293749
-0.02454382 0.00011545455 -0.017554168
-0.025228767 0.00023090903 -0.017210416
-0.022831459 -0.00069272734 -0.015377083
-0.022260673 -0.00069272728 -0.015377083
-0.026370337 0.0001154546 9.1666356e-05
-0.0098175276 0.00023090905 -0.0022
-0.0087901121 0.00023090905 -0.0057520838
-0.0062786518 -0.00023090906 -0.0052937502
-0.006506966 0.00011545452 -0.004835417
-0.006506966 -0.00011545455 -0.006210417
-0.006506966 -0.00019242418 -0.0036513889
-0.0072680153 -0.00069272734 -0.0022763889
-0.013813034 0.0001154545 -0.008272917
-0.011529887 0.00023090903 -0.0057520838
-0.013813034 0.0001154546 -0.0078145834
-0.011301572 0.00023090914 -0.0066687502
-0.013813034 0.00011545452 -0.0036895834
-0.016324494 0.0001154545 -0.006210417
-0.014041348 0.00023090909 -0.004835417
-0.018835954 0.00011545456 -0.004835417
-0.018835954 0.0001154546 -0.0052937502
-0.014269664 0.0011545452 -0.016293751
-0.014840447 0.0011545455 -0.016293749
0.029224267 0.00011545458 -0.0097625004
0.029224269 0.00011545456 -0.01079375
0.029224269 -0.00011545451 -0.011252084
0.029224269 0.00011545455 -0.011252084
0.024163296 -0.00019242422 -0.010335417
0.024163296 0.00019242424 -0.010335417
0.025799554 0.0011545455 -0.015835417
0.026735639 0.00020781826 -0.020785419
0.027740223 0.00069272728 -0.015377083
-0.022260671 -0.00069272722 -0.017210416
-0.02157573 -0.00057727273 -0.017554168
-0.021651834 -0.00019242418 -0.018814584
-0.020776629 -0.00069272728 -0.017210416
-0.023744717 0.0011545455 -0.016752085
-0.022793407 0.00069272728 -0.017172223
0.025228767 -0.00023090906 -0.017210416
0.025799554 0.00023090914 -0.017210416
0.012328989 -0.0011545453 -0.015835416
0.013813034 0.00011545453 -0.010335417
0.013813034 0.00011545451 -0.0097625004
0.013813034 0.00011545457 -0.011252084
0.013813034 -0.0001154546 -0.011710417
0.013813034 0.00011545454 -0.011710417
0.014041348 0.00023090906 -0.010793751
0.014840448 -0.00057727267 -0.015377084
0.014041348 -0.00023090905 -0.013772918
0.013813034 -0.00023090903 -0.01423125
0.014041348 -0.00023090908 -0.01423125
0.016324494 -0.00011545458 -0.01216875
0.014041348 -0.00023090903 -0.011710417
0.014041348 -0.00023090909 -0.0091895834
0.013242246 -0.0011160607 -0.015415278
0.011529887 -0.00023090915 -0.0091895834
0.011301572 -0.00011545455 -0.0091895834
0.016324494 -0.00011545452 -0.0042625004
0.016324494 -0.00011545452 -0.004835417
0.016628912 -0.00019242427 -0.004835417
0.016628914 -0.00019242418 -0.0042625004
0.013813034 -0.0001154545 -0.02316875
0.0090184277 0.00023090905 -0.018241668
0.011529888 0.0001924243 -0.018852778
0.010730786 0.00069272722 -0.017210416
0.010274157 0.00069272728 -0.017210416
0.0098175267 -0.0011545453 -0.016752085
0.0092467414 -0.0011545453 -0.016293751
-0.00022831466 -0.00073121209 -0.00029027741
-0.00068494375 -0.0007312122 -0.00029027741
-0.0022831461 -0.00069272734 -0.0022
-0.0031964043 -0.00073121215 -0.00029027741
-0.0047946065 -0.00069272728 -0.0023145834
0.02283146 0.00073121209 -0.00029027741
0.022831459 -0.00023090914 -0.00025208294
0.021651838 0.00019242424 0.0012374995
0.022283504 0.0011545455 -0.0022916668
0.024163296 -0.00019242424 -0.0087312507
0.020319998 0.00023090909 -0.00025208294
0.021347415 0.00011545457 0.00066458341
0.020319998 -0.00023090912 -0.00025208294
0.019121349 0.00017318185 0.0026697917
0.020319998 -0.00073121215 -0.00029027741
0.020776628 -0.00073121215 -0.00029027741
0.018265171 -0.0011545453 -0.0017416668
0.018721798 -0.0011545453 -0.0017416668
0.021651836 -0.00019242431 -0.0072416672
0.021651834 -0.00019242428 -0.006210417
0.018721797 -0.0011545455 -0.0022
0.018721798 -0.0011545455 -0.0011687502
0.026712807 0.0011545455 -0.015835416
0.026256178 -0.0011545455 -0.015835417
0.027169436 0.00069272722 -0.017210416
-0.021347413 0.00011545458 -0.012741667
-0.021347415 0.00011545452 -0.013314584
-0.021651836 0.00019242418 -0.012741667
-0.024674285 0.00070922077 -0.017194048
-0.025228763 0.00069272734 -0.017095834
-0.024163296 0.00019242424 -0.018814584
-0.023744717 0.0011545456 -0.015835416
-0.021651836 0.00019242428 -0.014231251
-0.023858875 -0.00011545455 -0.013772917
-0.023858875 -0.00011545456 -0.014231251
-0.021689888 0.0011545455 -0.016752085
-0.021233259 0.0011160607 -0.015415278
-0.022260675 0.0011160604 -0.015415277
-0.022260675 0.00065424247 -0.015415277
-0.021689888 0.0011545455 -0.016293749
-0.024657978 0.0011545455 -0.016293749
-0.026712807 0.0011545455 -0.016293749
-0.026712807 0.0011545455 -0.016752085
-0.025799554 -0.00069272734 -0.017210416
-0.021347413 0.00011545455 -0.0072416668
-0.021347415 0.0001154546 -0.0066687502
-0.016666966 -0.0011545455 -0.0011687502
-0.015297078 0.00023090914 -0.00025208294
-0.016628912 -0.00019242425 -0.0052937507
-0.019155595 -0.0001616364 -0.0053166668
-0.016324494 0.00019242425 -0.0032694442
-0.018835954 0.00011545457 -0.012741667
-0.019140372 0.00019242421 -0.012741666
-0.018721797 0.0011545455 -0.016293749
-0.019749211 0.0011545453 -0.015835414
-0.019749211 0.0011545455 -0.015491667
-0.016628912 0.0001924242 -0.014231251
-0.016650656 0.00021441565 -0.014705954
-0.01780854 0.00023090909 -0.015377083
-0.01780854 -0.00023090908 -0.0152625
-0.017237753 0.0011545453 -0.016752085
-0.017237753 0.0011545455 -0.016293751
-0.016666966 0.0011545455 -0.017210416
-0.019749211 0.0011545453 -0.016752085
-0.019749211 0.0011545453 -0.016293751
-0.020319998 0.0011545452 -0.015835414
-0.019140376 0.0001924242 -0.011252084
-0.019140376 -0.0001924242 -0.011710417
-0.019140376 0.0001924243 -0.011710417
-0.019140376 -0.00019242422 -0.011252083
-0.016324494 0.00023090905 -0.013314584
-0.016628912 0.00019242425 -0.013772917
0.024163296 0.00019242428 -0.0057520843
-0.026644314 0.00020781817 -0.0037125
-0.014840448 -0.0011545455 -0.00025208294
-0.020319998 -0.0011545455 -0.0017416663
-0.02035805 -0.0011545455 -0.0022763889
-0.020776629 -0.0011545453 -0.00071041659
-0.020319998 -0.0011545455 -0.00071041659
-0.021233259 -0.0011545455 -0.0017416668
-0.019140376 0.0001924243 -0.0032312502
-0.0037671912 -0.00023090905 0.0022687502
-0.0012557303 -0.0011545453 -0.00025208294
0.00068494369 -0.0011545455 -0.00071041659
0.0012557303 -0.0011545453 -0.00025208294
0.0012557303 -0.0011545453 -0.00071041659
-0.0018265168 -0.0011545455 -0.00071041659
-0.004794606 -0.0011545456 -0.0011687502
-0.0031964041 -0.0011545455 -0.0017416668
0.0038128537 -0.00020781817 0.0012375005
0.0027397752 -0.00073121215 -0.00029027741
0.0077626966 -0.0011160607 -0.0022763889
0.0077626966 -0.0011545453 -0.0017416668
0.0067352806 -0.0011545453 -0.00025208294
0.0072897593 -0.001138052 -0.002298214
0.0073060673 -0.0011545453 -0.0017416668
0.0037671914 -0.0011545453 -0.00071041659
0.0038128539 -0.00020781814 -0.0052937502
0.0022831461 -0.0011545455 -0.0022
0.0012557303 -0.0011545455 -0.0011687502
0.006506966 -0.00011545459 -0.0042625
0.0087901121 -0.00019242427 -0.0037277779
0.0092467405 -0.0011545455 -0.0017416663
0.0086759552 -0.0011545453 -0.0017416668
0.0062025469 0.00019242427 0.0012375005
0.0087901121 -0.00019242428 0.001848611
0.0090184268 -0.00023090917 0.00066458341
0.010274157 -0.0011545453 -0.00025208294
0.0090184268 -0.00019242418 0.0026888894
0.011529887 -0.00023090906 0.0022687502
0.012367041 -0.00023090915 -0.0022763889
0.014840448 -0.00023090909 -0.00025208294
0.013813034 0.00011545458 -0.0078145834
0.016628912 0.00019242428 -0.0078145834
0.016628914 0.0001924243 -0.0072416672
0.019140376 0.00019242431 -0.0072416672
0.014087011 0.00020781823 -0.0057291673
0.016324494 -0.00011545455 -0.0057520838
0.016324494 0.00011545455 -0.006210417
0.016324494 -0.00011545448 -0.006210417
0.011301572 -0.00011545455 -0.006210417
0.0090184268 -0.0001924243 -0.0061722226
0.0087901121 -0.00023090909 -0.006210417
0.014087011 0.00020781822 -0.0053166668
0.016324494 -0.00011545454 -0.0066687502
0.01031221 -0.00023090909 -0.0022763889
0.011301572 0.00011545461 -0.0036895834
0.011301572 -0.0001924242 -0.0036513889
0.011301572 0.00017318183 -0.0042625004
0.011529886 0.00023090915 -0.0042625004
0.011301572 0.00019242422 -0.0048736115
0.013813034 0.00011545458 -0.004835417
0.011529887 -0.00023090912 -0.0052937502
0.014041348 -0.00023090912 -0.0036895834
0.011529887 -0.00023090905 -0.0036895834
0.011529886 -0.00023090915 -0.0042625004
0.013242247 0.00069272728 -0.0023145834
0.013813034 0.00019242427 -0.0031930553
0.015753709 0.0011545455 -0.016293749
0.014840448 0.0011545455 -0.01595
0.018835954 -0.0001154545 -0.022252083
0.019140376 0.0001924243 -0.021793751
0.018835954 0.00011545456 -0.021335417
0.019140376 0.00019242421 -0.019731252
0.018835954 0.0001154545 -0.020762501
0.021621391 0.00020781816 -0.021358334
0.021347415 0.00011545458 -0.020189583
0.018265169 0.0011545455 -0.016293749
0.018721797 0.0011545455 -0.015835416
0.021689888 0.0011545455 -0.016293749
0.024657978 0.0011545453 -0.016293749
0.013813034 -0.00011545448 -0.019272916
0.013813034 0.00011545459 -0.019272916
0.014041348 -0.00023090915 -0.019272916
0.014098427 0.00017318185 -0.019272916
0.011301572 -0.00020781817 -0.018195834
0.010730786 -0.00069272728 -0.017210416
0.012785617 0.00069272728 -0.0023145834
0.011301572 0.00011545458 -0.008272917
0.014041348 0.00023090906 -0.006210417
0.013813034 0.00019242425 -0.0061722226
0.010296988 0.0011314546 -0.015216666
0.011758201 0.0011545455 -0.016293751
0.012785618 0.00069272728 -0.017210416
0.013242246 0.00069272728 -0.017210416
0.012785617 -0.00057727273 -0.015377084
0.012328988 -0.00057727273 -0.015377084
0.0062786518 0.00023090908 -0.020189583
0.0062786522 0.00023090908 -0.020762501
0.011529887 0.00023090915 -0.020189583
0.011301572 -0.00019242425 -0.021373613
-0.026712807 -0.0011545455 -0.017210416
-0.02774022 -0.0011545455 -0.016752085
-0.02771947 -0.00070322322 -0.017200001
-0.023288088 0.00069272734 -0.015377083
-0.024657978 -0.00069272722 -0.015377083
-0.024201348 -0.00023090903 -0.014689585
-0.025228767 0.00069272734 -0.015377083
-0.026370337 -0.00011545448 -0.014804167
-0.024163296 0.00019242428 -0.012741666
-0.024163296 0.00019242421 -0.013772919
-0.024163296 -0.00019242425 -0.013772917
-0.026696499 0.00021441563 -0.013330952
-0.023858875 -0.00011545458 -0.013200001
-0.021651834 -0.0001924243 -0.013772917
-0.021651834 -0.00019242422 -0.01216875
-0.026674755 0.00019242422 -0.01079375
-0.025799554 0.00023090905 -0.017210416
-0.026370337 0.0001154546 -0.0058666668
-0.024178516 -0.00016163634 -0.0057291673
-0.021651834 -0.00019242421 -0.0082729161
-0.021347415 -0.0001154546 -0.0079291668
-0.027169436 -0.0011545455 -0.00071041659
-0.019140376 0.00019242418 -0.0042625009
-0.021651836 -0.00019242424 -0.0036895834
-0.021347413 -0.00011545449 -0.0042625004
-0.021347415 0.0001154545 -0.0036895834
-0.027740225 0.00069272728 -0.015377083
-0.018835954 -0.00011545452 -0.020189583
-0.019140376 -0.00019242424 -0.019731252
-0.019140376 -0.00019242424 -0.018814584
-0.019178428 -0.0011545456 -0.016293749
0.023288088 0.00069272734 -0.015377084
0.022260673 0.00069272734 -0.015377083
0.018835954 0.00011545452 -0.018241668
0.016324494 0.00011545451 -0.01973125
0.016628912 0.0001924242 -0.019731252
0.016324494 0.00011545451 -0.019272916
0.019178428 -0.0011545453 -0.0017416668
0.019140376 -0.00019242422 -0.0042625004
0.018835954 -0.0001154546 -0.004835417
0.019140376 -0.00019242421 -0.004835417
0.019140376 0.00019242427 -0.004835417
0.019140376 -0.00019242421 -0.0072416672
-0.0077626966 0.00025400001 -0.015308334
-0.008219325 0.00023090914 -0.015262499
-0.0062786522 -0.00023090906 -0.018241666
-0.0073060673 -0.00023090908 -0.017210416
-0.023744717 -0.0011545455 -0.00025208294
-0.024178516 -0.00016163636 0.00068750046
-0.021347415 -0.00011545455 0.0022687502
-0.020319998 -0.0011545455 -0.00025208294
-0.020776628 -0.00073121203 -0.00029027741
-0.019149888 -0.00017318182 0.0012661461
-0.018721797 -0.0011545455 -0.00071041659
-0.019749211 -0.0011545455 -0.00071041659
-0.023288088 -0.0011545455 -0.0011687502
-0.023288088 -0.0007312122 -0.00029027741
-0.022831459 -0.0011545455 -0.00071041659
-0.013813034 0.00011545454 -0.010335417
-0.014041348 0.00023090909 -0.010793751
-0.016609887 0.00020204548 -0.0097625004
-0.015297078 -0.00023090903 -0.017210416
-0.018835954 -0.00011545456 -0.018241668
-0.01780854 -0.00023090906 -0.017210416
-0.018265169 -0.00069272722 -0.017210416
-0.016628914 -0.00019242422 -0.018241666
-0.016210336 -0.00057727267 -0.017554168
-0.01780854 0.00023090908 -0.017210416
-0.017255316 0.000222028 -0.015350641
-0.0090184268 -0.00011545455 -0.0042625
-0.011301572 0.00019242428 -0.0037277779
0.018265167 -0.0007312122 -0.00029027741
0.016324494 0.00011545452 0.0022687502
0.012328989 0.0011545456 -0.00071041659
0.012785618 0.0007312122 -0.00029027741
0.0098175285 0.0007312122 -0.00029027741
0.010730786 0.0011545455 -0.00071041659
0.019140372 0.00019242427 0.0012374995
0.01780854 0.00073121203 -0.00029027741
0.017237753 0.00073121215 -0.00029027741
0.015753709 0.00069272728 -0.0023145834
0.013813034 0.00017318179 0.0011802083
0.014840447 0.0011545455 -0.00025208294
0.014840447 0.00073121209 -0.00029027741
0.013698876 0.0011545453 -0.00025208294
0.015297078 0.0011545455 -0.0011687502
0.016233167 0.0011314546 -0.015904166
0.026674755 -0.00019242418 -0.008272917
0.016324494 -0.00011545458 -0.0032312502
0.015274246 0.00025400004 -0.0022458336
0.019140376 0.0001924242 -0.011252084
0.019140376 0.00019242418 -0.011710417
0.019140376 0.00019242421 -0.01079375
0.019140376 0.00019242421 -0.01216875
0.018835954 0.0001154546 -0.01079375
0.016628912 0.00019242422 -0.011252083
0.016324494 0.00011545454 -0.011252084
0.016324494 0.00011545458 -0.01079375
0.023744717 0.0011545453 -0.016293749
0.022831459 0.0011545455 -0.016752085
0.021233259 0.0011545453 -0.0017416668
0.019162118 -0.00021441553 -0.014705954
0.01976552 0.00023090917 -0.015327976
0.019140376 0.00019242431 -0.013772917
0.020776629 0.0011545455 -0.016293749
0.020319998 0.0010968181 -0.015319792
0.019140376 -0.0001924242 -0.0091895834
0.019140376 -0.00019242418 -0.01079375
0.019140376 0.00019242422 -0.010335417
0.018835954 -0.00011545459 -0.013314584
0.016628912 -0.00019242418 -0.013314583
0.016628914 0.00019242424 -0.012741667
0.024163296 -0.00019242418 -0.0072416672
0.026712807 0.0011545455 -0.0011687502
0.020319998 0.00073121203 -0.0022763889
0.020792935 0.00024740261 -0.002298214
0.0052512363 0.0011545456 -0.0011687502
0.008219325 0.0011545453 -0.0017416668
0.0061644949 0.0011545453 -0.0017416663
0.0022831459 0.0011545455 -0.0011687502
-0.0073060673 0.00073121203 -0.00029027741
0.0098175276 -0.0011545453 -0.00071041659
0.010274157 -0.0011545455 -0.00071041659
