# .PCD v0.7 - Point Cloud Data file format
VERSION 0.7
FIELDS x y z
SIZE 4 4 4
TYPE F F F
COUNT 1 1 1
WIDTH 1170
HEIGHT 1
VIEWPOINT 0 0 0 1 0 0 0
POINTS 1170
DATA ascii
0.000227039 -0.0011723078 -0.010257205
0.0090775071 0.00011957792 -0.0052279187
0.0090764016 0.00012070248 -0.0047007389
0.0090248054 -0.00016493506 -0.0047243657
0.0090248054 -0.00017318182 -0.0057395948
0.0090702111 0.00012700001 -0.0057395939
0.0034623463 7.6969693e-05 0.0025798646
0.0037807545 -0.0002083814 0.0026787794
0.0015325138 -0.00017318182 0.0022197966
0.0015325138 -0.00017318182 0.0026177666
0.0034623463 6.5974033e-05 0.0022279187
0.0062776292 -0.00021936363 -0.0082411189
0.0062776292 -0.00021936365 -0.0077294405
0.0062435726 0.00014844156 -0.0082411151
0.00096491631 0.00017318182 -0.0092644673
0.00073787698 0.0011545453 -0.010265953
0.0012487146 0.0011545456 -0.010265953
0.00022703908 -0.00028863639 -0.010230963
0.00096491619 0.00017318183 -0.0077294419
0.00096491631 0.00017318182 -0.008241117
-0.00096491614 2.309091e-05 -0.0082297465
0.0012487151 -0.00023090908 -0.0077294409
0.0012487147 -0.00023090908 -0.0082411179
0.0032353071 -0.0011545458 -0.0022147205
0.0032353075 -0.0011545455 -0.0017598993
0.0037461442 -0.0011545456 -0.00221472
0.0040299441 -0.00017318182 0.0026177666
-0.0040299441 0.00014431818 0.0026272419
-0.0038029049 5.7727277e-05 0.0030725892
-0.0037863927 0.00014274383 0.0026839231
-0.0040299441 -0.0002078182 0.0026518782
-0.010087761 0.00068223145 -0.012122612
-0.010074861 0.00066386367 -0.01176599
-0.010103242 0.00023090906 -0.011254314
-0.01007486 0.00066386367 -0.011254316
-0.00096491619 -0.00017318182 -0.0072177663
-0.00096491619 -0.00017318182 -0.0067629442
-0.00096491614 2.3090906e-05 -0.0067743147
-0.0012487146 -0.00023090905 -0.0072177649
0.00096491631 0.00017318182 -0.0067629451
0.010103241 0.00023090909 -0.011765988
0.010095133 0.00072571432 -0.012163959
0.010103242 0.00023090906 -0.011254314
0.010095133 0.0007257142 -0.011765989
0.0090673743 -0.00014431818 0.0026035537
0.0090715475 0.00010866311 0.0026177675
0.0089112846 -0.00011545455 0.0030725892
0.0089112846 1.8189894e-12 0.0030725892
0.0088139819 -0.00015943726 0.0026664981
0.0087803006 0.00010657343 0.0022183401
0.0087977648 -0.00017318182 0.0022197976
-0.0097459871 0.0010798397 -0.012150584
-0.0092398915 0.0011484689 -0.011766987
-0.0097248415 0.001077576 -0.011765989
-0.0092380811 0.0011370524 -0.012129503
-0.0097248396 0.001077576 -0.010742639
-0.0012487149 -0.00023090908 -0.0077294414
-0.00096491619 -0.00017318182 -0.0077294423
0.0090248054 -0.00016676768 -0.0052531864
0.009081562 0.00011545458 0.0022197966
0.0037616254 -0.0002204132 -0.0077294419
0.0040299441 -0.00017318182 -0.0072177667
0.0040299441 -0.00017318182 -0.0077294419
0.0040299441 0.00017318183 -0.0072177667
0.00096491619 0.00017318182 -0.0087527931
0.0012487147 -0.00023090903 -0.0072177667
0.000227039 -0.00072571437 -0.010304061
0.001248715 0.0001731818 -0.0077294447
0.0027244694 -0.0011545456 -0.0017598984
0.0022703907 -0.0011545456 -0.0022147205
0.002270391 -0.0011545456 -0.0017598984
0.0037616254 -0.00022041322 0.0022197966
0.0037461454 0.00017318182 0.0022197966
0.0034623463 5.7727277e-05 0.001764975
-0.0067544119 -0.0011545456 -0.00028172601
-0.0065727816 -0.0002078182 0.00074162427
-0.0062435735 -0.0011545456 -0.00028172601
-0.0062624938 -0.00018892567 0.0026453319
-0.0062736222 0.00012450981 0.0026735044
-0.0062678983 0.0001566883 0.0022197957
-0.0062590535 -0.00022041323 0.0022197966
-0.0063003348 -1.8189894e-12 0.0030725892
-0.0037556051 -0.00021647726 0.0026840954
-0.0089112846 -0.00011545455 0.0030725892
-0.0090626432 7.0555558e-05 0.0026809364
-0.0088545252 1.8189894e-12 0.0030725892
-0.0087914579 8.3383842e-05 0.0026809364
-0.0087977648 -0.00017318186 0.0026664971
-0.0087858159 0.000109378 0.0022197966
-0.0090702102 9.236364e-05 0.0022197976
-0.01004648 0.00069272728 -0.010458376
-0.0097059207 0.0010720778 -0.010352793
-0.010103241 0.00023090912 -0.011765989
-0.010103241 -0.00028863637 -0.011765989
-0.010103241 -0.00028863631 -0.011254316
-0.0087835751 0.00010823866 0.0012556682
-0.0087904409 -0.00018994139 0.0017668088
-0.008794778 -0.00019141151 0.0012562922
-0.0087803006 0.00010657347 0.0017664325
-0.009242381 0.0011497346 -0.011255894
0.008775061 0.0001039091 -0.0047162436
0.0090764025 0.00012070248 -0.0072125983
0.009072829 0.00012433567 -0.0077206963
0.008775061 0.00010390911 -0.0072177663
0.009751332 0.0010929699 -0.0007365481
0.01004648 0.0010390909 -0.0007365481
0.01004648 0.0010390909 -0.00028172601
0.0097537218 0.0010937802 -0.0012512156
0.0092356214 0.0011462988 -0.00073654857
0.0092356224 0.0011462988 -0.00028172601
0.010090902 0.00073790515 -0.00031880382
0.0097626839 0.00076694816 -0.00030609127
-0.00073787704 0.0011545456 -0.01026595
-0.00073787681 0.0011545455 -0.010742637
-0.0012487149 0.0011545456 -0.010265952
-0.00022703905 0.0011545456 -0.010265951
-0.00096491614 2.3090903e-05 -0.0072063962
-0.0015325138 -0.00019242424 -0.0072240839
-0.0015325138 -0.00020781819 -0.0067629442
0.00073787704 0.0011545456 -0.010742637
0.00022703905 0.0011545455 -0.011254314
0.00073787716 0.001154545 -0.011254313
-0.00022703913 -0.00028863637 -0.010230964
-0.00022703905 0.00072351529 -0.010291608
0.00022703905 0.00072351523 -0.010291607
0.0037461452 0.0001731818 -0.016769035
0.0034623463 3.8484854e-05 -0.016257362
0.0034623463 2.3090906e-05 -0.016780406
0.0063381749 -0.00011545455 -0.018569374
0.006527374 5.7727277e-05 -0.018531473
0.0063381749 3.848485e-05 -0.018550424
-0.0082246279 0.0011432818 -0.012152868
-0.0082301684 0.0011545455 -0.011765988
-0.0077193296 0.0011545456 -0.012163959
-0.0087410063 0.0011545456 -0.011765989
-0.00096491619 -0.00017318182 -0.008241117
-0.0012600666 0.00016163634 -0.0092644645
-0.001260067 0.00016163636 -0.0087527893
-0.010100538 -0.00027489182 -0.012147717
-0.010095133 -0.00072571432 -0.011765989
-0.010091889 -0.00073313637 -0.012158274
-0.0065652141 -0.00019242425 -0.018205516
-0.0065727825 9.236364e-05 -0.017735533
-0.0065557542 6.734849e-05 -0.018199833
-0.008873445 -0.00011545455 -0.018569374
-0.0090248045 3.6379788e-12 -0.018531473
-0.0088431733 4.6181824e-05 -0.018554214
-0.0088119544 -0.00018761365 -0.018223522
-0.0087939808 8.4666681e-05 -0.01822447
-0.0090248045 -0.00011545455 -0.018531473
-0.0062590535 -0.00022041319 -0.017735537
-0.0062656468 -0.00020525257 -0.018218784
0.0072719306 -0.0011477541 -0.0021511791
0.0067544142 -0.00073890918 -0.0022033509
0.0067544132 -0.0011401138 -0.002143655
0.0072622658 -0.00073526328 -0.002193775
0.010062697 -0.00067623373 -0.01074264
0.0097383549 -0.0010390908 -0.01074264
0.01004648 -0.0006061364 -0.010316244
0.0090653477 0.00012370131 -0.018174112
0.0090475082 -0.00016163636 -0.018122133
0.0090248045 0.00011545455 -0.018531473
0.0090815602 0.00011545456 -0.017735533
0.0088545252 -0.00011545453 -0.018531473
0.0088103777 9.9419209e-05 0.0026809373
-0.0097383559 -0.0010885716 -0.011765989
-0.01004648 -0.0010390909 -0.012163959
-0.0097317211 -0.0010863224 -0.012174296
-0.01004648 -0.0010390909 -0.011765989
0.0042569819 -0.0011545456 -0.0017598988
0.0047678207 -0.0011545456 -0.0017598984
0.0032353075 -0.0011545455 -0.0012482228
0.0037461447 -0.0011545456 -0.0012482232
0.0032353066 -0.0011545455 -0.00073654857
0.0040299441 0.00014844156 0.0022116755
-0.0077193263 0.0011545456 -0.011765987
-0.0072652535 0.0011545456 -0.011765988
-0.0012655326 0.00014966329 -0.018232472
-0.0015325138 9.8961042e-05 -0.018157868
-0.001260067 6.9272734e-05 -0.018592115
0.0097383559 0.0010885716 -0.00028172601
-0.0090531847 6.734849e-05 -0.018209308
-0.0090588611 -0.00018472728 -0.018167619
-0.0097248415 0.0010775758 -0.011254315
-0.0012487149 -0.00023090909 -0.0067629442
-0.0012487147 -0.00023090905 -0.0062512662
-0.0015325138 -0.00018892562 -0.0062512695
-0.0015325138 0.00011545455 -0.0067629442
-0.00074385176 -0.0011687243 -0.010292804
-0.00021994409 -0.0011665722 -0.010278344
-0.00096491619 -0.00017318182 -0.0087527921
-0.0012487149 0.0011545455 -0.011254314
-0.00073787698 0.0011545453 -0.011254313
0.00073787704 0.0011545456 -0.011765988
0.0017595534 0.0011545457 -0.012220811
0.002270391 0.0011545456 -0.011765987
0.002270391 0.0011545457 -0.012220815
0.0034623463 -0.00011545453 -0.016598478
0.0015325138 0.00017318182 -0.016769037
0.0015325138 -0.00017318182 -0.016769035
0.0090248054 -0.00017318182 -0.0087527912
0.01007351 -0.00026389607 -0.010290524
0.0092356224 0.0011462988 -0.0022147209
0.0090775061 0.00011957793 -0.0037416241
0.0097513301 0.0010929699 -0.0022147209
0.0090815611 0.00011545455 -0.004261421
0.0082301702 -0.0011545457 -0.0007365481
0.0077193282 -0.0011545456 -0.0003385786
0.0082301684 -0.0011545456 -0.0003385786
0.0090248054 -0.00017318182 -0.0077294419
0.0090248054 -0.00017318182 -0.0072177667
0.0090790931 0.00011545455 -0.0082386462
0.0090248054 -0.00017318182 -0.008241117
0.0052228938 -0.00073121209 -0.010304776
0.0062624938 -0.00020525254 -0.0092644701
0.0057327393 -0.00073396112 -0.010312183
0.0052218949 -0.00028863637 -0.010230963
0.0062435735 0.0011545456 -0.011765988
0.006243573 0.0011545453 -0.011254315
0.0057327398 0.0011545452 -0.011254315
-0.0017632756 0.0011545456 -0.010283159
-0.0037461452 0.0011545456 -0.01176599
-0.0027244696 0.0011570555 -0.012213396
-0.0032353082 0.0011545455 -0.011765989
-0.0032376724 0.0011521404 -0.012178175
0.0090815611 0.00011545455 0.00074162427
0.0090500312 -0.0001539394 0.00074794143
0.010100537 -0.0002638961 -0.00034399284
0.010062697 -0.00067623373 -0.00035482226
0.0090437252 -0.00016356062 0.0012343484
0.0096734865 -0.0010390909 -0.0003385786
0.0037616258 -0.00022041323 -0.0072177649
0.0040299441 -0.00017318182 -0.008241117
0.0037616254 -0.00022041319 -0.008241117
0.006243573 0.0001484416 -0.0072177653
0.0062776292 -0.00021936365 -0.0072177658
0.0040366221 0.00016299465 -0.0067596002
0.0034623463 5.7727277e-05 -0.0072746198
0.0037461445 0.00017318179 -0.0077294433
0.0037461452 0.00017318182 -0.0072177658
0.0015325138 -0.00017318182 -0.0072177672
0.0015325138 0.0001731818 -0.0077294409
0.0015325138 -0.00017318182 -0.0077294419
0.0015325138 0.00017318183 -0.0072177667
0.0012487149 0.00017318178 -0.0067629442
0.00096491619 0.00017318182 -0.0062512695
0.0015325138 0.0001731818 -0.0062512695
0.0015325138 0.00017318185 -0.0067629446
0.0015325138 -0.00017318182 -0.0067629446
0.0012487147 -0.00023090906 -0.008752794
0.00022703905 0.0011545456 -0.010265952
0.0012487146 -0.00023090908 -0.0067629446
0.0012487149 -0.00023090909 -0.0062512686
-0.00022703905 -0.00072571437 -0.010304062
-0.00022703905 -0.0011545456 -0.010742639
-0.00096491619 -0.00017318182 -0.0092644673
-0.0027244694 -0.0011545456 -0.0017598988
-0.002270391 -0.0011545456 -0.0017598984
-0.0027244696 -0.0011545457 -0.0022147205
-0.0032353073 -0.0011545456 -0.00073654857
-0.0032353073 -0.0011545453 -0.0012482228
-0.0037461456 -0.0011545456 -0.0012482232
0.0027244696 -0.0011545456 -0.0022147209
0.002270391 -0.00075045467 -0.00221472
0.0015325138 -0.00017318182 -0.003238071
0.0032353071 -0.0011545453 -0.00028172601
0.0027244699 -0.0011545456 -0.00028172601
0.0015325138 0.0001731818 -0.0032380708
0.0034623463 4.6181824e-05 -0.0032267005
0.0027244694 0.00023090909 -0.0022147195
0.0022703914 0.00023090906 -0.0022147195
0.0034623463 3.2987016e-05 -0.0037335025
-0.0090626441 -0.00017703031 0.0026556686
-0.0032353071 -0.0011545456 -0.00028172554
-0.0027244694 -0.0011545456 -0.00028172554
-0.0065727816 -0.0002078182 0.0022197976
-0.006259637 0.00014595196 0.00074269716
-0.0065407283 0.00011545456 0.0012131683
-0.0062657828 0.0001539394 0.0012532999
-0.006259053 -0.0002204132 0.0012532999
-0.0087410063 -0.0011545456 -0.010742638
-0.0082301693 -0.0011256819 -0.010259393
-0.0082301693 -0.0011545456 -0.010742638
-0.0087372214 -0.0011160608 -0.010253707
-0.0077165351 -0.00074193755 -0.0022063325
-0.0072592781 -0.001148469 -0.0021698368
-0.0072652539 -0.00075045478 -0.00221472
-0.0077193296 -0.0011545456 -0.0021578679
0.001265112 -0.00021038385 0.0026784097
0.0013054748 -0.00011545455 0.0030725892
-0.0017595537 -0.0011545455 -0.00028172554
-0.0017595536 -0.0011545456 -0.00073654857
-0.0012487146 -0.0011545456 -0.00028172601
-0.0012487146 -0.0011545456 -0.00073654857
-0.010074861 0.00066386367 -0.010742639
-0.0097626848 0.0007735453 -0.012141219
-0.010103241 0.00023090909 -0.01074264
-0.010101283 0.00022294671 -0.0003385786
-0.010069185 0.00066963641 -0.00074033812
-0.010067121 0.00067173556 -0.0003385786
-0.010101785 0.00022498835 -0.00073800609
-0.010071707 0.00067989901 -0.0021199663
-0.010095133 -0.0007257142 -0.0007365481
-0.01010324 -0.00028863639 -0.0003385786
-0.010087761 -0.00073471083 -0.00032307301
-0.0090666255 9.1148337e-05 0.0017619827
-0.0090642869 9.0355752e-05 0.0012582433
-0.0090702092 -0.0002078182 0.0012532999
-0.0097248405 0.001077576 -0.0007365481
-0.0077193282 0.001125682 -0.01033046
-0.0072652521 0.0011256819 -0.010330458
-0.007265253 0.0011545456 -0.010742638
0.010095133 0.0007257142 -0.0007365481
0.010103241 0.00023090909 -0.0003385786
0.0065557538 0.00011545455 -0.0057395939
0.006243573 0.00014844157 -0.0057395962
0.0065557538 0.00011545456 -0.006251269
0.0065273745 -0.00017318182 -0.006251269
0.0077193272 0.0011545456 -0.0022147209
0.008775061 0.00010390911 -0.0032380717
0.0077193254 0.00075045467 -0.00221472
0.0082301684 0.0011545455 -0.0022147205
0.0087410053 0.0011545456 -0.0022147209
0.0087750619 0.00010390911 -0.0037497464
0.0065273745 -0.00017318182 -0.0067629442
0.0062776292 -0.00021936365 -0.0067629451
0.0090248054 -0.00017318182 -0.0067629446
0.0087977648 -0.00017318186 -0.0067629446
-0.0040299441 -0.00023090908 -0.0052279187
-0.0037461447 -0.00023090906 -0.0052279178
-0.0037461445 -0.00023090908 -0.0057395934
-0.0040299441 -0.00023090909 -0.0057395943
-0.0037461442 -0.00023090906 -0.0062512686
-0.0040299441 -0.00023090911 -0.006251269
-0.0037461456 -0.00023090908 -0.0042614201
-0.0040299441 -0.00023090909 -0.004261421
-0.0040299441 -0.00023090909 -0.0047162436
-0.00096491614 3.8484846e-05 -0.0092644673
-0.0002270392 0.00023090912 -0.010230963
0.00096491631 0.00017318182 -0.0072177663
-0.00096491619 3.2987013e-05 -0.0077131982
-0.0037599509 0.00016070025 -0.0087527903
-0.0032353075 0.0011545455 -0.010287813
-0.0037447617 0.0011320179 -0.010303072
-0.0015325138 -0.00020204547 -0.0077389181
-0.00073787692 0.0011545453 -0.01222081
-0.00022703905 0.0011545456 -0.01176599
-0.00022703908 0.0011545456 -0.01222081
-0.0017595533 0.0011545456 -0.011765989
-0.0012487149 0.0011545456 -0.012220812
-0.0017595538 0.0011545455 -0.012220811
-0.00022703911 0.0011545456 -0.011254314
0.00022703908 0.0011545456 -0.010742638
0.00022703908 -0.0011545456 -0.0007365481
0.00022703903 -0.0011545456 -0.00028172601
-0.00022703905 -0.0011545456 -0.0007365481
0.00073787698 -0.0011545455 -0.00028172601
0.001248715 -0.00023090906 -0.0052279173
0.0015325138 -0.00017318182 -0.0052279192
0.0015325138 -0.00017318182 -0.0047162436
0.0012487149 -0.00023090909 -0.0057395939
-0.00096491619 -0.00017318182 -0.006251269
-0.0015325138 0.00011545455 -0.006251269
-0.0034623463 5.4569682e-12 -0.006251269
-0.001260067 0.00016163637 -0.0067629446
-0.0012600671 0.00016163633 -0.0062512667
-0.0015325138 -0.00020781819 -0.0057395943
-0.001248715 -0.00023090908 -0.0092644682
-0.0040299441 0.00017318183 0.0012532999
-0.0040299441 -0.00023090911 0.0012532999
-0.0040299441 -0.00023090908 0.00074162427
0.0015325138 0.00017318182 0.001764975
0.0034623463 4.3295455e-05 0.0012675128
0.0015325138 -0.00017318182 0.001764975
0.0040461612 0.00013194805 -0.015244838
0.0040538432 0.00012760767 -0.014725327
0.0037461447 0.00017318178 -0.014722337
0.0037461449 0.0001731818 -0.01523401
0.0040441342 0.00012988636 -0.015738579
0.0037461449 0.0001731818 -0.015745681
0.0034623463 2.309091e-05 -0.017212486
0.0015325138 -0.00017318182 -0.017223859
0.0034623463 -0.00011545455 -0.017735533
0.0034623463 3.2987009e-05 -0.017719289
0.0015325138 -0.00017318182 -0.017735533
0.0015325138 0.0001539394 -0.01774185
-0.00022703903 -0.0011545453 -0.011254313
-0.0092356214 -0.0011462988 -0.011765988
-0.0092341816 -0.0011391517 -0.01217912
0.0040299441 0.00011545455 -0.018231703
0.0040299441 -0.00016493506 -0.018222842
0.0038029046 4.3295451e-05 -0.018574113
0.0038029049 -0.00013854545 -0.018554214
0.0037730313 -0.00021267943 -0.018223271
0.0040299441 -0.00023090911 -0.017735535
0.0062435735 0.00014844154 -0.015234012
0.0065557533 0.00011545455 -0.01523401
0.0065557538 0.00011545455 -0.015745685
0.0062776292 -0.0002193636 -0.017223861
0.0065572471 -0.00019444976 -0.017741516
0.0062776287 -0.00021936365 -0.017735535
0.0087523572 0.0011487728 -0.012186699
0.0092387414 0.0011367834 -0.012207692
0.0092356224 0.0011462988 -0.011765989
0.010095133 0.00072571426 -0.011254315
0.01004648 0.0010390909 -0.011765989
0.00975719 0.0010949563 -0.010737139
0.01004648 0.0010390909 -0.010287818
0.0097513311 0.0010929699 -0.0102954
-0.0087410063 0.0011545455 -0.011254313
-0.008775061 0.0001039091 -0.015234016
-0.0090642869 9.0355723e-05 -0.015238954
-0.0087803006 0.00010657344 -0.015747143
-0.0015325138 0.00011545455 -0.0087527921
-0.0012487149 -0.00023090905 -0.0082411179
-0.0015325138 -0.00017318182 -0.008241117
-0.0015325138 -0.00018892562 -0.0087734647
-0.0012600669 0.00016163636 -0.0082411189
-0.0012600675 0.00016163634 -0.0077294414
-0.0037461454 -0.00023090908 -0.0092644682
-0.0040299441 -0.00023090909 -0.0092644664
-0.0037461452 -0.00023090908 -0.0087527912
-0.0042515765 -0.001147215 -0.01027067
-0.0047628852 -0.0011394863 -0.010290289
-0.0047678207 -0.00074660627 -0.01029919
-0.0037461447 -0.00023090905 -0.0067629474
-0.0034623463 -0.00011545455 -0.0067629442
-0.0040299441 -0.00023090909 -0.0072177672
-0.0040299441 -0.00023090909 -0.0067629446
-0.0037461456 -0.00023090908 -0.0072177653
0.0012487146 -0.0011650415 -0.010303325
0.0034623463 4.3295451e-05 -0.015248222
0.0012487147 -0.00023090908 -0.016257368
0.0012487149 -0.00023090908 -0.016769039
0.0037551082 -0.00022483247 -0.016259361
0.0037616252 -0.00022041322 -0.016769033
0.0062776292 -0.00021936365 -0.015745683
0.0062776292 -0.0002193636 -0.015234016
0.0065273745 -0.00017318182 -0.015745685
-0.0015325138 -0.00017318182 -0.017735533
-0.0015325138 -0.00017318182 -0.017223859
-0.0012487146 -0.00023090909 -0.017223865
-0.0072740829 -0.0011288892 -0.01027645
-0.0067522698 -0.0011327618 -0.010293184
-0.007265253 -0.0011545456 -0.010742638
-0.0077193268 -0.0011545456 -0.010742639
-0.002270391 -0.0011545456 -0.010287818
-0.0017577797 -0.0011581536 -0.010268275
-0.0040299441 -0.00023090911 -0.017223859
-0.0037461447 -0.00023090911 -0.016769037
-0.0037461463 -0.00023090908 -0.017223861
-0.0037461459 -0.00023090905 -0.017735537
-0.0042569828 -0.0011545453 -0.0012482232
-0.0042569828 -0.0011545456 -0.00073654857
-0.0077157039 -0.0011275243 -0.010264839
-0.0072607128 0.00074352731 -0.012173054
-0.0077214837 0.00022798618 -0.012218652
-0.0072652521 0.00023090906 -0.012220809
-0.0077228029 0.00075163261 -0.012168599
-0.0087890327 -0.00018946388 -0.017735532
-0.0087792315 0.00010602971 -0.017735533
-0.0087858159 0.000109378 -0.017220868
-0.0077193263 -0.0011545457 -0.01222081
-0.0082301702 -0.0011545453 -0.011765988
-0.0077193263 -0.0011545456 -0.011765989
-0.0082192533 -0.0011456645 -0.012194573
-0.0087410053 -0.0011545456 -0.011765987
-0.0087835751 -0.00018761368 -0.016257361
-0.0087835751 -0.00018761365 -0.016769031
-0.0090702092 -0.00020781819 -0.016257361
0.0042531332 -0.0011525886 -0.0022118301
0.0096491622 -0.0010390909 -0.01034467
0.0097552808 -0.00074292492 -0.010342199
0.010099457 -0.00027709088 -0.01074264
0.010101785 -0.00028419582 -0.011254313
0.010070381 -0.00066842104 -0.011254315
0.010103241 0.00023090906 -0.010287819
0.010103241 0.00023090909 -0.01074264
0.010073191 -0.0006791444 -0.011762645
0.0065652137 0.00010904041 0.0026304
0.0062796935 -0.00018892564 0.0026591145
0.0062632654 0.00012723563 0.0026572156
0.0067544119 -0.0011545452 -0.0012482228
0.007265253 -0.0011545456 -0.0007365481
0.0072652539 -0.0011545455 -0.0012482232
-0.0092356224 -0.0011462988 -0.010742641
-0.0092356224 -0.0011462987 -0.00073654857
-0.00975719 -0.0010949562 -0.0017580641
-0.0092356252 -0.0011462986 -0.0012482232
-0.0092356214 -0.0011462988 -0.00028172601
-0.0097383559 -0.0010885716 -0.00028172601
-0.010103241 -0.00028863634 -0.01074264
-0.01007486 -0.0006782955 -0.010316244
-0.010087349 -0.00028170913 -0.010321929
0.0052218982 -0.0002638961 -0.00029796967
0.0047678207 -0.00078893948 -0.00031962758
0.0052218991 -0.00078893936 -0.00031962758
0.0062776292 -0.00021936365 0.00074162427
0.0047678207 -0.0002638961 -0.00029796967
0.0027244696 -0.0011545456 -0.0007365481
0.0022703907 -0.0011545456 -0.00028172601
0.0027244696 -0.00078509079 -0.00034994911
0.0022703907 -0.00078509084 -0.00034994911
0.0037461447 -0.0011545457 -0.0017598984
0.0042569842 -0.0011545455 -0.0012482232
0.0037461461 0.0001731818 0.001764975
0.0040299441 -0.00017318182 0.0022197966
-0.0082301674 0.0011545456 -0.01125431
-0.0087410053 0.0011545456 -0.010742639
-0.0067544151 0.0011545455 -0.011765985
-0.0067544128 0.0011545456 -0.012163959
-0.0062435735 0.0011545456 -0.011765988
-0.0062435726 0.0011545455 -0.011254312
-0.0077193258 0.0011545456 -0.011254315
-0.0077193263 0.0011545456 -0.010742639
-0.0015325138 0.00011545455 -0.017735533
-0.0034623463 3.6379788e-12 -0.018133502
-0.0037636096 0.00014209791 -0.018227533
-0.0038142565 6.9272734e-05 -0.018565584
-0.0040299441 0.00014209791 -0.018216597
-0.0037574952 0.00016163634 -0.017735537
-0.0063570947 -0.00011545455 -0.018588327
-0.007265253 0.0011545456 -0.012163961
-0.0067508095 0.00074587308 -0.012174793
-0.006527374 -0.00011545455 -0.018531473
-0.0063684462 4.6181824e-05 -0.018554214
-0.0062566712 0.00014209794 -0.017735528
-0.0062566716 0.00014209792 -0.017223863
-0.0065598083 8.2467537e-05 -0.017223859
-0.0065727821 -0.0002078182 -0.017223857
-0.0062590525 -0.00022041322 -0.017223861
-0.0027244689 0.0011545456 -0.011254315
-0.0032353073 0.0011545451 -0.011254319
-0.0057327389 0.0011545456 -0.011765987
-0.005732737 0.0011545456 -0.012163957
-0.0062435735 -0.0011440497 -0.0021992153
-0.0057327389 -0.0011545458 -0.0017598984
-0.0057327384 -0.0011440498 -0.0021992153
-0.0047678207 -0.0011545457 -0.0022147205
-0.0052181142 -0.0011468487 -0.00220335
-0.0067544128 -0.0011545457 -0.01074264
-0.0067544132 -0.0011545456 -0.011765988
-0.0067544128 -0.0011545455 -0.011254316
-0.006243573 -0.0011545457 -0.011765987
-0.0077193263 -0.0011545456 -0.011254316
-0.0057327393 -0.0011545453 -0.00028172601
-0.0057327393 -0.0011545457 -0.00073654857
0.00022703905 0.0011545456 -0.011765988
0.0017595537 0.0011545455 -0.011765986
0.0090815602 0.00011545456 -0.0087527912
0.010084321 0.00071196974 -0.010287818
0.0090248054 -0.00017318182 -0.004261421
0.0087977648 -0.00017318183 -0.0047162445
0.0062776292 -0.00021936363 -0.0047162427
0.0065273745 -0.00017318182 -0.0047162436
0.0062776287 -0.0002193636 -0.0052279178
0.0065273745 -0.00017318182 -0.004261421
0.0062776292 -0.0002193636 -0.0042614201
0.0062435726 0.00014844156 -0.0052279211
0.0065557538 0.00011545455 -0.0052279192
0.0087977648 -0.00017318186 -0.0072177667
0.008775061 0.0001039091 -0.0067629451
0.0087977648 -0.00017318185 -0.0077294409
0.0065273745 -0.00017318182 -0.0077294423
0.0065273745 -0.00017318182 -0.008241117
0.0040299441 -0.00017318182 -0.0062512695
0.0037616247 -0.00022041319 -0.006251269
0.0037659456 -0.00022016914 -0.0057435608
0.0052191941 -0.00028588742 -0.012218101
0.0047678207 -0.00028863637 -0.012220812
0.0040299441 -0.00017318182 -0.013244163
0.0047678207 -0.00075045467 -0.012220807
0.005214402 -0.00076025748 -0.012185412
0.0057327389 0.0011545455 -0.011765989
0.0052218973 0.0011545455 -0.011254317
-0.0027244696 0.0011545456 -0.010742641
-0.0012487149 0.0011545456 -0.010742639
-0.0015325138 0.00011545455 -0.0072177663
-0.0034623463 -7.2759576e-12 -0.0042803716
-0.0034623463 -0.00011545455 -0.0037876479
-0.0034623463 -1.8189894e-12 -0.0037876479
-0.0015325138 -0.00019242424 -0.0047225608
-0.0015325138 0.00011545455 -0.0047162436
-0.0034623463 0 -0.0047162436
0.0090475092 -0.00016163636 0.001742234
0.0087977648 -0.00017318185 0.0012532999
0.0087220855 -0.0011160608 -0.0003385786
0.0087977657 -0.00017318182 0.001764975
0.0097587239 -0.00076522195 -0.00035180012
0.0097513292 -0.0010390908 -0.00073275808
0.0090815602 0.00011545455 0.0012532999
0.008775061 0.00010390909 0.00074162474
0.0090557644 -0.00015743801 0.0022146287
0.0062435735 0.00014844156 -0.0077294409
0.0065557538 0.00011545455 -0.0067629437
0.0065557538 0.00011545455 -0.0072177667
0.006243573 0.00014844157 -0.0062512672
0.0062776292 -0.00021936354 -0.0062512676
0.0040299441 -0.00017318182 -0.0087527912
0.0040299441 0.00017318183 -0.0077294423
0.0034623463 5.7727284e-05 -0.0087527912
0.0034623463 5.7727277e-05 -0.008241117
0.0034623463 -0.00011545453 -0.008639087
0.0015325138 -0.00017318182 -0.0087527912
0.0015325138 0.0001731818 -0.0087527921
0.0037461449 0.00017318179 -0.008241117
0.0017613845 0.0011545455 -0.010278647
0.0015325138 0.00017318182 -0.008241117
0.0034623463 5.7727269e-05 -0.0077294419
0.0034623463 5.7727277e-05 -0.0067818952
0.0037461461 0.00017318178 -0.0067629428
0.0034623463 -0.00011545455 -0.0082979696
0.0027244696 0.0011545456 -0.011765988
0.0027244699 0.0011545456 -0.012220811
0.0032353073 0.0011545455 -0.01176599
0.0015325138 -0.00017318182 -0.0062512695
0.0012487149 0.0001731818 -0.0062512644
0.0015325138 0.00017318183 -0.0057395939
0.0012487151 0.00017318179 -0.0057395925
0.0012487149 0.0001731818 -0.0072177635
0.0017595538 0.0011545452 -0.010742639
0.002270391 0.0011545456 -0.010742639
0.0017595536 0.0011545451 -0.011254309
0.001248715 0.00017318182 -0.0092644654
0.0015325138 -0.00017318182 -0.0092644673
0.0059597762 0.00011545455 -0.0098898476
0.005221894 0.00023090909 -0.010230964
0.0042569828 0.0011545455 -0.00221472
0.0037383544 0.001150018 -0.0022314419
0.0040299441 0.0001731818 -0.003238071
-0.0032353071 -0.0011545455 -0.0017598984
-0.0037461452 -0.0011545456 -0.0022147209
-0.0037461454 -0.0011545456 -0.0017598988
-0.0032353071 -0.0011510991 -0.0022444199
-0.0027244694 -0.0011545455 -0.0012482232
0.0032353066 -0.00075045484 -0.0022147205
0.0027244699 -0.00075045461 -0.00221472
0.0027244694 -0.00028863634 -0.0022147205
0.0015325138 -0.00017318182 -0.0057395943
0.0034623463 3.8484843e-05 -0.0057585449
0.0017595536 -0.0011545455 -0.0022147209
0.0087358467 -0.0011020662 -0.010286095
0.0082250079 -0.0011388018 -0.010316246
0.0087220864 -0.0011160608 -0.01074264
0.008778384 0.00010982265 -0.013248323
0.0082168141 0.0011477541 -0.012190712
0.0087827723 0.00011763295 -0.013753693
0.0090815602 0.00011545456 -0.013755839
0.0015325138 0.0001731818 -0.0037497461
0.0012487151 0.00017318178 -0.0042614201
0.0015325138 0.0001731818 -0.004261421
0.0012487147 0.0011545456 -0.0022147209
0.0017595532 0.0011545456 -0.0022147205
0.0022703907 0.0011545456 -0.0022147209
0.0087977638 -0.00017318183 -0.0032380715
0.0087977648 -0.00017318185 -0.0037497457
0.0090248054 -0.00017318182 -0.003238071
0.0090815611 0.00011545455 -0.0032380705
0.010100773 -0.00028110677 -0.0021529244
0.010067121 -0.00067173556 -0.0021475311
0.0097626848 -0.00075045443 -0.0021578674
0.0040299441 -0.00017318182 -0.003238071
0.0052218945 0.00023090906 -0.00221472
0.0012487146 -0.00023090911 -0.0047162445
0.0015325138 -0.00017318182 -0.004261421
0.0015325138 -0.00017318182 -0.0037497461
0.0037516372 0.00016759531 -0.0032344027
-0.0090702102 -0.0002078182 0.0017649741
-0.0087410063 -0.0011545456 -0.00028172601
-0.0087977648 -0.00019242431 0.0022197966
-0.006568654 -0.00015743801 0.0026384401
-0.0065576457 0.0001000606 0.00074541476
-0.0062590535 -0.00022041323 0.00074162427
-0.006572783 -0.00020781819 0.0012532999
-0.0040299441 -0.00023090908 0.001764975
-0.009081562 -0.00017318182 -0.0087527931
-0.0097383559 -0.0010885716 -0.010287817
-0.0090752561 -0.00019242422 -0.0092771016
-0.0062561864 -0.00021808079 -0.0037476416
-0.0062566716 0.00014209791 -0.0032380696
-0.0062590535 -0.00022041323 -0.0032380712
0.0017595537 -0.0011545456 -0.00073654857
0.001248715 -0.0011545457 -0.00073654857
0.0017595538 -0.0011545457 -0.00028172601
0.0012487147 -0.0011545456 -0.00028172601
0.0015325138 0.00015743801 0.0026074299
0.0012345251 0.00010102273 0.0031010159
0.0015325138 0.00017318183 0.0022197966
-0.002270391 -0.0011545456 -0.00028172601
-0.002270391 -0.0011545456 -0.00073654857
-0.01004648 -0.0010390909 -0.011254315
-0.010095132 -0.00072571426 -0.011254315
-0.0062566707 0.00014209792 -0.0062512662
-0.0065273745 5.7727277e-05 -0.006251269
-0.0062566716 0.00014209791 -0.0067629442
-0.010099618 0.00021617021 -0.0012506428
-0.010101785 0.00022498834 -0.0017613559
-0.010103241 -0.00028863637 -0.0017598979
-0.010062697 0.00065149355 -0.0012644669
-0.010103241 0.00022266233 -0.0021497458
-0.010103241 -0.00028863637 -0.0021578684
-0.010101139 0.00021808081 -0.012151325
-0.0097626848 0.00020901251 -0.012163956
-0.0090752561 -0.00019242424 -0.014722336
-0.009074158 -0.00019577073 -0.015229067
-0.010103241 -0.00028863637 -0.00073654857
-0.010095133 -0.00072571432 -0.0012482232
-0.0082301702 0.0011545456 -0.010742637
-0.0097017167 0.001081852 -0.0012524347
-0.0097157927 0.0010792492 -0.0017623701
-0.0092398915 0.001148469 -0.0017589014
-0.0097248415 0.0010775758 -0.0003385786
-0.0097626848 0.00075045467 -0.0003385786
-0.0087410053 0.0011545453 -0.0012482228
-0.0087410053 0.0011545456 -0.0017598984
-0.0082301702 0.0011545456 -0.0017598984
-0.0077151749 0.0011658095 -0.00031084567
-0.0067502079 -0.0011438554 -0.0021957699
-0.0065717949 -0.00020079051 -0.0037398585
0.010103241 0.00023090906 -0.0007365481
0.01010324 0.00023090909 -0.0012482232
0.0097571891 0.0010949562 -0.0017617322
0.0092356224 0.0011462988 -0.0017598988
0.0065273745 -0.00017318182 -0.0057395939
0.0062776292 -0.00021936363 -0.0057395953
0.008775061 0.0001039091 -0.0052279173
0.008775061 0.0001039091 -0.0057395948
0.008775061 0.0001039091 -0.0042614201
0.008775061 0.0001039091 -0.008241117
0.008775061 0.0001039091 -0.0087527912
0.0087320432 0.0011211246 -0.010299788
0.0087410053 0.0011545456 -0.010742639
0.0082301674 0.0011256819 -0.01025939
0.0082301693 0.0011545455 -0.010742639
0.008775061 0.0001039091 -0.0062512686
0.0087977648 -0.00017318183 -0.0057395943
0.01004648 0.0010390909 -0.0022147209
0.01004648 0.0010390909 -0.012163959
0.010095133 0.00072571437 -0.010742639
0.01004648 0.0010390909 -0.011254315
0.0087410063 0.0011545456 -0.00028172601
0.0082301702 0.0011545458 -0.00028172601
0.01004648 0.0010390909 -0.0012482232
-0.0040299441 0.00016406698 -0.00625127
-0.0040299441 0.00014844156 -0.0057395934
-0.0034623463 -0.00011545455 -0.0071988157
-0.0037461452 -0.00023090905 -0.0047162445
0.0037616254 -0.0002204132 -0.0087527912
-0.00096491619 3.2987009e-05 -0.008736548
-0.0034623463 -0.00011545455 -0.0087527921
-0.0034623463 -0.00011545455 -0.0093213208
-0.0034623463 -1.8189894e-12 -0.0092644673
-0.0040299441 -0.00023090911 -0.0087527921
-0.0040299441 0.00014844156 -0.0092482241
-0.0012600665 0.00016163637 -0.0072177644
-0.0015325138 0.00011545455 -0.0077294423
-0.00073787716 0.0011545456 -0.011765989
-0.00022703905 0.00075045455 -0.012220816
-0.00073787727 0.00075045478 -0.012220813
-0.0012487149 0.0011545457 -0.011765988
-0.00022703904 0.0011545456 -0.010742638
0.0012487147 -0.0011545456 -0.0022147209
0.00073787704 -0.0011545456 -0.0022147205
0.00073787704 -0.0011545456 -0.0017598988
0.0012487149 -0.0011545456 -0.0017598984
-0.00096491619 3.2987013e-05 -0.0063
-0.00096491614 5.4569682e-12 -0.0057395939
-0.0034623463 -0.00011545455 -0.0062512695
-0.0052218963 0.00020525254 -0.00029435987
0.0062549249 0.00016163636 0.0022197966
0.0063854745 0.00066386361 -0.012505077
0.0067523858 0.0011462987 -0.012208628
0.006527374 0.00057727273 -0.012505077
0.0040299441 -0.00017318182 -0.014722334
0.0040299441 -0.00017318182 -0.014267514
0.0062776296 -0.00021936363 -0.014722335
0.0062465607 0.00015191389 -0.014719343
0.0040299441 -0.00017318182 -0.013755838
0.0037616256 -0.00022041322 -0.013755838
0.0040488639 0.00013469698 -0.014261197
0.0037461442 0.00017318179 -0.014267517
0.0037461438 0.0001731818 -0.013755837
0.0040461612 0.00013194807 -0.013750426
0.0067544123 0.0011545452 -0.011765988
0.0072688763 0.0011520891 -0.012217181
0.0082301684 0.0011545453 -0.011765989
0.0077193263 0.0011545456 -0.011765989
-0.0015325139 -0.00017318182 -0.018133502
-0.001229795 -0.00016356062 -0.018588325
-0.0012487146 -0.00023090909 -0.018247211
0.0037461449 0.00017318182 -0.017223859
-0.0012487151 -0.00023090905 -0.017735541
0.0092266127 -0.0010904043 -0.0012482232
0.0097513283 -0.0010390908 -0.0017561084
0.0097781606 -0.0010390908 -0.012153623
0.0092266165 -0.0010904042 -0.010742638
0.0062624929 0.00014488414 -0.018223803
0.0062925043 -0.00019109721 -0.018213881
0.0052117119 -0.0011486248 -0.01218145
0.0065589068 0.00013469698 -0.014703383
0.0082301693 -0.0011401137 -0.012149746
0.0077193282 -0.0011545456 -0.012163958
0.0077193254 -0.00075045455 -0.012163956
0.0082279425 -0.0007742247 -0.012146123
0.0065500783 -0.00017318182 -0.018190358
0.0087874448 0.00012595044 -0.017735537
0.00974085 0.0010923778 -0.012185826
0.00975719 0.0010949562 -0.011771492
0.0097548952 0.00075611408 -0.012177334
0.0097583169 0.0010953383 -0.011254315
0.0092356224 0.0011462987 -0.011254315
-0.0090702102 9.236364e-05 -0.015745685
-0.009070212 -0.0002078182 -0.015745685
-0.0087802997 0.00010657345 -0.014723795
-0.0087904409 -0.00018994138 -0.01472417
-0.0087835751 -0.00018761372 -0.015234012
-0.0057327403 0.0011545453 -0.011254313
-0.0052218968 0.0011545456 -0.011254315
-0.0037605767 0.00016046224 -0.0092673553
-0.0032353078 0.00075045478 -0.010287816
-0.0052218949 -0.00074741652 -0.010242934
0.00096491631 0.0001731818 -0.016769035
0.004042557 0.00011545456 -0.016263679
0.0040380531 0.00012370131 -0.01674467
0.0040299441 -0.00020204547 -0.016266836
0.0037461438 0.00017318179 -0.016257362
0.0012487152 0.00017318182 -0.016769039
0.001248715 0.00017318182 -0.017223863
0.0012487152 0.00017318179 -0.01625737
0.0012487147 -0.00023090909 -0.017223861
0.0015325138 0.00016163637 -0.017220069
0.0037461433 0.00017318179 -0.017735528
-0.0012600669 0.00016163633 -0.017735533
0.00096491619 0.0001731818 -0.016257361
0.0012487145 -0.00023090905 -0.015745686
-0.0034623463 -0.00011545453 -0.018190356
-0.0037553851 -0.00022016912 -0.018230023
-0.0037802011 -0.00011545455 -0.018576955
-0.0062386375 -0.0011294468 -0.010270516
-0.006243573 -0.00020781817 -0.0087527921
-0.0065623033 -0.00016874129 -0.0092775878
-0.0062590535 -0.00022041323 -0.013244163
-0.0057205758 -0.0011524839 -0.012208628
-0.0052218996 -0.0011545456 -0.01222081
-0.0062590535 -0.00022041319 -0.013755834
-0.0062566712 0.00014209791 -0.013755834
-0.0062435735 -0.0011440498 -0.012205306
-0.0012487151 -0.00023090909 -0.015745683
-0.00096491619 -0.00017318182 -0.016257361
-0.0012487152 -0.00023090903 -0.016257366
-0.0012487149 -0.00023090908 -0.016769037
-0.0015325138 -0.00017318182 -0.016769035
-0.0040380531 -0.00020616884 -0.017759899
0.0015325138 -0.00017318182 -0.014722335
0.0015325138 0.00017318183 -0.014722335
0.0015325138 0.00017318179 -0.01523401
0.0015325138 -0.00017318182 -0.01523401
-0.0082301665 -0.00075045472 -0.012220813
-0.0077193258 -0.00075045472 -0.012220813
-0.0047678207 -0.0011545456 -0.00028172601
-0.0042569819 -0.0011545455 -0.00028172601
-0.0047678216 -0.00078893942 -0.00031962758
-0.0047678212 -0.0011545456 -0.0007365481
-0.0065652132 -0.0001539394 -0.0072177667
-0.0065652137 -0.0001539394 -0.0067629442
-0.006243574 -0.00020781823 -0.0072177658
-0.0065652137 -0.0001539394 -0.0087527921
-0.006243574 -0.0002078182 -0.008241117
-0.0065652137 -0.0001539394 -0.008241117
-0.008775061 0.0001039091 -0.0082411189
-0.0090531828 8.659091e-05 -0.0087527931
-0.0090531837 8.659091e-05 -0.008241117
-0.0090572368 8.7965367e-05 -0.0077240276
-0.0090702102 -0.00020781819 -0.01773553
-0.0090702102 9.236364e-05 -0.016257361
-0.0087351343 0.0011386208 -0.012136515
-0.0087835761 0.00010823866 -0.013753466
-0.0090702102 9.236364e-05 -0.017735532
-0.006758261 -0.0011525885 -0.012217922
-0.0062590535 -0.00022041317 -0.016769033
-0.006259053 -0.0002204132 -0.016257364
-0.0065727821 -0.00020781819 -0.016769035
-0.0065727835 -0.00020781823 -0.017735532
-0.0065727825 -0.00020781819 -0.013755839
-0.0065273745 5.7727269e-05 -0.014267513
-0.0065273745 5.7727277e-05 -0.013755838
-0.0087977648 -0.00019242428 -0.015745686
0.0087977648 -0.00017318189 -0.0062512695
0.0090248054 -0.00015875 -0.0062654824
0.0077193282 -0.0011545456 -0.0021578679
0.0082301674 -0.0011401138 -0.0021436545
0.0072652535 -0.0011545456 -0.0017598984
0.0077193268 -0.0011545456 -0.0017598984
0.0087220855 -0.0011160609 -0.0007365481
0.0087220855 -0.0011160608 -0.0012482232
0.010103241 -0.00028863634 -0.011765989
0.010071707 -0.00067989901 -0.012126058
0.010103241 -0.00026554547 -0.012141219
0.0087977648 -0.00017318182 -0.014267512
0.0090248054 -0.00017318182 -0.013755838
0.0090248054 -0.00017318182 -0.014267513
0.0062465607 0.00015191386 0.00073863193
0.0065557542 -0.00017318182 0.0025751269
0.0062748487 -0.00021677178 -0.0037520675
0.0062435744 -0.0011401138 -0.0021436545
0.005724817 -0.0011330658 -0.0021605124
0.0065273745 -0.00016676768 -0.00376238
-0.0092398897 0.001148469 -0.00073555112
-0.0092356224 -0.0011462988 -0.0021578674
-0.009755278 -0.0010892886 -0.0021628118
-0.0097437641 -0.0010904042 -0.0012513818
-0.0097383568 -0.0010885716 -0.011254316
-0.0092356252 -0.0011462983 -0.011254312
-0.009081562 -0.00017318182 -0.0077294409
-0.0087835751 -0.00018761368 -0.0072177663
-0.0087835751 -0.00018761365 -0.0077294423
-0.009081563 -0.00017318182 -0.008241117
-0.01004648 -0.0010390909 -0.0021010153
0.0027244696 -0.0011545453 -0.0012482232
-0.0022703914 0.0011545453 -0.011254315
-0.0017595536 0.0011545455 -0.011254314
0.00096491631 0.00017318185 -0.017223857
0.00096491619 0.0001731818 -0.017735532
-0.00096491614 3.6379788e-12 -0.018190356
-0.00096491619 5.1313134e-05 -0.017735533
-0.0027244699 0.0011545456 -0.01176599
-0.0037461456 -0.00023090905 -0.015745686
-0.0034623463 -0.00011545453 -0.015262436
-0.0037461454 -0.00023090908 -0.015234016
-0.0062561873 9.3005045e-05 -0.018212469
-0.006243574 0.0011545456 -0.012163956
-0.004763219 0.0011514253 -0.012170104
-0.0047678207 0.0011545456 -0.011765988
-0.0042491527 0.0011525549 -0.012214927
-0.0052218991 0.0011545456 -0.012163958
-0.0052219001 0.00075045467 -0.012163959
-0.0047585336 0.00074100832 -0.012192902
-0.0065674395 8.8288769e-05 -0.016779069
-0.008775061 0.00010390909 -0.016257361
-0.008775061 0.0001039091 -0.016769039
-0.0042569819 0.0011545457 -0.01176599
-0.0042569842 0.0011545455 -0.011254314
-0.0047678207 0.0011545457 -0.011254313
-0.0037461449 0.0011545458 -0.011254313
-0.0090531837 8.659091e-05 -0.014267515
-0.0087803006 0.00010657344 -0.014266055
-0.0090531828 8.6590924e-05 -0.013755837
-0.0052164942 -0.0011380522 -0.010306771
-0.0052218968 -0.0011545458 -0.011254311
-0.0057327412 -0.0011545451 -0.011254313
-0.0057327384 -0.0011545455 -0.010742637
-0.006243573 -0.0011545456 -0.010742638
-0.0057327393 -0.0011545456 -0.011765988
-0.0042569814 -0.0011545456 -0.0017598984
-0.0042569814 -0.0011545456 -0.0022147209
-0.0047678207 -0.0011545456 -0.0017598984
-0.0082301684 -0.0011545453 -0.011254316
-0.0072652535 -0.0011545456 -0.011765987
-0.0047678212 -0.0011545457 -0.0012482228
-0.0052219001 -0.0011545456 -0.0017598984
-0.0052218968 -0.0011545455 -0.0012482232
-0.006243573 -0.0011545456 -0.0017598984
-0.0072652539 -0.0011545456 -0.011254312
-0.0057327407 -0.0011545451 -0.0012482232
-0.0067544146 -0.0011545455 -0.0017598984
-0.0082301693 -0.0011545456 -0.0017598984
-0.0077193272 -0.0011545456 -0.0017598984
-0.0052218996 -0.0011545456 -0.00073654857
-0.0072652539 -0.0011545455 -0.0012482232
-0.0067544142 -0.001154545 -0.0012482228
-0.0087410053 -0.0011545457 -0.0012482228
-0.0082301674 -0.001154545 -0.0012482228
-0.0087410063 -0.0011545456 -0.0007365481
-0.0087410053 -0.0011545457 -0.0021578679
-0.0067544142 -0.0011545455 -0.00073654857
-0.0082301693 -0.0011545452 -0.00073654857
-0.0015325138 -0.00020204544 -0.0052373945
-0.0012487147 -0.00023090908 -0.0047162427
-0.0012487147 -0.00023090908 -0.0057395943
-0.00073787692 -0.0011545456 -0.0007365481
0.00022703911 0.0011545456 -0.012220808
0.00022703897 0.00075045472 -0.012220812
0.00096491631 0.00017318185 -0.013244164
0.0034623463 5.7727277e-05 -0.013755838
0.0034623463 3.8484846e-05 -0.014267514
0.0037551073 0.0001539394 -0.018232251
0.0012487151 0.0011545457 -0.011254312
0.0090248054 -0.00017318182 -0.0092644673
0.0087977648 -0.00017318183 -0.0042614201
0.009762683 0.00075045472 -0.0022147205
0.0077193263 -0.0011545456 -0.0007365481
0.0077153668 -0.0007840168 -0.00034386711
0.0082365945 -0.00076897105 -0.00035359617
0.0065557538 0.00011545455 -0.0047162436
0.0072652535 0.00075045467 -0.0022147205
0.0072652535 0.0011545456 -0.0022147205
0.0065614297 0.00015009091 -0.0032380705
0.0065557538 0.00011545455 -0.0037497461
0.0067544137 0.0011545453 -0.0022147205
0.0062435735 0.0011545456 -0.0022147209
0.0062465598 0.00015191388 -0.0032370733
0.0062435735 0.00014844154 -0.0037497466
0.0065273745 -0.00017318182 -0.0072177667
0.0062719523 -0.00021407194 -0.0087504247
0.0052289944 -0.0011401137 -0.010334011
0.0040299441 -0.00017318182 -0.0092644673
0.0040299441 -0.00017318182 -0.0067629446
0.0065273745 -0.00017318182 -0.01523401
0.0052218949 0.00023090906 -0.012220813
0.0062522311 0.00015850537 -0.013243198
0.0059597762 5.7727284e-05 -0.012505077
0.0057327389 0.0011545456 -0.010742637
0.0067544119 0.0011545462 -0.011254313
0.0072652535 0.0011545457 -0.011765989
0.0072652535 0.0011545453 -0.011254312
0.0052218996 0.0011545456 -0.011765989
0.0047678202 0.0011545456 -0.012220812
0.0047678207 0.0011545456 -0.011765989
0.0052181142 0.0011468487 -0.012209443
0.0047678212 0.0011545455 -0.011254313
-0.002270391 0.0011545456 -0.010742639
-0.0032353071 0.0011545453 -0.01074264
-0.00376376 0.00015924766 -0.0067629456
-0.0037599504 0.00016070022 -0.0062512681
-0.0027166789 0.0011522818 -0.010271098
-0.0022703907 0.0011462988 -0.010247209
-0.0015325138 -0.00019242424 -0.0092707835
-0.0022667293 -0.00073369511 -0.010289649
-0.0012453758 -0.0011703923 -0.010262178
-0.0042569833 0.0011545455 -0.010742639
-0.0047678207 0.0011545456 -0.010742638
-0.0047451174 0.0011314547 -0.010344672
-0.0062435735 0.0011545456 -0.0021578679
-0.005727801 0.0011570555 -0.0021628113
-0.005728317 0.00074370735 -0.002208075
-0.0034623463 -0.00011545455 -0.003238071
-0.0034623463 -0.00011545455 -0.0042803725
-0.0047678202 0.00023090912 -0.010230964
-0.005221894 0.00022108316 -0.010245477
-0.0047620623 0.00075296452 -0.010267216
-0.0040299441 0.00016163637 -0.0082373265
-0.0040299441 -0.00023090909 -0.0077294419
-0.0040299441 -0.00023090908 -0.0082411161
-0.0037605758 0.00016046225 -0.008238228
-0.0047678202 -0.00028863637 -0.010230964
0.0092266183 -0.0010904042 -0.0003385786
0.0087977648 -0.00017318183 0.00074162427
0.0077193258 -0.00026389607 -0.00029796967
0.0065273745 -0.00017318182 0.0012532999
0.0062776292 -0.0002193636 0.001764975
0.0065273745 -0.00017318182 0.001764975
0.0062776287 -0.00021936359 0.0012532999
0.0062527768 0.00015914002 0.0012548366
0.0067544137 -0.0011430002 -0.00031583756
0.010069185 -0.00066963641 -0.0017561079
0.010065402 -0.00067348487 -0.0012419061
0.0065557538 0.00011545455 -0.0082411161
0.003746144 0.00017318179 -0.0062512667
0.0040353499 0.00016493506 -0.0062566837
0.0062435726 0.00014844157 -0.0067629442
0.0012487152 0.0001731818 -0.008241117
0.0034623463 -0.00011545455 -0.0077862944
0.0037659451 -0.00022016909 -0.0067642671
0.0015325138 -0.00017318182 -0.008241117
0.0037461454 0.0011545456 -0.010287819
0.0032353073 0.0011545456 -0.010742638
0.0032353075 0.0011545453 -0.010287816
0.0034623463 5.1313134e-05 -0.0062639024
0.00096491631 0.00017318182 -0.0057395934
0.0022703905 0.0011545456 -0.010287819
0.0027244699 0.0011545456 -0.010742638
0.0015325138 0.0001731818 -0.0092644673
0.0027244699 0.00075045449 -0.012220811
0.001248715 0.00017318179 -0.0087527921
0.00022703908 0.00023090912 -0.010230961
0.0022703905 -0.00075045461 -0.010287816
0.0022703903 -0.00028863634 -0.010230964
0.0027244692 -0.00028863637 -0.010230962
0.0017595534 0.0011545457 -0.0017598984
-0.00022703914 0.0011545456 -0.0017598988
-0.00022703905 0.0011545456 -0.0022147209
0.000227039 0.0011545457 -0.0022147209
0.00022703903 0.0011545456 -0.0017598988
0.00073787716 0.0011545456 -0.0022147205
0.00022703903 0.0011545455 -0.0012482228
0.001248715 0.0011545456 -0.0017598984
0.0037461452 0.0011545456 -0.0017598988
0.00073787704 -0.0011545456 -0.00073654857
-0.0027244696 -0.0011545456 -0.00073654857
0.002270391 -0.00028863631 -0.00221472
0.0037616258 -0.00022041322 0.00074162427
0.0037616247 -0.0002204132 0.0012532999
0.0077193268 0.00023090909 -0.00221472
0.0092356242 0.0011462988 -0.0012482232
-0.0090702102 -0.00020781819 0.0022197966
-0.0065598078 0.00013194805 0.0022116746
-0.0062624929 0.00014966329 0.001764975
-0.0065273745 9.2363654e-05 0.001764975
-0.0065540839 0.00010866311 0.0026378329
-0.0065727807 -0.00020781816 0.0017649741
-0.0087835751 -0.00018761367 -0.0082411179
0.002270391 -0.0011545456 -0.00073654857
0.0017595538 -0.0011545456 -0.0017598988
0.0012487151 -0.0011545458 -0.0012482232
0.001248715 -0.00023090906 0.0012532989
-0.00073787669 -0.0011545455 -0.00028172601
-0.00022703905 -0.0011545456 -0.00028172601
-0.0072652525 -0.0011545456 -0.00028172554
-0.0077193263 -0.00078893948 -0.00031962758
-0.0072652535 -0.00078893942 -0.00031962758
-0.0012487149 -0.0011545457 -0.0012482232
-0.00073787716 -0.0011545451 -0.0012482228
-0.0017595538 -0.0011545453 -0.0012482232
-0.0022703905 -0.0011545456 -0.0012482232
-0.010101283 0.00022294672 -0.010344671
-0.0090581924 8.8288783e-05 -0.0072211106
-0.010095133 -0.00072571432 -0.010742636
-0.0037637607 0.00015924765 -0.0047162427
-0.0037637604 0.00015924765 -0.0057395948
-0.010070807 0.00065974024 -0.00176802
-0.0097383549 -0.0010885715 -0.0007365481
-0.010103241 -0.00028863637 -0.0012482232
-0.01004648 -0.0010390909 -0.0012482232
-0.007265253 0.00073713291 -0.0021753605
-0.0065273745 5.7727277e-05 -0.003238071
-0.0077193282 0.00023090909 -0.0022147205
-0.0072652521 0.00023090915 -0.0022147209
-0.0092279408 0.0011180864 -0.010326718
-0.0087410053 0.0011314547 -0.010310559
-0.007265253 0.0011545457 -0.0021578679
-0.0072694067 0.0011658095 -0.00031084567
-0.010090902 -0.00072786561 -0.0021776436
-0.0090721026 -0.00020204547 -0.003745009
-0.0090531828 8.659091e-05 -0.0037497461
-0.0090725999 -0.00020052632 -0.0042584278
-0.0090531837 8.6590924e-05 -0.004261421
-0.0090782242 -0.000183369 -0.0047195889
-0.0077193272 0.0011545456 -0.0021578679
-0.0082301693 0.0011545456 -0.0021578679
-0.0077151745 0.0007743903 -0.00035521854
-0.0077193282 0.00020525252 -0.00029435987
-0.0072639924 0.00078252523 -0.00033352524
-0.00924238 0.0011497347 -0.0012466437
-0.0057327407 -0.00075045472 -0.00221472
-0.0065727821 -0.00020781816 -0.003238071
-0.0077193258 -0.00028863637 -0.0022147205
-0.009762682 -0.00075045455 -0.010287816
-0.0067544128 0.0011545451 -0.011254313
0.0077193263 0.00020525251 -0.00029435987
0.0065589068 0.00013469699 0.00072267372
0.0087977648 -0.00017318186 -0.008241117
0.0090815611 0.00011545456 -0.0062512695
0.0077285683 0.0011276957 -0.010289143
0.0077285324 0.00074577419 -0.010249401
0.0082313754 0.00075291097 -0.010245478
0.0077193272 0.0011545456 -0.010742641
0.0087410063 0.0011545456 -0.011254313
0.0077193258 0.0011545456 -0.011254315
0.0082301684 0.00075045484 -0.0022147195
0.01004648 0.0010390909 -0.010742639
0.01009273 0.00073121215 -0.0022084042
0.008775061 0.00010390911 0.0012532999
0.009081562 0.00011545456 0.0017649741
0.0012487149 0.00017318179 -0.0037497454
0.00096491631 0.00017318182 -0.003238071
-0.0034623463 5.4569682e-12 -0.0067629442
0.0037461438 0.00017318179 -0.0087527921
0.0040299441 0.00017318183 -0.0087527921
-0.0012487149 -0.00023090906 -0.0087527931
-0.00073787686 0.0011545455 -0.0022147209
