# .PCD v0.7 - Point Cloud Data file format
VERSION 0.7
FIELDS x y z
SIZE 4 4 4
TYPE F F F
COUNT 1 1 1
WIDTH 1179
HEIGHT 1
VIEWPOINT 0 0 0 1 0 0 0
POINTS 1179
DATA ascii
-0.011394657 9.0714828e-05 -0.04169767
-0.01147948 3.1286618e-10 -0.042008583
-0.011677403 0.0001058337 -0.041612875
-0.013854544 0.00010583328 -0.041711804
-0.013854546 2.1827873e-11 -0.042008583
0.0027709089 0.0011641666 -0.00026137382
0.0022761037 0.0011641663 -0.00026137382
0.0027861344 0.0011723081 -0.0021638162
0.0012864934 0.0011641661 -0.00026137382
0.0017812989 0.0011641661 -0.00026137382
0.0017812989 0.0011641667 -0.00075600855
0.00019792165 -0.0011641665 -0.00075600855
-0.00098960986 -0.00021166654 0.0026075114
-0.0012864937 4.0745363e-10 0.0031021461
-0.0012864935 -0.00021166648 0.0031021461
0.0062543373 0.0001058328 0.0026668664
0.006531429 -0.0002116666 0.0026075114
0.0062543377 -0.00021166721 0.0026668664
0.0088075316 -0.00021166657 0.0022118017
0.0088273231 0.00010583319 0.0026668664
0.008827324 -0.00021166686 0.0026668664
0.0088075316 0.00010583275 0.0022118017
0.0091044148 -0.00021166707 0.0026075114
-0.01504208 -0.00074083341 -0.035281543
-0.014725402 -0.001100666 -0.034767125
-0.014712207 0.0011288885 -0.00075600855
-0.014250388 0.0011641667 -0.00075600855
-0.01425039 0.0011641663 -0.00036030076
-0.014745194 0.0010583337 -0.00036030076
-0.015042078 0.00074083329 -0.0021409877
-0.014745194 0.000740833 -0.0021409877
-0.014725402 0.0011006673 -0.0021212026
-0.015042078 -0.00074083346 -0.00036030076
-0.015042079 -0.0010583333 -0.00075600855
-0.015042078 -0.0010583327 -0.00036030076
-0.015042078 0.00074083288 -0.03478691
-0.014151427 -0.00021166718 -0.039238624
-0.013854545 -0.0002116664 -0.039238628
0.0057397396 -0.0011641673 -0.00026137382
0.0057397406 -0.0011641672 -0.00075600855
0.0052449354 -0.0011641671 -0.00026137382
-0.0012864936 -0.00021166692 -0.011242275
-0.001286494 -0.00021166712 -0.010747639
-0.00098960975 -0.00021166631 -0.011242274
-0.0015833768 -0.00021166675 -0.010747639
0.011380519 0.00010583335 -0.0062959222
0.0062345457 0.00010583299 0.001717167
0.0062345448 -0.00021166686 0.0012225322
0.0062345462 0.00010583334 0.0012225322
0.0065314281 0.00010583354 0.0012225322
0.01138052 -0.00021166727 -0.0067905569
0.011677402 0.00010583376 -0.0067905588
0.011380521 -0.00021166718 -0.0072851935
0.013260779 0.0011641665 -0.001745278
0.014745194 0.0010583329 -0.034292273
0.014250389 0.0010583338 -0.03478691
0.0091044148 0.0001058331 -0.0062959231
0.0088075325 -0.00021166733 -0.0062959231
0.0091044148 0.00010583291 -0.0067905579
0.0062345457 -0.00021166715 0.00072789751
0.0052449354 -0.00076199946 -0.00030094385
0.01227117 0.0010583338 -0.033698708
0.011776363 0.0010583329 -0.033698712
0.01326078 0.001164167 -0.035677254
0.013260782 0.0011430004 -0.035321113
0.013854546 0.00010583305 0.00072789751
0.0012864936 -0.0011641663 -0.00026137382
0.0017812984 -0.0011641671 -0.00075600855
0.0017812991 -0.001164167 -0.00026137382
-0.014092052 8.4666426e-05 0.0021920167
-0.006531429 -0.00021166695 0.0012225322
-0.006531429 0.00010583393 0.0012225322
-0.0065314285 0.0001058327 0.001717167
-0.0091044148 8.4666281e-05 0.0026668664
-0.008827324 -0.00021166645 0.0026668664
-0.008827325 0.00010583271 0.0026668664
-0.011400312 -0.00021166675 0.0026668664
-0.01147948 5.4569682e-10 0.0031021461
-0.011389517 9.6212148e-05 0.0026884507
-0.0062345448 -0.00021166704 0.0012225322
-0.0062345448 -0.00021166707 0.00072789751
-0.0062345457 -0.0011641664 -0.00026137382
-0.0062345448 -0.00021166707 0.001717167
0.011677403 -0.00021166619 0.0025085825
0.012765974 -0.00029633293 -0.00030094385
0.01326078 -0.00029633346 -0.00030094385
0.012765975 0.00018520796 -0.00028610602
0.014052467 -0.00021166718 0.0022118017
0.014052468 -0.00021166689 0.00072789751
0.012765973 -0.00074083387 -0.00036030076
-0.013854546 -0.00021166622 -0.0417118
-0.011380518 -0.00021166704 -0.041711804
0.01509156 0.0002645833 -0.03478691
0.014745194 -0.001058333 -0.033797637
0.013755585 -0.001128889 -0.033764664
0.013755583 -0.0011641671 -0.035281543
0.013741447 -0.0011490474 -0.034801044
-0.0087333107 -0.001058333 -0.033723444
-0.008708572 -0.0011429997 -0.034292277
-0.0092033762 -0.0011430002 -0.034292277
-0.0072241551 -0.0011112494 -0.033748172
-0.00079168868 -0.0011641667 -0.033698712
-0.00079168833 -0.001164167 -0.034292273
-0.0012864928 -0.0011641671 -0.033698708
0.011776363 -0.0011641673 -0.035281543
0.011776363 -0.0011641667 -0.03478691
0.011331039 -0.0011112494 -0.035677254
0.013260778 -0.0011641672 -0.03478691
0.014052466 0.00010583354 -0.012231546
0.014052467 -0.00021166602 -0.012231545
0.014052468 -0.00021166686 -0.012726181
0.0037852603 0.0001852086 -0.032214805
0.0037852593 0.00018520822 -0.032709446
0.0032855065 0.00025400019 -0.033303004
0.015042079 -0.00074083352 -0.0012506433
0.014052468 -0.00021166645 -0.0059002144
0.011677401 0.00010583389 -0.0072851935
0.013854544 0.00010583326 -0.0072851935
0.014052467 0.00010583287 -0.0072851935
0.013854546 0.00010583306 -0.0067905579
0.014052466 0.00010583357 -0.0077798283
0.013854546 0.00010583309 -0.0077798283
0.015108051 0.00070555561 -0.00075600855
0.015042078 0.0010583337 -0.00075600855
-0.015042079 0.0002116666 -0.034292273
-0.013854546 -0.0002116673 -0.028752364
-0.014151428 -0.00021166613 -0.028752362
-0.014151428 -0.00021166721 -0.028257726
-0.015042078 -0.00074083376 -0.00075600855
-0.014712206 -0.0011288888 -0.00026137382
-0.014151429 -0.00021166631 0.00072789751
-0.0052449349 -0.001164167 -0.034292277
-0.0052449354 -0.0011641665 -0.03478691
-0.0057397401 -0.0011641663 -0.034786914
-0.0096981814 -0.0011641665 -0.03478691
-0.010291948 -0.0011641661 -0.034786906
-0.0092033762 -0.0011641671 -0.03478691
-0.014250389 -0.0011641668 -0.00026137382
-0.014712206 -0.0011288892 -0.0012506433
-0.015042078 -0.0010583334 -0.0017452799
-0.014745194 -0.00074083277 -0.0021409877
-0.010291948 -0.0011641668 -0.00075600855
-0.0096981814 -0.0011641668 -0.00075600855
-0.010291948 -0.001164167 -0.0012506433
-0.0096981814 -0.0011641661 -0.00026137382
-0.0082137659 -0.0011641661 -0.0017452799
-0.01227117 -0.0011641664 -0.00075600855
-0.012765974 -0.001164167 -0.00075600855
-0.012271171 -0.0011641667 -0.0012506433
-0.011776364 -0.0011641666 -0.00075600855
-0.012271168 -0.0011641663 -0.00026137382
-0.012271169 -0.0011641666 -0.001745278
-0.012765973 -0.0011641665 -0.0017452799
-0.01227117 -0.0011641665 -0.0021409877
-0.011776363 -0.0011641666 -0.0017452799
-0.0067293514 -0.0011641671 -0.0012506433
-0.00672935 -0.0011641665 -0.00075600855
-0.0027709093 0.0011641667 -0.0021409877
-0.0032657136 0.001164167 -0.0017452799
-0.0032657143 0.0011641663 -0.0022399146
-0.0012864937 -0.00021166686 -0.0052077258
-0.00098961068 -0.00021166672 -0.0047130911
-0.00098961021 -0.00021166631 -0.0052077258
-0.0062345453 0.00010583353 0.001717167
-0.0052449345 -0.0011641668 -0.0012506433
-0.0052449345 -0.0011641666 -0.00075600855
-0.0057397401 -0.0011641661 -0.0012506433
-0.0057397396 -0.0011641666 -0.0017452799
-0.0057397401 -0.0011641664 -0.00026137382
-0.0077189603 -0.00074083393 -0.0021409877
-0.0037605187 -0.0011641667 -0.001745278
-0.014052467 0.00010583366 -0.028257724
-0.014052466 0.00010583351 -0.028752362
0.003772889 0.0011509378 -0.03372344
0.0037605197 0.00063500018 -0.033303004
0.0042663207 0.0011759264 -0.03376466
0.0032657145 0.0011641663 -0.033698712
-0.014250389 0.0011641671 -0.035281546
-0.014745194 0.001058334 -0.034292277
-0.014225649 0.0011112506 -0.034811642
-0.014250389 0.0010583329 -0.034292277
0.0072241556 0.0011641667 -0.03478691
0.0067293504 0.0010583341 -0.033698712
0.0072241561 0.0010583327 -0.033698712
-0.0012864936 0.0011641666 -0.034292277
-0.0012864936 0.0011641665 -0.03478691
-0.010291947 0.0011641671 -0.03478691
-0.010786752 0.0011641668 -0.03478691
-0.011281559 0.0011641661 -0.034292269
-0.010279577 0.0011509375 -0.034292273
-0.0052449354 -0.0011641667 -0.035281543
-0.013755586 0.0011641668 -0.0012506433
-0.013755584 0.0011641666 -0.00075600855
-0.014250388 0.0011641667 -0.001745278
-0.013755584 0.0011641671 -0.0017452799
-0.0065314285 -0.00021166695 0.00072789751
-0.00029688282 0.0011641666 -0.033698712
-0.0015833762 -5.3478288e-10 -0.032709446
-0.0027709096 -0.00042333311 -0.033303004
-0.0015833764 -4.5110937e-10 -0.032214805
-0.0032987006 7.0556125e-05 -0.033303004
0.01138052 -0.0002116666 0.0022118017
0.011677402 -0.00021166645 0.0022118017
0.011380521 0.00010583355 0.0022118017
0.013854546 0.00010583398 0.001717167
0.011677402 0.00010583363 0.0022118017
0.011677402 -0.00021166613 0.001717167
0.011677402 0.00010583337 0.0012225322
0.011677402 -0.00021166712 0.0012225322
0.011677402 0.00010583335 0.001717167
0.0037605197 -0.00021166692 -0.012726181
0.0037605192 0.00010583348 -0.012726182
0.0037605192 -0.00021166654 -0.013220814
0.0037605201 -0.00021166715 -0.0067905579
0.0037605197 0.00010583277 -0.0062959231
0.0037605201 -0.00021166611 -0.0062959222
0.0037605192 0.00010583277 -0.0067905597
-0.014720454 0.0011112503 -0.0012753755
0.014745194 0.0010583331 -0.03478691
0.012765973 0.0011641666 -0.035677254
-0.014712208 0.0011288885 -0.035281543
-0.014745194 0.0010583336 -0.033797637
-0.013755584 0.0011641661 -0.03478691
-0.01326078 0.0011641664 -0.035281546
-0.012765974 0.0011641664 -0.035281543
-0.014712207 0.0011288893 -0.0017452799
0.013755585 0.0011641665 -0.035677254
-0.015108052 -0.00035277786 -0.00075600855
-0.01504208 0.00021166704 -0.0012506433
-0.015042079 0.00021166727 -0.00075600855
-0.015042079 0.00021166672 -0.00036030076
-0.014052468 7.0555303e-05 -0.018727755
-0.014052467 8.4667314e-05 -0.018226523
-0.014052468 8.4666266e-05 -0.019215794
0.011776363 0.001058333 -0.03478691
-0.0091044158 -0.00021166663 -0.040227894
-0.0091044148 0.00010583353 -0.040722534
-0.0091044148 0.00010583278 -0.041217163
-0.012765973 -0.0011641673 -0.035281543
-0.012765973 -0.0011112497 -0.034341734
-0.011281558 -0.001164167 -0.03478691
-0.012271169 -0.0011112499 -0.034341738
0.0012864936 0.0011641667 -0.00075600855
0.00079168822 0.0011641665 -0.00026137382
0.0012864935 0.0011641672 -0.0012506433
0.00019792246 -0.001164166 -0.00026137382
0.00079168845 -0.001164167 -0.00026137382
0.001286493 0.00010583286 0.0027064383
0.001583377 0.00010583278 0.0025085825
0.0012535063 0.00014111077 0.0031021461
0.00098960986 0.00014111138 0.0025745351
-0.0027709098 -0.00076200004 -0.00030094385
-0.0022761032 -0.00076199992 -0.00030094385
-0.0027709093 -0.001164166 -0.00026137382
-0.0022761042 -0.0011641671 -0.00026137382
-0.0012864929 -0.00021166727 0.0022118017
-0.00098961091 -0.00021166608 0.0022118017
-0.0015833768 -1.7462298e-10 0.0025085825
-0.001286493 8.4666353e-05 0.0026668664
0.0012864929 -0.00021166695 0.00072789751
0.0037605197 0.00010583371 0.00072789751
0.0032657143 0.0011641663 -0.00026137382
0.0032657143 0.00076200039 -0.00030094385
0.0037605197 0.0011641668 -0.00026137382
-0.00098961068 7.0555703e-05 0.0025745351
0.0012864941 0.00010583385 0.0022118017
0.0015833767 0.00010583345 0.00072789751
0.0022761046 0.00076200016 -0.00030094385
0.0022761044 0.00018520883 -0.00028610602
0.0022761037 -0.00076200045 -0.00030094385
0.0022761035 -0.00029633334 -0.00030094385
0.0022761039 -0.0011641668 -0.00026137382
-0.0037605192 0.0011641671 -0.00026137382
-0.0042553246 0.0011641664 -0.00026137382
-0.0037605197 0.00010583281 0.00072789751
-0.0037605199 0.00010583323 0.0012225322
0.0091044139 0.0001058327 0.0026075114
-0.015042078 -0.00074083346 -0.03478691
-0.014250389 -0.0010583339 -0.034292277
-0.014250388 -0.001058333 -0.033698712
-0.013755585 -0.0010583329 -0.033698712
-0.014745194 -0.0010583327 -0.033698712
-0.015042078 0.00074083352 -0.00036030076
-0.015042079 0.00021166724 -0.0017452799
-0.013854545 -0.00021166616 0.0026075114
-0.013854545 -0.0002116673 0.0022118017
0.0062345448 -0.0002116666 0.0022118017
0.0062345448 -0.00021166657 0.001717167
0.0062345462 0.00010583344 0.0022118017
0.0065314281 -0.0002116666 0.001717167
0.006531429 -0.0002116668 0.0012225322
0.006531429 0.00010583283 0.001717167
0.014250389 -0.0010583341 -0.00075600855
0.013755585 -0.0011641661 -0.00075600855
0.0065314281 0.00010583283 -0.0097583691
0.0062345457 0.00010583325 -0.0092637334
0.0062345448 0.00010583354 -0.0097583709
0.0062345448 -0.00021166628 -0.0072851935
0.0062345453 0.00010583313 -0.0072851935
0.0062345453 0.00010583363 -0.0067905579
0.0065314285 0.00010583351 -0.0072851926
0.0062345453 0.00010583284 -0.0077798283
0.0062345453 -0.0002116666 -0.0077798292
0.0065314285 -0.00021166637 -0.0072851935
0.0065314285 -0.00021166704 -0.008274463
0.0062345448 -0.00021166695 -0.008274463
0.00098961056 -0.00021166631 -0.0062959231
0.0012864938 -0.00021166718 -0.0067905579
0.00098961021 -0.00021166669 -0.0067905579
0.0012864937 -0.00021166634 -0.0062959231
-0.00098961079 -0.00021166605 -0.0037238197
-0.00029688291 -0.0011641673 -0.0021409877
-0.00098961045 -0.00021166677 -0.0032291841
-0.0012864933 -0.0011641673 -0.0021409877
-0.0012864933 -0.00021166651 -0.0037238197
-0.00098961079 -0.00021166669 -0.0042184554
-0.0072351508 -0.0011524073 -0.0021739639
0.0062345453 -0.00021166709 -0.0067905569
0.0062345448 -0.00021166625 -0.0062959231
0.0062345457 0.00010583277 -0.0062959213
0.006531429 0.00010583286 -0.0062959241
0.0017812982 0.0011641663 -0.0012506433
0.011281557 0.0011641672 -0.00075600855
0.010786754 0.0011641665 -0.00026137382
0.010786752 0.001164167 -0.00075600855
0.011677402 0.00010583309 -0.0052077258
0.01138052 -0.00021166643 -0.0052077239
0.013854545 -0.00021166698 -0.0054055797
0.014052468 -0.00021166669 -0.0052077249
0.013755584 0.0011641673 -0.00075600855
0.013260778 0.0011641672 -0.00026137382
0.014250387 0.0011641666 -0.00075600855
0.014250387 0.0011641663 -0.0012506433
0.0088075325 0.00010583323 -0.013715451
0.0088075316 0.00010583322 -0.013220815
0.0091044158 0.00010583307 -0.013715451
0.0091044139 0.00010583361 -0.014210086
0.0088075316 0.0001058327 -0.014210087
0.0088075325 -0.00021166628 -0.014210085
0.01128156 0.001164167 -0.00026137382
0.011776363 0.0011641666 -0.00075600855
0.011776363 0.0011641663 -0.00026137382
0.01138052 0.00010583389 0.00072789751
0.010786753 0.00076199975 -0.00030094385
0.0065314285 0.0001058338 0.00072789751
0.012765973 0.0010583329 -0.033698712
0.011281557 0.0010583339 -0.034292273
0.011776363 0.0010583336 -0.034292273
0.0096981823 0.0010583327 -0.033698712
0.010291947 0.0010583333 -0.033698708
0.0092033762 0.001164166 -0.03478691
0.014745194 -0.00074083311 -0.00036030076
0.01326078 0.00076199963 -0.00030094385
0.015042078 -0.00031749962 -0.00075600855
0.0047501298 -0.0011641666 -0.00026137382
0.0012864934 -0.0002116666 0.001717167
0.001583377 0.00010583348 0.001717167
0.0012864928 -0.00021166727 0.0022118017
0.0037935062 -0.00021166657 0.0026404858
0.0037605192 0.0001058327 0.0022118017
0.0037852603 0.00010583326 0.0026817061
0.0007916881 -0.0011641663 -0.00075600855
0.0012864936 -0.0011641661 -0.00075600855
0.0012864928 -0.001164167 -0.0012506433
-0.011677402 0.00010583361 0.0026075114
-0.014151428 -0.00021166718 0.0022118017
-0.013854545 -0.00021166686 0.001717167
-0.013854544 0.00010583383 0.0022118017
-0.014080742 9.0714566e-05 0.0017454326
-0.013854545 0.00010583396 0.001717167
-0.013854546 0.000105833 0.0012225322
-0.0091044148 -0.00021166704 0.0026075114
0.0032657136 0.0011641672 -0.00075600855
0.0022761042 0.0011641672 -0.0012506433
-0.0015833771 -5.9299055e-10 -0.0037238188
-0.0015833771 -0.00021166613 -0.0032291859
-0.0015833764 -0.00021166677 -0.0037238188
-0.0037605194 -0.00021166695 -0.0037238207
-0.0037605194 0.00010583287 -0.0032291859
-0.0037605192 0.00010583293 -0.0037238197
-0.01425039 -0.0011641667 -0.00075600855
-0.013755584 -0.0011641668 -0.00075600855
-0.014250387 -0.0011641667 -0.0012506433
-0.013260778 -0.0011641664 -0.00075600855
-0.01326078 -0.0011641665 -0.00026137382
-0.0037605197 -0.0002116668 0.0022118017
-0.0037887932 9.0713984e-05 0.0026640408
-0.00378526 -0.00021166611 0.0026817061
-0.0037605199 -0.00021166683 0.00072789751
-0.0047501288 -0.00076199969 -0.00030094385
-0.0047501293 -0.00029633375 -0.00030094385
-0.0027709093 0.00018520854 -0.00028610602
-0.0027709098 -0.00029633346 -0.00030094385
-0.00079168892 -0.0011641661 -0.0012506433
-0.00098960975 0.00010583387 -0.0037238207
0.0001979222 -0.001164167 -0.0021409877
0.0001979217 -0.00074083393 -0.0021409877
0.00098960998 -0.00021166628 -0.0032291859
0.011677402 0.00010583313 -0.010747639
0.011677401 0.00010583316 -0.011242275
0.011380521 0.0001058336 -0.010747639
0.011380519 0.00010583332 -0.011242275
0.011380521 -0.00021166643 -0.010747639
0.014052467 -0.00021166701 0.0012225322
0.013211298 -0.0011112506 -0.00036030076
0.013260779 -0.00074083271 -0.00036030076
0.0065314285 0.00010583281 -0.0417118
0.0062345448 0.0001058329 -0.0417118
0.0063335062 2.6921043e-10 -0.042008583
0.0062345443 0.00010583361 -0.041217174
0.012667011 -0.0010583333 -0.035677254
-0.0062345457 -0.00021166651 -0.041711804
-0.0063335057 2.5102054e-10 -0.042008583
-0.0065314281 -0.00021166613 -0.0417118
-0.011677401 -0.00021166727 -0.041612875
0.013854545 4.292815e-10 -0.042008583
0.014092052 8.466647e-05 -0.041692019
0.014052467 -0.0002116673 -0.0417118
0.013854545 0.00010583323 -0.041711804
-0.006531429 0.00010583299 -0.0417118
-0.0065314281 -0.00021166712 -0.041217167
0.014712206 0.0011288883 -0.035677254
0.01509156 0.00026458353 -0.034292277
0.015042078 -0.00074083399 -0.03478691
0.011677401 0.00010583386 -0.038249355
0.011677402 0.00010583366 -0.038743988
0.011400311 0.00016933377 -0.038743988
0.011776363 -0.0010583334 -0.035677254
0.014142432 9.6211523e-05 -0.041199185
0.01414243 9.6212643e-05 -0.03627082
0.014101949 -0.00021166718 -0.036221351
0.014137291 0.00012095187 -0.036751322
0.013656624 -0.0010583336 -0.035677254
0.014052467 -0.00021166616 -0.036765449
0.013458701 -0.0010583333 -0.035677254
0.014745193 -0.0010583338 -0.035281543
0.014200908 -0.0011112503 -0.035281543
0.014745194 -0.001058334 -0.03478691
-0.00029688355 -0.0011641666 -0.035281543
-0.00029688288 -0.0011641673 -0.035677254
-0.00079168857 -0.0011641672 -0.035677254
-0.0012864933 -0.0011641665 -0.034292273
-0.0012864933 -0.0011641673 -0.034786906
-0.001781299 -0.0011641666 -0.034292273
-0.00079168763 -0.0011641666 -0.03478691
-0.00029688369 -0.0011641668 -0.03478691
-0.0037605187 -0.0011641664 -0.034786906
-0.0042553241 -0.0011641668 -0.03478691
-0.0037605197 -0.0011641664 -0.034292273
-0.0037605185 -0.0011641664 -0.033698715
-0.0042553251 -0.0011641673 -0.033738282
-0.0032657145 -0.0011641672 -0.0021409877
-0.0037473235 -0.0011571116 -0.0022003446
-0.0057397406 -0.001164166 -0.035281546
-0.0057397392 -0.0011641672 -0.035677254
-0.0067141256 -0.0011560257 -0.0021638162
-0.0062255487 -0.0011545451 -0.034310263
-0.0067293509 -0.0011160607 -0.033770654
-0.0072241551 -0.0011429999 -0.034331851
-0.0067293504 -0.0011430004 -0.034331847
-0.0077189603 -0.0011429999 -0.034331851
-0.0062345448 -0.00021166707 -0.016782189
-0.0065314281 -0.00021166613 -0.016287554
-0.0065314285 -0.00021166608 -0.016782189
-0.0062345457 -0.00021166616 -0.016287554
-0.006531429 0.00010583312 -0.01876073
-0.006531429 0.00010583371 -0.019255364
-0.0065314285 -0.00021166672 -0.019255364
-0.0062345457 0.00010583306 -0.018760728
-0.0062345457 0.000105833 -0.019255364
-0.0076694796 -0.0010847914 -0.033772908
-0.006531429 -0.00021166643 -0.018266095
-0.0065314281 -0.00021166651 -0.01876073
-0.0088075325 0.00010583373 -0.017771458
-0.0088075316 -0.00021166677 -0.017276824
-0.0088075325 0.00010583325 -0.017276824
-0.0088075325 -0.00021166683 -0.01777146
0.0041563641 -0.00031750032 -0.033303004
0.0047501298 -0.00074083358 -0.033723444
0.0047501293 -0.00031749945 -0.033698708
0.0052449349 -0.00031749968 -0.033698712
0.0047171428 -0.0011288886 -0.03376466
0.0059376624 -0.00021166718 -0.033303004
0.0062675318 -0.00021166631 -0.041678827
0.00079168798 -0.0011641666 -0.033698712
0.00098961091 -0.00021166677 -0.032709446
0.001385454 -0.00063500012 -0.033303004
0.0033646752 -0.0002116666 -0.033303004
0.0022619665 0.00066523836 -0.033670448
0.0017453133 0.00019242361 -0.033267029
0.010786753 -0.0011641668 -0.035281543
0.010786753 -0.001164167 -0.03478691
0.010291948 -0.0011641661 -0.03478691
0.012765974 -0.0011288889 -0.033830613
0.012271169 -0.0010583338 -0.034292273
0.012765973 -0.0010583329 -0.034292273
0.012271169 -0.0011288886 -0.033830613
0.0091044148 0.00010583274 -0.0077798292
0.0091044148 0.00010583277 -0.0072851935
0.0088075325 0.00010583363 -0.0077798283
0.0037605192 -0.00021166628 -0.019749999
0.0037605201 0.00010583296 -0.019749999
0.0037605187 0.00010583281 -0.019255366
0.0022671069 0.0011545449 -0.033716697
0.0027709096 0.0011641663 -0.033698712
0.0033646757 0.00063499948 -0.033303004
0.014080741 0.00012095211 -0.030730901
0.014052467 -0.00021166634 -0.030236265
0.014080741 0.00012095225 -0.02974163
0.0037605197 -0.00021166613 -0.028752357
0.0037605192 -0.00021166651 -0.028257728
0.0037605187 0.00010583386 -0.028257722
0.0037605192 0.00010583387 -0.02875236
0.015042078 -0.00074083306 -0.033797637
0.014745194 -0.0010583334 -0.0012506433
0.015042079 -0.00031750029 -0.0012506433
0.013755586 0.0011641673 -0.0021409877
0.013260779 0.0011641664 -0.0021409877
0.013854546 0.00010583358 -0.015298285
0.013854546 0.00010583399 -0.01470472
0.014052466 0.0001058331 -0.015298285
0.014250389 0.0011641665 -0.001745278
0.014250389 0.0011641672 -0.0021409877
0.015042079 0.0010583327 -0.0021409877
0.015042079 0.0010583327 -0.0017452799
0.015108052 0.00070555613 -0.0021409877
0.014052466 0.0001058339 -0.0037238207
0.011380521 -0.00021166712 -0.0047130911
0.014052467 -0.00021166718 -0.0077798283
0.014052466 -0.0002116664 -0.008274463
0.014052468 0.000105833 -0.008274463
0.013854546 0.00010583371 -0.0087690977
0.014052466 0.00010583309 -0.0087690977
-0.013260779 -0.0010583333 -0.033698712
-0.014745194 -0.0010583339 -0.034292277
-0.014151428 -0.0002116668 -0.029246995
-0.015042079 -0.00071966613 -0.033738278
-0.014745194 -0.00074083282 -0.033698712
-0.013854545 -0.00021166727 -0.019255364
-0.014151428 -0.00021166683 -0.027763089
-0.013854545 -0.00021166675 -0.027763089
-0.014052466 0.00010583334 -0.027763091
-0.014052467 0.00010583358 -0.027268454
-0.014052466 0.0001058335 -0.026773818
-0.014151428 -0.00021166625 -0.02677382
-0.014052467 0.00010583361 -0.026279185
-0.014151428 -0.00021166666 -0.022717811
-0.014052467 0.00010583337 -0.022717811
-0.014151427 -0.00021166695 -0.023212446
-0.014151429 -0.00021166654 -0.019255364
-0.014151428 -0.00021166669 -0.019749999
-0.014052468 7.0555463e-05 -0.019717023
-0.014151428 -0.00021166707 -0.020244636
-0.014052466 0.0001058327 -0.02073927
-0.014151428 -0.00021166704 -0.02073927
-0.014052466 8.4667168e-05 -0.020244636
-0.014151429 -0.00021166648 0.0012225322
-0.0042553251 -0.0011641666 -0.034292277
-0.0047501302 -0.0011641672 -0.034292273
-0.0052449345 -0.0011112493 -0.033698712
-0.015042077 -0.0010583336 -0.0012506433
-0.011776362 -0.001058333 -0.033698712
-0.01227117 -0.0010583333 -0.033698712
-0.0092033762 -0.0011641671 -0.00075600855
-0.0087085711 -0.0011641663 -0.0012506433
-0.0092033772 -0.0011641664 -0.0012506433
-0.0092033772 -0.0011430006 -0.00030094385
-0.011776363 -0.0011641664 -0.00026137382
-0.011281557 -0.001164166 -0.00075600855
-0.011281561 -0.0011429996 -0.00030094385
-0.012765974 -0.0011641661 -0.00026137382
-0.0082137669 -0.0011641661 -0.0012506433
-0.0087085711 -0.0011641667 -0.001745278
-0.0087227076 -0.0011490473 -0.0021833852
-0.0092033772 -0.0011641668 -0.0021409877
-0.0091044148 -0.00021166637 -0.01876073
-0.0088075325 -0.00021166613 -0.01876073
-0.0091044148 -0.00021166698 -0.019255364
-0.012765974 -0.0011641661 -0.0021409877
-0.012765974 -0.00074083317 -0.0021409877
-0.013260779 -0.00074083393 -0.0021409877
-0.013260779 -0.0011641664 -0.0021409877
-0.012271168 -0.00074083282 -0.0021833852
-0.011776363 -0.0011641667 -0.0012506433
-0.011281558 -0.0011641661 -0.0012506433
-0.011281558 -0.0011641663 -0.0017452799
-0.0072241556 -0.0011641664 -0.0012506433
-0.0062345457 -0.0011641665 -0.0012506433
-0.0062345457 0.0011641666 -0.00026137382
-0.00672935 0.0011641661 -0.00026137382
-0.0052449354 0.0011641672 -0.0021409877
-0.0052449354 0.00074083282 -0.0021409877
-0.0057529355 0.00073377747 -0.0022003446
-0.0057397396 0.0011490481 -0.0021833852
-0.0042553246 0.0011641664 -0.0021409877
-0.0042553241 0.00074083352 -0.0021409877
-0.0037737149 0.00073377782 -0.0022003446
-0.0037605197 0.001164167 -0.0021409877
-0.0047501298 0.0011641661 -0.0021409877
-0.0052449345 0.0011641673 -0.0017452799
-0.0047501284 0.0011641661 -0.0017452799
-0.0052449349 -0.00031749986 -0.0021409877
-0.0047501302 -0.00074083323 -0.0021409877
-0.0047501293 -0.00031750041 -0.0021409877
-0.0052449354 -0.00074083311 -0.0021409877
-0.0015833771 -0.00021166698 -0.0052077249
-0.0015833771 -0.00021166698 -0.0047130901
-0.0037605187 0.00010583294 -0.0042184535
-0.003760519 -0.0002116666 -0.0042184554
-0.001286493 -0.00021166715 -0.0058012875
-0.0015833764 -0.0002116664 -0.0058012875
-0.00098961045 -0.00021166613 -0.0058012884
-0.003760519 0.0001058329 0.001717167
-0.003760519 -0.00021166712 0.001717167
-0.0052449345 -0.0011641665 -0.0017452799
-0.0047501298 -0.0011641666 -0.0012506433
-0.0072439467 -0.0007408337 -0.0022003446
-0.0091044148 -0.00021166628 -0.0032291841
-0.014052466 0.0001058336 -0.023212448
-0.0012864931 -0.0002116664 -0.017771458
-0.0012864929 -0.0002116673 -0.017276824
-0.00098960998 -0.00021166657 -0.017771458
-0.0037605192 -0.00021166637 -0.014210086
-0.0037605199 -0.00021166625 -0.014704721
-0.0037605197 0.00010583281 -0.014210088
-0.003760519 0.00010583339 -0.014704721
-0.0062345453 -0.00021166628 -0.01272618
-0.0062345448 0.00010583312 -0.013220815
-0.0062345457 -0.00021166689 -0.013220815
-0.0037605187 -0.00021166616 -0.010747639
-0.0037605192 0.00010583312 -0.010253005
-0.0037605192 -0.00021166709 -0.010253003
-0.0012864941 -0.00021166645 -0.0042184554
-0.0015833769 -0.00021166651 -0.019749999
-0.0012864928 -0.00021166672 -0.019749999
-0.001583376 -0.00021166663 -0.020244634
-0.013854546 0.00010583399 -0.028752362
-0.013854545 0.00010583353 -0.028257724
0.0082137669 -0.0011641663 -0.0021409877
0.0088075316 -0.00021166692 -0.0032291841
0.0087085711 -0.0011430003 -0.0022003446
0.0088075325 -0.0002116666 -0.013715451
0.006531429 -0.00021166698 -0.0067905579
0.0091044148 0.0001058331 -0.014704721
0.0022761035 0.0011641668 -0.034292277
0.001793669 0.001164166 -0.033723444
0.0088075316 -0.00021166634 -0.01876073
0.0088075316 0.00010583281 -0.01876073
0.0088075306 -0.00021166675 -0.019255364
0.006531429 -0.00021166669 -0.018266095
0.006531429 0.00010583357 -0.018266095
0.0065314285 -0.00021166692 -0.01876073
-0.014052466 0.00010583281 -0.039238624
-0.013854546 0.00010583286 -0.039238624
-0.010786754 -0.0011641672 -0.03478691
-0.010786754 -0.0011112497 -0.034292277
-0.011261767 -0.0010795 -0.034292277
-0.0015833768 4.5110937e-10 -0.013715451
-0.0015833771 2.4374458e-10 -0.013220816
-0.0012864933 0.00010583355 -0.013220815
-0.0012864936 0.00010583281 -0.013715452
-0.0062345448 0.00010583355 -0.016782191
-0.011281558 0.0011641663 -0.034786906
-0.011776363 0.0011641673 -0.03478691
-0.012271169 0.0011641674 -0.034786906
-0.012271171 0.0011641666 -0.035281546
-0.010786754 0.0011429994 -0.034292273
-0.0052449349 0.0011288889 -0.033830613
-0.0057397392 0.0011641666 -0.034292273
-0.0052449354 0.0011641672 -0.034292277
-0.0042553246 0.0011430002 -0.033738282
-0.0037605199 0.0011641663 -0.034292273
-0.0037605187 0.0011429994 -0.033738282
-0.0032567182 0.0011545455 -0.033716697
-0.0047501293 0.0011288895 -0.033830613
-0.0091835838 0.0010583331 -0.033738282
-0.0097105512 0.0011509379 -0.034317009
-0.0096981814 0.0010583334 -0.033797637
-0.0091044148 0.00010583268 -0.032214805
-0.0057680146 0.0010583331 -0.033755239
-0.0052449354 0.00071966636 -0.033738278
-0.0062543373 0.00016933365 -0.032214805
-0.0057256022 0.00071059586 -0.033741109
-0.0088075325 0.00010583395 -0.016782189
-0.0088075325 -0.00021166689 -0.016782189
-0.0091044139 0.00010583364 -0.017276824
-0.0091044148 0.00010583312 -0.017771458
-0.014250388 0.0010583339 -0.033797637
-0.013854545 0.00010583338 -0.029246995
-0.011677402 7.0555987e-05 -0.029214019
-0.01138052 0.00010583395 -0.029246997
-0.011677402 0.00010583287 -0.028257724
-0.0047501302 0.0011641672 -0.034292273
-0.001781298 0.0011641667 -0.034292273
-0.0022761042 0.0011641663 -0.033698712
-0.0017689285 0.0011509381 -0.033723444
-0.012231585 0.0011429999 -0.035677254
-0.011776363 0.0011641663 -0.035677254
-0.013854546 0.00010583277 -0.039733261
-0.012732987 0.00070555566 -0.035677254
-0.012864933 0.0010583329 -0.035677254
-0.013260779 0.00074083317 -0.035677254
0.0037605192 0.001164167 -0.034292269
0.0027709093 0.0011641668 -0.035281546
0.003265714 0.0011641663 -0.035281543
0.0022761035 0.0011641667 -0.035677254
0.00098961079 0.00010583357 -0.041612875
0.0013194801 7.0555085e-05 -0.042008583
0.0012864928 0.00010583274 -0.0417118
0.0012864937 -0.00021166599 -0.0417118
0.0015833771 0.00010583348 -0.041612875
0.0012864937 -0.00021166692 -0.041217167
-0.0063335057 -0.00063499971 -0.033303004
-0.0052449359 0.00021166608 -0.033698708
-0.005937662 -4.5838533e-10 -0.033303004
-0.0047501298 -0.0011641674 -0.034786906
-0.0047501293 -0.0011641671 -0.035281546
-0.0062675327 -0.00028222278 -0.032214805
-0.0047501302 0.00021166622 -0.033698708
-0.0042223376 7.0555441e-05 -0.033303004
-0.00098961068 0.00010583392 -0.030236263
-0.0012864936 0.00010583316 -0.02974163
-0.0012864938 0.00010583367 -0.030236263
-0.0012864928 0.00010583385 -0.030730901
-0.00098961056 0.00010583294 -0.030730899
-0.00098961045 0.00010583302 -0.02974163
-0.001583377 -2.6557245e-10 -0.030730901
-0.0047501307 0.00071966671 -0.033738282
-0.0042553251 0.00074083358 -0.033698712
-0.0013194801 -0.00028222206 -0.032214805
-0.00098960998 -0.00021166666 -0.032214805
-0.00089064904 -0.0006349996 -0.033303004
-0.0052449345 -0.00031750053 -0.033698712
-0.01326078 0.000740833 -0.00036030076
-0.012765974 0.00074083288 -0.00036030076
-0.013854546 0.00010583302 0.00072789751
-0.013260779 0.0011641673 -0.00036030076
-0.011776364 0.001164166 -0.0017452799
-0.011776363 0.001164167 -0.0012506433
-0.011281557 0.0011641664 -0.001745278
-0.012271169 0.0011641668 -0.0017452799
-0.012271168 0.0011641658 -0.0012506433
-0.011281557 0.0011641672 -0.0012506433
-0.010786753 0.0011641663 -0.0017452799
-0.010786752 0.0011641661 -0.0012506433
-0.0067293509 -0.0011641666 -0.00026137382
0.0012864934 0.00063500006 -0.033204079
0.0012864933 0.0011641663 -0.033698712
0.0016823382 0.00063500006 -0.033303004
0.00019792258 0.0011641668 -0.034292273
0.00079168833 0.0011641668 -0.033698712
0.0001979222 0.0011641666 -0.033698712
0.00098961091 0.00010583325 -0.031720173
0.0012864929 0.00010583309 -0.031720173
0.00098960986 0.00010583358 -0.031225536
-0.0017812991 0.0011641674 -0.0021409877
-0.0022761039 0.0011641664 -0.0017452799
-0.0017812982 0.0011641666 -0.0017452799
-0.0012864933 0.001164167 -0.0017452799
-0.00079168845 0.0011641667 -0.0012506433
-0.00079168868 0.0011641673 -0.00075600855
-0.001286494 0.0011641667 -0.0012506433
-0.00098961079 0.00010583287 -0.0032291841
-0.00098961091 0.00010583312 -0.031225536
-0.00098961068 -0.00021166648 -0.030236265
0.013854545 0.00010583321 0.0022118017
0.011677402 0.00010583289 0.00072789751
0.012765975 0.0011641672 -0.00026137382
0.013854545 0.00010583351 0.0012225322
0.0062345453 0.00010583344 -0.018266097
0.0062345453 0.0001058339 -0.01876073
0.0062345448 0.00010583274 -0.017771458
0.0062345453 -0.00021166698 -0.018266095
0.0062345448 -0.00021166625 -0.01876073
0.0037605197 -0.00021166695 -0.01876073
0.0037605201 0.00010583364 -0.018760728
0.001286493 0.00010583367 -0.018266095
0.0015833769 0.00010583385 -0.018266095
0.001583376 0.00010583398 -0.017771458
0.0012864931 0.00010583374 -0.020244634
0.0015833764 0.00010583315 -0.019749999
0.0015833763 0.00010583348 -0.020244634
-0.00098961091 -0.00021166625 -0.010747639
-0.0009896101 -0.00021166709 -0.010253005
0.0037605201 0.00010583337 -0.010253004
0.0037605197 -0.00021166648 -0.010747639
0.0037605201 -0.00021166631 -0.010253005
0.0037605197 -0.00021166704 -0.0058012865
0.0037605192 0.00010583376 -0.0052077267
0.0037605187 -0.00021166611 -0.0052077249
0.0037605201 0.00010583393 -0.0087690959
0.0037605192 -0.00021166628 -0.0087690987
0.0037605187 -0.00021166718 -0.008274463
0.0062345448 0.00010583342 -0.011242275
0.0062345453 0.00010583373 -0.011736911
0.0062345453 -0.00021166683 -0.011736911
0.0037605197 0.00010583306 -0.011736911
0.0037605192 -0.00021166701 -0.011242274
0.0037605187 -0.00021166645 -0.011736911
0.0062345448 -0.0002116664 -0.012231545
0.0062345457 -0.00021166625 -0.010747638
0.0065314281 -0.00021166715 -0.011242274
0.0065314281 -0.00021166602 -0.010747639
0.0065314285 -0.00021166657 -0.010253003
0.0062345443 0.00010583289 -0.017276824
0.0062345443 -0.00021166666 -0.017276824
0.006531429 0.00010583307 -0.017276824
0.0062345457 0.00010583398 -0.016782191
-0.013854545 -0.00021166692 -0.0032291859
-0.013755584 -0.0011641671 -0.0021409877
-0.014250387 0.0011429996 -0.0012902152
0.015042078 0.0010583329 -0.03478691
0.011677402 0.00010583273 -0.039238624
-0.014151429 -0.00021166622 -0.038743988
-0.014052468 0.00010583364 -0.038743988
-0.014052466 0.00010583294 -0.038249355
-0.014151428 -0.00021166654 -0.038249355
-0.014745194 0.0010583329 -0.03478691
-0.013755585 0.0011641671 -0.035281543
-0.015042079 0.00074083376 -0.0012506433
0.015042079 -0.00074083288 -0.034292273
0.015042079 -0.00074083306 -0.035281543
0.015042079 -0.00031749994 -0.035281543
0.014052467 -0.00021166689 -0.021233907
0.013854544 -0.00021166701 -0.021629613
0.013854544 -0.00021166695 -0.021134978
0.014052466 0.0001058331 -0.016782189
0.014052467 0.00010583293 -0.016287552
0.014052469 -0.00021166602 -0.016287554
0.013854545 0.00010583273 -0.016782189
0.013854546 0.00010583318 -0.017276824
0.014052467 0.00010583379 -0.015792917
0.014052467 -0.00021166686 -0.015792917
0.013755586 -0.0011641666 -0.0012506433
0.012765974 -0.0011641674 -0.03478691
0.013854545 -0.00021166628 -0.01707897
0.011677402 0.00010583374 -0.016782189
0.011677402 -0.00021166608 -0.016782189
0.011677402 0.0001058337 -0.017276824
0.013854546 0.00010583312 -0.018266095
0.014052466 0.00010583363 -0.018266095
0.014052467 0.00010583382 -0.017771458
0.013854545 0.0001058327 -0.01876073
-0.013854546 0.00010583399 -0.018266095
-0.013260779 0.0011429997 -0.03379764
-0.012765973 0.001128889 -0.033830613
-0.013755583 0.0011641666 -0.0021409877
0.013260779 0.001058333 -0.03478691
0.012765973 0.0010583334 -0.03478691
0.01227117 0.0010583333 -0.03478691
-0.0088405199 -0.00021166707 -0.041678827
-0.0088075316 0.00010583326 -0.0417118
-0.008906493 -2.5465852e-10 -0.042008583
-0.0088075306 -0.00021166663 -0.041217167
-0.0088075325 0.00010583386 -0.041217167
-0.013854544 -0.00021166643 -0.038743988
-0.013854545 0.00010583342 -0.038743988
-0.013755584 -0.0011641668 -0.035281543
-0.013260779 -0.0011641671 -0.035677254
-0.014151429 -0.00021166707 -0.036765449
-0.014151427 -0.0002116673 -0.037260085
0.001286493 0.00010583345 0.00072789751
-0.0012864934 -0.0011641664 -0.00075600855
-0.0017812985 -0.0011641667 -0.00075600855
-0.00029688302 -0.0011641664 -0.00026137382
-0.0017812985 -0.0011641666 -0.00026137382
-0.0022761037 -0.0011641665 -0.00075600855
-0.0012864938 -0.00021166634 0.0027064364
0.00098961068 -0.00021166648 0.0012225322
0.00098961091 -0.00021166701 0.00072789751
-0.00098961056 0.00010583363 0.0022118017
-0.0012864929 0.00010583283 0.0022118017
0.0015833763 0.00010583293 0.0022118017
0.0027709091 0.00076200039 -0.00030094385
0.0037605197 0.00010583383 0.0012225322
0.0042553246 0.0011641667 -0.00026137382
-0.0027709091 0.0011641661 -0.00026137382
-0.0027709091 0.00076199934 -0.00030094385
0.006531429 0.00010583337 0.0022118017
0.014712207 0.0011288886 -0.00075600855
-0.014101947 7.9375182e-05 0.00070316531
-0.0091044158 -0.00021166657 -0.0052077249
-0.0091044139 -0.00021166657 -0.0047130901
-0.0091044148 0.00010583319 -0.0052077249
-0.0091044148 0.00010583395 -0.0058012875
-0.0088075325 0.0001058331 -0.0052077249
0.014250387 -0.001058333 -0.00036030076
0.006531429 0.00010583318 -0.0077798283
0.0062345443 0.0001058337 -0.0082744621
0.0065314281 0.00010583342 -0.008274463
0.0062345457 0.00010583379 -0.0087690987
0.0065314285 -0.00021166718 -0.0087690987
0.00098961091 -0.00021166698 -0.0072851935
0.00098961033 -0.00021166724 -0.0077798283
0.0012864936 -0.00021166721 -0.0072851945
0.00098961079 -0.00021166675 -0.0047130901
0.00098961045 -0.00021166724 -0.0052077249
0.00098961045 0.00010583334 -0.0047130901
-0.0027709089 0.00021166648 -0.0021409877
-0.0022761046 0.00074083381 -0.0021409877
-0.0022761039 0.00021166643 -0.0021409877
-0.0015833766 1.2732926e-10 -0.0032291859
-0.011380521 -0.00021166634 -0.01371545
-0.01138052 0.00010583377 -0.013220815
-0.011389517 9.6212425e-05 -0.013697465
-0.011677402 5.2916454e-05 -0.01371545
-0.011677402 7.0555958e-05 -0.013253791
-0.0091044148 0.00010583339 -0.011736911
-0.0091044148 0.00010583335 -0.011242274
-0.0088075306 0.00010583315 -0.011242276
-0.0091044148 -0.00021166677 -0.011242275
-0.0091044139 -0.00021166634 -0.01173691
-0.0088075325 -0.00021166643 -0.0092637334
-0.0088075316 -0.00021166611 -0.0097583691
-0.0088075316 0.00010583357 -0.0092637343
-0.0088075334 -0.00021166727 -0.011242275
-0.0088075325 -0.00021166637 -0.011736911
-0.0091044148 -0.00021166692 -0.010747639
-0.0088075316 0.00010583315 -0.010747639
-0.0091044139 -0.00021166733 -0.010253004
-0.0088075325 -0.00021166648 -0.010253003
-0.0088075316 -0.00021166625 -0.0087690987
-0.0088075306 0.00010583323 -0.0082744639
-0.0088075316 -0.00021166704 -0.0082744621
-0.0062345453 0.00010583364 -0.013715452
-0.006531429 0.00010583351 -0.014210086
-0.0062345443 0.00010583326 -0.014210086
0.0072241561 -0.0011641664 -0.0017452799
0.0077189589 -0.0011641664 -0.0012506433
0.0072241547 -0.0011641661 -0.0012506433
0.0062345453 0.00010583283 -0.0058012875
0.006531429 0.00010583294 -0.0067905579
0.00098960986 -0.00021166704 -0.0042184554
0.0012864931 -0.00021166677 -0.0042184545
0.0012754975 0.0011524069 -0.0021739639
0.001781298 0.001164167 -0.0021409877
0.0015833762 0.00010583399 -0.0032291841
0.0015833768 0.0001058338 -0.0037238197
0.002276103 0.0011641667 -0.0021409877
0.0012864934 0.00074083358 -0.0022399146
0.0012864936 0.0011641663 -0.0017452799
0.00079168845 0.0011641665 -0.0021409877
0.0096981805 0.0011641666 -0.00026137382
0.0092033772 0.0011641672 -0.00026137382
0.0091044148 0.00010583353 0.00072789751
0.0091044158 0.00010583286 0.0012225322
0.0091044148 -0.0002116673 0.0012225322
0.0088075325 -0.00021166666 0.0012225322
0.0091044158 -0.00021166707 0.001717167
0.01128156 0.0010583329 -0.033698712
0.011281559 0.0011641661 -0.035281546
0.01138052 0.00010583357 -0.0067905579
0.011677402 0.00010583325 -0.0077798283
0.011380519 0.00010583339 -0.0072851935
0.011677402 0.0001058339 -0.016287552
0.011677402 -0.00021166669 -0.016287554
0.013854545 0.00010583326 -0.008274463
0.0091044139 0.00010583334 -0.0037238197
0.0092033762 0.0011430007 -0.0022003446
0.0096981814 0.0011429994 -0.0022003446
0.014052466 0.00010583363 -0.0042184554
0.014052466 0.00010583395 -0.0047130901
0.014052468 -0.00021166608 -0.0042184545
0.012765973 0.0011641668 -0.0017452799
0.012765974 0.0011641672 -0.0012506433
0.0077189598 0.0011641664 -0.0017452799
0.0077189598 0.0011641671 -0.0021833852
0.0082137669 0.0011641671 -0.0021409877
0.0088075316 0.00010583281 -0.011242276
0.0088075316 -0.00021166651 -0.010747639
0.0088075325 -0.00021166648 -0.011242275
0.0088075306 -0.00021166643 -0.011736911
0.0088075316 0.00010583294 -0.01173691
0.0012864938 -0.00021166733 -0.0058012884
0.0015833771 0.00010583345 -0.0058012884
0.0015833761 0.00010583313 -0.0052077258
0.00098961056 -0.00021166628 -0.0058012884
0.0009896101 0.00010583354 -0.0052077258
0.00098961021 0.00010583364 -0.0058012875
0.0096981823 0.0011641671 -0.0017452799
0.010291949 0.0011641671 -0.0012506433
0.010291947 0.0011641668 -0.001745278
0.008708572 0.0011641672 -0.00075600855
0.0087085711 0.0011641661 -0.00026137382
0.0092033762 0.0011641667 -0.00075600855
0.0062345462 0.0011641671 -0.0017452799
0.0057549644 0.001156026 -0.0021638162
0.0067293509 0.0011641664 -0.0021409877
0.0062345453 0.0011430004 -0.0022003446
0.0062345448 0.0011641664 -0.00026137382
0.010291949 0.0011641673 -0.00026137382
0.0096981814 0.0011641672 -0.00075600855
0.011380518 0.00010583387 0.0012225322
0.0052449345 -0.0002963327 -0.00030094385
0.0062345457 0.0001058328 0.00072789751
0.0088075316 -0.00021166616 0.00072789751
0.0077189598 -0.00029633334 -0.00030094385
0.0077189598 0.00018520805 -0.00028610602
0.0088075306 0.00010583318 0.00072789751
0.0077189617 -0.00076199992 -0.00030094385
0.0082137659 -0.00076200016 -0.00030094385
0.0077189598 -0.001164166 -0.00026137382
0.013854546 0.00010583307 -0.02974163
0.013854546 0.00010583374 -0.029246997
0.013854545 0.00010583351 -0.030236263
0.014052467 0.00010583363 -0.029246997
0.0092033762 0.0010583336 -0.033698712
0.0088075316 0.00010583318 -0.022223176
0.0088075316 0.00010583347 -0.022717809
0.0091044148 0.00010583377 -0.022223175
0.01509156 0.00026458362 -0.00075600855
0.001286494 -0.00021166611 0.0012225322
0.0037605197 -0.00021166605 0.0022118017
0.0037605201 -0.0002116668 0.001717167
0.00098961068 -0.00021166619 0.0025085825
0.00098961033 -0.00021166704 0.0022118017
0.0012864938 -0.00021166602 0.0026075095
0.003265714 -0.0011641667 -0.00075600855
0.0032657143 -0.0011641666 -0.00026137382
0.0027709091 -0.0011641672 -0.00026137382
0.0037605192 -0.0011641671 -0.00026137382
0.0012864942 -0.0011641673 -0.0017452799
0.00079168868 -0.0011641674 -0.0021409877
0.001286494 -0.0011641672 -0.0021409877
0.00079168845 -0.0011641667 -0.001745278
0.0017812987 -0.0011641663 -0.0012506433
0.0022761039 -0.0011641668 -0.0012506433
0.0022761032 -0.0011641672 -0.00075600855
0.00079168798 -0.001164167 -0.0012506433
-0.011677402 -0.00021166677 0.0012225322
-0.012765975 0.00018520813 -0.00028610602
-0.011677403 0.00010583393 0.00072789751
-0.0062345453 -0.00021166645 0.0022118017
-0.006531429 -0.00021166712 0.0022118017
-0.0065314285 -0.00021166645 0.001717167
-0.0088075316 0.00010583325 0.001717167
-0.0091044148 0.00010583323 0.001717167
-0.0088075316 0.00010583329 0.0012225322
-0.0091044139 0.00010583287 0.0012225322
-0.0091044148 0.00010583347 0.0022118017
-0.0091044158 -0.00021166712 0.0022118017
-0.0088075325 -0.00021166625 0.0022118017
-0.0037605197 -0.00021166666 -0.0032291841
-0.0047501288 -0.0011641667 -0.0021409877
-0.0042553246 -0.00074083381 -0.0021409877
-0.0047501307 0.00021166616 -0.0021409877
-0.0037605194 0.0011641665 -0.001745278
0.0037605192 0.0011641664 -0.00075600855
0.0032747104 0.0011737879 -0.002221927
0.0032657143 0.0011641672 -0.0012506433
0.002276103 0.0011641674 -0.00075600855
0.0027709089 -0.0003174998 -0.0021409877
0.0027709096 0.00021166622 -0.0021409877
0.0037605201 -0.00021166616 -0.0032291841
0.0027709093 -0.00074083346 -0.0021409877
0.0027709096 -0.0011641661 -0.0021409877
-0.0047501293 0.0011641673 -0.0012506433
-0.0012864936 0.00010583373 -0.0037238197
-0.0012864937 0.00010583398 -0.0032291859
-0.0015833768 -0.00021166683 -0.0042184563
-0.0015833762 3.3469405e-10 -0.0047130892
-0.014712207 -0.0011288883 -0.00075600855
-0.01326078 -0.0011641661 -0.0012506433
-0.014151429 -0.00021166715 -0.017276824
-0.014151428 -0.00021166663 -0.016782189
-0.014052466 0.00010583299 -0.017276824
-0.014151428 -0.00021166707 -0.016287554
-0.0037605197 -0.00021166613 0.0012225322
-0.00079168822 -0.001164167 -0.001745278
-0.0012864931 -0.00021166657 -0.0032291841
0.00019792275 -0.0011641666 -0.0017452799
-0.00029688282 -0.0007408337 -0.0021409877
0.0012864933 -0.00021166637 -0.0032291841
0.0012864934 -0.00021166666 -0.0037238197
0.013854545 0.00010583316 -0.011736911
0.013854545 0.00010583339 -0.012231545
0.012765973 -0.0011641667 -0.00036030076
-0.012765973 -0.0011641673 -0.035677254
-0.0062345453 -0.0011641667 -0.035677254
-0.0072241556 -0.0011641664 -0.035677254
-0.0067293509 -0.0011641667 -0.035281546
-0.0009896101 0.00010583316 -0.041612875
-0.001286494 0.00010583271 -0.0417118
-0.0012864936 1.3460522e-10 -0.042008583
-0.00098960998 -0.00021166727 -0.0417118
-0.0015833764 6.5847416e-10 -0.041612875
-0.001286493 -0.00021166709 -0.041711804
-0.0012864931 0.00010583284 -0.041217171
0.0063335062 -0.00063500059 -0.036072962
0.0072241561 -0.0011641673 -0.035677254
0.006531429 -0.00031749942 -0.036270816
0.0065314281 -0.00021166616 -0.036765449
0.0062675332 -0.00028222238 -0.036765449
0.013854545 0.0001058339 -0.038743988
0.013854545 -0.00021166619 -0.039238628
0.013854546 0.00010583377 -0.039238624
0.01326078 -0.0010583338 -0.034292277
0.011677401 -0.00021166602 -0.037260085
0.01413729 9.0714944e-05 -0.038758121
0.014052468 -0.00021166686 -0.038249355
0.014052467 -0.00021166683 -0.038743988
0.013854544 0.0001058336 -0.040722534
0.013854546 -0.00021166616 -0.041217167
0.013854546 -0.00021166695 -0.040722534
0.01411844 0.00010583335 -0.037787694
0.014052467 -0.0002116664 -0.037754722
0.013854545 0.0001058327 -0.037754718
0.013854546 0.00010583306 -0.038249355
0.014052469 -0.00021166709 -0.037260085
0.012765974 -0.00074083335 -0.035677254
0.013854545 -0.00021166709 -0.038249355
0.013392727 -0.00077611179 -0.035677254
0.014052467 0.00010583274 -0.01876073
0.014052466 0.00010583296 -0.020244634
0.014052467 0.00010583369 -0.019749999
0.013854546 0.00010583366 -0.020244634
0.014052468 0.00010583369 -0.02073927
0.013854545 0.00010583366 -0.019749999
0.013854546 -0.00021166683 -0.020244636
0.00098961091 -0.00021166637 -0.041217167
0.00019792258 -0.0011641666 -0.035281543
0.00079168857 -0.0011641665 -0.035281546
0.00079168787 -0.001164167 -0.035677254
-0.0017812981 -0.0011641666 -0.033698712
-0.0022761039 -0.001164167 -0.033698712
-0.0015833769 -0.00063500053 -0.033303004
-0.0012864928 -0.0011641671 -0.035281543
-0.0017812988 -0.0011641673 -0.035281543
-0.0017812983 -0.0011641668 -0.03478691
-0.0022761035 -0.001164167 -0.035281543
-0.00079168845 -0.0011641663 -0.035281546
-0.0037605197 -0.0011641666 -0.035281546
-0.0037605194 -0.00026458269 -0.032214809
-0.0032657147 -0.0011641666 -0.033698712
-0.0027709086 -0.0011641667 -0.033698715
-0.0032657145 -0.0011641668 -0.034292277
-0.0022761032 -0.0011641664 -0.035677254
-0.0027709096 -0.0011641668 -0.035677254
-0.0027709086 -0.0011641663 -0.035281546
-0.0027709091 -0.001164167 -0.034786906
-0.0032657138 -0.0011641673 -0.035281543
-0.0062345457 -0.00021166637 -0.01876073
-0.0042553246 -0.0011641672 -0.0021409877
-0.0032657138 -0.001164166 -0.0017452799
-0.0015833769 -0.00021166651 -0.013220816
-0.0015833766 -0.00021166645 -0.011242275
-0.001583376 -6.4756023e-10 -0.030236267
-0.0091044148 -0.00021166657 -0.017276824
-0.0091044148 -0.00021166634 -0.017771458
-0.0062345457 0.0001058327 -0.0032291859
-0.0062345453 -0.00021166628 -0.017276824
-0.0065314285 -0.00021166663 -0.017771458
-0.0062345457 -0.00021166672 -0.017771458
-0.0062345448 0.00010583377 -0.018266095
-0.0082137659 -0.0011641671 -0.03478691
-0.0057397401 -0.0011641664 -0.034292273
-0.0062345453 -0.0011641667 -0.03478691
-0.0057217474 -0.0010968188 -0.033698712
-0.008708572 -0.001164167 -0.035281546
-0.0092033772 -0.0011641673 -0.035677254
-0.0087085711 -0.0011641661 -0.035677254
-0.0067293509 -0.0011641665 -0.034786906
-0.010291949 -0.0011112507 -0.034292277
-0.0088075316 -0.00021166631 -0.019255364
-0.00098961068 -0.00021166625 -0.024795279
-0.00098961056 0.00010583329 -0.024201715
-0.00098961045 -0.0002116664 -0.024201715
0.0037605197 0.00010583348 -0.030730899
0.0037605197 0.00010583286 -0.030236261
0.0037605197 -0.00021166709 -0.030236267
0.0088075325 0.00010583363 -0.030236263
0.0088075316 -0.00021166695 -0.02974163
0.0088075334 -0.00021166709 -0.030236263
0.0088075325 0.00010583358 -0.029741632
0.00089064927 0.00063499995 -0.033303004
0.00098960975 0.0001058328 -0.032214805
0.010291948 -0.0011641672 -0.035677254
0.0096981805 -0.0011641672 -0.035281546
0.0092033762 -0.0011641668 -0.035677254
