# .PCD v0.7 - Point Cloud Data file format
VERSION 0.7
FIELDS x y z
SIZE 4 4 4
TYPE F F F
COUNT 1 1 1
WIDTH 1186
HEIGHT 1
VIEWPOINT 0 0 0 1 0 0 0
POINTS 1186
DATA ascii
0.033005729 0.00014111136 -0.0068479669
0.033005729 0.00014111168 -0.0073617878
0.032748874 0.00014111061 -0.0069764224
0.033005729 -0.00014111101 -0.0058203242
0.033005729 0.00014111046 -0.0058203246
0.033005729 0.00014111177 -0.006334147
0.033005729 0.00014111173 -0.0053065033
0.033005729 -0.0001411113 -0.0053065033
0.032748874 0.00014111091 -0.0058203242
0.033005729 -0.00014111049 -0.0047926824
0.032748874 0.00014111125 -0.0053065042
0.033005729 -0.00014111141 -0.0032512196
0.033005729 -0.00014111046 -0.0037650401
0.033005729 -0.0001411117 -0.0042788624
0.033005729 0.00014111155 -0.003765041
0.032748874 0.00014111151 -0.0037650405
0.025685392 0.0012700004 -0.0011959346
0.025171684 0.0012699998 -0.00068211369
0.019777752 0.0012699999 -0.0017097564
0.019777752 0.0012699997 -0.0011959346
0.019777752 0.0012699994 -0.00068211369
0.01772292 0.00014111171 -0.003765041
0.01772292 0.00014111168 -0.0042788619
0.020291459 -0.00014111116 -0.01763821
0.020291461 -0.00023518497 -0.018708669
0.023245281 -0.0012699997 -0.020721138
0.022859998 -0.00127 -0.020207316
0.016695505 -0.0012699997 -0.019821951
0.01271427 0.00014111164 -0.012243089
0.012457415 0.00014111119 -0.01224309
0.012457415 0.00014111138 -0.016353657
0.0098888762 0.00014111126 -0.014940651
0.0098888762 0.00014111119 -0.014298375
0.010274157 0.00014111066 -0.014812196
0.010274157 0.00014111084 -0.015326016
0.0098888762 0.00014111149 -0.015326016
0.010274157 0.00014111149 -0.015839837
0.0098888762 0.00014111052 -0.015839837
0.010274157 0.0001411105 -0.016353657
0.0098888762 0.00014111142 -0.016995935
0.010274156 0.00014111049 -0.017252846
0.012714271 -0.00028222156 -0.018152032
0.01276564 0.00025399984 -0.017663902
0.012457415 0.00014111087 -0.015326016
0.012714269 -0.0001411111 -0.015326016
0.01271427 -0.00014111165 -0.014812196
0.01271427 0.00014111171 -0.014812195
0.010274157 0.00014111052 -0.014298374
0.015154382 -0.00014111168 -0.013784554
0.015539662 -0.00014111142 -0.013270732
0.010231348 -0.00023518532 -0.017252846
0.012457415 0.00014111149 -0.010701626
0.012457416 0.00014111142 -0.0077471547
0.011301573 0.0012699998 -0.0022235774
0.011815281 0.0012699997 -0.0017097564
0.011815279 0.0012699999 -0.0011959346
0.012457415 0.00014111085 -0.0068479669
0.012457416 0.00014111052 -0.0063341465
0.01271427 -0.00014111103 -0.0063341465
0.0047517978 0.00014111103 -0.010187805
0.0012842703 0.00084666646 -0.0022235783
0.0077056168 -0.00014111053 -0.010187805
0.0097604487 -0.00127 -0.0022235774
0.01023135 -0.00023518577 -0.0027373983
0.010787864 -0.0012699998 -0.0022235774
0.011301573 -0.00084666716 -0.0022235783
0.010787865 -0.00084666733 -0.0022235774
0.010787864 -0.0012699995 -0.0017097564
0.011301574 -0.0012699994 -0.0017097564
0.0047517978 0.00014111087 -0.015968293
0.0051370785 0.00014111114 -0.016353657
0.0051370775 0.00014111162 -0.015839837
0.0047517978 0.00014111055 -0.015326016
0.0051370775 -0.00014111177 -0.006334147
0.0051370785 -0.00014111084 -0.0058203242
0.0051370785 0.00014111098 -0.0081325201
0.0051370785 0.00014111142 -0.0073617883
0.0051370775 0.00014111171 -0.0091601629
0.0047517978 0.00014111144 -0.0091601629
0.0047517978 0.00014111055 -0.0063341465
0.0077056177 0.00014111055 -0.0063341465
0.0077056168 -0.00014111122 -0.006334146
0.011301572 0.0012699994 -0.021234959
0.023245281 0.00084666675 -0.021234959
0.032748874 -0.0012700002 -0.021234959
0.026755616 -0.0012699995 -0.021192141
0.028296741 -0.0012700004 -0.021192141
0.028767638 -0.00127 -0.021234959
0.027226515 -0.0012699995 -0.020721138
0.027868651 -0.00014111055 -0.026244715
0.025556965 -0.00014111136 -0.027143903
0.016695505 -0.00084666675 -0.021234959
0.016181799 -0.00084666623 -0.021234959
0.012842695 -0.0012699997 -0.020207316
0.012328988 -0.00127 -0.020207316
0.017209213 -0.0012700001 -0.021234959
0.014640673 -0.0012700004 -0.020721138
0.01271427 -0.00014111171 -0.026244715
0.0082193259 -0.0012700004 -0.021234959
0.0082193268 -0.00084666687 -0.021234959
0.015154382 -0.0001411117 -0.0081325211
0.01823663 -0.0012700004 -0.020207316
0.017765729 -0.00023518453 -0.022262601
0.017209213 -0.00084666692 -0.021234959
0.019264044 -0.0012699999 -0.020721138
0.020291459 -0.00014111154 -0.023290243
0.021832582 0.00028222182 -0.021234959
0.021318875 0.00028222226 -0.021234959
0.021832582 0.00084666722 -0.021234959
0.025300112 0.00014111133 -0.025345527
0.025300112 0.00014111151 -0.024831705
0.025556965 0.00014111106 -0.025345527
0.025556965 0.00014111176 -0.024831709
0.025300112 0.00014111077 -0.027143903
0.025556965 0.00014111128 -0.026630081
0.025171686 0.0012699994 -0.021234959
0.025300112 0.00014111133 -0.022776421
0.028125504 -0.00014111103 -0.025859348
0.028125504 -0.00014111104 -0.025345527
0.028125504 0.00014111101 -0.024831707
0.028125504 0.00014111104 -0.024317885
0.027868651 0.00014111106 -0.016867479
0.028125504 -0.00014111062 -0.017252846
0.0076628076 -0.00023518546 -0.022262601
0.007320337 -0.00014111114 -0.021620324
0.0066782022 -0.00084666722 -0.021234959
0.0082193259 0.00084666698 -0.021234959
0.0097604487 0.0008466664 -0.021234959
0.0092467405 0.0012699999 -0.021234959
0.01181528 0.00070555607 -0.020078862
0.010274156 0.0012700002 -0.020721138
0.0098888762 0.00014111164 -0.01275691
0.010274156 0.00014111158 -0.012756911
0.010274157 0.00014111151 -0.012243089
0.015539663 -0.0001411117 -0.022776421
0.015197191 -0.00023518456 -0.022262601
0.014255392 -0.0012699994 -0.021234959
0.014255392 -0.00084666716 -0.021234959
0.01519719 -0.00023518552 -0.022776423
0.015539661 0.00014111066 -0.01763821
0.013356404 0.0012700002 -0.020721138
0.015668089 0.0012700005 -0.020721138
0.013870113 0.0012699995 -0.020335771
0.014640674 0.00127 -0.020721138
0.012842696 0.0012699999 -0.0022235783
0.012842696 0.0012699995 -0.0017097564
0.013356404 0.0012700002 -0.0017097555
0.01271427 0.00014111126 -0.0096739819
0.01271427 0.0001411109 -0.0091601619
0.012714271 0.00014111176 -0.008646342
0.012714271 0.00014111119 -0.0063341465
0.015154383 0.00014111171 -0.0073617888
0.015154381 0.00014111154 -0.0042788619
0.015539663 0.00014111162 -0.01275691
0.01772292 -0.00014111047 -0.012243088
0.01519719 0.00023518551 -0.018665852
0.014255392 0.00028222217 -0.019308129
0.01772292 0.00127 -0.019308129
0.0026969665 -0.00014111104 -0.0096739829
0.0056507858 -0.0012699998 -0.0022235774
0.006164493 -0.0012699994 -0.0022235774
0.0051370785 -0.00014111055 -0.0081325211
0.006164493 -0.0012699997 -0.0017097555
0.0077056177 -0.0012699995 -0.0017097574
0.0066782022 -0.00084666663 -0.0022235774
0.0077056168 -0.0012699994 -0.00016829185
0.0097604487 -0.0012699995 -0.00016829278
0.0097604478 -0.00089370337 -0.00021111127
0.0092467414 -0.00023518471 -0.00021111127
0.0001284272 -0.00014111053 -0.011729269
0.0024401117 -0.00014111152 -0.0053065042
0.0024401129 -0.00014111126 -0.0058203246
0.0026969665 0.00014111116 -0.0042788615
0.0024401119 0.00014111084 -0.003765041
0.0024401117 0.00014111045 -0.0042788615
0.0026969668 -0.00014111072 -0.0068479669
0.0077056177 -0.0012699999 -0.0022235774
0.0051370775 -0.00014111056 -0.011215447
0.0092467405 -0.0012699995 -0.020721138
0.0026969658 -0.00014111136 -0.01275691
0.0082193259 -0.0012700002 -0.020721138
0.0077056177 -0.00014111091 -0.01275691
0.0077056177 0.00014111101 -0.012756911
0.0077056168 0.00014111072 -0.012243089
0.0051370785 -0.00014111167 -0.01275691
0.0026969663 -0.00014111126 -0.014298374
0.0047517978 -0.0012700001 -0.021234959
0.0028253936 -0.0012699997 -0.021234959
0.0024401122 -0.00014111112 -0.016353657
0.0024401126 -0.0001411105 -0.016867479
0.0087330341 0.00070555496 -0.019821951
0.0043665152 -0.00084666646 -0.021234959
0.0050942693 -0.00023518497 -0.022262601
0.0038711554 -0.00082650798 -0.021253306
0.006164494 -0.00028222223 -0.021234959
-0.026712811 -0.00028222258 -0.021234959
-0.024657978 -0.0012699995 -0.021234959
-0.031849883 -0.00028222238 -0.00029674824
-0.032363597 -0.00084666739 -0.00029674824
-0.0043665161 0.00084666623 -0.0022235774
-0.0047517978 0.00084666634 -0.0022235774
-0.0051370785 0.0001411109 -0.0032512196
-0.0038528095 0.00028222208 -0.0022235774
-0.0043665161 0.00028222191 -0.0022235774
-0.0024401119 0.00014111136 -0.0063341465
-0.0024401115 -0.00014111078 -0.0058203251
-0.0026969658 -0.00014111098 -0.0058203242
-0.0024401122 -0.00014111047 -0.0053065037
-0.0024401129 0.00014111154 -0.0058203246
-0.00012842691 0.00014111173 -0.0047926824
0.00012842711 0.00014111058 -0.0042788624
-0.00012842705 0.00014111097 -0.0042788619
-0.0026969661 -0.00014111052 -0.0053065033
-0.0024401124 -0.00014111155 -0.0047926824
-0.0024401119 0.0001411105 -0.0047926824
-0.0051370794 0.00014111074 -0.014812196
-0.0051370794 -0.00014111056 -0.014812196
0.0012842696 0.00070555555 -0.019308129
0.00025685356 0.00028222284 -0.019179674
0.00012842733 0.00028222174 -0.018665854
-0.023245281 0.00028222179 -0.019308129
-0.022859998 -0.00014111087 -0.015326016
0.0033391004 -0.00127 -0.0022235764
0.0024401124 -0.00014111116 -0.010187805
0.0024401126 -0.00014111065 -0.0096739829
0.00012842646 -0.00014111128 -0.006334147
-0.0017979776 0.0012700005 -0.021234959
-0.00077056233 0.0012700001 -0.020335771
-0.001284269 0.0012699998 -0.021234959
-0.00077056151 0.0012700004 -0.021234959
-0.0023116856 -0.00028222211 -0.019693494
-0.0023116856 -0.0012700002 -0.021234959
-0.0028253936 -0.0012700002 -0.021234959
-0.0072102565 -0.00026206326 -0.019198025
-0.007320337 -0.00014111069 -0.018665854
-0.007320337 -0.00014111066 -0.018280488
0.0033391011 -0.0012699997 -0.00068211462
-0.00012842644 -0.00014111088 0.0016300809
0.0026969661 -0.00014111141 -0.016867479
0.0026969665 -0.00028222191 -0.01763821
0.0061216857 -0.00028222246 -0.019222494
0.0024401122 0.00014111082 -0.017252846
0.0017979771 0.0012699997 -0.019821951
0.0023300315 -0.00026206291 -0.019198025
-0.020291459 0.00014111061 -0.010701626
-0.020291461 -0.00014111113 -0.010701627
-0.020291461 -0.00014111116 -0.010187806
-0.020291459 0.00014111112 -0.010187805
-0.022859998 0.00014111128 -0.010187805
-0.020291459 0.00014111125 -0.0096739829
-0.022859998 -0.00014111151 -0.012243089
-0.022859998 -0.00014111177 -0.011729268
-0.022859998 0.00014111136 -0.011729267
-0.026199099 -0.00127 -0.00068211369
-0.025685392 -0.0012700001 -0.0011959346
-0.027868651 -0.00014111066 -0.0073617883
-0.024657976 -0.0012699997 -0.019821949
-0.025214493 -0.0012700001 -0.019736314
-0.024657978 -0.0012700005 -0.020207316
-0.024657978 -0.00079962926 -0.019736314
-0.024169955 -0.00081844407 -0.019770568
-0.02876764 -0.0012700006 -0.021234959
-0.028253932 -0.00127 -0.021234959
-0.025556965 -0.00014111088 -0.024831707
-0.027868651 -0.00014111074 -0.025345527
-0.027868651 -0.00014111066 -0.024831707
-0.028125504 -0.00014111146 -0.025345527
-0.030308764 -0.0012699997 -0.021106504
-0.031849883 -0.0012700002 -0.021234959
-0.028125504 -0.00014111062 -0.023804065
-0.03043719 -0.00014111069 -0.027143903
-0.016695505 0.0012700005 -0.021234959
-0.017209213 0.0012699994 -0.020335771
-0.033134155 -0.000141111 -0.011215447
-0.033134155 -0.00014111155 -0.013784552
-0.033134155 0.00014111132 -0.014298374
-0.033134155 -0.00014111161 -0.012243089
-0.033134155 -0.00014111058 -0.014812195
-0.030694043 0.00014111112 -0.021748781
-0.0026969665 -0.00014111074 -0.016353657
-0.0026969663 -0.00014111133 -0.016867479
-0.00012842691 -0.00014111133 -0.016353657
-0.014255392 0.00098777737 -0.019308129
-0.013870113 0.00098777737 -0.019308129
-0.01271427 0.00014111168 -0.016867479
-0.012457415 -0.00014111135 -0.015839837
-0.012457415 -0.00014111047 -0.016353657
-0.022859998 -0.00014111119 -0.026630081
-0.022859998 0.00014111114 -0.027143903
-0.022859998 0.0001411108 -0.026630081
-0.022859998 -0.00014111171 -0.011215447
-0.025300112 -0.00014111094 -0.014298374
-0.025300112 -0.00014111068 -0.013784553
-0.018750336 -0.0012700004 -0.020207316
-0.018750336 -0.00084666687 -0.021234959
-0.01772292 0.00014111119 -0.013270732
-0.017765729 -0.00023518525 -0.018665852
-0.017209213 -0.0012699997 -0.020335771
-0.020309806 -0.00026206303 -0.018684203
-0.020762358 -0.00028222217 -0.019222494
-0.020291459 -0.00028222176 -0.019179674
-0.020317145 -0.00019755591 -0.018177724
-0.0087330332 -0.00084666727 -0.021234959
-0.0087330341 -0.0012699994 -0.021234959
-0.0092467414 -0.0008466671 -0.021234959
-0.01271427 0.00028222191 -0.0027373983
-0.015154382 -0.00014111056 -0.011215447
-0.015710898 -0.00098777725 -0.019222494
-0.0097604496 -0.0012699994 -0.00068211369
-0.0092467405 -0.0012699994 -0.00068211276
-0.020291459 -0.0012699999 -0.0011959346
0.00077056169 -0.0012700005 -0.021234959
-0.00025685327 -0.0012699999 -0.021234959
0.00025685335 -0.0012700004 -0.020849593
-0.0066782031 -0.00084666733 -0.020849593
-0.0066782022 -0.0012700006 -0.021234959
-0.0077056168 -0.0012700006 -0.020849593
-0.023630561 -0.0012700002 -0.021234959
-0.023245281 -0.0012700002 -0.021234959
-0.033134155 -0.00014111136 -0.026630081
-0.025300112 -0.00014111152 -0.016353657
0.00077056239 0.00084666663 -0.0022235774
-0.00012842673 0.00014111069 -0.008646341
-0.00012842732 -0.00014111091 -0.008646341
-0.00012842647 -0.00014111096 -0.0081325211
-0.00012842729 -0.00014111072 -0.0096739829
-0.0051370785 0.00014111053 -0.010701627
-0.0077056186 0.00014111157 -0.010187805
-0.0077056177 0.00014111047 -0.0096739829
0.0017979769 -0.0012699997 -0.00068211369
0.0023116847 -0.0012699999 -0.00016829371
0.001797977 -0.0012699997 -0.0017097564
-0.0028253931 0.0012699994 -0.020207316
-0.0028070465 0.00026206326 -0.019198025
-0.0028253938 0.0012699997 -0.021234959
-0.0024401124 0.00014111174 -0.012756911
-0.0024401124 0.00014111088 -0.011215447
-0.0024401122 0.00014111106 -0.010701626
-0.0024401119 0.00014111082 -0.011729268
-0.0024401117 0.00014111091 -0.012243088
-0.00012842758 0.00028222176 -0.017252846
-0.00012842647 -0.00028222203 -0.01763821
-0.00012842685 0.00014111148 -0.015839837
0.00012842716 0.00014111101 -0.014812195
0.00012842694 -0.00014111101 -0.014812196
-0.00012842671 -0.00014111058 -0.015839837
0.00012842649 -0.00014111094 -0.016353657
0.00012842732 0.00014111139 -0.013270732
0.00012842703 0.00014111122 -0.013784553
0.00012842716 -0.00014111128 -0.013784552
-0.0087330341 0.0012699997 -0.0022235774
-0.011301572 0.00028222278 -0.021234959
-0.021318875 0.0012699997 -0.020721138
-0.017765729 0.00023518468 -0.022262601
-0.018108202 0.00014111123 -0.021620326
-0.018750336 0.00028222174 -0.021234959
-0.018108202 -0.00014111109 -0.021620326
-0.019264044 0.00028222194 -0.021234959
-0.019264046 -0.00028222246 -0.021234959
-0.020676741 -0.00014111071 -0.021620324
0.023630559 0.00028222273 -0.021234959
0.02414427 -0.00028222264 -0.021234959
0.020291459 0.00014111046 -0.024831705
0.025556965 0.00014111069 -0.024317885
0.025556965 -0.00014111053 -0.024831709
0.025556965 -0.00014111113 -0.025859348
0.022346292 0.0012699995 -0.020721138
0.019777752 0.0012699994 -0.021234959
0.020291461 0.00014111126 -0.025859348
0.020291459 0.00014111045 -0.027143903
0.020805167 0.0012699995 -0.021234959
0.020291459 0.0012699997 -0.020721138
0.019777752 0.00084666692 -0.021234959
0.019777752 -0.0012699994 -0.021234959
0.019264044 -0.00084666739 -0.021234959
0.019777752 -0.00084666634 -0.021234959
-0.00025685385 0.0012699999 -0.020335771
-0.00025685449 0.00028222176 -0.019179672
-0.0013270783 0.0012699994 -0.020250134
-0.0012842702 0.0002822227 -0.019308129
0.0024401119 0.00014111093 -0.022776421
0.00012842748 0.00028222159 -0.022262601
0.0024401126 0.00014111148 -0.024317885
0.0024401126 0.00014111122 -0.023804065
0.0026969661 0.00014111167 -0.024317885
-0.0051370785 0.0012699994 -0.021234959
-0.0051113935 0.00019755609 -0.022802111
-0.0038528086 0.0012699999 -0.021234959
0.0024401115 -0.00014111173 -0.025345527
0.0026969663 -0.00014111152 -0.024831707
0.0024401126 -0.00014111117 -0.024831707
0.0026969663 -0.00014111125 -0.025345527
0.0024401126 0.00014111146 -0.026244715
0.0024401124 -0.00014111107 -0.026630081
0.0026969663 0.00014111047 -0.025859348
0.0024401117 0.0001411109 -0.025859348
0.0047517978 0.00014111074 -0.027272359
0.0026969661 -0.00014111146 -0.027143903
0.012457415 0.0001411109 -0.024831707
0.0098888762 -0.00014111074 -0.026630081
0.012457415 0.00014111142 -0.026244715
0.012457415 0.00014111148 -0.025345527
0.01772292 0.0001411111 -0.026244715
0.015154381 0.00014111164 -0.023804065
0.015154382 0.00014111097 -0.022262601
0.010274157 -0.00014111085 0.0021439027
0.010274157 0.00014111052 0.0021439018
0.010274157 -0.00014111062 0.0016300809
-0.030822471 0.00077611092 -0.02065691
-0.031336181 0.00084666722 -0.019308131
-0.033134155 -0.00014111087 -0.022262601
-0.027868651 0.00014111061 -0.026630081
-0.028125504 0.00014111091 -0.027143903
-0.028125504 0.00014111071 -0.023290243
-0.028125504 -0.00014111072 -0.022776421
-0.028125504 0.00014111126 -0.024317885
-0.025556965 0.0001411113 -0.024317885
-0.027868651 0.000282222 -0.024831707
-0.028125504 -0.00014111075 -0.024831705
-0.03043719 0.00014111176 -0.024831709
-0.03043719 -0.00014111068 -0.026244715
0.030694043 -0.00014111128 -0.023804065
0.030694043 0.000141111 -0.023804065
0.029795056 0.00084666675 -0.020721138
0.02876764 0.0012699994 -0.020721138
0.03043719 0.00014111125 -0.022776421
0.027714539 -0.00081844488 -0.021157887
0.027740225 0.00084666611 -0.021234959
-0.012457416 0.00014111058 0.00085934903
-0.012457416 0.00014111144 0.0012447154
-0.01181528 0.00089370389 -0.00021111127
-0.012328988 0.0012700006 -0.00016829278
-0.012842695 0.0012699995 -0.00016829185
-0.010274157 -0.00014111084 0.0008593509
-0.012328988 -0.0012700004 -0.00016829278
-0.012842696 -0.0012700004 -0.00068211276
-0.012328988 -0.0012700002 -0.00068211369
-0.013356404 -0.0012700005 -0.00068211276
-0.014255392 -0.00127 -0.00016829278
-0.018750336 -0.0012699998 -0.0011959346
-0.01823663 -0.0012700004 -0.0017097574
-0.01823663 -0.0012699999 -0.0022235764
-0.019777752 -0.0012699995 -0.00068211369
-0.019777752 -0.00084666669 -0.00016829278
-0.019264046 -0.00084666646 -0.00016829278
-0.019264046 0.00028222238 -0.00016829278
-0.018750338 -0.00023518511 -0.00021111127
-0.019264044 -0.00023518466 -0.00021111127
-0.020291459 -0.00014111149 0.0008593509
-0.018750336 -0.0012700005 -0.00068211369
-0.01823663 -0.00127 -0.00068211369
-0.018750336 -0.0012700002 -0.00016829278
-0.0087330332 -0.00084666716 -0.0022235774
-0.0087330341 -0.00028222165 -0.0022235774
-0.0087330341 0.00028222258 -0.0022235774
-0.0033391009 -0.0012700002 -0.00016829278
-0.0038528091 -0.0012699994 -0.00016829278
-0.010274157 0.00014111109 -0.0053065042
-0.010274157 0.00014111094 -0.0047926833
-0.0098888762 0.00014111165 -0.0053065037
-0.0077056177 0.00014111151 -0.008646342
-0.0077056177 -0.00014111162 -0.008646341
-0.0077056177 0.00014111132 -0.0091601629
-0.010274157 0.00014111165 -0.0081325201
-0.010274157 -0.00014111107 -0.0081325211
-0.010274157 0.00014111113 -0.008646341
-0.0098888762 0.00014111113 -0.0081325201
-0.0098888762 0.00014111141 -0.0077471547
-0.012457415 0.0001411116 -0.0042788624
-0.012457415 -0.00014111133 -0.0042788619
-0.012457415 0.00014111125 -0.0047926833
-0.012457415 -0.00014111049 -0.003765041
-0.012714269 0.00014111104 -0.0042788619
-0.010274157 0.00014111112 -0.003765041
-0.010274158 0.00014111161 -0.0042788619
-0.0098888753 0.00014111148 -0.0047926833
-0.0098888762 -0.00014111084 -0.0080040647
-0.0098888772 -0.00014111107 -0.008646342
-0.0098888762 -0.00014111072 -0.0077471547
-0.0024401117 -0.00014111062 -0.0096739838
-0.0024401117 0.00014111071 -0.0096739838
-0.0024401124 -0.00014111174 -0.010187805
-0.0026969668 -0.00014111069 -0.010187805
-0.0026969658 -0.0001411112 -0.0096739838
0.001284269 -0.0012700005 -0.0017097555
-0.00025685431 -0.0012699997 -0.00068211369
0.0023116849 -0.0012700006 -0.0017097564
0.00077056239 -0.0012699999 -0.0011959355
-0.0051370794 0.00014111139 -0.0063341465
-0.0051370785 -0.00014111114 -0.006334147
-0.0051370785 0.0001411116 -0.0068479669
-0.0051370785 -0.00014111098 -0.0068479669
-0.0043665171 -0.0012700006 -0.0011959346
-0.0038528086 -0.0012700006 -0.0011959346
-0.0047517978 -0.0012700005 -0.0022235774
-0.0066782031 -0.0012700002 -0.00016829185
-0.0066782031 -0.0012699997 -0.00068211369
-0.0056507867 -0.0012699995 -0.00016829278
-0.0051370785 -0.0012699997 -0.00016829278
0.0017979776 -0.0012700004 -0.0022235774
0.0012842698 -0.0012700002 -0.0022235774
0.0024401119 -0.00014111117 -0.01275691
-0.00012842697 0.00028222171 -0.018665854
-0.00074487663 0.00025399987 -0.019256746
-0.0051370794 -0.00014111149 -0.0032512201
-0.0047517987 -0.00084666646 -0.0022235774
-0.0051370794 -0.0012700002 -0.0022235783
-0.0017979781 -0.00084666727 -0.00016829278
-0.0012842698 -0.00084666739 -0.00016829278
-0.0012842695 -0.0002351857 -0.00021111034
-0.023245281 -0.0012700005 -0.00016829278
-0.023630563 -0.0012700005 -0.00016829278
-0.02414427 -0.0012700002 -0.00016829278
-0.032363594 -0.0012700005 -0.0017097564
-0.030694043 -0.00014111158 -0.0058203251
-0.03043719 0.00014111066 -0.006334147
-0.033134155 -0.00014111052 -0.0047926833
-0.033091348 -0.00014111066 -0.0068051484
-0.030694043 -0.00014111173 -0.0042788615
-0.030308764 -0.0012699995 -0.0022235774
-0.03043719 -0.0001411111 -0.0042788619
-0.031336181 -0.0012699998 -0.0022235774
-0.02414427 -0.0012700006 -0.0022235774
-0.023630561 -0.0012700001 -0.0022235774
-0.021832583 -0.0012700006 -0.0011959346
-0.021318875 -0.0012700004 -0.0022235783
-0.021832582 -0.0012700001 -0.0017097564
-0.020291459 -0.00127 -0.0022235774
-0.020291459 -0.00014111136 -0.0037650405
-0.022859998 -0.00014111101 -0.008646341
-0.019777752 -0.0012699994 -0.0017097564
-0.019777752 -0.00084666704 -0.0022235774
-0.019264044 -0.00084666681 -0.0022235774
-0.024657976 -0.0012700005 -0.0017097564
-0.02414427 -0.0012700001 -0.0011959346
-0.0087330341 -0.0012699997 -0.0017097564
-0.0087330341 -0.0012699994 -0.0011959346
-0.0087330323 -0.0012699999 -0.00068211276
-0.03043719 0.00014111055 -0.0042788619
-0.028125504 0.00014111123 -0.0032512196
-0.02876764 0.00084666698 -0.0022235783
-0.029281348 0.00084666623 -0.0022235774
-0.028125504 -0.00014111132 -0.0042788619
-0.028125504 0.0001411111 -0.003765041
-0.028125504 -0.000141111 -0.0037650401
-0.033005729 0.000141111 -0.01275691
-0.033005729 0.00014111133 -0.013784552
-0.032748874 0.00014111122 -0.013784553
-0.033005729 0.00014111046 -0.014812196
-0.028125504 0.00014111104 -0.013784552
0.0066782013 0.00028222214 -0.021234959
0.0047517978 0.00028222255 -0.019179674
0.029776709 -0.00082650827 -0.02121661
0.032748874 -0.00098777784 -0.019308129
0.033005729 -0.00014111052 -0.015839837
0.026199097 0.00084666663 -0.021234959
0.025685392 0.0012699999 -0.020721138
0.026712811 -0.00028222241 -0.021234959
0.027868651 0.00014111103 -0.022776421
0.033005729 -0.00014111084 -0.013784553
0.032748874 -0.00014111125 -0.015326016
0.032748874 -0.00014111058 -0.014812194
0.032748874 -0.00014111047 -0.014298374
0.027868651 -0.00084666727 -0.019308129
0.026712807 -0.0012699997 -0.020207316
0.025171684 -0.0012699999 -0.019693498
0.007320337 0.0001411105 -0.0095455283
0.013870111 0.0012699994 -0.0022235774
0.010274157 -0.00014111072 0.0012447154
0.022859998 -0.00014111103 -0.0096739829
0.022859998 0.00014111066 -0.0091601629
0.022859998 0.00014111061 -0.0096739838
0.022859998 -0.00014111091 -0.0091601619
0.015539662 -0.00014111161 -0.0096739829
0.020291461 0.00014111148 -0.013270731
0.022859998 0.00014111075 -0.012756911
0.022859998 -0.00014111096 -0.01275691
0.022859998 0.0001411108 -0.013270731
0.022859998 0.00014111078 -0.013784552
0.022859998 -0.00014111077 -0.013784553
0.020291459 -0.00014111132 -0.011729268
0.020291459 0.00014111104 -0.011729269
0.01772292 0.00014111158 -0.011729267
0.01772292 -0.00014111142 -0.011729267
0.015539663 -0.00014111171 -0.016353657
0.01271427 -0.00014111129 -0.015839837
0.015154383 -0.00014111162 -0.015326016
0.025556965 0.00014111064 -0.018152032
0.024786403 0.00098777772 -0.019308129
0.027226515 0.0012699998 -0.019693496
0.028125504 0.00014111065 -0.015326016
0.028125504 -0.0001411112 -0.015326016
0.028125504 -0.00014111158 -0.014812196
0.027868651 -0.00014111082 -0.015326016
0.027868651 -0.0001411111 -0.015839837
0.020291459 -0.0001411111 -0.014812196
0.020291461 0.0001411112 -0.014812194
0.020291459 0.0001411112 -0.014298375
0.0047517968 0.00014111122 -0.024317885
0.0047517978 0.00014111138 -0.024960162
0.0051113926 0.00019755583 -0.024292193
0.0051370785 0.00014111112 -0.024831709
0.0050942693 -0.00023518548 -0.022776423
-0.0051370785 0.00028222278 -0.019179674
-0.0051370785 -0.00014111125 -0.017252846
-0.0051370785 0.00014111157 -0.016867479
-0.0026969665 -0.00014111132 -0.017252846
-0.0024401122 -0.00028222273 -0.01763821
-0.0026969668 -0.00014111085 -0.01763821
-0.0051370785 -0.00014111146 -0.016353657
-0.0024401122 0.00014111141 -0.01763821
-0.0024401124 0.00014111126 -0.018152032
-0.0026969658 0.00028222249 -0.01763821
-0.0024401122 -0.00028222261 -0.018152032
-0.0026969665 -0.00014111062 -0.018152032
-0.0077056177 0.00028222275 -0.019693494
-0.0056507867 -0.0002822222 -0.019693496
-0.006164494 -0.00028222208 -0.019693496
-0.0082193259 -0.0012700001 -0.020849593
-0.0077056177 -0.00028222194 -0.019693494
-0.0097604496 -0.00084666611 -0.021234959
-0.0098888762 -0.00014111135 -0.022776421
-0.0098888762 -0.00014111146 -0.021748781
-0.006164494 0.00084666628 -0.021234959
-0.02876764 0.00084666692 -0.021106504
-0.028125504 0.00014111177 -0.022262599
-0.029281344 0.00028222214 -0.021234959
-0.0033391009 -0.00028222232 -0.019693494
-0.0033391013 -0.0012699997 -0.021234959
-0.0033391018 -0.00028222275 -0.020207316
-0.0028253938 -0.00028222194 -0.020207316
-0.00025685431 0.0012700004 -0.020849593
-0.0002568542 0.0012699995 -0.021234959
-0.010274157 -0.00014111112 -0.022262601
-0.020291459 0.00014111165 -0.003765041
0.01823663 -0.0012700001 -0.00016829278
0.01772292 -0.00014111135 0.0021439027
0.015539662 -0.00014111176 0.0021439027
0.01772292 -0.00014111077 0.0012447163
0.022859998 0.00014111047 0.0012447154
0.022859998 -0.00014111087 0.00085934903
0.023630561 -0.0002351853 -0.0002111122
0.020291459 -0.00014111116 0.0012447154
0.020805169 -0.0012699998 -0.00016829278
0.025556965 0.00014111133 0.0021439018
0.022859998 0.00127 -0.00016829278
0.022859998 0.00014111097 0.0021439027
0.021832582 0.00028222284 -0.00016829185
0.02234629 0.00089370337 -0.0002111122
0.020291459 0.00014111157 -0.0032512187
0.019264044 0.00084666722 -0.0022235783
0.019264046 0.00028222176 -0.0022235783
0.019777752 0.00084666669 -0.0022235783
0.025556965 0.00014111075 -0.006334146
0.025556965 0.00014111133 -0.0058203251
0.027868651 0.00014111177 -0.0047926824
0.03043719 -0.00014111059 -0.0042788624
0.03043719 0.00014111141 -0.0042788624
0.03043719 0.00014111164 -0.003765041
0.025300112 -0.00014111135 -0.0077471542
0.025300112 -0.00014111061 -0.0081325211
0.026180753 0.00030238033 -0.019198025
0.026199099 0.0012699994 -0.019693496
0.026199099 -0.0012699998 -0.020207316
0.025300112 -0.00014111138 -0.014812195
0.025300112 0.00014111077 -0.014812194
0.025300112 0.0001411108 -0.015326016
0.025556965 0.00014111065 -0.014298374
0.025556965 0.0001411105 -0.014812194
0.025300112 -0.00014111177 -0.013270731
0.025300112 0.00014111069 -0.01275691
0.028125504 -0.00014111072 -0.008646341
0.024657976 -0.0012699995 -0.019308129
0.025300112 -0.00014111098 -0.01275691
0.022859998 -0.00014111157 -0.01224309
0.025556965 -0.000141111 -0.0096739838
0.025300112 -0.00014111146 -0.0096739829
0.025556965 -0.00014111122 -0.0077471547
0.025556965 -0.00014111071 -0.011215447
0.025300112 -0.00014111119 -0.011729268
0.025556965 0.00014111082 -0.011215447
0.025556965 -0.000141111 -0.014812194
0.025556965 -0.00014111056 -0.015326016
0.028125504 -0.0001411112 -0.010701627
0.027868651 -0.00014111104 -0.010187806
0.027868651 -0.00014111116 -0.010701627
0.028125504 -0.00014111075 -0.010187805
0.028125504 0.00014111164 -0.010830081
0.027868651 -0.00014111096 -0.008646341
0.025300112 0.00014111081 -0.0081325211
0.025300112 0.00014111129 -0.008646341
0.025556965 0.00014111075 -0.008646341
0.025556965 0.00014111104 -0.0091601629
0.025300112 -0.00014111085 -0.008646341
0.025300112 -0.00014111125 -0.0091601629
0.010274157 -0.0012699994 -0.020335771
0.010274157 -0.00127 -0.020721138
0.0092467405 -0.00084666698 -0.021234959
0.0097604496 -0.00084666628 -0.021234959
0.012457415 0.00014111049 -0.023290243
0.012457415 -0.00014111151 -0.023804065
0.012714271 -0.0002351853 -0.024360701
0.01271427 0.00028222176 -0.023804065
0.012457416 0.00014111094 -0.01275691
0.0077056168 0.00014111096 -0.0081325211
0.010274157 0.00014111145 -0.0058203251
0.0098888753 0.00014111069 -0.0056918692
0.010274157 0.0001411111 -0.0053065042
0.010274157 0.0001411113 -0.0037650405
0.012457415 0.00014111064 -0.0042788615
0.019777752 0.0009877776 -0.019821951
0.01772292 0.00014111065 -0.0068479679
0.01772292 -0.00014111161 -0.0073617888
0.015154382 -0.00014111173 -0.0032512192
0.015154382 -0.00014111049 -0.003765041
0.014640673 -0.0012699998 -0.0022235783
0.011301572 -0.00089370366 -0.00021111127
0.011301573 -0.00023518548 -0.00021111034
0.011301573 0.00028222267 -0.00016829278
0.01181528 0.00089370413 -0.00021111127
0.01181528 0.00028222182 -0.00016829278
0.013356403 -0.00089370372 -0.00021111127
0.013870112 -0.00023518488 -0.00021111127
0.013356403 -0.00023518478 -0.00021111127
0.01181528 -0.0012700004 -0.0022235774
0.011815279 -0.00084666727 -0.0022235764
0.03043719 -0.00014111129 -0.0081325211
0.027868651 -0.00014111154 -0.0068479674
0.028125504 -0.00014111128 -0.0077471547
0.03043719 -0.00014111056 -0.012243089
0.028125504 0.00014111046 -0.012243088
0.027868651 -0.00014111065 -0.013270731
0.027868651 -0.0001411117 -0.013784552
0.030822471 -0.00084666675 -0.019308129
0.03043719 -0.00028222188 -0.018152032
0.028253933 -0.00084666611 -0.0022235783
0.02876764 -0.00084666687 -0.0022235774
0.028125504 -0.00014111103 0.00085934997
0.028253932 0.0012699994 -0.00068211276
-0.029795054 -0.0012699997 -0.0011959346
-0.028253932 -0.0012700001 -0.00068211369
-0.026712809 -0.0008466664 -0.00016829278
-0.026199099 -0.00084666716 -0.00016829185
-0.026712807 -0.00023518545 -0.00021111127
-0.026199099 -0.0012699998 -0.00016829278
-0.030694043 -0.00014111142 0.0012447145
-0.029281346 -0.00028222232 -0.00029674731
0.013870113 -0.0012700004 -0.020721138
0.013356404 -0.0012700006 -0.021234959
0.012842696 -0.0012700006 -0.021234959
0.020805169 -0.0012700006 -0.020721138
0.020291459 -0.0012700001 -0.021234959
0.020805169 -0.0012700001 -0.021234959
0.006164494 -0.00127 -0.020721138
0.0056507867 -0.0012699997 -0.020721138
0.0051370785 -0.00014111046 -0.015326016
0.0047517978 0.00014111126 -0.01494065
0.013870112 -0.0012700006 -0.00068211369
0.014255392 -0.0012699995 -0.0011959337
0.013870113 -0.0012700005 -0.0011959346
0.016181797 -0.0012699999 -0.0017097555
0.016181797 -0.0012699997 -0.00068211462
0.01271427 -0.00014111173 -0.013784552
0.013870113 -0.00028222182 -0.019308127
0.012328988 -0.00127 -0.020721138
0.012842696 -0.0012700001 -0.020721138
0.0098888762 -0.00014111177 -0.01275691
0.0098888762 0.00014111069 -0.01327073
0.010274156 -0.00014111164 -0.014298374
0.0098888762 -0.00014111064 -0.015326016
0.0098888772 -0.00014111114 -0.017766666
0.010231348 -0.00023518482 -0.018152034
0.0097861346 -0.00025399981 -0.019256748
0.01271427 -0.00014111062 -0.008646341
0.012457415 0.00014111055 -0.0081325211
0.01271427 0.00014111154 -0.0077471538
0.01271427 -0.00014111053 -0.0077471547
0.022859998 -0.00014111058 -0.013270731
0.022859998 0.00014111173 -0.012243089
0.022859998 -0.00014111136 -0.011729269
0.023630561 -0.00028222194 -0.019308129
0.021832582 -0.0012700005 -0.0011959346
0.021318875 -0.0012699998 -0.0011959337
0.01823663 -0.0012699997 -0.0017097564
0.01823663 -0.0012699994 -0.0011959346
0.01772292 -0.0012699997 -0.0011959346
0.014255392 0.00028222229 -0.0022235774
0.014255392 0.00084666739 -0.0022235774
0.013356403 0.00084666617 -0.0022235774
0.012328988 -0.0012699998 -0.00016829278
0.012842696 -0.0012699994 -0.00016829278
0.012714269 -0.00014111114 0.0016300809
0.014640674 -0.0012700005 -0.0011959346
0.014640674 -0.0012700001 -0.0017097564
0.023630563 -0.00127 -0.0011959355
0.023245281 -0.0012699997 -0.0011959346
-0.0051370794 -0.00014111139 0.00085934997
-0.0026969665 -0.00014111141 0.0012447154
0.033134155 0.00014111101 -0.018665852
0.033005729 0.00014111173 -0.016867479
0.032748874 0.00014111123 -0.012885366
0.032748874 0.00014111094 -0.013270732
0.033005729 0.00014111103 -0.013270732
0.031336181 -0.0012700002 -0.019821951
0.033005729 -0.00014111087 -0.0081325201
0.032748874 -0.00014111129 -0.008646341
0.030694043 -0.00014111171 -0.008646341
0.03043719 -0.00014111047 -0.0096739829
0.03043719 -0.00014111164 -0.010187805
0.032748874 -0.00014111077 -0.0096739829
0.030694043 0.00014111072 -0.0032512201
0.027868651 0.00014111117 -0.006334146
0.028125504 0.00014111082 -0.006205691
-0.0077056177 -0.0012700002 -0.0011959346
-0.017209213 -0.0012699994 -0.00016829371
-0.017209213 -0.00084666675 -0.00016829278
-0.016695505 -0.0012700005 -0.00016829278
-0.016695505 -0.00084666681 -0.00016829278
-0.0077056177 -0.00014111152 0.0012447154
-0.013356403 -0.0012699997 -0.00016829278
-0.013356403 -0.00084666733 -0.00016829185
-0.014255393 -0.00084666675 -0.00016829185
-0.013870113 -0.0008466671 -0.00016829278
-0.013870114 0.00127 -0.00016829278
-0.013356404 0.0012699998 -0.00016829371
-0.013870111 0.0012699997 -0.00068211369
-0.012328988 0.0012699995 -0.00068211369
-0.014255392 0.0012700006 -0.00068211369
-0.014255392 0.0012699998 -0.00016829185
-0.013870113 0.0012699994 -0.0011959337
-0.019777752 0.0012699999 -0.00068211369
-0.0028253938 0.0012699999 -0.00016829278
-0.0038528091 0.0012700002 -0.00068211462
0.0066782013 -0.00023518562 -0.00021111127
0.0066782022 0.0002822222 -0.00016829278
0.0077056168 -0.00014111122 0.0012447163
-0.0097604496 -0.0012699995 -0.00016829185
-0.010274156 -0.0012699999 -0.00016829278
-0.0077056177 -0.00014111078 -0.0091601629
-0.0051370794 0.00014111141 -0.0077471547
-0.0051370785 0.00014111106 -0.0081325192
-0.0051370794 -0.00014111047 -0.0081325201
-0.0098888762 0.00014111165 -0.0096739829
-0.0098888772 -0.00014111055 -0.0096739829
-0.01772292 -0.00014111138 -0.014812196
-0.01772292 -0.00014111161 -0.014298374
-0.01772292 0.00014111148 -0.014298374
-0.01772292 0.00014111064 -0.013784553
-0.01772292 -0.00014111066 -0.017252846
-0.012842696 -0.00014111087 -0.01275691
-0.012457415 -0.000141111 -0.01224309
-0.012714269 0.0001411111 -0.012243089
-0.012714269 0.00014111093 -0.01275691
-0.012714271 0.0001411111 -0.013270732
-0.012328988 -0.00098777842 -0.019308129
-0.012799886 -0.00023518583 -0.016867479
-0.012457415 -0.00014111173 -0.016867479
-0.012457415 -0.00014111096 -0.017252846
-0.012457415 -0.00014111142 -0.01763821
-0.0073203379 -0.00014111161 -0.01083008
-0.0051370785 -0.00014111141 -0.011729269
-0.007320337 -0.00014111085 -0.012114634
-0.0077056186 -0.00014111107 -0.011729268
-0.012457415 -0.00014111065 -0.010701627
-0.012457415 0.00014111125 -0.010701626
-0.0051370785 -0.00014111135 -0.0058203242
-0.0051370785 0.00014111052 -0.0058203246
-0.0071919095 0.00089370395 -0.00021111034
-0.023245281 0.00084666733 -0.021234959
-0.022859998 0.00014111058 -0.022262603
0.028125504 -0.00014111104 -0.018152032
0.02876764 -0.00084666663 -0.019308129
0.029281348 -0.00084666722 -0.019308129
0.028253932 -0.00084666611 -0.019308129
0.03043719 0.00014111144 -0.010187805
0.030694043 0.00014111161 -0.011729268
0.030694043 0.00014111103 -0.013784552
0.028125504 0.00014111062 -0.017252846
0.027868651 -0.00014111112 -0.017252846
0.030694043 -0.00014111152 -0.026244715
0.030694043 -0.00014111101 -0.025859348
0.030694043 -0.00014111075 -0.0063341465
0.030694043 -0.00014111049 -0.0058203242
0.03043719 -0.00014111128 -0.0058203242
0.028125504 -0.00014111123 -0.0068479669
0.03043719 -0.00014111059 -0.0073617892
0.03043719 -0.00014111052 -0.0068479679
0.030694043 0.00014111072 -0.0073617892
0.023245281 0.0012699999 -0.0017097564
0.022859998 0.00014111046 -0.0058203242
0.022859998 0.00014111053 -0.0068479679
0.02414427 0.0012699994 -0.0017097564
0.026199099 -0.0012699997 -0.0017097564
0.026712807 -0.00089370314 -0.00021111034
0.024657978 0.0012699993 -0.00068211369
0.027740225 0.0012700002 -0.00016829278
0.025300112 0.00014111177 -0.010701627
0.025300112 0.00014111161 -0.010187805
-0.015154382 -0.00014111064 -0.026244715
-0.015154383 0.00014111113 -0.026244715
-0.015154382 0.00014111081 -0.026630081
-0.015154381 -0.00014111081 -0.024831707
-0.015154383 -0.00014111128 -0.024317885
-0.017851347 0.00014111081 -0.027529269
-0.01772292 0.00014111151 -0.027143903
-0.017851347 -0.00014111126 -0.027529269
-0.020291459 0.00014111064 -0.024317885
-0.020291459 -0.00014111135 -0.024317885
-0.020291459 0.00014111158 -0.024831707
-0.020291459 -0.0001411112 -0.023804065
-0.015539663 -0.00014111154 -0.025987804
-0.01772292 -0.00014111135 -0.025859348
-0.01772292 0.0001411105 -0.025345527
-0.01772292 -0.00014111157 -0.025345527
-0.01772292 -0.00014111138 -0.026244715
-0.01772292 0.00014111146 -0.026244715
-0.021318875 0.00028222278 -0.021234959
-0.019777752 0.00084666681 -0.021234959
-0.022859998 0.00014111087 -0.025345527
-0.022859998 0.00014111078 -0.025859348
-0.021318875 0.0012700004 -0.021234959
-0.01772292 -0.0001411113 -0.024831707
-0.01772292 0.00014111154 -0.024831707
-0.018750336 0.00127 -0.020721138
-0.019264044 0.0012699994 -0.020721138
-0.0082193259 0.0012699999 -0.021234959
-0.014640674 0.00098777842 -0.01956504
-0.015154382 0.00098777725 -0.01956504
-0.010274156 0.00098777807 -0.019308129
-0.010787866 0.0012699997 -0.0022235774
-0.011301572 0.0012699994 -0.0022235774
-0.011301572 0.00084666617 -0.0022235774
-0.010787864 0.00084666727 -0.0022235774
-0.012457415 0.00014111157 -0.01275691
-0.010248472 0.00019755551 -0.016379349
-0.011815279 0.0012700005 -0.0011959346
-0.012457415 0.00014111173 -0.010187805
-0.01271427 0.00014111096 -0.0096739829
-0.01271427 0.00014111146 -0.010187805
-0.0098888772 0.0001411117 -0.011729268
-0.0098888772 0.00014111177 -0.01224309
-0.010274158 0.0001411108 -0.012243089
-0.0098888762 -0.00014111064 -0.012114635
-0.010274157 -0.00014111151 -0.012243089
-0.021318875 -0.00023518493 -0.00021111127
-0.020291459 -0.00014111178 -0.0032512196
-0.021318875 -0.00084666733 -0.0022235764
-0.021832582 -0.00084666617 -0.0022235774
-0.021318875 0.0008937036 -0.00021111127
-0.020805169 0.00084666675 -0.0022235774
-0.017209215 -0.00084666657 -0.020207316
-0.029795056 0.00084666669 -0.0022235774
-0.027868651 0.00014111144 -0.0053065037
-0.03043719 0.00014111113 -0.0081325201
-0.030694043 -0.00014111125 -0.0081325211
-0.03043719 0.00014111106 -0.008646341
-0.03043719 0.00014111142 -0.0091601629
-0.03043719 -0.00014111084 -0.0091601629
-0.03043719 0.00014111151 -0.0096739829
-0.028235586 0.00082650804 -0.0022052275
-0.030694043 0.00014111158 -0.013270731
-0.030694043 0.00014111075 -0.013656097
-0.03043719 0.00014111097 -0.013270731
-0.030308764 -0.0012700001 -0.019308129
-0.025556965 -0.00014111075 -0.0032512192
-0.025556965 0.00014111176 -0.0032512201
-0.026712809 0.00028222226 -0.0022235783
-0.026712811 -0.00028222255 -0.0022235774
-0.026712809 -0.00084666611 -0.0022235774
-0.026199099 -0.00084666739 -0.0022235764
-0.026712811 0.00084666675 -0.0022235774
-0.025556965 -0.00014111049 -0.0037650401
-0.025556965 0.00014111085 -0.0037650405
-0.025300112 0.00014111113 -0.0037650405
-0.025556965 0.00014111126 -0.0042788615
-0.028125504 -0.00014111128 -0.0032512201
-0.029281348 -0.0012699995 -0.0022235774
-0.026712811 0.00028222211 -0.00016829278
-0.027868651 0.00014111065 -0.0077471538
-0.027868651 0.0001411111 -0.0081325211
-0.027868651 -0.00014111126 -0.0077471538
-0.028125504 -0.00014111123 -0.0073617888
-0.028125504 0.00014111082 -0.0091601629
-0.028125504 -0.0001411117 -0.0096739819
-0.022859998 0.00014111065 -0.0053065033
-0.025300112 -0.00014111171 -0.0032512196
-0.025685392 -0.0012699998 -0.0022235764
-0.025300112 -0.00014111113 -0.0037650401
-0.025300112 0.00014111173 -0.0032512201
-0.026199099 0.00084666739 -0.0022235774
-0.025685392 0.0012699999 -0.0022235774
-0.025300112 0.00014111128 -0.0042788624
-0.025300112 0.00014111178 -0.0047926828
-0.027868651 -0.00014111125 -0.0053065042
-0.029795056 -0.0008466664 -0.0022235774
-0.027868651 0.00014111066 0.0012447154
-0.027868651 0.00014111059 0.0021439036
-0.03043719 0.00014111151 0.0021439027
-0.028125504 0.00014111135 0.00085934997
-0.019820562 -0.00028222171 -0.019222494
-0.020291459 0.00014111091 -0.0068479674
-0.020291459 -0.0001411112 -0.0068479674
-0.022859998 0.00014111173 -0.0077471538
-0.022859998 0.00014111081 -0.0073617883
-0.025300112 -0.00028222246 -0.018665854
-0.026199099 -0.0012700001 -0.019693496
-0.026199099 -0.0012700002 -0.020207316
-0.025685392 -0.0012699997 -0.019693496
-0.014255392 0.00089370413 -0.00021111127
-0.014640675 0.00089370355 -0.00021111127
-0.012842696 0.00014111097 0.00085934997
-0.013870113 0.00028222171 -0.00016829185
-0.016181797 -0.0012700007 -0.00016829278
-0.016181797 -0.00084666628 -0.00016829371
-0.015668089 -0.00084666623 -0.00016829278
-0.015668089 -0.0012700006 -0.0017097564
-0.017209213 0.00089370325 -0.00021111127
-0.016695505 0.00089370314 -0.00021111127
-0.016181797 0.0012699995 -0.00016829278
-0.016181797 0.00089370424 -0.00021111127
-0.015668089 0.00089370419 -0.00021111127
-0.015154382 -0.00014111114 0.0016300809
-0.010787864 0.0008937043 -0.00021111127
-0.01772292 -0.0012699999 -0.00068211369
-0.023630561 -0.00023518477 -0.00021111127
-0.02414427 -0.00023518472 -0.00021111127
-0.023630563 -0.00084666704 -0.00016829371
-0.023245281 -0.00084666634 -0.00016829185
-0.025300112 0.00014111046 0.0016300809
-0.025556965 0.00014111072 0.0021439027
-0.025556965 -0.00014111098 0.0021439027
-0.025300112 0.00014111049 0.0021439018
-0.022859998 -0.00014111056 0.0012447145
-0.025300112 -0.00014111058 0.0008593509
-0.025171686 -0.0012699997 -0.00016829278
-0.01772292 0.00014111106 -0.003765041
-0.01772292 -0.00014111094 -0.0042788615
-0.01772292 0.00014111084 -0.0042788615
0.032748874 -0.00014111109 -0.010701625
0.023245281 0.0008937036 -0.00021111127
0.02414427 -0.00023518573 -0.00021111127
0.030308764 -0.0012699994 -0.00068211462
0.029795054 -0.0012699998 -0.0017097574
0.03043719 0.00014111053 -0.0047926824
0.030694043 0.0001411109 -0.0047926828
0.030694043 0.00014111165 -0.003765041
0.030694043 -0.00014111059 -0.0037650401
0.025556965 0.00014111075 -0.01275691
0.025556965 0.00014111103 -0.012243088
0.025300112 0.00014111176 -0.01224309
0.028125504 -0.00014111064 -0.014298374
0.028125504 0.00014111141 -0.014298375
0.028125504 -0.00014111103 -0.013784553
0.032748874 -0.00014111077 -0.013784552
0.027226515 0.00098777795 -0.019308129
0.028125504 -0.00014111141 -0.015839837
0.027868651 -0.00014111167 -0.016353657
0.030694043 0.00014111104 -0.01763821
0.030694043 -0.00014111064 -0.01763821
0.032748874 0.0001411111 -0.016995935
0.030694043 0.00014111164 -0.017252846
0.03043719 0.000141111 -0.01763821
0.032748874 -0.00014111088 -0.016867479
-0.023630563 0.0012699998 -0.00068211462
-0.022346292 0.0012699995 -0.0011959346
-0.01772292 -0.00014111101 -0.0077471547
-0.01772292 0.00014111123 -0.0081325211
-0.01772292 -0.00014111071 -0.0081325211
-0.01772292 0.00014111165 -0.0077471538
-0.01772292 0.00014111052 -0.008646341
-0.01772292 -0.0001411117 -0.008646341
-0.01772292 -0.00014111119 -0.010187805
-0.01772292 0.00014111164 -0.010187805
-0.01772292 -0.00014111161 -0.0096739829
-0.01772292 -0.0001411105 -0.006334146
-0.01772292 0.0001411111 -0.006334147
-0.01772292 -0.00014111162 -0.0053065033
-0.015154382 0.00014111165 -0.01275691
-0.015154381 0.00014111138 -0.013270731
-0.015154382 -0.00014111146 -0.013784553
-0.015154382 0.00014111061 -0.014298374
-0.01271427 0.00014111106 -0.014812196
-0.019777752 0.0012699998 -0.020721138
-0.013356403 0.00084666617 -0.0022235764
-0.014640673 0.00084666657 -0.0022235774
-0.014255391 0.00084666628 -0.0022235764
-0.015197192 0.00023518517 -0.0027373983
-0.01772292 0.00127 -0.0011959346
-0.018750336 0.0012700002 -0.0017097555
-0.01772292 0.0012699994 -0.00068211276
-0.015154383 0.0012700005 -0.00068211369
-0.016181797 0.0012699994 -0.0022235764
-0.016181797 0.00084666681 -0.0022235774
-0.016695505 0.0012699995 -0.0022235774
-0.01772292 -0.00014111072 -0.0047926824
-0.01772292 0.00014111053 -0.0047926828
-0.016181797 0.0012699998 -0.0017097574
-0.015539663 0.00014111074 -0.0095455274
-0.015539663 -0.00014111068 -0.0095455283
-0.015539663 0.00014111128 -0.0092886174
-0.015154382 0.00014111109 -0.011215447
-0.01271427 0.00014111107 -0.010701626
-0.012714271 0.00014111141 -0.011215447
-0.015154382 0.00014111077 -0.003765041
-0.01772292 0.00014111148 0.00085934997
-0.016695505 0.00028222179 -0.00016829278
-0.020805169 -0.0012699999 -0.020207316
0.017209213 0.0012699998 -0.020207316
-0.0033391018 0.0012699998 -0.0017097564
0.00025685376 0.00127 -0.0011959337
0.00077056215 0.0012700001 -0.0011959346
0.00025685341 0.0012699997 -0.00068211369
-0.0002568535 0.0012699994 -0.0011959346
-0.00077056198 0.0012700001 -0.0017097574
-0.00128427 0.00028222273 -0.00016829278
-0.00077056128 0.00028222168 -0.00016829371
-0.00077056186 0.0008937043 -0.00021111034
-0.00012842711 0.00014111056 0.00085934903
-0.0012842702 0.0012699995 -0.00016829278
0.014255393 0.0012700002 -0.0011959346
0.014255392 0.0012699997 -0.0017097564
0.015154381 0.0012699998 -0.0011959346
0.015668089 0.0012699997 -0.0011959346
0.017209213 0.0012699999 -0.0017097564
0.014255392 0.0012700002 -0.00068211369
0.014640673 0.0012700004 -0.0011959346
0.019264044 0.0012700002 -0.00068211369
0.012842697 0.0012699999 -0.0011959337
0.011301572 0.0012700004 -0.0011959346
0.011301572 0.0012700002 -0.00068211369
0.010274157 0.0012700006 -0.0011959346
0.013870113 0.0012700004 -0.00016829371
0.014255393 0.0012700004 -0.00016829278
0.01181528 0.0012699999 -0.00016829278
0.01772292 0.0012699999 -0.00016829278
0.015539662 0.00014111085 0.0012447145
0.015539661 0.00014111146 0.0016300799
0.015539663 -0.00014111125 0.0016300799
0.016181797 0.0012699998 -0.00068211369
0.015154382 0.00014111128 0.0012447154
0.015154381 -0.00014111114 0.0012447154
0.014640675 0.0012700001 -0.00068211369
0.0087330332 0.0012700001 -0.0022235783
0.0082193259 0.00127 -0.0017097564
0.010274157 0.00014111141 0.0016300809
0.0047517978 0.0012699998 -0.00068211369
-0.0071919104 0.0012700005 -0.0011959346
0.0007705618 0.00127 -0.00016829371
0.0012842703 0.0012699995 -0.00016829371
0.0012842702 0.0012700001 -0.00068211369
0.0051370775 0.0012700004 -0.00016829371
0.0066782022 0.0012699998 -0.00068211369
0.0066782022 0.0008937043 -0.00021111127
0.00077056116 -0.00084666733 -0.00016829278
0.00128427 -0.00089370378 -0.00021111127
0.0038528091 -0.0012699998 -0.0011959355
0.0024401119 -0.00014111066 -0.003765041
0.00012842665 0.00014111149 -0.0037650405
0.00012842647 -0.00014111056 -0.003765041
0.00012842636 -0.00014111149 -0.0042788615
0.0024401126 -0.00014111075 -0.0042788619
-0.00128427 0.0012699997 -0.0011959346
-0.00128427 0.0012699995 -0.0017097564
-0.00012842639 0.00014111138 -0.0037650405
-0.0038528091 -0.00127 -0.021234959
-0.0026969658 0.00014111101 -0.014298374
-0.0026969661 -0.00014111145 -0.014298374
-0.0024401126 -0.00014111122 -0.013270732
-0.0024401124 -0.00014111116 -0.013784552
-0.016695505 -0.0012700001 -0.021234959
-0.016181797 -0.0008466664 -0.021234959
-0.016695507 -0.00084666663 -0.021234959
-0.017209213 -0.00084666692 -0.021234959
-0.01181528 -0.0012699993 -0.020721138
-0.011258764 -0.00098777795 -0.019222494
-0.012457415 0.00014111098 0.0016300809
-0.012842696 0.00014111138 0.0016300818
-0.010248471 0.00019755545 0.0021695932
-0.0077056177 0.00014111046 0.0012447154
-0.010248472 0.00019755597 -0.0032255291
-0.011301572 -0.0012700005 -0.0022235783
-0.011815279 -0.0012699995 -0.0022235774
-0.01181528 -0.00084666716 -0.0022235774
-0.012457415 -0.00014111157 -0.0032512192
-0.011301573 -0.00084666623 -0.0022235774
0.0066782013 -0.0012699999 -0.00068211369
