# .PCD v0.7 - Point Cloud Data file format
VERSION 0.7
FIELDS x y z
SIZE 4 4 4
TYPE F F F
COUNT 1 1 1
WIDTH 1338
HEIGHT 1
VIEWPOINT 0 0 0 1 0 0 0
POINTS 1338
DATA ascii
-0.00127 0.00111125 -0.017575936
-0.0036512502 0.00015875 -0.0035524063
-0.0015875 -0.00127 -0.017575936
-0.00127 -0.00095249998 -0.017575936
-0.00127 -0.00127 -0.017575936
-0.00142875 0.00127 -0.017575936
-0.00142875 0.00111125 -0.017575936
-0.0020637501 0.00127 -0.017575936
-0.0019050001 0.00127 -0.017575936
-0.0019050001 0.00111125 -0.017575936
0.0015875 0 -0.023950268
0.0015875 0.00015875 -0.023950268
-0.0019050001 -0.00095249998 -0.017575936
-0.0019050001 -0.00127 -0.017575936
-0.00174625 -0.00127 -0.017575936
-0.0020637501 0.00111125 -0.017575936
-0.0039687501 0.0003175 -0.0035524063
-0.0039687501 0.00015875 -0.0035524063
-0.0039687501 0 -0.0035524063
-0.0039687501 -0.00015875 -0.0035524063
-0.0039687501 -0.0003175 -0.0035524063
-0.00174625 0.00127 -0.017575936
-0.00174625 0.00111125 -0.017575936
0.00127 -0.0003175 -0.023950268
0.00127 0.0003175 -0.023950268
-0.0038100001 -0.0003175 -0.0035524063
0.00142875 -0.0003175 -0.023950268
0.00142875 -0.00015875 -0.023950268
0.00142875 0.0003175 -0.023950268
-0.00174625 -0.00095249998 -0.017575936
-0.00142875 -0.0003175 -0.0035524063
-0.00015875 -0.00127 -0.017575936
-0.0003175 0.00127 -0.017575936
-0.0015875 0 -0.0035524063
-0.0015875 -0.00015875 -0.0035524063
-0.0003175 -0.00127 -0.017575936
-0.00047625002 0.00127 -0.017575936
0 -0.00127 -0.017575936
0 -0.000635 -0.017575936
0 -0.00079374999 -0.017575936
-0.00127 0.0003175 -0.0035524063
-0.00127 -0.0003175 -0.0035524063
-0.00015875 0.00127 -0.017575936
-0.00142875 0.0003175 -0.0035524063
-0.00142875 0.00015875 -0.0035524063
-0.00095250004 0.00127 -0.017575936
-0.00079374999 -0.00095249998 -0.017575936
-0.00079374999 -0.00127 -0.017575936
-0.00095250004 0.00111125 -0.017575936
-0.00095250004 -0.00095249998 -0.017575936
-0.00095250004 -0.00127 -0.017575936
-0.00111125 0.00127 -0.017575936
-0.00111125 0.00111125 -0.017575936
-0.00047625002 -0.00127 -0.017575936
-0.000635 0.00127 -0.017575936
-0.0020637501 -0.00095249998 -0.017575936
-0.000635 -0.00127 -0.017575936
-0.00079374999 0.00127 -0.017575936
-0.00079374999 0.00111125 -0.017575936
0.0039687501 0.00015875 -0.023950268
0.0038100001 0.0003175 -0.023950268
0.0039687501 -0.0003175 -0.023950268
0.0039687501 -0.00015875 -0.023950268
0.0039687501 0 -0.023950268
0.0039687501 0.0003175 -0.023950268
-0.00095250004 -0.00015875 0.00090962567
0.0034924999 0 -0.023950268
0.0034924999 0.00015875 -0.023950268
0.0036512502 -0.0003175 -0.023950268
0.0036512502 -0.00015875 -0.023950268
0.0036512502 0.0003175 -0.023950268
0.0038100001 -0.0003175 -0.023950268
0.0074612503 0 -0.0011620321
0.0074612503 0.00015875 -0.0011620321
0.0074612503 0.000635 -0.0011620321
0.0074612503 0.00079374999 -0.0011620321
0.0074612503 0.00095249998 -0.0011620321
0.0074612503 -0.00015875 -0.0011620321
0.0065087499 0.00015875 -0.0037117647
0.0065087499 0 -0.0037117647
-0.0041275001 -0.00127 -0.017575936
0.0063499999 0.0003175 -0.0037117647
0.0063499999 -0.00015875 -0.0037117647
0.0061912499 0.0003175 -0.0037117647
0.0061912499 0.00015875 -0.0037117647
0.0073025003 0.00111125 -0.0011620321
0.0074612503 -0.00079374999 -0.0011620321
0.0074612503 -0.000635 -0.0011620321
0.0074612503 -0.00047624999 -0.0011620321
-0.0061912499 0 -0.0035524063
-0.0061912499 -0.0003175 -0.0035524063
-0.0063499999 -0.0003175 -0.0035524063
-0.0065087499 0 -0.0035524063
-0.0065087499 -0.00015875 -0.0035524063
-0.0020637501 -0.00127 -0.017575936
0.0068262499 0.00111125 -0.0011620321
0.0071437503 0.00111125 -0.0011620321
-0.00127 0.0003175 0.00090962567
0.0073025003 -0.00095249998 -0.0011620321
-0.00127 -0.0003175 0.00090962567
-0.00111125 0.00015875 0.00090962567
0.0069849999 0.00111125 -0.0011620321
-0.0036512502 -0.0003175 -0.023950268
-0.0038100001 0.0003175 -0.023950268
0.00254 -0.00127 -0.017575936
0.00238125 0.00127 -0.017575936
0.00238125 0.00095249998 -0.017575936
-0.0038100001 -0.0003175 -0.023950268
-0.0036512502 0.00015875 -0.023950268
-0.0039687501 0.00015875 -0.023950268
0.00269875 -0.00127 -0.017575936
0.00254 0.00127 -0.017575936
-0.0039687501 -0.0003175 -0.023950268
-0.0039687501 -0.00015875 -0.023950268
-0.0039687501 0 -0.023950268
0.00238125 -0.00127 -0.017575936
-0.0039687501 0.0003175 -0.023950268
0.0015875 0.00015875 -0.0035524063
0.0015875 0 -0.0035524063
0.00127 0.0003175 -0.0035524063
0.00127 -0.0003175 -0.0035524063
0.0020637501 -0.000635 -0.017575936
0.0020637501 -0.00079374999 -0.017575936
0.0020637501 -0.00127 -0.017575936
0.0019050001 0.00127 -0.017575936
0.00111125 0.0003175 -0.0035524063
0.00111125 -0.00015875 -0.0035524063
0.0019050001 0.000635 -0.017575936
0.00142875 -0.00015875 -0.0035524063
0.0022225 0.00127 -0.017575936
0.0022225 0.00095249998 -0.017575936
-0.0034924999 -0.00015875 -0.023950268
-0.0034924999 0 -0.023950268
0.00142875 0.0003175 -0.0035524063
0.00142875 -0.0003175 -0.0035524063
0.0022225 -0.00127 -0.017575936
0.0020637501 0.00127 -0.017575936
0.0020637501 0.000635 -0.017575936
0.0036512502 0.0003175 -0.0035524063
0.0036512502 -0.00015875 -0.0035524063
0.0033337499 0.00127 -0.017575936
0.0034924999 0.00015875 -0.0035524063
0.0034924999 0 -0.0035524063
0.003175 0.00127 -0.017575936
0.0039687501 -0.0003175 -0.0035524063
0.0034924999 0.00127 -0.017575936
0.0039687501 0.0003175 -0.0035524063
0.0039687501 0.00015875 -0.0035524063
0.0039687501 0 -0.0035524063
0.0039687501 -0.00015875 -0.0035524063
0.0038100001 0.0003175 -0.0035524063
0.0038100001 -0.0003175 -0.0035524063
-0.00142875 -0.0003175 0.00090962567
0.0066674999 -0.00111125 -0.0011620321
0.0028575 0.00127 -0.017575936
0.00269875 0.00127 -0.017575936
0.00301625 0.00127 -0.017575936
-0.00142875 0.0003175 -0.023950268
0.000635 -0.000635 -0.017575936
0.000635 -0.00079374999 -0.017575936
0.000635 -0.00127 -0.017575936
-0.00142875 -0.0003175 -0.023950268
-0.00142875 0.00015875 -0.023950268
0.00047625002 0.00127 -0.017575936
0.00047625002 0.000635 -0.017575936
-0.00127 -0.0003175 -0.023950268
-0.00095250004 -0.00015875 -0.0035524063
0.00095250004 -0.00079374999 -0.017575936
0.00095250004 -0.00127 -0.017575936
0.00079374999 0.00127 -0.017575936
0.00079374999 0.000635 -0.017575936
0.00079374999 -0.000635 -0.017575936
0.00079374999 -0.00079374999 -0.017575936
0.00079374999 -0.00127 -0.017575936
0.000635 0.00127 -0.017575936
-0.0015875 -0.00015875 -0.023950268
-0.0015875 0 -0.023950268
0.000635 0.000635 -0.017575936
0.00015875 -0.00079374999 -0.017575936
0.0003175 -0.00127 -0.017575936
0.00015875 0.00127 -0.017575936
-0.00095250004 -0.00015875 -0.023950268
0.00015875 0.000635 -0.017575936
0.00015875 -0.000635 -0.017575936
0.00015875 -0.00127 -0.017575936
0 0.00127 -0.017575936
0 0.00079374999 -0.017575936
0 0.000635 -0.017575936
-0.00127 0.0003175 -0.023950268
0.00047625002 -0.000635 -0.017575936
0.00047625002 -0.00079374999 -0.017575936
0.00047625002 -0.00127 -0.017575936
-0.00111125 0.00015875 -0.0035524063
0.0003175 0.00127 -0.017575936
0.0003175 0.000635 -0.017575936
0.00095250004 -0.000635 -0.017575936
-0.00111125 0.00015875 -0.023950268
0.0003175 -0.000635 -0.017575936
0.0003175 -0.00079374999 -0.017575936
0.0015875 -0.000635 -0.017575936
0.0015875 -0.00079374999 -0.017575936
0.0015875 -0.00127 -0.017575936
0.00142875 0.00127 -0.017575936
0.00142875 0.000635 -0.017575936
0.0019050001 -0.000635 -0.017575936
0.00095250004 0.00015875 -0.0035524063
0.0019050001 -0.00079374999 -0.017575936
0.0019050001 -0.00127 -0.017575936
0.00174625 0.00127 -0.017575936
0.00174625 0.000635 -0.017575936
0.00174625 -0.000635 -0.017575936
0.00174625 -0.00079374999 -0.017575936
0.00174625 -0.00127 -0.017575936
0.0015875 0.00127 -0.017575936
0.0015875 0.000635 -0.017575936
0.00111125 -0.00079374999 -0.017575936
0.00127 -0.00111125 -0.017575936
0.00127 -0.00127 -0.017575936
0.00111125 0.00127 -0.017575936
0.00111125 0.000635 -0.017575936
0.00111125 -0.000635 -0.017575936
0.00127 -0.00079374999 -0.017575936
0.00111125 -0.00127 -0.017575936
0.00095250004 0.00127 -0.017575936
0.00095250004 0.000635 -0.017575936
0.0066674999 0.00111125 -0.0011620321
0.00142875 -0.000635 -0.017575936
-0.00142875 0.00015875 0.00090962567
0.00142875 -0.00079374999 -0.017575936
0.00142875 -0.00127 -0.017575936
0.00127 0.00127 -0.017575936
0.0061912499 0 -0.0037117647
-0.00142875 0.0003175 0.00090962567
0.00127 0.000635 -0.017575936
0.0068262499 -0.00111125 -0.0011620321
0.00127 -0.000635 -0.017575936
-0.0071437503 -0.00111125 -0.0010026738
0.0038100001 0.00127 -0.017735295
-0.0065087499 0 -0.0037117647
-0.0065087499 -0.00015875 -0.0037117647
0.0039687501 -0.00127 -0.017735295
-0.0039687501 0.0003175 0.00043155081
-0.0039687501 0.00015875 0.00043155081
0.0038100001 -0.00127 -0.017735295
0.0036512502 0.00127 -0.017735295
0.0041275001 -0.00127 -0.017735295
0.0039687501 0.00127 -0.017735295
-0.0061912499 0 -0.0037117647
-0.0061912499 -0.0003175 -0.0037117647
-0.0063499999 -0.0003175 -0.0037117647
-0.0068262499 -0.00111125 -0.0010026738
0.0036512502 -0.00127 -0.017735295
0.0034924999 0.00127 -0.017735295
-0.0039687501 0 0.00043155081
-0.0039687501 -0.00015875 0.00043155081
-0.0069849999 -0.00111125 -0.0010026738
-0.0039687501 -0.0003175 0.00043155081
-0.0039687501 0.0003175 -0.0037117647
-0.0039687501 0.00015875 -0.0037117647
-0.0038100001 -0.0003175 -0.023790909
-0.0038100001 0.0003175 -0.023790909
-0.0039687501 0 -0.0037117647
-0.0039687501 -0.00015875 -0.0037117647
-0.0039687501 -0.0003175 -0.0037117647
-0.0036512502 -0.0003175 -0.023790909
-0.0036512502 0.00015875 -0.023790909
-0.0036512502 -0.0003175 -0.0037117647
-0.0038100001 0.0003175 -0.0037117647
-0.0038100001 -0.0003175 -0.0037117647
-0.0039687501 -0.0003175 -0.023790909
-0.0039687501 -0.00015875 -0.023790909
-0.0039687501 0 -0.023790909
-0.0039687501 0.00015875 -0.023790909
-0.0039687501 0.0003175 -0.023790909
0.0042862501 -0.00127 -0.017735295
0.0041275001 0.00127 -0.017735295
-0.0073025003 0.00095249998 -0.0010026738
-0.0034924999 -0.00015875 -0.023790909
-0.0034924999 0 -0.023790909
0.0042862501 0.00127 -0.017735295
0.00254 -0.00127 -0.017735295
0.00238125 0.00127 -0.017735295
0.00269875 -0.00127 -0.017735295
0.00254 0.00127 -0.017735295
0.0065087499 0.00015875 -0.0038711231
0.0065087499 0 -0.0038711231
0.0022225 -0.00127 -0.017735295
0.0020637501 0.00127 -0.017735295
0.0063499999 0.0003175 -0.0038711231
0.0063499999 -0.00015875 -0.0038711231
0.00238125 -0.00127 -0.017735295
0.0022225 0.00127 -0.017735295
0.0033337499 -0.00127 -0.017735295
0.003175 0.00127 -0.017735295
-0.0015875 -0.00015875 -0.023790909
-0.0015875 0 -0.023790909
0.003175 -0.00127 -0.017735295
0.00301625 0.00127 -0.017735295
-0.00142875 -0.0003175 -0.023790909
-0.00142875 0.00015875 -0.023790909
-0.00142875 0.0003175 -0.023790909
-0.0066674999 -0.00111125 -0.0010026738
0.0034924999 -0.00127 -0.017735295
0.0033337499 0.00127 -0.017735295
0.00269875 0.00127 -0.017735295
-0.00111125 0.00015875 -0.023790909
0.0028575 -0.00127 -0.017735295
-0.00095250004 -0.00015875 -0.023790909
-0.00127 -0.0003175 -0.023790909
-0.00127 0.0003175 -0.023790909
0.00301625 -0.00127 -0.017735295
0.0028575 0.00127 -0.017735295
0.00127 0.0003175 -0.0037117647
0.00127 -0.0003175 -0.0037117647
0.00111125 0.0003175 -0.0037117647
0.00111125 -0.00015875 -0.0037117647
0.0015875 0.00015875 -0.0037117647
0.0015875 0 -0.0037117647
0.00142875 0.0003175 -0.0037117647
0.00142875 -0.00015875 -0.0037117647
0.00142875 -0.0003175 -0.0037117647
-0.0073025003 0.00047624999 -0.017575936
-0.0034924999 0 0.00043155081
-0.0063499999 -0.0003175 0.0021844921
-0.0065087499 -0.00015875 0.0021844921
-0.0074612503 0.00047624999 -0.017575936
-0.0034924999 -0.00015875 0.00043155081
-0.0074612503 0.0003175 -0.017575936
-0.0074612503 0.00015875 -0.017575936
-0.0074612503 0 -0.017575936
-0.0074612503 -0.00015875 -0.017575936
-0.0061912499 -0.0003175 0.0021844921
-0.0068262499 0.00047624999 -0.017575936
-0.0061912499 0 0.0021844921
0.00095250004 0.00015875 -0.0037117647
-0.0069849999 0.00047624999 -0.017575936
-0.0071437503 0.00047624999 -0.017575936
0.0039687501 0.0003175 -0.0037117647
0.0039687501 0.00015875 -0.0037117647
0.0039687501 0 -0.0037117647
0.0038100001 0.0003175 -0.0037117647
0.0038100001 -0.0003175 -0.0037117647
0.0036512502 0.0003175 -0.0037117647
0.0036512502 -0.00015875 -0.0037117647
0.0036512502 -0.0003175 -0.0037117647
0.0034924999 0.00015875 -0.0037117647
0.0034924999 0 -0.0037117647
0.0061912499 -0.00015875 -0.0037117647
-0.0042862501 -0.00127 -0.017575936
0.0063499999 0.0003175 -0.023950268
0.0065087499 0 -0.023950268
0.0065087499 0.00015875 -0.023950268
0.0063499999 -0.00015875 -0.023950268
0.0061912499 -0.00015875 -0.023950268
0.0061912499 0 -0.023950268
0.0061912499 0.00015875 -0.023950268
0.0061912499 0.0003175 -0.023950268
-0.0038100001 -0.0003175 0.00043155081
-0.00127 -0.0003175 -0.0037117647
-0.00142875 0.0003175 -0.0037117647
-0.00142875 0.00015875 -0.0037117647
-0.00142875 -0.0003175 -0.0037117647
-0.0015875 0 -0.0037117647
-0.0015875 -0.00015875 -0.0037117647
-0.00111125 0.00015875 -0.0037117647
-0.00095250004 -0.00015875 -0.0037117647
0.0061912499 -0.00111125 -0.017735295
-0.00127 0.0003175 -0.0037117647
-0.0036512502 0.00015875 -0.0037117647
-0.0036512502 0 -0.0037117647
0.0063499999 -0.00111125 -0.017735295
-0.0073025003 -0.00111125 -0.0010026738
0.0069849999 0.00111125 -0.017735295
0.0071437503 0.00111125 -0.017735295
-0.0074612503 -0.00079374999 -0.0010026738
-0.0074612503 -0.000635 -0.0010026738
-0.0074612503 -0.00095249998 -0.0010026738
-0.0074612503 -0.00015875 -0.0010026738
-0.0074612503 0 -0.0010026738
-0.0065087499 -0.00015875 -0.023790909
0.0074612503 0 -0.017735295
-0.0036512502 0.0003175 0.00043155081
-0.0036512502 0.00015875 0.00043155081
-0.0036512502 -0.0003175 0.00043155081
0.0074612503 0.00015875 -0.017735295
-0.0038100001 0.0003175 0.00043155081
0.0074612503 -0.00015875 -0.017735295
0.0074612503 -0.0003175 -0.017735295
0.0074612503 -0.00047624999 -0.017735295
0.0073025003 0.00111125 -0.017735295
0.0066674999 -0.00111125 -0.017735295
0.0065087499 -0.00111125 -0.017735295
0.0068262499 0.00111125 -0.017735295
-0.0074612503 0.00015875 -0.0010026738
-0.0063499999 -0.0003175 -0.023790909
-0.0074612503 0.0003175 -0.0010026738
-0.0074612503 0.00047624999 -0.0010026738
0.0068262499 -0.00111125 -0.017735295
0.0066674999 0.00111125 -0.017735295
-0.0061912499 -0.0003175 -0.023790909
-0.0061912499 0 -0.023790909
-0.0074612503 0.000635 -0.0010026738
0.0022225 -0.00047624999 -0.017416578
-0.0034924999 0 -0.0032336898
-0.0034924999 -0.00015875 -0.0032336898
0.0020637501 0.00111125 -0.017416578
0.0020637501 0.00047624999 -0.017416578
0.0020637501 0.0003175 -0.017416578
0.0020637501 0 -0.017416578
0.0020637501 -0.00015875 -0.017416578
0.0020637501 -0.0003175 -0.017416578
-0.0036512502 0.00015875 -0.0032336898
0.0022225 -0.0003175 -0.017416578
-0.0036512502 -0.0003175 -0.0032336898
0.0020637501 -0.00047624999 -0.017416578
0.0019050001 0.00111125 -0.017416578
0.0019050001 0.00047624999 -0.017416578
0.0019050001 0 -0.017416578
0.0019050001 -0.00015875 -0.017416578
0.0019050001 -0.0003175 -0.017416578
0.0019050001 -0.00047624999 -0.017416578
0.0019050001 -0.00095249998 -0.017416578
0.00238125 0.0003175 -0.017416578
0.00254 0 -0.017416578
0.00254 -0.00015875 -0.017416578
0.00254 -0.0003175 -0.017416578
0.00254 -0.00047624999 -0.017416578
0.0042862501 0.00127 -0.0011620321
0.00238125 0.00047624999 -0.017416578
-0.0038100001 0.0003175 -0.0032336898
0.00238125 0.00015875 -0.017416578
0.00238125 0 -0.017416578
0.00238125 -0.00015875 -0.017416578
0.00238125 -0.0003175 -0.017416578
0.00238125 -0.00047624999 -0.017416578
0.0022225 0.00111125 -0.017416578
0.0022225 0.00047624999 -0.017416578
0.0022225 0 -0.017416578
0.0022225 -0.00015875 -0.017416578
0.00142875 0.00111125 -0.017416578
-0.0039687501 0.00015875 -0.0032336898
-0.0039687501 0 -0.0032336898
-0.0039687501 -0.00015875 -0.0032336898
-0.0039687501 -0.0003175 -0.0032336898
0.0015875 -0.00047624999 -0.017416578
-0.0038100001 -0.0003175 -0.024109626
-0.0038100001 0.0003175 -0.024109626
0.00142875 0.00047624999 -0.017416578
0.00142875 -0.00047624999 -0.017416578
0.00127 0.00127 -0.017416578
0.00127 0.00111125 -0.017416578
-0.0036512502 -0.0003175 -0.024109626
0.00174625 -0.00047624999 -0.017416578
0.00174625 0.00111125 -0.017416578
0.00174625 0.00047624999 -0.017416578
0.00174625 0 -0.017416578
-0.0038100001 -0.0003175 -0.0032336898
0.00174625 -0.00015875 -0.017416578
0.00174625 -0.0003175 -0.017416578
0.00254 0.00015875 -0.017416578
0.00174625 -0.00095249998 -0.017416578
0.0015875 0.00111125 -0.017416578
-0.0039687501 0.0003175 -0.0032336898
0.0015875 0.00047624999 -0.017416578
-0.0039687501 -0.0003175 -0.024109626
-0.0039687501 -0.00015875 -0.024109626
-0.0039687501 0 -0.024109626
-0.0039687501 0.00015875 -0.024109626
-0.0039687501 0.0003175 -0.024109626
0.003175 0.00047624999 -0.017416578
-0.00095250004 -0.00015875 -0.0032336898
0.0033337499 -0.0003175 -0.017416578
0.0033337499 -0.00047624999 -0.017416578
0.0033337499 -0.00095249998 -0.017416578
0.0033337499 -0.00111125 -0.017416578
0.003175 0.00111125 -0.017416578
0.003175 0.00095249998 -0.017416578
-0.00111125 0.00015875 -0.0032336898
0.003175 -0.0003175 -0.017416578
0.003175 -0.00047624999 -0.017416578
-0.00127 0.0003175 -0.0032336898
-0.00127 -0.0003175 -0.0032336898
0.0036512502 -0.00047624999 -0.017416578
0.0036512502 -0.00095249998 -0.017416578
0.0036512502 -0.00111125 -0.017416578
0.0034924999 0.00111125 -0.017416578
0.0034924999 0.00095249998 -0.017416578
0.003175 -0.00095249998 -0.017416578
0.0034924999 -0.0003175 -0.017416578
0.0034924999 -0.00047624999 -0.017416578
0.0034924999 -0.00095249998 -0.017416578
0.0034924999 -0.00111125 -0.017416578
0.0033337499 0.00111125 -0.017416578
0.0033337499 0.00095249998 -0.017416578
0.00269875 0.0003175 -0.017416578
-0.0015875 -0.00015875 -0.0032336898
0.0028575 0.00047624999 -0.017416578
0.0028575 0.0003175 -0.017416578
0.0028575 0.00015875 -0.017416578
0.0028575 -0.00015875 -0.017416578
0.0028575 -0.0003175 -0.017416578
0.0028575 -0.00047624999 -0.017416578
0.0028575 -0.00095249998 -0.017416578
0.00269875 0.00111125 -0.017416578
0.00269875 0.00095249998 -0.017416578
0.00269875 0.00047624999 -0.017416578
-0.0015875 0 -0.0032336898
0.00269875 0.00015875 -0.017416578
0.00269875 0 -0.017416578
0.00269875 -0.00015875 -0.017416578
0.00269875 -0.0003175 -0.017416578
0.00269875 -0.00047624999 -0.017416578
0.00254 0.00111125 -0.017416578
0.00254 0.00047624999 -0.017416578
0.00254 0.0003175 -0.017416578
-0.00142875 -0.0003175 -0.0032336898
0.003175 -0.00111125 -0.017416578
0.00301625 0.00111125 -0.017416578
0.00301625 0.00095249998 -0.017416578
0.00301625 0.00047624999 -0.017416578
0.00301625 0.0003175 -0.017416578
-0.00142875 0.0003175 -0.0032336898
-0.00142875 0.00015875 -0.0032336898
0.00301625 -0.00015875 -0.017416578
0.00301625 -0.0003175 -0.017416578
0.00301625 -0.00047624999 -0.017416578
-0.00127 -0.0003175 0.00043155081
0.00301625 -0.00095249998 -0.017416578
0.00301625 -0.00111125 -0.017416578
0.0028575 0.00111125 -0.017416578
0.0028575 0.00095249998 -0.017416578
0 -0.00047624999 -0.017416578
-0.00015875 0.00047624999 -0.017416578
-0.00015875 -0.00047624999 -0.017416578
0.00015875 -0.00047624999 -0.017416578
-0.00142875 0.0003175 0.00043155081
-0.0034924999 -0.00015875 0.00090962567
-0.0034924999 0 0.00090962567
0 0.00047624999 -0.017416578
-0.00142875 0.00015875 0.00043155081
-0.000635 0.0003175 -0.017416578
-0.00047625002 -0.00047624999 -0.017416578
-0.000635 0.00047624999 -0.017416578
-0.00142875 -0.0003175 -0.024109626
-0.00142875 0.00015875 -0.024109626
-0.00142875 0.0003175 -0.024109626
-0.000635 -0.00047624999 -0.017416578
-0.00127 -0.0003175 -0.024109626
-0.0003175 0.00047624999 -0.017416578
-0.0003175 -0.00047624999 -0.017416578
-0.00047625002 0.00047624999 -0.017416578
-0.0015875 -0.00015875 -0.024109626
-0.0015875 0 -0.024109626
0.00095250004 -0.00047624999 -0.017416578
0.00095250004 -0.00095249998 -0.017416578
0.00079374999 0.00127 -0.017416578
0.00079374999 0.00111125 -0.017416578
0.00079374999 0.00047624999 -0.017416578
0.00079374999 -0.00047624999 -0.017416578
0.00079374999 -0.00095249998 -0.017416578
0.00079374999 -0.00111125 -0.017416578
-0.0034924999 -0.00015875 -0.024109626
-0.0036512502 0.0003175 -0.024109626
0.00127 0.00047624999 -0.017416578
0.00127 -0.00047624999 -0.017416578
0.00111125 0.00127 -0.017416578
0.00111125 0.00111125 -0.017416578
0.000635 0.00047624999 -0.017416578
-0.0034924999 0 -0.024109626
0.00111125 0.00047624999 -0.017416578
0.00111125 -0.00047624999 -0.017416578
0.00095250004 0.00127 -0.017416578
0.00095250004 0.00111125 -0.017416578
0.00095250004 0.00047624999 -0.017416578
0.00015875 0.00047624999 -0.017416578
-0.0065087499 0 -0.0032336898
-0.0065087499 -0.00015875 -0.0032336898
0.0003175 0.00047624999 -0.017416578
0.0003175 -0.00047624999 -0.017416578
0.00047625002 -0.00047624999 -0.017416578
0.00047625002 0.00047624999 -0.017416578
0.000635 -0.0003175 -0.017416578
0.000635 -0.00047624999 -0.017416578
-0.0061912499 0 -0.0032336898
-0.0061912499 -0.0003175 -0.0032336898
-0.0063499999 -0.0003175 -0.0032336898
0.0073025003 0.00015875 -0.017416578
0.0073025003 0 -0.017416578
0.0073025003 -0.00015875 -0.017416578
0.0071437503 0.00111125 -0.017416578
0.0071437503 0.00047624999 -0.017416578
0.0071437503 0.0003175 -0.017416578
0.0071437503 0.00015875 -0.017416578
0.0071437503 0 -0.017416578
0.0071437503 -0.00015875 -0.017416578
0.0039687501 0.00127 -0.0011620321
0.0071437503 -0.0003175 -0.017416578
0.0041275001 -0.00127 -0.0011620321
0.0073025003 0.0003175 -0.017416578
0.0069849999 0.00111125 -0.017416578
0.0069849999 0.00047624999 -0.017416578
0.0069849999 0.0003175 -0.017416578
0.0069849999 0.00015875 -0.017416578
-0.0066674999 -0.0003175 -0.017257219
0.0036512502 0.0003175 -0.0032336898
0.0036512502 -0.00015875 -0.0032336898
-0.0066674999 -0.00047624999 -0.017257219
-0.0068262499 -0.0003175 -0.017257219
0.0065087499 0 -0.0094486633
0.0065087499 0.00015875 -0.0094486633
0.0069849999 0 -0.017416578
0.0034924999 0.00015875 -0.0032336898
0.0034924999 0 -0.0032336898
0.0074612503 0.00047624999 -0.017416578
0.0074612503 0.0003175 -0.017416578
0.0074612503 0.00015875 -0.017416578
0.0074612503 0 -0.017416578
0.0074612503 -0.00015875 -0.017416578
0.0073025003 0.00111125 -0.017416578
0.0073025003 0.00047624999 -0.017416578
0.0063499999 -0.00015875 -0.024268985
0.0063499999 0.0003175 -0.024268985
0.0065087499 0 -0.024268985
0.0065087499 0.00015875 -0.024268985
0.0015875 0.00015875 -0.0032336898
0.0015875 0 -0.0032336898
0.0068262499 -0.00111125 -0.017416578
0.0069849999 -0.00015875 -0.017416578
0.0069849999 -0.0003175 -0.017416578
0.0068262499 0.00111125 -0.017416578
0.0068262499 0.00047624999 -0.017416578
0.0068262499 0.0003175 -0.017416578
0.0068262499 0.00015875 -0.017416578
0.0068262499 0 -0.017416578
0.0068262499 -0.0003175 -0.017416578
-0.0065087499 -0.00047624999 -0.017257219
0.0066674999 0.00111125 -0.017416578
0.0066674999 -0.0003175 -0.017416578
0.0061912499 -0.00015875 -0.024268985
0.0061912499 0 -0.024268985
0.0061912499 0.00015875 -0.024268985
0.0061912499 0.0003175 -0.024268985
0.0063499999 0.0003175 -0.0032336898
0.0065087499 0 -0.0032336898
0.0039687501 -0.00127 -0.0011620321
0.0065087499 0.00015875 -0.0032336898
0.0063499999 -0.00015875 -0.0032336898
-0.0039687501 -0.00047624999 -0.017257219
0.0061912499 0.0003175 -0.0032336898
0.0061912499 0.00015875 -0.0032336898
0.0061912499 0 -0.0032336898
-0.0034924999 0.00015875 -0.017257219
-0.00174625 -0.00047624999 -0.017257219
0.0039687501 -0.0003175 -0.024268985
0.0039687501 -0.00015875 -0.024268985
0.0039687501 0 -0.024268985
0.0039687501 0.00015875 -0.024268985
0.0039687501 0.0003175 -0.024268985
-0.0033337499 -0.00015875 -0.017257219
-0.0033337499 -0.0003175 -0.017257219
-0.0033337499 -0.00047624999 -0.017257219
0.0061912499 -0.00015875 -0.0032336898
-0.0034924999 -0.0003175 -0.017257219
-0.0034924999 -0.00047624999 -0.017257219
-0.0036512502 0.0003175 -0.017257219
0.0038100001 0.00127 -0.0011620321
-0.0060325 -0.0003175 -0.017257219
0.0039687501 0.0003175 -0.0032336898
0.0039687501 0.00015875 -0.0032336898
0.0039687501 0 -0.0032336898
0.0039687501 -0.00015875 -0.0032336898
-0.0061912499 -0.00047624999 -0.017257219
0.0039687501 -0.0003175 -0.0032336898
-0.00555625 -0.00047624999 -0.017257219
-0.0063499999 -0.00047624999 -0.017257219
0.0038100001 0.0003175 -0.0032336898
0.0038100001 -0.0003175 -0.0032336898
-0.0041275001 0.00015875 -0.017257219
-0.0041275001 0 -0.017257219
-0.0041275001 -0.00015875 -0.017257219
-0.0041275001 -0.0003175 -0.017257219
-0.0041275001 -0.00047624999 -0.017257219
-0.0042862501 0 -0.017257219
-0.0042862501 -0.0003175 -0.017257219
-0.0042862501 -0.00047624999 -0.017257219
-0.0044450001 -0.0003175 -0.017257219
-0.0036512502 -0.0003175 0.00090962567
0.0042862501 0.00095249998 -0.017416578
0.0044450001 -0.00015875 -0.017416578
0.0044450001 -0.0003175 -0.017416578
0.0044450001 -0.00047624999 -0.017416578
0.0044450001 -0.00095249998 -0.017416578
0.0042862501 -0.00047624999 -0.017416578
0.0041275001 0.00127 -0.0011620321
0.0042862501 -0.00127 -0.0011620321
0.0047625001 0.0003175 -0.017416578
0.0047625001 -0.00015875 -0.017416578
0.0047625001 -0.0003175 -0.017416578
0.0047625001 -0.00047624999 -0.017416578
0.0046037501 0.00111125 -0.017416578
0.0046037501 0.00095249998 -0.017416578
0.0046037501 0.00047624999 -0.017416578
-0.00095250004 0 0.00043155081
-0.00095250004 -0.00015875 0.00043155081
0.0042862501 -0.00095249998 -0.017416578
0.0046037501 -0.00015875 -0.017416578
0.0046037501 -0.0003175 -0.017416578
0.0046037501 -0.00047624999 -0.017416578
0.0044450001 0.00111125 -0.017416578
0.0044450001 0.00095249998 -0.017416578
0.0039687501 -0.00095249998 -0.017416578
-0.0063499999 -0.0003175 -0.024109626
0.0038100001 0.00111125 -0.017416578
0.0038100001 0.00095249998 -0.017416578
-0.0061912499 -0.0003175 -0.024109626
-0.0061912499 0 -0.024109626
0.0038100001 -0.00095249998 -0.017416578
-0.00127 0.0003175 0.00043155081
0.0036512502 0.00111125 -0.017416578
0.0036512502 0.00095249998 -0.017416578
0.0041275001 -0.00095249998 -0.017416578
0.0041275001 0.00095249998 -0.017416578
0.0041275001 0.00047624999 -0.017416578
-0.0036512502 0.00015875 0.00090962567
0.0041275001 -0.00047624999 -0.017416578
0.0047625001 0.00047624999 -0.017416578
-0.0036512502 0.0003175 0.00090962567
0.0039687501 0.00111125 -0.017416578
-0.0065087499 -0.00015875 -0.024109626
0.0039687501 0.00095249998 -0.017416578
0.00555625 0.00047624999 -0.017416578
0.00127 0.0003175 -0.0032336898
0.00127 -0.0003175 -0.0032336898
0.005715 0.0003175 -0.017416578
0.005715 0.00015875 -0.017416578
0.005715 0 -0.017416578
0.005715 -0.00015875 -0.017416578
0.005715 -0.0003175 -0.017416578
0.005715 -0.00047624999 -0.017416578
0.00555625 0.00111125 -0.017416578
0.005715 0.00047624999 -0.017416578
0.00555625 0.0003175 -0.017416578
0.00555625 0.00015875 -0.017416578
0.00555625 0 -0.017416578
0.00555625 -0.00015875 -0.017416578
0.00555625 -0.0003175 -0.017416578
0.00555625 -0.00047624999 -0.017416578
0.00111125 0.0003175 -0.0032336898
0.00111125 -0.00015875 -0.0032336898
0.0053975 0.00111125 -0.017416578
0.0061912499 -0.00047624999 -0.017416578
0.0060325 0.00111125 -0.017416578
0.0060325 -0.0003175 -0.017416578
0.0060325 -0.00047624999 -0.017416578
0.00587375 0.00111125 -0.017416578
0.00142875 0.0003175 -0.0032336898
0.0053975 0.00047624999 -0.017416578
0.00142875 -0.00015875 -0.0032336898
0.00142875 -0.0003175 -0.0032336898
0.00587375 0.00047624999 -0.017416578
0.00587375 0.0003175 -0.017416578
0.00587375 0 -0.017416578
0.00587375 -0.00015875 -0.017416578
0.00587375 -0.0003175 -0.017416578
0.00587375 -0.00047624999 -0.017416578
0.005715 0.00111125 -0.017416578
0.00508 -0.0003175 -0.017416578
0.00095250004 0.00015875 -0.0032336898
0.00508 0.00111125 -0.017416578
-0.0039687501 0.0003175 0.0021844921
-0.0039687501 0.00015875 0.0021844921
-0.0039687501 0 0.0021844921
-0.0039687501 -0.00015875 0.0021844921
-0.0039687501 -0.0003175 0.0021844921
0.00508 0.00047624999 -0.017416578
0.00508 0.0003175 -0.017416578
0.00508 0.00015875 -0.017416578
0.00508 0 -0.017416578
0.00508 -0.00015875 -0.017416578
0.00523875 -0.00047624999 -0.017416578
0.00508 -0.00047624999 -0.017416578
0.00492125 0.00111125 -0.017416578
0.00492125 0.0003175 -0.017416578
0.00492125 0.00015875 -0.017416578
0.00492125 0 -0.017416578
0.00492125 -0.00015875 -0.017416578
0.00492125 -0.0003175 -0.017416578
0.00492125 -0.00047624999 -0.017416578
0.0047625001 0.00111125 -0.017416578
0.0047625001 0.00095249998 -0.017416578
0.00523875 0.00111125 -0.017416578
-0.0036512502 0.0003175 0.0021844921
-0.0036512502 0.00015875 0.0021844921
-0.0036512502 -0.00015875 0.0021844921
-0.0036512502 -0.0003175 0.0021844921
0.0053975 0.0003175 -0.017416578
0.0053975 0.00015875 -0.017416578
0.0053975 0 -0.017416578
0.0053975 -0.00015875 -0.017416578
0.0053975 -0.0003175 -0.017416578
0.0053975 -0.00047624999 -0.017416578
-0.00127 0.0003175 -0.024109626
0.00523875 0.00047624999 -0.017416578
-0.0038100001 0.0003175 0.0021844921
-0.0038100001 -0.0003175 0.0021844921
0.00523875 0.0003175 -0.017416578
0.00523875 0.00015875 -0.017416578
0.00523875 0 -0.017416578
0.00523875 -0.00015875 -0.017416578
0.00523875 -0.0003175 -0.017416578
0.0060325 -0.00111125 -0.017575936
-0.0038100001 0.0003175 -0.0033930482
-0.0038100001 -0.0003175 -0.0033930482
0.00587375 0.00111125 -0.017575936
-0.0039687501 0.0003175 -0.0033930482
-0.0039687501 0.00015875 -0.0033930482
-0.0039687501 0 -0.0033930482
-0.0039687501 -0.00015875 -0.0033930482
-0.0039687501 -0.0003175 -0.0033930482
0.00587375 -0.00111125 -0.017575936
0.005715 0.00111125 -0.017575936
0.0061912499 -0.00111125 -0.017575936
0.0065087499 0.00015875 -0.024109626
0.0063499999 -0.00111125 -0.017575936
0.0061912499 0.00111125 -0.017575936
0.0060325 0.00111125 -0.017575936
-0.0036512502 0.00015875 -0.0033930482
-0.0036512502 -0.0003175 -0.0033930482
0.0053975 -0.00111125 -0.017575936
-0.0061912499 0 -0.0033930482
-0.0061912499 -0.0003175 -0.0033930482
0.00523875 0.00111125 -0.017575936
-0.0063499999 -0.0003175 -0.0033930482
-0.0065087499 0 -0.0033930482
0.005715 -0.00111125 -0.017575936
0.00555625 0.00111125 -0.017575936
0.00555625 -0.00111125 -0.017575936
0.0053975 0.00111125 -0.017575936
-0.0015875 -0.00015875 -0.0033930482
-0.00142875 -0.0003175 -0.0033930482
0.0071437503 0.00111125 -0.017575936
-0.0015875 0 -0.0033930482
-0.00142875 0.00015875 -0.0033930482
0.0069849999 0.00111125 -0.017575936
0.0068262499 0.00111125 -0.017575936
0.0074612503 0.00015875 -0.017575936
0.0074612503 0 -0.017575936
0.0074612503 -0.00015875 -0.017575936
0.0074612503 -0.0003175 -0.017575936
0.0074612503 -0.00047624999 -0.017575936
-0.00127 0.0003175 -0.0033930482
-0.00127 -0.0003175 -0.0033930482
0.0073025003 0.00111125 -0.017575936
-0.00142875 0.0003175 -0.0033930482
0.0065087499 0.00111125 -0.017575936
0.0061912499 -0.00015875 -0.024109626
0.0061912499 0 -0.024109626
0.0061912499 0.00015875 -0.024109626
0.0061912499 0.0003175 -0.024109626
0.0066674999 -0.00111125 -0.017575936
0.0063499999 0.0003175 -0.024109626
0.0065087499 -0.00111125 -0.017575936
0.0063499999 0.00111125 -0.017575936
0.0068262499 -0.00111125 -0.017575936
0.0066674999 0.00111125 -0.017575936
-0.0065087499 -0.00015875 -0.0033930482
-0.0061912499 0 -0.023950268
0.0065087499 0.00015875 -0.0035524063
0.0065087499 0 -0.0035524063
0.0063499999 -0.00111125 -0.0011620321
-0.0063499999 -0.0003175 -0.023950268
0.0044450001 -0.00111125 -0.017575936
-0.0061912499 -0.0003175 -0.023950268
0.0065087499 -0.00111125 -0.0011620321
0.0036512502 0.00127 -0.017575936
0.0061912499 0.00015875 -0.0035524063
0.0039687501 0.00127 -0.017575936
0.0063499999 0.0003175 -0.0035524063
0.0063499999 -0.00015875 -0.0035524063
0.0061912499 0.0003175 -0.0035524063
0.0061912499 0 -0.0035524063
0.0061912499 -0.00015875 -0.0035524063
0.0038100001 0.00127 -0.017575936
0.00508 -0.00111125 -0.017575936
0.00492125 0.00111125 -0.017575936
0.00523875 -0.00111125 -0.017575936
0.00508 0.00111125 -0.017575936
0.0046037501 -0.00111125 -0.017575936
0.0044450001 0.00111125 -0.017575936
-0.0065087499 -0.00015875 -0.023950268
-0.0065087499 0 -0.023950268
0.0061912499 -0.00111125 -0.0011620321
0.00492125 -0.00111125 -0.017575936
0.0047625001 0.00111125 -0.017575936
0.0047625001 -0.00111125 -0.017575936
0.0046037501 0.00111125 -0.017575936
-0.0015875 -0.00015875 0.00090962567
-0.0015875 0 0.00090962567
-0.00269875 -0.00127 -0.017416578
-0.00254 -0.00127 -0.017416578
-0.00269875 0.0003175 -0.017416578
-0.00269875 0.00015875 -0.017416578
-0.00269875 0 -0.017416578
-0.00269875 -0.00015875 -0.017416578
0.0038100001 0.0003175 -0.0033930482
-0.00269875 -0.0003175 -0.017416578
0.0038100001 -0.0003175 -0.0033930482
-0.00269875 -0.00047624999 -0.017416578
0.0039687501 0 -0.0033930482
0.0036512502 0.0003175 -0.0033930482
-0.0028575 0.0003175 -0.017416578
-0.0028575 0.00015875 -0.017416578
-0.0028575 0 -0.017416578
-0.0028575 -0.00015875 -0.017416578
-0.0028575 -0.0003175 -0.017416578
-0.0028575 -0.00047624999 -0.017416578
0.0036512502 -0.00015875 -0.0033930482
-0.0028575 -0.00127 -0.017416578
-0.00238125 -0.00015875 -0.017416578
-0.0020637501 -0.00127 -0.017416578
-0.0022225 0.0003175 -0.017416578
-0.0022225 0.00015875 -0.017416578
-0.0022225 0 -0.017416578
-0.0022225 -0.00015875 -0.017416578
-0.0022225 -0.0003175 -0.017416578
-0.0022225 -0.00047624999 -0.017416578
-0.0022225 -0.00127 -0.017416578
-0.00238125 0.0003175 -0.017416578
-0.00238125 0.00015875 -0.017416578
-0.00238125 0 -0.017416578
-0.00301625 0.0003175 -0.017416578
-0.00238125 -0.0003175 -0.017416578
-0.00238125 -0.00047624999 -0.017416578
-0.00238125 -0.00127 -0.017416578
-0.00254 0.0003175 -0.017416578
-0.00254 0.00015875 -0.017416578
-0.00254 0 -0.017416578
0.0039687501 0.0003175 -0.0033930482
-0.00254 -0.00015875 -0.017416578
-0.00254 -0.0003175 -0.017416578
-0.00254 -0.00047624999 -0.017416578
0.0039687501 0.00015875 -0.0033930482
-0.0034924999 0.0003175 -0.017416578
0.00127 0.0003175 -0.024109626
-0.0033337499 -0.00127 -0.017416578
0.0034924999 0.00015875 -0.0033930482
0.00142875 -0.0003175 -0.024109626
0.00142875 -0.00015875 -0.024109626
0.00142875 0.0003175 -0.024109626
0.0034924999 0 -0.0033930482
0.0015875 0 -0.024109626
0.0015875 0.00015875 -0.024109626
-0.0034924999 -0.00127 -0.017416578
-0.00301625 0.00015875 -0.017416578
-0.00301625 -0.00015875 -0.017416578
-0.00301625 -0.0003175 -0.017416578
-0.00301625 -0.00047624999 -0.017416578
0.00095250004 0.00015875 -0.024109626
-0.00301625 -0.00127 -0.017416578
-0.003175 0.0003175 -0.017416578
0.00111125 -0.00015875 -0.024109626
0.00111125 0.0003175 -0.024109626
-0.003175 -0.00047624999 -0.017416578
-0.003175 -0.00127 -0.017416578
-0.0033337499 0.0003175 -0.017416578
0.00127 -0.0003175 -0.024109626
0.0065087499 0.00015875 -0.0033930482
0.0065087499 0 -0.0033930482
0.0063499999 0.0003175 -0.0033930482
-0.00142875 -0.00127 -0.017416578
-0.00095250004 0.00047624999 -0.017416578
-0.00079374999 0.00047624999 -0.017416578
-0.00079374999 0.0003175 -0.017416578
-0.00095250004 -0.00015875 -0.024109626
-0.00111125 0.00047624999 -0.017416578
-0.0019050001 0.0003175 -0.017416578
-0.0019050001 0.00015875 -0.017416578
-0.0019050001 0 -0.017416578
-0.0019050001 -0.0003175 -0.017416578
-0.0019050001 -0.00047624999 -0.017416578
-0.0019050001 -0.00127 -0.017416578
-0.00174625 -0.00127 -0.017416578
-0.0020637501 0.0003175 -0.017416578
-0.0020637501 0.00015875 -0.017416578
-0.0020637501 0 -0.017416578
-0.0020637501 -0.00015875 -0.017416578
0.0063499999 -0.00015875 -0.0033930482
0.0061912499 0.0003175 -0.0033930482
0.0061912499 0.00015875 -0.0033930482
0.0061912499 0 -0.0033930482
0.0061912499 -0.00015875 -0.0033930482
-0.0015875 -0.00127 -0.017416578
-0.00142875 -0.0003175 0.00043155081
-0.00174625 0.0003175 -0.017416578
-0.005715 -0.00015875 -0.017416578
-0.005715 -0.0003175 -0.017416578
0.0038100001 -0.0003175 -0.024109626
0.0038100001 0.0003175 -0.024109626
-0.00587375 -0.0003175 -0.017416578
-0.005715 0 -0.017416578
0.0039687501 -0.0003175 -0.024109626
0.0039687501 -0.00015875 -0.024109626
0.0039687501 0 -0.024109626
0.0039687501 0.00015875 -0.024109626
0.0039687501 0.0003175 -0.024109626
-0.00555625 0.00047624999 -0.017416578
-0.00523875 -0.0003175 -0.017416578
-0.00523875 -0.00047624999 -0.017416578
-0.0053975 0.00047624999 -0.017416578
-0.0053975 0.0003175 -0.017416578
-0.0053975 0.00015875 -0.017416578
-0.0053975 0 -0.017416578
-0.0053975 -0.00015875 -0.017416578
-0.0053975 -0.0003175 -0.017416578
0.0034924999 0 -0.024109626
0.0034924999 0.00015875 -0.024109626
-0.00555625 0.00015875 -0.017416578
-0.00555625 0 -0.017416578
-0.00555625 -0.00015875 -0.017416578
-0.00555625 -0.0003175 -0.017416578
0.0036512502 -0.0003175 -0.024109626
0.0036512502 -0.00015875 -0.024109626
0.0036512502 0.0003175 -0.024109626
-0.005715 0.00015875 -0.017416578
-0.0073025003 -0.00015875 -0.017416578
-0.0069849999 -0.00015875 -0.017416578
-0.0069849999 -0.0003175 -0.017416578
-0.0069849999 -0.00047624999 -0.017416578
-0.0071437503 -0.00015875 -0.017416578
-0.0071437503 -0.0003175 -0.017416578
-0.0071437503 -0.00047624999 -0.017416578
-0.0073025003 -0.0003175 -0.017416578
-0.0073025003 -0.00047624999 -0.017416578
-0.00095250004 -0.00015875 -0.0033930482
-0.0074612503 -0.00015875 -0.017416578
-0.0074612503 -0.0003175 -0.017416578
-0.0074612503 -0.00047624999 -0.017416578
-0.00111125 0.00015875 -0.0033930482
-0.00523875 -0.00015875 -0.017416578
-0.0041275001 -0.00127 -0.017416578
-0.0042862501 -0.00127 -0.017416578
-0.0044450001 0.0003175 -0.017416578
-0.0044450001 0.00015875 -0.017416578
-0.0036512502 -0.00127 -0.017416578
-0.0038100001 -0.00127 -0.017416578
-0.0015875 0 0.00043155081
-0.0039687501 -0.00127 -0.017416578
-0.00508 0.00047624999 -0.017416578
0.00127 0.0003175 -0.0033930482
0.00127 -0.0003175 -0.0033930482
-0.00492125 -0.00015875 -0.017416578
-0.00492125 -0.0003175 -0.017416578
-0.00492125 -0.00047624999 -0.017416578
0.00111125 0.0003175 -0.0033930482
0.00111125 0 -0.0033930482
0.00111125 -0.00015875 -0.0033930482
-0.00492125 0 -0.017416578
-0.00508 0.0003175 -0.017416578
-0.00508 0.00015875 -0.017416578
-0.00508 0 -0.017416578
-0.00508 -0.00015875 -0.017416578
-0.00508 -0.0003175 -0.017416578
-0.00508 -0.00047624999 -0.017416578
0.00095250004 0.00015875 -0.0033930482
-0.00523875 0.00047624999 -0.017416578
-0.00523875 0.0003175 -0.017416578
-0.00523875 0.00015875 -0.017416578
-0.00523875 0 -0.017416578
-0.0015875 -0.00015875 0.00043155081
-0.0046037501 0.0003175 -0.017416578
-0.0046037501 0.00015875 -0.017416578
0.0015875 0.00015875 -0.0033930482
0.0015875 0 -0.0033930482
-0.0047625001 0.0003175 -0.017416578
-0.0047625001 0.00015875 -0.017416578
0.00142875 0.0003175 -0.0033930482
0.00142875 -0.00015875 -0.0033930482
0.00142875 -0.0003175 -0.0033930482
-0.0047625001 -0.00047624999 -0.017416578
-0.00492125 0.00047624999 -0.017416578
-0.00492125 0.0003175 -0.017416578
-0.00492125 0.00015875 -0.017416578
-0.0053975 -0.000635 -0.00036524064
0.0036512502 0.0003175 -0.015663637
0.0036512502 -0.00015875 -0.015663637
0.00301625 -0.000635 -0.0024368984
0.00301625 -0.00079374999 -0.0024368984
-0.0015875 0 -0.01534492
-0.0053975 -0.00047624999 -0.00036524064
0.000635 -0.00095249998 -0.00227754
0.000635 -0.00079374999 -0.00227754
0.000635 -0.000635 -0.00227754
0.0034924999 0.00015875 -0.015663637
0.0034924999 0 -0.015663637
-0.00142875 -0.0003175 -0.01534492
0.000635 -0.00047624999 -0.00227754
0.00047625002 0.00127 -0.00227754
0.0039687501 -0.0003175 -0.015663637
0.00047625002 0.000635 -0.00227754
0.00047625002 0.00079374999 -0.00227754
-0.0053975 0.00079374999 -0.00036524064
0.0038100001 0.0003175 -0.015663637
0.00047625002 0.00095249998 -0.00227754
0.000635 -0.00127 -0.00227754
-0.0015875 -0.00015875 -0.01534492
0.0038100001 -0.0003175 -0.015663637
-0.0053975 0.000635 -0.00036524064
-0.0053975 0.00047624999 -0.00036524064
-0.00127 -0.0003175 -0.01534492
-0.0061912499 -0.0003175 -0.011360963
-0.0061912499 0 -0.011360963
-0.00142875 0.00015875 -0.01534492
-0.00174625 -0.0003175 -4.6524063e-05
-0.00142875 0.0003175 -0.01534492
0.0036512502 0.0003175 -0.011839038
-0.00174625 -0.00015875 -4.6524063e-05
0.000635 0 -0.00227754
-0.00174625 0 -4.6524063e-05
-0.00174625 0.00015875 -4.6524063e-05
-0.005715 0.00079374999 -0.00036524064
-0.005715 0.000635 -0.00036524064
-0.005715 0.00047624999 -0.00036524064
-0.0065087499 0 -0.011360963
-0.00555625 0.00079374999 -0.00036524064
-0.00555625 0.000635 -0.00036524064
0.0028575 -0.00079374999 -0.0024368984
-0.00555625 0.00047624999 -0.00036524064
-0.0065087499 -0.00015875 -0.011360963
0.00047625002 0.00047624999 -0.00227754
0.000635 -0.0003175 -0.00227754
-0.00555625 -0.00047624999 -0.00036524064
-0.00555625 -0.000635 -0.00036524064
-0.0063499999 -0.0003175 -0.011360963
0.000635 -0.00015875 -0.00227754
0.0003175 -0.000635 -0.00227754
0.0065087499 0.00015875 0.0013877006
0.0065087499 0 0.0013877006
-0.00523875 0.00047624999 -0.00036524064
0.00015875 0.00127 -0.00227754
0.0003175 -0.00127 -0.00227754
0.0063499999 0.0003175 0.0013877006
0.0003175 -0.00047624999 -0.00227754
0.0003175 -0.0003175 -0.00227754
0.0003175 -0.00015875 -0.00227754
0.0033337499 0.00015875 -0.0024368984
0.0003175 0 -0.00227754
0.0003175 0.00015875 -0.00227754
0.00015875 0.00015875 -0.00227754
-0.00508 -0.00047624999 -0.00036524064
-0.00508 -0.000635 -0.00036524064
0.0034924999 0.0003175 -0.0024368984
0.0034924999 -0.00015875 -0.0024368984
0.0034924999 -0.0003175 -0.0024368984
0.0003175 0.0003175 -0.00227754
0.0034924999 -0.000635 -0.0024368984
0.0034924999 -0.00079374999 -0.0024368984
0.00015875 0.0003175 -0.00227754
-0.00523875 0.00079374999 -0.00036524064
0.00015875 0.00047624999 -0.00227754
-0.00523875 0.000635 -0.00036524064
0.00015875 0.000635 -0.00227754
0.00047625002 -0.00015875 -0.00227754
0.00047625002 -0.00079374999 -0.00227754
0.00047625002 -0.000635 -0.00227754
0.00047625002 -0.00047624999 -0.00227754
0.00047625002 -0.0003175 -0.00227754
0.0039687501 0.0003175 -0.015663637
-0.00523875 -0.000635 -0.00036524064
0.00047625002 0 -0.00227754
0.0039687501 0.00015875 -0.015663637
0.00047625002 0.00015875 -0.00227754
0.0039687501 0 -0.015663637
0.003175 -0.0003175 -0.0024368984
0.003175 -0.00047624999 -0.0024368984
0.00047625002 0.0003175 -0.00227754
0.0039687501 -0.00015875 -0.015663637
0.003175 -0.00079374999 -0.0024368984
0.0038100001 -0.0003175 -0.011839038
0.0003175 0.000635 -0.00227754
0.0003175 0.00047624999 -0.00227754
0.0033337499 0 -0.0024368984
0.0033337499 -0.00015875 -0.0024368984
0.0033337499 -0.00047624999 -0.0024368984
0.0033337499 -0.000635 -0.0024368984
0.0063499999 -0.00015875 0.0013877006
0.0061912499 0.0003175 0.0013877006
0.0061912499 0.00015875 0.0013877006
0.000635 0.0003175 -0.00227754
0.0003175 0.00079374999 -0.00227754
0.0061912499 0 0.0013877006
0.0003175 0.00127 -0.00227754
0.00047625002 -0.00127 -0.00227754
0.0061912499 -0.00015875 0.0013877006
-0.00523875 -0.00047624999 -0.00036524064
-0.00142875 0.0003175 -0.015663637
-0.00111125 0.00015875 -0.015663637
0.0019050001 0.00047624999 -0.0024368984
0.0019050001 0.0003175 -0.0024368984
-0.00127 0.0003175 -0.015663637
0.00142875 -0.00015875 -0.025065776
-0.00127 -0.0003175 -0.015663637
0.0019050001 0.000635 -0.0024368984
0.00142875 -0.0003175 -0.025065776
-0.00142875 0.00015875 -0.015663637
0.00174625 0.00127 -0.0024368984
-0.00142875 -0.0003175 -0.015663637
-0.0038100001 -0.00127 -4.6524063e-05
-0.0015875 0 -0.015663637
-0.0015875 -0.00015875 -0.015663637
0.0020637501 0.00095249998 -0.0024368984
-0.00142875 0.00015875 -0.011360963
0.0020637501 0.000635 -0.0024368984
-0.00142875 0.0003175 -0.011360963
-0.00127 -0.0003175 -0.011360963
-0.00587375 0.00079374999 -0.00036524064
-0.00127 0.0003175 -0.011360963
-0.0015875 0.0003175 -4.6524063e-05
-0.00111125 0.00015875 -0.011360963
-0.00095250004 -0.00015875 -0.011360963
0.0019050001 0.00127 -0.0024368984
-0.00095250004 -0.00015875 -0.015663637
0.0019050001 0.00079374999 -0.0024368984
0.00079374999 -0.00127 -0.00227754
0.00111125 0.0003175 -0.011360963
0.00127 -0.0003175 -0.011360963
0.00127 0.0003175 -0.011360963
0.00142875 -0.0003175 -0.011360963
0.0015875 0.000635 -0.0024368984
0.0015875 0.00047624999 -0.0024368984
0.0015875 0.0003175 -0.0024368984
0.00142875 -0.00015875 -0.011360963
0.0039687501 0.0003175 0.00043155081
0.00142875 0.0003175 -0.011360963
0.0039687501 0.00015875 0.00043155081
0.0015875 0 -0.011360963
-0.0015875 0.00095249998 -4.6524063e-05
-0.00587375 0.000635 -0.00036524064
-0.00587375 0.00047624999 -0.00036524064
-0.00587375 -0.00047624999 -0.00036524064
-0.00587375 -0.000635 -0.00036524064
0.00174625 0.00015875 -0.0024368984
0.00174625 0 -0.0024368984
-0.0015875 0.00111125 -4.6524063e-05
0.000635 0.00127 -0.00227754
-0.00142875 -0.00127 -4.6524063e-05
-0.00127 -0.00127 -0.00036524064
-0.00142875 -0.00111125 -4.6524063e-05
-0.00142875 -0.00095249998 -4.6524063e-05
0.00095250004 0.00015875 -0.011360963
0.00111125 -0.00015875 -0.011360963
0.00111125 0 -0.011360963
0.0015875 0.00015875 -0.015663637
-0.0038100001 -0.0003175 -0.011360963
-0.0038100001 0.0003175 -0.011360963
-0.0036512502 -0.0003175 -0.011360963
-0.0036512502 0.00015875 -0.011360963
0.0036512502 -0.00015875 -0.011839038
-0.0034924999 -0.00015875 -0.011360963
-0.00174625 0.00111125 -4.6524063e-05
0.000635 0.00095249998 -0.00227754
0.000635 0.00111125 -0.00227754
0.0015875 0 -0.015663637
-0.00095250004 -0.00015875 -0.01534492
0.00142875 0.0003175 -0.015663637
0.00142875 -0.00015875 -0.015663637
0.00142875 -0.0003175 -0.015663637
0.00127 0.0003175 -0.015663637
-0.0039687501 -0.0003175 -0.011360963
0.000635 0.00047624999 -0.00227754
0.000635 0.000635 -0.00227754
0.000635 0.00079374999 -0.00227754
-0.00127 0.0003175 -0.01534492
-0.00174625 0.0003175 -4.6524063e-05
0.0015875 0.00015875 -0.025065776
-0.0039687501 -0.00015875 -0.011360963
-0.0039687501 0 -0.011360963
0.0015875 0 -0.025065776
-0.0039687501 0.00015875 -0.011360963
-0.00111125 0.00015875 -0.01534492
-0.0039687501 0.0003175 -0.011360963
0.00238125 0.00111125 -0.0024368984
-0.00174625 0.00095249998 -4.6524063e-05
0.00142875 0.0003175 -0.025065776
-0.005715 -0.00047624999 -0.00036524064
-0.005715 -0.000635 -0.00036524064
0.0034924999 0.00015875 -0.011839038
-0.00587375 0.00111125 -0.00036524064
0.0034924999 0 -0.011839038
-0.00142875 0.00127 -0.00036524064
-0.0038100001 -0.00111125 -4.6524063e-05
-0.0015875 -0.00111125 -4.6524063e-05
-0.0015875 -0.00095249998 -4.6524063e-05
-0.0015875 -0.00015875 -0.011360963
-0.0015875 0 -0.011360963
0.0065087499 0.00015875 -0.024906417
-0.0015875 -0.0003175 -4.6524063e-05
-0.00142875 -0.0003175 -0.011360963
0.0022225 0.00095249998 -0.0024368984
0.0061912499 -0.00015875 -0.024906417
0.0061912499 0 -0.024906417
0.0061912499 0.00015875 -0.024906417
0.0061912499 0.0003175 -0.024906417
0.00127 -0.0003175 -0.015663637
0.00111125 0.0003175 -0.015663637
0.00111125 -0.00015875 -0.015663637
0.00111125 -0.0003175 -0.015663637
0.00095250004 0.00015875 -0.015663637
0.0063499999 -0.00015875 -0.024906417
0.0063499999 0.0003175 -0.024906417
-0.0022225 0.00015875 -4.6524063e-05
-0.0022225 -0.00111125 -4.6524063e-05
-0.0022225 -0.00095249998 -4.6524063e-05
-0.00047625002 -0.00095249998 -0.00227754
-0.00047625002 -0.00079374999 -0.00227754
-0.00047625002 -0.000635 -0.00227754
-0.0022225 -0.0003175 -4.6524063e-05
-0.0022225 -0.00015875 -4.6524063e-05
0.0039687501 -0.0003175 0.0017064171
0.0039687501 -0.00015875 0.0017064171
0.0039687501 0 0.0017064171
-0.0022225 0 -4.6524063e-05
-0.00047625002 -0.00111125 -0.00227754
-0.00047625002 -0.00047624999 -0.00227754
0.0039687501 0.00015875 0.0017064171
0.0039687501 0.0003175 0.0017064171
-0.00047625002 -0.0003175 -0.00227754
-0.0022225 0.0003175 -4.6524063e-05
-0.0046037501 -0.000635 -0.00036524064
-0.00047625002 -0.00015875 -0.00227754
-0.00238125 0.0003175 -4.6524063e-05
0.0039687501 0 -0.011839038
0.0015875 0 -0.011520321
0.0015875 0.00015875 -0.011520321
-0.00238125 -0.0003175 -4.6524063e-05
-0.000635 0.0003175 -0.00227754
-0.000635 0.00047624999 -0.00227754
-0.00238125 -0.00015875 -4.6524063e-05
-0.00238125 0 -4.6524063e-05
