# .PCD v0.7 - Point Cloud Data file format
VERSION 0.7
FIELDS x y z
SIZE 4 4 4
TYPE F F F
COUNT 1 1 1
WIDTH 1195
HEIGHT 1
VIEWPOINT 0 0 0 1 0 0 0
POINTS 1195
DATA ascii
-0.015269881 0.00010583329 -0.02178588
-0.015269882 -0.00021166669 -0.02178588
-0.014956118 -2.1827873e-11 -0.023150383
-0.022277296 -0.0011641666 -0.017167555
-0.022293385 -0.00073269225 -0.017191779
-0.021754354 -0.0011641667 -0.017167557
-0.021754352 -0.00074083341 -0.017167557
-0.021231413 -0.0011641667 -0.017167555
-0.0074257646 7.0555558e-05 -0.023220358
-0.005194549 7.0555616e-05 -0.022205725
-0.0049156472 0.00010583339 -0.022205725
-0.0052294116 -0.0002116667 -0.022205725
-0.0052294121 -0.0002116667 -0.022730535
-0.0052294121 -0.00021166669 -0.021785878
-0.013805647 0.00074083341 -0.017167557
-0.012759765 0.00010583331 -0.018217176
-0.013805646 0.00021166672 -0.017167555
-0.020708472 0.0011641667 -0.017167557
-0.020290118 0.0011641667 -0.016747711
-0.019767174 0.0011641666 -0.017167555
-0.018721294 0.0011641667 -0.016747711
-0.018721294 0.0011641666 -0.016222902
-0.021231413 0.00074083341 -0.017167555
-0.007739529 -0.0011641667 -0.017167557
-0.0087854117 -0.0011641667 -0.017230533
-0.0082624704 -0.0011579412 -0.017260171
-0.0087854117 -0.0011641667 -0.016747711
-0.013282705 0.00074083341 -0.0022629774
-0.013805646 0.00074083329 -0.002262977
-0.0052294121 -0.0011641666 -0.00079351105
-0.0057523539 -0.0011641665 -0.0002687024
-0.0052294121 -0.0002116667 0.0013057254
-0.007739529 -0.0011641666 -0.0012133587
-0.007739529 -0.0011641667 -0.00079351105
-0.0072165881 -0.0011641667 -0.0012133587
-0.0072165877 -0.0011641666 -0.00079351105
-0.0072165886 -0.0011641666 -0.0002687024
-0.0066936463 -0.0011641667 -0.0017381683
-0.0062752943 -0.0011641666 -0.0017381683
-0.0062752939 -0.0011641667 -0.0012133587
-0.0072165877 -0.0011641666 -0.0017381683
-0.0072165877 -0.0011641667 -0.0022629774
-0.0052294121 -0.00021166663 -0.0077209929
0.0027192943 -0.0011641666 -0.015278245
-0.007739529 -0.00021166669 0.00078091584
-0.0082624704 -0.0011641667 -0.0002687024
-0.0082624704 -0.00076199987 -0.00031068735
-0.0066936463 -0.0011641667 -0.0002687024
-0.0074257646 0.00010583334 -0.0091904588
-0.0077395295 0.0001058333 -0.0091904588
-0.0077395295 0.00010583337 -0.0097152675
-0.0049156472 -0.00021166663 -0.010764886
-0.0049156472 0.00010583334 -0.010764886
-0.0052294121 -0.00021166673 -0.010240077
-0.0049156472 -0.00021166666 -0.0097152675
-0.0052294121 -0.00021166669 -0.0097152675
-0.0049156472 -0.00021166667 -0.010240077
-0.0071867057 -0.0010885715 -0.01529324
-0.007739529 -0.0010583333 -0.015278244
-0.0077046664 -0.00028222226 -0.013808779
-0.0074257646 -0.00021166669 -0.013283971
-0.0077046664 -0.00028222223 -0.014228627
-0.007739529 0.0001058333 -0.011289695
-0.007739529 -0.00021166664 -0.011289695
-0.0074257646 0.00010583331 -0.011289695
-0.0026147058 0.00010583329 -0.0087706111
-0.0024055294 -0.00021166666 -0.0087706111
-0.0049156472 0.00010583339 -0.013283971
-0.0051771179 0.00015875 -0.013808779
-0.0049156472 -0.00021166667 -0.01275916
0.0037651763 0.0011641667 -0.016747711
0.0027541567 0.0011288889 -0.015803054
0.0049156472 -0.00021166669 -0.0091904588
0.0026147058 -0.00021166673 -0.0091904588
0.0027192938 0.0001058334 -0.0091904588
0.0027192943 0.0001058333 -0.0097152684
0.0012550588 -0.0011641667 -0.016747711
0.0024055296 0.00010583337 -0.0097152675
0.0024055294 0.0001058333 -0.01275916
0.0024055296 0.00010583336 -0.013283971
0.0024055294 -0.00021166663 -0.013283971
0.0024055294 -0.0002116667 -0.01275916
0.00073211762 0.00084666663 -0.015173283
0.0012550588 0.00084666669 -0.015173283
0.0017779999 0.0011641667 -0.016222902
-0.00020917651 0.0011288888 -0.015733078
-0.00073211762 0.0011288889 -0.015733078
0.0049156472 -0.00021166669 -0.0077209929
0.0049156472 -0.00021166664 -0.0087706111
0.0077395285 0.0001058334 -0.0091904588
0.0072165881 0.0011641667 -0.0022629774
0.0074257646 0.00010583336 -0.0033125957
0.0066936468 0.0011641667 -0.0022629774
0.0066936468 0.00074083335 -0.0022629774
0.0062752943 0.0011641666 -0.0022629774
0.0074257646 -0.00021166669 -0.010240077
0.0052144709 -0.0011490476 -0.01529324
0.0074257646 0.00010583331 -0.011289695
0.0074257646 -0.00021166663 -0.010869848
0.0077395295 0.00010583333 -0.011289695
0.0077395285 0.00010583339 -0.011709543
0.0074257646 0.00010583329 -0.011709543
0.0074257646 -0.00021166669 -0.0063564889
0.0077395285 -0.00021166666 -0.0067763356
0.0077395295 -0.00021166669 -0.006251527
0.0074257646 -0.00021166672 -0.0057267174
0.0051248237 -0.00021166673 -0.0077209929
0.0074257641 0.0001058334 -0.0082458025
0.0074257646 -0.00021166664 -0.0052019088
0.0074257646 -0.00021166673 -0.0047820611
0.0077395285 -0.00021166661 -0.0047820616
0.0074257646 0.00010583333 -0.0047820611
0.0074257641 0.0001058333 -0.0057267174
0.017779998 0.00010583333 -0.011709543
0.01778 0.00010583333 -0.01223435
0.01778 -0.00021166661 -0.012234352
0.01778 0.00010583331 -0.01275916
0.01778 -0.00021166667 -0.01275916
0.01778 0.0001058333 -0.013283969
0.01778 0.00010583331 -0.013808779
0.02029012 0.0001058334 -0.012234352
0.022800237 0.00010583334 -0.011289696
0.022800235 0.00010583334 -0.011709543
0.023114 3.6379788e-12 -0.011394657
0.022800235 0.00010583331 -0.012234352
0.022800235 -0.00021166667 -0.011709543
0.022800235 -0.00021166673 -0.012234352
0.020603882 5.4569682e-11 -0.006251527
0.020603882 4.3655746e-11 -0.0067763356
0.020603882 -2.910383e-11 -0.0077209929
0.025728706 -0.0010583333 -0.015383206
0.020290118 -0.0011641667 -0.016747713
0.020290118 -0.0011641667 -0.017167557
0.022800235 -0.00021166669 -0.013283969
0.022800235 -0.00021166673 -0.013808779
0.022800235 0.00010583333 -0.013808779
0.022800235 -0.00021166667 -0.01275916
0.023114 -0.00021166664 -0.01328397
0.021754352 -0.00031750003 -0.015278245
0.021754354 -0.00074083341 -0.015383206
0.021231411 -0.00070555555 -0.015313233
0.021231413 -0.00031750003 -0.015278245
0.025310352 -0.00021166661 -0.01275916
0.025310352 -0.00021166669 -0.013283971
0.025310352 0.00010583329 -0.013283969
0.025624117 0.00010583329 -0.011709543
0.025624117 -0.00021166663 -0.012234352
0.025310352 0.00010583329 -0.01275916
0.025624117 0.00010583334 -0.01275916
0.022800235 -0.00021166669 -0.018741986
0.023114 -0.00021166664 -0.019266795
0.025624117 0.00010583329 -0.021261072
0.025624117 0.00010583334 -0.02073626
0.025310352 0.00010583333 -0.022730535
0.023114 -0.00021166673 -0.023150383
0.025624117 0.0001058333 -0.022205725
0.025624117 0.0001058334 -0.020211451
-0.0024055294 -0.00021166663 -0.011289695
-0.0024055294 -0.00021166672 -0.010240077
-0.0024055294 -0.00021166666 -0.0097152675
-0.0024055294 -0.00021166672 -0.0091904588
-0.0026147058 -0.00021166666 -0.0091904588
0.0024055294 -0.00021166666 -0.011289695
0.0024055294 -0.00021166664 -0.011709543
0.0024055294 0.00010583339 -0.011709542
0.0026147058 -0.00021166673 -0.011289695
0.002719294 0.00010583333 -0.012234352
0.0027192938 0.0001058334 -0.01275916
0.0024055296 0.00010583329 -0.012234352
0.0027192938 0.00010583329 -0.010240077
0.0027192943 0.00010583336 -0.011709543
-0.010249647 0.00010583339 -0.010764887
-0.010249647 -0.00021166664 -0.010764886
-0.0099358819 -0.00021166666 -0.010764886
-0.012759765 0.00010583333 -0.0067763356
-0.012446 4.3655746e-11 -0.0067763356
-0.010249647 0.00010583336 0.0022503817
-0.014746942 0.0011641666 -0.00079351105
-0.014746941 0.0011641666 -0.0012133587
-0.016734118 0.00076200004 -0.00031068735
-0.016734118 0.0011641667 -0.0002687024
-0.017257059 0.0011641666 -0.0002687024
-0.0074257646 0.00010583337 -0.022205725
-0.007739529 0.0011641667 -0.016222902
-0.010249647 0.0011641667 -0.0162229
-0.009726706 0.0011641667 -0.016747711
-0.010249647 0.0011641667 -0.016747711
-0.0087854117 0.0011641667 -0.016747711
-0.0087854117 0.0011641666 -0.017167557
-0.0092037646 0.0011641667 -0.017167557
-0.0082624704 0.0011641666 -0.016747711
-0.0092037646 0.0011641666 -0.016222902
-0.007739529 0.00010583331 -0.0087706111
-0.0077395295 0.00010583331 -0.0082458016
-0.010249647 0.00010583339 -0.0087706121
-0.0099358819 7.0555514e-05 -0.0091554718
-0.0099358819 7.0555572e-05 -0.0087356241
-0.007739529 -0.00021166672 -0.0082458025
-0.0074257641 0.00010583337 -0.0082458025
-0.0051771179 0.00015875006 -0.014228627
-0.005752353 0.0011288889 -0.015313233
-0.0062752939 0.0011288888 -0.015313231
-0.005752353 0.00084666663 -0.015278245
-0.0074257641 0.00010583336 -0.013283971
-0.0074257641 0.00010583336 -0.0097152675
-0.0074257646 -0.00021166673 -0.0097152675
-0.0074257646 -0.00021166664 -0.010240077
-0.0077395295 0.0001058333 -0.010240077
-0.0048110592 -0.0011288888 -0.015313231
-0.0042691012 0.0011545456 -0.01568855
-0.0052294121 0.0011641667 -0.016747711
-0.0052294121 0.0011641666 -0.016327864
-0.0048110592 0.0011641666 -0.016747711
-0.0062752943 0.0011641666 -0.015698092
-0.0066936468 0.0011641667 -0.01569809
-0.0066936468 0.0011288888 -0.015313231
-0.005752353 0.0011641666 -0.015593129
-0.0048110592 0.0011641667 -0.015278245
-0.0042881174 0.0011641666 -0.017167557
-0.0048110592 0.0011641667 -0.017167557
-0.0049156472 0.00016933332 -0.018238168
-0.0037651765 0.00074083341 -0.017167557
-0.0042881174 0.00074083341 -0.017167555
-0.0066936468 0.0011641666 -0.016747713
-0.0072165877 0.0011641666 -0.016747711
-0.0062752939 0.0011641667 -0.017167557
-0.0066936468 0.0011641667 -0.017167557
-0.00062752946 -0.0003175 -0.01496336
-0.00010458829 -0.00031749994 -0.014228626
0.025728704 -0.0011641666 -0.0012133587
-0.024745576 0.0011429999 -0.015383206
-0.024787411 0.0011641667 -0.0012133587
-0.025345216 0.0011641666 -0.00222799
-0.025728704 0.00074083341 -0.0022629774
-0.022277294 0.0011641667 -0.01569809
-0.022800237 0.0011641666 -0.015698092
-0.022277294 0.0011641666 -0.016222902
-0.019767176 0.00074083341 -0.017167555
-0.020603882 -0.00021166672 -0.017692367
-0.021231413 -0.00031750006 -0.017167557
-0.02029012 0.0001058334 -0.013283969
-0.020290118 0.00010583336 -0.01275916
-0.020290118 -0.00021166663 -0.013283971
-0.017779998 -0.00021166663 -0.023255344
-0.017779998 4.7293724e-11 -0.02357023
-0.017884588 -0.00021166661 -0.02357023
-0.017466236 -1.4551915e-11 -0.022940459
-0.015269883 0.00010583333 -0.021261068
-0.014956118 3.6379788e-12 -0.02126107
-0.015269882 -0.00021166664 -0.021261068
-0.016211174 0.0011641667 -0.016222902
-0.016734118 0.0011641668 -0.015698092
-0.016734118 0.0011641666 -0.016222902
-0.020708472 0.0011641667 -0.015698092
-0.02070847 0.0011641666 -0.016222902
-0.012759765 0.00010583334 -0.012234352
-0.014956118 0.0001058333 -0.01496336
-0.015269881 -0.0011641666 -0.016747711
-0.014746942 -0.0011641665 -0.016747711
-0.015676614 -0.0011759258 -0.017202543
-0.01526988 -0.0011641668 -0.016222902
-0.015269882 -0.00021166673 -0.011709543
-0.01526988 -0.00021166664 -0.0067763356
-0.015269882 0.00010583339 -0.0067763347
-0.015269883 -0.00021166666 -0.0082458025
-0.017779998 -0.0002116667 -0.0091904588
-0.01778 0.00010583333 -0.0097152675
-0.01778 0.00010583339 -0.0091904579
-0.017779998 -0.00021166667 -0.0087706111
-0.012759764 0.0001058334 -0.0073011452
-0.012759765 0.00010583329 -0.0077209934
-0.012759764 -0.00021166663 -0.0077209929
-0.015269881 0.00010583336 -0.0091904579
-0.014956118 -0.00021166661 -0.0087706111
-0.01778 -0.0011641667 -0.002262977
0.0052294121 0.0001058334 0.0013057254
0.0052294116 0.0011641667 -0.0002687024
0.0092037646 0.00076199998 -0.00031068735
0.0092037646 0.00021166666 -0.0002687024
0.0062752939 0.0007620001 -0.00031068735
0.012759765 0.0011641666 -0.0012133587
0.011713882 0.0011641667 -0.00079351105
0.012236825 0.0011641666 -0.00079351105
0.019767174 0.0011641665 -0.0012133587
0.020290118 0.0011641666 -0.0012133587
0.01778 0.0011641666 -0.0022629774
0.017779998 0.0011641667 -0.0017381678
0.018198352 0.0011641666 -0.0022629774
0.018198354 0.0011641667 -0.0017381678
0.018198354 0.0011641667 -0.00079351105
0.018721292 0.0011641667 -0.0022629774
0.019767174 -0.0011641667 -0.0022629774
0.020290118 -0.00021166667 -0.0033125957
0.017779998 -0.00021166667 0.0013057254
0.017779998 -0.00021166664 0.00078091584
0.017257059 -0.0011641666 -0.0002687024
0.01778 -0.0011641667 -0.0002687024
0.019244237 0.00021166666 -0.0002687024
0.020290118 -0.00021166669 0.00078091584
0.019244235 -0.00029633325 -0.00031068735
0.017257059 -0.0011641667 -0.00079351105
0.012759764 -0.00021166667 -0.0033125957
0.013805646 -0.0011641667 -0.0022629774
0.013805647 0.0011641666 -0.0017381678
0.013805646 0.0011641667 -0.0022629774
0.013805646 0.00074083335 -0.0022629774
0.014223998 0.00074083335 -0.0022629774
0.017773844 0.00019921565 -0.014753437
0.017257059 0.00074083329 -0.015383206
0.016734118 0.0010583333 -0.015383206
0.016211176 0.0011641666 -0.015698092
0.016734118 0.0011641665 -0.015698092
0.016734118 0.0011641667 -0.016222902
0.015688235 0.0011641667 -0.015698092
0.014956118 0.00010583339 -0.01328397
0.014956118 -0.00021166669 -0.01328397
0.015688235 0.0010583333 -0.015383206
0.015269881 0.0011641667 -0.0022629774
0.016734118 0.00074083341 -0.0022629774
0.017257059 0.00074083335 -0.0022629774
0.01778 0.0001058333 -0.0082458016
0.017779998 -0.00021166666 -0.0077209929
0.01778 0.00010583331 -0.0077209929
0.01778 0.00010583329 -0.0067763356
0.017779998 -0.00021166672 -0.0073011452
0.017779998 -0.00021166666 -0.0067763356
0.01778 0.00010583334 -0.006251527
0.015269882 0.0001058334 -0.0077209934
0.017257059 0.0011641666 -0.0017381678
0.017779998 0.0011641667 -0.0012133587
0.015688237 0.0011641667 -0.0012133587
0.014223998 -0.00074083335 -0.0022629774
0.01778 -0.00021166666 -0.004257252
0.017779998 -0.00021166664 -0.0047820616
0.01778 0.0001058333 -0.0047820611
0.012759765 -0.00021166661 -0.0042572524
0.012759765 0.00010583333 -0.0047820611
0.012759764 -0.00021166661 -0.0047820611
0.012759764 -0.0002116667 -0.006251527
0.012446 0.00010583334 -0.0057267174
0.012759765 -0.0002116667 -0.0052019088
0.015269881 0.0001058334 -0.0052019083
0.015269882 -0.00021166673 -0.0052019088
0.01526988 0.00010583337 -0.0047820611
0.01526988 -0.00021166664 -0.0082458025
0.015269882 -0.00021166661 -0.0073011452
0.015688237 -0.00074083335 -0.0022629774
0.015269882 -0.00021166673 -0.0067763356
0.015269881 0.0011641668 -0.0012133587
0.014746941 -0.00076199998 -0.00031068735
0.015269881 -0.00021166667 0.0017255731
0.009726705 0.0011641667 -0.016747711
0.014746941 0.0011641667 -0.017167555
0.014223999 0.0011641667 -0.017167557
0.012759765 0.0011641668 -0.017272519
0.01526988 0.00010583337 -0.022730535
0.01526988 0.0001058333 -0.022205725
0.015269881 0.00010583333 -0.02178588
0.012759763 -0.0011641666 -0.016222904
0.012759765 -0.00021166672 -0.018217176
0.013282705 -0.0011641667 -0.017167557
0.012759765 -0.0011641668 -0.017167557
0.013805646 -0.0011641666 -0.017167557
0.012759764 -0.00021166673 -0.018741986
0.013282706 -0.00074083329 -0.017167555
0.012759765 -0.0011641666 -0.016747711
0.014224 0.0011641667 -0.016222902
0.013805646 0.0011641666 -0.015698092
0.017257059 0.0011641666 -0.017167555
0.017257057 0.0011641667 -0.016747713
0.016734118 0.0011641667 -0.016747713
0.01727315 0.00073269225 -0.017191777
0.016734118 0.00074083329 -0.017167557
0.016211178 0.0011560256 -0.017191777
0.015688237 0.00074083329 -0.017272519
0.012236823 0.001128889 -0.015733078
0.012446 -0.00021166661 -0.010345039
0.010249647 -0.00021166669 -0.0097152675
0.0099358819 -0.00021166673 -0.0099251913
0.0099358819 0.00010583331 -0.010240077
0.0099358819 0.00010583339 -0.010764886
0.0099358819 -0.00021166672 -0.010345039
0.010249647 0.00010583334 -0.010240077
0.012759765 0.0001058334 -0.01275916
0.012446 0.00010583331 -0.013283969
0.0077395295 0.00010583331 -0.0067763356
0.0077395285 0.00010583333 -0.006251527
0.0077395285 -0.00021166673 -0.0073011452
0.0092037646 0.0011641667 -0.0022629774
0.0092037646 0.0011641665 -0.0012133587
0.0087854117 0.0011641666 -0.0012133587
0.0072165877 0.0011641666 -0.0017381683
0.0077395285 0.0011641667 -0.0022629774
0.0082624704 0.0011641665 -0.0017381683
0.0082624704 0.0011641665 -0.00079351105
0.0099358819 0.00010583337 -0.0087706111
0.010249647 0.0001058333 -0.0077209934
0.0099358819 0.00010583329 -0.006251527
0.0099358819 0.00010583337 -0.0067763356
0.0077395304 0.0001058333 -0.0057267174
0.0099358819 -0.00021166663 -0.0067763356
0.014223999 0.0002116667 -0.0002687024
0.013805646 -0.0007620001 -0.00031068735
0.013805647 -0.00029633328 -0.00031068735
0.0052084941 0.00016933333 -0.014228627
0.005752353 0.0010583333 -0.015173283
0.0052294121 0.00010583339 -0.0073011452
0.0062752939 0.0011641668 -0.0017381678
0.005752353 0.0011641666 -0.0022629774
0.0057523535 0.0011641666 -0.0017381678
0.0074257646 -0.00021166666 -0.0029977099
0.0072165881 -0.0011641666 -0.0022629774
0.010786533 0.001157111 -0.017230533
0.0099358819 -0.00021166666 -0.0088755731
0.010249647 0.0011641667 -0.00079351105
0.009726706 0.0011641667 -0.00079351198
-0.025345216 -0.00021166663 -0.0073361322
-0.025624117 7.0555558e-05 -0.006286514
-0.025310352 0.0001058333 -0.0052019083
-0.025310352 0.0001058334 -0.0057267174
-0.025310352 0.00010583339 -0.006251527
-0.025310352 0.00010583334 -0.0033125952
-0.025624117 8.4666724e-05 -0.0042992374
-0.025624117 -0.00021166673 -0.0033125957
-0.022800235 -0.00021166661 0.0022503817
-0.02426447 -0.0003175 -0.00037366431
-0.02374153 -0.0011641667 -0.0012133587
-0.026251646 0.00074083335 -0.0012133587
-0.02667 -0.00031750006 -0.015698092
-0.024279412 -0.0011490477 -0.01529324
-0.020603882 4.7293724e-11 -0.0067763356
-0.02029012 0.00010583337 -0.0067763356
-0.023741528 0.0011641667 -0.0012133587
-0.023218587 0.0011641667 -0.0012133587
-0.022800237 0.0011641667 -0.0012133587
-0.022277294 0.0011641667 -0.0012133587
-0.021231411 0.0011641667 -0.0017381678
-0.021231411 0.0011641667 -0.0012133587
-0.021754354 0.0011641666 -0.0022629774
-0.021754354 0.0011641667 -0.0017381678
-0.021754354 0.0011641667 -0.0012133587
-0.02029012 0.00010583334 0.00078091584
-0.02426447 0.0011641667 -0.015698092
-0.026042471 0.0010583333 -0.015698092
-0.020290118 0.00010583331 -0.0073011452
-0.020290118 0.00010583339 -0.0077209929
-0.020603882 -2.910383e-11 -0.0082458016
-0.025310354 -0.0002116667 -0.020211453
-0.025310354 0.0011641667 -0.016747711
-0.023114 -0.00021166667 -0.018532062
-0.022821153 -0.00025399998 -0.018196184
-0.023741528 0.0011641667 -0.016747711
-0.023695044 0.0011759261 -0.017132569
-0.023741528 0.00074083335 -0.017167555
-0.023218589 0.0011641667 -0.017167557
-0.023206966 0.00072907412 -0.017202543
-0.025310352 0.00010583339 -0.021261068
-0.025624117 0.00010583339 -0.022205725
0.025693841 0.001128889 -0.016747711
0.023218587 0.0011641667 -0.0162229
0.021231411 0.0011641666 -0.015698092
0.019767176 0.0011288889 -0.015313231
0.019244235 0.00074083341 -0.015383206
0.019767178 0.00074083335 -0.015383206
0.019244235 0.0011288888 -0.015313231
0.01778 0.00010583336 -0.010764886
0.01778 0.0001058334 -0.010240077
0.018751176 0.0011490475 -0.015353218
0.022800235 0.0011641666 -0.0012133587
0.022277294 0.0011641667 -0.0012133587
0.022277296 0.0011641666 -0.0017381683
0.021231411 0.0011641667 -0.0017381683
0.019767176 0.0011641666 -0.0002687024
0.02029012 0.0011641666 -0.0002687024
0.022277294 0.0011641666 -0.0002687024
0.022277294 0.00076199987 -0.00031068735
0.020290118 0.00010583329 0.0013057254
0.02029012 0.00010583336 0.00078091584
0.022815177 9.071434e-05 0.0027601961
0.023218587 0.0011641667 -0.00079351105
0.023741528 0.0011641666 -0.00079351105
0.023218587 0.0011641666 -0.0017381683
0.02426447 0.0011641666 -0.0012133587
0.013282705 0.00074083329 -0.0022629774
0.014223998 -0.0011641666 -0.00079351105
0.013282705 -0.0011641668 -0.00079351105
0.01778 -0.0011641667 -0.0022629774
0.018198352 -0.0011641666 -0.002262977
0.01778 -0.0011641667 -0.0012133587
0.01778 -0.0011641667 -0.0017381678
0.017779998 -0.00021166664 -0.0033125952
0.018198352 -0.00074083341 -0.0022629774
0.018721294 -0.00074083335 -0.0022629774
0.018721294 -0.00031750003 -0.0022629774
0.016734118 -0.00031749997 -0.0022629774
0.016734118 0.00021166672 -0.0022629774
0.016211176 -0.00074083335 -0.0022629774
0.015269881 -0.0011641667 -0.00079351105
0.011713882 -0.00076200004 -0.00031068735
0.0099358819 -0.0002116667 -0.01097481
0.0099358819 -0.00021166667 -0.011709543
0.0087854108 -0.0011641667 -0.016222902
0.0082624713 -0.0011641667 -0.0012133587
0.0077395285 -0.0011641666 -0.0012133587
0.0062752939 -0.0011641668 -0.00079351105
0.0072165881 -0.0011641667 -0.0012133587
0.0072165877 -0.0011641667 -0.00079351105
0.0077395285 -0.0011641666 -0.0017381678
0.0077395285 -0.0011641667 -0.002262977
0.0072165877 -0.0011641666 -0.0002687024
0.0077395285 -0.00021166675 0.0017255722
0.010249646 -0.0002116667 -0.0033125957
0.012446 0.0001058334 -0.004257252
0.0082624704 -0.0011641666 -0.0022629774
0.0082624713 -0.00074083329 -0.0022629774
0.0092037646 -0.0011641667 -0.0012133587
0.005752353 -0.0011641666 -0.00079351198
0.0052294121 -0.0011641667 -0.00079351105
0.0052294121 -0.0011641668 -0.0002687024
0.0048110592 -0.0011641666 -0.0017381678
0.0052294121 -0.0011641667 -0.0012133587
0.0048110588 -0.0011641666 -0.0012133587
0.0048110588 -0.0011641665 -0.00079351105
-0.014223998 0.0011641667 -0.0012133587
-0.013805647 0.0007620001 -0.00031068735
-0.0051945494 7.0555558e-05 0.0013057254
-0.0074257646 -0.00021166673 0.0013057254
-0.0024055294 -0.00021166672 0.0027751913
-0.0024055294 -3.2741809e-11 0.0030900761
-0.0026147058 2.5465852e-11 0.0030900761
-0.00020917651 0.00010583337 0.0022503817
-0.00010458828 -0.00021166666 0.0022503817
-0.0037651763 -0.0011641666 -0.00079351105
-0.0037651763 -0.0011641667 -0.0002687024
-0.0032422352 -0.0011641666 -0.0002687024
-0.0042881174 -0.0011641666 -0.0012133587
-0.0032422352 -0.0011641666 -0.0017381678
-0.0026147058 0.0001058333 -0.0082458016
-0.002719294 -0.0011641667 -0.0017381678
-0.0027192938 -0.0011641667 -0.0022629774
-0.0023009412 -0.0011641667 -0.0022629774
-0.0099358819 7.0555543e-05 -0.01020509
-0.0099358819 -0.00021166661 -0.010240077
-0.0074257646 0.0001058333 -0.013808779
0.0024055296 0.0001058333 -0.0082458025
0.00017431373 7.0555543e-05 -0.0087706111
0.00017431378 7.0555558e-05 -0.0082458016
0.0026147058 -0.00021166672 -0.0077209929
0.0024055294 -0.00021166669 -0.0073011452
0.0024055294 -0.00021166666 -0.0087706111
0.0024055294 -0.00021166667 -0.0091904588
0.0026147058 -0.00021166673 -0.006251527
0.0024055294 -0.00021166673 -0.0067763356
0.0024055294 -0.00021166667 -0.006251527
0.0023009414 -0.0011641667 -0.0022629774
0.001778 -0.0011641666 -0.0022629774
0.0051248237 -0.00021166672 -0.0042572524
0.0049156472 -0.00021166664 -0.0042572524
-0.0024055294 0.00010583331 0.0017255722
-0.0024055296 0.00010583329 0.0022503817
-0.0024055294 -0.00021166669 0.0022503817
-0.0026670001 -0.00021166669 0.00072843488
-0.002719294 -0.0011641666 -0.0002687024
0.0049156472 -0.00021166661 0.00078091584
0.0042881174 -0.00076199998 -0.00031068735
0.0037651765 -0.00076200004 -0.00031068735
0.0052294116 -0.00021166666 0.0017255731
0.0052294112 0.00010583333 0.0017255722
0.0062752939 -0.00029633331 -0.00031068735
0.0052294121 -0.00021166664 0.0013057254
0.0032422356 -0.00074083341 -0.0022629774
0.0037651763 -0.0011641667 -0.0022629774
0.0037651767 0.00021166669 -0.0022629774
-0.017779998 0.00010583327 0.0013057254
-0.01474694 0.00076199998 -0.00031068735
-0.015688235 0.00076199998 -0.00031068735
-0.016211176 0.00076199987 -0.00031068735
-0.015269883 0.00010583331 0.00078091584
-0.0099358819 -0.00021166663 -0.0042572524
-0.0099358819 -1.0913936e-11 -0.004257252
-0.0017779997 -0.0011641665 -0.0012133587
-0.001778 -0.0011641666 -0.00079351105
-0.0012550588 -0.0011641666 -0.0012133587
-0.0017779999 -0.0011641666 -0.0017381678
-0.0023009412 -0.0011641667 -0.0012133587
-0.0023009412 -0.0011641667 -0.00079351105
-0.0023009414 -0.0011641667 -0.0002687024
-0.0017779999 -0.0011641667 -0.0002687024
0.0012550588 -0.0011641667 -0.0022629774
0.00020917645 -0.0002116666 -0.0033125957
0.0012550588 -0.00074083329 -0.0022629774
0.001778 -0.00074083329 -0.0022629774
-0.0012550588 -0.0011641667 -0.00079351105
-0.00073211762 -0.0011641667 -0.0012133587
-0.0012550588 -0.0011641667 -0.0002687024
-0.00073211762 -0.0011641666 -0.0017381683
-0.00020917648 -0.0011641667 -0.0012133587
-0.00020917651 -0.0011641667 -0.0022629774
-0.00073211774 -0.0011641667 -0.0022629774
-0.0012550588 -0.0011641667 -0.0022629774
-0.0012550588 -0.00074083341 -0.0022629774
0.00020917645 -0.0011641667 -0.0017381678
0.00020917651 -0.0011641667 -0.0012133587
0.00020917642 -0.0011641667 -0.0022629774
-0.007739529 -0.0002116667 0.0022503817
0.0077395295 0.00010583333 0.0022503817
0.0023009412 -0.0011641667 -0.00079351105
0.0023009414 -0.0011641666 -0.0002687024
0.0027192938 -0.0011641667 -0.00079351105
0.002719294 -0.0011641667 -0.0002687024
0.0042881169 -0.0011641666 -0.0002687024
0.0049156472 -0.00021166672 0.0022503817
0.0048110592 -0.0011641667 -0.0002687024
0.020603882 -4.3655746e-11 0.0026702294
0.020603882 -0.00021166673 0.0022503817
0.020603882 -0.00021166673 0.0026702294
0.020290118 -0.00021166664 0.0022503817
0.020290118 0.00010583337 0.0017255722
0.021754354 -0.00076200004 -0.00031068735
0.023230208 -0.001175926 -0.00033867639
0.023114 2.5465852e-11 0.0013057254
0.025310352 -0.00021166661 -0.0077209929
0.025310352 0.00010583331 -0.0077209934
0.025310354 0.00010583334 -0.0082458025
-0.023741528 -0.0011641667 -0.00079351198
-0.025728704 -0.0011641666 -0.0012133587
-0.02374153 -0.0011641667 -0.0017381683
-0.023218587 -0.0011641667 -0.0012133587
-0.021231411 -0.00076199998 -0.00031068735
-0.02029012 -0.0011641665 -0.0017381678
-0.020290118 0.00010583331 -0.0087706111
-0.01778 -0.00021166664 -0.0082458025
-0.01778 0.00010583327 -0.0082458025
-0.0087854117 -0.00031749997 -0.015278245
-0.0099358819 -0.00021166666 -0.014228626
-0.0092037646 -0.00031750003 -0.015278245
-0.0080532944 -0.00042333335 -0.01496336
-0.0099358819 -0.00021166669 -0.013808779
-0.0099358819 -0.00021166666 -0.013283971
-0.0074257646 -0.00021166661 -0.01275916
-0.007739529 -0.0002116667 -0.012234352
-0.0077395285 0.0001058333 -0.012234352
-0.010249646 -0.00021166672 -0.011289695
-0.010249647 -0.00021166672 -0.0097152675
-0.010772589 -0.0010583333 -0.015278245
-0.0087854108 0.00021166664 -0.015278245
-0.0092037655 0.00021166666 -0.015278245
-0.0082624704 0.00084666669 -0.015383206
-0.0074257646 0.00010583329 -0.014228626
-0.0072165881 0.00084666675 -0.015278245
-0.0066936472 0.00084666675 -0.015278244
-0.01129553 0.0010583333 -0.015278244
-0.010249647 -0.00021166666 -0.014228626
-0.011295529 -0.0010583333 -0.015278244
-0.01129553 -0.00031749997 -0.015278245
-0.012446 -0.00021166667 -0.014228626
-0.0062752939 -0.0011641666 -0.016747711
-0.0062848018 -0.00075045455 -0.017253434
-0.0057262066 -0.00074083335 -0.017246278
-0.020290118 -0.0011641667 -0.017167557
-0.019767176 -0.0011641666 -0.017167555
-0.020290118 -0.0011641667 -0.016747711
-0.019767176 -0.0011641667 -0.016747711
-0.020708472 -0.0011641667 -0.017167559
-0.020708472 -0.0011641666 -0.016747711
-0.020603882 0.00010583337 -0.023150383
-0.020394705 -0.00021166673 -0.02357023
-0.020324981 7.0555543e-05 -0.02357023
-0.020290118 0.0001058333 -0.022205723
-0.020603882 0.00010583339 -0.022730537
-0.020603882 0.0001058334 -0.02178588
-0.022277294 -0.0011641667 -0.016747713
0.022800237 -0.0011641666 -0.016222902
0.022800235 -0.0011641667 -0.01569809
0.023218587 -0.0011641668 -0.015698092
0.022277296 -0.0011641666 -0.0162229
0.020290118 -0.00021166663 -0.022205725
0.02426447 -0.0011641666 -0.016747711
0.024787411 -0.0011641667 -0.016747711
0.023741528 -0.0011641667 -0.017167555
0.02374153 -0.0011641666 -0.016747711
0.023741528 -0.0011641668 -0.015383206
0.024787413 -0.0011641666 -0.016222902
0.020603882 -0.00021166666 -0.023150383
0.025310352 0.00010583336 -0.022205725
0.024279412 -0.00075595232 -0.017152563
0.025310352 0.0001058334 -0.018217176
0.024768395 0.00075045449 -0.017158015
0.023114 3.2741809e-11 -0.014123664
0.023114 -4.7293724e-11 -0.01328397
0.024264472 0.00074083329 -0.015278245
0.025310352 -0.00021166663 -0.013808779
0.025624117 -0.00021166664 -0.014228626
0.025713762 -0.00075595238 -0.01529324
0.02426447 -0.0011641667 -0.016222902
0.02374153 -0.0011641667 -0.0162229
0.025310352 0.00010583333 -0.014228627
0.026251646 -0.00074083335 -0.015698092
0.026251646 -0.00074083341 -0.015383206
0.022808282 0.00013025643 -0.018741984
0.022277294 0.0011641667 -0.016747711
0.018198352 0.0011641667 -0.016747713
0.017800916 0.0011641666 -0.017230535
0.017257059 0.0011641666 -0.0162229
0.018188845 0.0011545455 -0.017253436
0.019244237 0.0011641667 -0.017272519
0.019767174 0.0011641666 -0.017167555
0.020290118 0.0011641667 -0.017167557
0.02029012 0.00074083341 -0.017272519
0.019767174 0.0011641666 -0.016747711
0.019795066 0.00074788881 -0.017230535
0.019234728 0.00075045455 -0.017253434
0.018705202 -0.00073269225 -0.017191779
0.018177439 -0.00074083335 -0.017230533
0.018198354 -0.0011641668 -0.017167557
0.018721292 0.00074083329 -0.017272521
0.018198354 0.00074083341 -0.017272517
0.017768379 0.00014111114 -0.018205514
0.019767176 -0.0011641666 -0.015698092
0.019244235 -0.0011641666 -0.015698092
0.019737294 -0.0011792857 -0.015353218
0.016226117 -0.00075595226 -0.01721254
0.017779998 -0.0002116667 -0.02073626
0.01778 -0.00021166661 -0.021261072
0.01778 0.00010583331 -0.021261068
0.02029012 0.00010583329 -0.018741984
0.019244237 0.00023812501 -0.017246278
0.020290118 0.0001058334 -0.018217176
0.025310354 0.00010583336 -0.020736262
0.025310352 0.00010583331 -0.019686639
0.023114 -0.00021166672 -0.019686641
0.023114001 -0.00021166667 -0.020211451
0.023114 -0.00021166666 -0.02073626
0.020603882 5.4569682e-11 -0.021785878
0.020290118 0.0001058333 -0.023255344
0.01778 0.00010583339 -0.02178588
0.01778 0.0001058333 -0.022205725
0.017779998 -0.00021166664 -0.022205725
0.017779998 0.00010583334 -0.022730537
0.0077511496 0.0011524074 -0.017202545
0.007718612 0.0001693333 -0.018741986
0.0099358819 0.0001058333 -0.02073626
0.010249647 0.00010583333 -0.020211451
0.010249647 0.00010583331 -0.02073626
0.0077395285 0.0001058334 -0.019686639
0.0099358819 0.00010583342 -0.019686641
0.0074257646 0.00010583334 -0.019686641
0.0077186115 0.00016933326 -0.019266797
0.0074257646 -0.00021166672 -0.019686641
0.0074257646 -0.00021166669 -0.019266795
0.010214784 -0.00028222217 -0.019266795
0.0099358819 -0.00021166664 -0.019266795
0.0076872353 -0.00029104165 -0.018768225
0.0076767765 -0.00029633334 -0.018238168
0.0072165877 -0.0011641666 -0.017167555
0.0077186124 0.00016933341 -0.018217176
0.0082624713 0.00074083329 -0.017272521
0.0099358819 0.00010583329 -0.018217176
0.0062752943 0.0011641667 -0.0162229
0.0071886978 0.0011571111 -0.017230533
0.0072165877 0.00074083329 -0.017272519
0.0066936463 0.0011641667 -0.017272519
0.0072165877 0.0011641666 -0.016222902
0.0052294116 0.0001058334 -0.020211453
0.0052084946 -0.00021166664 -0.020211453
0.0052294121 0.00010583331 -0.019686641
0.0057523539 -0.0011641667 -0.0162229
0.005752353 -0.0011641667 -0.016747711
0.005752353 -0.0011994444 -0.015663104
0.010249647 -0.00021166669 -0.020211449
0.01129553 -0.00074083335 -0.017167557
0.011725503 -0.00075259258 -0.017202545
0.00020917645 -0.00021166661 -0.022730535
0.0042741727 0.001157111 -0.017230535
0.0037651763 0.0011641667 -0.017167557
0.0037651763 0.00074083329 -0.017272519
0.0049156472 0.00010583337 -0.018741986
0.0024055294 0.00010583334 -0.022205725
0.0024055296 0.00010583333 -0.022730535
0.002719294 0.00010583334 -0.021261068
0.0027192938 0.00010583337 -0.020736262
0.0026147058 -0.00021166673 -0.02073626
0.0052294116 0.00010583329 -0.022205725
0.0001045882 0.00084666675 -0.01496336
0.00020917645 0.0011641667 -0.015278244
0.00018825877 0.0011430001 -0.015761068
-0.0012550588 0.0011288888 -0.01573308
0.00020917639 0.0011641667 -0.016222902
0.00073211774 0.0011641666 -0.016222902
-0.00020917639 0.0001058333 -0.022205725
0.00017431367 7.0555514e-05 -0.022205725
-0.00020917642 0.0001058334 -0.020736262
0.0001743137 7.0555616e-05 -0.020211453
-0.00020917642 0.00010583333 -0.020211451
-0.00010458828 -0.00021166667 -0.02073626
0.00073211757 0.0011641666 -0.017272521
0.001778 0.0011641667 -0.017167555
0.0012550589 0.0011641666 -0.016747713
-0.00074705895 0.0011641668 -0.01721254
-0.0017780002 0.0012170832 -0.016275382
-0.00020917651 0.0011641666 -0.017272519
0.00020917639 0.0011641667 -0.017272519
-0.00073211768 0.0011641667 -0.016747711
-0.0012550588 0.0011641667 -0.017167557
-0.0012550588 0.0011641667 -0.016747711
0.0051771179 -0.00026458339 -0.019266795
0.0051666591 -0.0002963334 -0.014207634
0.0062752943 -0.00031749997 -0.015278244
0.014223999 -0.00074083329 -0.017167557
0.010772587 -0.0011641667 -0.017167555
0.010249647 -0.00021166669 -0.022730535
0.012446 -0.00021166664 -0.02073626
0.012446 0.00010583329 -0.02073626
0.01526988 0.00010583337 -0.019686639
0.015304744 -0.00028222223 -0.019686639
0.010249647 0.00010583334 -0.021261068
0.012446 -0.00021166672 -0.022730535
0.013073529 -0.00021166666 -0.01496336
0.013282706 -0.0011641668 -0.016747711
0.013805646 -0.0011641667 -0.016747711
0.014223999 -0.0011641667 -0.0162229
0.01526988 -0.0011641668 -0.0162229
0.015688235 -0.0011641666 -0.016222902
0.015688237 -0.0011641667 -0.016747711
0.015688237 -0.0011641667 -0.01569809
0.016734118 -0.0011641668 -0.016747711
0.017257059 -0.0011641666 -0.016747711
0.017779998 -0.0011641667 -0.016222902
0.017257059 -0.0011641667 -0.0162229
0.016734118 -0.0011641666 -0.0162229
0.01778 -0.0011641666 -0.016747711
0.016734118 -0.0011641667 -0.015698092
0.014223999 -0.0011641667 -0.016747711
0.015269881 -0.00021166672 -0.010240077
0.014956118 -0.00021166661 -0.011604581
0.015269881 -0.00021166663 -0.011709543
0.015269883 0.0001058333 -0.012234352
0.012446 -0.00021166667 -0.013283971
0.012446 0.00010583336 -0.013808779
0.014956118 -0.00021166667 -0.013808779
0.015296028 -0.00026458336 -0.013283971
0.01778 -0.0002116667 -0.013283971
0.025310352 -0.00021166672 -0.0033125952
0.025310352 -0.00021166672 -0.0037324429
0.024787409 0.00074083329 -0.0022629774
0.02426447 0.00074083329 -0.0022629774
0.023741528 0.00021166667 -0.0022629774
0.02426447 0.00021166667 -0.0022629774
0.026265591 0.00022577774 -0.0022419849
0.022277294 -0.00074083335 -0.0022629774
0.018721294 -0.0011641667 -0.0022629774
0.020311035 -0.00021166666 -0.0068183206
0.020290118 -0.00021166669 -0.0057267174
0.02029012 0.00010583336 -0.0057267174
0.01778 0.00010583334 -0.0057267174
0.01778 -0.00021166661 -0.0057267174
0.017779998 -0.00021166666 -0.0052019088
0.017779998 -0.00021166661 -0.006251527
0.020603882 1.4551915e-11 -0.0047820611
0.020290118 -0.00021166673 -0.0042572524
0.020603882 -2.5465852e-11 -0.0037324429
0.020290118 -0.00021166664 -0.0037324429
0.020603882 4.7293724e-11 -0.0042572524
0.022800235 -0.00021166673 -0.0042572524
0.023114 0 -0.0050969468
0.023741534 -0.00074083329 -0.0022629774
0.023741528 -0.00031750006 -0.0022629774
0.020290118 0.00010583337 -0.0033125952
0.019244237 0.00021166664 -0.0022629774
0.020290118 0.00010583329 -0.0037324429
0.019244235 0.0011641667 -0.0022629774
0.019244235 0.00074083335 -0.002262977
0.024264472 -0.00031750003 -0.0022629774
-0.016211176 -0.0011641666 -0.00079351105
-0.016734118 -0.0011641666 -0.00079351105
-0.016734118 -0.0011641666 -0.0017381678
0.025624117 -0.00021166661 0.0017255722
0.02426447 -0.00074083329 -0.00037366431
-0.024787409 -0.0011641666 -0.016222902
-0.02426447 -0.0011641666 -0.016222902
-0.02374153 -0.0011641667 -0.016222902
-0.023741528 -0.0011641666 -0.015698092
-0.022800235 -0.00021166669 -0.0047820611
-0.022800237 0.00010583336 -0.0047820611
-0.022800237 0.00010583333 -0.0052019083
-0.020290118 -0.00021166673 -0.0047820616
-0.020603882 1.0913936e-11 -0.0047820611
-0.020290118 -0.00021166675 -0.0057267174
-0.01778 -0.00021166664 -0.0057267174
-0.01778 0.00010583337 -0.0057267174
-0.01778 0.0001058334 -0.006251527
-0.025310352 -0.00021166673 -0.0091904588
-0.02533127 -0.00021166661 -0.0097572524
-0.025624117 -0.00021166667 -0.010764886
-0.025624117 8.466671e-05 -0.010764886
-0.025624117 -0.00021166666 -0.011289695
-0.025624117 0.00010583329 -0.011289695
-0.025624117 -0.00021166664 -0.013808779
-0.026251649 0.00074083329 -0.015383206
-0.013805646 -0.0011641667 -0.0012133587
-0.014223999 -0.0011641666 -0.00079351105
-0.012759765 -0.00021166672 -0.0057267174
-0.012759764 -0.00021166664 -0.006251527
-0.014956118 -0.00021166663 -0.0050969468
-0.014956118 -0.0002116667 -0.0046770996
-0.015269882 -0.00021166673 -0.0047820611
-0.015269882 -0.00021166672 -0.0052019088
-0.014746942 -0.0011641667 -0.00079351105
-0.015269881 -0.0011641667 -0.00079351105
-0.014224 -0.0011641665 -0.0002687024
-0.01129553 -0.00076199998 -0.00031068735
-0.011713882 -0.00076199998 -0.00031068735
-0.011713882 -0.0011641667 -0.0022629774
-0.012236823 -0.0011641667 -0.0022629774
-0.011713882 -0.00074083329 -0.0022629774
-0.01129553 -0.0011641667 -0.0022629774
-0.012446 -0.00021166667 -0.0033125957
-0.012446 -0.00021166672 -0.0037324429
-0.012759765 -0.0011641667 -0.0017381683
-0.013282705 -0.0011641666 -0.0002687024
-0.013805646 -0.00076199992 -0.00031068735
-0.013282706 -0.0011641667 -0.0012133587
-0.012759765 0.00010583336 0.0022503817
-0.0082624704 -0.0011641666 -0.0012133587
-0.009726706 -0.0011641666 -0.0002687024
-0.010249647 -0.00021166666 0.00078091584
-0.0099358819 -0.00021166661 0.00078091584
-0.011713882 -0.0011641666 -0.0017381678
-0.01129553 -0.0011641665 -0.0002687024
-0.01129553 -0.0011641667 -0.00079351105
-0.01077259 -0.0011641667 -0.0002687024
-0.010772589 -0.0011641667 -0.0022629774
-0.010249646 -0.00021166664 -0.0047820611
-0.010249646 -0.00021166669 -0.0052019088
-0.01077259 -0.0011641667 -0.0017381683
-0.0092037646 -0.0011641667 -0.0017381678
-0.015269881 -0.0011641667 -0.0012133587
-0.014223999 -0.0011641666 -0.0017381678
-0.015269881 -0.00021166661 0.0017255731
-0.012759765 -0.00021166663 0.0013057254
-0.014956118 -3.2741809e-11 0.00099083968
-0.014224001 0.00021166667 -0.0002687024
-0.018198354 -0.0011641667 -0.00079351105
-0.01778 -0.0011641667 -0.0017381678
-0.018198352 -0.0011641666 -0.0022629774
-0.018721294 -0.0011641666 -0.0017381683
-0.018721294 -0.0011641666 -0.0022629774
-0.018721292 -0.00074083329 -0.0022629774
-0.020290118 -0.0011641667 -0.0012133587
0.00020917639 -0.00021166664 -0.012234352
-0.00073211762 0.00084666675 -0.015173283
-0.00018825877 0.00016933338 -0.013808778
-0.00018825885 0.00016933338 -0.014228627
-0.00057523529 0.00015875006 -0.01496336
0.00017431378 -0.00028222226 -0.014228626
0.0026147058 -0.00028222226 -0.013843767
0.0026147058 -0.00031749997 -0.014228626
0.00015688236 0.00015874996 -0.014228627
0.00015688236 0.00015875006 -0.013808778
-0.0026147058 -0.00021166672 -0.012234352
-0.0024055294 -0.00021166663 -0.012234352
-0.0024055294 -0.00021166673 -0.01275916
-0.00010458822 -0.00021166666 -0.01275916
0.00020917639 -0.00021166661 -0.01275916
0.0001882588 -0.00025399996 -0.013829772
-0.0012550588 0.00021166663 -0.015278245
0.0037651763 -0.00031750003 -0.015278245
0.0049156472 -0.0002116667 -0.014228626
0.0032422354 -0.00031750006 -0.015278246
-0.0026844312 -0.00021166667 -0.022240713
-0.0048110588 -0.0011641666 -0.017167557
-0.0052294116 -0.00021166667 -0.023255344
0.0052294116 -0.0011641667 -0.017167557
0.0048110588 -0.0011641667 -0.017167557
0.0049156472 -0.00021166661 -0.020211451
0.0042881169 -0.0011641667 -0.016747713
0.0042881174 -0.0011641667 -0.017167557
0.0049156472 -0.00021166661 -0.018741986
0.0026147058 -0.00021166664 -0.023255344
0.0042881174 -0.0011641666 -0.01569809
0.0049156472 -0.00021166672 -0.022205725
0.0049156472 -0.00021166669 -0.021261072
0.0026147058 -0.0002116667 -0.021261072
0.0087854117 -0.0011641667 -0.017167557
0.0087854117 -0.00074083341 -0.017167557
0.0082624704 -0.00074083335 -0.017167555
0.0082624713 -0.0011641666 -0.0162229
0.0077395285 -0.0011641666 -0.016222902
0.0082624704 -0.0011641667 -0.016747711
0.0077395285 -0.0011641667 -0.016747711
0.0052294121 -0.00021166667 -0.022730537
0.0077395285 0.00010583329 -0.022730535
0.0077395285 -0.00021166667 -0.022730537
0.0077395285 -0.00021166664 -0.023255344
0.0077395285 0.0001058334 -0.022205725
0.0099358819 0.00010583337 -0.022730535
0.0077395285 0.00010583333 -0.021261068
-0.0042881179 -0.0011641667 -0.016747711
-0.0032422354 -0.0011641667 -0.015278245
-0.0023009412 -0.0011641667 -0.016747711
-0.0017779999 -0.0011641666 -0.016222902
-0.0032422354 -0.0011641667 -0.016747711
-0.0032272937 -0.0011641666 -0.01721254
-0.0032422349 -0.0011641666 -0.0162229
-0.0012550588 -0.0011641666 -0.0162229
-0.00073211762 -0.0011641665 -0.016222902
-0.00020917648 -0.0011641667 -0.016222902
-0.018721296 0.0011641667 -0.015698092
-0.01778 0.0011641665 -0.016747711
-0.017257059 0.0011641667 -0.016747711
-0.01778 0.0011641666 -0.017167557
-0.01778 0.0011641668 -0.016222902
-0.015269881 0.00010583331 -0.0033125952
-0.015269881 0.00010583329 -0.0037324429
-0.014956118 -0.00021166672 -0.0033125957
-0.013805646 0.00021166672 -0.0022629774
-0.014224 0.0002116666 -0.0022629774
-0.01526988 -0.00021166664 -0.004257252
-0.014956118 -0.00021166661 -0.004257252
-0.015269882 0.00010583331 -0.004257252
-0.014746942 0.00074083329 -0.0022629774
-0.016211176 0.0011641666 -0.0002687024
-0.016734118 0.0011641667 -0.00079351105
-0.01778 0.00010583333 -0.004257252
-0.017779998 -0.00021166666 -0.0042572524
-0.01778 0.00010583337 -0.0047820611
-0.01778 0.00010583337 -0.0037324429
-0.016211176 0.0011641667 -0.0022629774
-0.016211176 0.00074083329 -0.0022629774
-0.016734118 0.00074083329 -0.0022629774
-0.016734118 0.0011641666 -0.0022629774
-0.015269881 0.00010583329 -0.0073011452
-0.014956118 -5.8207661e-11 -0.0082458016
-0.015269881 0.00010583339 -0.0077209934
-0.01778 0.00010583334 -0.0087706111
-0.018721294 0.0011641665 -0.00079351198
-0.018198352 0.0011641667 -0.00079351105
-0.018721294 0.0011641667 -0.0012133587
-0.020290118 0.0011641667 -0.0012133587
-0.019767174 0.00076199992 -0.00031068735
-0.014224 0.0011641667 -0.0017381678
-0.013805646 -0.0003175 -0.0022629774
-0.014223999 0.00074083335 -0.0022629774
-0.012446 -0.00021166672 -0.013808779
-0.012759765 -0.00021166672 -0.01275916
-0.014956118 -4.7293724e-11 -0.012864122
-0.014956118 -0.00021166666 -0.01275916
-0.010249647 0.0001058333 -0.01275916
-0.010249647 -0.00021166666 -0.012234352
-0.010249646 -0.00021166673 -0.01275916
-0.0099358819 -0.0002116667 -0.012234352
-0.013282705 -0.001128889 -0.015313233
-0.013805646 -0.001128889 -0.015313231
-0.013282706 -0.0011641666 -0.016222902
-0.013073529 -0.0002116667 -0.01496336
-0.0092037646 -0.0011641667 -0.017167557
-0.014956118 -0.00021166661 -0.011604581
-0.014956118 -0.00021166667 -0.01212939
-0.014956118 -4.7293724e-11 -0.013283971
-0.0152908 0.0001693333 -0.01328397
-0.015290799 0.00016933339 -0.013808779
-0.010249647 0.0001058334 -0.0091904588
-0.022277296 0.0011641667 -0.0022629774
-0.020603882 -3.6379788e-11 -0.0091904588
-0.025310352 0.00010583329 -0.0082458006
-0.023114 0.00010583333 -0.0077209929
-0.022800235 -0.0002116667 -0.0077209929
-0.022800235 0.0001058334 -0.0067763356
-0.022800237 0.00010583333 -0.006251527
-0.022800235 -0.00021166664 -0.006251527
-0.023114 0.00010583331 0.0013057254
-0.025624117 0.00010583339 0.00025610719
-0.025310352 -0.0011641666 -0.00037366431
-0.023114 -0.00021166673 0.0016206112
-0.025624117 -0.00021166669 0.0017255722
-0.025624117 7.0555558e-05 0.0013407124
-0.025624117 -0.00021166661 0.0013057254
-0.025310352 0.00010583334 0.00078091584
-0.024803502 0.00074897439 -0.00034944247
-0.02426447 0.00074083335 -0.00037366431
-0.023741527 0.001143 -0.00031068735
-0.022779318 0.0011641668 -0.00031068735
0.02667 0.00021166661 -0.015698092
0.026228406 0.00075259263 -0.015313233
0.025624117 0.00010583333 -0.013808779
0.025624117 0.00010583337 -0.010240077
0.025624117 0.00010583339 -0.010764886
0.025310352 0.00010583334 -0.0091904588
0.025624117 0.00010583337 -0.0047820611
0.025624117 -0.00021166667 -0.0046770996
0.025624117 0.00010583339 -0.0057267174
0.023741528 0.0011641667 -0.015698092
0.024787411 0.0011641667 -0.015698092
0.01778 -0.00021166666 -0.0097152675
0.01778 0.0001058334 -0.0097152684
0.018198352 -0.0011641667 -0.015383206
0.017789505 -0.0003078788 -0.014772519
0.017779998 -0.0011641667 -0.015383206
0.01778 -0.0011641666 -0.01569809
0.018751176 -0.0011792857 -0.015353218
0.023714244 0.00022086958 -0.00030521117
0.012759764 0.00010583329 -0.0037324429
0.025310352 -0.00021166666 -0.010764886
0.02667 -0.00028222223 -0.015313231
0.026251646 -0.00031750003 -0.015278245
0.025624117 0.00010583339 -0.0082458025
0.022800235 -0.0002116667 -0.0082458025
0.022800235 0.00010583339 -0.0077209934
0.022800237 0.00010583339 -0.0082458025
0.022800235 -0.00021166672 -0.0077209929
0.022800235 -0.00021166664 -0.0073011452
0.022800237 0.00010583329 -0.0073011452
0.023114 -2.910383e-11 -0.0086656492
0.022256374 0.0011430001 -0.015299236
0.022800235 0.001128889 -0.015313233
0.010249647 -0.0011641666 -0.0017381683
0.0099358819 -0.00021166666 -0.0047820611
0.010249647 -0.00021166664 -0.004257252
0.0099358819 -0.00021166664 -0.0040473286
0.0077395285 -0.00021166673 -0.0057267174
0.012759765 -0.0011994444 -0.015733078
0.0074257646 0.00010583334 -0.014228626
0.0074257641 0.00010583339 -0.013283971
0.010249647 -0.0011641667 -0.016222902
0.010214785 -0.00028222226 -0.014753436
0.0099358819 -0.00021166664 -0.013808779
-0.0049156472 -0.00021166666 -0.022205725
-0.0024055296 0.00010583336 -0.022730535
-0.0024055294 0.00010583334 -0.022205725
0.00017431367 7.0555572e-05 -0.019686641
-0.00020917648 0.0001058334 -0.019686641
0.00015688242 0.00015874997 -0.018741986
-0.0001882588 0.0001693333 -0.018217178
0.00017431375 7.0555558e-05 -0.020736262
0.0001743137 7.0555601e-05 -0.02126107
0.00020917645 -0.00021166672 -0.02073626
-0.0052410327 -0.0011524075 -0.017202543
-0.0051945494 -0.00028222214 -0.018741986
-0.0052084946 -0.00025399998 -0.019245803
-0.0051771174 0.00015874997 -0.018741984
-0.0051845885 0.00012095245 -0.019251803
-0.0074257641 0.00010583331 -0.021261068
-0.0051945494 7.0555499e-05 -0.02126107
-0.0052294116 -0.00021166667 -0.021261072
-0.0052294121 -0.00021166664 -0.02073626
-0.0074257646 -0.00021166664 -0.022205725
-0.0099358819 7.0555543e-05 -0.023220358
-0.0099358819 0.00010583331 -0.022730537
-0.012759764 -0.00021166673 -0.023255344
-0.012446 -0.00021166661 -0.023255344
-0.012759765 1.4551915e-11 -0.02357023
-0.010249647 0.00010583339 -0.022730535
-0.014956118 -0.00021166664 -0.019686641
-0.014956118 -0.00021166663 -0.019371757
-0.015304744 -0.00028222223 -0.019686641
-0.014956118 -0.0002116667 -0.020211451
-0.012446 -0.00021166669 -0.022730535
-0.012759765 -0.00021166661 -0.022730535
-0.012759765 -0.00021166667 -0.022205725
-0.017779998 -0.0002116667 -0.022730535
-0.017779998 -0.00021166663 -0.022205725
-0.012759765 0.00010583334 -0.023255346
-0.014956118 -3.2741809e-11 -0.022835497
-0.014956118 -0.00021166673 -0.023150383
-0.018721292 -0.0011288889 -0.015266582
-0.018721292 -0.0011641666 -0.015698092
-0.019244235 -0.0011641667 -0.015698092
-0.019767176 -0.0011641667 -0.015698092
-0.0051666591 8.4666652e-05 -0.023234352
-0.009726706 0.0011641667 -0.017167555
-0.010249647 0.0011641667 -0.017167557
-0.013282706 0.00074083335 -0.017167555
-0.020708472 0.0011641667 -0.016747711
-0.022800235 0.0011641667 -0.016747711
-0.022800235 0.0011641666 -0.017167557
-0.0087854108 -0.0011641666 -0.016222902
-0.0099358819 -0.00021166669 -0.0052019088
-0.010249647 -0.0002116667 -0.0067763356
-0.010249647 0.00010583331 -0.0067763356
-0.010249647 -0.0002116667 -0.006251527
-0.0099358819 -0.00021166666 -0.0067763356
-0.0099358819 -0.0002116667 -0.0073011452
-0.0099358819 -0.00021166664 -0.006251527
-0.0099358819 -7.2759576e-12 -0.006251527
-0.0066936468 -0.0011641667 -0.00079351105
-0.0062752939 -0.0011641667 -0.0002687024
-0.0062752948 -0.00076200004 -0.00031068735
-0.0066936463 -0.00076199998 -0.00031068735
-0.005752353 -0.0011641667 -0.00079351105
-0.0057523544 -0.0011641666 -0.0017381683
-0.007739529 -0.0011641667 -0.0017381678
-0.0077395295 -0.0011641667 -0.0002687024
-0.0087854108 -0.0011641667 -0.0002687024
-0.0066936468 -0.0011641667 -0.0022629774
-0.0066936468 -0.00074083335 -0.0022629774
