# .PCD v0.7 - Point Cloud Data file format
VERSION 0.7
FIELDS x y z
SIZE 4 4 4
TYPE F F F
COUNT 1 1 1
WIDTH 1205
HEIGHT 1
VIEWPOINT 0 0 0 1 0 0 0
POINTS 1205
DATA ascii
-0.0038768421 0.00042333335 -0.0319
0.005748421 -0.00127 -0.0014999999
0.015373684 -0.00098777784 -0.0022999998
0.015373684 -0.00070555555 -0.0022999998
-0.0036094738 -0.00014111112 -0.0319
-0.0036094738 0.00014111112 -0.0319
0.014036843 0.00014111112 -0.024699999
0.014036843 -0.00014111112 -0.024699999
0.013769474 -0.00014111112 -0.024699999
0.011363158 0.00014111112 0.00036666673
0.011363158 -0.00014111112 0.00036666673
-0.0038768421 -0.00014111112 -0.0319
-0.0020052632 -0.00127 -0.0012333333
-0.0022726317 0.00127 -0.0012333333
-0.014036843 0.00014111112 -0.0078999996
-0.014036843 -0.00014111112 -0.0078999996
-0.016443158 -0.00098777784 -0.0022999998
-0.016443158 -0.00070555555 -0.0022999998
0.011630527 0.00014111112 -0.024699999
0.011630527 -0.00014111112 -0.024699999
0.013769474 -0.00014111112 0.0006333334
0.0060157897 -0.00127 -0.0014999999
0.005748421 0.00127 -0.0014999999
-0.0089568421 0.00014111112 -0.0070999996
-0.016710527 0.00070555555 -0.0022999998
-0.016710527 0.00098777784 -0.0022999998
-0.0086894743 -0.00014111112 -0.0070999996
-0.0086894743 0.00014111112 -0.0070999996
0.0086894743 -0.00127 -0.0017666665
0.011363158 0.00014111112 -0.024699999
-0.0038768421 -0.00014111112 -0.022299999
-0.0038768421 0.00014111112 -0.022299999
0.013769474 0.00014111112 0.0006333334
-0.016710527 0.00127 -0.0022999998
-0.016443158 -0.00127 -0.0022999998
-0.0038768421 -0.00042333335 -0.0319
-0.0036094738 -0.00014111112 -0.022299999
-0.0036094738 0.00014111112 -0.022299999
0.006283158 0.00014111112 -0.024699999
-0.0012031579 0.00014111112 -0.0319
-0.006283158 -0.00014111112 -0.0070999996
-0.006283158 0.00014111112 -0.0070999996
-0.016443158 0.00070555555 -0.0022999998
-0.016443158 0.00098777784 -0.0022999998
-0.016443158 0.00127 -0.0022999998
0.0054810527 0.00127 -0.0014999999
0.0065505262 0.00014111112 -0.024699999
0.006283158 -0.00014111112 -0.024699999
-0.01617579 -0.00127 -0.0022999998
0.0012031579 -0.00014111112 -0.022299999
0.0012031579 0.00014111112 -0.022299999
-0.01617579 -0.00098777784 -0.0022999998
-0.01617579 -0.00070555555 -0.0022999998
-0.0089568421 0.00014111112 -0.0030999999
0.015373684 -0.00042333335 -0.0022999998
-0.016710527 -0.00014111112 -0.005233333
-0.0065505262 -0.00014111112 -0.0070999996
0.011363158 -0.00014111112 -0.024699999
-0.016443158 -0.00042333335 -0.0022999998
0.0038768421 0.00014111112 -0.032966666
0.0038768421 -0.00014111112 -0.032966666
0.014036843 -0.00014111112 0.0006333334
0.014036843 0.00014111112 0.0006333334
-0.0014705263 -0.00014111112 -0.022299999
-0.0014705263 0.00014111112 -0.022299999
-0.016443158 0.00042333335 -0.0022999998
0.0036094738 0.00014111112 -0.032966666
0.0036094738 -0.00014111112 -0.032966666
0.0089568421 0.00014111112 -0.024699999
0.0089568421 -0.00014111112 -0.024699999
0.0086894743 0.00014111112 -0.024699999
-0.0012031579 -0.00014111112 -0.022299999
-0.0012031579 0.00014111112 -0.022299999
0.0086894743 -0.00014111112 -0.024699999
-0.0014705263 -0.00014111112 -0.0319
-0.0014705263 0.00014111112 -0.0319
-0.0012031579 -0.00042333335 -0.0319
-0.0065505262 -0.00014111112 -0.005233333
0.006283158 -0.00014111112 -0.021766666
0.006283158 0.00014111112 -0.033233333
0.006283158 -0.00014111112 -0.033233333
-0.014838948 0.00014111112 -0.031366665
0.006283158 0.00014111112 -0.021766666
-0.014571579 -0.00014111112 -0.031366665
-0.014571579 0.00014111112 -0.031366665
0.0065505262 0.00014111112 -0.021766666
-0.01430421 -0.00042333335 -0.031366665
-0.01430421 0.00014111112 -0.031366665
-0.01430421 0.00042333335 -0.031366665
-0.015106316 -0.00014111112 -0.031366665
-0.014036843 0.00042333335 -0.031366665
-0.006283158 0.00014111112 -0.0081666661
-0.006283158 -0.00014111112 -0.0081666661
-0.013769474 -0.00042333335 -0.031366665
-0.013769474 0.00042333335 -0.031366665
0.0086894743 -0.00014111112 -0.021766666
0.0086894743 0.00014111112 -0.021766666
0.016710527 0.00098777784 -0.0022999998
-0.01617579 -0.00014111112 -0.031366665
-0.0014705263 0.00014111112 -0.025233332
-0.0014705263 -0.00014111112 -0.025233332
0.0014705263 -0.00014111112 -0.021766666
0.0014705263 0.00014111112 -0.021766666
-0.016710527 -0.00014111112 -0.031366665
-0.016710527 0.00014111112 -0.031366665
0.013502105 0.00127 -0.0012333333
0.013769474 -0.00127 -0.0012333333
-0.016443158 0.00014111112 -0.031366665
0.0036094738 -0.00014111112 -0.021766666
0.0036094738 0.00014111112 -0.021766666
0.0089568421 -0.00014111112 -0.021766666
-0.01617579 0.00014111112 -0.031366665
0.0038768421 -0.00014111112 -0.021766666
0.0038768421 0.00014111112 -0.021766666
-0.015908422 -0.00014111112 -0.031366665
-0.015908422 0.00014111112 -0.031366665
-0.0014705263 -0.00127 -0.0017666665
-0.015641052 -0.00014111112 -0.031366665
0.0065505262 0.00014111112 -0.033233333
0.0065505262 -0.00014111112 -0.033233333
-0.011630527 0.00042333335 -0.031366665
-0.011897895 0.00014111112 -0.031366665
-0.011897895 0.00042333335 -0.031366665
0.0038768421 0.00014111112 -0.033233333
0.0038768421 -0.00014111112 -0.033233333
0.0036094738 0.00014111112 -0.033233333
0.0036094738 -0.00014111112 -0.033233333
-0.011897895 -0.00014111112 -0.031366665
-0.011630527 0.00070555555 -0.031366665
-0.011630527 0.00127 -0.031366665
0.013769474 -0.00014111112 -0.021766666
0.013769474 0.00014111112 -0.021766666
0.014036843 -0.00014111112 -0.021766666
0.014036843 0.00014111112 -0.021766666
-0.011095789 -0.00042333335 -0.031366665
-0.0127 -0.00014111112 -0.031366665
0.0089568421 0.00014111112 -0.021766666
-0.0086894743 -0.00014111112 0.0014333334
-0.0086894743 0.00014111112 0.0014333334
-0.012967369 -0.00042333335 -0.031366665
-0.0065505262 -0.00014111112 -0.0081666661
-0.012967369 -0.00014111112 -0.031366665
-0.012967369 0.00014111112 -0.031366665
-0.006283158 -0.00014111112 -0.005233333
-0.012967369 0.00042333335 -0.031366665
-0.006283158 0.00014111112 -0.005233333
-0.0127 -0.00042333335 -0.031366665
0.0012031579 0.00014111112 -0.021766666
-0.0127 0.00014111112 -0.031366665
-0.012432632 -0.00042333335 -0.031366665
-0.012432632 0.00042333335 -0.031366665
0.011363158 -0.00014111112 -0.021766666
0.011363158 0.00014111112 -0.021766666
-0.012165263 -0.00042333335 -0.031366665
0.011630527 -0.00014111112 -0.021766666
0.011630527 0.00014111112 -0.021766666
-0.012165263 -0.00014111112 -0.031366665
-0.012165263 0.00014111112 -0.031366665
-0.012165263 0.00042333335 -0.031366665
-0.011897895 -0.00042333335 -0.031366665
-0.012165263 -0.00042333335 -0.0022999998
-0.006283158 0.00014111112 -0.021766666
0.0086894743 0.00014111112 -0.025233332
0.0086894743 -0.00014111112 -0.025233332
-0.012165263 -0.00098777784 -0.0022999998
-0.014036843 -0.00014111112 -0.0068333331
0.016710527 0.00070555555 -0.0022999998
-0.0089568421 -0.00014111112 0.0014333334
0.013769474 -0.00014111112 -0.031633332
0.013769474 0.00014111112 -0.031633332
0.014036843 -0.00014111112 -0.031633332
0.014036843 0.00014111112 -0.031633332
-0.014036843 0.00014111112 -0.0068333331
-0.012165263 -0.00070555555 -0.0022999998
-0.006283158 -0.00014111112 -0.021766666
-0.0060157897 0.00127 -0.0012333333
-0.013769474 -0.00014111112 -0.0068333331
-0.0038768421 -0.00014111112 -0.021766666
-0.0038768421 0.00014111112 -0.021766666
0.0065505262 0.00014111112 -0.025233332
0.006283158 0.00014111112 -0.025233332
0.0086894743 0.00070555555 -0.0022999998
-0.0036094738 -0.00014111112 -0.021766666
-0.0036094738 0.00014111112 -0.021766666
0.006283158 -0.00014111112 -0.025233332
0.0086894743 0.00042333335 -0.0022999998
-0.011363158 -0.00014111112 0.00090000004
0.011630527 0.00014111112 -0.031633332
0.016710527 0.00042333335 -0.0022999998
0.011363158 -0.00014111112 -0.031633332
0.011363158 0.00042333335 -0.031633332
0.0036094738 0.00014111112 0.00036666673
0.0036094738 -0.00014111112 0.00036666673
0.011630527 -0.00014111112 -0.031633332
-0.011363158 0.00014111112 0.00090000004
0.011630527 0.00042333335 -0.031633332
-0.005748421 -0.00127 -0.0012333333
-0.011630527 -0.00014111112 0.00090000004
-0.012432632 0.00070555555 -0.0022999998
-0.011630527 0.00014111112 0.00090000004
-0.0065505262 -0.00014111112 -0.021766666
-0.012432632 0.00098777784 -0.0022999998
-0.012165263 -0.00127 -0.0022999998
0.0089568421 0.00014111112 -0.025233332
0.0089568421 -0.00014111112 -0.025233332
-0.012165263 0.00098777784 -0.0022999998
-0.0014705263 -0.00014111112 -0.021766666
-0.0014705263 0.00014111112 -0.021766666
0.0014705263 0.00014111112 -0.025233332
0.0014705263 -0.00014111112 -0.025233332
0.0012031579 0.00014111112 -0.025233332
-0.0012031579 -0.00014111112 -0.021766666
-0.0012031579 0.00014111112 -0.021766666
0.0012031579 -0.00014111112 -0.025233332
0.0038768421 0.00014111112 -0.0057666665
0.0038768421 -0.00014111112 -0.0057666665
0.0086894743 -0.00042333335 -0.0022999998
0.016710527 0.00014111112 -0.031633332
-0.012165263 0.00127 -0.0022999998
0.0036094738 0.00014111112 -0.0057666665
-0.0089568421 0.00014111112 0.0014333334
0.0036094738 -0.00014111112 -0.0057666665
-0.011897895 -0.00127 -0.0022999998
-0.011630527 -0.00014111112 -0.0068333331
0.0086894743 -0.00070555555 -0.0022999998
-0.011630527 0.00014111112 -0.0068333331
0.0086894743 -0.00098777784 -0.0022999998
0.0012031579 -0.00014111112 -0.021766666
-0.0012031579 0.00014111112 -0.025233332
-0.0012031579 -0.00014111112 -0.025233332
-0.012165263 -0.00014111112 -0.0022999998
-0.0036094738 0.00014111112 -0.0081666661
-0.0036094738 -0.00014111112 -0.0081666661
-0.012165263 0.00014111112 -0.0022999998
0.0089568421 0.00014111112 -0.033233333
0.0089568421 -0.00014111112 -0.033233333
0.0038768421 0.00014111112 -0.025233332
0.0038768421 -0.00014111112 -0.025233332
0.0036094738 0.00014111112 -0.025233332
0.0036094738 -0.00014111112 -0.025233332
0.0086894743 0.00014111112 -0.033233333
0.0086894743 -0.00014111112 -0.033233333
0.016443158 -0.00014111112 -0.031633332
-0.0038768421 0.00014111112 -0.0081666661
-0.0038768421 -0.00014111112 -0.0081666661
0.016443158 0.00014111112 -0.031633332
-0.012165263 0.00042333335 -0.0022999998
-0.012165263 0.00070555555 -0.0022999998
0.016710527 -0.00014111112 -0.031633332
-0.006283158 -0.00127 -0.031366665
-0.006817895 -0.00014111112 -0.031366665
-0.006817895 0.00014111112 -0.031366665
-0.006817895 0.00042333335 -0.031366665
-0.006817895 0.00070555555 -0.031366665
-0.0065505262 -0.00098777784 -0.031366665
-0.0065505262 -0.00070555555 -0.031366665
-0.0065505262 -0.00042333335 -0.031366665
-0.0065505262 0.00070555555 -0.031366665
-0.0089568421 -0.00014111112 -0.021499999
-0.0089568421 0.00014111112 -0.021499999
-0.0014705263 -0.00014111112 -0.033233333
-0.006283158 -0.00098777784 -0.031366665
-0.006283158 -0.00070555555 -0.031366665
-0.0086894743 -0.00014111112 -0.021499999
-0.0086894743 0.00014111112 -0.021499999
0.01430421 -0.00127 -0.0012333333
-0.006283158 0.00070555555 -0.031366665
-0.0012031579 0.00014111112 -0.0025666666
-0.014036843 -0.00014111112 -0.0081666661
-0.0073526315 -0.00098777784 -0.031366665
-0.011630527 -0.00014111112 -0.021499999
-0.011630527 0.00014111112 -0.021499999
-0.0073526315 -0.00070555555 -0.031366665
-0.014036843 0.00014111112 -0.0081666661
-0.0073526315 -0.00042333335 -0.031366665
-0.0073526315 -0.00014111112 -0.031366665
-0.0073526315 0.00014111112 -0.031366665
-0.0073526315 0.00042333335 -0.031366665
-0.011363158 -0.00014111112 -0.021499999
-0.011363158 0.00014111112 -0.021499999
-0.0070852633 -0.00098777784 -0.031366665
-0.0070852633 -0.00070555555 -0.031366665
-0.0070852633 -0.00042333335 -0.031366665
-0.0012031579 0.00014111112 -0.033233333
-0.0012031579 -0.00014111112 -0.033233333
-0.0070852633 -0.00014111112 -0.031366665
-0.0070852633 0.00014111112 -0.031366665
-0.0070852633 0.00042333335 -0.031366665
-0.006817895 -0.00127 -0.031366665
-0.006817895 -0.00098777784 -0.031366665
-0.006817895 -0.00070555555 -0.031366665
-0.006817895 -0.00042333335 -0.031366665
-0.0014705263 0.00014111112 -0.033233333
-0.0052136844 -0.00098777784 -0.031366665
0.01430421 0.00127 -0.0012333333
0.014571579 -0.00127 -0.0012333333
-0.0012031579 -0.00042333335 -0.0025666666
-0.005748421 0.00042333335 -0.031366665
-0.005748421 0.00070555555 -0.031366665
-0.0054810527 -0.00098777784 -0.031366665
-0.0054810527 -0.00070555555 -0.031366665
-0.0054810527 -0.00042333335 -0.031366665
-0.0054810527 -0.00014111112 -0.031366665
-0.0054810527 0.00014111112 -0.031366665
-0.0054810527 0.00042333335 -0.031366665
-0.005748421 0.00014111112 -0.031366665
-0.0038768421 -0.00014111112 -0.021499999
-0.0038768421 0.00014111112 -0.021499999
-0.0052136844 -0.00070555555 -0.031366665
-0.0036094738 0.00014111112 -0.033233333
-0.0036094738 -0.00014111112 -0.033233333
-0.0052136844 -0.00042333335 -0.031366665
-0.0052136844 -0.00014111112 -0.031366665
-0.0052136844 0.00014111112 -0.031366665
-0.0052136844 0.00042333335 -0.031366665
-0.0049463161 -0.00098777784 -0.031366665
-0.0049463161 -0.00070555555 -0.031366665
-0.0049463161 -0.00042333335 -0.031366665
-0.0060157897 -0.00042333335 -0.031366665
-0.0012031579 -0.00014111112 -0.0025666666
0.016977895 0.00070555555 -0.0022999998
-0.0060157897 -0.00127 -0.031366665
-0.0060157897 -0.00098777784 -0.031366665
0.016977895 0.00098777784 -0.0022999998
-0.0060157897 -0.00070555555 -0.031366665
-0.0065505262 -0.00014111112 -0.021499999
0.0089568421 0.00127 -0.0017666665
-0.0060157897 0.00042333335 -0.031366665
-0.0060157897 0.00070555555 -0.031366665
-0.006283158 -0.00014111112 -0.021499999
-0.006283158 0.00014111112 -0.021499999
-0.005748421 -0.00098777784 -0.031366665
-0.005748421 -0.00070555555 -0.031366665
-0.005748421 -0.00042333335 -0.031366665
-0.005748421 -0.00014111112 -0.031366665
-0.0097589474 -0.00042333335 -0.031366665
-0.0097589474 -0.00014111112 -0.031366665
0.0012031579 0.00014111112 0.00036666673
0.0012031579 -0.00014111112 0.00036666673
-0.0094915796 -0.00042333335 -0.031366665
-0.0094915796 -0.00014111112 -0.031366665
-0.0094915796 0.00014111112 -0.031366665
-0.0094915796 0.00042333335 -0.031366665
0.0014705263 0.00014111112 -0.033233333
0.0014705263 -0.00014111112 -0.033233333
-0.0092242109 -0.00070555555 -0.031366665
0.0014705263 -0.00014111112 0.00036666673
-0.0092242109 -0.00042333335 -0.031366665
-0.016710527 0.00014111112 -0.021499999
-0.0092242109 0.00014111112 -0.031366665
-0.0092242109 0.00042333335 -0.031366665
0.0012031579 -0.00014111112 -0.033233333
-0.0089568421 -0.00098777784 -0.031366665
-0.016443158 -0.00014111112 -0.021499999
-0.016443158 0.00014111112 -0.021499999
-0.0089568421 -0.00070555555 -0.031366665
-0.010561053 -0.00014111112 -0.031366665
-0.011095789 0.00014111112 -0.031366665
-0.011095789 0.00042333335 -0.031366665
-0.0086894743 0.00014111112 -0.0081666661
-0.0086894743 -0.00014111112 -0.0081666661
-0.010828421 -0.00042333335 -0.031366665
-0.010828421 -0.00014111112 -0.031366665
-0.0089568421 0.00014111112 -0.0081666661
-0.0089568421 -0.00014111112 -0.0081666661
-0.010828421 0.00014111112 -0.031366665
-0.010828421 0.00042333335 -0.031366665
-0.010828421 0.00070555555 -0.031366665
-0.010561053 -0.00070555555 -0.031366665
-0.010561053 -0.00042333335 -0.031366665
-0.010293685 -0.00070555555 -0.031366665
0.016443158 -0.00014111112 -0.021766666
0.016443158 0.00014111112 -0.021766666
-0.010293685 -0.00042333335 -0.031366665
-0.010293685 -0.00014111112 -0.031366665
0.016710527 -0.00014111112 -0.021766666
0.016710527 0.00014111112 -0.021766666
0.013769474 0.00127 -0.0012333333
0.014036843 -0.00127 -0.0012333333
-0.010026316 -0.00042333335 -0.031366665
-0.010026316 -0.00014111112 -0.031366665
0.0014705263 0.00014111112 0.00036666673
-0.014036843 -0.00014111112 -0.021499999
-0.014036843 0.00014111112 -0.021499999
-0.007887369 -0.00127 -0.031366665
-0.007887369 -0.00098777784 -0.031366665
-0.007887369 -0.00070555555 -0.031366665
-0.007887369 -0.00042333335 -0.031366665
-0.007887369 -0.00014111112 -0.031366665
-0.007887369 0.00014111112 -0.031366665
-0.007887369 0.00042333335 -0.031366665
-0.0081547368 0.00014111112 -0.031366665
-0.0076200003 -0.00098777784 -0.031366665
-0.0076200003 -0.00070555555 -0.031366665
-0.0076200003 -0.00042333335 -0.031366665
0.016977895 0.00014111112 -0.0022999998
0.016977895 0.00042333335 -0.0022999998
-0.0076200003 -0.00014111112 -0.031366665
-0.0076200003 0.00014111112 -0.031366665
0.014036843 0.00127 -0.0012333333
-0.0076200003 0.00042333335 -0.031366665
-0.0084221056 -0.00098777784 -0.031366665
-0.0089568421 0.00070555555 -0.031366665
-0.0086894743 -0.00070555555 -0.031366665
-0.0086894743 0.00042333335 -0.031366665
-0.011363158 0.00014111112 -0.0081666661
-0.011363158 -0.00014111112 -0.0081666661
-0.0086894743 0.00070555555 -0.031366665
0.011363158 -0.00042333335 -0.031633332
-0.0084221056 -0.00070555555 -0.031366665
-0.011630527 0.00014111112 -0.0081666661
-0.011630527 -0.00014111112 -0.0081666661
-0.0084221056 -0.00042333335 -0.031366665
-0.0084221056 -0.00014111112 -0.031366665
-0.0084221056 0.00014111112 -0.031366665
-0.0081547368 -0.00098777784 -0.031366665
-0.0081547368 -0.00070555555 -0.031366665
-0.0081547368 -0.00042333335 -0.031366665
-0.0081547368 -0.00014111112 -0.031366665
-0.014036843 -0.00014111112 0.00090000004
-0.012967369 0.00042333335 -0.0022999998
0.0086894743 -0.00014111112 -0.022033332
0.0086894743 0.00014111112 -0.022033332
0.015908422 0.00098777784 -0.0022999998
0.0086894743 0.00127 -0.0017666665
-0.016443158 0.00014111112 -0.024966666
-0.016443158 -0.00014111112 -0.024966666
-0.014036843 0.00014111112 0.00090000004
0.0089568421 -0.00014111112 -0.022033332
0.0089568421 0.00014111112 -0.022033332
0.015908422 0.00127 -0.0022999998
-0.016710527 -0.00014111112 -0.032966666
0.01617579 -0.00098777784 -0.0022999998
-0.016710527 0.00014111112 -0.024966666
-0.016710527 -0.00014111112 -0.024966666
-0.012967369 0.00070555555 -0.0022999998
-0.012967369 0.00098777784 -0.0022999998
0.006283158 0.00014111112 -0.0057666665
0.013234737 -0.00127 -0.0012333333
0.006283158 -0.00014111112 -0.0057666665
0.015908422 0.00042333335 -0.0022999998
-0.0086894743 0.00014111112 -0.031633332
0.0065505262 0.00014111112 -0.022033332
0.015908422 -0.00014111112 -0.0022999998
-0.012967369 -0.00042333335 -0.0022999998
0.014036843 -0.00014111112 -0.0070999996
0.014036843 0.00014111112 -0.0070999996
-0.012967369 -0.00014111112 -0.0022999998
-0.012967369 0.00014111112 -0.0022999998
0.015908422 0.00014111112 -0.0022999998
0.012967369 0.00127 -0.0012333333
-0.0065505262 -0.00014111112 -0.031633332
-0.016443158 0.00014111112 -0.032966666
-0.016443158 -0.00014111112 -0.032966666
-0.0065505262 0.00014111112 -0.031633332
-0.006283158 -0.00042333335 -0.031633332
0.015908422 0.00070555555 -0.0022999998
-0.006283158 0.00042333335 -0.031633332
-0.016710527 0.00014111112 -0.032966666
0.016443158 0.00042333335 -0.0022999998
0.016443158 -0.00014111112 -0.0070999996
0.0065505262 0.00014111112 0.00036666673
0.016443158 0.00014111112 -0.0070999996
-0.0127 -0.00098777784 -0.0022999998
0.0065505262 -0.00014111112 0.00036666673
-0.0036094738 0.00014111112 -0.031633332
0.016443158 0.00070555555 -0.0022999998
0.016710527 0.00014111112 -0.0070999996
-0.0127 -0.00070555555 -0.0022999998
0.0038768421 0.00014111112 -0.0081666661
0.0038768421 -0.00014111112 -0.0081666661
-0.0036094738 -0.00127 -0.0012333333
-0.0038768421 0.00127 -0.0012333333
0.016443158 0.00098777784 -0.0022999998
-0.0127 -0.00042333335 -0.0022999998
0.0089568421 -0.00127 -0.0017666665
-0.0033421053 -0.00127 -0.0012333333
0.0014705263 0.00014111112 -0.0025666666
0.0014705263 -0.00014111112 -0.0025666666
0.01617579 0.00014111112 -0.0022999998
0.01617579 0.00042333335 -0.0022999998
0.01617579 0.00070555555 -0.0022999998
-0.0036094738 0.00127 -0.0012333333
-0.013769474 -0.00014111112 0.00090000004
-0.0038768421 -0.00042333335 -0.031633332
0.01617579 0.00098777784 -0.0022999998
0.01617579 0.00127 -0.0022999998
0.006283158 0.00014111112 -0.022033332
0.011363158 -0.00014111112 -0.022033332
0.011363158 0.00014111112 -0.022033332
-0.0038768421 -0.00014111112 -0.031633332
-0.0038768421 0.00014111112 -0.031633332
-0.0038768421 0.00042333335 -0.031633332
-0.0036094738 -0.00042333335 -0.031633332
0.011630527 -0.00014111112 -0.022033332
0.011630527 0.00014111112 -0.022033332
-0.0036094738 -0.00014111112 -0.031633332
-0.006283158 -0.00014111112 -0.024966666
-0.0038768421 0.00014111112 -0.024966666
-0.0038768421 -0.00014111112 -0.024966666
-0.013502105 0.00042333335 -0.0022999998
-0.013502105 0.00070555555 -0.0022999998
0.0012031579 -0.00014111112 -0.022033332
-0.013502105 0.00098777784 -0.0022999998
0.0012031579 0.00014111112 -0.022033332
-0.006283158 0.00014111112 -0.024966666
0.0014705263 -0.00014111112 -0.022033332
0.0014705263 0.00014111112 -0.022033332
-0.0036094738 -0.00014111112 -0.024966666
-0.013769474 -0.00014111112 -0.032966666
-0.0065505262 -0.00014111112 -0.024966666
-0.013234737 -0.00098777784 -0.0022999998
-0.013234737 -0.00070555555 -0.0022999998
-0.013234737 -0.00042333335 -0.0022999998
-0.014036843 0.00014111112 -0.032966666
-0.014036843 -0.00014111112 -0.032966666
-0.0086894743 0.00014111112 -0.024966666
-0.0086894743 -0.00014111112 -0.024966666
0.015641052 0.00127 -0.0022999998
0.0086894743 0.00098777784 -0.0022999998
-0.0014705263 -0.00014111112 -0.024966666
0.0089568421 -0.00014111112 -0.0070999996
-0.0014705263 -0.00014111112 -0.022033332
-0.0014705263 0.00014111112 -0.022033332
-0.016710527 -0.00014111112 -0.031633332
-0.016710527 0.00014111112 -0.031633332
0.0089568421 0.00014111112 -0.0070999996
-0.0012031579 -0.00014111112 -0.022033332
0.0065505262 0.00014111112 -0.0081666661
0.0052136844 -0.00127 -0.0014999999
-0.0012031579 0.00014111112 -0.022033332
-0.013502105 -0.00070555555 -0.0022999998
-0.013502105 -0.00042333335 -0.0022999998
0.012165263 0.00127 -0.0014999999
-0.013502105 -0.00014111112 -0.0022999998
-0.016443158 -0.00014111112 -0.031633332
-0.016443158 0.00014111112 -0.031633332
-0.013502105 0.00014111112 -0.0022999998
0.0049463161 0.00127 -0.0014999999
-0.0036094738 0.00014111112 -0.024966666
-0.011095789 -0.00014111112 -0.031633332
0.011363158 -0.00014111112 -0.0070999996
0.011363158 0.00014111112 -0.0070999996
0.015908422 -0.00098777784 -0.0022999998
0.011630527 -0.00014111112 -0.0070999996
-0.011630527 -0.00014111112 -0.005233333
0.011630527 0.00014111112 -0.0070999996
-0.011630527 0.00014111112 -0.005233333
0.015908422 -0.00070555555 -0.0022999998
-0.012967369 -0.00098777784 -0.0022999998
-0.012967369 -0.00070555555 -0.0022999998
0.015908422 -0.00042333335 -0.0022999998
-0.011363158 0.00014111112 -0.031633332
-0.014036843 0.00014111112 -0.024966666
-0.011363158 -0.00014111112 -0.005233333
-0.011363158 0.00014111112 -0.005233333
-0.014036843 -0.00014111112 -0.024966666
-0.0030747368 -0.00127 -0.0012333333
-0.0033421053 0.00127 -0.0012333333
-0.0089568421 -0.00042333335 -0.031633332
-0.0089568421 0.00014111112 -0.031633332
-0.0089568421 0.00042333335 -0.031633332
0.006283158 -0.00014111112 -0.022033332
-0.0086894743 -0.00014111112 -0.031633332
-0.011363158 0.00014111112 -0.024966666
-0.014036843 0.00014111112 -0.031633332
-0.013769474 -0.00014111112 -0.031633332
-0.013769474 0.00014111112 -0.031633332
-0.0089568421 0.00014111112 -0.024966666
-0.0089568421 -0.00014111112 -0.024966666
-0.013234737 -0.00014111112 -0.0022999998
-0.013234737 0.00014111112 -0.0022999998
-0.013234737 0.00042333335 -0.0022999998
0.006283158 0.00014111112 -0.0081666661
0.006283158 -0.00014111112 -0.0081666661
-0.013234737 0.00070555555 -0.0022999998
-0.013234737 0.00098777784 -0.0022999998
-0.0127 -0.00014111112 -0.0022999998
-0.011363158 -0.00014111112 -0.024966666
-0.011630527 0.00014111112 -0.024966666
-0.011630527 -0.00014111112 -0.024966666
0.0036094738 -0.00014111112 -0.022033332
0.0036094738 0.00014111112 -0.022033332
0.0065505262 0.00014111112 -0.0057666665
-0.011630527 -0.00014111112 -0.031633332
-0.011630527 0.00014111112 -0.031633332
-0.011363158 -0.00042333335 -0.031633332
0.0038768421 -0.00014111112 -0.022033332
0.0038768421 0.00014111112 -0.022033332
0.0049463161 -0.00127 -0.0014999999
-0.0052136844 -0.00127 -0.0012333333
-0.014036843 -0.00014111112 -0.021766666
-0.014036843 0.00014111112 -0.021766666
-0.0054810527 0.00127 -0.0012333333
0.0038768421 0.00014111112 0.00036666673
-0.013769474 -0.00014111112 -0.021766666
0.0046789474 0.00127 -0.0014999999
0.006283158 -0.00042333335 -0.031633332
0.006283158 0.00042333335 -0.031633332
0.0065505262 -0.00042333335 -0.031633332
0.0065505262 -0.00014111112 -0.031633332
-0.0012031579 0.00014111112 -0.0081666661
0.0038768421 -0.00014111112 0.00036666673
-0.0012031579 -0.00014111112 -0.0081666661
-0.0052136844 0.00127 -0.0012333333
-0.016443158 -0.00014111112 -0.021766666
-0.016443158 0.00014111112 -0.021766666
0.0038768421 0.00014111112 -0.031633332
0.0038768421 0.00042333335 -0.031633332
-0.012432632 -0.00098777784 -0.0022999998
-0.0049463161 -0.00127 -0.0012333333
0.0065505262 0.00014111112 -0.031633332
0.013234737 0.00127 -0.0012333333
-0.012432632 -0.00070555555 -0.0022999998
0.013502105 -0.00127 -0.0012333333
0.011630527 0.00014111112 -0.025233332
0.0089568421 -0.00014111112 -0.031633332
0.011363158 0.00014111112 -0.033233333
0.011363158 -0.00014111112 -0.033233333
0.0089568421 0.00014111112 -0.031633332
0.0089568421 0.00042333335 -0.031633332
-0.0054810527 -0.00127 -0.0012333333
-0.005748421 0.00127 -0.0012333333
-0.012432632 0.00014111112 -0.0022999998
0.0089568421 -0.00042333335 -0.031633332
0.011630527 -0.00014111112 -0.025233332
0.011363158 0.00014111112 -0.025233332
0.011363158 -0.00014111112 -0.025233332
-0.0089568421 -0.00014111112 -0.021766666
-0.0089568421 0.00014111112 -0.021766666
-0.0086894743 -0.00014111112 -0.021766666
-0.0086894743 0.00014111112 -0.021766666
-0.012432632 0.00042333335 -0.0022999998
-0.011630527 0.00014111112 -0.021766666
0.014036843 0.00014111112 -0.025233332
0.014036843 -0.00014111112 -0.025233332
-0.0014705263 0.00014111112 -0.0081666661
-0.0014705263 -0.00014111112 -0.0081666661
-0.016710527 -0.00014111112 -0.0068333331
-0.016710527 0.00014111112 -0.0068333331
0.013769474 0.00014111112 -0.025233332
0.013769474 -0.00014111112 -0.025233332
-0.016443158 -0.00014111112 -0.0068333331
-0.011630527 -0.00014111112 -0.021766666
0.0038768421 -0.00014111112 -0.031633332
-0.016443158 0.00014111112 -0.0068333331
-0.012432632 -0.00042333335 -0.0022999998
0.011630527 0.00014111112 -0.033233333
0.011630527 -0.00014111112 -0.033233333
-0.011363158 -0.00014111112 -0.021766666
-0.011363158 0.00014111112 -0.021766666
-0.012432632 -0.00014111112 -0.0022999998
0.0086894743 -0.00014111112 -0.031633332
0.0086894743 0.00014111112 -0.031633332
-0.0038768421 -0.00127 -0.0012333333
0.016710527 0.00014111112 -0.025233332
0.016710527 -0.00014111112 -0.025233332
-0.0041442108 0.00127 -0.0012333333
0.006283158 0.00014111112 0.00036666673
0.006283158 -0.00014111112 0.00036666673
0.016443158 0.00014111112 -0.025233332
-0.0089568421 -0.00014111112 -0.005233333
-0.0089568421 0.00014111112 -0.005233333
0.016443158 -0.00014111112 -0.025233332
0.0012031579 0.00042333335 -0.0025666666
-0.0127 0.00098777784 -0.0022999998
0.0012031579 0.00014111112 -0.0025666666
-0.0012031579 0.00042333335 -0.031633332
-0.0127 0.00014111112 -0.0022999998
0.016710527 0.00014111112 -0.033233333
0.016710527 -0.00014111112 -0.033233333
-0.0014705263 -0.00014111112 -0.031633332
-0.0014705263 0.00014111112 -0.031633332
0.013769474 -0.00014111112 -0.022033332
0.013769474 0.00014111112 -0.022033332
-0.0012031579 -0.00042333335 -0.031633332
0.016443158 0.00014111112 -0.033233333
0.016443158 -0.00014111112 -0.033233333
-0.0012031579 0.00014111112 -0.031633332
0.0036094738 0.00014111112 -0.0081666661
0.0036094738 -0.00014111112 -0.0081666661
0.014036843 -0.00014111112 -0.022033332
0.014036843 0.00014111112 -0.022033332
-0.0127 0.00042333335 -0.0022999998
-0.0127 0.00070555555 -0.0022999998
0.014036843 -0.00014111112 -0.033233333
0.012432632 -0.00127 -0.0014999999
0.0012031579 0.00014111112 -0.0081666661
-0.0046789474 -0.00127 -0.0012333333
-0.0049463161 0.00127 -0.0012333333
0.014036843 0.00014111112 -0.033233333
-0.0046789474 0.00127 -0.0012333333
-0.016710527 0.00014111112 -0.021766666
0.0012031579 -0.00014111112 -0.0081666661
0.0036094738 -0.00014111112 -0.031633332
0.0036094738 0.00014111112 -0.031633332
0.013769474 0.00014111112 -0.033233333
0.013769474 -0.00014111112 -0.033233333
0.0036094738 0.00042333335 -0.031633332
0.0038768421 -0.00042333335 -0.031633332
-0.0041442108 -0.00127 -0.0012333333
-0.0086894743 -0.00014111112 -0.005233333
-0.0086894743 0.00014111112 -0.005233333
0.016443158 -0.00014111112 -0.022033332
0.016443158 0.00014111112 -0.022033332
0.0012031579 -0.00014111112 -0.031633332
0.0012031579 0.00042333335 -0.031633332
0.016710527 -0.00014111112 -0.022033332
0.016710527 0.00014111112 -0.022033332
0.0014705263 -0.00014111112 -0.031633332
0.0012031579 -0.00014111112 -0.0025666666
0.0014705263 0.00014111112 -0.031633332
-0.0044115791 0.00127 -0.0012333333
-0.0044115791 -0.00127 -0.0012333333
0.0014705263 0.00014111112 -0.0081666661
0.0014705263 -0.00014111112 -0.0081666661
-0.016710527 -0.00014111112 -0.0076333331
0.011630527 -0.00042333335 -0.0022999998
-0.016443158 0.00014111112 -0.0076333331
-0.016443158 -0.00014111112 -0.0076333331
-0.006283158 0.00014111112 -0.0055
0.013769474 -0.00042333335 -0.0022999998
-0.006283158 -0.00014111112 -0.0055
-0.014036843 0.00014111112 -0.023633333
-0.016710527 0.00014111112 -0.0076333331
-0.014036843 -0.00014111112 -0.023633333
-0.016710527 0.00014111112 -0.022833332
0.0065505262 0.00127 -0.0012333333
0.006817895 -0.00127 -0.0012333333
0.0028073685 -0.00127 -0.0012333333
0.0065505262 -0.00127 -0.0012333333
0.016710527 0.00014111112 -0.0231
0.0086894743 0.00014111112 -0.032699998
0.0086894743 -0.00014111112 -0.032699998
0.011630527 0.00070555555 -0.0022999998
0.006283158 0.00127 -0.0012333333
-0.016443158 -0.00014111112 -0.022833332
0.0030747368 -0.00127 -0.0012333333
0.0028073685 0.00127 -0.0012333333
-0.011630527 0.00014111112 0.0006333334
-0.011630527 -0.00014111112 0.0006333334
0.011630527 0.00042333335 -0.0022999998
0.006283158 -0.00014111112 -0.032699998
0.0065505262 0.00014111112 -0.032699998
0.0065505262 -0.00014111112 -0.032699998
-0.0012031579 -0.00014111112 0.0006333334
0.016443158 -0.00014111112 -0.032433331
0.0070852633 0.00127 -0.0012333333
0.0073526315 -0.00127 -0.0012333333
0.016443158 0.00014111112 -0.032433331
0.006283158 0.00014111112 -0.032699998
-0.0012031579 0.00014111112 0.0006333334
0.011630527 -0.00098777784 -0.0022999998
-0.016710527 0.00014111112 -0.0073666666
0.016710527 -0.00014111112 -0.032433331
0.016710527 0.00014111112 -0.032433331
0.0073526315 0.00127 -0.0012333333
-0.016443158 0.00014111112 -0.022833332
-0.0065505262 -0.00014111112 -0.0055
0.00254 0.00127 -0.0012333333
0.006283158 -0.00014111112 -0.0055
0.006283158 0.00014111112 -0.0055
0.006817895 0.00127 -0.0012333333
0.0070852633 -0.00127 -0.0012333333
0.011630527 -0.00070555555 -0.0022999998
-0.0014705263 0.00014111112 0.0006333334
0.0041442108 -0.00127 -0.0012333333
0.0038768421 0.00127 -0.0012333333
0.0086894743 0.00127 -0.0014999999
0.011630527 0.00098777784 -0.0022999998
0.013769474 -0.00014111112 -0.0231
0.013769474 0.00014111112 -0.0231
0.013769474 -0.00098777784 -0.0022999998
0.014036843 -0.00014111112 -0.0231
0.014036843 0.00014111112 -0.0231
0.0038768421 -0.00127 -0.0012333333
0.011630527 -0.00014111112 -0.032433331
0.011630527 0.00014111112 -0.032433331
0.016710527 0.00014111112 -0.0076333331
0.0041442108 0.00127 -0.0012333333
0.011630527 0.00014111112 -0.032699998
0.011630527 -0.00014111112 -0.032699998
-0.0014705263 -0.00014111112 0.0006333334
0.011363158 -0.00014111112 -0.0231
0.011363158 0.00014111112 -0.0231
0.0036094738 0.00127 -0.0012333333
0.011363158 0.00014111112 -0.032699998
0.011363158 -0.00014111112 -0.032699998
-0.0086894743 0.00014111112 -0.023633333
-0.0086894743 -0.00014111112 -0.023633333
0.011630527 -0.00014111112 -0.0231
0.011630527 0.00014111112 -0.0231
-0.0089568421 0.00014111112 -0.023633333
0.011630527 0.00127 -0.0022999998
-0.0089568421 -0.00014111112 -0.023633333
0.016443158 -0.00014111112 -0.0231
0.016443158 0.00014111112 -0.0231
0.0033421053 0.00127 -0.0012333333
-0.011363158 0.00014111112 0.0006333334
-0.011363158 -0.00014111112 0.0006333334
0.0033421053 -0.00127 -0.0012333333
0.016710527 -0.00014111112 -0.0231
0.0030747368 0.00127 -0.0012333333
0.0089568421 0.00014111112 -0.032699998
0.0089568421 -0.00014111112 -0.032699998
0.0089568421 -0.00127 -0.0014999999
0.0060157897 0.00127 -0.0012333333
-0.011363158 0.00014111112 -0.023633333
-0.011363158 -0.00014111112 -0.023633333
-0.011630527 0.00014111112 -0.023633333
-0.011630527 -0.00014111112 -0.023633333
0.013769474 -0.00014111112 -0.032433331
0.013769474 0.00014111112 -0.032433331
0.0076200003 -0.00127 -0.0012333333
0.006283158 -0.00127 -0.0012333333
0.014036843 -0.00014111112 -0.032433331
-0.014036843 0.00014111112 -0.0076333331
-0.014036843 -0.00014111112 -0.0076333331
0.014036843 0.00014111112 -0.032433331
0.013769474 -0.00070555555 -0.0022999998
0.0036094738 -0.00127 -0.0012333333
0.011095789 -0.00098777784 -0.0022999998
0.014036843 0.00014111112 -0.0078999996
0.014036843 -0.00014111112 -0.0078999996
-0.0089568421 -0.00014111112 -0.0055
0.006283158 0.00127 -0.0017666665
0.0012031579 -0.00014111112 0.0006333334
0.0081547368 -0.00127 -0.0017666665
0.011095789 -0.00014111112 -0.0022999998
0.011095789 -0.00042333335 -0.0022999998
0.0012031579 0.00014111112 0.0006333334
0.014036843 -0.00014111112 -0.0025666666
0.011095789 -0.00070555555 -0.0022999998
-0.0089568421 0.00014111112 -0.0055
0.014036843 0.00014111112 -0.0025666666
-0.011630527 -0.00014111112 -0.0073666666
-0.011630527 0.00014111112 -0.0073666666
0.014036843 0.00014111112 -0.0239
0.014036843 -0.00014111112 -0.0239
-0.0065505262 -0.00014111112 -0.022833332
0.013769474 -0.00014111112 -0.0239
-0.011363158 -0.00014111112 -0.0073666666
-0.011363158 0.00014111112 -0.0073666666
0.0014705263 0.00014111112 -0.032699998
0.0014705263 -0.00014111112 -0.032699998
0.0014705263 -0.00014111112 0.0006333334
0.011095789 0.00014111112 -0.0022999998
0.011095789 0.00070555555 -0.0022999998
-0.014036843 0.00014111112 -0.0073666666
-0.016710527 -0.00014111112 -0.032166667
-0.016710527 0.00014111112 -0.032166667
0.0065505262 -0.00127 -0.0017666665
0.0020052632 0.00127 -0.0012333333
-0.016443158 -0.00014111112 -0.032166667
-0.016443158 0.00014111112 -0.032166667
0.011095789 0.00042333335 -0.0022999998
0.016710527 0.00014111112 -0.0239
0.016710527 -0.00014111112 -0.0239
-0.014036843 -0.00014111112 -0.032166667
0.016443158 0.00014111112 -0.0239
-0.0089568421 -0.00014111112 -0.022833332
-0.0089568421 0.00014111112 -0.022833332
0.016443158 -0.00014111112 -0.0239
-0.0086894743 0.00014111112 -0.0055
-0.0086894743 -0.00014111112 -0.0055
-0.0086894743 -0.00014111112 -0.022833332
-0.0086894743 0.00014111112 -0.022833332
-0.0089568421 -0.00014111112 -0.0073666666
0.0086894743 0.00014111112 -0.0239
0.0073526315 0.00127 -0.0017666665
0.0086894743 -0.00014111112 -0.0239
0.0065505262 0.00014111112 -0.0239
0.013769474 0.00098777784 -0.0022999998
0.006283158 0.00014111112 -0.0239
-0.0038768421 -0.00014111112 -0.022833332
-0.0038768421 0.00014111112 -0.022833332
0.006283158 -0.00014111112 -0.0239
0.0089568421 -0.00014111112 -0.0239
-0.0089568421 0.00014111112 -0.0073666666
-0.011630527 -0.00014111112 -0.032166667
-0.0036094738 -0.00014111112 -0.022833332
-0.0036094738 0.00014111112 -0.022833332
-0.011630527 0.00014111112 -0.032166667
-0.011363158 -0.00014111112 -0.032166667
-0.011363158 0.00014111112 -0.032166667
0.0038768421 0.00014111112 -0.0239
0.011363158 0.00014111112 -0.0239
-0.014036843 0.00014111112 -0.032166667
0.0014705263 0.00014111112 0.0006333334
-0.013769474 -0.00014111112 -0.032166667
0.0012031579 0.00042333335 -0.032699998
0.0012031579 -0.00014111112 -0.032699998
-0.013769474 0.00014111112 -0.032166667
0.011630527 0.00014111112 -0.0239
-0.006283158 -0.00014111112 -0.022833332
-0.006283158 0.00014111112 -0.022833332
0.011630527 -0.00014111112 -0.0239
-0.011363158 0.00014111112 -0.022833332
0.011363158 -0.00014111112 -0.0239
0.0020052632 -0.00127 -0.0012333333
0.0017378947 0.00127 -0.0012333333
0.0076200003 -0.00127 -0.0017666665
0.0089568421 0.00014111112 -0.0239
-0.014036843 0.00014111112 0.0006333334
-0.014036843 -0.00014111112 0.0006333334
-0.014036843 -0.00014111112 -0.022833332
0.014036843 0.00014111112 0.0011666667
0.014036843 -0.00014111112 0.0011666667
0.011363158 0.00127 -0.0022999998
0.011363158 0.00098777784 -0.0022999998
0.011363158 0.00070555555 -0.0022999998
0.013769474 0.00042333335 -0.0022999998
-0.014036843 0.00014111112 -0.022833332
-0.00093578949 -0.00014111112 0.0006333334
0.013769474 0.00070555555 -0.0022999998
0.00254 -0.00127 -0.0012333333
0.0022726317 0.00127 -0.0012333333
0.013769474 0.00014111112 0.0011666667
0.013769474 -0.00014111112 0.0011666667
0.0081547368 0.00127 -0.0012333333
0.016710527 0.00014111112 -0.0078999996
-0.016443158 -0.00014111112 -0.0073666666
0.0076200003 0.00127 -0.0012333333
0.007887369 -0.00127 -0.0012333333
-0.016443158 0.00014111112 -0.0073666666
0.007887369 0.00127 -0.0012333333
0.0065505262 0.00014111112 -0.0055
0.0081547368 -0.00127 -0.0012333333
0.011363158 -0.00042333335 -0.0022999998
0.0089568421 0.00127 -0.0014999999
0.0092242109 -0.00127 -0.0014999999
-0.016710527 0.00014111112 -0.023633333
0.0036094738 0.00014111112 -0.032699998
0.0036094738 -0.00014111112 -0.032699998
-0.016710527 -0.00014111112 -0.023633333
0.0022726317 -0.00127 -0.0012333333
-0.013769474 -0.00014111112 0.0006333334
0.0084221056 0.00127 -0.0012333333
0.0086894743 -0.00127 -0.0012333333
0.011363158 -0.00070555555 -0.0022999998
0.011363158 -0.00098777784 -0.0022999998
-0.011630527 -0.00014111112 -0.022833332
-0.011630527 0.00014111112 -0.022833332
0.011095789 0.00127 -0.0022999998
0.013769474 0.00014111112 -0.0025666666
-0.014036843 -0.00014111112 -0.0073666666
0.011095789 0.00098777784 -0.0022999998
-0.011363158 -0.00014111112 -0.022833332
0.0084221056 -0.00127 -0.0012333333
0.016443158 0.00014111112 -0.0078999996
0.016443158 -0.00014111112 -0.0078999996
0.0044115791 -0.00127 -0.0012333333
-0.016443158 0.00014111112 -0.023633333
-0.016443158 -0.00014111112 -0.023633333
0.0038768421 0.00014111112 -0.032699998
0.0038768421 -0.00014111112 -0.032699998
0.007887369 -0.00127 -0.0017666665
-0.0038768421 0.00014111112 -0.023366665
-0.0038768421 -0.00014111112 -0.023366665
0.0014705263 -0.00014111112 -0.0055
0.0014705263 0.00014111112 -0.0055
0.0036094738 -0.00014111112 -0.0076333331
0.012432632 -0.00014111112 -0.0022999998
0.0036094738 0.00014111112 -0.0076333331
-0.006283158 0.00014111112 -0.023366665
-0.006283158 -0.00014111112 -0.023366665
0.005748421 0.00127 -0.0012333333
-0.0065505262 -0.00014111112 -0.023366665
-0.0036094738 -0.00014111112 -0.023366665
0.0076200003 0.00127 -0.0017666665
0.0038768421 -0.00014111112 -0.0076333331
-0.0065505262 -0.00014111112 -0.0231
0.0038768421 0.00014111112 -0.0076333331
-0.0014705263 -0.00014111112 -0.032433331
0.012432632 0.00014111112 -0.0022999998
-0.0014705263 0.00014111112 -0.032433331
-0.0086894743 0.00014111112 -0.023366665
-0.006283158 -0.00014111112 -0.0231
-0.0086894743 -0.00014111112 -0.023366665
-0.0012031579 -0.00042333335 -0.032433331
-0.0038768421 -0.00042333335 -0.032433331
0.012165263 -0.00098777784 -0.0022999998
-0.0089568421 -0.00014111112 -0.0231
-0.0089568421 0.00014111112 -0.0231
-0.0012031579 0.00014111112 -0.023366665
-0.0012031579 -0.00014111112 -0.023366665
-0.0014705263 0.00014111112 -0.023366665
-0.0014705263 -0.00014111112 -0.023366665
-0.0086894743 -0.00014111112 -0.0231
-0.0086894743 0.00014111112 -0.0231
-0.006283158 0.00014111112 -0.0231
-0.0038768421 -0.00014111112 -0.032433331
-0.0038768421 0.00014111112 -0.032433331
0.012432632 -0.00098777784 -0.0022999998
-0.0038768421 0.00042333335 -0.032433331
0.0012031579 -0.00014111112 -0.0055
0.0012031579 0.00014111112 -0.0055
-0.0036094738 -0.00014111112 -0.032433331
-0.0036094738 0.00014111112 -0.032433331
0.012432632 -0.00070555555 -0.0022999998
-0.0036094738 0.00014111112 -0.023366665
0.012432632 -0.00042333335 -0.0022999998
0.011897895 0.00070555555 -0.0022999998
0.0127 -0.00098777784 -0.0022999998
0.0127 -0.00070555555 -0.0022999998
-0.0038768421 -0.00014111112 -0.0231
-0.0038768421 0.00014111112 -0.0231
0.0127 -0.00042333335 -0.0022999998
0.016443158 -0.00014111112 0.0011666667
0.0127 -0.00014111112 -0.0022999998
0.016443158 0.00014111112 0.0011666667
0.011897895 0.00098777784 -0.0022999998
0.0127 0.00014111112 -0.0022999998
0.0127 0.00042333335 -0.0022999998
0.016710527 -0.00014111112 0.0011666667
0.016710527 0.00014111112 0.0011666667
0.0052136844 -0.00127 -0.0012333333
0.0127 0.00070555555 -0.0022999998
0.0127 0.00098777784 -0.0022999998
0.011897895 0.00127 -0.0022999998
-0.0012031579 -0.00014111112 -0.032433331
-0.0012031579 0.00014111112 -0.032433331
0.012432632 0.00042333335 -0.0022999998
0.012432632 0.00070555555 -0.0022999998
-0.0089568421 0.00014111112 -0.023366665
-0.0089568421 -0.00014111112 -0.023366665
-0.016443158 0.00014111112 -0.032433331
-0.016443158 -0.00014111112 -0.032433331
0.011363158 -0.00014111112 -0.0025666666
0.011363158 0.00014111112 -0.0025666666
0.0060157897 -0.00127 -0.0012333333
-0.006283158 0.00014111112 -0.0030999999
-0.011363158 0.00014111112 -0.023366665
0.012165263 -0.00070555555 -0.0022999998
-0.016710527 0.00014111112 -0.032433331
-0.016710527 -0.00014111112 -0.032433331
-0.011363158 -0.00014111112 -0.023366665
-0.011630527 0.00014111112 -0.023366665
0.012432632 0.00098777784 -0.0022999998
0.012432632 0.00127 -0.0022999998
-0.011630527 -0.00014111112 -0.023366665
-0.006283158 -0.00014111112 -0.0030999999
-0.014036843 -0.00014111112 -0.0231
0.0086894743 -0.00127 -0.0014999999
0.0084221056 0.00127 -0.0014999999
-0.0012031579 -0.00014111112 -0.0076333331
-0.0012031579 0.00014111112 -0.0076333331
0.014036843 0.00014111112 -0.023366665
0.014036843 -0.00014111112 -0.023366665
0.012165263 0.00127 -0.0022999998
0.012165263 0.00098777784 -0.0022999998
-0.0014705263 0.00014111112 -0.0076333331
-0.014036843 0.00014111112 -0.0231
0.013769474 0.00014111112 -0.023366665
0.013769474 -0.00014111112 -0.023366665
-0.013769474 -0.00014111112 -0.0231
0.011630527 0.00014111112 -0.023366665
0.011630527 -0.00014111112 -0.023366665
-0.0089568421 -0.00014111112 -0.032433331
-0.0089568421 0.00014111112 -0.032433331
-0.0038768421 -0.00014111112 -0.0076333331
-0.0089568421 -0.00014111112 0.0006333334
-0.011630527 0.00014111112 -0.032433331
-0.011630527 -0.00014111112 -0.032433331
-0.0089568421 0.00014111112 0.0006333334
-0.011363158 -0.00014111112 -0.032433331
-0.011363158 0.00014111112 -0.032433331
-0.016710527 0.00014111112 -0.0231
-0.0036094738 -0.00014111112 -0.0076333331
-0.0038768421 0.00014111112 -0.0076333331
-0.0036094738 0.00014111112 -0.0076333331
-0.016443158 -0.00014111112 -0.0231
-0.016443158 0.00014111112 -0.0231
0.016710527 0.00014111112 -0.023366665
0.011363158 0.00014111112 -0.023366665
0.016710527 -0.00014111112 -0.023366665
0.016443158 0.00014111112 -0.023366665
0.016443158 -0.00014111112 -0.023366665
0.005748421 -0.00127 -0.0012333333
0.0054810527 0.00127 -0.0012333333
-0.0014705263 -0.00014111112 -0.0076333331
0.0036094738 -0.00014111112 -0.023366665
-0.011363158 -0.00014111112 -0.0231
0.0014705263 0.00014111112 -0.0076333331
-0.0065505262 -0.00014111112 -0.032433331
-0.014036843 0.00014111112 -0.032433331
-0.014036843 -0.00014111112 -0.032433331
-0.0065505262 0.00014111112 -0.032433331
-0.011363158 0.00014111112 -0.0231
-0.006283158 -0.00014111112 -0.032433331
-0.006283158 0.00014111112 -0.032433331
-0.006283158 0.00042333335 -0.032433331
0.0038768421 0.00014111112 -0.023366665
0.0038768421 -0.00014111112 -0.023366665
0.0036094738 0.00014111112 -0.023366665
0.0014705263 -0.00014111112 -0.0076333331
-0.006283158 -0.00014111112 0.0006333334
-0.006283158 0.00014111112 0.0006333334
0.012165263 -0.00014111112 -0.0022999998
-0.0014705263 0.00014111112 -0.0055
-0.0014705263 -0.00014111112 -0.0055
0.0014705263 0.00014111112 -0.023366665
0.0014705263 -0.00014111112 -0.023366665
0.0012031579 0.00014111112 -0.023366665
0.012165263 -0.00042333335 -0.0022999998
0.0012031579 -0.00014111112 -0.023366665
0.0054810527 -0.00127 -0.0012333333
0.0052136844 0.00127 -0.0012333333
0.012165263 0.00070555555 -0.0022999998
0.011363158 -0.00014111112 -0.023366665
-0.0086894743 -0.00014111112 -0.032433331
-0.0086894743 0.00014111112 -0.032433331
0.0089568421 0.00014111112 -0.023366665
0.0089568421 -0.00014111112 -0.023366665
-0.006283158 0.00014111112 -0.0076333331
-0.006283158 -0.00014111112 -0.0076333331
0.0086894743 0.00014111112 -0.023366665
0.0086894743 -0.00014111112 -0.023366665
-0.0065505262 -0.00014111112 0.0006333334
0.0127 0.00127 -0.0022999998
-0.0012031579 0.00014111112 -0.0055
0.0065505262 0.00014111112 -0.023366665
-0.0012031579 -0.00014111112 -0.0055
0.012165263 0.00042333335 -0.0022999998
-0.011630527 -0.00014111112 -0.0231
-0.011630527 0.00014111112 -0.0231
0.012165263 0.00014111112 -0.0022999998
0.006283158 0.00014111112 -0.023366665
0.006283158 -0.00014111112 -0.023366665
0.0012031579 -0.00014111112 -0.0076333331
0.0012031579 0.00014111112 -0.0076333331
-0.0065505262 -0.00014111112 -0.0076333331
0.013769474 -0.00014111112 -0.032699998
-0.0038768421 0.00014111112 -0.0055
-0.0038768421 -0.00014111112 -0.0055
0.014036843 0.00014111112 -0.032699998
0.014036843 -0.00014111112 -0.032699998
0.011897895 -0.00070555555 -0.0022999998
0.0038768421 0.00014111112 -0.023633333
0.0038768421 -0.00014111112 -0.023633333
0.0036094738 0.00014111112 -0.023633333
0.0036094738 -0.00014111112 -0.023633333
0.013769474 0.00014111112 -0.032699998
0.0038768421 0.00014111112 -0.0231
-0.0065505262 -0.00014111112 -0.0030999999
0.0014705263 0.00014111112 -0.023633333
0.0089568421 0.00014111112 -0.0025666666
0.0089568421 -0.00014111112 -0.0025666666
0.0014705263 -0.00014111112 -0.023633333
0.0012031579 0.00014111112 -0.023633333
0.0012031579 -0.00014111112 -0.023633333
0.0086894743 -0.00014111112 -0.032433331
0.0086894743 0.00014111112 -0.032433331
-0.0036094738 -0.00014111112 -0.0055
0.011630527 -0.00014111112 -0.0076333331
0.011630527 0.00014111112 -0.0076333331
0.0014705263 -0.00014111112 -0.0231
0.0089568421 0.00014111112 -0.023633333
0.013502105 0.00070555555 -0.0022999998
0.0014705263 0.00014111112 -0.0231
0.0089568421 -0.00014111112 -0.023633333
0.0086894743 0.00014111112 -0.023633333
0.0086894743 -0.00014111112 -0.023633333
0.006283158 -0.00014111112 -0.032433331
0.006283158 0.00014111112 -0.032433331
0.0065505262 0.00014111112 -0.023633333
0.014036843 -0.00014111112 -0.0076333331
0.0065505262 -0.00014111112 -0.032433331
0.0065505262 0.00014111112 -0.032433331
0.006283158 0.00014111112 -0.023633333
0.0036094738 -0.00014111112 -0.0231
0.0036094738 0.00014111112 -0.0231
0.006283158 -0.00014111112 -0.023633333
0.0049463161 -0.00127 -0.0012333333
0.0046789474 0.00127 -0.0012333333
0.0038768421 -0.00014111112 -0.0231
-0.011363158 0.00014111112 -0.0076333331
0.0089568421 -0.00014111112 -0.0231
0.0089568421 0.00014111112 -0.0231
-0.0036094738 0.00014111112 -0.023633333
-0.0036094738 -0.00014111112 -0.023633333
-0.0038768421 0.00014111112 -0.023633333
-0.0038768421 -0.00014111112 -0.023633333
0.0086894743 0.00014111112 -0.0231
-0.011363158 -0.00014111112 -0.0076333331
0.016443158 -0.00014111112 -0.0076333331
0.016443158 0.00014111112 -0.0076333331
-0.006283158 0.00014111112 -0.023633333
-0.006283158 -0.00014111112 -0.023633333
-0.0065505262 -0.00014111112 -0.023633333
-0.011630527 0.00014111112 -0.0076333331
0.011363158 -0.00014111112 -0.032433331
-0.011630527 -0.00014111112 -0.0076333331
0.011363158 0.00014111112 -0.032433331
0.013502105 0.00098777784 -0.0022999998
0.014036843 0.00014111112 -0.0076333331
0.006283158 -0.00014111112 -0.0231
0.006283158 0.00014111112 -0.0231
0.0089568421 -0.00014111112 -0.032433331
0.007887369 0.00127 -0.0017666665
0.0089568421 0.00014111112 -0.032433331
0.0084221056 -0.00127 -0.0014999999
0.0081547368 0.00127 -0.0014999999
0.0065505262 0.00014111112 -0.0231
-0.0012031579 0.00014111112 -0.023633333
