# .PCD v0.7 - Point Cloud Data file format
VERSION 0.7
FIELDS x y z
SIZE 4 4 4
TYPE F F F
COUNT 1 1 1
WIDTH 1201
HEIGHT 1
VIEWPOINT 0 0 0 1 0 0 0
POINTS 1201
DATA ascii
-0.036237326 -0.0012700014 -0.035173167
-0.035729326 -0.0012700013 -0.034664705
-0.034374662 0.00018142567 -0.037206978
-0.034261785 -0.00018142349 -0.037263475
-0.032681327 -0.0012699978 -0.035173159
-0.033358671 -0.0012699942 -0.034664705
0.040809337 0.0012699934 -0.03568162
0.040809333 0.0007257174 -0.03568162
0.041317325 0.00072571303 -0.03568162
0.037083998 0.00018143319 -0.041274622
0.036237329 0.0012700013 -0.035681617
0.036237337 0.0012700062 -0.035173163
0.035729334 0.0012699979 -0.035173163
0.038269337 0.00072571012 -0.035681617
0.037761331 0.0007257192 -0.035681613
0.040809333 0.0012699955 -0.00076764822
0.039454661 0.00018143177 -0.016190806
0.039454658 0.00018142795 -0.016699269
0.036745332 0.00018143258 -0.015682355
0.036745336 -0.00018142328 -0.016190808
0.036745336 0.00018143494 -0.016190808
0.041825335 -0.00018143165 -0.0038183797
0.040809341 -0.001269996 -0.0021235235
0.041825324 -0.00018143033 -0.007716544
0.040301327 -0.0012699941 -0.0021235328
0.039793327 -0.0012699948 -0.0021235347
0.038303196 -0.00076200505 -0.0021913182
0.037761334 -0.00072571181 -0.002123531
0.039454661 -0.00018143433 -0.014326469
0.039454665 -0.00018142819 -0.013309564
0.036745332 -0.00018143099 -0.013309555
0.036745332 0.00018142248 -0.013309564
0.036745332 -0.00018143335 -0.012801101
0.039454665 -0.00018142883 -0.01178419
0.039454672 -0.00018143249 -0.011275737
0.039285336 0.00018142824 -0.011784194
0.036745336 0.00018143118 -0.0092419107
0.036745328 -0.00018143303 -0.0092419181
0.041825328 0.00018142653 -0.014326477
0.041825328 0.00018142925 -0.01381802
0.041825328 -0.00018142858 -0.013818009
0.041825335 -0.00018143172 -0.010767274
0.041825328 0.00018142218 -0.010767283
0.041825332 -0.00018143276 -0.011275738
0.041825332 -0.00018142656 -0.0097503699
0.041825339 -0.00018142493 -0.0087334579
0.041825335 0.00018143006 -0.0087334514
0.040301338 0.0012699969 -0.0021235254
0.037761338 0.00072571123 -0.033817276
0.039793335 0.00072570849 -0.03381728
0.039454669 -0.00018143363 -0.017207725
0.039454661 0.00018142798 -0.017207721
0.039454665 0.00018142199 -0.017716175
0.039454665 -0.00018142354 -0.017716179
0.040809333 -0.00072571606 -0.0021235235
0.042163994 -0.00072571944 -0.0021235347
-0.0011853266 -0.00018142632 -0.021275366
-0.0037253294 -0.00018142519 -0.019749993
-0.0037253373 0.00018143188 -0.019749995
-0.0037253294 -0.00018142242 -0.020258456
-0.0037253378 -0.00018142891 -0.019241542
-0.0047413278 -0.001269996 -0.034664713
-0.016764004 0.00018143006 -0.039749265
-0.016763994 0.00018142807 -0.0382239
-0.016764 0.00018142919 -0.041274626
-0.015748 0.0012699957 -0.03568162
-0.01642533 0.00018142234 -0.038732357
-0.014054673 0.00018142496 -0.039749272
-0.014054664 -0.00018142283 -0.039749272
-0.0072813295 0.0012699991 -0.034664713
-0.0066040051 0.00018142501 -0.037206981
-0.0066040056 0.00018143059 -0.03669852
-0.0072813388 0.0007257078 -0.03568162
-0.0037253327 -0.00018143373 -0.039749268
-0.003725339 0.00018142709 -0.039749265
-0.0037253324 -0.00018142954 -0.0392408
-0.0062653325 -0.00018142574 -0.039240807
-0.00423333 -0.0012699956 -0.035681613
-0.0047413306 -0.00072571845 -0.03568162
-0.006265338 0.00018142545 -0.039240811
-0.0015239962 -0.00018142792 -0.037715442
-0.019134663 0.00018142464 -0.0382239
-0.018796004 0.00018142691 -0.03873235
-0.008805329 0.0012699998 -0.035681613
-0.011684001 -0.00018143425 -0.0382239
-0.011684003 0.00018142223 -0.038223892
-0.011345326 0.00018143146 -0.038223892
-0.011345333 -0.00018142376 -0.037715439
-0.011345332 0.00018142843 -0.022292281
-0.0088053318 -0.00018142928 -0.003309926
-0.0098213321 -0.0012700044 -0.002123531
-0.0093133301 -0.0012700022 -0.0021235272
-0.013716005 0.00018142739 -0.017038237
-0.013715999 -0.00018143114 -0.017207723
-0.011345339 0.00018143108 -0.014665442
-0.011345338 0.00018142196 -0.015682349
-0.010668005 0.00072571624 -0.002123531
-0.0098213302 0.00072571327 -0.002123531
-0.0098213265 0.0012699972 -0.0021235272
-0.01405466 0.00018143386 -0.02483456
-0.011345329 0.00018143481 -0.024834555
-0.011683999 -0.00018143463 -0.02771581
-0.011176002 0.0006652351 -0.03376079
-0.008805329 -0.00018142609 -0.0082249949
-0.0089746686 0.00018142691 -0.0082250005
-0.0088053346 0.0001814228 -0.007716544
-0.0062653353 0.00018143076 -0.0151739
-0.0062653269 -0.00018143505 -0.015173897
-0.0062653273 0.00018142592 -0.014665447
-0.0062653301 -0.00018142551 -0.014665447
-0.0038946602 0.00018142691 -0.015682355
-0.0037253324 -0.0001814259 -0.015173898
-0.0038946597 0.00018143366 -0.015173893
-0.0038946611 0.0001814312 -0.014665444
-0.0062653371 0.00018142723 -0.017716177
-0.0062653357 0.00018143318 -0.018224629
-0.0062653311 -0.00018143226 -0.017716177
-0.0062653273 0.00018142801 -0.0092419172
-0.0062653301 -0.00018143171 -0.0087334616
-0.0062653269 -0.00018142958 -0.0092419069
0.0062653366 0.0001814326 -0.01568236
0.0062653283 -0.00018142638 -0.016190803
0.0062653348 0.00018142986 -0.016190812
0.0066040042 0.00018142916 -0.016190814
0.0022013271 0.0012700023 -0.0017845575
0.0016933281 0.0012700009 -0.0021235235
0.001693327 0.0012699938 -0.0017845649
0.0027093273 0.00072571036 -0.002123531
-0.0015239978 -0.00018142464 -0.013309563
-0.0062653306 0.00018143322 -0.012801101
-0.006604 0.0001814221 -0.012801098
-0.0066040042 0.00018143118 -0.012292653
-0.0062653315 0.00018142317 -0.012292645
-0.0066040019 0.00018143367 -0.013309565
-0.0062653301 0.00018142347 -0.013309555
-0.014054667 0.00018143414 -0.023309184
-0.013715998 0.00018142375 -0.023309194
-0.011684006 0.00018142731 -0.02280074
-0.015240001 0.0012699974 -0.034664702
-0.014731994 0.001270003 -0.034664698
-0.015239995 0.00072571496 -0.033817284
-0.015747994 0.0012699956 -0.034664709
-0.014054665 0.00018143229 -0.02771581
-0.014054661 0.00018143241 -0.02720736
-0.014054664 -0.00018143063 -0.02720735
-0.011683999 0.00018142501 -0.03873235
-0.016764 0.00018142468 -0.019749993
-0.019812005 -0.0012700037 -0.0012761075
-0.020319998 -0.0012700034 -0.0021235272
-0.018795999 -0.0012700037 -0.0021235235
-0.020827999 -0.0012700063 -0.0017845612
-0.016763996 -0.0001814273 -0.0051742634
-0.016764006 -0.00018142378 -0.0061911782
-0.016425336 -0.00018142817 -0.0061911717
-0.014054669 -0.0001814322 -0.0082249958
-0.014054668 0.00018143306 -0.0087334551
-0.014054663 -0.00018143399 -0.0087334616
-0.012192004 0.0012699974 -0.034325738
-0.023537334 -0.0012699938 -0.034664705
-0.023706669 -0.00072571193 -0.033817284
-0.024214664 0.00054429076 -0.033308826
-0.023876004 0.00018142539 -0.033308826
-0.023875995 -0.0001814328 -0.032969855
-0.024214668 0.00018142757 -0.032291908
-0.032173332 0.0012699965 -0.0021235272
-0.031665336 0.00018143383 -0.004835289
-0.031665333 0.0001814261 -0.004326839
-0.036745325 0.00018142692 -0.0097503681
-0.038777329 0.001270005 -0.0012760982
-0.038777333 0.0012699995 -0.00076764449
-0.037761327 0.0012699959 -0.0017845519
-0.038777329 0.0012700015 -0.0017845631
-0.038777329 0.0012700032 -0.00042867847
-0.039285328 0.0012699951 -0.00042867288
-0.039793331 0.001269996 -0.002123531
-0.040301334 0.00072571856 -0.002123531
-0.039793331 0.0012699951 -0.0017845575
0.039454669 -0.00018143436 -0.03076655
0.037083995 -0.0001814234 -0.031783454
0.037083991 -0.0001814251 -0.031275
0.041825328 -0.00018143235 -0.030766549
0.039454665 -0.00018143358 -0.030258089
0.039454669 -0.00018143069 -0.029749628
0.039285328 0.00018143492 -0.029749632
0.039285332 0.00018143014 -0.030258084
0.03674534 0.00018142827 -0.031275008
-0.038269334 0.00127 -0.00076764263
-0.033697329 0.0012700019 -0.00042867847
-0.035221327 0.00078618829 -0.00031568669
-0.032173328 0.0012700002 -0.00025919266
-0.033189341 0.0012699991 -0.00076764822
-0.029802663 -0.00078618521 -0.00031568296
-0.029802661 -0.0012700065 -0.00025919452
-0.03031067 -0.0012699983 -0.00025919266
-0.030310661 -0.0007861958 -0.00031568483
-0.01913467 0.00018142644 0.0017746333
-0.019134665 -0.00018142846 0.001266174
-0.019134663 0.0001814343 0.0012661796
-0.019134672 0.00018143219 0.00075772218
-0.01913467 -0.00018142586 0.0007577166
-0.02421467 0.00018142271 0.0027915463
-0.023876 0.0001814274 0.0026220586
-0.024214672 -0.00018142257 0.0026220586
-0.0062653357 -0.00018142442 0.0022830889
-0.0062653311 0.00018142717 0.0022830926
-0.027770665 0.00072571199 -0.033817284
-0.028278671 -0.00072570838 -0.033817288
-0.026246665 -0.0012699972 -0.035173155
-0.024722667 -0.0012699984 -0.035173163
-0.026246659 0.0012699981 -0.035173159
-0.027262671 0.0012699967 -0.034325734
-0.026754664 0.0012699971 -0.034664705
-0.027770659 0.00018142763 -0.035681617
-0.027262663 -0.00072571478 -0.035681613
-0.042672008 0.00072571565 -0.0017845612
-0.037083998 0.00018142845 -0.031783447
-0.039454661 0.00018142375 -0.021275364
-0.039454669 0.00018142677 -0.020766916
-0.039454665 0.0001814321 -0.020258458
-0.039341781 0.00018142327 -0.019298041
-0.037083998 -0.00018142683 -0.021783819
-0.041825335 0.00018142957 -0.022292273
-0.041825335 -0.00018143099 -0.022292277
-0.036745328 0.00018142814 -0.022292282
-0.039285336 0.0001814343 -0.023817653
-0.039285328 -0.00018143031 -0.022800736
-0.034374665 0.00018142654 -0.029749634
-0.034374669 0.00018142517 -0.029241178
-0.034374665 -0.00018142744 -0.029241171
-0.039454665 0.00018142756 -0.01873309
-0.039454661 0.00018142314 -0.017716182
-0.039285332 0.00018143369 -0.018224631
-0.041825328 0.00018142548 -0.01822464
-0.042163994 0.0012699962 -0.0021235272
-0.041825328 -0.00018143159 -0.017716182
-0.041825332 0.00018142552 -0.017716177
-0.039285336 -0.00018142551 -0.017716173
-0.031665325 0.00018142772 -0.0061911792
-0.032004002 0.00018143294 -0.0061911829
-0.029294668 0.00018142635 -0.0077165468
-0.028956003 -0.00018143372 -0.0077165421
-0.029294671 0.00018143292 -0.010258819
-0.032004002 0.00018142749 -0.010258821
-0.032004002 0.00018142353 -0.010767283
-0.031665333 0.00018142206 -0.0092419079
-0.032004002 0.00018143338 -0.0082249995
-0.034374669 -0.000181435 -0.012801107
-0.031665333 -0.00018142897 -0.012292644
-0.034374669 -0.00018142768 -0.013818014
-0.034374665 0.00018142592 -0.014326471
-0.034374669 -0.00018142439 -0.014326468
-0.03166534 -0.00018143318 -0.014326465
-0.036745332 0.00018142865 -0.017207716
-0.037084002 -0.00018142677 -0.017207714
-0.032004002 0.00018143457 -0.032800365
-0.031665336 0.00054428383 -0.03330883
-0.034374662 -0.00018143478 -0.027207348
-0.034374665 0.00018143044 -0.027207358
-0.032004006 0.00018143264 -0.029749639
-0.032004002 0.00018143034 -0.030766539
-0.026754668 0.00018143353 -0.02720736
-0.026585327 -0.00018143006 -0.027207356
-0.026585339 -0.00018143331 -0.027715804
-0.026754662 0.0001814306 -0.02771581
-0.026585333 -0.00018142922 -0.028224258
-0.026754666 0.00018142839 -0.028732724
-0.026585339 -0.00018142433 -0.029241173
-0.026585327 -0.0001814267 -0.028732717
-0.02929466 0.00018142322 -0.029749632
-0.028956003 0.00018142193 -0.029241171
-0.029294666 -0.00018142413 -0.02822426
0.041825335 -0.00018142717 0.001266174
0.029294666 0.00018142734 0.0017746333
0.029294662 -0.00018142922 0.0017746277
0.029294662 -0.00018143193 0.0022830926
0.029294666 -0.0012699954 -0.00025918707
0.028956002 -0.00018142496 0.0012661777
0.028955998 -0.00018142939 0.0017746389
0.041317329 -0.00072571798 -0.00042868219
0.041825328 -0.0001814339 -0.024834564
0.041825335 0.00018142458 -0.02483456
0.041825332 -0.00018142234 -0.025173528
0.041825335 -0.00018143094 -0.024326105
0.034374665 -0.00018143507 -0.0033099251
0.034374673 -0.00018143398 -0.0038183872
0.018795993 0.00066524162 -0.0022365171
0.01913467 0.00018143051 -0.0033099214
0.018796004 -0.00018143503 0.0012661703
0.018796001 0.00018143165 0.0019441228
0.019134672 0.00018143303 0.0012661777
0.018795997 -0.0001814266 0.0017746277
0.0062653385 0.00018143104 0.0017746352
0.005249328 0.0012699962 -0.00025919452
0.0047413367 0.0012699963 -0.00025918894
0.015239995 0.0012700016 -0.00025919639
0.015239994 0.0012700021 -0.0012761075
0.023706658 0.0012700047 -0.033986762
0.020827994 0.001269995 -0.033986762
0.021166664 0.001270003 -0.033986773
0.021166662 0.00072571664 -0.03381728
0.02167467 0.00018143257 -0.024326099
0.021674668 0.00018143264 -0.023817651
0.021674667 -0.00018143404 -0.024326105
0.033697329 0.0012700036 -0.0017845668
0.034205336 0.0012700034 -0.0021235254
0.03420534 0.0012699965 -0.0017845575
0.036237329 0.0012700038 -0.0017845556
0.035729334 0.0012699965 -0.0017845538
0.034713328 0.0012699934 -0.0021235347
0.034374665 0.00018142269 -0.0038183788
0.037253335 0.001270005 -0.002123531
0.032173328 0.0012700012 -0.0017845575
0.032681335 0.0012700038 -0.0022930112
0.032681335 0.001269998 -0.0017845631
0.032173332 0.0012700026 -0.0021235235
0.033697337 0.0012700066 -0.034325738
0.033697329 0.0012699941 -0.033817284
0.033245772 0.0012700009 -0.033873782
0.032681331 0.001270005 -0.03398677
0.033189327 0.00072571606 -0.03381728
0.035729337 0.0012699954 -0.034664702
0.032003999 0.00018143488 -0.021275364
0.031665329 0.00018142835 -0.020766916
0.03166534 0.00018142196 -0.021275369
0.031665333 0.00018142544 -0.021783829
0.032003999 0.00018142421 -0.0061911754
0.031665325 0.00018143193 -0.0066996356
0.031665333 0.00018142349 -0.0061911754
0.030310661 0.0012700004 -0.0012761094
0.031326674 0.0012700051 -0.0017845556
0.031326674 0.0012700023 -0.0021235235
0.031665333 0.0012699972 -0.0021235272
0.034374662 0.00018142987 -0.013818018
0.034374669 -0.00018142542 -0.013309555
0.034374669 0.00018143238 -0.013309563
0.034374669 -0.00018143244 -0.013818018
0.032004002 0.00018142383 -0.017207723
0.01913467 0.0001814284 0.0017746314
0.016764006 0.0012700025 -0.00025919639
0.015747994 0.0012699993 -0.00076764636
0.016256003 0.0012699984 -0.00025919266
0.015747996 0.0012699941 -0.00025919452
0.016256001 0.001269997 -0.00076764263
0.016763993 0.0012700011 -0.00076764263
0.013715995 0.00018142752 0.0026220568
0.011345329 0.00018143348 0.0027915463
0.011345336 0.0001814256 0.0022830926
0.011345333 -0.00018142327 0.0026220549
0.02827866 0.0012700054 -0.0012760982
0.0067733377 0.0012700002 -0.00076765567
0.0062653264 0.0012699985 -0.00076764822
0.028955992 -0.00018142992 0.00075771473
0.029294668 -0.00018143489 0.00075772591
-0.0047413334 0.0012700057 -0.0017845649
-0.0057573272 0.0012700055 -0.0021235216
-0.0047413288 0.0012699942 -0.0021235254
-0.0052493298 0.0012699938 -0.0021235254
0.029294668 0.0012700018 -0.00076764449
0.030310664 0.00018142811 -0.00025918894
0.030310661 0.00078619522 -0.00031568669
0.030818662 0.00078618416 -0.00031568483
0.030818664 0.00018142952 -0.00025919452
0.029294673 -0.00018142503 0.0012661722
0.032004002 0.00018143484 0.0017746333
0.031665325 0.00018142755 0.0012661815
0.032003999 0.00018143473 0.0012661722
0.032003995 -0.0001814265 0.001774624
0.018796004 0.0012700025 -0.0012761038
0.012192005 0.0012700029 -0.0012761019
0.012192002 0.0012699942 -0.00076765195
0.012192005 0.0012700038 -0.00025919266
0.013715998 0.00018143376 0.001774637
0.013715995 -0.00018143075 0.0017746296
0.0057573291 0.0012699984 -0.00025918894
0.0057573337 0.0012699957 -0.00076765008
0.0057573365 0.00078618701 -0.00031569041
0.0098213376 0.0012700037 -0.00076765381
0.010329337 0.0012699999 -0.0012761038
0.0098213386 0.0012699944 -0.0012761094
0.010329339 0.0012699983 -0.0017845519
0.0098213358 0.0012700043 -0.0002591908
0.0093133366 0.0012699977 -0.00076765381
0.014732002 0.0012700028 -0.0012761001
0.007789332 0.0012699935 -0.0017845649
0.006604 0.00018142344 0.0017746352
0.0088053271 0.00018143315 0.0022830889
0.0088053299 -0.00018143466 0.001774637
0.0088617736 0.00018142577 0.0017181356
0.0088053262 0.00018142501 0.001266174
0.039285328 0.00018142653 0.0012661722
0.038325772 -0.0001814303 -0.00031569228
0.039793324 0.0012700015 -0.00042868033
0.036745325 0.00018142951 0.00075772405
0.034205329 -0.00018142794 0.0012661759
0.034205329 0.00018142276 0.0012661796
0.035729334 -0.00018142202 -0.00025919266
0.036745325 -0.0012700001 -0.00076765381
0.037084002 -0.00018142659 0.0017746296
0.036745336 0.00018142552 -0.032291915
0.03877734 -0.00072571781 -0.033817284
0.039285325 -0.0012699974 -0.034325734
0.039793339 -0.0012699963 -0.03432573
0.039793327 -0.0012699943 -0.034664698
0.039285328 -0.0012700007 -0.034664702
0.039793335 -0.00072571228 -0.035681613
0.030818671 -0.0012700025 -0.034325741
0.031665329 -0.0012700055 -0.034325734
0.032004002 -0.0012700059 -0.033647798
0.033189327 -0.0001814323 -0.033817276
0.036745332 -0.00018142503 -0.0033099223
0.03674534 -0.00066523865 -0.0022365246
0.036745328 0.0001814327 -0.0077165402
0.036745328 -0.00018143089 -0.0077165477
0.036745336 -0.00018142817 -0.0072080893
0.039285336 0.00018143278 -0.0077165384
0.039285336 0.00018142461 -0.0072080819
0.039454658 -0.00018143066 -0.0072080884
0.039454661 -0.0001814253 -0.0077165486
0.039285332 0.00018142213 -0.0082249958
0.036745328 0.00018142976 -0.0097503746
0.036745336 -0.00018142673 -0.010258819
0.036745332 0.00018143219 -0.010258829
0.034374669 0.00018142232 -0.011275739
0.034374662 0.00018142203 -0.012801105
0.036745325 0.00018142276 -0.014665439
0.034374665 0.00018142787 -0.014326468
0.0066039935 0.00018143312 -0.026698904
0.0066039963 0.00018142723 -0.026190445
0.0066039991 -0.00018143488 -0.026190441
0.0088053336 0.00018142327 -0.020766916
0.0088053364 -0.00018142573 -0.02025846
0.0088053318 0.00018143143 -0.020258456
0.0088053355 -0.00018142423 -0.019241538
0.0088053355 -0.00018143497 -0.019749999
0.0088053262 0.00018143207 -0.019241549
0.0088053336 0.00018142656 -0.019750003
0.0015239976 -0.00018142707 -0.012292651
0.0011853272 -0.00018142771 -0.012801099
0.0011853277 -0.0001814298 -0.013309555
0.0015239962 -0.00018142605 -0.013309553
0.0015239951 0.00018143099 -0.008225007
0.0011853392 0.00018143031 -0.0082249995
0.001523995 0.00018143044 -0.010258829
0.001185336 0.00018142874 -0.010258828
0.0015239944 -0.00018142386 -0.010258819
0.033189338 -0.0012700057 -0.034664709
0.032681327 -0.0012700002 -0.035173159
0.032681335 -0.0012699964 -0.034664705
0.03318933 -0.0012700018 -0.035173167
0.032173336 -0.0012700012 -0.03568162
0.032173328 -0.00127 -0.035173159
0.031665325 -0.0012700029 -0.035173163
0.025738668 -0.00072570797 -0.03381728
0.031326663 -0.0012699955 -0.035173167
0.02980266 -0.0012700016 -0.035173155
0.030310664 -0.001269997 -0.033986762
0.029294664 -0.00018143321 -0.031275
0.029294666 -0.00018142938 -0.030766545
0.031326666 -0.0012700012 -0.034325734
0.032004006 0.00018143331 -0.032800369
0.032003999 -0.00018143165 -0.032800373
0.032004002 0.00018143513 -0.029241171
0.026754661 0.00018143372 -0.026698895
0.028278667 -0.0007257192 -0.033817284
0.029294671 -0.00018143174 -0.026190437
0.035221323 -0.00072570774 -0.035681617
0.03420534 -0.00018143053 -0.037715442
0.034205329 -0.00018143415 -0.038223892
0.040357772 -0.0012700056 -0.033873782
0.038269341 -0.0012699948 -0.00076765195
0.038269337 -0.001270005 -0.0017845649
0.041317329 -0.001269998 -0.0017845649
0.034713335 -0.0012699956 -0.0017845593
0.032003999 -0.00018143348 0.00075772218
0.032003995 0.00018142688 0.00075772218
0.032681335 -0.00018142213 -0.00025918894
0.032681335 -0.00078619341 -0.00031568483
0.033189334 -0.00078618794 -0.00031569041
0.031665329 -0.0012700027 -0.00025918894
0.02319866 0.0012699951 -0.0017845575
0.023198664 0.0012699997 -0.0022930112
0.020319995 -0.00018142797 -0.0021235235
0.021674668 -0.0001814228 -0.003309926
0.020320002 0.0001814297 -0.0021235272
0.029294664 -0.00018142712 -0.018224627
0.02929466 -0.00018142625 -0.017207723
0.029294664 -0.00018142902 -0.017716181
0.028955998 -0.00018142976 -0.017207723
0.028956 -0.00018142328 -0.017716175
0.032003991 -0.00018142811 -0.01466544
0.032003999 -0.00018143344 -0.0051742634
0.031665329 -0.00018143226 -0.0051742643
0.032004002 -0.00018143089 -0.012292652
0.031665329 -0.00018142389 -0.013309562
0.029294666 0.00018143057 -0.013818009
0.02929466 0.00018142721 -0.013309553
0.029294666 -0.00018142395 -0.013309555
0.031665336 0.00018142682 -0.012801101
0.031665333 0.00018143308 -0.012292648
0.031665333 -0.00018143425 -0.012801106
0.031665336 0.00018142743 -0.011784185
0.00067732955 -0.0012700064 -0.00025919639
0.0011853267 -0.00018142903 0.0012661759
0.0011853295 -0.0012700065 -0.00025919639
0.0011853288 -0.0001814236 0.0017746277
0.0015239941 -0.00018143356 0.0017746352
0.031665333 -0.00018142987 -0.038223892
0.032003995 -0.00018142354 -0.038732357
0.037083998 0.00018143044 -0.040257722
0.037253335 -0.0012699971 -0.034325734
0.037761334 -0.0007257128 -0.033817288
0.037083998 -0.00018143491 -0.026698891
0.037083995 -0.00018143271 -0.025851477
0.036745332 -0.00018142919 -0.026190439
0.036745332 -0.00018142887 -0.019241547
0.03674534 0.00018142555 -0.019241543
0.036745328 0.00018142672 -0.018733088
0.036745328 0.00018142293 -0.019750005
0.036745332 -0.00018142823 -0.032291915
0.035245515 -0.00069979584 -0.033841487
0.037253335 -0.0012700048 -0.034664705
0.036745336 -0.0012700047 -0.034664713
0.04080933 -0.001269996 -0.035681613
0.019134669 -0.00018142277 -0.024834562
0.019134669 0.00018142746 -0.024326105
0.019134663 -0.0001814284 -0.02432611
0.027262669 -0.0012700041 -0.0021235328
0.02777067 -0.0012699991 -0.002123531
0.027770666 -0.0012699963 -0.0017845612
0.020827996 0.00072571478 -0.033817284
0.021674661 -0.00018143037 -0.036698535
0.022690659 -0.0012699977 -0.035681613
0.00067733938 0.0012700022 -0.03568162
0.00067732861 0.0012700026 -0.034325738
0.00016932903 0.0012699977 -0.034664705
-0.0001693315 0.0012700061 -0.033817284
-0.0022013299 -0.0012700002 -0.035173159
-0.0016933306 -0.0012700037 -0.035173163
-0.0022013313 -0.0012699955 -0.035681617
-0.0022013357 -0.00054429047 -0.03568162
0.0042333324 0.0005442921 -0.033308819
0.0047413353 0.00054429006 -0.03381728
0.0027093298 0.001270004 -0.0017845538
0.0027093391 0.001269999 -0.0012761019
0.0052493387 0.0012699978 -0.0021235235
0.0062653339 0.0001814337 -0.01669926
0.0062653264 0.000181429 -0.017207716
0.0066040056 0.00018142433 -0.017207725
0.0066039967 0.00018142597 -0.016699269
-0.00067732972 0.001269998 -0.034664705
-0.0016933306 0.0012699944 -0.035173155
-0.0016933304 0.0012700058 -0.034664709
0.0011853379 -0.00018142391 -0.029749628
0.0011853297 0.000181435 -0.039749265
-0.001524001 -0.00018142605 -0.039240811
-0.0015240032 -0.00018142709 -0.039749257
-0.0015239983 0.00018143066 -0.039240811
0.0011853348 0.00018142546 -0.037715435
0.013716006 0.0012699988 -0.0017845538
0.014223995 0.0012699958 -0.0017845538
0.018795995 -0.00018142888 -0.017716171
0.01913467 0.00018142964 -0.018224634
0.019134674 0.00018142576 -0.017716175
0.021674668 -0.00018142206 -0.015682347
0.021674661 0.00018143418 -0.015682355
0.021674663 0.00018142685 -0.016190803
0.021674668 0.00018142321 -0.015173893
0.024214668 0.00018142785 -0.015682351
0.024214666 -0.00018142395 -0.015173903
0.024214666 -0.00018143018 -0.015682349
0.024214666 0.00018142589 -0.014326476
0.02421467 0.00018143418 -0.014665436
0.02421467 -0.00018142856 -0.014665445
0.0077893361 0.0012700019 -0.0021235328
0.0077893324 0.00072572054 -0.0021235328
0.0082973344 0.00072571391 -0.0021235254
0.012699998 -0.0007257121 -0.033817276
0.012191996 -0.0012699997 -0.034664702
0.011176001 -0.0012699993 -0.034325738
0.012191995 -0.00072571565 -0.033817288
0.012192006 0.0012700066 -0.035681613
0.011175995 0.00072571967 -0.033817288
0.011683997 0.00054427987 -0.033308823
0.012192006 0.0012699995 -0.033986762
0.011175999 0.00054427929 -0.033308823
0.0037253387 0.00018142736 -0.029749626
0.0062653325 0.00018142854 -0.030766539
0.0066040005 0.0001814329 -0.031275008
0.0062653366 0.00018143227 -0.031275004
0.0062653371 -0.00018143081 -0.031275004
0.0088053327 0.00018143233 -0.031274997
0.0088053271 -0.00018142773 -0.030766549
0.0062653283 0.00018143475 -0.031783454
0.011684004 0.00018142888 -0.032800369
0.012700005 0.0007257117 -0.033817284
0.012700001 0.00018143139 -0.033817276
0.013716006 -0.00018143508 -0.032800376
0.012699998 -0.00018142519 -0.033817276
0.011684005 0.00018143283 -0.031274997
0.011684006 0.00018143262 -0.031783454
0.0072813313 0.0001814329 -0.00025919639
0.0077893282 0.00018143302 -0.00025918707
0.0098213358 0.00072571618 -0.0021235347
0.0093133375 0.000725711 -0.0021235291
0.0015240045 -0.00018143382 -0.0082249986
0.0062653287 0.0001814342 -0.0051742606
0.0066039963 0.00018142679 -0.0048352964
0.0077893389 0.00078618812 -0.0003156811
0.003725339 -0.00018142961 0.0022830926
0.0037817783 -0.00018143126 0.0027350541
0.0037253383 0.00018142775 0.0026220642
0.023875995 -0.00018143414 -0.030258093
0.023875995 -0.00018143385 -0.029749637
0.022690669 0.00018143016 -0.033817284
0.028955994 0.00018142443 -0.016190808
0.028956003 -0.00018142565 -0.016190805
0.028955998 -0.00018142888 -0.016699258
0.02929467 -0.00018143081 -0.015682347
0.029294662 0.00018143082 -0.015682347
0.029294671 0.0001814297 -0.015173898
0.028956002 0.0001814352 -0.014665442
0.02929466 0.00018143056 -0.014665445
0.02777067 0.00018142379 -0.033817284
0.032004002 0.00018142708 -0.01432647
0.031665329 0.00018142296 -0.0087334523
0.031665333 0.00018142443 -0.0082250005
0.031665336 0.00018143094 -0.0077165496
0.029294664 0.00018142494 -0.014326465
0.02929466 -0.00018143297 -0.014326475
0.029294664 -0.00018143388 -0.014665435
0.015240005 0.001269998 -0.0021235291
0.021674663 0.00018143456 -0.013818016
0.021674668 0.0001814339 -0.014326476
0.021674661 -0.00018142624 -0.013818017
0.020319998 0.0012700052 -0.0017845631
0.020827992 0.001270005 -0.0021235272
0.019812001 0.0012699969 -0.0022930168
0.019811995 0.0012699938 -0.0017845575
0.019811997 0.0012699983 -0.0012761038
0.020319995 0.0012700036 -0.0012761094
0.020827994 0.0012700051 -0.0017845612
0.020827994 0.0012700015 -0.0012761038
0.017271994 0.0012699966 -0.0012761019
0.016763998 0.0012699984 -0.0012761075
0.014054672 0.00018143177 -0.030258091
0.014054668 -0.00018143187 -0.030766549
0.014054662 0.00018143072 -0.030766539
0.014054664 -0.00018142357 -0.030258082
0.016425328 0.00018143229 -0.030258084
0.016764006 0.00018142481 -0.030766539
0.016425326 0.00018143338 -0.031275
0.019134663 0.00018142453 -0.026190437
0.019134661 0.00018142875 -0.026698902
0.019134669 -0.00018142625 -0.026698891
0.019134665 0.00018142315 -0.027715817
0.018796001 0.00018143053 -0.027207358
0.018795995 0.00018142637 -0.02771581
0.021674668 0.00018142632 -0.025681989
0.01913467 0.00018142596 -0.024834564
0.018795993 0.00018143195 -0.023478676
0.019134665 0.00018142539 -0.023817651
0.019134663 -0.00018142913 -0.023817655
0.028955994 -0.00018142897 -0.0097503746
0.028956002 -0.00018143303 -0.009241906
0.029294664 0.00018142466 -0.0092419153
0.028955998 -0.0001814322 -0.0087334588
0.026585333 -0.00018143081 -0.008733457
0.026754666 0.00018142385 -0.008733456
0.026754672 0.00018142366 -0.0082249995
0.024214672 0.00018143018 -0.015173897
0.019134661 0.000181429 -0.0038183825
0.018796002 -0.00018142627 -0.0038183797
0.018796002 -0.00018143469 -0.0033099251
0.016764002 0.00018142938 -0.039240807
0.017779998 0.0012699974 -0.035681613
0.018287998 0.00054428674 -0.035681617
0.026246663 0.0012699964 -0.035681613
0.011683994 -0.00018142855 -0.03873235
0.011345332 0.00018142701 -0.039240807
0.011345327 -0.00018142351 -0.0392408
0.041825335 0.00018143174 -0.031783454
0.042164002 0.00018143366 -0.032969855
0.041825339 0.00018142941 -0.02280074
0.041825328 -0.00018142755 -0.022800731
0.041825328 -0.00018142512 -0.022292282
0.041825335 -0.00018142445 -0.023309184
0.041825335 0.00018143321 -0.026190436
0.041825332 -0.00018142545 -0.02568198
0.041825328 -0.00018142797 -0.026190441
0.041825339 -0.00018143162 -0.026698899
0.039285325 0.00018142756 -0.026190437
0.039454669 -0.0001814292 -0.026190443
0.039285336 0.00018143325 -0.02568198
0.039285336 0.00018142653 -0.026698891
0.041825332 0.001269995 -0.034664702
0.032003999 -0.00018142525 -0.040766176
0.032003999 0.00018142541 -0.040257726
0.031665333 0.00018142341 -0.041783087
0.03031067 0.0012700057 -0.035681613
0.031665329 0.00018142602 -0.039749257
0.029294671 -0.0001814272 -0.040257726
0.029294662 0.00018143273 -0.040257722
0.02929466 0.0001814288 -0.040766172
0.026754666 0.0012700002 -0.034325734
0.039454669 -0.00018142432 -0.019241545
0.039454661 0.00018142661 -0.019749995
0.039454658 -0.00018143102 -0.019749993
0.041825328 -0.00018143002 -0.017207723
0.041825332 -0.00018142334 -0.015173903
0.024722669 0.0012700002 -0.00076765381
0.026754668 0.0012700007 -0.0017845538
0.025230665 0.0012700058 -0.0021235254
0.025682217 0.0012699935 -0.0022365209
0.024214663 0.0012699972 -0.0017845631
0.024214663 0.00018142925 -0.0033099335
0.026585327 -0.00018142731 -0.0077165421
0.026754661 0.00018143358 -0.0072080893
0.026585339 -0.00018142194 -0.0072080912
0.024214663 0.00018142696 -0.0072080949
0.024214666 -0.00018142672 -0.0072080912
0.024214663 0.00018143113 -0.0077165505
0.026754668 0.00018142433 -0.0077165393
0.028956 0.00018142707 -0.021783825
0.029294662 0.0001814284 -0.022292282
0.029294662 0.00018143079 -0.021783825
0.028955996 -0.00018142558 -0.011275738
0.02929467 0.00018142996 -0.011275738
0.026754661 0.00018142784 -0.014326468
0.026754661 0.00018143463 -0.014665446
0.026585327 -0.00018142858 -0.014665436
0.026754662 0.00018143265 -0.013309559
0.026585327 -0.00018142807 -0.015682347
0.026754661 0.00018142461 -0.015682347
0.026754666 0.00018143254 -0.015173903
-0.0047413292 0.00072571915 -0.03568162
-0.0042333324 0.00072571298 -0.035681613
-0.019134672 0.00054428267 -0.036020584
-0.018287996 0.00072571513 -0.035681613
-0.0011853373 0.00018143262 -0.018733082
-0.0015240035 0.00018143406 -0.018224636
-0.0015239946 0.00018142747 -0.018733095
0.019303992 -0.00018143457 -0.033308819
0.019304004 -0.00072571699 -0.03381728
0.020319995 -0.00018143376 -0.033817276
0.016763998 0.00018143193 -0.031783458
0.016764006 0.00018142884 -0.032291912
0.01913467 -0.00018143028 -0.031783458
0.019134661 -0.00018142328 -0.031275004
0.021674668 -0.0001814268 -0.031274997
0.018795999 -0.00054429 -0.033308826
0.018795993 -0.000181435 -0.03178345
0.019134672 -0.0001814227 -0.030766549
0.018796001 -0.00018143249 -0.030766547
0.019134665 -0.00018143111 -0.030258089
0.029294658 -0.00018142918 -0.032291915
0.029294666 -0.001269999 -0.03568162
0.029802671 -0.0012699967 -0.03568162
0.030310666 -0.0012700028 -0.035681613
0.028278669 -0.00072571961 -0.035681613
0.027770663 -0.001270003 -0.035173159
0.029802663 -0.0012700064 -0.00076764822
0.029802663 -0.0012700061 -0.0021235291
0.02929466 -0.00066524313 -0.0022365265
0.028955992 -0.00018142724 -0.029241176
0.028955996 -0.00018142552 -0.029749628
0.02929467 -0.0001814319 -0.029749628
0.029294671 -0.00018143299 -0.029241171
0.028955996 -0.00018143142 -0.030258093
0.029294668 -0.00018142379 -0.030258082
0.026585331 -0.00018143223 -0.021783821
0.026754661 0.00018142327 -0.021783825
0.026585337 -0.00018142739 -0.022292275
0.034205332 0.00018142413 -0.036698535
0.033697337 0.00072570954 -0.035681613
0.033697333 0.0012700037 -0.035681617
0.034374669 0.00054429087 -0.036020584
0.029294668 0.00054427946 -0.036020584
0.028955992 0.00018142333 -0.03669852
0.028278666 0.00072571292 -0.035681613
0.029294664 -0.00018143341 -0.039240815
0.024214663 -0.0001814272 -0.036698531
0.02421467 0.00054429151 -0.036020592
0.03318933 -0.0012700042 -0.0017845575
0.032681331 -0.0012700008 -0.0017845538
0.032681327 -0.0012699937 -0.0022930149
0.032681331 -0.0012700048 -0.00076764449
0.031326666 -0.0012700061 -0.00076765008
0.03318933 -0.0012700044 -0.00076765008
0.033697337 -0.0012700048 -0.0012760982
0.028956005 -0.00018143501 -0.0038183769
0.028955992 -0.00018142926 -0.0043268409
0.029294671 -0.00018143354 -0.003818389
0.029294668 0.00018142223 -0.0038183834
0.028786665 0.0012699948 -0.00076765381
0.028278664 0.0012699966 -0.00076764636
0.028278667 -0.0012699959 -0.0017845556
0.028278667 -0.0012699935 -0.0021235254
0.02929466 0.0012700016 -0.0021235347
0.02929466 0.0012700055 -0.0017845649
0.029294668 0.00066524162 -0.0022365171
0.029802669 0.0012700001 -0.0017845631
0.029802671 0.00072571042 -0.0021235291
-0.021166667 -0.0012700047 -0.0021235347
-0.020827997 -0.0012699956 -0.002123531
-0.024214663 -0.00018143028 -0.015173899
-0.024214672 0.0001814236 -0.015173897
-0.024214672 0.00018142347 -0.01466544
-0.023198662 -0.0012700061 -0.0017845593
-0.023706662 -0.0012700062 -0.0021235216
-0.024214664 -0.0012700065 -0.00025918894
-0.019134665 -0.00018142708 -0.0028014686
-0.019812001 -0.00018142309 -0.0021235254
-0.019811995 -0.00072571333 -0.0021235254
-0.022690671 0.00072571222 -0.0021235347
-0.021505333 0.00018142848 -0.0033099316
-0.021505337 0.00018142287 -0.0051742624
-0.021505326 -0.00018143059 -0.0056827143
-0.021505337 0.00018143018 -0.0056827217
-0.019134667 0.00018142637 -0.0043268399
-0.018795993 -0.00018143473 -0.0038183853
-0.019134663 0.00018142992 -0.0038183806
-0.021674672 -0.00018142734 -0.0028014723
-0.022690663 -0.0012699949 -0.0021235328
-0.022182669 -0.0012699992 -0.0021235328
-0.021674672 -0.00018142616 -0.0038183769
-0.02150533 0.00018142267 -0.0038183844
-0.027262662 -0.00072571577 -0.0021235235
-0.02827866 -0.00072571018 -0.0021235254
-0.02882053 -0.00076200662 -0.0021913294
-0.026698228 -0.00018143425 -0.032856859
-0.019134661 -0.00018142366 -0.038223892
-0.019134663 -0.00018142545 -0.0392408
-0.03132667 0.00072571042 -0.035681613
-0.030818662 0.00018142405 -0.03568162
-0.030310662 0.00018142213 -0.035681613
-0.030310672 0.000725716 -0.035681613
-0.034374658 0.0012699964 -0.03568162
-0.033697337 0.00072570803 -0.035681613
-0.0022013388 0.0012700029 -0.034664713
-0.0027093312 0.00018142327 -0.033817276
0.0022013301 -0.0012699991 -0.03568162
0.0022013295 -0.00054428226 -0.035681613
0.0027093296 -0.00018143396 -0.035681613
0.00067733286 0.0012699988 -0.034664698
0.0015240045 0.00018143434 -0.036698528
0.0022013274 0.00054428115 -0.03568162
0.0011853331 0.00018142608 -0.039240807
0.0011853359 0.00018143063 -0.038732357
0.0011853363 0.00018143078 -0.01924154
0.0011853293 -0.0001814298 -0.019749993
0.0011853329 0.00018142867 -0.019749995
-0.0011853341 0.00018143028 -0.026698902
0.0011853368 0.00018142942 -0.024326097
0.0015239951 0.00018143232 -0.024834562
-0.0067733307 0.0012699995 -0.0012760982
-0.007281329 0.0012699985 -0.0017845538
-0.0077893329 0.0012700065 -0.0017845649
-0.0072813309 0.0012700004 -0.0021235235
-0.0038946616 0.00018142782 -0.012801107
-0.0037253266 0.00018142239 -0.012292642
-0.0037253385 -0.00018143284 -0.012292648
-0.0011853329 0.00018143102 -0.013309565
-0.0011853278 -0.00018142194 -0.013309557
-0.001185333 0.00018143489 -0.013818016
-0.0015240001 0.00018142254 -0.013818018
-0.0037253359 0.0001814257 -0.011784187
-0.0037253359 -0.00018143043 -0.011275738
-0.0038946713 0.00018142673 -0.011275737
-0.0037253276 -0.00018143358 -0.011784188
-0.0015240046 0.00018142699 -0.014326467
-0.001185327 0.00018142545 -0.014326468
0.0037253364 0.001270003 -0.034664713
0.0042333337 0.0012699999 -0.034664702
0.0022013369 0.0012700056 -0.034664705
0.0032173307 0.0012699998 -0.033817276
0.0027093305 0.0012699986 -0.033817276
0.0032173295 0.00054428692 -0.033308823
0.0037253278 0.0012699957 -0.033817288
0.0022013388 0.0012700054 -0.033817276
0.0016933312 0.00054428983 -0.033308823
0.0027093291 0.0012700013 -0.034325734
0.001524001 0.00018142487 -0.022292279
0.0037253369 0.00018142856 -0.037715442
0.019303996 0.0012700034 -0.03517317
0.018287998 0.0012699998 -0.033647791
0.018796004 0.0012700015 -0.034664705
0.015747996 0.0012699962 -0.035681613
0.015239996 0.00054429157 -0.03568162
0.015747996 0.00054428366 -0.035681613
0.014054662 0.00018143223 -0.03873235
0.003725335 -0.0012699964 -0.034664705
0.0032173309 -0.0012700025 -0.034664709
0.0016933399 -0.0012700034 -0.034664709
0.0067733373 0.0012699981 -0.035173159
0.0062653297 0.001270002 -0.035173163
0.0062653357 0.00018142619 -0.03873235
0.0052493331 0.0012700006 -0.034664705
0.0077893347 0.00054428267 -0.035681617
0.0076199966 0.0012700026 -0.034664709
0.0015239939 -0.00018142298 -0.037206985
0.0066039953 -0.00018143481 -0.039240807
0.0066039949 0.00018143414 -0.039749265
0.019134672 0.00018142608 -0.030258082
0.015239995 -0.00072571746 -0.034325741
0.013716002 -0.00018142929 0.0026220568
0.0062653329 0.00018143046 -0.018733084
0.006265339 0.00018142212 -0.018224634
0.0062653371 0.00018143019 -0.019241545
0.006604 -0.0001814236 -0.021783818
0.0066039953 -0.00018143204 -0.021275369
0.006603993 -0.00018143418 -0.020766916
0.0062653339 -0.00018142574 -0.020766918
0.0062653362 -0.0001814305 -0.020258451
0.0062653339 -0.00018143503 -0.019749993
0.0066039967 -0.00018143179 -0.020258451
0.006604 -0.00018143436 -0.019241543
0.0062653376 -0.00018143453 -0.030766539
0.0062653297 0.0001814242 -0.030258091
0.0066039944 -0.00018143101 -0.030766549
0.0088053271 -0.00018142366 -0.016699262
0.0088053336 0.00018142974 -0.016699266
0.0088053336 0.00018143476 -0.017207719
0.011683995 -0.0012699977 -0.002123531
0.011683999 -0.0012699951 -0.0017845575
0.012699995 0.0012699998 -0.0021235347
0.013207997 0.00072571059 -0.0021235347
0.013715995 0.00018142849 -0.0033099251
0.010668 0.0012699941 -0.0017845593
0.010668001 0.0012699941 -0.002123531
0.011175998 0.0012699947 -0.0017845649
0.006604 0.00018142478 -0.0061911773
0.0066040019 -0.00018143297 -0.0061911829
0.011684003 -0.0001814351 -0.0056827217
0.011684006 0.00018143424 -0.0056827227
0.011683996 -0.00018143453 -0.0051742615
0.011683993 0.00018143049 -0.0051742699
0.011684004 0.00018142805 0.0017746333
0.011683999 0.00018143223 0.001266174
0.011345328 0.00018143431 0.0017746352
0.011684005 0.0012700042 -0.00025918707
0.014054669 0.00018142238 0.0017746259
0.014054669 -0.00018142322 0.0017746352
0.014054663 0.00018143479 0.00075772218
0.014054665 0.00018142199 0.0012661777
0.006942668 0.0012700023 -0.03568162
0.0062653353 0.00054428849 -0.035681613
0.039285336 -0.0012700061 -0.03517317
0.038777329 -0.001269999 -0.034664705
0.038777333 -0.0012699999 -0.035173163
0.038269337 -0.00072571752 -0.035681617
0.038777333 -0.0012699986 -0.035681617
0.037761327 -0.0012700016 -0.035173167
0.011345332 -0.00018142426 -0.041274626
0.011684004 -0.001269997 -0.035681613
0.011176005 -0.00018143075 -0.033308826
0.01913467 -0.00018142222 -0.037715435
0.018796004 -0.0012700054 -0.035681613
0.019303994 -0.0012700047 -0.035681613
0.018796002 -0.00018143233 -0.029241182
0.016425332 -0.0001814244 -0.027715813
0.016425328 0.00018143514 -0.027715813
0.016425332 -0.00018142803 -0.02720735
0.016763993 -0.00018142915 -0.027715812
0.018795999 -0.00018143441 -0.027207354
0.019134672 -0.00018142383 -0.02771581
0.01913467 -0.0001814284 -0.027207352
0.018795997 -0.00018142913 -0.02771581
0.018795995 -0.00018142805 -0.023817647
0.016764004 0.00018142682 -0.019750005
0.016425338 0.00018143049 -0.019750005
0.016425334 0.00018143161 -0.037715442
0.016425334 0.00018143206 -0.0382239
0.016763994 0.00018143245 -0.0382239
0.018287998 -0.0012700042 -0.034664705
0.017779995 -0.00072571926 -0.034325734
0.018288003 -0.00054428913 -0.033817284
0.014731998 -0.0007257167 -0.034325741
0.014224 -0.0012700025 -0.034664705
0.023706663 -0.0012699981 -0.03568162
0.023198664 -0.00072571717 -0.035681617
0.019134669 0.00018142232 -0.039749265
0.018795995 -0.00018143223 -0.040257722
0.022182668 -0.0012700041 -0.035173155
0.018287996 -0.0012700027 -0.035681613
0.019134669 -0.00054428505 -0.036020584
0.029294666 -0.0012700015 -0.0012761038
0.034261774 -0.0012700041 -0.00031569041
0.034205332 -0.0012699985 -0.00076765381
0.031665333 -0.00018143204 0.0017746314
0.031665333 -0.00018142404 0.001266174
0.023198672 -0.0012700019 -0.00076765381
0.022182668 -0.0012700055 -0.00025919452
0.022690659 -0.0012699957 -0.0002591908
0.023198672 -0.0012700006 -0.00025918521
0.028955998 -0.00018143449 0.0022830833
0.02827866 -0.001269995 -0.00076764263
0.029294671 0.00018143386 0.00075771846
0.029802667 0.0007861862 -0.0003156811
0.031665336 -0.000181426 -0.0048352908
0.031665325 -0.00018143521 -0.0056827189
0.032003995 -0.00018143353 -0.0056827189
0.031665336 0.0001814291 -0.0051742615
0.032004002 -0.0001814229 -0.010258827
0.032173328 -0.0012699992 -0.0017845593
-0.036237326 0.0012699998 -0.00042867474
-0.036237329 0.0012699971 -0.00076765381
-0.034374669 -0.00018142822 -0.01466544
-0.034374658 0.00018143268 -0.014665444
-0.034374673 -0.00018143209 -0.015173897
0.016425336 -0.0001814245 0.0022830833
0.014731998 -0.0012699962 -0.0017845538
0.015240005 -0.0012700045 -0.0012761112
0.014731998 -0.0012699979 -0.0012760982
0.0088617709 -0.0001814304 0.0027350485
0.0089746602 0.00018143015 0.0027915444
0.0088053392 -0.0012699957 -0.00025919452
0.012700004 -0.00018143313 -0.0002591908
0.0127 0.00018143284 -0.00025918707
0.012191999 -0.00078618492 -0.00031569041
0.0066039967 -0.00018142816 0.0007577166
0.0027093308 -0.0012699973 -0.00025918521
0.0022013362 -0.0012700038 -0.00076764263
0.0022013278 -0.0012700032 -0.00025919266
0.0027093354 -0.0012700005 -0.00076764822
0.0052493303 -0.0012700022 -0.00076765567
0.0047413269 -0.0012700043 -0.00025918707
0.0062653325 -0.0012700052 -0.00076765008
0.0037253392 -0.00018143242 -0.012292647
0.0037253383 0.00018143446 -0.012292643
0.0037253338 -0.00018143459 -0.011784188
0.0037253331 -0.00018142234 -0.016699266
0.0037253371 0.00018142446 -0.016699266
0.0037253373 0.00018142897 -0.016190803
-0.026585335 -0.00018142311 0.0017746333
-0.026585329 -0.00018142504 0.001266174
-0.026246665 -0.0012699935 -0.00025918894
-0.026754672 -0.0012700056 -0.00025919266
-0.02929466 -0.00018143388 0.0017746314
-0.02929467 -0.00018142647 0.0022830907
-0.029294673 -0.0001814272 0.001266174
-0.02929467 0.0001814219 0.0022830814
-0.026754666 0.00018142448 0.00075772591
-0.039285336 0.00018142239 -0.013309565
-0.039454658 0.00018142862 -0.014326473
-0.039454661 0.0001814273 -0.014665438
-0.039285332 -0.00018143482 -0.01432647
-0.039285332 -0.00018143252 -0.014665435
-0.039454661 0.00018142907 -0.013818013
-0.039285336 -0.00018142423 -0.013818018
-0.041825332 -0.00018142912 -0.0082249977
-0.041825335 -0.00018143067 -0.0092419172
-0.041825328 -0.00018142785 -0.009750369
-0.035221327 -0.0012699974 -0.00076765381
-0.037253328 -0.0012700033 -0.0012761056
-0.036237333 -0.0012699976 -0.0017845556
-0.033697329 -0.0012700058 -0.0017845612
-0.032173332 -0.0012700037 -0.0017845612
-0.032681327 -0.0012700037 -0.0021235291
-0.032681335 -0.001270003 -0.0017845538
-0.029802671 -0.0012700042 -0.0017845575
-0.029802671 -0.0012700054 -0.0012761075
-0.031665333 -0.0012700001 -0.002123531
-0.032173324 -0.0012699937 -0.0021235254
-0.031665333 -0.0012699956 -0.0017845556
-0.031326666 -0.0012700033 -0.0017845575
-0.031665329 0.00018142896 -0.0038183816
-0.02929467 -0.00018142934 -0.0043268409
-0.032004002 -0.00018142605 -0.0056827208
-0.039285336 -0.00018142369 -0.017207719
-0.039454661 0.00018142216 -0.015682349
-0.039285339 -0.00018143316 -0.015682351
-0.039285332 -0.00018143063 -0.016190806
0.032003995 0.00018143085 -0.010258822
0.029294671 -0.0001814236 -0.0097503634
0.029294666 -0.00018142775 -0.0092419088
0.032003995 -0.00018142822 -0.010767275
0.037761331 -0.00078619696 -0.00031568483
0.038269326 0.00078618398 -0.00031569041
0.039793324 -0.00072571827 -0.00042867474
0.041825328 0.00018142494 -0.011784188
0.041825332 0.00018143012 -0.0128011
0.041825332 -0.00018143501 -0.01280111
0.041825332 0.00018142915 0.00075772032
-0.013716001 -0.00018142525 -0.037715442
-0.017779998 0.00072570884 -0.035681613
-0.016764 0.00018143482 -0.031783458
-0.017779998 0.00072570896 -0.033817276
-0.016763998 0.00018142314 -0.030766543
-0.014054669 -0.00018142501 -0.031275
-0.014054669 0.00054428668 -0.033308826
-0.014054672 0.00018143363 -0.031783454
-0.015240002 0.00018142461 -0.033817284
-0.019134663 -0.00018143251 -0.032800369
-0.01913467 0.00018143184 -0.032291912
-0.019134672 -0.00018143083 -0.031783454
-0.016764002 0.00018143388 -0.032800365
-0.017779998 0.00018142904 -0.033817276
-0.018288001 0.0007257078 -0.033817284
-0.018795993 0.00018142899 -0.032800365
-0.024214661 -0.00018143181 -0.032291912
-0.024214672 -0.00054428948 -0.03330883
-0.024214661 -0.00018142279 -0.032800376
-0.011345327 0.00018142907 -0.030766543
-0.011345339 -0.00018142292 -0.031274997
-0.011684 -0.00018143309 -0.029749639
-0.011683996 0.00018143226 -0.029749636
-0.014054667 -0.00018142964 -0.029749626
-0.028956 -0.0001814344 -0.0051742606
-0.029294664 0.00018143331 -0.0051742615
-0.032003999 0.0001814345 -0.0066996319
-0.031665333 0.00018142651 -0.0066996319
-0.031665336 0.00018142405 -0.0072080856
-0.032003999 0.00018142433 -0.0072080921
-0.032003995 0.00018142935 -0.0077165421
-0.031665336 0.00018142344 -0.0077165393
-0.032003995 -0.00018142797 -0.0077165421
-0.031665333 -0.00018142204 -0.0077165458
-0.031665336 -0.00018142913 -0.0072080893
-0.035729323 0.0012699955 -0.034664713
-0.033358663 -0.0012700014 -0.034325734
-0.03572933 0.00072571152 -0.033817276
-0.034205332 -0.00054428657 -0.03330883
-0.033697333 -0.00066523533 -0.03376079
-0.034261774 0.00018143302 -0.032856863
-0.033697329 0.00072571111 -0.033817284
-0.034713328 0.00072571059 -0.033817276
-0.03420534 -0.0012699985 -0.034664705
-0.041825328 -0.0012700027 -0.034664705
-0.04080933 -0.00018142503 -0.03381728
-0.025738668 0.0012699969 -0.035681613
-0.030310661 0.00072571833 -0.033817288
-0.029971993 0.0012699954 -0.034664705
-0.030310666 0.00018143268 -0.033817284
-0.031665333 -0.0005442808 -0.036020581
-0.028786659 -0.0012699979 -0.034325734
-0.024722664 0.0012699993 -0.034325741
-0.024722671 0.0012699966 -0.034664705
-0.02929466 0.0012700013 -0.0021235347
-0.02929467 0.00066523411 -0.002236519
-0.027770661 0.0012699941 -0.002123531
-0.028278667 0.00072571961 -0.002123531
-0.027262663 0.0012699998 -0.0021235328
-0.025230667 0.0012699964 -0.00076764636
-0.024214672 0.00018143449 -0.01229265
-0.024214661 0.00018142427 -0.013818014
-0.024214664 -0.00018143075 -0.013818016
-0.024214666 -0.00018143065 -0.014326472
-0.034374658 0.00018142404 -0.0056827217
-0.034374665 -0.00018142263 -0.005682718
-0.035221327 0.0007257153 -0.002123531
-0.024214672 0.0012699969 -0.0017845631
-0.024722662 0.0012699976 -0.0021235347
-0.023198664 0.0012699942 -0.0017845593
-0.022690659 0.001269995 -0.0012761094
-0.020828005 0.0012700019 -0.0012760982
-0.021674665 0.0012699992 -0.0017845538
-0.020828003 0.00072571385 -0.002123531
-0.017779993 0.00072571356 -0.0021235235
-0.016764004 0.00018142286 -0.0033099316
-0.018795999 -0.00018143273 -0.003309926
-0.017779998 0.00018142436 -0.0021235235
-0.019304005 0.0012699949 -0.0021235291
-0.021505333 0.0001814234 -0.0077165402
-0.021505326 0.00018142979 -0.0072080903
-0.02150533 0.00018142477 -0.0092419088
-0.019134669 -0.00018142723 -0.010258823
-0.019134672 -0.00018142354 -0.0097503634
-0.021674661 -0.00018142541 -0.012801111
-0.021674665 -0.00018143404 -0.013309564
-0.021505326 0.00018142512 -0.0128011
-0.021505326 0.00018142443 -0.01127573
-0.021505337 0.00018142298 -0.012292653
-0.021505335 0.00018142878 -0.013818013
-0.026585337 0.00018142375 -0.0061911708
-0.026585327 -0.0001814248 -0.0056827171
-0.026754666 0.00018142538 -0.0056827199
-0.026585339 -0.00018142514 -0.0061911801
-0.021505332 -0.00018142737 -0.0072080838
-0.021505332 -0.00018142862 -0.0066996263
-0.026246663 0.0012699988 -0.00025918894
-0.024722671 0.0012699942 -0.0012761056
-0.021674667 -0.00018142708 0.0022830851
-0.040809333 -0.00018143165 -0.00042867661
-0.016763998 -0.0001814281 -0.016699268
-0.011683996 -0.00018143415 -0.017716173
-0.014054672 -0.00018143418 -0.017716182
-0.029802663 -0.0012700034 -0.0021235328
-0.029294664 -0.00066523894 -0.0022365153
-0.031665333 -0.00018142998 -0.0056827264
-0.031665329 -0.00018142577 -0.006191182
-0.031665329 -0.00018142456 -0.0051742662
-0.031665333 -0.0001814352 -0.0066996338
-0.029294666 -0.00018143484 -0.0082250005
-0.029294671 -0.00018142557 -0.007716543
-0.02929467 -0.00018142488 -0.0072080828
-0.029294671 -0.00018142773 -0.017207719
-0.029294666 -0.00018142893 -0.016190805
-0.028955996 -0.00018142615 -0.015682349
-0.02929467 -0.00018143025 -0.014665443
-0.028955992 -0.00018143315 -0.014665444
-0.028955994 -0.00018142899 -0.014326472
