# .PCD v0.7 - Point Cloud Data file format
VERSION 0.7
FIELDS x y z
SIZE 4 4 4
TYPE F F F
COUNT 1 1 1
WIDTH 1166
HEIGHT 1
VIEWPOINT 0 0 0 1 0 0 0
POINTS 1166
DATA ascii
-0.0097064469 -0.0010995464 -0.00073754275
-0.0087422049 -0.0011437889 -0.010573469
-0.0082765045 -0.0011411594 -0.010578659
-0.0082583968 -0.00077304331 -0.0022042338
-0.0052701561 -0.00077304337 -0.0022042333
-0.0052701556 -0.00027608703 -0.0022042338
-0.0057591461 -0.00077304343 -0.0022042338
-0.0072260969 -0.0011595654 -0.0017682542
-0.0077694082 -0.0011595654 -0.00073280465
-0.0082583977 -0.0011595653 -0.0022042338
-0.0077694114 -0.001104348 -0.0083624329
-0.0088165263 -0.00015561259 -0.0067275143
-0.0090733683 0.0001104348 -0.0067275129
-0.008801708 0.00014356515 -0.0057465602
-0.0088165253 -0.00015561258 -0.0057465602
-0.008801708 0.00014356521 -0.0062370365
-0.0090733683 0.0001104348 -0.0057465606
-0.008801708 0.00014356518 -0.0037301588
-0.0087473774 0.0011595652 -0.0087439129
-0.008258394 0.0011595653 -0.0084169293
-0.0087247407 0.0011411597 -0.0084305555
-0.0092363637 0.0011595651 -0.008743912
-0.0087473821 0.0011595654 -0.0092343921
-0.0077694082 0.0011595653 -0.0092343902
-0.0082583986 0.0011595653 -0.009234393
-0.0082583977 0.0011595653 -0.0097793667
-0.0082583986 0.0011595652 -0.0087439138
-0.0077694119 0.0011595653 -0.0084169311
-0.010051336 0.00069573912 -0.0088420101
-0.010096612 0.0002208696 -0.0084350975
-0.0042503988 -0.0011510702 -0.010550711
-0.0047268448 -0.0011595652 -0.010269841
-0.0062481267 -0.0011595654 -0.010269841
-0.0057591442 -0.0011595652 -0.010542327
-0.0062722755 -0.0011472949 -0.010560494
-0.0067371116 -0.0011595652 -0.010542327
-0.006737113 -0.0011595652 -0.010269842
-0.0072260983 -0.0011595653 -0.0092343902
-0.0077694086 -0.0011595652 -0.010269838
-0.0072200587 -0.0011534301 -0.010560494
0.0088215852 -0.00014679739 0.00073729502
0.0090733683 0.00015561265 0.0026856665
0.0088215861 -0.00014679739 0.0022685374
0.0088165291 0.00015561259 0.0017740731
0.0063024592 -0.00016565211 0.0012290999
0.0065741176 -0.0001104348 0.0012291004
0.0063024624 -0.00016565209 0.0017740731
0.0090733673 0.00016565219 -0.0072724875
0.0090733683 -0.00010429954 -0.0072724861
0.0090733673 0.00016565218 -0.0067275139
0.010082384 0.00026031054 -0.0084325019
0.0042378604 -0.0011595652 -0.0012777774
0.0072260983 -0.0011595655 -0.0012777769
0.0087202108 -0.0011319566 -0.0012777774
-0.0088017089 0.00014356515 -0.0032396824
-0.0087473756 0.0011595652 -0.002149736
-0.0077694082 0.00027608697 -0.0022042328
-0.008801708 0.00014356518 -0.0047656093
-0.0097253462 0.00077304343 -0.002149737
-0.0092363637 0.0011595652 -0.0012777774
-0.0087473812 0.0011595654 -0.0012777769
-0.010097908 -0.00074937887 -0.0097793667
-0.010097907 -0.00074937893 -0.010269841
-0.006276832 -0.00016356845 0.00073553948
-0.0057591451 -0.00079670793 -0.00025789859
-0.0096845981 0.0010905437 -0.00073280372
-0.010103405 0.00026688405 -0.0092366608
-0.010105669 0.00027608697 -0.010269843
-0.0040748655 0.00016565218 -0.013757669
-0.0037643996 0.00015776392 -0.013267197
-0.004074865 0.00016565219 -0.013267195
-0.0037686334 0.00015762047 -0.013758657
-0.0090733683 -0.00016565218 -0.016264549
-0.0090733673 -0.00016565218 -0.015229102
-0.0090733683 0.00011043478 -0.012231746
-0.0027709096 -0.0011595652 -0.0017682537
-0.0017386092 -0.0011595654 -0.0012777774
-0.00076064159 -0.0011595651 -0.00024232781
-0.00027165763 -0.0011595653 -0.00024232781
-0.00027165757 -0.0011595654 -0.00073280465
0.00027165757 -0.0011595654 -0.00073280465
0.00027165763 -0.0011595653 -0.00024232781
0.0067371125 -0.0011595654 -0.0097793667
0.0072260974 -0.0011595654 -0.0097793676
0.0090733683 -0.00016565218 0.00073862448
0.010105669 -0.00027608697 -0.0097793648
0.009717796 0.00028375618 -0.0083669741
0.0090733673 0.00016565218 -0.0057465597
0.0090733683 0.00016565218 -0.006237037
0.0090733683 -0.00014866221 -0.0057549449
0.0090733683 -0.00015561265 -0.0052610384
0.0090733683 0.00016565218 -0.0052560843
0.0087473784 0.001104348 -0.0083624329
0.0082583958 0.001104348 -0.0083624329
0.0088165272 -0.00015561261 -0.014738623
0.0012496258 -0.0011595654 -0.010269837
0.0012560176 -0.0011465729 -0.010555152
0.0012496258 -0.0011595653 -0.0087439129
0.00076064182 -0.0011595653 -0.0097793667
-0.00076064182 -0.0011595654 -0.0092343893
-0.0012496259 -0.0011595653 -0.010269838
-0.0012360428 -0.001152663 -0.01054914
-0.0002716576 -0.0011595652 -0.010269841
0.0012571199 -0.000161844 -0.014738623
-0.0015756151 -0.00016565219 -0.015229102
0.0012496257 0.00016565211 -0.01626455
-0.0040748655 0.00016565218 -0.016264549
0.0037643998 -0.00015776395 -0.014248153
0.0012555798 -0.00016262651 -0.011739774
0.0015756149 -9.2028989e-05 -0.012231745
0.0012533094 -0.00016378034 -0.012228972
-0.0012496258 -0.00016565211 -0.014738627
0.0012555795 -0.00016262654 -0.014246659
-0.0012496256 0.00016565212 -0.014738619
-0.0012496255 -0.00016565215 -0.014248149
-0.0015756151 -0.00016565218 -0.013757671
-0.0012496258 -0.00016565211 -0.013757662
0.0040748655 -0.00016565218 -0.013757671
0.0040748655 0.00016565218 -0.013757671
0.003748876 0.0011595653 -0.010269842
0.0037518139 0.00016415978 -0.015772598
0.0022275934 -0.00027608691 -0.010542329
0.002787373 -0.00024596835 -0.010568753
0.0022275932 -0.00077304349 -0.010542329
0.004074865 0.00016565219 -0.013267194
0.004074865 -0.00016565218 -0.013267194
0.0040748655 0.00016565218 -0.011250791
0.0063024615 -0.00016565211 -0.011741269
0.0052701593 -0.00027608694 -0.010542329
0.0057591442 -0.00077304355 -0.010542328
0.0052701603 -0.0011595653 -0.010542328
0.004074865 -0.00016565218 -0.015229102
0.0052701575 -0.0011595654 -0.010269842
0.0057591456 -0.0011595653 -0.0097793685
0.005270157 -0.0011595653 -0.0097793695
0.0052701575 -0.0011595655 -0.0092343921
0.0027709096 0.0011595653 -0.01026984
0.0047268439 -0.0011595654 -0.0097793676
0.0037488751 -0.0011595654 -0.0097793685
0.0037411158 0.0011543065 -0.0083702179
0.0067371116 -0.0011227536 -0.0084350975
0.0063024629 -0.00016565215 -0.0047656102
0.0065741171 -0.0001104348 -0.0047928565
0.0063024596 -0.00016565213 -0.0052560843
0.0065741176 -0.0001104348 -0.0042206347
0.006302461 -0.00016565211 -0.0042206342
0.0040748655 -0.00015561265 -0.0037351132
0.0032569291 -0.0011515334 -0.0022389139
0.0037488763 0.00016565212 -0.0072724828
0.0037488763 0.00016565213 -0.0067275125
0.004074865 0.00016565219 -0.0067275125
0.0015756151 0.00016565218 -0.006237037
0.004074865 0.00016565219 -0.0047656079
0.0040748655 -0.00016565218 -0.0052560833
0.004074865 -0.00016565218 -0.0047656079
0.0090733683 -0.00015776398 -0.013282766
0.0077610533 0.00027183944 -0.010546521
0.0072219172 0.00027608694 -0.010546521
0.0065741171 -0.0001104348 -0.012231747
0.0097253462 0.00077304343 -0.010542329
0.0090733683 -0.00013804348 -0.011768517
0.0090888906 -0.00014987578 -0.014738625
0.0062481309 -0.0011595653 -0.008743912
0.0062481286 -0.0011227537 -0.0084350975
0.0052450839 -0.0011425753 -0.0084714284
0.0022275934 -0.0011595652 -0.0083935754
0.0012496256 0.00016565213 -0.0067275125
0.0012496256 0.00016565212 -0.0072724884
0.0063024587 0.00016565211 -0.0067275125
-0.0057556764 -0.0011572154 -0.0002458063
0.0040748655 -0.00016565218 0.00073862448
-0.010051336 -0.0010491305 -0.0013050265
-0.0082583986 -0.0011595653 -0.00073280465
-0.010051337 0.00070778659 -0.0017831167
-0.0092363637 0.0011595652 -0.0017682542
-0.0087473793 0.0011595653 -0.0017682542
-0.0063172798 0.00015561259 -0.0057465611
-0.0065741171 -0.00016565218 -0.0052560833
-0.0040748655 -0.00016565219 -0.006237037
-0.0062481272 -0.001104348 -0.008362432
-0.0062815635 -0.00016565215 -0.0067275134
-0.0065741171 -0.00016565218 -0.0067275139
-0.00076064159 0.0011595652 -0.0017682537
-0.001246063 0.0011577548 -0.0022087009
-0.00076466624 0.0011554749 -0.0022345101
0.0002716576 0.0011595653 -0.00024232827
0.0012496259 0.00016565212 0.00073862448
0.00076064159 0.0011595652 -0.00024232781
0.0065741176 -0.00011043478 -0.0052560843
0.0065741171 0.00016565218 -0.0052560833
0.0088165263 0.00015561259 -0.0052560847
0.004074865 0.00016565219 -0.0042206347
0.0040748655 0.00016565218 -0.003730159
0.0063024606 0.00016565215 -0.0042206347
0.0063024615 0.00016565212 -0.0032396815
0.0057556769 0.0011572153 -0.0022007553
0.0052701579 0.0011595651 -0.0022042338
0.0057591461 0.00077304337 -0.0022042338
0.004074865 -0.00016565218 0.001774074
0.0037518137 -0.00016415978 0.0017740731
0.0063024587 0.00016565212 0.0017740731
0.0040748655 -0.00016565218 0.0022645504
0.004074866 -0.00015184784 0.002632407
0.004074866 0.00015184782 0.002632407
0.0037563711 -0.00016184403 0.0022645495
0.0012627403 -0.00014851568 0.002715562
0.0013039571 -5.5217391e-05 0.0030820104
0.0012632085 9.6630443e-05 0.0031092591
0.00076064159 -0.0011595652 -0.00024232781
0.00076064188 -0.0011595652 -0.00073280465
0.0012685234 -0.0001576496 0.0012275204
0.0012496258 -0.0011595653 -0.00024232781
0.0012496256 -0.0011595654 -0.00073280465
0.00076064188 -0.0011595653 -0.0012777774
0.0022275932 0.00080617389 -0.0084496299
0.0022275934 -0.00077304337 -0.0084350966
-0.00027165771 0.00077304349 -0.0084169321
0.00027165766 0.00077304349 -0.0084169321
0.0012586809 -0.00016105069 -0.0072755162
0.0015756149 -7.3623196e-05 -0.012722221
0.0012555798 -0.00016262651 -0.013268683
0.0015756149 -5.5217399e-05 -0.013267195
-0.00027165763 0.0011595654 -0.010269838
0.0015756151 0.00016565218 -0.014738627
0.0015756151 0.00016565218 -0.014248149
0.0015756149 -5.5217391e-05 -0.0152291
0.0015756151 0.00016565218 -0.012231746
0.0015756151 0.00016565218 -0.011741269
0.0065741171 0.00016565218 -0.006237037
0.0062481286 0.0011043479 -0.008362432
0.0063024587 0.00016565212 -0.006237037
0.0063024615 0.00016565211 -0.0057465616
0.0077694119 -0.0011043481 -0.0084169302
0.0072260969 -0.00077304337 -0.0084169302
0.0032598935 0.0011595652 -0.00024232781
0.003259893 0.00080277584 -0.00027167285
0.0040748655 0.00016565218 0.0022645504
0.0077694086 0.00024360618 -0.0002583568
0.0032598933 0.0011595652 -0.0087439111
0.006737113 0.0011595652 -0.0087439129
0.007226096 0.0011595655 -0.0092343921
0.0072260965 0.0011595652 -0.0087439138
0.0077694082 0.0011595653 -0.0087439129
0.0067371125 0.0011595653 -0.0017682547
0.0062481267 0.0011595652 -0.0017682542
0.0067371125 0.0011595652 -0.0022042338
0.007226096 0.0011595652 -0.0022042342
0.0087473802 0.0011595654 -0.0012777769
0.0082583977 0.0011595652 -0.0017682542
0.0077694091 0.0011595656 -0.0012777769
0.0077694086 0.0011595653 -0.0017682537
0.0087394733 0.0011535416 -0.0021893708
0.00027165763 0.0011595653 -0.0017682547
0.0002716576 0.0011595654 -0.0022042342
0.00027165757 0.00077304343 -0.0022042342
-0.00027165763 0.0011595653 -0.0017682542
-0.00076064182 0.0011595652 -0.0097793648
-0.00027165757 0.0011595654 -0.0092343912
0.00027165763 0.0011595654 -0.008743912
0.0022275946 0.0011595653 -0.0022042338
0.0017386094 0.0011595652 -0.0017682537
0.0017407825 0.0011573565 -0.002215133
0.005270157 0.00027608703 -0.0022042328
0.00076064153 0.0011753418 -0.0083935736
-0.0022350873 0.00076733134 -0.010576155
-0.0027709084 0.00027608688 -0.010542329
-0.0022167272 0.00029817389 -0.010560496
-0.0032598928 -0.0011595653 -0.0092343921
-0.0032598933 -0.0011595652 -0.0097793667
-0.0027709091 -0.0011595655 -0.0092343884
-0.0037488763 -0.0011595652 -0.0087439138
-0.0012496257 -0.00016565211 -0.0032396812
-0.00076064188 -0.00077304349 -0.0022042338
-0.00027165757 -0.00027608706 -0.0022042333
-0.0037488767 -0.00016565212 -0.0032396812
-0.0015756149 5.5217395e-05 -0.0037301586
-0.0015756151 -0.00016565218 -0.003730159
-0.0015756149 5.5217395e-05 -0.0032396824
-0.0027709089 0.0011595653 -0.0022042342
-0.0002716576 -0.00077304343 -0.0022042333
0.010105669 0.00027608694 -0.0017682542
0.010097907 0.00074937887 -0.0017682537
0.006302461 -0.00016565212 -0.0032396829
0.0072261016 -0.00027608697 -0.0022042328
0.0077672135 -0.00027497153 -0.0022025821
0.0072260974 -0.000757267 -0.0021808776
0.0072323652 -0.0011574414 -0.0021790811
0.0090733683 -0.00014724639 -0.0067093465
0.0087215928 -0.0011296168 -0.0092343912
0.0087237554 -0.0011259547 -0.0087439129
0.0087473784 -0.001104348 -0.0084169302
0.0082583977 -0.0011595652 -0.0087439129
0.0082583949 -0.001104348 -0.0084169311
-0.006308083 0.00016184401 -0.007274366
-0.0062397709 0.0011425754 -0.008425314
-0.0067399717 0.0011479404 -0.0084312735
-0.0057553537 0.00075634976 -0.0083751073
-0.004726843 -0.00077304343 -0.0083624311
-0.0052701575 -0.000276087 -0.0083624311
-0.0047268448 -0.000276087 -0.008362432
-0.0037644003 0.00015776395 -0.011741268
-0.0032598928 0.00077304337 -0.010596826
-0.0032528061 0.0011547637 -0.010594456
-0.0028071294 0.0011595652 -0.010560494
0.0088165281 0.00015561258 -0.014738623
0.0077694086 0.0011595653 -0.01026984
0.008258394 0.0011595652 -0.010542327
0.0082583986 0.0011595651 -0.008743912
0.0082583986 0.0011595652 -0.0092343893
0.0087473774 0.0011595654 -0.010269841
0.006302462 0.00016565212 -0.015774075
0.0063024615 0.00016565212 -0.012722218
0.0088165253 0.00015561259 -0.013267197
0.0088165291 0.00015561259 -0.01375767
0.0088165281 0.00015561259 -0.012722223
0.0065741171 0.00016565218 -0.013757669
0.0065741171 0.00016565218 -0.014248148
0.0088165253 0.00015561259 -0.014248151
0.0057591447 0.0011595652 -0.010269842
0.0067147412 0.0011400768 -0.010574386
0.0065741176 -0.0001104348 -0.014248148
0.0062283711 -0.0011194071 -0.010542327
0.0047268444 0.0011280124 -0.0083780037
-0.0047411956 0.00076575059 -0.0083768303
-0.0047268434 0.00027608694 -0.0083624348
-0.0052701565 0.000276087 -0.0083624301
-0.0037677754 0.0001576496 -0.0042174747
-0.0015756151 -0.00016565219 -0.0042206347
-0.003259893 0.0011595654 -0.0012777774
-0.0027709093 0.0011595652 -0.0017682547
-0.0027709096 0.0011595654 -0.0012777769
-0.0047268458 0.0011595652 -0.0021675318
-0.0047268448 0.00077304331 -0.0022042333
-0.0052701593 0.0011683999 -0.0021715355
-0.0042338856 0.0011487912 -0.0021763202
-0.0042356867 0.0011551479 -0.0084103905
-0.0037488767 0.0011495257 -0.0021893708
-0.0032659296 0.0011534299 -0.0022345101
-0.0062815645 -0.00016565212 -0.0032396819
-0.0052659777 0.0007687959 -0.0022000405
-0.0057591442 0.0011595652 -0.002171535
-0.0063172784 0.00015561258 -0.0032396824
-0.0052701575 0.0011595654 -0.0097793648
-0.0037686343 0.00015762048 -0.014739614
-0.0065741171 0.00016565218 -0.016264549
-0.004074866 0.00011043478 -0.016537037
-0.0027709098 0.0011595653 -0.010269841
-0.0037260004 0.0011421283 -0.010565273
-0.0037686341 0.00015762048 -0.012230754
-0.0037677749 0.00015764961 -0.012723799
-0.004074865 0.00016565219 -0.012722223
-0.0040748655 0.00016565218 -0.012231746
-0.00423786 0.0011595653 -0.0092343902
-0.0042343931 0.00076951878 -0.0083647519
-0.0052742595 0.0007574159 -0.0083768293
-0.0032549538 -0.0011528723 -0.0083723413
-0.0015756151 -0.00016565219 -0.0057465592
-0.0017397179 -0.0011573114 -0.0022097947
-0.0012496258 -0.00016565215 -0.0052560861
-0.0037488765 -0.00016565212 -0.0052560852
-0.004074865 -0.00016565218 -0.0057465597
-0.0072261002 -0.000276087 -0.0083624301
-0.0065741171 0.00014866221 -0.0067023593
-0.0090733683 0.00011043479 -0.006237037
-0.0090733683 -0.00016565218 -0.006237037
-0.0012496258 0.00016565213 0.0012290999
-0.0017386089 0.0011595652 -0.00024232781
-0.0015756149 5.5217402e-05 0.0012291004
-0.0015756149 5.5217391e-05 0.00073862448
-0.0027709089 -0.00023467393 -0.00026957691
-0.0027709089 0.00024360621 -0.0002583568
-0.0022275946 0.00024360616 -0.0002583568
-0.0015756149 -0.00016565218 0.0025915341
-0.0012496256 -0.0001025466 0.0030975812
-0.0012529691 -0.00015885614 0.0027231663
-0.0015756149 5.5217388e-05 0.0025915341
-0.0065741171 0.00013804348 -0.0032487654
0.004074865 0.00016565218 -0.0032396829
0.0027709084 -0.00027608697 -0.0022042328
0.0037488753 0.00016565213 -0.003239681
0.0027709096 0.00027608706 -0.0022042333
0.0022275948 -0.00027608706 -0.0022042338
0.0015756149 -5.5217388e-05 -0.0032396824
0.0012496258 0.00016565209 -0.0037301569
0.0017386086 -0.00077304337 -0.0022042338
0.0012496256 0.00016565212 -0.0047656111
0.001265149 -0.00015934158 0.0017787446
0.0012496258 0.00016565213 0.0012290999
0.0012496253 0.00016565213 0.0017740731
-0.0015756149 5.5217391e-05 0.0022645504
-0.001249626 0.00016565212 0.0022645495
-0.0012496253 0.00016565213 0.0017740731
-0.0012496259 0.0011595653 -0.00024232781
-0.0037785119 0.00015728586 -0.0072724866
-0.003256425 0.00076951896 -0.0083647519
-0.00076064159 0.0011595652 -0.0087439129
-0.00027165769 -0.00075463759 -0.0083987657
-0.00076064141 -0.00075463764 -0.0083987638
-0.0015756151 -0.00016565219 -0.0072724875
-0.0022275944 -0.00027608706 -0.008362432
-0.0022275937 -0.00075463759 -0.0083987638
0.0012496256 -0.00016565212 -0.0047656121
-0.0065741171 0.00014987578 0.0026148907
-0.0022275946 0.0011595654 -0.0017682542
-0.0017386093 0.0011595652 -0.0017682542
-0.001738609 0.0011595653 -0.0012777774
-0.0017386089 0.0011595653 -0.00073280465
-0.0022275941 0.0011595655 -0.00073280465
-0.0022275939 0.0011595653 -0.00024232781
-0.0012496258 0.0011595652 -0.0017682533
-0.0032598933 -0.00077304331 -0.0022042338
-0.0022275944 -0.00077304331 -0.0022042333
-0.0088017099 0.00014356515 0.0022645504
-0.004074866 0.00015184784 0.002632407
-0.0037990289 0.00014441465 0.0027131042
-0.0037686329 0.00015762051 0.0022655404
-0.0038032085 5.5217399e-05 0.0030820104
-0.0063172812 0.00015561259 0.0012290999
-0.00624813 -0.0011495257 -0.00025719078
-0.0037488765 -0.00016565212 0.00073862448
-0.0037644003 0.00015776393 0.00073862448
-0.0052701561 0.00027608697 -0.0022042333
-0.0062521542 0.0011575201 -0.0021860683
-0.0063172784 0.00015561261 -0.0037301586
-0.0067371125 0.0011670948 -0.0021893708
-0.0032684722 0.00077304349 -0.0022472583
-0.0027709089 0.00077304343 -0.0022042328
-0.0032598933 0.0011595652 -0.0017682537
-0.0037488753 0.0011595654 -0.0012777769
-0.0088165253 -0.00015561259 -0.012722219
-0.0090733683 0.00011043479 -0.011741268
-0.0090733683 0.0001104348 -0.011250792
-0.0097253481 -0.00077304343 -0.010542329
-0.0088165253 -0.00015561259 -0.011741266
-0.0082583958 -0.00080985506 -0.010578661
-0.0087473812 0.0011595654 -0.0097793667
-0.0077694072 -0.000276087 -0.0022042319
-0.0088165253 -0.00015561258 -0.006237037
-0.0090733673 -0.00016565219 -0.0057465597
-0.0097146304 -0.00028386406 -0.0083685759
-0.0088165263 -0.00015561261 -0.0072724866
-0.0088017089 0.00014356518 -0.0042206352
-0.0077694082 -0.00027608697 -0.0083624311
-0.006737113 0.0011595654 -0.0092343884
-0.0067371125 0.0011595651 -0.008743912
-0.0072260974 0.0011595654 -0.0092343902
-0.0096746376 0.0010896234 -0.0087548131
-0.0052701603 -0.0011595653 -0.010542328
-0.0052701584 -0.0011595653 -0.010269838
-0.0047169663 -0.0011394863 -0.010577009
-0.0052701598 -0.00077304349 -0.010542329
-0.0057800412 -0.00077729102 -0.010584249
-0.004074865 -0.00016565218 -0.015229102
-0.0040748655 -0.00016565218 -0.014738623
-0.0037488767 -0.00016565213 -0.014248151
-0.0037677737 0.00015764961 -0.01425131
-0.0057591447 -0.0011595652 -0.010269842
-0.0057591456 -0.0011595653 -0.0092343902
-0.0062481272 -0.0011595658 -0.0097793648
-0.0077633741 -0.0011472948 -0.010560494
0.0088560423 5.5217391e-05 0.0030820104
0.0038032085 -5.5217391e-05 0.0030820104
0.0038032085 5.5217391e-05 0.0030820104
0.0062481281 -5.5217388e-05 0.0030820104
0.0065741176 -0.00011043478 0.0025915341
0.0063024596 5.5217399e-05 0.0030820104
0.0063148099 -0.00014557305 0.0027005277
0.0088165263 0.00015561259 0.0022645495
0.0037810728 -0.00014520121 0.0027065831
0.0052701579 -0.00079670816 -0.00025789859
0.0057528769 -0.00079003343 -0.00027167285
0.0040748655 0.00016565218 0.00073862448
0.0052701579 0.0011595653 -0.00024232781
0.0052701575 0.0008027759 -0.00027167285
0.0088165244 0.00015561259 -0.006727512
0.0088165263 0.00015561259 -0.006237037
0.0088178059 -0.00015338155 -0.0057465606
0.0042378609 -0.0011595653 -0.00073280465
0.003748877 -0.0011595654 -0.00073280465
0.0077694082 -0.0011595654 -0.0012777769
0.0092130778 -0.0010964598 -0.00073280418
0.0087282006 -0.0011400768 -0.0017778706
-0.0088165253 -0.00015561261 -0.0032396824
-0.0088017099 0.00014356516 -0.0052560838
-0.0077694086 0.00024360618 -0.0002583568
-0.0082583958 0.00079144916 -0.0003331569
-0.0077694086 -0.00023467399 -0.00026957691
-0.0077694082 0.0011595654 -0.0097793695
-0.0077694091 0.0011595653 -0.010269844
-0.0077694119 0.0011595653 -0.010542328
-0.007226096 0.0011595653 -0.010542328
-0.007226096 0.00081353623 -0.010542328
0.0090733683 0.00016565218 0.00073862448
0.010104276 -0.00027042362 -0.0087425141
0.0096960915 0.001095853 -0.0083666258
0.0017386093 -0.0011595652 -0.010269843
0.0002716576 -0.0011595654 -0.0097793648
0.00076064159 -0.0011595652 -0.0087439129
0.0012496256 -0.0011595654 -0.0097793657
-0.0012496257 0.00016565213 -0.0152291
-0.0027709084 -0.0011595653 -0.010542328
-0.0022275939 -0.0011595653 -0.01026984
-0.0022275934 -0.0011595653 -0.010542328
-0.0062815635 -0.00016565211 -0.015229102
-0.008801708 0.00014356515 -0.015229104
0.0012533094 -0.00016378035 -0.013758592
0.0015756149 -5.5217388e-05 -0.013757671
-0.0015756151 -0.00016565221 -0.014248148
-0.0015756149 5.5217388e-05 -0.014248148
-0.0015756149 5.5217391e-05 -0.013757671
-0.0015756149 5.5217402e-05 -0.013267195
-0.0012496256 0.00016565213 -0.013267197
-0.0015756151 -0.00016565219 -0.013267194
0.0042378604 0.0011595652 -0.010269843
0.0037624591 0.0011526631 -0.01054914
0.0042533842 0.0011595652 -0.010557898
0.0027980746 -0.00079144927 -0.010560495
0.0017128736 -0.00076432485 -0.010559538
0.004074865 0.00016565221 -0.012722222
0.003748877 0.00016565215 -0.013267194
0.0037643996 -0.00015776392 -0.013267194
0.0037644003 -0.00015776393 -0.012722221
0.004074865 -0.00016565218 -0.012722221
0.0037643998 -0.00015776392 -0.012231749
0.0032598926 -0.0011595651 -0.010269843
0.0032398757 -0.00078757433 -0.010559538
0.0037644003 -0.00015776392 -0.01174127
0.0037488753 0.00016565213 -0.01174127
0.0040748655 -0.00016565218 -0.011250791
0.0042223376 -0.0007888198 -0.01058904
0.0047268448 -0.00027608694 -0.010542329
0.0057591447 -0.0011595652 -0.01026984
0.0062481295 -0.0011595656 -0.0097793676
0.0057591447 -0.0011595652 -0.0092343893
0.0062481286 -0.0011595654 -0.0092343921
0.0052701598 0.00027608691 -0.010542329
0.0047268444 0.00027608691 -0.010542329
0.0047268462 -0.0011595654 -0.0092343912
0.003748877 0.00016565215 -0.0057465597
0.0037488772 0.00016565212 -0.0052560852
0.004074865 0.00016565219 -0.0057465602
0.0037644005 -0.00015776392 -0.0052560871
0.0037644003 -0.00015776392 -0.0057465592
0.0027709091 -0.00027608706 -0.0083624311
0.0052701593 0.00079144916 -0.0083987666
0.0047268448 0.00079144904 -0.0083987657
0.0057591442 0.00079144922 -0.0083987648
0.0052602813 -0.0007445981 -0.0084284907
0.0057739615 -0.001119407 -0.0084417025
0.0063024601 -0.00016565212 -0.0072724875
0.0057520573 -0.00073703215 -0.0084382566
0.004074865 -0.00016565221 -0.0042206347
0.0040748655 0.00016565218 -0.006237037
0.004074865 -0.00016565219 -0.0067275125
0.0040748655 0.00016565218 -0.0052560843
0.0063024582 -0.00016565212 -0.0057465616
0.006302461 0.00016565212 -0.0052560833
0.0063024596 -0.00016565212 -0.0062370375
0.0065741176 -0.00011043479 -0.0057465611
0.0088178059 -0.00015338157 -0.013263158
0.0088165253 0.00015561258 -0.011741268
0.0067371125 -0.0011595652 -0.008743912
0.0022275941 -0.00027608697 -0.0083624329
0.0065741171 -0.0001104348 -0.006237037
0.0037644012 -0.00015776393 0.0012290999
0.0037488758 0.00016565213 0.0012291004
0.0022275939 0.0011595652 -0.0017682537
0.00277091 -0.00023467393 -0.00026957644
0.0027709089 0.00024360618 -0.0002583568
-0.0065741171 -0.00016565221 -0.0047656079
-0.0065741171 -0.00016565219 -0.0042206347
-0.0062815631 -0.00016565211 -0.0062370352
-0.0012496256 0.0011595654 -0.0012777769
-0.0012643597 0.00015067792 0.002714383
0.0088165263 0.00015561259 -0.0057465611
0.0088190483 -0.00013510631 -0.0032373639
0.008821588 -0.00014679742 -0.0037261706
0.0063024629 0.00016565211 -0.0047656107
0.0063024624 0.00016565209 -0.0037301574
0.0032598937 -0.0011595652 -0.00073280465
0.0012496255 0.0011595654 -0.0012777769
0.00076064182 0.0011595652 -0.0012777774
0.006302461 -0.00016565212 0.0022645495
0.0063024596 0.00016565212 0.0022645495
0.0015756149 -5.5217388e-05 0.0025915341
0.0012610641 -0.00015983975 0.002267418
0.0015756149 -5.5217399e-05 0.0022645504
0.00027165757 -0.00023467392 -0.00026957691
0.00027165757 0.00024360625 -0.0002583568
-0.0012496258 -0.00016565211 0.00073862448
0.0015756149 -7.3623196e-05 0.0012654322
0.0015756151 0.00016565218 0.001774074
0.0015756151 0.00016565219 0.0012291004
0.0022275941 0.0011595652 -0.0087439129
0.0027959852 0.00080277579 -0.0084043536
0.0032598926 0.00079144922 -0.0083987657
-0.0002716576 0.0011595653 -0.008743912
0.0012496256 -0.00016565213 -0.012722223
0.0012496258 0.00016565212 -0.014248146
0.0015756151 0.00016565218 -0.013757669
0.0017386096 0.0011595652 -0.010542327
0.0022275934 0.0011595653 -0.010542328
0.0012496259 0.0011595653 -0.010269842
0.0032417821 0.0011490476 -0.01058904
0.0028056807 0.0011639827 -0.010585926
0.0027906653 0.00078308297 -0.010552238
0.0037488758 0.00016565211 -0.014738623
0.0012586809 -0.00016105066 -0.015230622
0.0037488763 0.00016565212 -0.01272222
0.0065741171 0.00016565218 -0.0057465602
0.0088165253 0.00015561259 -0.0072724847
0.0027709086 0.0011595653 -0.00024232781
0.0022275944 0.0011595655 -0.00073280465
0.0027709089 0.0011595654 -0.00073280465
0.003259893 0.0011595653 -0.00073280465
0.0065741171 0.00016565218 0.001774074
0.0063128634 0.00015155405 0.0027086441
0.00776941 0.0011595654 -0.0022042338
0.0077694114 0.001104348 -0.0083624329
0.0077694086 0.00077304343 -0.0083624329
0.0082583977 0.00077304343 -0.0083624329
0.006737113 0.001104348 -0.0083624339
0.0072260965 0.0011595652 -0.0017682542
0.0072260993 0.0011595652 -0.0012777769
0.006737113 0.0011595651 -0.0097793657
0.0072260974 0.0011595655 -0.00073280465
0.0087473821 0.0011595655 -0.00073280465
0.0082583996 0.0011595653 -0.0012777774
0.00076064141 -0.0007546377 -0.0083987657
0.0012496256 0.00016565213 -0.0032396812
0.00027165757 0.000276087 -0.0022042333
0.00076064159 0.0011595652 -0.008743912
0.00076064182 0.0011595653 -0.0092343921
0.0037488765 0.0011595653 -0.0022042338
0.0037488758 0.00016565213 -0.0047656116
0.0042411871 0.0011573114 -0.0022097947
0.0037488767 0.00016565213 -0.0042206352
0.005270157 0.00077304337 -0.0022042333
0.0047268434 0.00077304337 -0.0022042338
0.00027165769 0.0011753418 -0.0083935745
-0.0037488753 -0.0011595653 -0.0092343939
-0.0032598928 -0.0011595652 -0.0087439138
-0.0012496259 -0.00016565212 -0.0037301572
-0.003748876 -0.00016565212 -0.0037301576
-0.0012496258 0.00016565211 -0.0037301579
0.010093858 0.00075143657 -0.0021686908
0.0090733683 -0.00015561265 -0.0062419917
0.0088176886 -0.00014616364 -0.0067275129
0.0092130788 -0.0010964598 -0.0092343912
-0.004074865 -0.00016565218 -0.011741269
0.0065741171 0.00016565218 -0.014738627
0.0072260974 0.0011595654 -0.0097793667
0.0087473821 0.0011595652 -0.0092343939
0.0087473812 0.0011595655 -0.0097793648
0.0063024615 0.00016565209 -0.012231748
0.0063024606 0.00016565212 -0.0152291
0.0063024615 0.00016565209 -0.014738623
0.0063024596 0.00016565212 -0.014248149
0.0062791756 0.0011437888 -0.010573469
0.006737113 -0.0011595652 -0.010269843
0.0063024615 -0.00016565209 -0.012231749
0.0047268448 0.0011595654 -0.0087439129
-0.0015756151 -0.00016565219 -0.0047656079
-0.004074865 0.00016565219 -0.0042206347
-0.0037643998 0.00015776392 -0.0032396817
-0.0072280364 0.0011635093 -0.0021925559
-0.0072212308 0.00077551592 -0.0021725111
-0.0062815645 -0.00016565213 -0.0042206347
-0.0057638013 0.0011627205 -0.00029993942
-0.0057591465 0.0011595653 -0.00073280465
-0.0052701589 0.0011733695 -0.00031044986
-0.0057591461 0.0011595652 -0.0017682542
-0.0052701575 0.0011595652 -0.0017682537
-0.0057591447 0.0011595652 -0.0012777774
-0.0052701584 0.0011595652 -0.010269837
-0.0057591456 0.0011595652 -0.010269843
-0.0052701598 0.00077304349 -0.010542329
-0.0057690223 0.00075798412 -0.010572054
-0.0063172779 0.00015561261 -0.011741267
-0.0052701598 0.00023314002 -0.010575633
-0.0047340882 0.00027240574 -0.010560496
-0.0065741171 0.00016565218 -0.012231746
-0.0065741171 0.00016565219 -0.011741269
-0.0063172802 0.00015561258 -0.012231747
-0.0065741171 -0.00016565218 -0.011741268
-0.0065741171 0.00016565218 -0.011250791
-0.0077875224 0.00079144933 -0.010542329
-0.004074865 0.00016565219 -0.014248148
-0.0040748655 -0.00016565218 -0.013757671
-0.0015756149 5.5217391e-05 -0.014738623
-0.0065741171 0.00016565218 -0.015774075
-0.0063024592 0.00016565212 -0.016264552
-0.0063080816 0.000161844 -0.015775951
-0.0042378604 0.0011595652 -0.010269843
-0.0027709096 0.0011595654 -0.0097793657
-0.0037488767 0.0011595653 -0.01026984
-0.004074865 0.00016565219 -0.011741269
-0.0040748655 0.00016565218 -0.011250791
-0.0032598928 -0.00077304343 -0.0083624339
-0.0015756149 5.5217391e-05 -0.0057465606
-0.0032458068 0.001151385 -0.0083987638
-0.0022275948 -0.00079670805 -0.00025789859
0.0015756149 -5.5217388e-05 -0.0037301586
0.0015756151 0.00016565219 -0.0032396829
0.0022275946 0.00077304349 -0.0022042328
0.0015756149 -7.730435e-05 -0.0052233865
0.0037643991 -0.00015776393 -0.0042206352
0.0012593565 0.00015741074 0.0027306243
-0.0015756151 -0.00016565218 0.0022645504
-0.0015756149 5.5217388e-05 0.001774074
-0.003748876 -0.00016565212 0.0022645495
-0.0037488758 -0.00016565213 0.0017740731
-0.004074865 -0.00016565218 -0.0072724875
-0.0037488765 0.0011595654 -0.0017682542
-0.0042378604 0.0011595652 -0.0017682537
-0.0027709093 0.0011595652 -0.00024232781
-0.003259893 0.0011595652 -0.00073280418
-0.0032598937 0.0011595652 -0.00024232781
-0.0032598935 0.0008027759 -0.00027167285
-0.0038032085 -5.5217395e-05 0.0030820104
-0.0037660336 -0.00015208994 0.0027014841
-0.0037488763 -0.00016565213 0.0012290999
-0.0037677747 0.0001576496 0.0012290999
-0.0022275951 0.00027608697 -0.0022042324
-0.0088165272 -0.00015561258 -0.012231747
-0.0088165253 -0.00015561259 -0.013267192
-0.0088017099 0.00014356516 -0.012231744
-0.0082583968 0.0011595651 -0.010269842
-0.0082583958 0.0011595652 -0.010542327
-0.010097907 -0.00074937887 -0.0092343902
-0.010102809 -0.0002644622 -0.0087496517
-0.010104116 0.00024453411 -0.0087516997
-0.0097027076 0.000768442 -0.0084441798
-0.0097166523 0.00025841736 -0.0084125726
-0.008801708 0.00014356515 -0.0067275139
-0.010094803 -0.00022455073 -0.0084278304
-0.0082583996 -0.00077304343 -0.0083624339
-0.0062481281 0.0011595652 -0.010269839
-0.0062481272 0.0011595655 -0.0097793667
-0.0057591456 0.0011595653 -0.0097793667
-0.0062481281 0.0011595654 -0.0092343912
-0.0092363646 0.0011595652 -0.0092343893
-0.0037488763 -0.00016565215 -0.014738623
-0.0037488774 -0.00016565212 -0.013757666
-0.008801708 0.00014356515 -0.014248148
-0.008801708 0.00014356519 -0.013757667
-0.0052701579 -0.0011595652 -0.009234393
-0.0067371125 -0.0011595653 -0.0097793648
-0.0057591465 -0.0011595651 -0.0097793657
-0.0077867978 -0.00079292164 -0.010564128
-0.007769411 -0.00025242232 -0.010554008
0.0065741176 -0.0001104348 0.001774074
0.0047268434 0.00080277596 -0.00027167285
0.0047268448 0.00024360618 -0.0002583568
0.0097253462 0.0011043476 -0.0092343921
0.0077694091 -0.0011595652 -0.0017682542
0.0092130797 -0.0010964598 -0.0012777778
0.0092215445 -0.0011194072 -0.0017930251
-0.0072261011 0.00024360616 -0.0002583568
-0.0072260979 0.0011595654 -0.01026984
-0.0012496257 -0.00016565213 0.0012290999
-0.0012496259 0.00016565212 0.00073862448
0.0097210873 -0.00027175617 -0.0084137274
0.0092363618 0.001104348 -0.0083624339
0.00027165757 -0.0011595654 -0.0092343902
0.0012496253 -0.0011595654 -0.009234393
0.0022275944 0.0011595653 -0.01026984
-0.00027165774 0.0011595653 -0.010560494
-0.00074434228 0.0011430002 -0.010585926
0.00029255453 0.0011638128 -0.010588442
0.00075805455 0.0011595653 -0.010589041
-0.0012496256 0.00016565213 -0.011741269
-0.00029528016 0.0007706426 -0.010556546
0.00030385423 0.00079144933 -0.010570587
-0.0015756149 5.5217395e-05 -0.011741269
-0.0065741171 -0.00016565218 -0.015229102
-0.0065741171 -0.00016565218 -0.014738625
-0.0062815617 -0.00016565212 -0.014738623
-0.0065741171 -0.00016565219 -0.014248149
-0.0065741171 -0.00016565218 -0.013267195
-0.006281564 -0.00016565211 -0.012722224
-0.0065741171 -0.00016565218 -0.012722221
-0.00077000901 -0.00075971521 -0.010591188
-0.0012496259 -0.00016565213 -0.011741267
-0.00027165774 -0.0007651553 -0.01054752
-0.00027165774 -0.00027608694 -0.010542329
-0.00027165771 -0.001152663 -0.01054914
0.0015756149 -5.5217395e-05 -0.014248148
-0.0012496256 -0.00016565213 -0.013267195
-0.0012496252 -0.00016565212 -0.012722217
0.0012496255 0.00016565213 -0.013267198
0.0027825516 0.00026425457 -0.010554008
0.0015756149 -5.5217395e-05 -0.011250793
0.003748876 0.00016565211 -0.01375767
0.0037643998 -0.00015776392 -0.013757668
0.0047268448 0.001143789 -0.010573471
0.0027709093 -0.0011595655 -0.0097793685
0.0037420851 -0.001152663 -0.01054914
0.0047268448 -0.00077304343 -0.010542329
0.0022275944 -0.0011595654 -0.0092343921
0.0027709089 -0.0011595654 -0.0092343902
0.0037644007 -0.00015776395 -0.0067275134
0.0037644007 -0.00015776392 -0.0062370352
0.005270157 0.0002603106 -0.0083702188
0.0052746856 -0.00026688413 -0.0083669741
0.003748876 0.00016565211 -0.0062370379
0.0042378609 -0.0011595652 -0.0087439129
0.0042378618 -0.0011595653 -0.0092343893
0.0037488756 -0.0011595654 -0.0087439111
0.0047223791 -0.00027003579 -0.0083654188
0.0037643998 -0.00015776393 -0.0047656111
0.0040748655 -0.00016565218 -0.0062370361
0.007745265 -0.00018405799 -0.010548384
0.0088181337 -0.00015281086 -0.011249526
0.0090733683 -0.00012884059 -0.011232626
0.0067371125 -0.0011595654 -0.0092343921
0.0063024615 -0.00016565215 -0.0067275125
0.0065741176 -0.0001104348 -0.0067275129
0.0027709098 0.0011595653 -0.0017682537
0.0027709096 0.0011595653 -0.0022042338
0.00092363631 -5.5217395e-05 3.0159019e-05
0.00092363631 0.00016565219 3.0159019e-05
-0.0092317071 0.0011564101 -0.0021466212
-0.0062815663 -0.00016565212 -0.005746562
0.00076064182 0.0011595653 -0.00073280465
0.0012496256 0.0011595655 -0.00073280465
-0.0002716576 0.00024360616 -0.0002583568
-0.0002716576 0.00080277584 -0.00027167285
-0.0002716576 -0.00023467399 -0.00026957691
-0.00092363631 -0.00027608697 3.0159019e-05
-0.00027165763 0.0011595653 -0.00024232781
-0.00027165757 0.0011595654 -0.00073280465
0.0002716576 0.0008027759 -0.00027167285
0.00076064165 0.00080277596 -0.00027167285
0.0090733683 -0.00012147827 -0.0032178829
0.0088165263 0.00015561259 -0.0032396819
0.0088165272 0.00015561259 -0.0047656097
0.0088205161 -0.00014866215 -0.0047656102
0.0090733673 0.00016565218 -0.0047656079
0.0088215861 -0.00014679742 -0.0052574137
0.0090733683 -0.00014866222 -0.0047739921
0.0090733683 -0.00013804347 -0.0042478833
0.0065741171 0.00016565218 -0.0047656079
0.0065741171 0.00016565219 -0.003730159
0.0062481286 0.0011495259 -0.0021893708
0.0047268444 -0.00079670816 -0.00025789859
0.0032640721 -0.00077587506 -0.0022531415
0.0022275941 0.0011595654 -0.0012777769
0.0015756149 -7.3623196e-05 0.001774074
0.0037488758 0.00016565213 0.0017740731
0.0012496259 0.00016565212 0.0022645495
-0.0012496257 0.00016565212 -0.014248151
0.0012496259 0.00016565211 -0.01375767
0.0015756151 0.00016565219 -0.012722223
0.001217027 0.0011430002 -0.010569577
0.0037488763 0.00016565209 -0.012231749
0.0077694091 0.00027608708 -0.0083624311
0.0072260974 0.00077304337 -0.0083624329
0.0057591442 0.0011595652 -0.0017682542
0.0047268444 0.0011595652 -0.00073280465
0.0052701565 0.0011595654 -0.0012777769
0.0047268444 0.0011595653 -0.0012777769
0.0037488763 0.0011595652 -0.00024232781
0.0042378609 0.0011595652 -0.00024232781
0.0022275941 0.0011595652 -0.00024232781
0.0022275944 0.00080277584 -0.00027167285
0.0027709093 0.00080277584 -0.00027167285
0.0022275948 0.00024360618 -0.0002583568
0.0037614142 0.00014866212 0.0026837592
0.0062481291 0.0011595651 -0.0012777769
0.0065741171 0.00016565219 0.0022645495
0.0065741171 0.00016565218 0.0012291004
0.0065741171 0.00016565218 0.00073862448
0.0067371116 0.0011595652 -0.00024232827
0.0062481281 0.0011595653 -0.00024232781
0.007226096 0.0011595654 -0.00024232781
0.006302461 -0.00016565209 0.00073862448
0.005270157 -0.00023467396 -0.00026957691
0.0072260965 0.001104348 -0.0083624329
0.0088327574 0.00014198753 0.0027083135
0.0082583986 0.0011595652 -0.00073280418
0.00076064153 0.00077304343 -0.0084169302
0.00027165757 -0.00027608703 -0.0083624348
0.00027165757 0.00027608697 -0.0083624357
0.0012496259 0.0011595654 -0.0097793667
0.0017386092 0.0011595653 -0.0092343884
0.003748876 0.00016565212 -0.0037301576
0.001249626 0.0011595653 -0.0087439138
-0.00027522031 0.0011613757 -0.0022087009
-0.00076699245 0.0007723262 -0.0022502376
-0.0002716576 0.00077304337 -0.0022042333
-0.0012496256 0.00016565212 -0.0032396812
0.010069448 0.0008006522 -0.0083896825
0.010093131 0.00075605337 -0.0087564904
0.010051336 0.0010491305 -0.0017682537
0.0088215852 -0.00014679741 -0.006238366
0.0092130788 -0.0010964598 -0.0097793648
-0.0040748655 -0.00016565219 -0.012231745
-0.0065741171 -0.00016565218 -0.012231748
-0.004074865 -0.00016565218 -0.013267194
0.0065741171 -0.00011043479 -0.014738625
0.0077694082 0.0011595654 -0.0092343921
0.0082583996 0.0011595653 -0.0097793657
0.004074865 0.00016565218 -0.0072724875
0.0047268444 0.00026031057 -0.0083702179
0.0042378609 0.0011595652 -0.0087439129
-0.004074865 0.00016565219 -0.0047656079
-0.0047101281 0.0011623969 -0.00030800421
-0.0042332038 0.0011374783 -0.00028436864
-0.00423786 0.0011595654 -0.00073280465
-0.0047268462 0.0011595654 -0.00073280465
-0.0052701579 0.0011595654 -0.00073280465
-0.0082583968 0.0011595652 -0.0017682542
-0.0077694082 0.0011595654 -0.00073280465
-0.0072261007 0.0011595655 -0.00073280465
-0.0062481286 0.0011595654 -0.0012777769
-0.0062815621 -0.00016565211 -0.0037301579
-0.0063133272 0.0001582898 0.00073499139
-0.0057591442 0.00076690817 -0.0003331569
-0.0063113035 0.0001451061 0.002696726
-0.0047268448 0.00077304349 -0.010542329
-0.0052792151 -0.00023314008 -0.010575633
-0.0040748655 -0.00016565218 -0.011250791
-0.0027709089 -0.00077304343 -0.008362432
-0.0015756151 -0.00016565219 0.00073862448
-0.0057563833 0.00076087692 -0.0021903785
-0.0072261025 0.000276087 -0.0022042333
-0.0052701565 0.00024360612 -0.0002583568
0.00076064188 0.00077304331 -0.0022042338
0.0015756151 0.00016565218 -0.003730159
0.0027709093 0.00077304331 -0.0022042328
0.003259894 0.00077304343 -0.0022042338
-0.0027709082 -0.00027608697 -0.0022042328
-0.0042378614 0.0011595652 -0.0012777774
-0.0047268439 0.0011595654 -0.0017682542
-0.0027709091 0.0011595655 -0.00073280465
-0.0022275946 0.0011595654 -0.0012777769
-0.0027709086 0.0008027759 -0.00027167285
-0.0037712485 0.00015753192 0.0017756759
-0.004074866 -0.00015184784 0.002632407
-0.0040748655 0.00016565218 0.00073862448
-0.0047268462 0.00024360618 -0.0002583568
-0.008801708 0.00014356514 -0.011741269
-0.0092017883 0.00082826091 -0.010542327
-0.0065741171 -0.00016565218 -0.011250791
-0.0027992553 0.00078024575 -0.010556546
-0.008801708 0.00014356515 -0.0072724842
-0.0082647884 0.00076654722 -0.0084073143
-0.0077694086 -0.00077304343 -0.0083624339
-0.0077694086 0.00025848148 -0.0083719129
-0.0072200606 0.00026074875 -0.010575633
-0.006737113 0.0011595652 -0.0097793648
-0.0057591451 0.0011595653 -0.0092343921
-0.0062481291 0.0011595653 -0.0087439129
-0.0015756151 -0.00016565218 -0.014738625
-0.0065741171 0.00016565219 -0.014248149
-0.0065741171 0.00016565218 -0.014738623
-0.0088017071 0.00014356518 -0.014738625
-0.0088017099 0.00014356515 -0.013267195
-0.0057591447 0.0011595652 -0.010542327
-0.0062815631 -0.00016565212 -0.011741269
-0.0047268453 -0.0011595654 -0.0097793667
-0.0067371135 -0.0011595653 -0.0092343921
-0.005270157 -0.0011595655 -0.0097793657
0.0065741171 -0.0001104348 0.0022645504
0.007226096 -0.0011595653 -0.0017682542
-0.0002716576 -0.00079670805 -0.00025789859
-0.0015756151 -0.00016565221 0.0012291004
0.0012651492 -0.00015776392 0.00073862448
0.0097011998 -0.00076077291 -0.0084169311
0.00076064182 -0.0011595653 -0.0092343902
0.00076064171 -0.00077304343 -0.010542328
0.0017386092 0.0011595652 -0.01026984
-0.0012496258 0.00016565212 -0.012231743
-0.00076064147 0.00077304349 -0.010596826
-0.00028718106 0.00029580743 -0.010554007
0.00027165763 0.0011595653 -0.010269841
-0.0017188528 0.00075798412 -0.010572054
-0.0065741171 0.00016565218 -0.015229102
-0.0062815649 -0.00016565212 -0.014248148
-0.004074865 0.00016565219 -0.0152291
-0.0065741171 -0.00016565218 -0.013757669
-0.0065741171 0.00016565218 -0.013267195
-0.0065741171 0.00016565218 -0.013757669
-0.0062815626 -0.00016565212 -0.013267196
0.0015756149 -5.5217395e-05 -0.014738623
0.003748877 0.00016565213 -0.014248151
0.0032598933 -0.0011595652 -0.0092343893
0.0052701598 -0.00077304349 -0.010542329
0.0047268453 -0.0011595653 -0.010542328
0.003259893 -0.0011595652 -0.0097793667
0.0037488758 -0.0011595654 -0.0092343921
0.0042378609 -0.0011595653 -0.0097793648
0.0022275944 -0.0011595653 -0.008743912
0.0027709091 -0.0011595652 -0.0087439111
0.0027868103 -0.00079324486 -0.0084023094
0.0047268444 -0.0011595652 -0.0087439111
0.0047268448 -0.0011595653 -0.0084714284
0.0047180341 -0.00075961219 -0.0084213503
0.004074865 -0.00016565219 -0.0057465597
0.0082383789 0.00078757433 -0.010559538
0.0088198194 -0.00014616361 -0.011741268
0.0032598926 0.0011595652 -0.0017682537
0.0017386089 0.0011595652 -0.0012777774
0.0015756151 0.00016565218 0.00073862448
-0.00027165757 0.00027608703 -0.0022042324
0.00027165757 0.0011595654 -0.0012777769
-0.0002716576 0.0011595654 -0.0012777769
-0.0012496256 5.5217388e-05 0.0030820104
0.00027165757 0.0011595654 -0.00073280465
0.0090733683 -0.00012884061 -0.0037241036
0.0077694077 0.00027608708 -0.0022042328
0.0082583977 0.00077304343 -0.0022042338
0.0088219494 -0.00014616363 -0.0042206342
0.0065741171 0.00016565218 -0.0042206347
0.0088165263 0.00015561259 -0.0037301579
0.0027709091 0.0011595654 -0.0012777769
0.0032598935 0.0011595652 -0.0012777774
-0.0012533093 0.00016378034 -0.013760436
0.0015756151 0.00016565219 -0.013267195
0.0012496258 0.00016565212 -0.012722217
0.0012496257 0.00016565212 -0.01223175
0.0040748655 0.00016565218 -0.012231746
0.0072260969 0.00027608703 -0.0083624339
0.0057591461 -0.0011595652 -0.0087439129
0.0052701575 0.0011595654 -0.0017682547
0.0047268444 0.0011595653 -0.00024232781
0.0037488763 0.0011595654 -0.00073280465
0.0012496257 0.0011595653 -0.00024232781
0.0037488774 0.00016565212 0.0022645495
0.0057591447 0.0011595652 -0.00024232781
0.0057591451 0.0011595652 -0.00073280418
0.0057591465 0.0008027759 -0.00027167285
0.0062481286 0.0011595654 -0.00073280465
0.0067371125 0.0011595651 -0.0012777774
0.0072260988 0.00024360616 -0.0002583568
0.0077694086 0.00080985494 -0.00027865963
0.0077694082 0.0011595653 -0.00024232781
0.0082583977 0.00080985506 -0.00027865963
0.006302461 0.00016565211 0.0012291004
0.0063024615 0.00016565209 0.00073862448
0.0065741171 0.00014987578 0.0026148907
0.0082583977 0.0011595652 -0.00024232781
0.0077694082 0.0011595656 -0.00073280465
0.00076064147 0.00077304337 -0.010596826
0.00076064182 0.0011595652 -0.0097793657
0.0012496256 0.0011595654 -0.009234393
0.0017386089 0.0011595653 -0.0097793667
0.0047268453 0.0011595652 -0.0022042338
0.0042378609 0.0011595652 -0.0017682542
0.0017386092 0.0011595652 -0.0087439138
0.010051336 0.0010491305 -0.0021497356
0.0097253416 0.00077304337 -0.0022042328
0.0088190958 -0.00014356516 -0.0072746668
-0.0037488767 -0.00016565215 -0.011741269
-0.0027709089 -0.00027608688 -0.010542329
-0.004074865 -0.00016565219 -0.012722223
-0.0037488774 -0.00016565213 -0.013267197
-0.0037488763 -0.00016565213 -0.012722219
0.0077694082 0.0011595654 -0.0097793639
0.0082583977 0.0011595652 -0.010269843
0.004074865 -0.00015776398 -0.0072647021
-0.0047268458 0.00080277579 -0.00027167285
-0.0082583986 0.0011595653 -0.00073280418
-0.0072260969 0.0011595654 -0.0012777769
-0.0077694082 0.0011595654 -0.0012777769
-0.0062481286 0.0011595652 -0.00029682554
-0.0062481295 0.0011595654 -0.00073280465
-0.0062481295 0.0011595653 -0.0017682542
-0.006737113 0.0011595652 -0.0017682547
-0.0065741171 0.00012884059 -0.003736214
-0.0065741171 -0.00016565218 -0.003730159
-0.0052594687 0.0007938632 -0.0002807444
-0.0012496259 -0.00016565213 -0.0072724842
-0.0027709089 0.00027608703 -0.0022042328
-0.005270157 0.0011595654 -0.0012777769
-0.0047268458 0.0011595654 -0.0012777769
-0.0012496259 0.0011595654 -0.00073280465
-0.00076064182 0.0011595652 -0.00073280418
-0.0022275941 0.00080277584 -0.00027167285
-0.0040748655 -0.00016565218 0.0022645504
-0.004074865 -0.00016565219 0.001774074
-0.003748877 0.0011374782 -0.00026412681
-0.004074865 0.00016565219 0.001774074
-0.004074865 0.00016565221 0.0012291004
-0.00773464 0.00022749562 -0.010555408
-0.0077694124 0.00077304337 -0.0084169311
-0.0072260993 0.00077304331 -0.0084169302
-0.007209999 -0.00026381639 -0.010550403
-0.0072260993 0.0011595654 -0.0097793667
-0.0046919174 -0.00079276395 -0.01057347
-0.0063172765 0.00015561261 -0.012722222
-0.006317277 0.00015561259 -0.013267194
-0.008801708 0.00014356515 -0.012722218
-0.006281564 -0.00016565212 -0.012231744
-0.0062481291 -0.0011595654 -0.0092343902
-0.0072364453 -0.00077567284 -0.01054752
0.0052701565 0.00024360622 -0.0002583568
0.0077694082 0.00077304343 -0.0022042328
0.0072260974 0.00077304337 -0.0022042342
-0.0072260974 0.00026031063 -0.0083702179
-0.00076064182 -0.00079670799 -0.00025789859
0.0002716576 -0.00079670816 -0.00025789859
-0.00076064159 0.0011595652 -0.00024232781
-0.00076064165 0.0008027759 -0.00027167285
0.0097253472 0.00077304337 -0.008362432
0.0022094832 0.00027240574 -0.010560496
0.0015756151 0.00016565218 -0.011250791
0.00027165777 -0.00027608691 -0.010542329
-0.003262752 -0.00078176195 -0.010559538
-0.0015756149 5.5217391e-05 -0.011250793
-0.0022275934 -0.00027608691 -0.010542329
-0.0015756151 -0.00016565218 -0.011250791
-0.0012496258 -0.00016565215 -0.012231749
-0.0015756151 -0.00016565218 -0.012231746
-0.0015756149 5.5217395e-05 -0.012722221
-0.004074865 -0.00016565218 -0.014248148
-0.0063110408 0.00015983975 -0.014251975
-0.0040748655 0.00016565218 -0.014738623
-0.006308082 0.00016184401 -0.015230983
-0.0062815621 -0.00016565211 -0.013757666
0.0032598935 -0.0011595652 -0.0087439138
0.0032549535 0.00080316194 -0.010572054
0.00276233 -0.0011392221 -0.0083767744
0.003253856 -0.001126844 -0.0083826175
0.0052701579 -0.0011595654 -0.008743912
0.0037669875 -0.0011273551 -0.00841239
0.0032598928 0.0011595652 -0.0022042338
0.0037488765 0.0011595653 -0.0017682542
0.0017386089 0.0011595652 -0.00073280465
0.0015756149 -5.5217384e-05 0.00073862448
0.00076064176 -0.00079670799 -0.00025789859
-0.00076064182 0.0011595654 -0.0012777774
0.0090733673 0.00016565218 -0.0032396829
0.0090733683 0.00016565218 -0.003730159
0.0065741171 -0.00011043478 -0.0037301588
0.0065741176 -0.00011043478 -0.0032396824
0.0088165263 0.00015561259 -0.0042206338
0.0042378604 0.0011595653 -0.00073280465
0.0017386093 0.0011595652 -0.00024232781
0.0057591465 0.0011595653 -0.0012777774
0.0052701575 0.0011595654 -0.00073280465
0.006737113 0.0011595653 -0.00073280465
0.0065741171 -0.0001104348 0.00073862448
0.0072260969 0.00080985489 -0.00027865963
-0.00027165757 -0.00027608694 -0.008362432
0.00076064159 0.0011595652 -0.010269842
0.0047268453 0.0011595653 -0.0017682547
-0.003748876 -0.00016565212 -0.012231749
0.0042332038 -0.00078724214 -0.0084029166
-0.0082667535 0.0011595653 -0.00033874623
-0.006737113 0.0011595653 -0.00073280465
-0.006737113 0.0011595653 -0.0012777774
-0.0082583986 0.0011595653 -0.0012777774
-0.0077694082 0.0011595653 -0.0017682537
-0.0040748655 0.00016565218 0.0022645504
-0.0037488758 0.0011595655 -0.00073280465
-0.0082583958 0.00077304343 -0.010542328
-0.0065741171 0.00013804348 -0.0072634039
-0.0065741171 0.00016565219 -0.012722222
0.0065741171 0.00016565219 -0.0032396826
0.0082583958 -0.00077304343 -0.0084169302
0.00027165777 -0.00077304343 -0.010542329
0.0022172446 0.00076515519 -0.01054752
0.00027165774 0.00027608694 -0.010542329
-0.0022275934 -0.00077304343 -0.010542329
