# .PCD v0.7 - Point Cloud Data file format
VERSION 0.7
FIELDS x y z
SIZE 4 4 4
TYPE F F F
COUNT 1 1 1
WIDTH 1177
HEIGHT 1
VIEWPOINT 0 0 0 1 0 0 0
POINTS 1177
DATA ascii
-0.0065741171 -0.00014941176 -0.010220001
-0.0040341173 0.00014941176 0.001219999
-0.0040341173 0.00014941176 0.0017399993
-0.0037352943 0.00014941175 0.0017399993
-0.0037651765 0.00014443138 0.0026859045
-0.0040341173 0.00014941176 0.0022599995
-0.0038847059 0.00022411764 0.0030028559
-0.0040341178 0.0001245098 0.0026066657
-0.0065741176 0.00014941176 0.0025571417
-0.0062752943 7.4705873e-05 0.0030028559
-0.0063500004 -7.4705888e-05 0.0030028559
-0.0063097733 0.00013217195 0.0026828572
-0.0065741176 -0.00014941176 0.0026314277
-0.0063051754 0.0001344706 0.0022599995
-0.0062752943 0.0011205883 -0.00026571564
-0.0076199998 -0.00030949578 -0.0011995928
-0.0057659354 -0.0011885025 -0.031155065
-0.0062752943 -0.00014941175 -0.032728568
-0.0062665059 -0.0011908995 -0.031159829
-0.0062752939 -0.00014941176 -0.032208573
0.0027641174 0.0011952941 -0.029757146
0.0032958481 0.0011908995 -0.02924588
0.0037352939 0.001195294 -0.029237144
0.0022411766 0.001195294 -0.029237144
0.0042582355 0.001195294 -0.030277148
0.0037352946 0.001195294 -0.029757146
0.0042350511 0.0011875657 -0.029754583
-0.0052294126 0.001195294 -0.03072286
-0.0047705038 0.0011846217 -0.031126123
-0.005720336 0.0011846217 -0.030722853
-0.0052128104 0.001170392 -0.031086031
-0.0052294126 0.001195294 -0.030277144
-0.0037352936 0.00014941175 -0.024259999
-0.0040341173 0.00014941176 -0.023740001
-0.0040341173 0.00014941178 -0.024260003
0.005752353 0.001195294 -0.030722864
-0.0027641177 0.0011803528 -0.02926686
-0.0032782701 0.0011908996 -0.02924588
-0.0027641177 0.0011952941 -0.029757142
-0.0022411763 0.0011803528 -0.02926686
-0.0034364706 -0.00022411764 -0.021734286
-0.0034364706 -0.00022411764 -0.022254288
-0.0037352939 -0.00014941176 -0.022254284
0.0072464705 0.00077694131 -0.00029542856
0.007171765 0.0011205883 -0.00026571564
0.007171764 0.0011205883 -0.00071142986
0.0037352943 0.00014941176 -0.0082885716
0.0037352943 -0.00014941176 -0.0082885716
0.0037352948 -0.00014941175 -0.0077685723
0.0012700001 0.00014941178 -0.0067285718
0.0012700001 0.00014941175 -0.0062085716
0.0063051763 -0.0001344706 -0.0082885716
0.0065741171 -0.0001245098 -0.009229525
0.0065741176 -0.00011205881 -0.0082885725
0.0062638009 -0.0011895474 -0.00032285787
0.0062752939 -0.001195294 -0.00071142986
0.0067235292 -0.0011205883 -0.00034000166
-0.0062752943 -0.00014941175 -0.017277144
-0.0062966389 0.00012806723 -0.016767755
-0.0062988857 0.00012975231 -0.017273232
-0.0062752943 -0.00014941176 -0.019282855
-0.0062752943 -0.00014941176 -0.020768575
0.0032870593 -0.001195294 -0.0012314292
0.0032870593 -0.001195294 -0.0017514294
0.0027641177 -0.0011952941 -0.0012314292
0.0037352943 -0.001195294 -0.0017514294
0.0032870593 -0.001195294 -0.0021971436
0.005229413 -0.00077694119 -0.00029542856
0.0040341173 -0.00014941176 0.00077428482
0.0052234363 -0.00021216471 -0.00027760118
0.0047811768 -0.00022411767 -0.00026571564
0.0047811768 0.00022411767 -0.00026571564
0.0047865128 0.00077373954 -0.00030816346
0.0040341173 0.00014941176 0.00077428482
0.005229413 0.00077694125 -0.00029542856
0.0052294116 0.001195294 -0.00071142986
0.0067235292 0.0011205883 -0.00071142986
0.0067235301 0.0011205882 -0.0012314292
-0.0040341173 0.00014941176 -0.011705715
-0.0040341173 0.00014941178 -0.013265714
0.0076200003 0.00052294118 -0.031020001
0.0072404132 0.00079753587 -0.031136442
0.0065741171 0.00014941176 -0.032728571
0.0047811768 -0.001195294 -0.030277148
0.0042432942 -0.0011903136 -0.02974724
0.0037352939 -0.001195294 -0.029757142
0.005752353 -0.001195294 -0.030722857
0.0052294121 -0.001195294 -0.031094287
0.007171765 -0.0011205883 -0.00071142986
0.0067235292 -0.0011205883 -0.00071142986
0.0062752948 0.001195294 -0.0012314292
-0.0072464719 0.00020544119 -0.00028428622
-0.0012700001 0.0011952942 -0.0012314292
-0.0017929412 0.001195294 -0.00071142986
-0.00127 0.001195294 -0.00071142986
-0.0022411768 -0.00022411766 -0.00026571564
-0.0022411768 -0.00077694136 -0.00029542856
-0.0034364706 -0.00022411764 0.00077428482
-0.0012700002 -0.00014941175 0.00077428482
0.0052294116 0.001195294 -0.00026571564
0.0057523525 0.00077694125 -0.00029542856
-0.0017929412 0.001195294 -0.00026571564
-0.0032870593 0.001195294 -0.00071142986
-0.0037352939 0.00014941178 0.00077428482
-0.0034364706 -0.00022411764 0.001219999
-0.0027641174 0.00077694131 -0.00029542856
0.0012700001 0.001195294 -0.00026571564
0.00074705889 0.001195294 -0.00071142986
0.0012700002 0.001195294 -0.00071142986
0.0037352943 0.001195294 -0.0017514294
0.0032870593 0.001195294 -0.0012314292
0.0037352936 0.001195294 -0.0012314301
-0.0012700001 -0.00014941175 0.0022599995
-0.0012700001 0.00014941175 0.0022599995
-0.0012700001 0.00014941176 0.0017399993
-0.00127 -0.00014941178 0.0017399993
-0.0037352943 0.00014941176 0.0022599995
-0.0034364706 -0.00022411764 0.0022599995
-0.0034364706 -0.00022411764 0.0017399993
0.00089647062 7.470588e-05 0.00077428482
0.00022411763 0.00077694131 -0.00029542856
0.00022411766 0.001195294 -0.00026571564
0.0012700002 -0.001195294 -0.0021971436
0.00074705877 -0.001195294 -0.0021971436
0.0062752943 0.00014941175 -0.018762857
0.0065741171 0.00014941176 -0.018762857
0.0065741171 0.00014941176 -0.019282859
0.005752353 0.0011952941 -0.0012314292
0.0047811773 0.001195294 -0.0017514294
0.004248491 0.0011920459 -0.002190684
0.0027641179 0.001195294 -0.0017514294
-0.0012700002 0.00014941175 -0.01126
0.0012700001 0.00014941175 -0.011705716
0.0012699999 -0.00014941176 -0.012225714
0.00127 -0.00014941176 -0.011705715
-0.0034364706 -0.00022411764 -0.015717145
0.00127 0.00014941175 -0.0082885725
0.0012700002 -0.00014941175 -0.0082885716
0.0012700002 -0.00014941175 -0.0087342858
0.00127 0.00014941175 -0.0087342877
-0.0040341173 -0.00014941176 -0.020768572
-0.0034364706 -0.00022411764 -0.020248573
-0.0037352939 -0.00014941176 -0.020768568
-0.0034364706 -0.00022411764 -0.020768572
0.0072354483 -0.00073603669 -0.0012350827
-0.00127 0.00014941175 -0.0047228569
-0.0012700001 -0.00014941175 -0.0047228569
-0.0012700001 -0.00014941176 -0.0052428581
-0.00127 0.00014941175 -0.0042771427
-0.00127 -0.00014941175 -0.0042771427
0.00127 -0.00014941175 -0.0047228569
0.0012700001 -0.00014941176 -0.0052428581
0.0012700001 0.00014941175 -0.0047228569
0.00127 0.00014941178 -0.0052428581
0.0037352939 -0.00014941175 -0.0037571443
0.00127 0.00014941175 -0.0042771427
0.00074705889 -0.001195294 -0.00071142986
0.00074705883 -0.001195294 -0.0012314292
0.0022411768 -0.001195294 -0.0012314292
0.0022411766 -0.001195294 -0.00071142986
0.0012700001 -0.00014941176 -0.0077685732
0.0012699999 -0.00014941176 -0.0067285718
0.00089647062 7.4705873e-05 -0.017054286
0.00127 -0.00014941175 -0.016757142
-0.0062988857 0.00012975231 -0.020260297
-0.0072414903 -0.0007321178 -0.029247046
-0.0070970594 -0.00022411766 -0.02894
-0.0065741171 -0.00014941176 -0.027751431
-0.007193109 0.00074350147 -0.029329117
0.007171764 0.0011205883 -0.030722857
-0.0067235292 -0.0011205883 -0.0017514294
-0.0067235301 -0.0011205882 -0.0012314292
-0.0012700001 -0.00014941178 -0.0077685723
-0.0012700001 0.00014941176 -0.0077685723
-0.00127 0.00014941175 -0.007248573
-0.00127 0.00014941175 -0.0082885725
-0.0076200003 -0.00031376473 -0.0022268575
-0.0065741171 -0.00014941176 -0.0032371441
-0.0040341173 -0.00014941176 -0.015717145
-0.0012700001 -0.00014941175 -0.01527143
-0.00127 0.00014941175 -0.015717145
-0.0012700002 0.00014941175 -0.015271429
-0.0065741171 -0.00014941176 -0.015271429
-0.0062752943 -0.00014941176 -0.015717145
-0.0040341173 -0.00014941176 -0.014231429
-0.0034364706 -0.00022411764 -0.014231429
-0.0034364706 -0.00022411764 -0.014751429
-0.0062966389 0.00012806724 -0.013775103
-0.0065741171 -0.00014941176 -0.014231429
-0.0062918956 0.00012450981 -0.014751429
-0.0065741171 -0.00014941176 -0.0097742863
-0.0065741171 -0.00014941176 -0.009254287
-0.0040341173 -0.00014941176 -0.0072485721
-0.0037352943 -0.00014941175 -0.0067285718
-0.0034364706 -0.00022411764 -0.0067038098
-0.0040341173 -0.00014941176 -0.0067285718
-0.0065741171 -0.00014941176 -0.0082885716
-0.0076200003 0.00028388234 -0.030693144
-0.0072302301 0.00020462916 -0.031103972
-0.0067235292 0.0011205882 -0.029757142
-0.0062752943 0.0011205883 -0.030277144
-0.0072232843 0.00073160243 -0.029759701
-0.0027591372 0.00073211774 -0.031158667
-0.0022369074 0.0007406557 -0.031164322
-0.0022305041 0.0011846217 -0.031126123
0.0063051763 -0.0001344706 0.00077428482
0.0065741171 -0.00014941176 0.00077428482
0.0065741176 -0.00010458822 -0.016192574
0.0062752943 0.00014941175 -0.014751429
0.0063051758 -0.00013447057 -0.014751428
0.0063051763 -0.00013447058 -0.015271429
0.0065741171 -0.0001245098 -0.014776191
0.0062752943 0.00014941176 -0.015717141
0.0062752943 0.00014941176 -0.016237143
0.007171765 0.0011205883 -0.0021971436
0.0072464705 0.00074705877 -0.0021971436
0.0065741171 0.00014941176 -0.015271429
-0.0040341173 -0.00014941176 -0.01475143
-0.0037352943 -0.00014941176 -0.015271428
-0.0037352943 -0.00014941176 -0.015717141
-0.0034364706 -0.00022411764 -0.015271429
-0.0037352946 -0.00014941175 -0.014751428
-0.0037352943 -0.00014941176 -0.0062085716
-0.0040341178 0.00011205881 -0.0072114291
-0.0040341173 0.00014941176 -0.0067285718
-0.0040341173 -0.00014941176 -0.013785714
-0.0040341173 -0.00014941176 -0.012225715
-0.0062752943 -0.00014941176 -0.01126
-0.0065741171 -0.00014941176 -0.01126
-0.0012700002 -0.00014941176 -0.012225715
-0.0067124614 0.00076089328 -0.0021476196
-0.0067235292 0.0011205883 -0.0021228576
-0.0076199998 0.00029882352 -0.0011571441
-0.0072464696 0.00074705877 -0.00071142986
-0.005720336 0.0011846217 -0.030277148
-0.0062752948 0.00011205883 -0.0082885716
-0.0062752948 0.00011205881 -0.0087342868
-0.0065741171 -0.00014941176 -0.0087342868
-0.0062840832 0.00011865053 -0.0067242021
-0.0065741171 -0.00014941176 -0.0067285718
-0.0062966384 0.00012806723 -0.011270612
-0.0062840828 0.00011865053 -0.0092586568
-0.0040341173 0.00014941176 -0.010220001
-0.0040341173 -0.00014941176 0.0022599995
-0.0047811763 0.0011803528 -0.00029542856
-0.0063051763 0.00013447058 0.001219999
-0.0057274508 0.001170392 -0.00029047765
-0.0065741171 -0.00014941176 -0.034734286
-0.0062752943 -0.00014941178 -0.034734286
-0.0065741171 -0.00014941176 -0.035254285
-0.0072411345 0.00077907584 -0.031088978
-0.0057374118 0.0011504705 -0.031138856
-0.0067235292 0.0011205883 -0.00026571564
-0.0063051768 0.00013447057 0.0017399993
-0.007171764 -0.0011205883 -0.00026571564
-0.0065741171 -0.00014941176 0.00077428482
-0.0057523535 -0.001195294 -0.00071142986
-0.0052294126 -0.001195294 -0.00071142986
-0.0057523535 -0.001195294 -0.00026571564
-0.006574118 0.0001245098 -0.037160952
-0.0065741176 -0.00014941176 -0.037185714
-0.0065741171 -0.00014941176 -0.036219999
-0.0065741176 0.00014941176 -0.036368571
-0.0065741171 -0.00014941176 -0.036740001
-0.0062752943 -0.00014941176 -0.036219999
0.0042464407 0.00074574829 -0.031215496
0.0047811763 0.0011859557 -0.031150002
0.004248491 0.0011920459 -0.031162109
0.0047811754 0.00074705895 -0.031168561
0.0047811763 0.0011504705 -0.029742286
0.00523875 0.0011579411 -0.029729284
-0.0057203365 0.0011846217 -0.00071142986
-0.0052294126 0.0011803529 -0.00029542856
-0.005229413 0.00077196088 -0.00031523965
-0.005752353 0.00077196083 -0.00031523965
-0.00029882352 0.001195294 -0.0021971436
0.00022112945 0.0011923057 -0.0022090292
0.00022411763 0.001195294 -0.0017514294
0.0012700002 0.001195294 -0.029237144
0.00127 0.0011952942 -0.029757146
0.0017929412 0.001195294 -0.029237144
0.0037352943 0.001195294 -0.030277148
-0.0017929412 0.0011803528 -0.029266857
-0.0012700002 0.001195294 -0.02923714
-0.0013447059 0.00052294118 -0.02894
-0.001792941 0.00074705895 -0.02923714
-0.0037352943 -0.00014941175 -0.021734282
-0.0040341173 -0.00014941176 -0.021214288
-0.0040341173 0.00014941176 -0.021214284
-0.0034364706 -0.00022411764 -0.021214284
0.007171765 0.0011205882 -0.0012314292
0.0037352943 0.00014941176 -0.0052428581
0.0037352943 -0.00014941176 -0.0047228569
0.0037352943 -0.00014941178 -0.005242859
0.00127 0.00014941175 -0.0057628583
0.0012700001 0.00014941176 -0.0092542842
0.0037352939 0.00014941176 -0.0087342858
0.0037352946 -0.00014941175 -0.0092542861
0.0037352948 0.00014941175 -0.009254287
0.0037352943 -0.00014941178 -0.0087342858
0.0037352948 0.00014941175 -0.0077685714
0.0037352939 -0.00014941176 -0.007248573
0.0037352939 0.00014941176 -0.007248573
0.0040341173 -0.00014941176 -0.0072485721
0.0063051763 -0.00013447061 -0.0087342868
0.0063051758 -0.00013447057 -0.0077685732
0.0063051763 -0.00013447061 -0.007248573
0.0062752939 0.00014941176 -0.0077685723
0.0047811754 -0.00074705889 -0.0021971436
0.0040341173 -0.00014941176 -0.0032371441
0.0047899657 -0.0011908995 -0.0021884041
-0.0057523525 -0.001195294 -0.030722857
-0.0062752943 -0.001195294 -0.030722857
-0.0062752939 -0.0011579409 -0.029274285
-0.0062752943 -0.001195294 -0.029757142
-0.0057405573 -0.0011756344 -0.029268421
0.0042582355 -0.001195294 -0.0017514294
0.0047811768 -0.001195294 -0.0017514294
0.0042582355 -0.001195294 -0.00071142986
0.0047811773 -0.001195294 -0.00071142986
0.0032870593 -0.001195294 -0.00071142986
0.0027641177 -0.001195294 -0.00026571564
0.0022411766 -0.00077694119 -0.00029542856
0.0022411766 -0.001195294 -0.00026571564
0.0027562538 -0.00077458215 -0.00030481257
0.0057523535 -0.0011803528 -0.00029542856
0.0052294116 -0.0011803528 -0.00029542856
0.0027641177 0.001195294 -0.00071142986
0.0022411766 0.001195294 -0.00071142986
0.0027641174 0.0011952941 -0.0012314292
0.0027641177 0.001195294 -0.00026571564
0.003287059 0.001195294 -0.00026571564
0.0047811763 -0.00077694125 -0.00029542856
0.0037352943 0.001195294 -0.00026571564
0.0042582359 0.001195294 -0.00026571564
0.0052294126 0.00022411766 -0.00026571564
0.0065741171 0.00014941176 -0.022774287
0.0062752934 0.00014941178 -0.023294281
0.0062752943 0.00014941175 -0.022774287
0.0040341173 0.00014941176 -0.019282859
0.0037352943 0.00014941176 -0.019282855
0.0040341173 0.00014941176 -0.01876286
-0.0022411766 0.00022411766 -0.00026571564
-0.00127 0.00014941175 0.00077428482
-0.0040341173 0.00014941176 -0.011260001
-0.0040341173 -0.00014941176 -0.01126
-0.0047811768 0.0011803528 -0.0021674288
-0.0042582359 0.001195294 -0.00071142986
-0.0052294126 0.00074705883 -0.0021546949
-0.0062752948 -0.00014941176 -0.035774287
-0.0063051758 0.0001344706 -0.036219999
0.0062752943 0.00014941176 -0.036219999
0.0062966389 -0.00013873947 -0.036750611
0.0062752939 0.00014941175 -0.036739998
0.0063051758 -0.0001344706 -0.036219999
0.005238201 0.0011908995 -0.031159829
0.005229413 0.00074705895 -0.031168569
0.0063051763 -0.0001344706 -0.015717141
0.0040341173 0.00014941176 -0.027231429
0.0040341178 -0.00010458824 -0.027246285
0.0040341173 0.00014941176 -0.027751431
0.0037352943 0.00014941176 -0.027231425
0.0037352943 0.00014941176 -0.02671143
0.0057523525 -0.0011952942 -0.0012314292
0.005752353 -0.001195294 -0.00071142986
0.0052294126 -0.001195294 -0.0017514294
0.005229413 -0.001195294 -0.0012314292
0.0062752939 -0.001195294 -0.0021971436
0.0057659359 -0.0011885025 -0.0021836376
0.0052294116 -0.001195294 -0.030722857
0.0057606539 -0.0011869933 -0.031119041
0.0057523539 -0.00077694131 -0.031138856
0.0062646223 -0.0011846217 -0.031126123
0.0065741171 -0.00014941176 -0.035254285
0.0065741171 0.00014941176 -0.034734286
0.0065741171 0.00014941176 -0.035254285
0.0065741171 -0.00014941176 -0.034734283
0.0063051763 -0.0001344706 -0.013785714
0.007171765 -0.0011205883 -0.0017514294
0.0071290755 -0.0011205884 -0.0021759188
0.007205382 -0.00072838255 -0.0021822862
-0.0063051763 0.0001344706 0.00077428482
0.00022411766 0.0011952941 -0.0012314292
0.00074705877 0.001195294 -0.0012314292
-0.00074705877 0.0011952941 -0.00071142986
-0.00074705877 0.001195294 -0.0012314292
-0.0037352943 -0.00014941176 0.001219999
-0.0037352943 -0.00014941176 0.00077428482
-0.0032870593 -0.001195294 -0.00026571564
-0.0027641177 -0.001195294 -0.00026571564
-0.0022411766 -0.001195294 -0.00026571564
-0.0027641177 -0.001195294 -0.00071142986
-0.0022411766 -0.001195294 -0.00071142986
0.0047811773 0.001195294 -0.00026571564
-0.0032870593 0.001195294 -0.00026571564
-0.0017929416 0.00077694125 -0.00029542856
-0.0022411766 0.001195294 -0.00026571564
-0.0040341173 0.00014941176 0.00077428482
-0.0047811759 0.00077196071 -0.00031523965
-0.0047811768 0.00022411767 -0.00026571564
-0.005229413 0.00022411767 -0.00026571564
0.003287059 0.001195294 -0.00071142986
0.0037352943 0.001195294 -0.00071142986
0.00089647062 0.00014941176 0.001071427
0.00127 -0.00014941176 0.001219999
0.0012700001 0.0011952941 -0.0012314292
0.0017929412 0.0011952941 -0.00071142986
0.0022411766 0.001195294 -0.0012314292
0.0032870593 0.001195294 -0.0017514294
0.00127 0.0001245098 0.0030523799
0.0012797444 0.00015265985 0.0026992541
0.00127 -7.4705873e-05 0.0030028559
0.00127 -0.00014941175 0.00077428482
0.00022411763 -0.001195294 -0.00026571564
0.0017929412 -0.001195294 -0.00026571564
0.0012700002 -0.001195294 -0.00026571564
0.0040341178 0.00013447058 0.002675999
0.0038100001 -7.470588e-05 0.0030028559
0.0040341178 -0.00011205881 0.0026685707
0.0040341173 0.00014941176 0.0022599995
-0.00127 0.001195294 -0.0017514294
-0.0017929412 0.001195294 -0.0017514294
0.0062752939 0.00014941176 -0.020768575
0.0065741171 0.00014941176 -0.020768572
0.0062752943 0.00014941175 -0.020248573
0.0062752943 0.00014941175 -0.022254284
0.0062752939 0.00014941175 -0.021734286
0.0065741171 0.00014941176 -0.021734286
0.0037352943 0.00014941176 -0.027751427
0.0052294121 0.001195294 -0.0012314292
0.0057523535 0.001195294 -0.0017514294
0.0062752943 0.00014941178 -0.0047228569
0.0062752939 0.00014941175 -0.005242859
0.0065741171 0.00014941176 -0.0052428581
0.0040341173 0.00014941176 -0.0042771436
0.0040341173 -0.00014941176 -0.0042771436
0.0040341173 0.00014941176 -0.0047228569
0.0037352948 -0.00014941178 -0.0042771427
0.0047899652 0.0011908995 -0.0021884041
0.0047811754 0.00074705889 -0.0021971436
0.0040341173 0.00014941176 -0.0032371441
0.0040341173 0.00014941176 -0.021214284
0.0040341178 -7.4705888e-05 -0.021214288
0.0040341173 0.00014941176 -0.021734286
0.0012700001 -0.00014941175 -0.021214284
0.0012700001 0.00014941176 -0.021214284
0.00127 0.00014941178 -0.021734286
0.0037352939 0.00014941176 -0.021214288
0.0062752948 0.00014941176 -0.024260003
0.0062752943 0.00014941178 -0.023739997
0.0065741171 0.00014941176 -0.023740001
0.0065741171 0.00014941176 -0.024260003
0.0012700001 -0.00014941178 -0.0092542851
0.00127 0.00014941175 -0.0097742882
0.0012700001 -0.00014941175 -0.0097742882
0.0037352939 0.00014941176 -0.0097742872
-0.0012700001 -0.00014941178 -0.010740001
-0.0012700001 0.00014941176 -0.01074
0.00127 0.00014941178 -0.012225715
0.0037352943 -0.00014941176 -0.012745715
0.0040341178 -0.00013447058 -0.013785715
0.0040341178 -7.4705888e-05 -0.012745716
0.00127 -0.00014941175 -0.014751428
0.00127 -0.00014941175 -0.015271429
0.0012699999 0.00014941175 -0.015271429
0.0012700001 0.00014941176 -0.014751425
0.0012700001 0.00014941175 -0.013785716
0.00074705877 0.001195294 -0.0017514294
0.00127 0.001195294 -0.0017514294
0.0065741171 -0.00012450981 -0.0077685723
0.0065741171 0.00014941176 -0.0077685723
0.0065741176 -0.00011205882 -0.0072485721
0.0065741171 0.00014941176 -0.0067285718
0.0065741176 -0.00010458825 -0.0066840006
0.0062752943 0.00014941178 -0.0082885716
0.006574118 -7.4705888e-05 -0.0087342868
0.0062752943 0.00014941176 -0.007248573
0.00127 -0.00014941175 -0.0057628583
0.0037352939 0.00014941176 -0.0062085716
0.0037352943 -0.00014941176 -0.0057628574
0.0037352939 -0.00014941176 -0.0062085716
-0.0012700002 0.00014941175 -0.0057628583
-0.0012700004 -0.00014941175 -0.0057628583
-0.0012700004 -0.00014941175 -0.0062085707
0.0065741171 0.00014941176 -0.01126
0.0065741171 0.00014941176 -0.010740002
0.0062752943 0.00014941176 -0.010740002
0.0065741171 0.00014941176 -0.012225715
0.0065741176 -0.00010458822 -0.012210858
0.0065741176 -0.00011205882 -0.011742857
0.00127 -0.00014941176 -0.0037571443
0.0022411768 0.00022411767 -0.00026571564
0.0037352939 -0.00014941178 0.00077428482
0.0037352939 0.00014941176 0.00077428482
0.0012700002 -0.001195294 -0.00071142986
0.00074705883 -0.001195294 -0.00026571564
0.00022411763 -0.001195294 -0.00071142986
-0.00029882355 -0.001195294 -0.00026571564
0.0022411766 -0.001195294 -0.0017514294
0.0017929412 -0.001195294 -0.0021971436
0.0040341178 -7.470588e-05 -0.01527143
0.0040341173 0.00014941176 -0.015717141
0.0040341178 -0.00011205881 -0.015717145
0.0042665359 -0.0011869933 -0.029278416
0.0037352939 -0.00014941176 -0.016757138
0.0037352943 0.00014941175 -0.016237147
0.0037352943 -0.00014941175 -0.016237147
0.00127 -0.00014941176 -0.016237147
0.0037352939 -0.00014941176 -0.01527143
0.0037352943 -0.00014941176 -0.015717145
-0.0062752948 -0.00014941175 -0.021734286
-0.0063051758 0.0001344706 -0.022254284
-0.0065741176 0.00014941176 -0.028494287
-0.0037352943 -0.00014941175 -0.022774287
0.0067235292 0.0011205882 -0.029757142
0.0057523525 0.0011803528 -0.030306861
0.0067235292 0.0011205883 -0.030277144
-0.007171765 -0.0011205883 -0.0017514294
-0.0062752943 -0.00014941175 -0.0067285718
-0.0065741171 -0.00014941176 -0.0062085716
-0.0034364706 -0.00022411764 -0.0073228581
-0.0037352936 -0.00014941178 -0.007248573
-0.0037352939 -0.00014941175 -0.0077685714
-0.00127 -0.00014941176 -0.007248573
-0.00127 -0.00014941176 -0.0067285718
-0.0052294126 -0.001195294 -0.03072286
-0.0052294126 -0.001195294 -0.030277144
-0.0047811768 -0.001195294 -0.030722857
0.0032870595 -0.001195294 -0.029757142
0.0027641177 -0.001195294 -0.02923714
-0.0062752939 -0.00014941176 -0.0062085716
-0.0057584085 0.00077330694 -0.0021529738
-0.0065741171 -0.00014941176 -0.0037571434
-0.0057523525 -0.001195294 -0.0021971436
-0.0052294116 -0.001195294 -0.0017514294
-0.0034364706 -0.00022411764 -0.0062085716
-0.0034364706 -0.00022411764 -0.0057628574
-0.0040341173 -0.00014941176 -0.0057628574
-0.0037352943 -0.001195294 -0.0017514294
-0.0037352943 -0.001195294 -0.0012314292
-0.004258235 -0.0011952941 -0.0012314292
-0.0065741176 0.00013447058 -0.032178856
-0.007225554 -0.00021216471 -0.031109139
-0.0071530882 -0.0011205883 -0.031149998
-0.0067235292 -0.0011205883 -0.030722857
-0.0067021847 0.0011205884 -0.029279593
-0.0065741171 -0.00014941176 -0.026265718
-0.0063051758 0.00013447058 -0.026265714
-0.0063051763 0.0001344706 -0.026711434
-0.0063051768 0.0001344706 -0.025745716
-0.0065741171 -0.00014941176 -0.025745712
-0.0065741171 -0.00014941176 -0.025225714
-0.0063051772 0.0001344706 -0.024780005
-0.0065741171 -0.00014941176 -0.024780001
-0.0063051763 0.0001344706 -0.025225718
-0.0062752948 -0.00014941176 -0.025225714
0.0017929412 0.001195294 -0.030277144
0.0012700001 0.001195294 -0.030277148
-0.002777301 0.0011908995 -0.031107392
-0.0027641177 0.001195294 -0.030722857
-0.0012732482 0.0011920459 -0.031162109
-0.0037265052 0.0011908995 -0.031159829
0.0057462952 -0.00077330682 -0.00030988455
0.00089647062 7.470588e-05 -0.036665715
0.0012700001 0.00014941175 -0.036219995
0.00089647062 7.470588e-05 -0.035774283
0.0012949019 0.0001245098 -0.037557144
0.00127 -7.4705888e-05 -0.037557144
0.0012602559 0.00014616367 -0.037253536
-0.0017929412 0.0011803529 -0.031138856
-0.00127 0.00014941176 -0.032728564
0.0059764707 7.470588e-05 3.1428412e-05
0.0062752943 0.00014941176 0.00077428482
0.0040341173 -0.00014941176 0.001219999
0.0065741171 0.00014941176 0.0022599995
0.0062752943 0.00014941176 0.0022599995
0.0065741176 0.00014941176 0.0026314277
0.0065741176 -0.00014941176 0.0025571417
0.0040341173 -0.00014941176 0.0022599995
0.0065741171 0.00014941176 -0.017797142
0.0065741171 0.00014941176 -0.017277144
0.0062752939 0.00014941176 -0.017277144
0.0065741171 0.00014941176 -0.016757142
0.0065741176 -7.4705873e-05 -0.017277144
0.0065741176 -0.00011205881 -0.016757142
0.0065741171 0.00014941176 -0.0062085716
0.006574118 -7.470588e-05 -0.0057628574
0.0065741176 -0.00011205881 -0.0062085716
0.0063051758 -0.0001344706 -0.0062085707
0.0065741171 0.00014941176 -0.0042771436
0.0062752943 0.00014941176 -0.0042771427
0.0065741171 0.00014941176 -0.014751428
0.0062752943 0.00014941176 -0.01527143
-0.0037352943 -0.00014941176 -0.014231428
0.0017929412 0.00074705895 -0.0021971436
-0.0037352943 0.00014941176 -0.0062085707
-0.0037352943 0.00014941176 -0.0057628583
-0.0040341173 0.00014941176 -0.0062085716
-0.0037352939 0.00014941175 -0.0067285728
-0.0037352943 -0.00014941176 -0.0057628565
-0.0034364706 -0.00022411764 -0.0052428581
-0.0040341173 -0.00014941176 -0.0052428581
-0.0034364706 -0.00022411764 -0.0077438103
-0.0037352946 0.00014941176 -0.0077685723
-0.0040341173 -0.00014941176 -0.011705715
-0.0037352943 -0.00014941178 -0.011259999
-0.0037352943 -0.00014941176 -0.012745715
-0.0037352939 -0.00014941176 -0.011705716
-0.0012700002 -0.00014941175 -0.01126
0.0012700001 0.00014941178 -0.010740002
0.0012700001 -0.00014941175 -0.011260001
0.0012700001 -0.00014941176 -0.010740001
-0.0012700002 -0.00014941175 -0.0097742882
-0.00127 0.00014941175 -0.010220001
-0.0012700002 0.00014941175 -0.0097742882
-0.0062752943 -0.00014941176 -0.011705716
-0.0062752943 0.00011205883 -0.010740001
-0.0067235292 0.0011205883 -0.0017514294
-0.0067235292 0.0011205883 -0.030277144
-0.0062752943 0.00011205883 -0.0072485721
-0.0062867873 0.00012067873 -0.0062085716
-0.0065741171 -0.00014941176 -0.0057628574
-0.0062867873 0.00012067873 -0.0097857136
-0.0040341173 0.00014941176 -0.009254287
-0.0037352943 0.00014941178 -0.0092542861
-0.0040341173 0.00014941176 -0.0087342868
-0.0040341173 -0.00014941176 -0.0092542861
-0.0037352943 -0.00014941175 0.0017399993
-0.0062752934 -0.00014941176 0.0022599995
-0.0037352941 -0.00014941176 0.0026871432
-0.0047811768 0.001195294 -0.00071142986
-0.0062752943 -0.00014941176 0.0017399993
-0.0062752943 -0.00014941176 0.001219999
-0.0065741171 -0.00014941176 -0.03428857
-0.0065741171 -0.00014941176 -0.032208573
-0.0065741171 -0.00014941176 -0.032728575
-0.0063051758 0.00013447061 -0.03324857
-0.0063051758 0.00013447057 -0.033768572
-0.0065741176 0.00022411764 -0.033397142
-0.0063051772 0.0001344706 -0.034734283
-0.0063051758 0.0001344706 -0.035254285
-0.0070970589 0.0011205883 -0.031094287
-0.0067235292 0.0011205883 -0.031168573
-0.0065741176 0.00010458823 -0.032683998
-0.0065741171 -0.00014941176 0.001219999
-0.0065741171 0.00014941176 -0.036814284
-0.0065741171 -0.00014941176 -0.035774283
-0.0027641174 0.00022411763 -0.031168573
-0.0034364706 -0.00022411764 -0.032208573
-0.0062752943 -0.00014941175 -0.036740001
0.0047811768 0.001195294 -0.030722857
0.0042582355 0.001195294 -0.030722857
0.0047811763 0.00022411764 -0.031179179
0.0052234363 -0.00021216468 -0.031156681
0.0047811768 -0.00022411764 -0.031168569
0.0057387706 0.0011613368 -0.029709868
0.0012700001 -0.00014941176 -0.027231432
0.0012700001 0.00014941176 -0.027231432
0.0012700001 -0.00014941175 -0.02671143
0.0012700002 -0.00014941175 -0.027751423
-0.0057523525 -0.0011952941 -0.029757146
-0.0052294121 -0.001195294 -0.029757142
-0.0052294116 -0.0011803528 -0.029266857
-0.0047811768 -0.001195294 -0.030277148
-0.0063051758 0.00013447058 -0.028271429
-0.0057286653 0.0007379484 -0.029262509
-0.0058104577 0.00015771242 -0.028923489
-0.0047811768 0.0011803529 -0.02926686
-0.0042582355 0.0011803528 -0.02926686
-0.0034364706 -0.00022411764 -0.019728571
-0.0037352939 0.00014941176 -0.019728571
-0.0037352939 0.00014941178 -0.019282859
-0.0012700001 0.00014941175 -0.018242855
-0.00127 -0.00014941178 -0.018762857
-0.0012699999 0.00014941176 -0.018762857
-0.0012700002 -0.00014941175 -0.018242855
-0.0062752948 -0.00014941175 -0.018762857
-0.0037352939 0.00014941176 -0.020768568
-0.0040341173 0.00014941176 -0.019728571
-0.0040341173 0.00014941176 -0.019282859
-0.0040341173 0.00014941176 -0.018762857
-0.0037352939 0.00014941175 -0.01876286
-0.0040341173 0.00014941176 -0.016237143
-0.0037352943 0.00014941176 -0.016237147
-0.0037352939 0.00014941176 -0.016757142
-0.0040341173 0.00014941176 -0.016757144
-0.0040341173 0.00014941176 -0.017277144
-0.00127 0.00014941175 -0.025225718
-0.0012700002 -0.00014941175 -0.025225714
-0.00127 -0.00014941176 -0.024780005
-0.0012700002 0.00014941175 -0.024780005
-0.00029882358 0.001195294 -0.0017514294
-0.00074705889 0.001195294 -0.0021971436
-0.0012700001 0.00014941178 -0.014751429
-0.0012700001 -0.00014941176 -0.014231429
-0.0012699999 0.00014941175 -0.014231429
0.0007558479 0.0011908995 -0.029245883
0.00074705877 0.001195294 -0.029757142
-0.0047811768 0.001195294 -0.030722857
-0.0042546773 0.0011846216 -0.031147346
-0.0042582355 0.001195294 -0.03072286
-0.0037352939 0.001195294 -0.030722857
-0.0040341173 0.00014941176 -0.032728575
0.0032870593 0.001195294 -0.030277144
0.0027641177 0.001195294 -0.030277148
-0.0040341173 -0.00014941178 -0.021734286
-0.0037352943 -0.00014941176 -0.021214284
0.0037352943 0.00014941176 -0.0047228569
0.0037352936 0.00014941175 -0.0067285709
0.0040341173 0.00014941176 -0.0067285718
0.0037352943 0.00014941178 -0.0057628574
0.0040341173 -0.00014941176 -0.0082885716
0.0040341173 0.00014941176 -0.0082885716
0.0065741171 0.00014941176 -0.0082885716
0.0040341173 -0.00013873949 -0.0078004086
0.0052200742 -0.0011859557 -0.0021785721
0.005229413 -0.00074705895 -0.0021971436
0.0047811768 -0.00022411767 -0.0021971436
-0.0062752939 -0.001195294 -0.030277144
-0.0065741171 -0.00014941176 -0.016757144
-0.0071530878 -0.0011205883 -0.029255714
-0.0065741171 -0.00014941176 -0.028271429
-0.00127 0.00014941175 -0.016757144
-0.0012700002 -0.00014941175 -0.016237143
-0.0012700001 0.00014941176 -0.016237143
-0.0012700004 -0.00014941175 -0.016757144
-0.00127 0.00014941178 -0.01727714
-0.0063051763 0.00013447061 -0.023294281
-0.0062752943 -0.00014941178 -0.023294285
-0.0063051763 0.0001344706 -0.023740001
-0.0040341173 0.00014941176 -0.023294285
-0.0040341173 -0.00014941176 -0.023294285
-0.0037352939 0.00014941175 -0.023294285
-0.0040341173 0.00014941176 -0.022774287
-0.0062752943 -0.00014941176 -0.023740001
-0.0062752943 -0.00014941175 -0.024260007
-0.0063051758 0.00013447058 -0.024260003
-0.0040341173 -0.00014941176 -0.024259999
-0.0034364706 -0.00022411764 -0.026711427
-0.0040341173 -0.00014941176 -0.02671143
-0.0040341173 -0.00014941176 -0.026265718
-0.0047811763 -0.0011803528 -0.029266857
-0.0044823531 -0.0011205883 -0.02894
-0.0047438233 -0.000635 -0.02894
-0.0053788237 -0.00014941176 -0.02894
-0.0062752948 -0.00014941176 -0.028271433
-0.0062752943 -0.00067235297 -0.028939996
0.0027641177 -0.001195294 -0.00071142986
0.004248491 -0.0011920459 -0.0002721753
0.0037352943 -0.001195294 -0.00026571564
0.0037651765 -0.00014443137 0.0026859045
0.0037352936 -0.00014941178 0.0022599995
0.0022411766 0.00074705895 -0.0021971436
0.0022411766 0.00022411764 -0.0021971436
0.0037352943 -0.00014941176 -0.0032371441
0.0032870595 -0.00074705883 -0.0021971436
0.0047811768 -0.0011803528 -0.00029542856
0.0047811768 0.001195294 -0.00071142986
0.0047811759 0.00022411766 -0.0021971436
0.005229413 -0.00022411764 -0.0021971436
0.0057523525 0.00074705883 -0.0021971436
0.0062752939 0.00014941175 -0.0037571443
0.0065741171 0.00014941176 -0.023294285
0.0065741176 -0.00013447058 -0.023294285
0.0063051763 -0.0001344706 -0.023294289
0.0063051758 -0.0001344706 -0.023739997
0.0065741171 0.00014941178 -0.020248573
0.0037352936 0.00014941176 -0.017277144
0.0037352939 -0.00014941175 -0.017277144
0.0037352943 0.00014941175 -0.019728571
0.0040341173 0.00014941176 -0.02024857
0.0040341173 0.00014941176 -0.019728571
0.0037352946 0.00014941175 -0.020248573
-0.0012700004 0.00014941175 -0.019282855
0.0040341178 -0.00013447058 -0.017826859
0.0037352939 -0.00014941176 -0.017797142
0.0040341178 -7.470588e-05 -0.019282859
-0.0027641174 0.00022411766 -0.00026571564
-0.0027641172 -0.00077694136 -0.00029542856
-0.0047811768 0.00072215695 -0.0021476196
-0.0062752943 -0.00014941175 -0.035254285
-0.0040341173 -0.00014941176 -0.035254288
-0.0040341173 0.00014941176 -0.035254285
-0.0040341173 0.00014941176 -0.034734286
-0.0037440828 -0.00014501729 -0.03725126
-0.0038100001 -7.4705888e-05 -0.037557144
-0.0038100001 7.4705888e-05 -0.037557144
0.0063500004 -7.470588e-05 -0.037557144
0.0065741176 0.00014941176 -0.037185714
0.0063500004 7.470588e-05 -0.037557144
0.0062752943 0.0001344706 -0.037230287
0.0062966384 -0.00012806724 -0.037249386
0.0040341178 -0.00014941176 -0.037185714
0.0037352939 -0.00014941175 -0.036740001
0.0037539706 -0.00014941178 -0.037241425
0.0038100001 -7.470588e-05 -0.037557144
0.0065741171 -0.00014941176 -0.036740001
0.0040341173 0.00014941176 -0.036739998
0.0040341178 0.00014941176 -0.037185714
0.0037352943 0.00014941176 -0.036740001
0.0062752934 0.00014941176 -0.035774291
0.0065741171 0.00014941176 -0.036219999
0.0065741171 0.00014941176 -0.03428857
0.0062939702 -0.00014007352 -0.035765
0.0063051768 -0.0001344706 -0.035254285
0.0062752948 0.00014941176 -0.032728571
0.0062752939 0.00014941176 -0.032208573
0.0040341173 0.00014941176 -0.032208573
0.0037352941 0.00052294118 -0.031614285
-0.0047811768 0.00022411764 -0.0021971436
-0.0052294126 0.00022411764 -0.0021971436
-0.0037352946 0.00014941175 -0.0037571443
0.0063051768 -0.0001344706 -0.02024857
0.0065741176 -0.00011205881 -0.020731427
0.0065741176 -0.00013447058 -0.021214288
0.0065741171 0.00014941176 -0.021214288
0.0062752943 0.00014941176 -0.021214284
0.0065741176 -7.470588e-05 -0.021734286
0.0063051763 -0.0001344706 -0.019282859
0.0063051768 -0.00013447058 -0.018762857
0.0037352939 -0.00014941176 -0.025745716
0.0037352939 0.00014941176 -0.025745716
0.0037352936 -0.00014941176 -0.026265711
0.0037352939 0.00014941176 -0.026265711
0.00127 0.00014941175 -0.024779998
0.0012700002 -0.00014941175 -0.024779998
0.0012700002 -0.00014941175 -0.025225714
0.0063051758 -0.00013447057 -0.021734286
0.0037352943 -0.00014941176 -0.018242855
0.0042262184 0.00072571432 -0.028939996
0.0040341173 0.00014941176 -0.026711427
0.0065741171 0.00014941176 -0.027751431
0.0076200003 0.00028388234 -0.029296573
0.0065741171 -0.00014941176 -0.027751431
0.0065741171 0.00014941176 -0.027231429
0.0062752943 -0.001195294 -0.0012314292
0.0067235292 -0.0011205882 -0.0012314292
0.005752353 -0.001195294 -0.0017514294
0.0062820856 -0.0011885025 -0.02973688
0.0057523525 -0.0011846217 -0.029725306
0.007171764 -0.0011205883 -0.030277144
0.0071717645 -0.0011205882 -0.029757142
0.0062888772 -0.0011885025 -0.029318184
0.0071418821 -0.0011205883 -0.029326286
0.0065741171 -0.00014941176 -0.028271429
0.0067235292 -0.0011205883 -0.02931143
0.0063051763 -0.0001344706 -0.014231428
0.0065741176 -0.00013447058 -0.013785715
0.007171765 -0.0011205883 -0.030722857
0.0076200003 -0.00059764704 -0.02998
0.0067235292 -0.0011205883 -0.0017514294
-0.0059764707 7.470588e-05 3.1428412e-05
-0.0047811768 -0.001195294 -0.00026571564
-0.0042582355 -0.001195294 -0.00071142986
-0.0042582345 -0.001195294 -0.00026571564
-0.0037352939 -0.001195294 -0.00026571564
-0.00127 -0.00014941175 0.001219999
-0.00074705877 -0.001195294 -0.00026571564
-0.00074705877 -0.001195294 -0.00071142986
-0.00074705877 -0.00077694125 -0.00029542856
-0.0017929412 -0.001195294 -0.00071142986
-0.0037352943 0.00014941176 0.001219999
-0.0012700002 0.001195294 -0.00026571564
-0.00074705889 0.001195294 -0.00026571564
-0.0027641179 0.001195294 -0.00026571564
-0.0027641177 0.001195294 -0.00071142986
-0.00127 0.00014941176 0.001219999
-0.0022411766 0.001195294 -0.00071142986
-0.003287059 0.00077694113 -0.00029542856
0.0022411766 0.001195294 -0.0017514294
0.0017929411 0.001195294 -0.0012314292
-0.00029882358 0.001195294 -0.00026571564
-0.00074705872 0.00077694113 -0.00029542856
-0.00029882358 0.001195294 -0.00071142986
0.00074705889 0.001195294 -0.00026571564
0.0022411766 0.001195294 -0.00026571564
0.0012700002 0.00014941176 0.0022599995
0.0012700002 -0.00014941178 0.0022599995
0.00127 0.00014941178 0.0017399993
0.0012924119 -0.00014194116 0.002683429
0.0012700002 -0.00014941178 0.0017399993
0.0017929414 -0.00077694125 -0.00029542856
0.00127 0.00014941176 0.00077428482
0.0022411766 0.00077694125 -0.00029542856
0.0037352939 0.00014941176 0.001219999
0.0037352943 0.00014941176 0.0022599995
0.0040341173 0.00014941176 0.0017399993
0.0037352943 -0.00014941175 0.0017399993
0.0062852548 0.00014443137 0.002675999
0.0063500004 -7.470588e-05 0.0030028559
0.0063500004 7.470588e-05 0.0030028559
0.0037352943 0.00014941176 0.0027057137
-0.0027641177 -0.0011952941 -0.0012314292
-0.0022411768 -0.001195294 -0.0012314301
-0.00029882352 -0.001195294 -0.00071142986
-0.00074705877 -0.001195294 -0.0012314292
-0.00029882355 -0.001195294 -0.0012314292
-0.00127 -0.0011952941 -0.0012314292
-0.0022411766 0.001195294 -0.0021228576
-0.0022411766 0.001195294 -0.0017514294
-0.0047811773 -0.001195294 -0.0012314292
-0.0047811763 -0.001195294 -0.0017514294
-0.0052294121 -0.001195294 -0.0012314292
0.00127 -0.00014941175 -0.0032371441
0.00022411763 -0.00074705901 -0.0021971436
0.00074705872 -0.00074705889 -0.0021971436
0.0017929415 -0.00074705895 -0.0021971436
0.0027641174 0.00022411766 -0.0021971436
0.00023398449 0.00075692555 -0.0022251764
0.00022411763 0.00022411766 -0.0021971436
-0.00029882355 0.00022411764 -0.0021971436
-0.00029882355 0.00074705901 -0.0021971427
0.0058868234 0.00061258825 -0.02894
0.0053788237 0.00052294118 -0.02894
0.0052294116 0.0011579409 -0.029237144
0.0052294116 0.001195294 -0.0017514294
0.0040341173 -0.00014941176 -0.0057628574
0.0065741171 -0.00012450981 -0.0052676192
0.0040341173 -0.00014941176 -0.0037571434
0.0040341173 -0.00014941176 -0.0047228569
0.0037352939 0.00014941175 -0.0042771427
0.0040341173 0.00014941176 -0.0052428581
0.0040341173 0.00014941176 -0.0057628574
0.0040341173 0.00014941176 -0.0062085716
0.0040341173 -0.00014941176 -0.0062085716
0.0040341173 0.00014941176 -0.0072485721
-0.00075584778 0.0011996884 -0.029245883
-0.0012699999 0.0011952941 -0.029757142
-0.0037352939 0.00014941175 -0.027231425
-0.0037352943 0.00014941176 -0.02671143
-0.0012700002 0.00014941175 -0.027751423
-0.0012700001 -0.00014941175 -0.019728575
-0.0012700002 0.00014941175 -0.019728571
-0.0012700002 0.00014941176 -0.020248573
0.00089647062 7.4705888e-05 -0.021808572
0.0037352943 0.00014941176 -0.020768572
0.0040341173 0.00014941176 -0.020768572
-0.0034364706 -0.00022411764 -0.024259999
-0.0034364706 -0.00022411764 -0.023740001
-0.0034364706 -0.00022411764 -0.024780001
-0.0012700001 -0.00014941176 -0.025745708
-0.00127 0.00014941176 -0.025745708
-0.0012700001 0.00014941175 -0.026265711
0.0040341178 -0.00013447058 -0.027751427
0.0062752943 0.00014941176 -0.027751431
0.0063051768 -0.00013447058 -0.027231429
0.0062752943 0.00014941175 -0.027231429
0.00127 0.00014941176 -0.010220001
0.00127 -0.00014941175 -0.010220001
0.0012700002 0.00014941175 -0.011260001
0.0012700002 0.00014941175 -0.012745714
0.00074705889 0.0011846216 -0.0022395924
0.0040341178 -7.4705873e-05 -0.013265715
0.0040341173 0.00014941178 -0.013265715
-0.00127 -0.00014941178 -0.014751429
0.0012700001 0.00014941175 -0.015717145
-0.0012700004 0.00014941175 -0.013785716
0.0065741171 0.00014941176 -0.0072485711
0.0062752943 0.00014941175 -0.0067285728
0.0063051758 -0.00013447058 -0.0067285718
0.0072464696 -0.00022411766 -0.0021971436
-0.0012700002 0.00014941175 -0.0052428572
-0.0037352939 0.00014941178 -0.0047228569
-0.0034364706 -0.00022411764 -0.0047228569
-0.0012700002 0.00014941176 -0.0062085707
0.0065741171 0.00014941176 -0.012745716
0.0027641177 -0.00022411763 -0.0021971436
0.0027641172 -0.00022411763 -0.00026571564
0.0027641174 0.00022411766 -0.00026571564
0.0027641172 0.00077694125 -0.00029542856
0.0027641177 -0.001195294 -0.0021971436
0.0012700001 -0.00014941175 -0.015717145
0.0012700002 -0.00014941175 -0.018242858
0.0012700001 -0.00014941175 -0.017797142
0.0012700002 0.00014941176 -0.018242855
0.0012700001 0.00014941178 -0.018762857
0.0012700001 -0.00014941176 -0.017277144
0.0032782701 -0.0011908995 -0.029245883
0.0047811768 -0.0011579409 -0.029274289
0.0037238011 -0.0011895474 -0.029294286
-0.0062752943 -0.00014941176 -0.022254284
-0.0040341173 -0.00014941176 -0.025745712
-0.0034364706 -0.00022411764 -0.025225714
-0.0034364706 -0.00022411764 -0.025745712
-0.0040341173 -0.00014941176 -0.025225714
-0.0062752943 -0.00014941176 -0.024780001
-0.0070223529 7.470588e-05 -0.02894
0.0067235292 0.0011205883 -0.029237144
0.005229413 0.00022411766 -0.031168565
0.0059764707 -7.470588e-05 -0.031614285
0.0076199998 0.00027392156 -0.030326668
0.0076200007 0.00022411764 -0.031020001
0.0076200003 0.00037352942 -0.029757142
0.0072277943 0.0007283825 -0.029266853
0.0076199998 0.00027392156 -0.030698098
0.0072464701 0.00074705895 -0.030277144
0.007171765 0.0011205883 -0.030277144
-0.0062752943 -0.001195294 -0.00071142986
-0.0022411766 0.00022411763 -0.031168569
-0.004258235 -0.001195294 -0.03072286
-0.004248491 -0.0011920459 -0.031162109
-0.0037352939 -0.001195294 -0.031168569
0.00127 -0.0011952941 -0.029757142
0.00022411766 -0.001195294 -0.029237144
0.00074705883 -0.001195294 -0.029757142
0.00075584778 -0.0011908995 -0.029245883
0.0017929412 -0.001195294 -0.029757142
-0.0034364706 -0.00022411764 -0.0032371432
-0.0034364706 -0.00022411764 -0.0036828574
-0.0037352943 -0.00014941176 -0.0032371441
-0.0037352943 -0.001195294 -0.0021971436
-0.0037352946 -0.00014941175 -0.0037571443
-0.0037352943 -0.00014941178 -0.0042771427
-0.0040341173 -0.00014941175 -0.0042771427
-0.0037352939 0.00014941175 -0.0052428581
-0.0065741171 -0.00014941176 -0.0047228578
-0.0062966384 0.00012806724 -0.0047228569
-0.0065741171 -0.00014941178 -0.0052428581
-0.0062752939 -0.00014941175 -0.0052428581
-0.0062988861 0.00012975233 -0.0052545881
-0.0072464705 -0.00074705895 -0.0021971436
-0.0063051763 0.0001344706 -0.0032371441
-0.0062752939 -0.00014941176 -0.0047228569
-0.0065741171 -0.00014941176 -0.0042771436
-0.0063051758 0.00013447061 -0.0042771436
-0.0034364706 -0.00022411764 -0.012225715
-0.0047811768 -0.001195294 -0.0021971436
-0.0034364706 -0.00022411764 -0.010740002
-0.0062752943 -0.00014941176 -0.0082885716
-0.0012700001 -0.001195294 -0.0017514294
-0.0017929412 -0.001195294 -0.0017514294
-0.0034364706 -0.00022411764 -0.0042771427
-0.0037352939 -0.00014941178 -0.0047228569
-0.0034364706 -0.00022411764 -0.0082885725
-0.0040341173 -0.00014941176 -0.0082885716
-0.0034364706 -0.00022411764 -0.0086600007
-0.0037352939 -0.00014941176 -0.0082885716
-0.0027813574 -0.001195294 -0.0022200011
-0.0027743706 -0.00074852369 -0.0022146227
-0.0072464715 -0.00079424155 -0.031141199
-0.0040341173 0.00014941176 -0.025745712
0.0032958481 0.0011908995 -0.031159829
0.0032870593 0.001195294 -0.03072286
0.0027543735 0.0011920459 -0.031162109
0.0027641177 0.001195294 -0.030722853
0.0037352939 0.001195294 -0.030722857
0.0017929412 0.001195294 -0.030722853
0.0022411768 0.001195294 -0.029757142
0.0052294126 -0.001195294 -0.00071142986
0.0037352939 0.00014941178 -0.036219999
0.0037440832 0.00014501729 -0.037251256
-0.0037352939 0.00014941176 -0.03324857
-0.0040341173 0.00014941176 -0.03324857
-0.0037352939 0.00014941175 -0.032728571
0.0065741176 -0.00013447058 0.0022302847
0.0065741171 -0.00014941176 0.001219999
0.0062752943 0.00014941176 0.001219999
0.0062966384 -0.00012806723 0.0026951022
0.0065741171 0.00014941176 -0.018242858
0.006574118 -7.470588e-05 -0.018242858
0.0062752943 0.00014941176 -0.018242858
0.0065741171 0.00014941176 -0.016237143
0.0062752943 0.00014941176 -0.016757142
0.0065741171 0.00014941176 -0.0057628574
0.0062752943 0.00014941176 -0.0057628574
0.0062752943 0.00014941176 -0.0062085707
0.0065741176 -0.00010458824 -0.0037422869
0.0065741176 -0.00011205882 -0.0043142866
0.0065741171 0.00014941176 -0.0047228569
-0.0062752943 0.0011205883 -0.030722857
0.000750379 0.00074871909 -0.0022565722
0.00022411766 0.00022411763 -0.00026571564
-0.0037352939 0.00014941176 -0.007248573
-0.0037352946 -0.00014941175 -0.012225715
-0.0012700001 -0.00014941178 -0.0092542861
-0.0012700001 0.00014941175 -0.0092542851
-0.0012700001 -0.00014941176 -0.0087342858
-0.0037352943 -0.00014941176 -0.0087342868
-0.0037352943 -0.00014941175 -0.0092542861
-0.0040341173 0.00013873949 -0.0077791847
-0.0040341173 0.00014941175 -0.0082885716
-0.0040341173 0.00014941176 -0.0057628574
-0.0040341173 0.00014941176 -0.0097742863
-0.0037352939 -0.00014941176 0.0022599995
-0.0040341173 -0.00014941176 0.001219999
-0.0040341178 -0.00014941176 0.0026314277
-0.0065741171 -0.00014941176 0.0022599995
-0.0062952149 -0.00014443137 0.002675999
-0.0052294126 0.001195294 -0.00071142986
-0.0047811759 0.001195294 -0.0012314292
-0.0065741171 -0.00014941176 -0.033768572
-0.0062817903 0.00014616366 -0.032718878
-0.0062752943 0.00014941176 -0.032208569
-0.0063051772 0.00013447058 -0.03428857
-0.0067235292 -0.0011205883 -0.00026571564
-0.0063051758 0.00013447057 -0.036739998
-0.00127 -0.00014941175 -0.033248566
-0.0012797443 0.00014616367 -0.033255029
-0.0040341173 -0.00014941176 -0.03324857
-0.0047811768 -0.0011803528 -0.031138856
0.0052294116 0.001195294 -0.030722857
0.0047811773 0.001195294 -0.030277148
0.0037352939 0.001195294 -0.031168573
0.0022411766 0.001195294 -0.031168573
0.0040341173 0.00014941176 -0.036219999
0.0017555882 0.00056029414 -0.02894
0.0020917647 0.00037352942 -0.02894
0.0029882353 0.00052294118 -0.02894
0.0012700002 0.00014941176 -0.027751427
-0.0037352939 0.00014941176 -0.023739997
-0.0037352943 0.00014941176 -0.022774287
-0.0034364706 -0.00022411764 -0.022774287
-0.0034364706 -0.00022411764 -0.023294285
-0.0037352943 -0.00014941176 -0.023739997
-0.005752353 -0.001195294 -0.030277148
-0.0052409065 0.00075855205 -0.03111143
-0.0057523511 0.00077694131 -0.031138863
-0.0059764707 7.4705888e-05 -0.031614285
-0.0047671688 0.00073772069 -0.031149998
-0.0040341173 -0.00014941176 -0.019282859
-0.0034364706 -0.00022411764 -0.018762857
-0.0034364706 -0.00022411764 -0.018242858
-0.0012700002 0.00014941175 -0.017797142
-0.0062752943 -0.00014941176 -0.018242858
-0.0062867873 0.00012067873 -0.017797146
-0.0062752939 -0.00014941176 -0.017797146
-0.0037352936 0.00014941176 -0.020248573
-0.0037352943 -0.00014941175 -0.02024857
-0.0037352943 0.00014941176 -0.021214288
-0.0062966384 0.00012806724 -0.019728571
-0.0040341173 0.00014941176 -0.017797142
-0.0037352943 0.00014941178 -0.017797142
-0.0040341173 -0.00014941178 -0.017277144
-0.0037352943 0.00014941178 -0.018242855
-0.0040341173 0.00014941176 -0.018242858
-0.0034364706 -0.00022411764 -0.017797142
-0.0037352939 0.00014941176 -0.017277144
-0.0034364706 -0.00022411764 -0.017277144
-0.00029882355 0.001195294 -0.0012314292
-0.00074705883 0.001195294 -0.0017514294
-0.0012700001 0.001195294 -0.030722857
-0.0017929412 0.0011952941 -0.030277148
-0.0017929412 0.001195294 -0.030722857
0.0002241176 0.001195294 -0.031168565
-0.0047811768 0.001195294 -0.030277148
-0.0017929412 0.001195294 -0.029757146
-0.0022367821 0.00074266444 -0.02924588
-0.0027690979 0.00074207847 -0.029247046
0.003287059 0.001195294 -0.029757142
-0.0040341173 0.00014941176 -0.025225714
-0.0062752939 -0.00014941178 -0.026265718
-0.0037352939 0.00014941176 -0.026265711
0.0076200003 0.00034364706 -0.0012760004
0.0037352946 -0.00014941175 -0.0067285718
0.0040341173 0.00014941176 -0.0087342868
0.0040341173 0.00014941176 -0.009254287
0.0037352943 -0.00014941176 -0.0097742872
0.0040341178 -0.00013447058 -0.0098040011
0.0037352943 -0.00014941178 -0.010220001
0.0037352943 -0.00014941175 -0.010740002
0.0040341173 -0.00014941176 -0.0092542861
0.0062752943 0.00014941176 -0.0087342868
0.0062752943 0.00014941176 -0.010220001
0.0065741171 0.00014941176 -0.010220001
0.0062752943 0.00014941176 -0.0097742872
0.0063051758 -0.00013447058 -0.010740001
0.0065741171 0.00014941176 -0.009254287
0.0062752943 0.00014941175 -0.0092542861
0.006574118 -7.4705888e-05 -0.0097742863
-0.0062752943 -0.00014941176 -0.01675714
-0.007171765 -0.0011205882 -0.029757142
-0.0065741171 -0.00014941176 -0.017797142
-0.0065741171 -0.00014941176 -0.019728571
-0.0063051768 0.00013447058 -0.022774287
-0.0067235292 -0.0011205883 -0.029237144
-0.0065741171 -0.00014941176 -0.026711427
-0.0065741171 -0.00014941176 -0.027231429
