# .PCD v0.7 - Point Cloud Data file format
VERSION 0.7
FIELDS x y z
SIZE 4 4 4
TYPE F F F
COUNT 1 1 1
WIDTH 1343
HEIGHT 1
VIEWPOINT 0 0 0 1 0 0 0
POINTS 1343
DATA ascii
0.02305137 0 -0.0045338026
0.0013047946 -0.00127 -0.01062676
0.025660958 0.00095249998 -0.008595774
0.0010148402 0.00127 -0.01062676
0.0027545663 0.0003175 -0.00714507
0.012902968 -0.0003175 -0.011787323
0.0018847032 -0.00095249998 -0.0083056334
-0.0027545663 0.0003175 -0.0030830984
0.0050742007 0 0.0030098592
-0.015512557 -0.00095249998 -0.01062676
0.030010274 -0.000635 -0.0083056334
0.022761416 -0.0003175 -0.0045338026
0.030010274 -0.00095249998 -0.0083056334
0.0018847032 -0.00127 -0.0083056334
-0.015802512 0.0003175 -0.01062676
0.0015947488 0.00095249998 -0.0083056334
0.012902968 -0.0003175 -0.0027929575
-0.0027545663 0.0003175 -0.0036633799
-0.019571917 -0.000635 -0.01062676
0.029720319 0.0003175 -0.0083056334
-0.020151826 -0.0003175 -0.0030830984
0.030590182 0.0003175 -0.0059845066
-0.022761416 0.0003175 0.00097887334
0.025950912 0.00095249998 -0.008595774
-0.015512557 0 0.00097887334
0.023631278 -0.00127 -0.01062676
-0.019571917 -0.00095249998 -0.01062676
-0.020151826 -0.0003175 0.0027197183
0.0039143837 -0.00095249998 -0.0083056334
0.030590182 0 0.0030098592
0.030590182 0.0003175 -0.011497183
0.023631278 0.0003175 -0.01062676
0.021891553 0.000635 -0.008595774
0.012902968 -0.0003175 0.00010845083
-0.019281963 -0.00127 -0.01062676
0.030590182 0.0003175 0.00097887334
0.023631278 0 -0.01062676
0.028270548 0 -0.0025028167
0.027980594 0.0003175 0.0015591549
-0.0027545663 0.0003175 0.0012690142
0.023631278 -0.0003175 -0.01062676
0.0013047946 -0.000635 -0.01062676
0.0073938356 0.0003175 -0.0045338026
0.0018847032 0.00095249998 -0.0083056334
0.030590182 0.0003175 -0.0083056334
-0.019571917 0 -0.01062676
0.023631278 -0.000635 -0.01062676
-0.0053641554 0 -0.0051140841
-0.019571917 -0.0003175 -0.01062676
0.023631278 -0.00095249998 -0.01062676
0.0013047946 -0.00095249998 -0.01062676
0.0073938356 0.0003175 -0.012077464
0.020151826 0.0003175 -0.0045338026
0.030300228 -0.000635 -0.0083056334
0.026240867 0.0003175 -0.01062676
-0.0047842464 0 -0.0051140841
0.029140411 0 -0.0083056334
0.029140411 -0.0003175 -0.0083056334
0.029140411 -0.00095249998 -0.0083056334
0.021891553 -0.00127 -0.008595774
0.028850457 0.00127 -0.0083056334
0.028850457 0.00095249998 -0.0083056334
-0.022761416 0.0003175 -0.0030830984
0.028850457 0.000635 -0.0083056334
0.021601599 0.00127 -0.008595774
-0.019861871 0 -0.01062676
0.028850457 0.0003175 -0.0083056334
0.0015947488 -0.00127 -0.0083056334
-0.012613013 0.0003175 0.0024295775
-0.020151826 -0.0003175 -0.0027929575
0.028850457 -0.0003175 -0.0083056334
-0.019861871 -0.0003175 -0.01062676
0.0010148402 -0.000635 -0.01062676
0.00072488585 0 -0.01062676
0.00072488585 -0.000635 -0.01062676
-0.025371004 0.00127 -0.0097563379
-0.02305137 0 -0.0030830984
0.028850457 -0.00095249998 -0.0083056334
0.026820777 -0.00095249998 -0.008595774
0.021891553 -0.000635 -0.008595774
0.0073938356 0 -0.012077464
0.029720319 -0.000635 -0.0083056334
-0.02044178 0.0003175 0.0027197183
-0.014932648 0 -0.0054042251
-0.025660958 0 -0.011497183
0.012902968 -0.0003175 -0.0030830984
-0.017542237 -0.0003175 -0.01062676
0.0053641554 0 -0.0045338026
-0.02044178 -0.0003175 0.0027197183
0.029430365 0.0003175 -0.0083056334
0.029430365 0 -0.0083056334
0.027110731 0.00127 -0.0083056334
0.029430365 -0.0003175 -0.0083056334
-0.031750001 -0.000635 -0.0022126758
0.029430365 -0.000635 -0.0083056334
-0.030590182 -0.0003175 -0.011207041
-0.030590182 0.0003175 -0.00714507
-0.031750001 -0.0003175 -0.0022126758
0.0015947488 -0.00095249998 -0.0083056334
0.029140411 0.00095249998 -0.0083056334
0.026240867 0.00095249998 -0.008595774
0.020151826 0.0003175 -0.012657746
0.021891553 -0.00095249998 -0.008595774
0.029140411 0.0003175 -0.0083056334
-0.0079737445 0.000635 -0.01062676
0.014062786 0.0003175 -0.01062676
-0.030010274 0.00127 -0.010336619
-0.017542237 0 0.0012690142
0.0073938356 0.0003175 -0.0056943661
0.019861871 0 -0.01062676
0.02044178 -0.0003175 -0.012367605
0.022761416 0 0.0030098592
-0.0079737445 0.0003175 -0.01062676
-0.029720319 -0.00127 -0.010336619
0.012902968 -0.0003175 -0.0062746475
-0.030590182 -0.0003175 0.00068873249
-0.0079737445 0.00095249998 -0.01062676
-0.012902968 0 -0.0033732392
0.02305137 0 0.0015591549
0.0027545663 0.0003175 -0.007435211
-0.0047842464 0 -0.0042436616
0.020151826 -0.00095249998 -0.01062676
0.014062786 0.00095249998 -0.01062676
0.0073938356 0.0003175 -0.0048239431
-0.0044942922 -0.00095249998 -0.0083056334
0.020151826 -0.0003175 0.00068873249
0.027980594 0.0003175 -0.006854929
-0.012033105 0.00095249998 -0.0083056334
0.019571917 0.00127 -0.01062676
-0.014932648 0 -0.010916901
0.019571917 0 -0.01062676
-0.0027545663 0.0003175 -0.011497183
-0.012613013 0.0003175 -0.011497183
-0.030590182 -0.0003175 -0.0059845066
0.01435274 -0.00095249998 -0.01062676
-0.0082636988 0.000635 -0.01062676
0.030590182 0.0003175 -0.012367605
0.027980594 0.0003175 0.00068873249
-0.030300228 0.00127 -0.010336619
-0.025660958 -0.0003175 -0.010916901
-0.012902968 0.00095249998 -0.0083056334
0.013482877 -0.0003175 -0.01062676
0.013482877 0 -0.01062676
0.013482877 0.0003175 -0.01062676
-0.012613013 -0.00095249998 -0.0083056334
0.013482877 0.000635 -0.01062676
-0.0053641554 0 -0.0042436616
-0.0047842464 0 0.0027197183
0.02044178 -0.0003175 -0.006854929
-0.030010274 -0.00127 -0.010336619
0.013772831 -0.00095249998 -0.01062676
-0.012902968 0 -0.011497183
-0.012033105 -0.0003175 -0.01062676
-0.012902968 -0.0003175 -0.010916901
0.012902968 -0.0003175 -0.0054042251
0.013772831 -0.0003175 -0.01062676
-0.012613013 0.00095249998 -0.0083056334
0.013772831 0 -0.01062676
0.0027545663 0.0003175 -0.0030830984
-0.012323059 -0.00095249998 -0.0083056334
-0.030590182 -0.0003175 -0.0062746475
0.013772831 0.0003175 -0.01062676
0.020151826 0.0003175 -0.012367605
0.030590182 0.0003175 -0.0030830984
0.0027545663 0.0003175 -0.0077253515
-0.012323059 0.00095249998 -0.0083056334
0.013772831 0.000635 -0.01062676
-0.02305137 0.0003175 -0.010916901
-0.012033105 -0.00095249998 -0.0083056334
0.030590182 0.0003175 -0.0062746475
-0.0053641554 0 -0.010916901
-0.0073938356 0.0003175 -0.010916901
-0.020151826 -0.0003175 -0.007435211
0.0053641554 -0.0003175 -0.0025028167
0.027980594 0.0003175 0.0024295775
-0.010873288 -0.00095249998 -0.0083056334
-0.011163242 0.00095249998 -0.0083056334
-0.029430365 -0.00127 -0.010336619
-0.012902968 -0.0003175 -0.0077253515
-0.0047842464 0 0.0015591549
0.018702054 0.00095249998 -0.01062676
-0.014932648 0 0.0021394368
-0.029720319 0.00127 -0.010336619
-0.028560502 0.0003175 -0.01062676
-0.011743151 0.00127 -0.01062676
-0.027980594 -0.00127 -0.01062676
-0.017542237 0 -0.0033732392
-0.0053641554 0 -0.0048239431
0.01435274 0.00127 -0.01062676
0.014642694 -0.000635 -0.01062676
-0.012902968 0.0003175 -0.0025028167
-0.010873288 0.00095249998 -0.0083056334
-0.010583334 -0.00095249998 -0.0083056334
-0.012902968 0 -0.0077253515
0.0027545663 -0.0003175 -0.012077464
0.0027545663 0.0003175 -0.011787323
0.010293378 0.0003175 0.0027197183
0.010293378 -0.0003175 0.0027197183
0.0050742007 -0.000635 -0.0025028167
-0.0073938356 -0.0003175 -0.0025028167
0.0027545663 -0.0003175 -0.011787323
0.0027545663 0.0003175 -0.012077464
0.022761416 -0.0003175 0.0015591549
-0.030590182 -0.0003175 0.0018492958
-0.030590182 -0.0003175 0.0015591549
-0.011743151 -0.00095249998 -0.0083056334
-0.0027545663 0.0003175 -0.011787323
-0.0027545663 0.0003175 -0.0042436616
-0.012902968 0.0003175 -0.010916901
0.02305137 -0.0003175 0.0021394368
-0.017542237 0 -0.006854929
-0.0027545663 0.0003175 -0.006854929
-0.011743151 0.00095249998 -0.0083056334
-0.012613013 0.0003175 -0.010916901
-0.0082636988 0.0003175 -0.01062676
0.020151826 0.0003175 0.00068873249
-0.030590182 -0.0003175 -0.0048239431
-0.011453196 -0.00095249998 -0.0083056334
0.012902968 -0.0003175 0.0012690142
-0.011743151 0.000635 -0.01062676
0.018702054 0.00127 -0.01062676
-0.020151826 0.0003175 -0.011787323
-0.027980594 -0.000635 -0.01062676
0.01435274 0 -0.01062676
0.01435274 0.0003175 -0.01062676
0.015512557 0 0.0015591549
-0.011743151 0.00095249998 -0.01062676
-0.0053641554 0 0.0015591549
-0.011453196 0.00095249998 -0.0083056334
-0.011163242 -0.00095249998 -0.0083056334
-0.027980594 -0.00095249998 -0.01062676
-0.0047842464 -0.00095249998 -0.0083056334
-0.0050742007 0.00095249998 -0.0083056334
0.01435274 0.00095249998 -0.01062676
-0.026240867 -0.000635 -0.01062676
-0.020151826 0.0003175 -0.0059845066
-0.0039143837 -0.00095249998 -0.0083056334
0.020151826 -0.00127 -0.0083056334
-0.014062786 -0.00095249998 -0.0083056334
0.015512557 0 -0.0039535207
-0.01435274 0.00095249998 -0.0083056334
-0.026240867 -0.00095249998 -0.01062676
-0.0027545663 0.0003175 -0.0039535207
-0.025371004 0.0003175 0.00068873249
-0.0071038813 -0.0003175 -0.01062676
-0.0071038813 0 -0.01062676
0.017542237 0.0003175 -0.0042436616
-0.02305137 -0.0003175 -0.006854929
0.02044178 -0.00127 -0.0083056334
-0.0053641554 0 0.0021394368
-0.026240867 -0.0003175 -0.01062676
0.012613013 -0.0003175 -0.0048239431
-0.0071038813 -0.000635 -0.01062676
-0.0027545663 0.0003175 -0.0033732392
-0.0071038813 -0.00095249998 -0.01062676
-0.017542237 0 -0.0062746475
-0.012902968 0 0.00039859166
-0.020151826 -0.0003175 -0.0059845066
-0.014062786 0.00095249998 -0.0083056334
0.030590182 0.0003175 -0.011207041
0.030590182 0.0003175 0.00068873249
-0.0073938356 0.00127 -0.01062676
0.02044178 -0.0003175 -0.012077464
-0.013772831 -0.00095249998 -0.0083056334
0.02044178 -0.0003175 0.0012690142
-0.017542237 0 0.0021394368
0.012323059 0.00127 -0.01062676
-0.012613013 0.000635 -0.01062676
0.0024646118 -0.0003175 -0.0033732392
0.011743151 0.0003175 -0.01062676
0.011743151 0.00127 -0.01062676
0.02102169 -0.00127 -0.0083056334
0.012033105 0 -0.01062676
0.012033105 0.000635 -0.01062676
-0.014932648 0 0.0012690142
0.012033105 0.00095249998 -0.01062676
-0.014932648 0.00095249998 -0.0083056334
-0.014642694 -0.00095249998 -0.0083056334
-0.0068139271 0 -0.01062676
0.0079737445 0 -0.0025028167
0.012033105 0.00127 -0.01062676
0.012323059 -0.000635 -0.01062676
0.012902968 -0.0003175 -0.0048239431
0.0027545663 0.0003175 -0.012367605
-0.025950912 -0.00095249998 -0.01062676
-0.022761416 0.0003175 -0.0077253515
-0.0036244292 -0.00127 -0.0083056334
-0.0024646118 0.0003175 0.0024295775
-0.0027545663 0.0003175 -0.0056943661
0.0053641554 0 -0.011787323
-0.0068139271 -0.00127 -0.01062676
0.020731734 -0.00127 -0.0083056334
0.028270548 0 -0.011207041
0.020731734 0 -0.01062676
-0.030590182 -0.0003175 -0.0065647885
-0.014642694 0.00095249998 -0.0083056334
-0.012613013 0.00127 -0.01062676
-0.01435274 -0.00095249998 -0.0083056334
-0.025371004 0.0003175 -0.007435211
-0.012323059 0.00095249998 -0.01062676
-0.013482877 0.00095249998 -0.0083056334
-0.013192922 -0.00095249998 -0.0083056334
0.0073938356 0.0003175 -0.007435211
0.012902968 -0.00095249998 -0.01062676
0.030590182 0.0003175 -0.0027929575
0.0024646118 -0.0003175 -0.0030830984
-0.0053641554 0 0.00097887334
-0.027110731 -0.00127 -0.01062676
-0.014932648 -0.0003175 -0.0025028167
0.030590182 0.0003175 0.0024295775
-0.027400685 0 -0.01062676
0.012902968 0 -0.0039535207
0.0073938356 0.0003175 0.00068873249
0.012902968 -0.000635 -0.01062676
0.0027545663 0.0003175 -0.0056943661
-0.015222603 0.000635 -0.0025028167
-0.0073938356 -0.00127 -0.01062676
-0.013192922 0.00095249998 -0.0083056334
-0.027400685 -0.0003175 -0.01062676
-0.0076837898 0.00095249998 -0.01062676
-0.012902968 -0.00095249998 -0.0083056334
0.015512557 0 -0.0042436616
0.02044178 -0.00095249998 -0.01062676
-0.020151826 -0.0003175 -0.006854929
-0.027400685 -0.00095249998 -0.01062676
0.0027545663 0.0003175 0.0015591549
0.020151826 0.00095249998 -0.01062676
-0.012323059 0.00127 -0.01062676
0.013192922 -0.0003175 -0.01062676
-0.020151826 0.0003175 -0.006854929
0.013192922 0 -0.01062676
-0.015512557 0.0003175 -0.0025028167
-0.025660958 0 0.00068873249
-0.015512557 -0.0003175 -0.0025028167
-0.012323059 -0.000635 -0.01062676
-0.0053641554 0 0.0027197183
-0.015512557 0 0.0012690142
-0.026530821 -0.0003175 -0.01062676
-0.0039143837 -0.00127 -0.0083056334
-0.030590182 -0.0003175 -0.012077464
0.0027545663 -0.0003175 -0.012367605
0.020151826 0.0003175 -0.006854929
-0.020151826 -0.0003175 -0.0077253515
-0.0024646118 -0.0003175 -0.016719718
-0.0053641554 0 -0.0033732392
-0.030590182 -0.0003175 -0.010916901
0.0073938356 0.0003175 -0.0025028167
-0.0047842464 0 -0.010916901
0.012902968 -0.0003175 0.0015591549
-0.026530821 -0.000635 -0.01062676
0.030590182 0.0003175 -0.0065647885
-0.0050742007 -0.0003175 0.0027197183
0.020151826 0.0003175 -0.012077464
-0.027110731 0 -0.01062676
-0.022761416 0.0003175 -0.0059845066
0.0073938356 0.0003175 0.00097887334
-0.013772831 0.00095249998 -0.0083056334
-0.02305137 -0.0003175 0.0024295775
-0.012613013 0.0003175 0.00039859166
-0.013482877 -0.00095249998 -0.0083056334
-0.0073938356 -0.00095249998 -0.01062676
-0.004204338 -0.00095249998 -0.0083056334
-0.004204338 -0.00127 -0.0083056334
0.018122146 -0.00127 -0.01062676
-0.0062340181 0.00095249998 -0.0083056334
-0.0027545663 0 0.0027197183
0.02305137 0 -0.0056943661
-0.022761416 0.0003175 -0.0062746475
0.017832192 0.00127 -0.01062676
-0.0079737445 -0.00095249998 -0.0083056334
-0.0059440639 -0.00095249998 -0.0083056334
-0.011163242 -0.0003175 -0.01062676
0.02044178 -0.0003175 -0.0062746475
0.022761416 -0.0003175 -0.0056943661
0.014062786 -0.00127 -0.0083056334
0.030590182 0.0003175 -0.0036633799
0.022761416 -0.0003175 -0.0062746475
-0.020151826 0.0003175 -0.0062746475
-0.0082636988 0.00095249998 -0.0083056334
-0.0053641554 0 -0.0077253515
0.022761416 -0.0003175 0.0012690142
0.0027545663 0.0003175 -0.0054042251
0.022761416 -0.0003175 0.00068873249
-0.011163242 0 -0.01062676
0.016672375 -0.0003175 -0.01062676
0.016672375 0.000635 -0.01062676
-0.010873288 -0.00127 -0.01062676
0.02305137 0 0.0012690142
-0.0079737445 0.00095249998 -0.0083056334
-0.0062340181 -0.00095249998 -0.0083056334
0.016672375 0.00095249998 -0.01062676
0.016672375 0.00127 -0.01062676
-0.0076837898 -0.00095249998 -0.0083056334
0.013482877 -0.00127 -0.0083056334
-0.0065239724 0.00095249998 -0.0083056334
-0.010583334 0.0003175 -0.01062676
-0.030300228 0 -0.0033732392
0.030590182 0.0003175 -0.0056943661
-0.00971347 0.00127 -0.01062676
-0.00971347 0.00095249998 -0.01062676
0.014642694 -0.00127 -0.0083056334
-0.029140411 -0.00127 -0.010336619
-0.0053641554 0 0.00039859166
-0.008553653 0.00095249998 -0.0083056334
-0.00971347 0.0003175 -0.01062676
-0.025371004 0.0003175 -0.0062746475
0.0053641554 0.0003175 -0.0054042251
-0.0082636988 -0.00095249998 -0.0083056334
-0.0027545663 0.0003175 -0.012367605
0.017542237 0 -0.0036633799
0.0027545663 0.0003175 -0.0039535207
0.02305137 0 0.00068873249
-0.0047842464 0 -0.0077253515
0.01638242 -0.0003175 -0.01062676
0.012902968 -0.0003175 -0.010916901
0.02044178 -0.0003175 -0.0056943661
0.01435274 -0.00127 -0.0083056334
-0.030590182 -0.0003175 -0.011497183
-0.030590182 -0.0003175 -0.0033732392
0.02305137 0 -0.0062746475
-0.010003424 0.000635 -0.01062676
-0.0047842464 0 -0.0048239431
0.01638242 0 -0.01062676
-0.011163242 -0.00127 -0.01062676
0.015512557 0 -0.010916901
0.018122146 -0.000635 -0.01062676
0.02305137 0 0.00039859166
0.025660958 0 -0.012367605
0.017832192 -0.00127 -0.01062676
-0.0068139271 -0.00095249998 -0.0083056334
0.025660958 0 -0.0036633799
0.017252283 0.0003175 -0.01062676
0.012613013 -0.00127 -0.0083056334
-0.010873288 0.000635 -0.01062676
0.017252283 0.000635 -0.01062676
0.022761416 -0.0003175 0.0027197183
0.017252283 0.00095249998 -0.01062676
-0.0027545663 0.0003175 0.00097887334
0.017542237 -0.000635 -0.01062676
0.015512557 0 -0.012077464
0.0076837898 0.0003175 0.0027197183
0.02305137 -0.0003175 -0.010916901
0.0027545663 -0.000635 -0.0025028167
0.017542237 0.0003175 -0.0062746475
0.017252283 0 -0.01062676
0.02305137 0.0003175 -0.010916901
-0.029140411 0.00127 -0.010336619
0.02044178 0.0003175 0.00039859166
-0.0065239724 -0.00095249998 -0.0083056334
0.017542237 0.00127 -0.01062676
-0.022761416 0.0003175 0.0012690142
-0.030590182 -0.0003175 0.0024295775
0.02305137 0 -0.0036633799
0.027980594 0.0003175 0.0027197183
0.030590182 0.0003175 -0.0051140841
-0.0027545663 0.0003175 -0.0048239431
-0.0027545663 0.0003175 0.00039859166
0.02305137 0 -0.012367605
0.02305137 0 -0.0030830984
0.022761416 -0.0003175 -0.0036633799
-0.0073938356 0.00095249998 -0.0083056334
-0.0050742007 0 0.0030098592
0.02044178 -0.0003175 -0.0036633799
0.013192922 -0.00127 -0.0083056334
-0.0024646118 0.0003175 -0.0077253515
0.016962329 -0.0003175 -0.01062676
-0.0076837898 0.00095249998 -0.0083056334
0.016962329 0.0003175 -0.01062676
-0.0053641554 0 -0.006854929
0.0053641554 0 -0.0042436616
0.022761416 -0.0003175 -0.0030830984
-0.0073938356 -0.00095249998 -0.0083056334
-0.020151826 -0.0003175 -0.0062746475
0.028270548 0 -0.010916901
0.022761416 -0.0003175 -0.012367605
0.02305137 0 -0.006854929
-0.0059440639 0.00095249998 -0.0083056334
0.02305137 0.0003175 0.0024295775
0.016962329 0.000635 -0.01062676
-0.0071038813 -0.00095249998 -0.0083056334
0.016962329 0.00095249998 -0.01062676
0.016962329 0.00127 -0.01062676
0.02305137 -0.0003175 0.0024295775
-0.010003424 0 -0.016719718
0.020151826 -0.0003175 0.00039859166
0.012902968 -0.00127 -0.0083056334
-0.022761416 0.0003175 0.0018492958
0.0073938356 0 0.0027197183
-0.0027545663 0.0003175 -0.0077253515
0.0073938356 0.0003175 -0.0042436616
0.022761416 -0.0003175 0.0024295775
-0.0071038813 0.00095249998 -0.0083056334
0.0027545663 0.0003175 -0.0048239431
0.0027545663 0.0003175 -0.010916901
0.0047842464 0.0003175 -0.0025028167
0.014932648 0.00127 -0.01062676
-0.010003424 0.00095249998 -0.0083056334
0.0027545663 -0.0003175 -0.0048239431
0.017832192 0 0.0030098592
-0.0091335615 0 -0.01062676
0.02044178 0.0003175 0.00068873249
0.015222603 -0.00127 -0.01062676
0.02305137 0 0.00097887334
-0.0027545663 0.0003175 -0.007435211
-0.0047842464 0 -0.011497183
-0.015512557 0 0.0015591549
0.014932648 -0.0003175 -0.01062676
0.0024646118 -0.0003175 -0.010916901
0.014932648 -0.000635 -0.01062676
-0.014932648 0 -0.006854929
0.0073938356 0.0003175 -0.0039535207
-0.00971347 -0.00095249998 -0.0083056334
0.015222603 -0.000635 -0.01062676
0.01638242 -0.00127 -0.0083056334
-0.0024646118 0.0003175 -0.0027929575
0.0047842464 -0.0003175 -0.0025028167
0.0073938356 0.0003175 -0.0030830984
0.027980594 0.0003175 0.0012690142
0.02305137 0 -0.0051140841
0.0047842464 0 -0.010916901
-0.029140411 0 -0.01062676
0.015512557 0 -0.0056943661
0.0053641554 0 -0.010916901
-0.00971347 0.00095249998 -0.0083056334
-0.0053641554 0 -0.011497183
0.012902968 0 -0.0056943661
-0.010583334 0.00095249998 -0.0083056334
0.016962329 -0.00127 -0.0083056334
-0.020151826 -0.0003175 -0.0033732392
-0.008553653 0.0003175 -0.01062676
-0.0053641554 0 -0.012367605
-0.0027545663 0.0003175 -0.010916901
0.018702054 0.0003175 -0.01062676
0.014642694 0 -0.01062676
0.022761416 -0.0003175 0.0021394368
-0.010293378 -0.00095249998 -0.0083056334
0.018702054 0 -0.01062676
0.022761416 -0.0003175 0.00097887334
-0.0050742007 -0.00095249998 -0.0083056334
-0.0053641554 0.00095249998 -0.0083056334
0.018702054 -0.0003175 -0.01062676
0.0053641554 0.0003175 -0.010916901
0.016672375 -0.00127 -0.0083056334
0.027980594 0.0003175 0.00039859166
-0.012323059 0 -0.0025028167
0.027980594 0.0003175 -0.0030830984
0.018702054 -0.000635 -0.01062676
-0.010293378 0.00095249998 -0.0083056334
-0.010003424 -0.00095249998 -0.0083056334
-0.022761416 0.0003175 -0.0033732392
0.0184121 0.00127 -0.01062676
0.014642694 0.0003175 -0.01062676
0.0018847032 0.0003175 -0.0025028167
-0.0053641554 -0.00095249998 -0.0083056334
0.014642694 0.000635 -0.01062676
0.022761416 -0.0003175 -0.0051140841
-0.0056541096 0.00095249998 -0.0083056334
-0.012613013 0.0003175 -0.006854929
-0.0047842464 0 -0.007435211
-0.0056541096 -0.00095249998 -0.0083056334
-0.0091335615 0.00095249998 -0.0083056334
0.015802512 -0.00127 -0.01062676
0.027980594 0.0003175 -0.0027929575
0.015802512 -0.000635 -0.01062676
0.015802512 -0.0003175 -0.01062676
0.015222603 -0.00127 -0.0083056334
-0.0088436073 -0.00095249998 -0.0083056334
0.015802512 0 -0.01062676
0.018122146 0.00127 -0.01062676
0.018122146 0.00095249998 -0.01062676
0.018122146 0.000635 -0.01062676
0.0021746575 -0.0003175 -0.0025028167
0.022761416 -0.0003175 -0.006854929
-0.030880136 0 -0.01062676
-0.0053641554 0 -0.007435211
0.015512557 0 -0.0062746475
-0.012902968 0 0.0015591549
-0.031460047 -0.00095249998 -0.01062676
0.014932648 -0.00127 -0.0083056334
-0.029430365 0.00127 -0.010336619
-0.0088436073 0.00095249998 -0.0083056334
-0.011453196 0 -0.01062676
0.02044178 0.0003175 0.0015591549
0.016092466 -0.000635 -0.01062676
-0.008553653 -0.00095249998 -0.0083056334
0.0027545663 0.0003175 -0.0042436616
-0.0027545663 0.0003175 -0.0027929575
0.018122146 -0.0003175 -0.01062676
0.030590182 0.0003175 -0.010916901
0.012902968 -0.0003175 -0.0042436616
-0.030590182 -0.0003175 -0.0054042251
-0.0094235158 -0.00095249998 -0.0083056334
-0.020151826 0.0003175 0.0012690142
-0.029430365 -0.00095249998 -0.01062676
0.0047842464 0 -0.0030830984
0.0073938356 0 -0.010916901
0.030590182 0.0003175 -0.011787323
0.0073938356 0.0003175 -0.010916901
0.016092466 -0.00127 -0.0083056334
-0.030010274 0 -0.01062676
-0.0094235158 0 -0.01062676
-0.0094235158 -0.0003175 -0.01062676
-0.0094235158 0.00095249998 -0.0083056334
0.015222603 0.00127 -0.01062676
-0.012902968 0 -0.006854929
-0.0065239724 -0.00095249998 -0.01062676
-0.0091335615 -0.00095249998 -0.0083056334
0.0184121 0.00095249998 -0.01062676
0.015512557 -0.00127 -0.01062676
0.015512557 -0.000635 -0.01062676
0.015802512 -0.00127 -0.0083056334
0.0073938356 0.0003175 -0.0054042251
0.0184121 0.000635 -0.01062676
0.0073938356 0.0003175 0.0021394368
-0.012902968 -0.0003175 -0.0027929575
0.0053641554 0 0.00097887334
-0.012902968 0.0003175 -0.0027929575
-0.030010274 -0.0003175 -0.01062676
0.0184121 0.0003175 -0.01062676
0.0184121 0 -0.01062676
-0.030590182 -0.0003175 -0.01062676
-0.023631278 -0.000635 -0.01062676
-0.031750001 -0.0003175 -0.010046478
0.0091335615 -0.00127 -0.01062676
0.0053641554 0.0003175 -0.0051140841
-0.02305137 0.0003175 -0.0083056334
0.030590182 -0.0003175 -0.0080154929
-0.031750001 -0.000635 -0.010046478
-0.020151826 0.0003175 0.0024295775
-0.030590182 -0.0003175 0.00039859166
-0.013772831 -0.00095249998 -0.01062676
-0.023631278 -0.0003175 -0.01062676
-0.012902968 0 -0.0062746475
-0.023341324 -0.00127 -0.01062676
-0.02305137 -0.00095249998 -0.0083056334
-0.02305137 -0.00127 -0.0083056334
-0.0053641554 0 -0.0059845066
-0.017542237 0 -0.0042436616
-0.023341324 0.0003175 -0.0083056334
-0.022761416 -0.00127 -0.0083056334
-0.022761416 -0.00095249998 -0.0083056334
0.0053641554 0.0003175 -0.011207041
-0.0015947488 -0.00095249998 -0.0083056334
-0.0053641554 0 0.0024295775
-0.022471461 -0.00127 -0.0083056334
0.023921233 -0.00095249998 -0.0083056334
-0.0015947488 -0.00127 -0.0083056334
0.022761416 -0.0003175 -0.0054042251
-0.022471461 -0.00095249998 -0.0083056334
-0.027980594 -0.0003175 0.00039859166
-0.025660958 0 -0.0027929575
0.023921233 -0.00127 -0.0083056334
0.0053641554 0.0003175 -0.012367605
-0.0044942922 0.000635 -0.01062676
0.028270548 0 -0.00714507
0.022761416 -0.0003175 -0.012077464
-0.0039143837 0 -0.01062676
-0.00043493151 0 -0.0025028167
-0.0013047946 -0.00095249998 -0.0083056334
0.0053641554 0 -0.011497183
-0.0013047946 -0.00127 -0.0083056334
0.023921233 0.00127 -0.0083056334
0.015512557 0 -0.0033732392
-0.023921233 0.00095249998 -0.0083056334
-0.023631278 -0.00127 -0.0083056334
-0.023631278 -0.00095249998 -0.0083056334
-0.0039143837 -0.0003175 -0.01062676
0.022471461 -0.0003175 -0.01062676
-0.025371004 0.0003175 -0.0027929575
0.023921233 0.00095249998 -0.0083056334
-0.014932648 0 -0.0056943661
-0.017542237 0 -0.0056943661
-0.023341324 -0.0003175 -0.01062676
-0.020151826 -0.0003175 -0.0054042251
-0.023341324 -0.00127 -0.0083056334
-0.023341324 -0.00095249998 -0.0083056334
0.0073938356 0.0003175 0.0012690142
-0.0047842464 0 -0.0059845066
-0.0024646118 0.0003175 0.0021394368
0.02305137 0 -0.0054042251
0.023921233 0.000635 -0.0083056334
-0.014062786 0.000635 -0.01062676
-0.004204338 0 -0.01062676
0.0027545663 0.0003175 -0.011207041
0.030300228 -0.0003175 -0.0080154929
-0.004204338 -0.0003175 -0.01062676
-0.020151826 0.0003175 0.00068873249
0.022181507 0.000635 -0.01062676
-0.021311644 -0.00095249998 -0.0083056334
-0.021311644 -0.00127 -0.0083056334
0.022761416 -0.0003175 -0.0048239431
-0.013772831 -0.0003175 -0.01062676
0.0076837898 0 0.0030098592
-0.030590182 -0.0003175 0.00097887334
-0.024211187 0 -0.01062676
-0.022761416 0.0003175 -0.0065647885
-0.030590182 -0.00127 -0.010046478
-0.020151826 0.0003175 0.0021394368
-0.025660958 0 0.00039859166
-0.030880136 0.00095249998 -0.010046478
-0.013772831 -0.000635 -0.01062676
-0.021601599 -0.00095249998 -0.0083056334
-0.021601599 -0.00127 -0.0083056334
0.027980594 0.0003175 -0.0042436616
-0.025371004 0.0003175 0.00039859166
0.012323059 0 -0.0025028167
-0.013772831 0 -0.01062676
-0.012902968 -0.0003175 -0.0056943661
-0.024211187 -0.0003175 -0.01062676
0.0091335615 0.000635 -0.01062676
-0.012902968 0 -0.0056943661
-0.013772831 0.0003175 -0.01062676
-0.02102169 -0.00127 -0.0083056334
-0.02102169 -0.00095249998 -0.0083056334
0.023341324 -0.00127 -0.0083056334
0.021891553 0.00127 -0.01062676
-0.013482877 -0.00127 -0.01062676
-0.0047842464 -0.000635 -0.01062676
-0.0050742007 0.00095249998 -0.01062676
0.023631278 -0.00127 -0.0083056334
0.022471461 -0.000635 -0.01062676
0.0073938356 0.0003175 -0.0051140841
0.030590182 0.0003175 -0.0039535207
-0.031460047 0.00095249998 -0.010046478
-0.031170091 -0.00127 -0.010046478
-0.031170091 -0.00127 -0.010336619
-0.022181507 -0.00127 -0.0083056334
0.0071038813 -0.00127 -0.0083056334
-0.022181507 -0.00095249998 -0.0083056334
-0.020151826 -0.0003175 -0.012367605
-0.020151826 0.0003175 -0.012367605
0.0071038813 -0.00095249998 -0.0083056334
0.022181507 0.00127 -0.01062676
-0.023921233 0 -0.01062676
0.017542237 0.0003175 0.00068873249
-0.02044178 0.000635 -0.0025028167
0.0073938356 0.0003175 -0.011207041
-0.031170091 0.00095249998 -0.010046478
-0.023921233 -0.0003175 -0.01062676
0.0091335615 -0.000635 -0.01062676
-0.021891553 -0.00127 -0.0083056334
-0.021891553 -0.00095249998 -0.0083056334
0.0091335615 -0.0003175 -0.01062676
-0.023921233 -0.000635 -0.01062676
-0.030880136 -0.00127 -0.010046478
0.012902968 -0.0003175 -0.0025028167
-0.0044942922 -0.00095249998 -0.01062676
0.02305137 0 -0.0048239431
0.022181507 0.00095249998 -0.01062676
-0.0018847032 -0.00095249998 -0.0083056334
-0.0018847032 -0.00127 -0.0083056334
-0.0068139271 0.00095249998 -0.0083056334
-0.014062786 -0.00127 -0.01062676
-0.01435274 0.000635 -0.01062676
-0.0027545663 0.0003175 -0.012077464
0.025660958 0 -0.00714507
-0.0010148402 -0.00095249998 -0.0083056334
-0.0033344747 0.000635 -0.01062676
0.0082636988 0.00127 -0.01062676
0.0027545663 -0.0003175 0.00097887334
-0.0010148402 -0.00127 -0.0083056334
0.022471461 0.00127 -0.01062676
-0.026530821 0.0003175 -0.0083056334
-0.0053641554 0 0.0012690142
-0.0027545663 0.0003175 -0.011207041
-0.030590182 -0.0003175 -0.0045338026
0.0082636988 0.000635 -0.01062676
0.022761416 -0.00127 -0.01062676
-0.026530821 -0.000635 -0.0083056334
-0.025950912 0.00095249998 -0.0083056334
-0.020151826 -0.0003175 -0.0065647885
0.02305137 0 -0.011787323
-0.025660958 -0.00127 -0.0083056334
-0.014062786 -0.00095249998 -0.01062676
-0.025660958 -0.0003175 -0.0083056334
-0.0033344747 0.0003175 -0.01062676
0.030590182 0.0003175 0.0012690142
0.015512557 0.0003175 -0.0025028167
0.0053641554 0 -0.0062746475
0.015512557 -0.0003175 -0.0025028167
-0.025371004 0.0003175 0.0015591549
0.008553653 -0.00095249998 -0.01062676
-0.027980594 -0.0003175 0.00097887334
-0.0033344747 0 -0.01062676
-0.027110731 0 -0.0083056334
0.030300228 0.00095249998 -0.01062676
-0.027400685 0 -0.0083056334
-0.020151826 -0.0003175 -0.0042436616
0.024501141 0.00127 -0.0083056334
-0.0053641554 0 -0.0027929575
-0.027400685 0.000635 -0.0083056334
0.02508105 0 0.00010845083
-0.027110731 -0.00095249998 -0.0083056334
0.030590182 -0.0003175 -0.01062676
-0.017542237 0 0.00068873249
0.0027545663 0.0003175 -0.0051140841
-0.027110731 -0.000635 -0.0083056334
0.030590182 0.0003175 -0.01062676
-0.02305137 0.000635 -0.01062676
-0.02305137 -0.0003175 -0.012077464
-0.022761416 0.0003175 -0.012077464
-0.017542237 0 -0.011497183
0.030590182 0.000635 -0.01062676
-0.020151826 0.0003175 -0.0042436616
0.024501141 0.00095249998 -0.0083056334
-0.027110731 0.00095249998 -0.0083056334
-0.026820777 -0.000635 -0.0083056334
0.024501141 0.000635 -0.0083056334
-0.020151826 0.0003175 -0.0056943661
0.030880136 0 -0.01062676
0.017542237 0 -0.0033732392
-0.012902968 0 -0.0048239431
-0.020151826 0.0003175 -0.0065647885
-0.026820777 0.0003175 -0.0083056334
-0.026820777 0.00095249998 -0.0083056334
-0.0027545663 0.0003175 -0.0059845066
0.0068139271 -0.00127 -0.0083056334
-0.024791095 0.00095249998 -0.0083056334
-0.024501141 -0.00127 -0.0083056334
0.024211187 0.000635 -0.0083056334
0.020151826 0.0003175 -0.007435211
-0.020151826 0.0003175 -0.0054042251
-0.024501141 -0.00095249998 -0.0083056334
-0.024501141 -0.000635 -0.0083056334
-0.0036244292 0.0003175 -0.01062676
0.0068139271 -0.00095249998 -0.0083056334
0.0088436073 -0.00127 -0.01062676
-0.024501141 0.00095249998 -0.0083056334
-0.024211187 -0.00127 -0.0083056334
-0.0036244292 -0.0003175 -0.01062676
0.02305137 0 -0.0065647885
0.024211187 0.00095249998 -0.0083056334
-0.024211187 -0.00095249998 -0.0083056334
-0.024211187 -0.000635 -0.0083056334
0.0088436073 -0.00095249998 -0.01062676
-0.027980594 0 0.0030098592
-0.023341324 0.00095249998 -0.01062676
-0.024211187 0.00095249998 -0.0083056334
-0.022761416 0.0003175 -0.012367605
-0.00043493151 -0.00127 -0.0025028167
0.022761416 -0.0003175 -0.0027929575
-0.023921233 -0.00127 -0.0083056334
-0.030590182 -0.0003175 -0.0036633799
0.024211187 -0.00095249998 -0.0083056334
-0.023921233 -0.00095249998 -0.0083056334
-0.023341324 0.0003175 -0.01062676
-0.023921233 -0.000635 -0.0083056334
-0.02508105 -0.0003175 -0.0083056334
0.008553653 -0.000635 -0.01062676
-0.025660958 0.00127 -0.0083056334
-0.025371004 -0.00127 -0.0083056334
-0.025371004 -0.0003175 -0.0083056334
0.027980594 0.0003175 0.00097887334
0.008553653 -0.0003175 -0.01062676
-0.0033344747 -0.0003175 -0.01062676
0.030590182 0.0003175 -0.0048239431
-0.025371004 0.0003175 -0.0083056334
-0.025371004 0.00095249998 -0.0083056334
-0.025371004 0.00127 -0.0083056334
0.022471461 0.000635 -0.01062676
0.030590182 0.0003175 -0.0042436616
-0.02508105 -0.00127 -0.0083056334
-0.02508105 -0.00095249998 -0.0083056334
0.021891553 0.00095249998 -0.01062676
0.022471461 0.0003175 -0.01062676
0.022761416 -0.0003175 -0.0065647885
0.022471461 0 -0.01062676
0.014932648 0 -0.0025028167
-0.02508105 0.0003175 -0.0083056334
-0.02508105 0.00095249998 -0.0083056334
0.024501141 -0.00095249998 -0.0083056334
-0.024791095 -0.00127 -0.0083056334
-0.024791095 -0.00095249998 -0.0083056334
0.008553653 0.0003175 -0.01062676
0.017832192 0.0003175 0.0015591549
0.02305137 0 -0.012077464
0.024211187 0.00127 -0.0083056334
0.030590182 0.0003175 0.00010845083
-0.0047842464 0 -0.0039535207
0.012902968 -0.0003175 0.0027197183
-0.016092466 -0.00095249998 -0.0083056334
-0.0056541096 -0.0003175 -0.01062676
-0.012902968 0.00095249998 -0.01062676
0.02102169 0.00095249998 -0.01062676
-0.030590182 -0.00127 -0.010336619
-0.017832192 0.000635 -0.0025028167
-0.012902968 0 -0.0059845066
-0.0056541096 -0.000635 -0.01062676
0.012902968 0.0003175 0.0027197183
-0.025371004 0.0003175 -0.0048239431
-0.0030445205 -0.00127 -0.0083056334
0.02044178 -0.0003175 -0.0042436616
-0.012613013 0.0003175 -0.0042436616
-0.01638242 -0.00095249998 -0.0083056334
0.022761416 -0.0003175 -0.0039535207
-0.01638242 -0.00127 -0.0083056334
0.02044178 -0.0003175 -0.0039535207
0.010583334 0.00127 -0.01062676
-0.015222603 0 0.0030098592
0.012902968 0 -0.007435211
0.010873288 -0.00095249998 -0.01062676
-0.012902968 0.00127 -0.01062676
-0.022761416 0.0003175 0.00068873249
0.012902968 -0.0003175 -0.0051140841
-0.014932648 0 -0.0059845066
-0.022761416 0.0003175 0.0015591549
-0.016092466 0.00095249998 -0.0083056334
-0.0059440639 0 -0.01062676
-0.015512557 0 0.00039859166
-0.015802512 -0.00095249998 -0.0083056334
0.010873288 0.00095249998 -0.01062676
0.021311644 0.000635 -0.01062676
-0.013192922 0.000635 -0.01062676
0.010583334 -0.000635 -0.01062676
-0.016962329 -0.00127 -0.0083056334
0.0073938356 0.0003175 -0.011787323
0.0024646118 -0.0003175 0.00039859166
-0.016962329 -0.00095249998 -0.0083056334
-0.0027545663 -0.00095249998 -0.0083056334
-0.029140411 0.00127 -0.010046478
0.0027545663 0.0003175 -0.011497183
0.0053641554 0 0.00068873249
-0.015512557 0 -0.011497183
0.0027545663 0.0003175 -0.006854929
-0.012902968 -0.000635 -0.01062676
-0.016672375 -0.00127 -0.0083056334
-0.02508105 0 -0.01062676
-0.015512557 0 -0.0027929575
-0.016672375 -0.00095249998 -0.0083056334
-0.0027545663 -0.00127 -0.0083056334
0.02305137 0 -0.0039535207
0.0027545663 -0.0003175 -0.011497183
0.021311644 -0.0003175 -0.01062676
0.0053641554 0 0.0027197183
0.0027545663 -0.0003175 -0.006854929
0.025660958 0 -0.0027929575
-0.022761416 0.0003175 -0.011787323
0.021891553 -0.00127 -0.0083056334
0.0073938356 0.0003175 -0.0033732392
0.012613013 -0.0003175 -0.0051140841
-0.012902968 -0.0003175 -0.012367605
-0.012902968 0 -0.012367605
-0.0030445205 -0.00095249998 -0.0083056334
-0.025950912 0 -0.01062676
0.02305137 -0.0003175 -0.011207041
0.0047842464 0 -0.0033732392
-0.0024646118 0 0.0030098592
0.020151826 -0.0003175 0.0012690142
0.011453196 -0.00095249998 -0.01062676
0.02102169 -0.000635 -0.01062676
-0.015512557 0.00095249998 -0.0083056334
0.0027545663 0.0003175 -0.0033732392
0.011453196 0 -0.01062676
-0.0065239724 0 -0.01062676
-0.015222603 -0.00095249998 -0.0083056334
-0.0053641554 0 -0.0056943661
0.012613013 -0.0003175 0.0027197183
0.020731734 0.00127 -0.01062676
0.011453196 0.0003175 -0.01062676
-0.030590182 -0.0003175 -0.0027929575
-0.025950912 -0.0003175 -0.01062676
-0.025950912 -0.000635 -0.01062676
-0.025660958 0 -0.007435211
0.020731734 0.00095249998 -0.01062676
-0.015222603 0.00095249998 -0.0083056334
-0.0065239724 -0.0003175 -0.01062676
-0.02305137 -0.0003175 -0.0077253515
0.0027545663 0.0003175 0.0012690142
-0.014932648 -0.00095249998 -0.0083056334
-0.02305137 0 -0.0077253515
0.015512557 0 -0.0051140841
-0.0047842464 0 -0.0056943661
-0.0036244292 -0.00095249998 -0.0083056334
-0.017542237 0 -0.0059845066
0.011743151 -0.000635 -0.01062676
0.015512557 0 -0.0048239431
0.021601599 -0.00127 -0.0083056334
-0.012613013 -0.00127 -0.01062676
-0.025660958 0 -0.0077253515
-0.012613013 -0.00095249998 -0.01062676
-0.012613013 -0.000635 -0.01062676
0.00014497717 -0.0003175 -0.016719718
0.020151826 0.0003175 -0.0042436616
0.011163242 -0.00127 -0.01062676
-0.0059440639 -0.0003175 -0.01062676
-0.0059440639 -0.000635 -0.01062676
0.011163242 -0.00095249998 -0.01062676
-0.025371004 0.0003175 -0.0077253515
-0.030590182 0.00127 -0.010336619
0.021311644 -0.00127 -0.0083056334
0.0027545663 -0.0003175 0.0012690142
0.024501141 0.00127 -0.01062676
-0.015222603 0.0003175 0.00039859166
0.02102169 0 -0.01062676
0.02044178 0.0003175 0.00097887334
-0.030300228 -0.00127 -0.010336619
-0.0033344747 -0.00095249998 -0.0083056334
-0.0033344747 -0.00127 -0.0083056334
-0.0062340181 0 -0.01062676
-0.015802512 0.00095249998 -0.0083056334
-0.015512557 -0.00095249998 -0.0083056334
0.02102169 -0.0003175 -0.01062676
-0.025371004 0.0003175 0.0012690142
0.022761416 -0.0003175 -0.011207041
-0.0062340181 -0.0003175 -0.01062676
-0.0062340181 -0.000635 -0.01062676
0.015512557 0 -0.0054042251
0.015222603 -0.0003175 0.00039859166
0.021601599 0.0003175 -0.01062676
0.00971347 0.0003175 -0.01062676
0.0027545663 0.0003175 0.00039859166
-0.019281963 -0.00127 -0.0083056334
-0.013482877 -0.000635 -0.01062676
-0.030300228 0.00127 -0.010046478
0.020151826 0.0003175 -0.0048239431
-0.012902968 0 0.0012690142
-0.030010274 -0.00127 -0.010046478
-0.019571917 -0.00095249998 -0.0083056334
0.00971347 -0.0003175 -0.01062676
-0.019571917 -0.00127 -0.0083056334
0.0073938356 -0.00095249998 -0.0083056334
0.012902968 -0.0003175 -0.011207041
-0.0053641554 0 -0.011787323
-0.027980594 0.0003175 0.0027197183
0.021601599 0.000635 -0.01062676
-0.030590182 -0.0003175 -0.0025028167
-0.019281963 -0.00095249998 -0.0083056334
0.00971347 0.000635 -0.01062676
0.00971347 0.00095249998 -0.01062676
0.021601599 -0.00095249998 -0.01062676
-0.030590182 0.0003175 -0.0077253515
0.0047842464 0 0.0027197183
-0.0027545663 0.0003175 -0.0054042251
-0.013482877 0.0003175 -0.01062676
-0.013482877 0.000635 -0.01062676
-0.018992009 -0.00127 -0.0083056334
0.00971347 0.00127 -0.01062676
-0.018992009 -0.00095249998 -0.0083056334
0.025660958 0 -0.0039535207
0.02305137 -0.00127 -0.0083056334
-0.02305137 0.0003175 0.00039859166
-0.0021746575 -0.00095249998 -0.0083056334
-0.030590182 0.00127 -0.010046478
-0.030300228 -0.00127 -0.010046478
-0.020731734 -0.00127 -0.0083056334
-0.020731734 -0.00095249998 -0.0083056334
0.021601599 0.00127 -0.01062676
-0.024211187 -0.000635 -0.01062676
0.017542237 0 0.0015591549
0.0094235158 -0.00127 -0.01062676
0.0094235158 -0.000635 -0.01062676
-0.02044178 -0.00127 -0.0083056334
0.0094235158 -0.0003175 -0.01062676
-0.02044178 -0.00095249998 -0.0083056334
0.012613013 -0.0003175 -0.011207041
-0.0021746575 -0.00127 -0.0083056334
0.010003424 -0.00095249998 -0.01062676
0.02044178 0.0003175 0.0021394368
-0.013482877 -0.00095249998 -0.01062676
0.0094235158 0 -0.01062676
-0.022761416 -0.0003175 0.00039859166
0.0073938356 -0.00127 -0.0083056334
0.0073938356 0.0003175 -0.0062746475
-0.017542237 0 -0.012367605
-0.020151826 -0.00127 -0.0083056334
-0.020151826 -0.00095249998 -0.0083056334
0.0094235158 0.0003175 -0.01062676
0.0094235158 0.000635 -0.01062676
0.0094235158 0.00095249998 -0.01062676
-0.0073938356 0 0.0027197183
-0.019861871 -0.00127 -0.0083056334
-0.019861871 -0.00095249998 -0.0083056334
-0.0053641554 0 -0.0039535207
-0.012902968 0 -0.0042436616
0.0027545663 -0.0003175 0.00039859166
-0.029430365 -0.00127 -0.010046478
0.0024646118 0.0003175 -0.016719718
0.02305137 0 -0.0042436616
-0.0024646118 -0.00127 -0.0083056334
-0.024501141 -0.000635 -0.01062676
0.020151826 -0.0003175 0.00097887334
0.021311644 0.00095249998 -0.01062676
-0.017542237 -0.00127 -0.0083056334
-0.017542237 -0.00095249998 -0.0083056334
-0.022761416 0.0003175 -0.0054042251
0.0076837898 -0.00095249998 -0.0083056334
0.015512557 0 0.00039859166
-0.0053641554 -0.000635 -0.01062676
-0.017832192 -0.00095249998 -0.0083056334
-0.0053641554 -0.00127 -0.01062676
0.025660958 0 -0.011787323
0.022471461 -0.00127 -0.0083056334
-0.0056541096 0.0003175 -0.01062676
-0.029430365 0.00127 -0.010046478
-0.029140411 -0.00127 -0.010046478
-0.017252283 -0.00127 -0.0083056334
-0.017252283 -0.00095249998 -0.0083056334
-0.017542237 0 0.00039859166
-0.024791095 -0.0003175 -0.01062676
0.022761416 -0.0003175 -0.0042436616
-0.030880136 -0.00127 -0.010336619
-0.024791095 -0.000635 -0.01062676
-0.030590182 0.0003175 -0.006854929
-0.012613013 0.0003175 -0.0059845066
-0.0050742007 -0.00095249998 -0.01062676
0.010003424 -0.000635 -0.01062676
-0.014932648 0 -0.0042436616
-0.013192922 -0.00095249998 -0.01062676
-0.024501141 -0.0003175 -0.01062676
-0.030010274 0.00127 -0.010046478
-0.029720319 -0.00127 -0.010046478
-0.013192922 -0.000635 -0.01062676
-0.013192922 -0.0003175 -0.01062676
-0.020151826 0.0003175 0.00039859166
-0.018702054 -0.00127 -0.0083056334
0.015512557 0 -0.007435211
-0.018702054 -0.00095249998 -0.0083056334
-0.014932648 0 -0.0062746475
-0.030590182 0.0003175 -0.007435211
0.022761416 -0.00127 -0.0083056334
-0.020151826 -0.0003175 -0.0056943661
-0.0184121 -0.00127 -0.0083056334
-0.013192922 0.0003175 -0.01062676
-0.0184121 -0.00095249998 -0.0083056334
0.015512557 0 -0.011207041
0.0073938356 0.0003175 -0.0077253515
-0.0024646118 -0.00095249998 -0.0083056334
-0.029720319 0.00127 -0.010046478
0.010003424 0.00095249998 -0.01062676
-0.018122146 -0.00127 -0.0083056334
-0.018122146 -0.00095249998 -0.0083056334
0.010003424 0.00127 -0.01062676
0.0027545663 0.0003175 0.00097887334
0.0050742007 0.0003175 0.0027197183
0.0076837898 -0.00127 -0.0083056334
-0.017832192 -0.00127 -0.0083056334
0.0024646118 -0.00095249998 -0.0088859154
0.00043493151 -0.00095249998 -0.0088859154
0.00043493151 0.00127 -0.0088859154
0.00072488585 -0.00095249998 -0.0088859154
0.0010148402 -0.00095249998 -0.0088859154
0.0013047946 -0.00095249998 -0.0088859154
0.02044178 0.0003175 0.0018492958
0.0015947488 -0.00095249998 -0.0088859154
0.0018847032 -0.00095249998 -0.0088859154
0.030590182 0.0003175 -0.01381831
0.0021746575 -0.00095249998 -0.0088859154
-0.0053641554 0 -0.015559155
-0.0047842464 0 0.0018492958
0.0027545663 -0.00095249998 -0.0088859154
0.0030445205 -0.00095249998 -0.0088859154
-0.012613013 0.0003175 -0.015559155
-0.030590182 -0.0003175 -0.013528168
-0.012902968 0 -0.015559155
-0.012902968 -0.0003175 -0.015559155
0.0033344747 -0.00095249998 -0.0088859154
-0.0053641554 0 0.0018492958
-0.00043493151 -0.00127 -0.0088859154
-0.0013047946 -0.00095249998 -0.0088859154
-0.0010148402 -0.00127 -0.0088859154
-0.0010148402 -0.00095249998 -0.0088859154
-0.0024646118 0.0003175 -0.015559155
-0.00072488585 -0.00127 -0.0088859154
-0.00072488585 -0.00095249998 -0.0088859154
0.022761416 -0.0003175 -0.01381831
-0.0027545663 0.0003175 -0.015559155
0.02305137 0 -0.01381831
0.0036244292 -0.00095249998 -0.0088859154
-0.00043493151 -0.00095249998 -0.0088859154
-0.00043493151 0.00127 -0.0088859154
-0.00014497717 -0.00127 -0.0088859154
-0.00014497717 -0.00095249998 -0.0088859154
-0.00014497717 0.00127 -0.0088859154
0.00014497717 -0.00127 -0.0088859154
0.00014497717 -0.00095249998 -0.0088859154
0.00014497717 0.00127 -0.0088859154
0.00043493151 -0.00127 -0.0088859154
0.0068139271 -0.00095249998 -0.0088859154
0.0059440639 0.000635 -0.0088859154
0.0059440639 0.00095249998 -0.0088859154
0.0062340181 -0.00095249998 -0.0088859154
-0.022761416 0.0003175 -0.015559155
-0.020151826 0.0003175 -0.013528168
0.0062340181 0.000635 -0.0088859154
0.0062340181 0.00095249998 -0.0088859154
0.0065239724 -0.00095249998 -0.0088859154
0.0065239724 0.000635 -0.0088859154
0.0065239724 0.00095249998 -0.0088859154
0.0059440639 -0.00095249998 -0.0088859154
-0.017542237 0 -0.013528168
0.0068139271 0.000635 -0.0088859154
0.0068139271 0.00095249998 -0.0088859154
0.0071038813 -0.00095249998 -0.0088859154
0.0071038813 0.000635 -0.0088859154
0.0071038813 0.00095249998 -0.0088859154
0.0073938356 -0.00095249998 -0.0088859154
0.0073938356 0.000635 -0.0088859154
0.0073938356 0.00095249998 -0.0088859154
0.0050742007 0.00095249998 -0.0088859154
0.0036244292 0.00095249998 -0.0088859154
0.0039143837 -0.00095249998 -0.0088859154
0.0039143837 0.00095249998 -0.0088859154
0.004204338 -0.00095249998 -0.0088859154
0.004204338 0.00095249998 -0.0088859154
0.0044942922 0.000635 -0.0088859154
0.0047842464 0.000635 -0.0088859154
0.0050742007 -0.00095249998 -0.0088859154
0.0050742007 0.000635 -0.0088859154
-0.0013047946 -0.00127 -0.0088859154
0.0053641554 -0.00095249998 -0.0088859154
0.0053641554 0.000635 -0.0088859154
0.0053641554 0.00095249998 -0.0088859154
-0.020151826 0.0003175 -0.015559155
-0.02305137 -0.0003175 -0.013528168
0.0056541096 -0.00095249998 -0.0088859154
-0.022761416 0.0003175 -0.013528168
0.0056541096 0.000635 -0.0088859154
0.0056541096 0.00095249998 -0.0088859154
-0.0062340181 0.00127 -0.0088859154
-0.0068139271 0.00127 -0.0088859154
0.0073938356 0 -0.01381831
0.0073938356 0.0003175 -0.01381831
-0.0065239724 -0.000635 -0.0088859154
-0.0065239724 0.00095249998 -0.0088859154
-0.0065239724 0.00127 -0.0088859154
-0.0062340181 -0.000635 -0.0088859154
-0.0062340181 0.00095249998 -0.0088859154
-0.0068139271 0.00095249998 -0.0088859154
-0.0059440639 -0.000635 -0.0088859154
-0.0059440639 0.00095249998 -0.0088859154
-0.0059440639 0.00127 -0.0088859154
-0.0056541096 -0.000635 -0.0088859154
-0.0056541096 0.00095249998 -0.0088859154
-0.0056541096 0.00127 -0.0088859154
-0.0073938356 0.00095249998 -0.0088859154
-0.0079737445 0.00095249998 -0.0088859154
-0.0079737445 0.00127 -0.0088859154
-0.0076837898 -0.000635 -0.0088859154
0.015512557 0 -0.015559155
-0.0076837898 0.00095249998 -0.0088859154
-0.0076837898 0.00127 -0.0088859154
-0.0073938356 -0.000635 -0.0088859154
-0.0053641554 -0.000635 -0.0088859154
-0.0073938356 0.00127 -0.0088859154
0.0053641554 0 -0.01381831
-0.0071038813 -0.000635 -0.0088859154
-0.0071038813 0.00095249998 -0.0088859154
-0.0071038813 0.00127 -0.0088859154
0.012902968 0 -0.015559155
-0.0068139271 -0.000635 -0.0088859154
-0.0027545663 -0.00095249998 -0.0088859154
0.015512557 0 -0.01381831
-0.0039143837 0.00127 -0.0088859154
-0.0036244292 -0.00095249998 -0.0088859154
-0.0036244292 0.00127 -0.0088859154
-0.0033344747 -0.00127 -0.0088859154
-0.0033344747 -0.00095249998 -0.0088859154
0.0027545663 0.0003175 -0.015559155
-0.0030445205 -0.00127 -0.0088859154
-0.0030445205 -0.00095249998 -0.0088859154
-0.0027545663 -0.00127 -0.0088859154
-0.0039143837 -0.00095249998 -0.0088859154
-0.0024646118 -0.00127 -0.0088859154
-0.0024646118 -0.00095249998 -0.0088859154
-0.0021746575 -0.00127 -0.0088859154
-0.0021746575 -0.00095249998 -0.0088859154
-0.0018847032 -0.00127 -0.0088859154
-0.0018847032 -0.00095249998 -0.0088859154
0.02044178 -0.0003175 -0.01381831
-0.0015947488 -0.00127 -0.0088859154
-0.0015947488 -0.00095249998 -0.0088859154
0.012902968 0 -0.01381831
-0.0053641554 0.00095249998 -0.0088859154
-0.0053641554 0.00127 -0.0088859154
-0.0050742007 -0.000635 -0.0088859154
-0.0050742007 0.00095249998 -0.0088859154
0.0073938356 0.0003175 -0.015559155
-0.0050742007 0.00127 -0.0088859154
-0.0047842464 -0.000635 -0.0088859154
-0.029140411 0.00127 -0.0016323942
-0.0047842464 0.00095249998 -0.0088859154
-0.0047842464 0.00127 -0.0088859154
-0.0044942922 -0.000635 -0.0088859154
-0.0044942922 0.00095249998 -0.0088859154
-0.0044942922 0.00127 -0.0088859154
0.0053641554 0 -0.015559155
-0.004204338 -0.00095249998 -0.0088859154
-0.004204338 0.00127 -0.0088859154
0.022761416 -0.0003175 -0.015849294
0.00971347 -0.000635 -0.0088859154
0.00971347 0.000635 -0.0088859154
0.00971347 0.00095249998 -0.0088859154
0.010003424 -0.000635 -0.0088859154
0.010003424 0.000635 -0.0088859154
0.0094235158 -0.000635 -0.0088859154
0.02305137 -0.0003175 0.0018492958
0.0094235158 0.000635 -0.0088859154
0.0094235158 0.00095249998 -0.0088859154
0.02305137 0 -0.015849294
0.010873288 0.000635 -0.0088859154
0.010873288 -0.000635 -0.0088859154
0.0053641554 0 -0.013528168
0.010873288 0.00095249998 -0.0088859154
0.011163242 -0.000635 -0.0088859154
0.011163242 0.000635 -0.0088859154
-0.030880136 0.000635 -0.0022126758
0.010293378 0.000635 -0.0088859154
0.0027545663 -0.0003175 -0.013528168
0.0027545663 0.0003175 -0.013528168
0.010003424 0.00095249998 -0.0088859154
0.010293378 -0.000635 -0.0088859154
0.010293378 0.00095249998 -0.0088859154
0.010583334 -0.000635 -0.0088859154
0.010583334 0.000635 -0.0088859154
0.010583334 0.00095249998 -0.0088859154
-0.031170091 -0.00127 -0.0016323942
0.0079737445 -0.00095249998 -0.0088859154
-0.030590182 -0.00127 -0.0016323942
0.0079737445 0.000635 -0.0088859154
0.0079737445 0.00095249998 -0.0088859154
-0.030880136 -0.00127 -0.0016323942
0.0082636988 -0.000635 -0.0088859154
0.0076837898 0.00095249998 -0.0088859154
0.030590182 0.0003175 -0.015849294
-0.031750001 -0.0003175 -0.0016323942
-0.031750001 -0.000635 -0.0016323942
0.031750001 0.000635 -0.001922535
0.031750001 0.0003175 -0.001922535
0.0082636988 0.000635 -0.0088859154
0.022761416 -0.0003175 0.0018492958
-0.029140411 -0.00127 -0.0016323942
-0.012902968 -0.0003175 -0.013528168
-0.012902968 0 -0.013528168
-0.029430365 0.00127 -0.0016323942
-0.012613013 0.0003175 -0.013528168
-0.029430365 -0.00127 -0.0016323942
-0.029720319 0.00127 -0.0016323942
-0.030590182 -0.0003175 -0.015559155
-0.029720319 -0.00127 -0.0016323942
-0.030010274 0.00127 -0.0016323942
0.0076837898 -0.00095249998 -0.0088859154
-0.030010274 -0.00127 -0.0016323942
-0.030300228 0.00127 -0.0016323942
