# .PCD v0.7 - Point Cloud Data file format
VERSION 0.7
FIELDS x y z
SIZE 4 4 4
TYPE F F F
COUNT 1 1 1
WIDTH 1243
HEIGHT 1
VIEWPOINT 0 0 0 1 0 0 0
POINTS 1243
DATA ascii
-0.00094711862 0 -0.011742056
-0.014895593 -0.0010885714 -0.0062093455
-0.00094711862 0 -0.0027514019
-0.014034576 0.00018142856 -0.0041345796
-0.014895593 -0.00090714288 -0.0062093455
-0.013345762 0.0010885714 -0.0063822428
0.0064576268 -0.00036285713 -0.00033084108
0.010073898 0.00018142856 -0.0024056074
0.015067796 -0.00090714288 -0.00015794388
-0.004218983 0.00054428569 -0.00033084108
0.010073898 0 -0.0024056074
0.0073186439 0.00127 -0.0075925235
0.010073898 -0.00018142856 -0.0024056074
0.010418305 0.00127 -0.0077654202
0.00611322 -0.00018142856 -0.010358878
0.0076630507 0.00054428569 -0.00033084108
-0.00077491521 -0.00036285713 -0.00033084108
0.00611322 0.00127 -0.00655514
0.010590509 0.00127 -0.0077654202
-0.013345762 0.00072571426 -0.0063822428
0.0035301694 -0.00018142856 -0.0048261681
0.011451525 0 -0.014681309
0.0090406779 0.00127 -0.0084570097
-0.014206779 0.00018142856 0.0020897198
0.010418305 0.00127 -0.0022327101
0.0074908473 0.00127 -0.0075925235
0.00094711862 0.00018142856 -0.010358878
0.010590509 -0.00127 -0.0022327101
-0.0038745762 -0.00072571426 -0.0062093455
-0.0038745762 -0.00090714288 -0.0062093455
0.0064576268 -0.00127 -0.00033084108
-0.00508 0.00072571426 -0.00015794388
0.0076630507 0.00127 -0.0075925235
-0.014034576 0.00018142856 0.0020897198
0.0078352541 0.00127 -0.0075925235
0.013001355 0.00127 -0.0010224299
0.0080074575 0.00127 -0.0075925235
-0.0038745762 0.00054428569 -0.0062093455
0.014206779 -0.00018142856 -0.0037887851
0.00094711862 0 -0.010358878
0.0066298302 0.00127 -0.0075925235
0.011279321 0 -0.014681309
0.015067796 0.00036285713 -0.00015794388
0.0068020336 0.00127 -0.0075925235
0.0085240677 -0.00054428569 -0.0024056074
0.013173559 0.00127 -0.0010224299
0.013690169 0 0.0019168224
-0.0016359321 -0.00018142856 0.0012252337
-0.013690169 0 -0.0051719625
0.010762711 0.00127 -0.0077654202
0.013690169 0 -0.0056906543
-0.013345762 0.00054428569 -0.0063822428
-0.011451525 0.00036285713 -0.012260747
0.0083518643 0.00127 -0.00655514
-0.00611322 0.00018142856 -0.01208785
-0.0086962711 0.00036285713 -0.00033084108
0.015067796 -0.00018142856 -0.00015794388
0.006974237 0.00127 -0.0075925235
0.0066298302 -0.00127 -0.00033084108
0.0064576268 0.00127 -0.00033084108
-0.0071464404 0.00127 -0.0063822428
0.00094711862 0.00018142856 -0.0091485977
0.00094711862 0 -0.0091485977
0.0064576268 0.00054428569 -0.00033084108
0.0071464404 0.00127 -0.0075925235
0.0090406779 0.00054428569 -0.0084570097
0.0064576268 0.00036285713 -0.00033084108
0.010073898 -0.00036285713 -0.0024056074
-0.0052522034 0.00127 -0.0063822428
-0.014034576 0.00018142856 0.0019168224
0.00611322 -0.00127 -0.00033084108
0.014551186 0.00127 -0.0020598131
0.00611322 -0.00036285713 -0.00033084108
0.0085240677 -0.00127 -0.0024056074
0.0088684745 0.00127 -0.0022327101
0.015067796 0.0010885714 -0.0067280373
-0.0049077966 -0.00072571426 -0.00015794388
0.014206779 -0.00018142856 -0.0060364483
-0.011107118 0 -0.010358878
0.0090406779 0.00127 -0.0075925235
-0.0078352541 -0.00036285713 -0.00033084108
0.0078352541 -0.00127 -0.00033084108
-0.0090406779 -0.00018142856 -0.005517757
0.0088684745 0.00127 -0.0075925235
0.00611322 0.00036285713 -0.00033084108
0.0059410166 0.00127 -0.00033084108
0.0092128813 0.00127 -0.0075925235
0.010246102 -0.00072571426 -0.0024056074
-0.011451525 -0.00036285713 0.0020897198
0.0093850847 0.00127 -0.0075925235
-0.011451525 0.00036285713 -0.010358878
-0.0040467796 -0.00054428569 -0.0062093455
-0.011451525 -0.00036285713 -0.010358878
-0.011451525 0.00036285713 0.0020897198
-0.0049077966 0.00072571426 -0.00015794388
0.0059410166 0.00054428569 -0.00033084108
0.010073898 0.00127 -0.0077654202
0.0059410166 0.00036285713 -0.00033084108
0.011451525 0.00036285713 -0.0032700934
-0.011451525 -0.00036285713 -0.012260747
0.0062854234 0.00127 -0.00033084108
-0.0040467796 0.00054428569 -0.0062093455
0.011279321 -0.00018142856 -0.01208785
0.0081796609 0.00127 -0.0075925235
0.0062854234 0.00054428569 -0.00033084108
0.0062854234 0.00036285713 -0.00033084108
0.0062854234 -0.00036285713 -0.00033084108
0.0090406779 -0.00127 -0.0022327101
0.0092128813 -0.0010885714 -0.0024056074
0.0076630507 0.00127 -0.00033084108
0.014895593 0.00036285713 -0.00015794388
-0.013862372 0.00018142856 0.0020897198
0.0083518643 0.00127 -0.0075925235
-0.014034576 -0.00018142856 -0.014681309
0.012484745 0.00127 -0.0069009345
-0.013690169 0 0.0020897198
-0.011451525 -0.00036285713 -0.012606542
0.0085240677 0.00127 -0.0075925235
0.010073898 0.0010885714 -0.0024056074
-0.0016359321 -0.00018142856 -0.0048261681
-0.011451525 0.00036285713 -0.012606542
0.0062854234 -0.00127 -0.00033084108
0.010246102 0.00127 -0.0077654202
0.00611322 0.00127 -0.00033084108
0.0057688132 0.00127 -0.0084570097
0.00611322 0.00054428569 -0.00033084108
0.0086962711 0.00127 -0.0075925235
0.014378983 0.00127 -0.0010224299
-0.00611322 0.00018142856 -0.0046532708
-0.0086962711 0.00018142856 -0.010358878
-0.0052522034 0.00072571426 -0.00015794388
0.0052522034 0.00127 -0.0075925235
-0.0066298302 0.00018142856 -0.0030971961
-0.014034576 0.00018142856 0.00053364487
0.013690169 0 -0.01398972
-0.0035301694 0.00018142856 -0.011569159
-0.00094711862 0.00036285713 -0.00033084108
0.00508 0.00127 -0.0075925235
-0.011107118 0 -0.011569159
0.009901695 0.00036285713 -0.0024056074
-0.00094711862 0 0.0012252337
0.009901695 0.00018142856 -0.0024056074
0.0049077966 0.00127 -0.0075925235
0.0035301694 -0.00018142856 -0.013125233
-0.0071464404 0.00072571426 -0.00015794388
-0.0086962711 0 -0.010358878
-0.00094711862 0.00054428569 -0.00033084108
-0.00043050846 -0.00090714288 -0.0062093455
0.0054244064 0.00127 -0.0075925235
0.009901695 0.0010885714 -0.0024056074
0.011451525 0.00127 -0.0077654202
-0.00043050846 -0.00072571426 -0.0062093455
-0.0035301694 0.00054428569 -0.0062093455
-0.0062854234 0.00036285713 -0.0058635515
-0.00043050846 -0.00054428569 -0.0062093455
-0.014034576 -0.00127 -0.00655514
0.0076630507 0.00036285713 -0.00033084108
-0.014378983 -0.00127 -0.00655514
0.011795931 0.00127 -0.0077654202
-0.003357966 0.00054428569 -0.0062093455
-0.0090406779 -0.00036285713 -0.0025785046
-0.014034576 0.0010885714 -0.0063822428
0.014206779 0.00127 -0.0069009345
0.011107118 0 -0.0036158878
-0.01524 -0.00036285713 -0.00655514
0.010073898 0.00127 -0.0022327101
0.011451525 0.00036285713 -0.013816822
0.010246102 -0.00127 -0.0022327101
0.0047355932 0.00127 -0.0075925235
0.0088684745 0.00127 -0.0084570097
-0.003357966 -0.00054428569 -0.0062093455
0.0085240677 0.0010885714 -0.0024056074
-0.003357966 -0.00072571426 -0.0062093455
-0.003357966 -0.00090714288 -0.0062093455
-0.015067796 0.00054428569 -0.0063822428
-0.013862372 -0.00127 -0.0063822428
0.011623728 0.00127 -0.0077654202
-0.014206779 0.00090714288 -0.00655514
0.009901695 -0.00018142856 -0.0024056074
-0.014378983 0.00127 -0.0018869159
0.010418305 -0.00127 -0.0022327101
0.0062854234 0.00127 -0.0075925235
0.013001355 0.00127 -0.0018869159
-0.003357966 -0.00127 -0.0024056074
0.0066298302 -0.00036285713 -0.00033084108
-0.011107118 0 -0.012260747
-0.015067796 -0.0010885714 -0.0063822428
-0.015067796 -0.00090714288 -0.0063822428
0.0068020336 0.00127 -0.00655514
-0.015067796 -0.00072571426 -0.0063822428
0.00611322 0.00127 -0.0075925235
-0.011451525 -0.00036285713 -0.011569159
0.01524 0.00036285713 -0.0067280373
0.011107118 0 -0.012779439
0.010246102 0.00127 -0.0022327101
0.0016359321 0.00018142856 -0.0091485977
0.01524 0.00054428569 -0.0067280373
-0.0037023728 -0.00054428569 -0.0062093455
-0.00508 -0.00072571426 -0.00015794388
-0.0012915254 -0.00090714288 -0.0062093455
-0.00611322 0.00018142856 -0.0030971961
-0.0037023728 -0.00072571426 -0.0062093455
-0.0037023728 -0.00090714288 -0.0062093455
0.010934914 0.00127 -0.0077654202
0.0064576268 0.00127 -0.0075925235
-0.0045633898 0.00036285713 -0.00033084108
-0.014034576 0.00018142856 -0.014681309
0.012656949 0.00127 -0.0069009345
-0.014034576 0 -0.014681309
0.0085240677 0.00127 -0.0020598131
-0.015067796 -0.00054428569 -0.0063822428
0.013345762 0.00127 -0.0010224299
0.0066298302 0.00054428569 -0.00033084108
0.011107118 0 0.0019168224
-0.004218983 0.00036285713 -0.00033084108
-0.0035301694 -0.00054428569 -0.0062093455
0.0055966098 0.00127 -0.0075925235
-0.0035301694 -0.00072571426 -0.0062093455
-0.0035301694 -0.00090714288 -0.0062093455
0.0078352541 0.00127 -0.0020598131
0.011279321 -0.00018142856 0.0019168224
0.0057688132 0.00127 -0.0075925235
-0.011107118 0 -0.012606542
0.015067796 0.0010885714 -0.00015794388
0.00611322 -0.00018142856 -0.0049990653
0.011451525 -0.00036285713 0.0019168224
0.011279321 0.00127 -0.0077654202
-0.011451525 0.00036285713 -0.011569159
-0.0086962711 0.00054428569 -0.00033084108
0.0059410166 0.00127 -0.0075925235
0.0066298302 0.00036285713 -0.00033084108
0.011451525 0.00036285713 0.0019168224
0.0055966098 0.00127 -0.0084570097
-0.013862372 0.00018142856 0.00053364487
0.011107118 0.00127 -0.0077654202
0.0047355932 0.00127 -0.0013682243
-0.0037023728 0.00054428569 -0.0062093455
-0.0076630507 0.00072571426 -0.00015794388
0.0055966098 0.00036285713 -0.00033084108
0.0055966098 0.00054428569 -0.00033084108
0.0097294915 -0.0010885714 -0.0084570097
0.00094711862 0 -0.0041345796
-0.0038745762 -0.00072571426 -0.00015794388
-0.013690169 0 -0.010358878
0.0097294915 -0.00127 -0.0084570097
0.00094711862 0.00018142856 -0.0041345796
0.011451525 -0.00036285713 -0.011396262
-0.0016359321 -0.00018142856 -0.01087757
-0.013173559 0.00072571426 -0.0063822428
-0.0047355932 -0.00090714288 -0.0062093455
-0.0047355932 -0.00072571426 -0.0062093455
-0.0066298302 0.00018142856 -0.0088028032
0.013001355 0.00127 -0.0075925235
-0.0086962711 0 0.0019168224
-0.0047355932 -0.00054428569 -0.0062093455
-0.013862372 0.00018142856 -0.010358878
-0.013173559 0.0010885714 -0.0063822428
0.013173559 0.00127 -0.0075925235
0.012656949 0.00127 -0.0010224299
0.011451525 0.00036285713 -0.011396262
-0.0038745762 0.00072571426 -0.00015794388
-0.014034576 0.00127 -0.00655514
0.0090406779 0.00127 -0.0077654202
0.0055966098 -0.00036285713 -0.00033084108
0.013345762 0.00127 -0.0075925235
-0.0037023728 -0.00072571426 -0.00015794388
-8.6101689e-05 -0.00090714288 -0.0062093455
-0.014034576 0.00018142856 -0.010358878
-0.004218983 0.00072571426 -0.00015794388
-0.0045633898 -0.00072571426 -0.0062093455
0.012312542 0.00127 -0.0075925235
0.010246102 0.0010885714 -0.0024056074
-0.0045633898 -0.00090714288 -0.0062093455
-0.004218983 -0.00072571426 -0.00015794388
0.0088684745 0.00127 -0.0017140186
0.012484745 0.00127 -0.0075925235
0.0078352541 0.00054428569 -0.00033084108
0.011451525 -0.00036285713 -0.01208785
0.0016359321 0.00018142856 -0.011223365
0.0095572881 0.00054428569 -0.0084570097
0.0092128813 0.00127 -0.0077654202
-0.0047355932 0.00054428569 -0.0062093455
-0.0078352541 -0.00072571426 -0.00015794388
0.012140338 0.00127 -0.0069009345
0.013862372 0.00127 -0.0069009345
-0.00094711862 0 -0.0091485977
0.0057688132 -0.00127 -0.00033084108
0.012656949 0.00127 -0.0075925235
0.01524 0.00036285713 -0.00655514
0.0055966098 0.00127 -0.00033084108
-0.0040467796 -0.00072571426 -0.00015794388
0.0088684745 -0.00127 -0.0022327101
0.0086962711 0.00127 -0.0022327101
0.012829152 0.00127 -0.0075925235
0.013517966 0.00127 -0.0018869159
0.0095572881 0.00127 -0.0084570097
-0.0086962711 0.00018142856 0.0019168224
0.011279321 -0.00018142856 -0.011396262
-0.0040467796 0.00072571426 -0.00015794388
0.010418305 -0.00054428569 -0.0024056074
-0.0071464404 -0.00072571426 -0.00015794388
0.0085240677 0.00127 -0.0022327101
-0.0062854234 0.00036285713 -0.0088028032
-0.0016359321 -0.00018142856 -0.0030971961
-0.0078352541 0.00054428569 -0.00033084108
0.0086962711 -0.00127 -0.0022327101
0.011451525 0.00036285713 -0.01208785
0.011107118 0 -0.0032700934
-0.0066298302 0.00018142856 0.00087943929
0.011107118 0.00018142856 -0.0032700934
-0.0035301694 -0.00072571426 -0.00015794388
0.0016359321 0.00018142856 -0.013125233
0.014206779 0.00127 -0.0075925235
-0.0062854234 -0.00036285713 -0.0088028032
0.010418305 -0.00090714288 -0.0024056074
0.012484745 0.00127 -0.0010224299
0.014034576 0.00127 -0.0075925235
0.014378983 0.00127 -0.0075925235
0.011451525 0.00036285713 -0.0046532708
-0.0049077966 -0.00054428569 -0.0062093455
0.0083518643 -0.00036285713 -0.0024056074
0.011107118 0 0.0010523364
-0.0049077966 -0.00090714288 -0.0062093455
-0.0068020336 0.00090714288 -0.0063822428
0.0055966098 -0.00127 -0.00033084108
-0.0016359321 0 -0.0030971961
0.010418305 -0.00036285713 -0.0024056074
0.0054244064 0.00127 -0.00033084108
0.014551186 0.00127 -0.0075925235
0.010418305 -0.00018142856 -0.0024056074
0.014895593 -0.00090714288 -0.00015794388
-0.0068020336 0.00072571426 -0.0063822428
0.001119322 0 0.0027813085
-8.6101689e-05 -0.00072571426 -0.0062093455
-0.0078352541 0.00036285713 -0.00033084108
0.014206779 -0.00018142856 -0.013643925
0.013517966 0.00127 -0.0075925235
-0.0066298302 0.00018142856 -0.013298131
-0.013001355 -0.00127 -0.0063822428
0.013690169 0.00127 -0.0069009345
-0.0064576268 0.00036285713 -0.0088028032
-0.0049077966 0.00054428569 -0.0062093455
-0.00611322 0.00018142856 0.0012252337
-0.0037023728 0.00072571426 -0.00015794388
-8.6101689e-05 -0.00054428569 -0.0062093455
-0.0035301694 -0.00127 -0.0024056074
-0.014206779 0 -0.010358878
-0.014206779 -0.00018142856 -0.010358878
0.00611322 -0.00018142856 0.0017439253
0.0090406779 0.00127 -0.0017140186
0.013690169 0.00127 -0.0075925235
0.013862372 0.00127 -0.0075925235
0.014034576 -0.00127 -0.0075925235
0.0016359321 0.00018142856 -0.0058635515
0.0088684745 0.00127 -0.0077654202
0.014378983 0.00127 -0.0069009345
-0.0016359321 -0.00018142856 -0.0091485977
-0.0066298302 0.00018142856 0.0020897198
-0.014206779 0 -0.013816822
0.010418305 0.00127 -0.0075925235
-0.0047355932 0.00072571426 -0.00015794388
-0.0012915254 -0.00054428569 -0.0062093455
-0.00611322 0.00018142856 -0.0058635515
0.010762711 -0.00127 -0.0022327101
0.013690169 0 -0.0037887851
-0.011968135 0.00054428569 -0.00033084108
0.010590509 0.00127 -0.0022327101
-0.004218983 0.00054428569 -0.0062093455
-0.014206779 -0.00018142856 -0.013816822
0.010246102 0.00127 -0.0075925235
0.014895593 -0.00018142856 -0.00015794388
-0.00025830508 -0.00090714288 -0.0062093455
-0.006974237 0.00127 -0.0063822428
0.010073898 0.00127 -0.0075925235
-0.0086962711 0.00018142856 -0.005517757
0.0037023728 0 -0.014681309
0.0078352541 -0.00036285713 -0.00033084108
0.0037023728 0.00018142856 -0.014681309
0.014206779 -0.00018142856 -0.0032700934
0.011279321 -0.00018142856 -0.0032700934
0.010590509 0.00127 -0.0075925235
0.0045633898 0.00127 -0.0013682243
0.010762711 0.00127 -0.0075925235
0.0093850847 0.00054428569 -0.0084570097
0.0059410166 -0.00127 -0.00033084108
-0.0035301694 0.00018142856 -0.0030971961
0.010934914 0.00127 -0.0075925235
0.011107118 0.00127 -0.0075925235
0.010246102 0.00018142856 -0.0024056074
-0.0040467796 -0.00090714288 -0.0062093455
-0.01524 -0.00036285713 -0.0063822428
0.0095572881 0.00127 -0.0075925235
-0.0035301694 0.00018142856 0.0012252337
-0.0076630507 -0.00072571426 -0.00015794388
0.0092128813 0.00054428569 -0.0084570097
0.010246102 -0.00036285713 -0.0024056074
-0.013173559 -0.00127 -0.0063822428
0.011451525 -0.00036285713 -0.0032700934
0.0092128813 0.00127 -0.0084570097
-0.0040467796 -0.00072571426 -0.0062093455
0.0037023728 -0.00018142856 -0.014681309
-0.0085240677 0.00036285713 -0.00033084108
-0.006974237 0.00072571426 -0.0063822428
-0.006974237 0.00090714288 -0.0063822428
0.012312542 0.00127 -0.0069009345
0.010246102 -0.00018142856 -0.0024056074
-0.0047355932 -0.00072571426 -0.00015794388
0.0097294915 0.00127 -0.0075925235
-0.0012915254 -0.00072571426 -0.0062093455
0.010246102 0 -0.0024056074
0.0059410166 -0.00036285713 -0.00033084108
0.00611322 -0.00018142856 -0.0053448598
0.009901695 0.00127 -0.0077654202
0.013690169 0 0.00070654211
0.009901695 0.00127 -0.0075925235
-0.0086962711 0.00018142856 0.0010523364
-0.004218983 0.00127 -0.0062093455
-0.0086962711 0 -0.005517757
-0.0086962711 0 0.0010523364
-0.014034576 0.00090714288 -0.00655514
0.0038745762 0 -0.014681309
-0.0043911864 -0.00072571426 -0.0062093455
-0.0043911864 -0.00090714288 -0.0062093455
-0.0066298302 -0.00018142856 -0.013298131
0.011623728 0.00127 -0.0075925235
-0.0043911864 -0.00072571426 -0.00015794388
0.015067796 -0.00090714288 -0.0067280373
-0.0030135592 0.00072571426 -0.0063822428
0.0038745762 0.00018142856 -0.014681309
0.011795931 0.00127 -0.0075925235
0.0043911864 0.00127 -0.0013682243
-0.013690169 0 -0.013816822
-0.0045633898 0.00054428569 -0.0062093455
-0.0043911864 -0.00054428569 -0.0062093455
0.0095572881 -0.0010885714 -0.0084570097
-0.013173559 0.00054428569 -0.0063822428
0.014034576 -0.00127 -0.0069009345
0.0093850847 0.00127 -0.0077654202
0.011968135 0.00127 -0.0075925235
0.0059410166 0.00127 -0.00655514
0.0057688132 -0.00036285713 -0.00033084108
-0.0043911864 0.00072571426 -0.00015794388
0.012829152 0.00127 -0.0010224299
0.012140338 0.00127 -0.0075925235
-0.0030135592 0.00090714288 -0.0063822428
0.0078352541 0.00036285713 -0.00033084108
-0.00077491521 0.00054428569 -0.00033084108
-0.0045633898 -0.00054428569 -0.0062093455
-0.0043911864 0.00054428569 -0.0062093455
0.0057688132 0.00127 -0.00033084108
-0.0045633898 -0.00072571426 -0.00015794388
-0.004218983 -0.00054428569 -0.0062093455
-0.004218983 -0.00072571426 -0.0062093455
0.0097294915 0.00127 -0.0077654202
-0.0078352541 0.00072571426 -0.00015794388
-0.004218983 -0.00090714288 -0.0062093455
0.013690169 0 -0.013643925
-0.004218983 -0.00127 -0.0062093455
0.011279321 0.00127 -0.0075925235
0.0093850847 0.00127 -0.0084570097
-0.014034576 0.00018142856 -0.013816822
0.0057688132 0.00054428569 -0.00033084108
-0.00025830508 -0.00072571426 -0.0062093455
-0.00094711862 -0.00036285713 -0.00033084108
-0.00025830508 -0.00054428569 -0.0062093455
0.0057688132 0.00036285713 -0.00033084108
0.0016359321 0.00018142856 -0.0041345796
0.0095572881 -0.00127 -0.0084570097
-0.0045633898 0.00072571426 -0.00015794388
-0.00077491521 0.00036285713 -0.00033084108
0.0095572881 0.00127 -0.0077654202
-0.013862372 0.00018142856 -0.013816822
0.011451525 0.00127 -0.0075925235
-0.0016359321 -0.00018142856 -0.0036158878
0.00508 0.00127 -0.0013682243
0.0074908473 0.00127 -0.0084570097
-0.0021525424 -0.00072571426 -0.0062093455
-0.0021525424 -0.00054428569 -0.0062093455
0.0071464404 0.00054428569 -0.00033084108
-0.00094711862 0 0.0019168224
0.0093850847 0.00127 -0.0024056074
0.0076630507 0.00054428569 -0.0084570097
-0.011451525 0.00036285713 0.0001878505
-0.0021525424 -0.00090714288 -0.0062093455
-0.0047355932 0.00036285713 -0.00033084108
-0.0066298302 -0.00072571426 -0.00015794388
0.0071464404 0.00127 -0.00033084108
0.0074908473 0.00036285713 -0.00033084108
-0.014378983 0.00054428569 -0.0063822428
0.0081796609 0.00127 -0.0084570097
0.0073186439 -0.00127 -0.00033084108
-0.0066298302 0.00072571426 -0.00015794388
0.0071464404 0.00036285713 -0.00033084108
0.013690169 0 -0.0032700934
0.0074908473 0.00054428569 -0.00033084108
-0.0031857626 0.00090714288 -0.0063822428
-0.00611322 0.00018142856 0.0019168224
-0.011451525 -0.00036285713 -0.0030971961
0.014206779 -0.00018142856 -0.0044803736
0.0095572881 -0.0010885714 -0.0024056074
-0.014206779 0 0.00053364487
0.0074908473 0.00127 -0.00033084108
-0.0064576268 -0.00072571426 -0.00015794388
0.0071464404 0.00127 -0.00655514
-0.0085240677 -0.00036285713 -0.00033084108
-0.0068020336 0.00072571426 -0.00015794388
0.0086962711 0.0010885714 -0.0024056074
0.00508 0.00127 -0.0020598131
-0.0016359321 -0.00018142856 0.0019168224
-0.0021525424 0.00054428569 -0.0062093455
-0.0047355932 0.00054428569 -0.00033084108
-0.014895593 0.00090714288 -0.00655514
0.014551186 0.00127 -0.0077654202
-0.013690169 0 -0.005517757
0.00508 0.00127 -0.0084570097
0.013690169 0 -0.012779439
-0.0035301694 0.00018142856 -0.010358878
0.0076630507 0.00127 -0.0084570097
-0.013517966 0.00054428569 -0.0063822428
-0.013517966 0.00072571426 -0.0063822428
-0.00611322 0.00018142856 0.0010523364
0.011279321 -0.00018142856 0.00036074768
0.014034576 0.00127 -0.0010224299
-0.0064576268 0.00036285713 -0.0058635515
0.014378983 0.00127 -0.0077654202
-0.0081796609 0.00036285713 -0.00033084108
-0.0081796609 0.00054428569 -0.00033084108
-0.014895593 0.00072571426 -0.00655514
-0.011451525 -0.00036285713 0.0001878505
0.011107118 0 -0.013643925
0.006974237 0.00036285713 -0.00033084108
-0.0080074575 0.00036285713 -0.00033084108
0.006974237 0.00054428569 -0.00033084108
-0.0086962711 0 -0.0049990653
0.006974237 0.00127 -0.00033084108
0.013173559 0.00127 -0.0069009345
0.0076630507 -0.00127 -0.00033084108
-0.0080074575 -0.00036285713 -0.00033084108
0.011451525 -0.00036285713 0.00036074768
0.00094711862 0.00018142856 0.0019168224
0.00094711862 0 0.0019168224
-0.014034576 -0.00127 -0.0022327101
0.011107118 0.00018142856 -0.013643925
-0.0014637287 -0.00072571426 -0.0062093455
0.0016359321 0.00018142856 0.0019168224
-0.00611322 0.00018142856 -0.0044803736
-0.01524 -0.00072571426 -0.0018869159
-0.01524 -0.00054428569 -0.0018869159
0.0074908473 0.00054428569 -0.0084570097
0.014034576 0.00127 -0.0077654202
0.0086962711 0 0.00036074768
0.0086962711 -0.00018142856 0.00036074768
0.006974237 -0.00036285713 -0.00033084108
0.0078352541 0.00127 -0.00655514
-0.0023247458 0.00054428569 -0.0062093455
-0.0014637287 -0.00054428569 -0.0062093455
0.0086962711 0.00090714288 -0.0024056074
-0.011451525 0.00036285713 -0.0030971961
-0.013690169 0 -0.0030971961
0.011279321 -0.00018142856 -0.013816822
0.01524 0.00036285713 -0.0020598131
-0.0037023728 -0.00018142856 -0.014681309
0.0083518643 0.00054428569 -0.0084570097
0.014206779 0.00127 -0.0077654202
-0.003357966 0.00072571426 -0.0063822428
-0.011279321 0.00036285713 -0.0060364483
0.0071464404 -0.00036285713 -0.00033084108
-0.013862372 0.00018142856 -0.0051719625
-0.0014637287 -0.00090714288 -0.0062093455
0.013173559 0.00127 -0.0018869159
0.014034576 -0.00127 -0.0010224299
-0.0064576268 0.00072571426 -0.00015794388
0.013690169 0 0.0017439253
-0.014551186 0.0010885714 -0.0063822428
0.013862372 0.00127 -0.0010224299
-0.0038745762 -0.00018142856 -0.014681309
-0.014551186 0.00054428569 -0.0063822428
-0.0086962711 0.00018142856 -0.0049990653
-0.011107118 -0.00018142856 -0.0030971961
-0.011107118 0 -0.0030971961
-0.0062854234 -0.00072571426 -0.00015794388
0.0071464404 -0.00127 -0.00033084108
0.0076630507 0.00127 -0.00655514
0.01524 0.00054428569 -0.0020598131
0.014206779 -0.00018142856 -0.012779439
0.00611322 -0.00018142856 -0.011914953
0.0095572881 0.00127 -0.0022327101
-0.014723389 0.00090714288 -0.00655514
-0.014206779 -0.00018142856 -0.005517757
-0.014378983 -0.00127 -0.0069009345
-0.0066298302 0.00018142856 -0.0044803736
0.014206779 0.00127 -0.0010224299
0.0097294915 -0.00127 -0.0022327101
0.0035301694 -0.00018142856 -0.010358878
0.015067796 0.0010885714 -0.0020598131
0.0047355932 0.00127 -0.0084570097
0.0064576268 0.00127 -0.00655514
-0.014206779 -0.00127 -0.00655514
-0.0018081355 0.00054428569 -0.0062093455
-0.001119322 0.00054428569 -0.00033084108
-0.014206779 0.00054428569 -0.0063822428
-0.014723389 0.00072571426 -0.00655514
0.01524 0.00054428569 -0.0077654202
0.01524 0.00036285713 -0.0077654202
-0.0035301694 0.00018142856 0.0019168224
-0.014206779 0 -0.005517757
-0.011279321 0.00127 -0.0022327101
-0.0016359321 -0.00018142856 -0.010358878
0.0045633898 0.00127 -0.0084570097
0.011107118 0 0.00036074768
-0.0043911864 0.00036285713 -0.00033084108
0.0078352541 0.00054428569 -0.0084570097
-0.013690169 0 -0.011050467
0.0092128813 0.00072571426 -0.0024056074
-0.00077491521 -0.00090714288 -0.0062093455
0.0093850847 0.00127 -0.0022327101
0.0095572881 -0.00127 -0.0022327101
-0.01524 -0.00072571426 -0.0075925235
-0.0066298302 0.00018142856 -0.011569159
-0.0016359321 -0.00054428569 -0.0062093455
0.001119322 0 -0.014681309
-0.014206779 0.0010885714 -0.0063822428
-0.0016359321 -0.00072571426 -0.0062093455
-0.0016359321 -0.00090714288 -0.0062093455
0.0073186439 0.00127 -0.00033084108
-0.00077491521 -0.00072571426 -0.0062093455
-0.014206779 0.00072571426 -0.0063822428
-0.006974237 0.00072571426 -0.00015794388
-0.00611322 0.00018142856 -0.0025785046
-0.00094711862 0 -0.010358878
-0.0045633898 -0.00036285713 -0.00033084108
0.0092128813 0.0010885714 -0.0024056074
0.0073186439 0.00054428569 -0.00033084108
0.0073186439 0.00036285713 -0.00033084108
-0.014551186 -0.00127 -0.00655514
0.0049077966 0.00127 -0.0084570097
0.0073186439 0.00127 -0.00655514
0.0092128813 0.00127 -0.0024056074
-0.00077491521 -0.00054428569 -0.0062093455
0.00611322 -0.00018142856 -0.013125233
0.0074908473 0.00127 -0.00655514
0.0093850847 0.00036285713 -0.0024056074
0.0043911864 0.00127 -0.0084570097
-0.0066298302 -0.00036285713 -0.0025785046
0.0080074575 0.00127 -0.0084570097
-0.014206779 -0.00018142856 0.00053364487
-0.0014637287 0 -0.014681309
-0.0019803389 -0.00090714288 -0.0062093455
0.0080074575 0.00054428569 -0.0084570097
-0.01524 -0.00054428569 -0.0075925235
-0.0019803389 -0.00072571426 -0.0062093455
-0.003357966 0.00090714288 -0.0063822428
-0.0019803389 -0.00054428569 -0.0062093455
-0.0083518643 0.00036285713 -0.00033084108
0.0030135592 0.0010885714 -0.0024056074
0.014034576 0.00127 -0.0069009345
-0.0016359321 0.00054428569 -0.0062093455
0.009901695 0.00127 -0.0022327101
0.010073898 -0.00127 -0.0022327101
-0.0081796609 -0.00036285713 -0.00033084108
-0.01524 -0.00036285713 -0.0075925235
-0.013862372 -0.00036285713 -0.005517757
0.00094711862 0 -0.0048261681
0.0081796609 0.00054428569 -0.0084570097
0.00094711862 0.00018142856 -0.0048261681
0.013345762 0.00127 -0.0069009345
-0.013862372 0.00018142856 -0.005517757
0.0093850847 0.00054428569 -0.0024056074
-0.0068020336 -0.00072571426 -0.00015794388
-0.0018081355 -0.00054428569 -0.0062093455
-0.0018081355 -0.00072571426 -0.0062093455
-0.0043911864 0.00054428569 -0.00033084108
0.015067796 0.0010885714 -0.0077654202
-0.0018081355 -0.00090714288 -0.0062093455
0.013517966 0.00127 -0.0069009345
-0.0064576268 -0.00054428569 -0.0025785046
-0.0066298302 0.00018142856 -0.0046532708
0.0097294915 0.00127 -0.0022327101
0.009901695 -0.00127 -0.0022327101
-0.001119322 0 -0.014681309
-0.014034576 -0.00036285713 -0.005517757
-0.0012915254 0.00018142856 -0.014681309
-0.013690169 0 -0.01208785
0.014206779 -0.00018142856 0.0017439253
0.0073186439 -0.00036285713 -0.00033084108
-0.0019803389 0.00054428569 -0.0062093455
-0.0066298302 0.00018142856 -0.0025785046
-0.014034576 0.00018142856 -0.005517757
0.0012915254 0 -0.014681309
0.0088684745 -0.00072571426 -0.0024056074
-0.0031857626 0.00072571426 -0.0063822428
-0.014378983 0.0010885714 -0.0063822428
-0.0083518643 0.00054428569 -0.00033084108
0.0078352541 0.00127 -0.0084570097
0.00611322 -0.00018142856 -0.0091485977
-0.0014637287 0.00036285713 -0.0025785046
0.0093850847 -0.00127 -0.0022327101
0.012656949 0.00127 -0.0077654202
-0.014895593 0.0010885714 -0.0063822428
-0.015067796 -0.00054428569 -0.00655514
0.0035301694 -0.00018142856 -0.011223365
0.0080074575 0.00127 -0.0020598131
-0.0086962711 0 -0.0025785046
0.0081796609 0.00127 -0.00655514
-0.0086962711 0.00018142856 -0.0025785046
0.0097294915 0 -0.0024056074
-0.0030135592 0.00054428569 -0.0062093455
0.0016359321 0.00018142856 -0.0060364483
-0.0057688132 0.00072571426 -0.00015794388
-0.014551186 0.00072571426 -0.00655514
-0.011795931 0.00054428569 -0.00033084108
0.011451525 -0.00036285713 -0.012779439
-0.014551186 0.00090714288 -0.00655514
0.012484745 0.00127 -0.0077654202
-0.014034576 0.00054428569 -0.0063822428
-0.014034576 0.00072571426 -0.0063822428
-0.0055966098 -0.00072571426 -0.00015794388
-0.0088684745 0.00036285713 -0.0088028032
-0.014895593 0.00054428569 -0.0063822428
0.0097294915 0.00036285713 -0.0024056074
0.00094711862 0.00018142856 0.0012252337
-0.015067796 -0.00072571426 -0.00655514
0.00094711862 0 0.0012252337
0.0054244064 0.00127 -0.0020598131
0.0066298302 0.00018142856 0.00036074768
-0.014034576 0.00018142856 -0.0030971961
-0.00060271187 -0.00054428569 -0.0062093455
0.0086962711 0.00054428569 -0.0084570097
0.013173559 0.00127 -0.0077654202
0.0016359321 -0.00018142856 -0.0060364483
0.011451525 0.00036285713 -0.012779439
0.011451525 -0.00036285713 -0.01398972
-0.014206779 -0.00127 -0.0018869159
0.013001355 0.00127 -0.0077654202
-0.0016359321 -0.00018142856 -0.0025785046
0.011451525 0.00036285713 -0.01398972
-0.0057688132 -0.00072571426 -0.00015794388
0.0016359321 0.00018142856 -0.01208785
0.0097294915 -0.0010885714 -0.0024056074
-0.011107118 0.00127 -0.0022327101
-0.0090406779 0.00036285713 -0.0088028032
-0.0066298302 0.00018142856 -0.010358878
0.0066298302 0 0.00036074768
-0.0016359321 0 -0.0025785046
0.0086962711 0.00127 -0.0084570097
0.014206779 -0.00018142856 -0.0056906543
-0.014551186 -0.00127 -0.0069009345
0.012829152 0.00127 -0.0077654202
-0.0088684745 -0.00036285713 -0.0088028032
-0.011107118 0 -0.005517757
-0.014206779 -0.00018142856 0.0019168224
-0.014206779 0 0.0019168224
-0.0064576268 -0.00036285713 -0.0058635515
0.0035301694 -0.00018142856 -0.0094943922
-0.0088684745 -0.00054428569 -0.0025785046
0.0073186439 0.00127 -0.0084570097
-0.00094711862 0 -0.0025785046
-0.014206779 -0.00018142856 -0.0030971961
-0.013690169 0 -0.012606542
-0.014206779 0 -0.0030971961
-0.0054244064 0.00072571426 -0.00015794388
-0.0031857626 0.00054428569 -0.0062093455
-0.004218983 -0.00036285713 -0.00033084108
-0.0086962711 0.00018142856 -0.0088028032
-0.0086962711 0 -0.0088028032
0.011451525 -0.00036285713 -0.0036158878
0.0097294915 0.0010885714 -0.0024056074
-0.013862372 0.00018142856 -0.012606542
0.011968135 0.00127 -0.0077654202
-0.011623728 0.00054428569 -0.00033084108
0.0081796609 0.00127 -0.0020598131
0.0043911864 0.00127 -0.0075925235
0.0090406779 0.00127 -0.0022327101
0.0045633898 0.00127 -0.0075925235
-0.0031857626 -0.00054428569 -0.0062093455
-0.0052522034 -0.00072571426 -0.00015794388
-0.0031857626 -0.00072571426 -0.0062093455
-0.0031857626 -0.00090714288 -0.0062093455
0.011279321 -0.00018142856 -0.0036158878
0.013517966 0.00127 -0.0010224299
0.0054244064 0.00127 -0.0084570097
0.0092128813 -0.00127 -0.0022327101
0.00611322 -0.00018142856 -0.0094943922
-0.0030135592 -0.00054428569 -0.0062093455
0.012312542 0.00127 -0.0077654202
-0.014206779 -0.00018142856 -0.012606542
0.00611322 -0.00018142856 -0.0044803736
0.011279321 -0.00018142856 -0.012779439
0.0076630507 -0.00036285713 -0.00033084108
-0.014206779 0 -0.012606542
0.012140338 0.00127 -0.0077654202
-0.0055966098 0.00072571426 -0.00015794388
-0.0030135592 -0.00072571426 -0.0062093455
-0.0030135592 -0.00090714288 -0.0062093455
-0.003357966 -0.00054428569 -0.0024056074
0.0097294915 0.00054428569 -0.0024056074
-0.0028413557 -0.00090714288 -0.0062093455
-0.011279321 0 -0.014681309
-0.0088684745 0.00054428569 -0.0025785046
0.012829152 0.00127 -0.0069009345
-0.014034576 0.00018142856 -0.012606542
0.0068020336 -0.00127 -0.00033084108
0.0066298302 0.00127 -0.00033084108
-0.0035301694 0.00018142856 -0.01087757
0.013345762 0.00127 -0.0018869159
-0.011451525 0 -0.014681309
0.00611322 -0.00018142856 0.00036074768
-0.0054244064 -0.00072571426 -0.00015794388
0.011451525 0.00036285713 -0.0036158878
-0.0083518643 -0.00036285713 -0.00033084108
-0.015067796 -0.00090714288 -0.00655514
-0.015067796 -0.0010885714 -0.00655514
-0.00611322 0.00018142856 -0.011569159
0.013001355 0.00127 -0.0069009345
0.011107118 0 -0.013816822
-0.015067796 0.00072571426 -0.00655514
-0.00611322 -0.00072571426 -0.00015794388
0.00611322 -0.00018142856 -0.01398972
0.0095572881 0.00018142856 -0.0024056074
0.0080074575 0.00127 -0.00655514
-0.0074908473 0.00127 -0.0063822428
-0.0024969492 -0.00090714288 -0.0062093455
0.011279321 -0.00018142856 0.0017439253
-0.0024969492 -0.00072571426 -0.0062093455
-0.013517966 0.0010885714 -0.0063822428
-0.0024969492 -0.00054428569 -0.0062093455
-0.013690169 0 1.4953306e-05
-0.0043911864 -0.00036285713 -0.00033084108
-0.015067796 0.00054428569 -0.00655514
0.013690169 0.00127 -0.0077654202
-0.014723389 0.0010885714 -0.0063822428
0.011451525 0.00036285713 0.00036074768
0.0016359321 0.00018142856 0.0012252337
0.0068020336 -0.00036285713 -0.00033084108
-0.0026691526 0.00054428569 -0.0062093455
0.011451525 -0.00036285713 -0.013643925
0.011451525 0.00036285713 -0.013643925
-0.0073186439 0.00127 -0.0063822428
0.0035301694 -0.00018142856 -0.011914953
0.0074908473 -0.00127 -0.00033084108
0.006974237 -0.00127 -0.00033084108
-0.011107118 -0.00018142856 -0.0060364483
0.0068020336 0.00127 -0.00033084108
0.0092128813 0.00054428569 -0.0024056074
-0.0062854234 0 -0.014681309
-0.0062854234 -0.00018142856 -0.014681309
-0.0023247458 -0.00054428569 -0.0062093455
0.011451525 0.00036285713 0.0017439253
-0.0023247458 -0.00072571426 -0.0062093455
-0.0080074575 0.00054428569 -0.00033084108
0.013690169 0.00127 -0.0010224299
-0.011107118 0 -0.0060364483
0.014206779 -0.00018142856 -0.012260747
0.00611322 -0.00018142856 -0.0098401867
-0.01524 -0.00036285713 -0.0018869159
0.014034576 -0.00127 -0.0077654202
0.013862372 0.00127 -0.0077654202
-0.0023247458 -0.00090714288 -0.0062093455
-0.015067796 0.00090714288 -0.00655514
-0.0062854234 0.00072571426 -0.00015794388
0.0035301694 -0.00018142856 0.0019168224
0.011451525 -0.00036285713 0.0017439253
0.0016359321 0.00018142856 -0.0048261681
0.0068020336 0.00054428569 -0.00033084108
0.0083518643 0.00127 -0.0084570097
0.0052522034 0.00127 -0.0084570097
0.0068020336 0.00036285713 -0.00033084108
-0.0024969492 0.00054428569 -0.0062093455
0.0062854234 0.00127 -0.00655514
0.011107118 0 0.0017439253
-0.011451525 0.00036285713 -0.005517757
-0.0088684745 0.00018142856 -0.014681309
0.0088684745 0 -0.014681309
-0.0088684745 0 -0.014681309
-0.0028413557 -0.00054428569 -0.0062093455
-0.0088684745 -0.00018142856 -0.014681309
-0.006974237 -0.00072571426 -0.00015794388
0.011107118 0 -0.01398972
0.011107118 0.00018142856 -0.01398972
-0.00611322 0.00018142856 -0.010358878
-0.0047355932 -0.00036285713 -0.00033084108
0.0088684745 0.00018142856 -0.014681309
0.00611322 -0.00018142856 0.0019168224
0.0085240677 0.00127 -0.0084570097
0.0092128813 0.00127 -0.0022327101
0.013345762 0.00127 -0.0077654202
-0.0016359321 0.00072571426 -0.0063822428
-0.0086962711 0 -0.0030971961
0.0035301694 -0.00018142856 -0.0041345796
-0.0086962711 0.00018142856 -0.0030971961
-0.013345762 -0.00127 -0.0063822428
0.006974237 0.00127 -0.00655514
-0.0066298302 0.00018142856 -0.01087757
0.0086962711 -0.00127 -0.0084570097
-0.00060271187 -0.00072571426 -0.0062093455
-0.0059410166 0.00072571426 -0.00015794388
-0.0028413557 -0.00072571426 -0.0062093455
-0.00060271187 -0.00090714288 -0.0062093455
-0.014723389 0.00054428569 -0.0063822428
0.00611322 -0.00018142856 -0.0039616823
0.0049077966 0.00127 -0.0013682243
-0.013690169 0.00127 -0.0022327101
-0.0026691526 -0.00054428569 -0.0062093455
-0.0026691526 -0.00072571426 -0.0062093455
-0.0066298302 0.00018142856 0.0019168224
-0.0026691526 -0.00090714288 -0.0062093455
0.0052522034 0.00127 -0.0013682243
-0.00611322 0.00072571426 -0.00015794388
0.013517966 0.00127 -0.0077654202
0.0095572881 0.00072571426 -0.0024056074
-0.0049077966 -0.00072571426 -0.0062093455
-0.00094711862 0 -0.0048261681
0.013690169 0 -0.0096672894
-0.0066298302 0.00018142856 0.0010523364
0.0052522034 0.00127 -0.0020598131
0.011107118 0 -0.01208785
0.0035301694 -0.00018142856 -0.0046532708
-0.0028413557 0.00054428569 -0.0062093455
0.0049077966 0.00127 -0.0020598131
-0.0059410166 -0.00072571426 -0.00015794388
-0.0035301694 0.00018142856 -0.011050467
-0.011451525 -0.00036285713 -0.005517757
0.0095572881 0.0010885714 -0.0024056074
0.014551186 0.00127 -0.0010224299
0.0085240677 0.00054428569 -0.0084570097
-0.013862372 0.00018142856 -0.0030971961
-0.012140338 0.00054428569 -0.0084570097
0.011107118 0 0.0020897198
-0.0026691526 0.00090714288 -0.0063822428
-0.00094711862 0 -0.012606542
-0.001119322 -0.00054428569 -0.0062093455
0.011107118 0 -0.011914953
-0.014206779 -0.00018142856 0.0010523364
-0.014206779 0 0.0010523364
-0.014206779 0 -0.0036158878
-0.012140338 0.00036285713 -0.0084570097
-0.00077491521 -0.00072571426 -0.00015794388
-0.012140338 0.00072571426 -0.0084570097
-0.014206779 -0.00018142856 -0.0036158878
-0.0076630507 -0.00054428569 -0.0062093455
0.00060271187 -0.00054428569 -0.0062093455
0.00060271187 -0.00072571426 -0.0062093455
0.011795931 -0.00127 -0.0022327101
-0.0085240677 0.00054428569 -0.00033084108
-0.011107118 0 0.00053364487
0.00094711862 0 -0.0060364483
-0.0076630507 -0.00072571426 -0.0062093455
0.00094711862 0.00018142856 0.0017439253
-0.0076630507 -0.00090714288 -0.0062093455
-0.011451525 0.00036285713 -0.013298131
-0.0016359321 -0.00018142856 0.0001878505
-0.012140338 -0.00036285713 -0.0084570097
0.0035301694 -0.00018142856 -0.0053448598
-0.0066298302 0.00018142856 -0.0043074763
-0.0035301694 0.00018142856 0.00070654211
-0.00077491521 0.00072571426 -0.00015794388
0.00094711862 0 0.0017439253
0.0054244064 0.00127 -0.0013682243
-0.011968135 -0.00054428569 -0.0084570097
-0.011968135 0.00036285713 -0.0084570097
-0.0076630507 0.00090714288 -0.0062093455
-0.0076630507 0.00072571426 -0.0062093455
-0.0076630507 0.00054428569 -0.0062093455
-0.0037023728 -0.00127 -0.0024056074
-0.013862372 0.00018142856 0.0010523364
0.014206779 -0.00018142856 -0.011396262
0.013862372 0.00036285713 -0.00015794388
-0.001119322 -0.00072571426 -0.0062093455
0.0043911864 0.00127 -0.0077654202
0.013690169 0 -0.0098401867
-0.011968135 -0.00036285713 -0.0084570097
-0.00094711862 0.00072571426 -0.00015794388
-0.0074908473 -0.00072571426 -0.00015794388
-0.0074908473 -0.00036285713 -0.00033084108
-0.00094711862 0 -0.005517757
-0.014034576 0.00018142856 0.0010523364
0.00060271187 -0.00090714288 -0.0062093455
0.00611322 -0.00018142856 -0.0030971961
-0.0037023728 0.00036285713 -0.0088028032
-0.011968135 -0.00072571426 -0.0084570097
0.0085240677 0.00127 -0.00655514
0.011279321 -0.00018142856 -0.0046532708
0.0066298302 0.00127 -0.0084570097
0.010762711 0.00127 -0.0084570097
0.009901695 0.00127 -0.0010224299
-0.0026691526 0.00072571426 -0.0063822428
0.011623728 0.00127 -0.0022327101
-0.012312542 -0.00054428569 -0.0084570097
-0.0066298302 0.00018142856 -0.0091485977
0.0097294915 0.00127 -0.0010224299
-0.012484745 0.00072571426 -0.0084570097
0.0016359321 0.00018142856 -0.011914953
0.0080074575 -0.00127 -0.0024056074
-0.012312542 -0.00072571426 -0.0084570097
-0.0074908473 0.00054428569 -0.00033084108
0.014206779 -0.00018142856 -0.0098401867
-0.00043050846 0.00072571426 -0.00015794388
0.013690169 0 0.0020897198
-0.012312542 -0.00036285713 -0.0084570097
0.0080074575 -0.0010885714 -0.0024056074
-0.00043050846 -0.00072571426 -0.00015794388
0.011279321 -0.00018142856 -0.011914953
-0.0074908473 0.00036285713 -0.00033084108
0.0035301694 -0.00036285713 -0.00033084108
-0.0078352541 0.00054428569 -0.0062093455
0.013862372 -0.00090714288 -0.00015794388
0.013862372 -0.0010885714 -0.00015794388
-0.012484745 0.00054428569 -0.0084570097
0.00611322 -0.00018142856 -0.010531776
0.00094711862 0 -0.011223365
0.014206779 -0.00018142856 0.0020897198
0.013690169 0.00127 -0.00015794388
-0.00025830508 -0.00072571426 -0.00015794388
-0.012484745 0.00036285713 -0.0084570097
-0.0090406779 0.00036285713 -0.0060364483
-0.013862372 0.00018142856 -0.012260747
-0.013690169 0.00090714288 -0.00655514
0.014206779 -0.00018142856 0.00087943929
-0.012484745 -0.00036285713 -0.0084570097
0.00094711862 0 -0.0098401867
-0.012140338 -0.00054428569 -0.0084570097
-0.0052522034 -0.00036285713 -0.00033084108
-0.012140338 -0.00072571426 -0.0084570097
0.011279321 -0.00018142856 0.0020897198
0.0035301694 0.00054428569 -0.00033084108
0.011451525 -0.00036285713 0.0020897198
0.00094711862 0.00018142856 -0.0098401867
0.014723389 0.00127 -0.00655514
-0.00060271187 -0.00072571426 -0.00015794388
0.011451525 0.00036285713 0.0020897198
-0.011451525 -0.00036285713 -0.013298131
0.0035301694 0.00036285713 -0.00033084108
0.011451525 0.00036285713 -0.0096672894
-0.0052522034 0.00036285713 -0.00033084108
-0.0035301694 0.00090714288 -0.0063822428
0.0054244064 0.00127 -0.00655514
-0.01524 -0.00036285713 -0.0069009345
0.011795931 0.0010885714 -0.0024056074
0.011279321 -0.00018142856 -0.0056906543
-0.00611322 0.00018142856 -0.0091485977
0.00611322 -0.00018142856 -0.0048261681
-0.0016359321 -0.00018142856 -0.013125233
-0.0078352541 0.00090714288 -0.0062093455
-0.0078352541 0.00072571426 -0.0062093455
-0.012312542 0.00072571426 -0.0084570097
-0.012312542 0.00054428569 -0.0084570097
0.00094711862 0.00018142856 -0.011223365
-0.00060271187 0.00072571426 -0.00015794388
-0.012312542 0.00036285713 -0.0084570097
0.010418305 0.00127 -0.0010224299
-0.012656949 0.00090714288 -0.0063822428
0.0080074575 0.00054428569 -0.00033084108
-0.0073186439 0.00090714288 -0.0062093455
0.00611322 -0.00018142856 -0.011396262
-0.011279321 -0.00072571426 -0.0084570097
-0.011279321 -0.00054428569 -0.0084570097
-0.001119322 -0.00072571426 -0.00015794388
-0.014206779 -0.00018142856 -0.013471028
-0.0073186439 0.00072571426 -0.0062093455
0.014206779 -0.00018142856 -0.011742056
-0.0074908473 0.00072571426 -0.00015794388
0.0047355932 0.00127 -0.0077654202
-0.00094711862 0 -0.013125233
-0.0038745762 0.00036285713 -0.0088028032
0.014034576 -0.00090714288 -0.00015794388
-0.014206779 0 -0.013471028
-0.013862372 0.00018142856 -0.011050467
0.010590509 0.00127 -0.0084570097
-0.00094711862 0 -0.011569159
-0.011451525 0.00072571426 -0.0084570097
0.010762711 -0.00127 -0.0084570097
0.014034576 -0.0010885714 -0.00015794388
-0.011451525 0.00054428569 -0.0084570097
0.010762711 -0.0010885714 -0.0084570097
-0.0073186439 0.00054428569 -0.0062093455
-0.00611322 0.00018142856 -0.01087757
0.0064576268 0.00127 -0.0084570097
-0.00611322 0.00018142856 -0.013298131
0.0049077966 0.00127 -0.0077654202
0.010590509 0.00127 -0.0010224299
0.0037023728 0.00054428569 -0.00033084108
0.0037023728 0.00036285713 -0.00033084108
-0.011451525 0.00036285713 0.00053364487
-0.0012915254 -0.00018142856 -0.014854206
-0.014206779 0 -0.0051719625
0.00611322 -0.00018142856 0.0020897198
-0.0066298302 0.00127 -0.0063822428
0.0016359321 0.00018142856 0.0017439253
-0.00508 0.00054428569 -0.00033084108
-0.00508 0.00036285713 -0.00033084108
0.0080074575 0.00036285713 -0.00033084108
-0.0012915254 0.00072571426 -0.00015794388
-0.0035301694 0.00018142856 -0.0037887851
-0.0071464404 -0.00054428569 -0.0062093455
-0.0071464404 -0.00072571426 -0.0062093455
-0.014034576 -0.00127 -0.0075925235
-0.0038745762 -0.00036285713 -0.0088028032
-0.011279321 0.00072571426 -0.0084570097
0.010590509 0.00054428569 -0.0084570097
0.006974237 0.00054428569 -0.0063822428
0.0064576268 0.00018142856 -0.014681309
-0.0071464404 -0.00090714288 -0.0062093455
-0.011279321 0.00054428569 -0.0084570097
-0.00611322 0.00018142856 -0.013816822
-0.0016359321 -0.00018142856 -0.012606542
-0.011795931 0.00036285713 -0.0084570097
-0.014034576 0.00127 -0.0075925235
-0.011795931 0.00054428569 -0.0084570097
-0.011795931 0.00072571426 -0.0084570097
-0.011623728 -0.00072571426 -0.0084570097
-0.011623728 -0.00054428569 -0.0084570097
0.011795931 -0.00072571426 -0.0024056074
-0.011795931 -0.00036285713 -0.0084570097
0.00611322 -0.00018142856 -0.01208785
-0.00094711862 -0.00072571426 -0.00015794388
-0.013862372 0.00018142856 -0.013471028
-0.0074908473 -0.00090714288 -0.0062093455
-0.011623728 0.00036285713 -0.0084570097
-0.011623728 0.00054428569 -0.0084570097
-0.0074908473 -0.00072571426 -0.0062093455
-0.011623728 0.00072571426 -0.0084570097
-0.0037023728 -0.0010885714 -0.0024056074
0.011795931 0.00127 -0.0069009345
-0.011795931 -0.00054428569 -0.0084570097
-0.013690169 0 -0.013471028
0.010073898 0.00127 -0.0010224299
-0.011107118 0 -0.013298131
-0.011795931 -0.00072571426 -0.0084570097
-0.0052522034 0.00054428569 -0.00033084108
0.0045633898 0.00127 -0.0077654202
0.010762711 0.00054428569 -0.0084570097
-0.001119322 -0.00090714288 -0.0062093455
0.013690169 0 -0.011742056
-0.011968135 0.00072571426 -0.0084570097
-0.011968135 0.00054428569 -0.0084570097
-0.0074908473 0.00090714288 -0.0062093455
0.011623728 -0.00072571426 -0.0024056074
-0.00508 -0.00036285713 -0.00033084108
-0.011451525 -0.00054428569 -0.0084570097
-0.001119322 0.00072571426 -0.00015794388
0.010762711 -0.00090714288 -0.0084570097
-0.0073186439 -0.00054428569 -0.0062093455
-0.014206779 -0.00018142856 -0.0051719625
-0.0073186439 -0.00072571426 -0.0062093455
-0.0073186439 -0.00090714288 -0.0062093455
0.013862372 0.00127 -0.00015794388
-0.00060271187 0.00036285713 -0.00033084108
-0.011451525 -0.00072571426 -0.0084570097
0.0068020336 0.00127 -0.0084570097
-0.0074908473 0.00072571426 -0.0062093455
-0.001119322 -0.00036285713 -0.00033084108
-0.0074908473 0.00054428569 -0.0062093455
0.011451525 0.00127 -0.0022327101
0.011623728 -0.00127 -0.0022327101
0.014206779 0.00127 -0.0067280373
0.010246102 0.00127 -0.0010224299
-0.0016359321 -0.00018142856 -0.005517757
-0.0016359321 0 -0.005517757
-0.00060271187 0.00054428569 -0.00033084108
-0.014034576 0.00018142856 -0.013471028
0.00094711862 0 -0.01087757
0.0037023728 -0.00036285713 -0.00033084108
-0.0074908473 -0.00054428569 -0.0062093455
0.00094711862 0.00018142856 -0.01087757
0.0043911864 0.00127 -0.0074196262
0.0045633898 0.00127 -0.0074196262
-0.0086962711 -0.00036285713 -0.0060364483
0.0088684745 0.00127 -0.0010224299
0.014206779 0 -0.0027514019
0.014206779 0.00018142856 -0.0027514019
-0.0085240677 0.00054428569 -0.0062093455
-0.0086962711 0.00018142856 0.0022626168
-0.0086962711 0 0.0022626168
-0.013345762 -0.00054428569 -0.0084570097
0.00094711862 -0.00072571426 -0.0062093455
-0.013345762 -0.00036285713 -0.0084570097
-0.0086962711 0 -0.01208785
0.015067796 0.0010885714 -0.00050373829
0.00094711862 -0.00090714288 -0.0062093455
0.00094711862 -0.00018142856 -0.0060364483
-0.013345762 0.00036285713 -0.0084570097
-0.00094711862 0 0.0017439253
-0.013345762 -0.00072571426 -0.0084570097
0.011451525 -0.00036285713 0.00087943929
-0.0086962711 0 -0.0060364483
0.0047355932 0.00127 -0.0074196262
-0.0086962711 0.00018142856 -0.0060364483
-0.0086962711 0.00018142856 -0.0046532708
-0.0086962711 0 -0.0044803736
0.013690169 0 0.00036074768
-0.013345762 -0.00127 -0.0084570097
-0.013517966 0.00127 -0.0084570097
0.0035301694 -0.00018142856 -0.010531776
0.00060271187 0.00072571426 -0.00015794388
0.011279321 -0.00018142856 -0.0051719625
0.011107118 0 -0.0094943922
-0.0085240677 0.00072571426 -0.0062093455
-0.013173559 0.00036285713 -0.0084570097
0.011968135 0.00072571426 -0.0024056074
0.003357966 -0.00036285713 -0.00033084108
0.00043050846 0.00072571426 -0.00015794388
0.011107118 0 -0.0051719625
0.0090406779 0.00127 -0.0010224299
-0.013173559 -0.00036285713 -0.0084570097
-0.0083518643 -0.00072571426 -0.00015794388
-0.013173559 -0.00054428569 -0.0084570097
-0.014378983 0.00054428569 -0.0022327101
-0.013173559 -0.00072571426 -0.0084570097
0.00094711862 0 -0.005517757
0.011451525 0.00036285713 0.00087943929
-0.0085240677 0.00090714288 -0.0062093455
0.0049077966 0.00127 -0.0074196262
0.011279321 -0.00018142856 -0.0037887851
0.013690169 -0.00090714288 -0.00015794388
0.013690169 -0.0010885714 -0.00015794388
0.00094711862 0.00018142856 -0.005517757
-0.013173559 -0.00127 -0.0084570097
-0.013345762 0.00127 -0.0084570097
0.00094711862 0 -0.012606542
-0.0086962711 0.00018142856 -0.01208785
0.00060271187 -0.00072571426 -0.00015794388
-0.013345762 0.00072571426 -0.0084570097
0.00094711862 0.00018142856 -0.012606542
-0.0086962711 0.00018142856 -0.0044803736
-0.013345762 0.00054428569 -0.0084570097
0.0059410166 0.00127 -0.0074196262
0.0049077966 0.00127 -0.00067663548
-0.013690169 -0.00054428569 -0.0084570097
0.00611322 0.00127 -0.0074196262
-0.013690169 -0.00036285713 -0.0084570097
0.011279321 -0.00018142856 -0.0094943922
-0.0064576268 0.00072571426 -0.0063822428
0.0081796609 -0.00127 -0.00033084108
0.011279321 -0.00018142856 -0.0030971961
0.00508 -0.00127 -0.00067663548
0.0016359321 0.00018142856 -0.005517757
-0.01524 -0.00054428569 -0.0069009345
-0.013862372 0.00018142856 -0.0036158878
-0.013690169 0.00036285713 -0.0084570097
0.0057688132 0.00127 -0.0074196262
-0.013690169 0.00054428569 -0.0084570097
0.0080074575 0.00127 -0.00033084108
0.011107118 0 -0.0030971961
