# .PCD v0.7 - Point Cloud Data file format
VERSION 0.7
FIELDS x y z
SIZE 4 4 4
TYPE F F F
COUNT 1 1 1
WIDTH 1185
HEIGHT 1
VIEWPOINT 0 0 0 1 0 0 0
POINTS 1185
DATA ascii
0.014261045 -0.0012699942 -0.0018127495
-0.00029103892 -0.0012699943 -0.017443137
0.00014552366 -0.0012699991 -0.017735291
0.00014552745 -0.00031749476 -0.010285295
0.0026193785 0.00015875112 -0.024308823
0.0052387509 -0.00031750023 -0.011161771
0.0049477038 -0.00031750565 -0.010723529
0.0052387491 -0.0012700019 -0.017443139
0.0048021837 -0.00127 -0.017443143
0.0049477033 -0.0003174977 -0.0082402024
0.0049477033 0.00015874609 -0.008240195
0.0052387449 -0.00031749488 -0.0082401959
0.0087312497 -0.0012700002 -0.001812744
0.0087312497 -0.0012699948 -0.0022509811
0.0026193769 -0.00031750166 -0.014229417
0.0026193804 0.00015875098 -0.015836272
0.0026193697 -0.00031750288 -0.015836271
0.0033469768 -0.0009524941 -0.017443137
0.00014551624 -0.00031750559 -0.012330394
0.004947714 -0.00031749543 -0.0041500027
0.0026193708 -0.00031750233 -0.0057568648
0.00014552585 -0.00031750076 0.00081666932
0.0013096821 -0.00084666279 -0.00040065497
0.0021828169 -0.0012699957 -0.0012284303
0.0017462564 -0.001269996 -0.001228435
0.0017462474 -0.00031749977 -0.00035195984
0.00072759873 -0.00079375639 -0.0022509792
0.0013096908 -0.001269995 -0.00079019461
0.00072759809 -0.0012699935 -0.0012284378
0.0017462443 -0.0012699937 -0.0018127477
0.0052387486 -0.00031749753 -0.0057568583
-0.0033469766 -0.00079375639 -0.0022509815
0.014261045 -0.0012699948 -0.0007901974
0.013242398 -0.0012699973 -0.0012284294
0.013242393 0.0012699942 -0.00079019181
0.012223753 0.00084666262 -0.00040064938
0.01076854 -0.0012699954 -0.00079019647
0.01120511 -0.00031749826 -0.00035196263
-0.032887708 0.00015875483 -0.011746073
-0.033178743 -0.00031749357 -0.016712736
-0.032742191 -0.00079375639 -0.017735295
-0.032742191 -0.0012700025 -0.0022509838
-0.0321601 -0.0012699948 -0.0022509824
-0.033178747 -0.00031750306 -0.0088245152
-0.029831776 -0.0012699995 -0.0022509778
-0.030559378 -0.00031749817 -0.0047343154
-0.030559376 0.00015874715 -0.0053186254
-0.030559376 -0.00031749337 -0.0053186254
-0.027940007 -0.00031749753 -0.0057568662
-0.027940007 0.00015874898 -0.0057568611
-0.027940007 -0.00031750399 -0.0053186282
-0.027940001 0.00015875003 -0.0061951
-0.027940003 -0.00031749706 -0.0061950958
-0.034779485 -0.0012699978 -0.0018127514
-0.033178758 0.00015874414 -0.0032735337
-0.036816772 0.0012700013 -0.0007902002
-0.037253343 0.0012700027 -0.0012284331
-0.033178747 0.0001587563 -0.013206868
-0.03317875 0.00015874377 -0.013791171
-0.03317875 0.00015875488 -0.014229409
-0.038126469 0.00015875153 -0.0097009772
-0.03172354 -0.0012699943 -0.0018127384
-0.0056753079 -0.0012699981 -0.0018127412
-0.010331982 -0.0012699983 -0.0007902002
-0.010768538 0.00079375337 -0.0022509736
-0.012223754 -0.0012699977 -0.00035196077
-0.0017462557 -0.0012699951 -0.0012284257
-0.0023283281 -0.00031749575 -0.0072176456
-0.0023283358 -0.00031749482 -0.0061951019
-0.0026193783 -0.00031750227 -0.0047343108
-0.0021828176 -0.0012699974 -0.0018127393
-0.0017462452 -0.00079375238 -0.0022509792
0.00014552698 -0.001270002 -0.0012284312
0.0001455239 -0.0012700015 -0.0018127477
-0.00072761055 -0.0012699972 -0.001812743
-0.00029104089 -0.0012699972 -0.0007902002
-0.002619378 0.00015874403 0.0012548976
-0.0097498968 -0.001270004 -0.0003519617
-0.006839484 -0.0012700012 -0.001228435
-0.0082946904 -0.001269997 -0.00079019647
-0.00029104095 0.00015874702 -0.023724513
-0.0026193757 0.0001587435 -0.023724515
9.7011187e-05 0.00010583934 -0.023286268
-0.0023283325 -0.0003175039 -0.025185298
-0.0026193801 -0.00031749386 -0.025185296
-0.0026193759 -0.00031749759 -0.024308823
-0.00029104468 0.00015874357 -0.021679409
0.0017462459 0.00015875458 -0.019780392
0.00014552515 0.00015875198 -0.019780394
-0.0026193808 -0.00031749983 -0.023286276
-0.0052387537 0.00015874724 -0.023724506
-0.0052387551 0.00015875635 -0.024747059
0.0023283358 0.00015875578 -0.022263724
0.0026193713 -0.00031749337 -0.021241182
0.0023283316 0.00015875392 -0.021241184
-0.0052387556 0.0001587529 -0.020802937
-0.004947714 -0.00031750015 -0.022848036
-0.025611667 -0.00031749409 -0.024747057
-0.025611661 -0.00031750093 -0.024454908
-0.025611661 -3.3287506e-09 -0.024308827
-0.025611663 -0.00031749933 -0.023724515
-0.027939996 0.00015875667 -0.024308819
-0.027940003 -0.00031750617 -0.024747061
-0.018044582 0.00015875165 -0.020072544
-0.018772189 0.00079375535 -0.019342151
-0.017753547 -0.00031749878 -0.020802945
-0.018044582 -0.0003175048 -0.01978039
-0.017462498 8.7675289e-10 -0.020802934
-0.017753536 -0.00031749869 -0.021241169
-0.017753549 -0.00031750646 -0.021679411
-0.017753541 0.00015874507 -0.021679413
-0.017753543 -0.00031750265 -0.020218629
-0.020227401 -0.00031749843 -0.020218626
-0.019354267 -0.0012699936 -0.019342151
-0.01979083 -0.0012699962 -0.019342162
-0.019354276 -0.000793749 -0.019342158
-0.020227399 0.0001587556 -0.020218626
-0.022846777 -0.00031750268 -0.020802945
-0.016152812 -0.0012699944 -0.018903919
-0.028667601 -0.0012699985 -0.018757839
-0.02633927 0.00079375517 -0.019342158
-0.029831771 0.0012699949 -0.017735291
-0.028667599 0.0012699999 -0.017735291
-0.029104168 0.0006350039 -0.017443132
-0.029977288 0.00063500222 -0.017443137
-0.029831771 0.00063499663 -0.018757839
-0.028231042 0.001270003 -0.017735291
-0.030559374 0.00015874908 -0.01320686
-0.029249683 0.00074083789 -0.019390849
-0.02866761 0.00074083853 -0.019390848
-0.028231049 2.1645974e-09 -0.014229419
-0.03026833 -3.0777301e-09 -0.012768631
-0.03055938 -0.00031749968 -0.012768625
-0.030559378 -0.00031749386 -0.012330389
-0.030559374 -0.00031750303 -0.023578428
-0.027939998 0.00015875258 -0.022848044
-0.027940003 3.2996468e-09 -0.025769606
-0.028231043 -1.5679689e-09 -0.024308827
-0.028231038 -2.75395e-09 -0.024747053
-0.027940005 0.00015875317 -0.024747062
-0.027939996 0.00015875627 -0.023724511
-0.035604089 0.00010582672 -0.023724508
-0.025320631 -0.0003175032 -0.0053186323
-0.025611669 -0.00031750381 -0.0047343182
-0.02328334 -0.0012699969 -0.00079020206
-0.023719901 -0.0012699966 -0.00079019926
-0.02371989 -0.0012699944 -0.0012284368
-0.024301978 -0.0012700002 -0.001228434
-0.025611663 -0.00031749395 -0.016566662
-0.025611661 -0.00031749511 -0.01627451
-0.025320623 0.00015874702 -0.016274514
-0.027939994 -0.00031749933 0.0008166628
-0.026775835 0.0001587505 -0.00035196077
-0.027212402 -0.0012700002 -0.00035196543
-0.027794475 -0.0012699935 -0.00035196636
-0.027794475 -0.0012699944 -0.00079018995
-0.02633927 -0.0012699972 -0.00035196543
-0.025757188 -0.0012699966 -0.00035196729
-0.026339274 -0.0012699999 -0.00079018902
-0.026339274 -0.00031749357 -0.00035196077
-0.02633927 0.00015875179 -0.00035196356
-0.025611674 -5.0567905e-09 0.0027156882
-0.031286977 -0.0012699945 -0.0022509801
-0.031286985 -0.00079375296 -0.0022509829
-0.031723548 -0.00079374557 -0.0022509838
-0.020809479 -0.0012699942 -0.00079019833
-0.020809479 -0.0012699951 -0.0018127449
-0.0052387496 0.00015874936 -0.013791176
-0.0023283279 -0.00031750559 -0.014229418
-0.0049477126 -0.00031749529 -0.014229409
0.00014552331 -0.00031750233 -0.01379117
-0.0023283293 -0.0003175021 -0.013206859
-0.0052387454 -0.00031749546 -0.0053186235
-0.0076640937 0.00010583765 -0.0041499943
-0.010186455 -0.0003174989 -0.0047343113
-0.0076640928 0.00010583938 -0.0053186314
-0.0052387556 0.00015875255 -0.0047343136
-0.011205103 0.0001587529 -0.017443132
-0.0076640965 0.00010583903 -0.016274506
-0.035604097 3.8162398e-09 -0.025720917
-0.035507083 -0.00031750393 -0.025623523
-0.035216045 -1.2660166e-09 -0.023724513
-0.03172354 -0.0012699951 -0.018757839
-0.030704901 -0.0012700037 -0.018173534
-0.031286981 -0.0012699963 -0.019196086
-0.030268339 -0.00063500192 -0.019780388
-0.027940007 0.00015875578 -0.012768624
-0.025320623 -0.00031749677 -0.013791176
-0.025611665 -0.00031750437 -0.015251964
-0.025320623 -0.00031750472 -0.015836276
-0.028231038 4.0854502e-09 -0.013206866
-0.032887708 -0.00031750402 -0.013791181
-0.032887712 -0.00031750026 -0.015251955
-0.033178743 -0.00031750495 -0.015836272
-0.032887708 -0.00031749369 -0.015836269
-0.032887708 -0.00031749796 -0.016274512
-0.031723544 -0.0003174966 -0.017443132
-0.030268338 -6.4646883e-09 -0.0097009744
-0.03055937 -0.00031749587 -0.0092627425
-0.028231038 -1.36788e-09 -0.010285287
-0.033178754 -0.00031749491 -0.010723531
-0.035216048 -0.00079375569 -0.017735301
-0.036816776 -0.0012700037 -0.018173527
-0.033178758 0.00015875325 -0.01583628
-0.032887708 0.0001587493 -0.016274508
-0.032887708 0.00015875291 -0.010285293
0.0091678072 -0.0012699955 -0.0018127421
0.010768544 -0.0012700025 -0.0018127412
0.0091678118 -0.00079374935 -0.0022509741
0.0091678128 -0.00031750131 -0.0022509773
0.015716249 -0.0012700016 -0.018173534
0.018190106 0.001269997 -0.019342164
0.017753536 0.0012699954 -0.018757842
0.017462507 -0.00031749968 -0.01978039
0.014261038 -0.0012699952 -0.019342162
0.015279694 -0.0012700059 -0.019342162
0.015716247 -0.0012699987 -0.01934216
0.015279683 -0.00031750265 -0.020218629
0.014697606 -0.00079375453 -0.019342156
0.01615281 -0.00079375296 -0.019342158
0.01615281 -0.00031749727 -0.019342164
0.016734898 -0.00079375028 -0.019342154
0.015716255 -0.0012699941 -0.018757842
0.015279686 -0.0012699942 -0.018757842
0.013824482 0.00015875191 -0.017443135
0.020809473 0.00079374365 -0.019342165
0.021682611 0.0012699957 -0.018173531
0.02284677 0.00015875102 -0.013206861
0.025320631 0.00015875376 -0.011161764
0.025611667 8.6220098e-10 -0.011161771
0.025611661 4.5292836e-09 -0.011746073
0.022992294 -0.00031749808 -0.012768625
0.020227399 -0.00031750248 -0.016712748
0.022798263 0.00010583855 -0.010723535
0.022992289 -0.00031750271 -0.010723533
0.022798268 0.00010582971 -0.011161763
-0.017753545 0.00015874434 -0.014667651
-0.017753538 -0.00031749686 -0.014667653
-0.01775354 -0.00031750073 -0.014229408
-0.017753541 0.00015875537 -0.013206857
-0.017753543 -0.00031750172 -0.012768622
-0.017753543 0.00015874532 -0.01276863
-0.015716247 0.00079375046 -0.019342162
-0.015716257 0.0012699964 -0.018903926
-0.017753543 -0.0003175 -0.016712742
-0.018190105 -0.0012699976 -0.018319611
-0.018190108 -0.00031750355 -0.017443134
-0.010186457 -0.00031750076 -0.014667645
-0.0052387486 0.00015874821 -0.015836269
-0.0052387509 -0.00031750061 -0.01583628
-0.009895415 -6.6465873e-09 -0.015251959
-0.0052387537 0.00015874824 -0.013206865
-0.0052387468 0.00015874552 -0.01671274
-0.0052387514 0.0001587484 -0.010285296
-0.0049477145 0.00015875525 -0.010723531
-0.0076640965 0.00010582794 -0.011746074
-0.0076641031 -0.00031749351 -0.0122817
-0.0076640965 0.00010583278 -0.010723531
-0.0052387468 0.00015874619 -0.011161759
-0.009749894 0.0012699997 -0.018027449
-0.019790836 -0.0012699988 -0.018757846
-0.017753543 0.00015875301 -0.013791181
-0.017753541 -0.00031749604 -0.013791176
-0.017753538 -0.00031749957 -0.013206856
-0.017753543 -0.0003175044 -0.012330398
-0.017753541 -0.00031750643 -0.011161759
-0.01775354 0.0001587507 -0.011161761
-0.017753545 -0.00031749354 -0.010723529
-0.014697599 -0.00031750248 -0.017443132
-0.016152812 -0.00031749345 -0.017443135
-0.025611663 0.00010583551 -0.022215035
-0.022846771 0.0001587547 -0.022848036
-0.022846777 -0.00031749831 -0.023286277
-0.022846775 0.00015875172 -0.023286272
-0.0049477099 0.00015874786 -0.0092627499
-0.0049477131 0.0001587467 -0.0097009847
-0.034779482 0.00079375412 -0.0022509848
-0.035216041 0.00079374883 -0.0022509848
-0.0356526 0.00079375348 -0.0022509848
-0.035604097 0.00010583008 -0.0037117684
-0.038271982 0.00079375203 -0.017735299
-0.038126465 0.00015874572 -0.015251955
-0.038126457 -0.00031749628 -0.015251959
-0.038126461 -0.0003174973 -0.015836278
-0.036865275 -0.00074082875 -0.017443141
-0.031286981 0.00015874988 -0.017443134
-0.037253331 0.0012699959 -0.001812743
-0.038271982 0.0012699947 -0.0012284275
-0.03885407 0.0012699997 -0.00079019833
-0.03681678 0.00015875265 -0.00035195705
-0.037253343 0.00015874466 -0.00035196356
-0.038126465 -0.00031750352 -0.0032735276
-0.038854059 -0.0012699948 -0.0022509857
-0.038126454 -0.00031749567 -0.0057568643
-0.040454794 1.1386874e-09 -0.0088245077
-0.040454794 0.00015874763 -0.015251966
-0.040745832 0.00015874823 -0.015251965
-0.038854066 0.00015875301 -0.0022509745
-0.035604108 0.00010583215 -0.0088245124
-0.035604093 0.00010583509 -0.0092627499
-0.035507083 -0.00031750431 -0.0092627499
-0.035507087 -0.00031749718 -0.0088245058
-0.033178754 0.00015875297 -0.0097009838
-0.035604101 0.00010583925 -0.01116177
-0.035507087 -0.00031750061 -0.0067794118
-0.033178743 -0.00031750088 -0.0076558846
-0.032887712 -0.00031749642 -0.0076558832
-0.040745839 -0.00031750515 -0.012330397
-0.040745839 -0.00031749764 -0.015251962
-0.034779482 0.00079374929 -0.0003519645
-0.032887708 -0.00031750478 0.0016931351
-0.033178747 -0.0003175048 0.00081667304
-0.032160096 -0.0012700019 -0.00079020113
-0.025175108 -0.0012700038 -0.0012284378
-0.028231043 0.00079375412 -0.0022509838
-0.027212393 0.00079374766 -0.0022509829
-0.026775837 0.00079374691 -0.0022509736
-0.021682611 -0.0012699947 -0.0003519617
-0.023719896 -0.0003175021 -0.00035196077
-0.021246042 0.00015875655 -0.0022509857
-0.021246044 -0.00031749747 -0.0022509792
-0.025757184 0.0007937511 -0.0022509866
-0.024301978 0.00084667117 -0.00040065311
-0.024301976 0.00015875665 -0.00035196263
-0.022264693 -0.0012699937 -0.0012284378
-0.022846766 -0.0012700054 -0.001228434
-0.039290622 0.00079374679 -0.0003519617
-0.0033469857 0.00079374557 -0.0022509857
0.0098954132 0.00031750611 -0.003273529
0.011205101 -0.00084666559 -0.00040065777
0.010768543 -0.00084666302 -0.00040064938
0.010186465 -0.00031750498 0.00081666186
0.012805834 -0.00031749549 -0.0037117633
0.0087312516 0.0012700034 -0.00079019461
0.0087312544 0.0012699936 -0.0012284368
0.009749895 -0.0012699993 -0.00035196636
-0.025320627 -0.00063499471 -0.017443132
-0.025757182 -0.00063499354 -0.017443139
-0.025320625 -0.00031750469 -0.016274512
-0.026775833 -0.00063499971 -0.017443141
-0.026775835 -0.00031749447 -0.017443143
-0.027212393 -0.0012699938 -0.017735295
-0.027940001 -0.00031750623 -0.01627451
-0.027212398 -0.00063499709 -0.017443137
-0.022846766 0.00015875406 -0.021241181
-0.024738543 -0.0012699969 -0.018757846
-0.025611665 4.8603397e-09 -0.021241169
-0.025320632 -0.00031749383 -0.021679416
-0.026775839 -0.00079375139 -0.019342156
-0.020227391 0.00015875226 -0.013791171
-0.017753547 0.00015875406 -0.010723523
-0.017753543 0.00015875319 -0.010285295
-0.020248188 0.00013606624 -0.012309524
-0.025611661 -0.00031750469 -0.014667645
-0.025611661 -2.3901521e-09 -0.015251959
-0.022264697 -0.00031750262 -0.017443139
-0.019790834 -0.0003174982 -0.017443141
-0.019354273 -0.00031749409 -0.017443135
-0.020809479 -0.00031750163 -0.017443141
-0.022846775 -0.00031749901 -0.016274508
-0.022846773 -0.00031750576 -0.015836278
-0.039290629 0.00063499692 -0.019342158
-0.035604093 0.00010583947 -0.016274508
-0.036816776 -0.00031750472 -0.017443143
-0.035507075 -0.00031750192 -0.016274512
-0.036234688 -0.00031750539 -0.017443143
-0.035604104 0.00010582889 -0.016712749
-0.030559372 0.00015874876 -0.022848042
-0.030559381 -0.00031749392 -0.022263724
-0.032887705 0.00015875377 -0.020802941
-0.031723548 0.00015874697 -0.017443132
-0.032742191 -0.00031750638 -0.019780392
-0.033324268 0.0007408362 -0.019390846
-0.033760831 0.00063499983 -0.018757842
-0.02823104 -4.1109161e-09 -0.0041500027
-0.030268339 0.00010583464 -0.0052699307
-0.030559372 0.00015874552 -0.005756869
-0.030559374 -0.00031749686 -0.0088245077
-0.02371989 -0.0012699972 -0.0018127458
-0.023283336 -0.0012699962 -0.0018127495
-0.024301982 -0.00031750131 -0.00035195611
-0.032887712 -0.00031750445 -0.023286276
-0.040454797 0.00015874472 -0.021241184
-0.038126461 -0.00031750579 -0.021241177
-0.038126465 0.00015874904 -0.021241173
-0.036962289 0.00079375302 -0.017443139
-0.037253335 0.00063499383 -0.017443137
-0.036234688 0.00079374865 -0.017735291
-0.038126465 -0.00031749613 -0.013791181
-0.038126461 -0.00031750594 -0.016274508
-0.035604101 0.00010583254 -0.022263728
-0.035216052 0.00063499517 -0.018757839
-0.0021828082 0.00015875131 -0.019342165
-0.0017462459 -2.226443e-09 -0.019780394
-0.0017462519 0.00015875208 -0.018757846
-0.0049477038 -0.00031750527 -0.021241181
-0.020227397 0.00015874527 -0.024308819
-0.022846766 0.00015874392 -0.025185294
-0.02284677 -0.00031750064 -0.024747062
-0.022846771 0.00015874939 -0.024747061
-0.01775354 0.00015875466 -0.025185298
-0.017753543 -0.00031750445 -0.02562353
-0.017753541 3.2741809e-11 -0.025769614
-0.015279693 0.00015875392 -0.024747055
-0.022846768 0.00015874459 -0.023724511
-0.020227399 0.00015875253 -0.023286276
-0.010186465 0.00015875138 -0.021241173
-0.010186456 0.0001587452 -0.021679405
-0.010186462 0.00015875195 -0.022263717
-0.013824486 -0.0012699935 -0.019342162
-0.012660312 -0.00031750355 -0.020218626
-0.012223748 -0.00031749817 -0.019780386
-0.03055938 0.00015875568 -0.016712742
-0.030559372 0.00015875413 -0.016274516
-0.030268336 0.00063499511 -0.017443143
-0.02823104 3.0413503e-09 -0.015251956
-0.030268338 0.00010583701 -0.014618959
0.0052387561 -0.00031749549 -0.013206868
0.0052387565 -0.00031749398 -0.012768624
0.0049477057 -0.00031750623 -0.012768628
0.0052387556 -0.00031749893 -0.012330389
0.0049477029 -0.00031749631 -0.012330393
0.0049477052 0.00015875197 -0.011746082
0.01018646 -0.00031749828 -0.014667653
0.015279689 -0.00031750443 -0.011746079
0.015279694 0.00015874619 -0.011746077
0.015279693 -0.00031749465 -0.011161767
0.015279693 0.00015875374 -0.012330393
0.0098954113 0.00063499791 -0.01978039
0.010186457 0.00063500035 -0.019780397
0.01105959 0.00095250574 -0.019780392
0.012805828 -0.00031750058 -0.020218626
0.0091678137 0.001269997 -0.018903919
0.012660313 0.00015874999 -0.0067794062
0.012660318 0.00015875652 -0.0082401922
0.012805827 -0.00031749535 -0.0082401969
0.012805829 -0.00031749517 -0.0076558776
0.010186454 0.00015874355 -0.0072176401
0.010186461 -0.00031749831 -0.0067794127
0.010186457 -0.00031749983 -0.0072176438
0.010186462 -0.00031750207 -0.0092627509
0.010186461 0.00015874642 -0.0088245133
0.010186461 0.00015874716 -0.011161761
0.012805831 -0.00031749759 -0.0088245161
0.015279693 -0.00031749759 -0.0088245096
0.0052387561 0.00015875461 -0.0088245152
0.0052387458 0.00015874788 -0.0092627406
0.0052387565 0.00015875653 -0.0082401987
0.0087312544 0.0012699945 -0.0022509815
0.010186457 -0.00031750437 -0.007655886
0.0076640928 0.00010583832 -0.0082401969
0.0075670839 -0.00031750524 -0.0076558809
0.010186455 0.00015874754 -0.014229411
0.010186455 -0.00031749942 -0.014229408
0.010186459 0.00015875571 -0.014667646
0.010186458 -0.0003175055 -0.013791181
0.010186452 0.00015875569 -0.01379117
0.010186455 0.0001587492 -0.012768624
0.0076640979 0.00010583349 -0.015251962
0.007567083 -0.00031750315 -0.015251955
0.0076640984 0.00010583387 -0.014667644
0.0075670877 -0.00031749485 -0.014229413
0.0075670835 -0.00031750387 -0.014667645
0.0076641003 0.00010582768 -0.014229409
0.0076641017 0.00010582754 -0.013206862
0.007567083 -0.00031749712 -0.016274512
0.015279693 0.00015874628 -0.016274512
0.010186457 0.0001587475 -0.0041500046
0.010186455 0.00015874767 -0.0037117703
0.0075670872 0.00015875167 -0.0047343192
0.011787194 0.00015874866 -0.0022509769
0.012223749 0.0012700006 -0.018027447
0.012660309 0.00015875137 -0.013206858
0.013096876 0.0012700008 -0.017735299
0.0049477103 0.00015874441 -0.010723529
0.0049477117 0.00015874478 -0.01320686
0.0062573929 -0.00031750367 -0.017443137
0.0075670877 -0.00031750617 -0.016712744
0.0082946895 -0.00031749517 -0.017443139
0.0052387505 -0.00031750533 -0.014667647
0.0046566729 0.00095249794 -0.017443135
0.0091678156 0.00079375372 -0.019488238
0.0087312469 -0.00031749686 -0.017443139
0.0087312469 0.00015874462 -0.017443132
0.0098954178 0.00015875163 -0.01671274
0.010186457 0.000158756 -0.016274506
0.0082946811 -0.00079374993 -0.01948823
0.0081491657 0.00015874478 -0.019780396
0.014697609 0.0012699936 -0.018757846
0.013824482 0.00015875603 -0.019342158
0.01266031 0.00015875565 -0.025185296
0.012660312 0.00015874974 -0.024747062
0.015279694 -0.00031750035 -0.02284804
0.015279684 0.00015874901 -0.023724515
0.010186457 -0.00031749412 -0.021679409
0.0068394812 0.00031750044 -0.019780394
0.006839483 0.00095249666 -0.019488238
0.0076641012 0.0001058359 -0.020802941
0.015279686 0.00015875348 -0.014229418
0.015279685 -0.00031749567 -0.014229408
0.015279681 0.00015874632 -0.013791176
0.015279687 -0.00031750323 -0.013791178
0.011205109 -0.0012699962 -0.017735291
0.0112051 -0.00031749962 -0.017443139
0.012223756 -0.00031749404 -0.017443135
0.010186456 0.0001587499 -0.016712746
0.012805834 -0.00031750253 -0.016712749
0.0049477122 0.00015874913 -0.0076558883
0.0049477131 0.00015874919 -0.010285293
0.005238744 0.00015874753 -0.010285292
0.0049477145 0.00015875568 -0.015251964
0.0052387519 0.0001587452 -0.015251966
0.01280583 -0.00031749508 -0.0072176415
0.01266031 0.00015875597 -0.0072176447
0.0027648995 -0.0012699947 -0.017443139
0.002764897 -0.00031749543 -0.018173531
0.014697604 -0.00079374801 -0.002250975
-0.026775839 0.0012700023 -0.0022509843
-0.021682607 -0.00031750073 -0.01934216
-0.017753543 -0.00031749759 -0.023286276
-0.01775354 -0.00031749785 -0.023724511
-0.01775354 0.00015875499 -0.021241181
-0.017316977 0.0012700002 -0.019342164
-0.027212393 -0.00079375552 -0.019342162
-0.026339272 -0.0012700035 -0.017735299
-0.020227401 -0.0012700059 -0.019342154
-0.020227402 -0.00031749919 -0.020802945
-0.027794484 -0.0012700063 -0.018173525
-0.026775841 -0.0012700056 -0.018757846
-0.021682609 -0.001269996 -0.018757842
-0.022846777 -0.0012700011 -0.018757841
-0.035507087 -0.00031750195 -0.025185298
-0.030559378 -0.00031750073 -0.016274504
-0.030704899 -0.00063500396 -0.017443139
-0.03026833 -0.00063499436 -0.017443139
-0.030559381 0.00015875652 -0.012768634
-0.030559378 0.00015875178 -0.012330396
-0.03026833 5.5770215e-09 -0.012330393
-0.030268326 0.000105835 -0.011697382
-0.03055938 -0.00031750184 -0.011746081
-0.034197398 -0.00079374987 -0.017735299
-0.034197401 -0.0003175046 -0.017443139
-0.018772189 -0.00031750312 -0.017443137
-0.017753547 -0.00031749895 -0.017297059
-0.018772183 -0.00079374411 -0.019342154
-0.004947708 0.00015875364 -0.006195101
-0.023719896 -0.00079375453 -0.019342151
-0.025320627 -0.0003175 -0.022263728
-0.025320632 -0.00031750096 -0.020218629
-0.027940005 0.00063499366 -0.019780388
-0.027212398 -0.00079374627 -0.0022509843
-0.025611667 -0.00031750536 -0.0032735355
-0.03026833 0.0012699941 -0.0022509741
-0.030268336 0.00079375639 -0.0022509792
-0.030268328 0.00015874636 -0.0067794104
-0.03055938 0.00015874951 -0.0067794072
-0.03055938 0.00015874577 -0.0061950982
-0.025320631 0.00015875253 -0.0097009772
-0.022895273 0.0001058307 -0.010285291
-0.025611669 0.00015874729 -0.010285294
-0.025320632 0.00015875643 -0.010723526
-0.012708824 0.00010583567 -0.013791172
-0.015279689 0.00015875325 -0.014667654
-0.017462507 1.9463187e-09 -0.01481373
-0.015279683 -0.00031750425 -0.014229409
-0.015279685 0.00015874954 -0.014229415
-0.015279693 -0.00031750102 -0.013791176
-0.013824476 -0.00079375168 -0.0022509801
-0.015279694 0.00015875149 -0.0047343122
-0.016152816 0.00084667321 -0.00040065218
-0.021682601 -0.00031749997 -0.0022509736
-0.020227402 0.00015875217 -0.0053186226
-0.017753541 -0.00031750265 -0.0037117605
0.037689894 -0.0012700032 -0.017735291
0.029249683 0.00079374935 -0.017443132
0.029249689 0.00015875479 -0.017443132
0.030559378 -0.00031749651 -0.020218626
0.029249692 -0.00031749465 -0.017443134
0.036816776 -0.00079374958 -0.019342162
0.020275908 -0.00031750646 -0.021728098
0.017753536 -0.00031749633 -0.020802949
0.017753545 0.0001587533 -0.021241181
0.017753545 -0.00031750277 -0.021241173
0.017462503 0.00015875036 -0.019780397
0.022264687 -0.00079374702 -0.019342156
0.026339268 -0.0012699954 -0.017443134
0.026775841 -0.0012699956 -0.017735295
0.024738537 0.00079374923 -0.019342164
0.025708679 0.00021166433 -0.019780394
0.026339278 0.00015874697 -0.019342158
0.026339274 0.000793744 -0.019342162
0.025320627 -0.00031749794 -0.020218633
0.032160107 0.00079375127 -0.017443134
0.03055938 -0.00031749692 -0.0047343089
0.036816768 -0.0012699988 -0.0012284257
0.036816772 -0.001269994 -0.0018127412
0.037835415 7.3487172e-10 -0.0053186286
0.039727196 -0.0012699967 -0.0012284266
0.033178754 0.00015874986 -0.01671274
0.033178743 0.00015874392 -0.01627451
0.036234692 -0.00079374888 -0.00035196543
0.036234692 -0.0003175009 -0.00035196636
0.036816765 -0.00031749567 -0.00035195518
0.034197394 -0.00031749957 -0.00035195891
0.033760838 -0.00031750352 -0.00035196543
0.032160103 -0.001269994 -0.00035196356
0.039290622 -0.0012699959 -0.00035195705
0.025320632 -0.0003175021 -0.0061951037
0.03274218 0.0012699944 -0.017735295
0.032887708 0.00015874791 -0.011746071
0.030559381 -0.00031750285 -0.012330391
0.032887712 0.00015875632 -0.0032735346
0.030559381 0.00015875144 -0.00371176
0.034197405 0.00015875341 -0.00035196356
0.032887712 -0.00031750082 0.001693137
0.030704899 0.00079374813 -0.00035195891
0.038126457 -0.00031750643 -0.0072176429
0.03550709 -0.00031750434 -0.0076558786
0.03055937 -0.00031750376 -0.0082401931
0.030268338 4.1763997e-09 -0.008240195
0.030559372 0.00015875253 -0.0082401987
0.030559374 0.00015874872 -0.012330387
0.030559374 0.00015875221 -0.010285295
0.03055937 0.0001587554 -0.0076558786
0.032887705 0.00015874981 -0.0092627499
0.030559372 -0.0003174975 -0.0057568587
0.027940003 -0.0003175 -0.010285296
0.027939996 0.00015874337 -0.0088245152
0.027939996 -0.00031750137 -0.0088245077
-0.028231042 -5.0458766e-09 0.00081666652
-0.028667603 0.00084666972 -0.00040064938
-0.029249689 -0.0003174991 -0.00035195984
-0.029831776 -0.00031750536 -0.00035196729
0.02823104 0.0012699997 -0.017735295
0.025611673 3.9071892e-09 -0.012768625
0.029831771 0.0012699951 -0.018757841
0.030268339 0.0012699947 -0.019342151
0.024301985 0.0012699943 -0.0012284378
0.021682601 0.0012700008 -0.0012284312
0.022264685 0.001269994 -0.001812743
0.028667599 0.0012699963 -0.0012284359
0.026775841 0.0012700041 -0.0012284303
0.027212394 0.0012699954 -0.0012284294
0.028667606 0.0012699972 -0.0022509806
0.027212389 0.0012699976 -0.0022509866
0.027940007 0.00015875399 -0.0072176405
0.028231038 0.001270002 -0.00079019368
0.026339278 0.0012700021 -0.001812743
0.027357912 -0.00063499919 -0.017443134
0.02823104 -0.0012700006 -0.017735302
0.028231047 -0.00079374429 -0.017443132
0.027940007 0.00015874628 -0.01671274
0.026775828 0.00015874956 -0.017443143
-0.031286977 -0.0003174973 -0.00035195705
-0.030559378 -0.00031749957 0.00081666745
-0.025320632 -0.00031749383 -0.0076558832
-0.022846768 -0.00031749366 -0.0061951037
-0.025611667 -0.00031750582 -0.0061950926
-0.02823104 6.2063918e-09 -0.0092627425
-0.027939999 -0.00031749494 -0.0072176466
-0.028231047 -5.4496923e-09 -0.0067794118
-0.027940001 -0.00031750239 -0.0067794155
-0.027940001 0.00015875023 -0.0076558776
-0.027940005 0.00015875361 -0.0072176531
-0.028231043 6.3664629e-10 -0.0076558767
-0.030559378 0.00015874971 -0.0032735318
-0.031286988 0.00079374772 -0.0022509824
-0.031723548 0.00015875333 -0.0022509834
-0.031286977 0.0012700009 -0.0007902002
-0.029831775 0.0012700002 -0.0007901974
-0.028667599 0.0012699997 -0.0012284378
-0.028231049 0.0012699972 -0.0012284275
-0.030559378 0.00015874546 -0.0092627443
-0.027939999 0.00015875549 -0.0067794081
-0.027794478 0.001269998 -0.0012284257
-0.033760827 0.0012699956 -0.0018127412
-0.033760831 0.0007937511 -0.00035196077
-0.032887712 0.00010583857 0.00018366426
-0.03317875 -0.00031750114 -0.0092627453
-0.035507079 -0.00031750128 -0.0037117642
-0.035604097 0.00010583262 -0.0041499948
-0.035507079 -0.0003175005 -0.0041500013
-0.018772192 -0.00084666937 -0.00040065683
-0.019354273 -0.00084666465 -0.00040065777
0.022264693 -0.00079374469 -0.0022509811
0.025175102 -0.0012699978 -0.0022509745
0.024738546 -0.000793749 -0.0022509857
0.023719896 -0.000846665 -0.00040065777
0.038854066 -0.0012699995 -0.0018127393
-0.0075670891 -0.00031750597 -0.0072176461
-0.012660311 -0.0012699943 -0.00079019926
-0.0098954225 0.00015874537 8.6277723e-05
-0.0091678184 -0.00031750218 -0.00035196356
-0.0091678174 0.00015874865 -0.00035195891
0.039727192 -0.0012699949 -0.0022509838
0.039290618 -0.0012700019 -0.0018127495
0.035216045 0.0012700038 -0.0012284322
0.031286977 0.0012700029 -0.00035195891
0.031723537 0.0012700026 -0.0012284312
0.036234692 0.00015875639 -0.00035196636
0.03172354 0.00079374795 -0.0003519645
0.032160107 0.0007937543 -0.00035196077
0.032742184 0.00079374644 -0.00035195798
0.015279681 -0.00031750443 -0.015836276
0.013824482 -0.0012699972 -0.018027443
0.021682609 0.00015875236 -0.017443134
0.022846775 0.00015875274 -0.016712751
0.019790836 0.00015874856 -0.017443143
0.022264687 0.00079375581 -0.0022509838
0.021682605 0.00015874677 -0.0022509852
0.027939998 -0.00031750405 -0.021241177
0.018190101 -0.001269999 -0.00079020113
0.020809479 -0.0012700021 -0.0012284331
0.021682603 -0.00079375581 -0.0022509811
0.025757182 -0.0012699963 -0.00079019833
0.023719894 -0.00031750428 -0.0022509824
0.02575719 -0.0012699999 -0.017735297
0.022992291 -0.00031749386 -0.014229406
0.025611667 4.8421498e-09 -0.015836272
0.025611661 -3.8235157e-09 -0.016274516
0.025611671 -2.1682354e-09 -0.016712748
0.026339274 0.00015874983 -0.017443134
0.022992291 -0.00031749738 -0.015836271
0.025320632 -0.00031749438 -0.015251957
0.025757194 -0.0012699938 -0.017443132
0.023283331 -0.00031750015 -0.017443143
0.024301976 0.00015875103 -0.017443134
0.022846771 -0.0012700047 -0.018319605
0.022846768 0.000158749 -0.015836267
0.025320625 -0.00031749645 -0.011746075
0.025611663 -0.00031749866 -0.011746084
0.030559372 0.00015875473 -0.009262749
0.028231043 5.318725e-09 -0.0088245096
0.028231038 -6.1336323e-09 -0.0097009744
0.025611673 2.8740033e-10 -0.0097009763
0.025320621 0.0001587514 -0.0092627471
0.024301985 0.0012699972 -0.018173525
0.025320623 0.00063499989 -0.017443132
0.024738537 0.00015874398 -0.017443139
0.015716247 0.0012699979 -0.018173533
0.015279686 0.00015875162 -0.015251964
0.012660318 0.00015874722 -0.015251962
0.012805836 -0.00031750201 -0.015836271
0.012805831 -0.00031749799 -0.015251964
0.017753547 -0.00031749817 -0.015251959
0.01775354 0.00015875086 -0.015836271
0.017753547 -0.0003175007 -0.015836276
0.01775354 0.00015875507 -0.015251957
0.017753543 -0.00031749852 -0.014667653
0.020227402 -0.0003175053 -0.014667651
0.017753547 -0.00031750393 -0.016274506
0.012805831 -0.00031750323 -0.0047343196
0.012660316 0.00015874571 -0.0053186314
0.015279694 -0.00031749567 -0.0067794127
0.015279684 -0.00031749991 -0.0061951
0.013824482 -0.0012700014 -0.0022509811
0.013096874 -0.0012699998 -0.017735295
0.0202759 0.00010583302 -0.0041499962
0.020227395 -0.00031750088 -0.0041499962
0.01979083 0.00079375005 -0.0022509773
0.015279682 0.00015874497 -0.0037117708
0.015279689 -0.00031750361 -0.0041500013
0.015279685 0.0001587493 -0.0061950916
0.012660319 0.00015874839 -0.005756862
0.01615281 -0.00031749351 -0.0022509769
0.016734893 -0.00031749866 -0.0022509806
0.015279686 -0.00031750149 -0.0032735346
0.016734894 -0.0012699986 -0.0018127495
0.017316984 -0.00079375389 -0.0022509848
0.018190101 -0.00079375517 -0.0022509736
0.016734891 0.00015875026 -0.0022509736
0.017753538 0.00015875309 -0.0092627434
0.015279688 0.00015874533 -0.012768626
0.015279685 -0.00031750178 -0.012768626
0.015279693 0.00015875623 -0.01320686
0.017753545 0.00015874824 -0.014229409
0.017753541 -0.00031750306 -0.014229418
0.017753545 -0.00031749904 -0.013791179
0.017753536 -0.00031749465 -0.0053186254
0.017753545 0.00015875012 -0.0053186323
0.017753536 -0.00031750387 -0.0047343122
0.020275908 0.00010583355 -0.0053186305
0.020227399 -0.00031750096 -0.0047343089
0.020275909 -0.00031749488 -0.0052699358
0.020227395 -0.0003175055 -0.0057568601
0.020227402 0.00015874843 -0.0057568629
0.017753547 0.00015875182 -0.0057568662
0.017753536 -0.00031750562 -0.0061950944
0.01775354 0.00015874745 -0.0061950972
0.01775354 0.00015874919 -0.0047343075
0.0075670858 -0.00031750288 -0.0032735267
0.008294682 -0.00079374766 -0.0022509801
0.0098954169 4.8858055e-09 -0.0098470524
0.00756709 -0.00031749875 -0.0092627443
0.0076640933 0.0001058304 -0.009262749
0.0052387477 0.0001587483 -0.007217647
0.0075670881 -0.00031749537 -0.0067794109
0.0075670863 -0.0003174954 -0.0072176452
0.0042201011 0.0012700004 -0.0012284294
0.0042201029 0.0012699942 -0.0022509852
0.0037835364 0.00079375156 -0.0022509866
0.0082946857 0.0012699972 -0.0012284368
0.0097499005 0.001269995 -0.0012284331
-0.004220102 -0.00031750431 -0.00035195705
-0.0052387468 0.00015875255 -0.012330393
-0.002619375 0.00015874418 -0.014229411
-0.0042201085 0.0012700033 -0.017443139
-0.0049477019 0.00015874927 -0.01028529
-0.0037835352 -0.00031750393 -0.017443134
-0.0033469824 -0.00031750213 -0.017443132
-0.0026193685 0.00015875424 -0.016274514
-0.0026193792 -0.00031749622 -0.016712749
-0.00232834 2.6266207e-09 -0.016712746
-0.0033469859 0.00015874664 -0.018757839
-0.003346975 0.00015874467 -0.017443143
-0.026775831 0.00084667199 -0.00040064752
-0.027212391 0.00015875054 -0.00035195518
-0.028667606 -0.0012699944 -0.00079019554
0.0251751 0.0012699987 -0.0007901974
-0.010768541 0.0012699949 -0.0022509755
-0.012223748 0.0012700001 -0.0018127467
-0.0146976 -0.0012699969 -0.0018127486
-0.014697609 0.00084666855 -0.00040065683
-0.014261045 -0.00031750134 -0.00035195518
-0.0076640928 0.00010582688 -0.0032735327
-0.010186455 -0.00031749558 -0.013791177
-0.010186457 -0.00031749587 -0.013206855
-0.0076640947 0.00010583687 -0.014229408
-0.010186459 -0.00031749438 -0.012330386
-0.013824484 0.0012700029 -0.019342158
0.017753543 -0.00031749479 -0.021679409
0.017753536 0.00015874942 -0.021679416
0.016152818 0.00084666128 -0.00040065683
0.016152812 -0.0012699934 -0.00079019647
0.011205109 0.0012700021 -0.00079020206
0.01076855 0.00084667292 -0.00040064752
0.017753547 0.0012700032 -0.0012284368
0.017753541 0.00015874453 -0.0067794146
0.017753536 0.00015874472 -0.0076558813
0.015279692 0.00015874782 -0.0076558851
0.015279687 0.00015874974 -0.0088245161
0.015279691 0.00015875336 -0.010723532
0.015279686 -0.000317506 -0.010723531
0.015279691 -0.0003175062 -0.010285294
0.017753538 0.00015874646 -0.012330394
0.017753536 -0.00031750638 -0.011746076
0.017753541 -0.00031750181 -0.012330397
0.016734894 0.001270005 -0.0018127412
0.015716249 0.001269996 -0.0012284359
0.015716255 0.0012699935 -0.001812743
0.018190105 0.00079375214 -0.002250975
-0.0077126073 0.0012699957 -0.0022509806
-0.0072760438 0.00079374516 -0.0022509866
0.020227397 -0.00031750181 -0.0097009782
0.022846768 0.00015874339 -0.0076558855
0.020227402 -0.00031749604 -0.0061950982
0.02279827 0.00010583783 -0.0057568578
0.022992294 -0.00031749942 -0.0057568592
0.022992287 -0.00031750195 -0.0053186216
0.022992289 -0.00031750102 -0.0061951014
0.025611673 3.9108272e-09 -0.0072176405
-0.014261045 -0.0012700022 -0.00079019275
0.00014552119 -0.00031750434 -0.0053186328
0.001746255 -0.00031749994 -0.0022509736
0.0033469747 -0.0007937465 -0.002250975
0.012805835 -0.00031750349 -0.0053186282
0.028231042 4.0708983e-09 -0.020802937
0.016734891 -0.0012700052 -0.019342162
0.024301978 -0.0012700063 -0.018173527
0.026339274 0.001270004 -0.019342164
0.026775829 0.0012700001 -0.01875785
0.026339276 0.00015875466 -0.00035195705
0.026339274 -0.00031749587 -0.00035195611
0.026775839 0.00015875349 -0.00035195891
0.020227393 -0.00031749459 -0.0032735355
0.020809481 -0.00079374504 -0.0022509773
0.019354267 -0.00031749863 -0.0022509778
0.0023283323 0.00015875301 -0.013206868
0.0023283344 0.0001587498 -0.012768628
0.002619378 0.00015874559 -0.012768632
-0.00029103659 0.00015874967 -0.01627451
0.0049477071 -0.00031750416 -0.014229419
-0.0023283313 -0.00031750431 -0.015251967
0.0023283311 0.00015875489 -0.014667645
9.7010983e-05 0.00010583614 -0.016274504
0.0017462486 0.00095250446 -0.017443135
0.0021828099 0.00015875 -0.018173534
0.00014552139 0.00095249538 -0.017443143
0.0007276028 0.00095249631 -0.017443141
0.0027649014 0.00015874785 -0.019342152
0.0027648986 0.0001587484 -0.018757839
0.0026193734 0.00015875051 -0.012330389
0.0023283376 0.00015874961 -0.0097009819
0.0026193815 0.00015875546 -0.010285298
0.0026193804 0.00015874857 -0.010723531
0.0023283293 0.00015875102 -0.010723535
-0.005529793 -0.00031750224 -0.019780388
-0.0033469817 0.00015875394 -0.019342162
-0.0037835375 0.00015875309 -0.019342154
-0.0052387537 0.0001587489 -0.019342154
-0.0026193813 -0.00031750512 -0.021241171
-0.012660317 -0.00031749549 -0.0047343122
-0.012660314 -0.00031750058 -0.0037117638
-0.014261045 -0.00079374842 -0.0022509848
-0.017753543 -0.00031749989 -0.010285288
-0.01775354 -0.001269998 -0.0018127477
-0.019790832 -0.0012699973 -0.0022509852
-0.020227393 -0.0012699965 -0.0022509806
-0.020227397 -0.0012699947 -0.0018127486
-0.020809473 -0.0012700035 -0.002250982
-0.020809481 -0.00079374883 -0.0022509755
-0.022264691 -0.0012699943 -0.0022509769
-0.022264691 -0.00079374417 -0.002250982
-0.023283331 -0.0012699948 -0.0022509769
-0.025320623 0.00015874585 -0.012330398
-0.025320631 0.0012699991 -0.017735295
-0.020227395 -0.00031749345 0.00081667025
-0.030268332 -0.0012700008 -0.00079019088
-0.030268332 -0.0012699988 -0.001228435
-0.030704902 -0.0012699948 -0.00079019833
-0.031286977 -0.0012699986 -0.0007902002
-0.0052387505 -0.00031749636 -0.0041500023
-0.0052387486 -0.00031750274 -0.0032735267
-0.0056753145 -0.00079375418 -0.0022509806
-0.0075670779 -0.00031749526 -0.0088245068
-0.0077126082 -0.0012700001 -0.0022509829
-0.0062573985 0.00015874792 -0.017443134
-0.0076641031 0.00010583924 -0.016712746
-0.011787192 0.00015874366 -0.019342162
-0.012660309 -0.00031750099 -0.0072176475
-0.010186452 -0.00031749791 -0.01583628
0.0082946913 0.0012699957 -0.017735295
-0.00029104526 -0.0012699985 -0.017735289
0.0052387537 -0.0003174991 -0.010723528
0.0052387454 -0.00031750495 -0.010285292
0.0052387472 -0.00031750422 -0.011746082
0.0049477038 0.00015874529 -0.015836269
0.0042201024 -0.00127 -0.017443137
0.0042201038 -0.00095250417 -0.017443135
0.0046566636 -0.00095249526 -0.017443143
0.0017462462 -0.00095250638 -0.017443132
0.0013096828 -0.00095249823 -0.017443143
0.0023283395 0.00015874632 -0.015251966
0.00072760356 -0.00084666349 -0.00040065683
0.0017462461 -0.00084666698 -0.00040064938
0.0013096839 -0.00031749494 -0.0003519617
0.0013096812 -0.0012700004 -0.0018127458
0.0075670844 -0.00031749567 -0.0057568671
0.014261036 -0.0012699951 -0.0012284378
0.011787184 0.00084666029 -0.00040065497
-0.033178754 0.00015875103 -0.012330392
-0.030559381 0.00015875233 -0.011746079
-0.028667603 -0.00063499401 -0.017443141
-0.027940009 -0.0003175046 -0.015836276
-0.027940007 -0.00031750652 -0.016712746
-0.032887712 -0.0003175046 -0.0041500055
-0.033178747 -0.00031750576 -0.0041499971
-0.032887708 -0.00031750553 -0.004734308
-0.032887708 0.00010583067 -0.0041013048
-0.032887705 -0.0003175051 -0.0082401941
-0.032887712 -0.00031749849 -0.0072176466
-0.032887712 -0.00031749462 -0.0067794072
-0.030559372 -0.00031750376 -0.0057568634
-0.030559374 -0.00031749939 -0.0061950916
-0.03055937 -0.00031749927 -0.006779409
-0.030268334 2.5138434e-09 -0.0072176466
-0.030559374 -0.00031750277 -0.0072176424
-0.028231038 3.3833203e-09 -0.0061950926
-0.033178747 0.00015875536 -0.0041500051
-0.032887705 0.0001587541 -0.0037117661
-0.035652611 0.00063500088 -0.018757842
-0.036234684 0.00015874699 -0.017443135
-0.032887708 0.00015875581 -0.014229415
-0.032887716 0.0001587509 -0.01466765
-0.03274218 0.0012699944 -0.0018127393
-0.0023283279 -0.00031749581 -0.0047343122
-0.0017462452 -0.0012699935 -0.0018127486
-0.0013096913 -0.00079374423 -0.0022509848
-0.00029104247 -0.0012699978 -0.0018127384
-0.00072760787 -0.0012699974 -0.0022509787
-0.0052387509 0.00015874472 -0.0032735257
-0.0062573985 -0.00031749927 -0.0022509838
-0.0068394733 -0.0012699988 -0.0018127486
-0.0072760372 -0.0012700005 -0.001228435
-0.0056753079 -0.001269996 -0.0007902002
-0.0082946923 -0.00079375581 -0.0022509815
-0.0026193748 0.00015874875 -0.024308819
-0.0049477024 -0.00031749904 -0.024747055
-0.0026193748 -0.00031749887 -0.024747059
-0.0026193722 0.00015874705 -0.02226373
0.00072760065 0.00015874594 -0.019342151
0.0013096899 -0.00031750317 -0.019342156
0.0023283372 0.00015875464 -0.020802941
0.0023283374 0.00015875026 -0.021679414
9.7009877e-05 0.00010583241 -0.022263732
-0.004947714 -0.00031750186 -0.023286272
-0.025611669 -0.00031749689 -0.02328627
-0.025320629 -0.00031750504 -0.023286279
-0.025320627 -0.00031750268 -0.024308817
-0.016152816 0.00015874827 -0.017443141
-0.017462507 -4.9622031e-09 -0.020218633
-0.016734893 0.00015874667 -0.019342162
-0.02008187 0.00063500262 -0.019780388
-0.022846766 -0.00031749342 -0.021679411
-0.028231043 -0.0012700027 -0.018757839
-0.028667608 0.0012699966 -0.018757837
-0.030268336 0.00015874875 -0.016274504
-0.028231043 5.7589205e-09 -0.022848036
-0.027940001 -0.00031749951 -0.022263721
-0.028231047 -5.9953891e-09 -0.025185298
-0.025611667 -0.00031750655 -0.0053186323
-0.025611669 -0.00031750437 -0.015836269
-0.025320627 0.00015875645 -0.016712744
-0.025320632 0.00015875135 -0.015251959
-0.025611663 0.00015874473 -0.015836269
-0.026339276 -0.00084666355 -0.00040065218
-0.026775837 -0.00084667112 -0.00040065125
-0.026775841 -0.00031750227 -0.00035196356
-0.027212391 -0.00031749526 -0.00035195984
-0.025611667 -0.0003175009 0.00081666186
-0.027939999 -0.00031750443 0.0022774506
-0.026339274 -0.0012699962 -0.0012284303
-0.020809473 -0.0012699987 -0.0012284257
-0.021246046 -0.00079375418 -0.0022509811
-0.0052387458 0.00015874914 -0.014229407
-0.0023283386 1.0477379e-09 -0.014229406
0.00014551717 -0.0003175044 -0.014667647
-0.0023283383 -0.00031749404 -0.012768624
-0.0075670844 -0.00031749727 -0.0041500023
-0.035216041 -1.5061232e-09 -0.023286279
-0.031286977 -0.0012699937 -0.018757839
-0.02823104 6.3955667e-09 -0.01379117
-0.028231038 2.2409949e-09 -0.012768622
-0.032887708 -0.00031750504 -0.014229411
-0.033178754 0.00015875486 -0.015251966
-0.032887712 0.00015874711 -0.01583628
0.010331986 -0.0012699972 -0.0018127458
0.015279681 -0.00031749817 -0.012330397
0.017316978 0.00079375081 -0.019342154
0.0167349 0.001269999 -0.019342154
0.015279691 -0.00031749951 -0.021679407
0.015716253 0.0012700005 -0.019342158
0.018190103 -0.0012699978 -0.018757839
0.014697598 -0.0012699979 -0.018757839
0.021246046 0.00079375645 -0.019342164
0.025320625 -0.0003174984 -0.012768621
0.020227399 -0.00031749535 -0.011746076
0.022825977 0.00013606669 -0.01172521
0.022992292 -0.00031750617 -0.011161766
-0.01775354 0.00015874379 -0.014229415
-0.016152818 0.0007937476 -0.019342154
-0.012223751 0.0007937483 -0.019342151
-0.004220102 -0.00031750315 -0.017443139
-0.0052387556 0.00015874664 -0.015251964
-0.00523875 -0.00031749508 -0.016274508
-0.0052387509 -0.00031750338 -0.016712748
-0.0076640975 0.00010583318 -0.015251959
-0.0076640928 0.0001058293 -0.012330391
-0.0076640984 0.00010582813 -0.010285289
-0.0049477094 0.00015875054 -0.01116177
-0.0098954113 0.0012699976 -0.018611761
-0.015279685 -0.0003175039 -0.011161762
-0.015279685 0.00015875357 -0.011161769
-0.015279685 -0.00031749741 -0.011746082
-0.038854066 0.00079374423 -0.017735291
-0.037253335 0.00063499942 -0.018319607
-0.036234692 -0.00063499645 -0.017443141
-0.036816772 -0.001270002 -0.0012284266
-0.036816768 -0.0003175 -0.0022509755
-0.037253339 0.00079374632 -0.0022509741
-0.037253335 0.00015874545 -0.0022509787
-0.038126457 0.00015874415 -0.0057568634
-0.037253331 -0.00031749767 -0.0022509745
-0.035604104 0.00010583563 -0.0047343159
-0.035507079 -0.00031749529 -0.0047343094
-0.033178747 0.00015874633 -0.0057568597
-0.03317875 -0.00031750399 -0.0061951
-0.03317875 0.00015875613 -0.0061950986
-0.033178747 -0.00031750556 -0.0057568653
-0.035216041 3.7071004e-09 -0.0060490156
-0.040454794 0.00015874568 -0.015836272
-0.039290622 0.00015874753 -0.0022509755
-0.0384175 -0.0012700009 -0.0022509866
-0.037689894 -0.00079375261 -0.0022509824
-0.035216048 1.884473e-09 -0.0089705829
-0.035604093 0.00010583288 -0.0082402006
-0.035604097 0.00010583988 -0.0097009838
-0.035507079 -0.00031750472 -0.0072176503
-0.033178754 -0.00031750661 -0.0067794109
-0.040309265 -0.0007937451 -0.017735291
-0.032887712 -0.0003175025 0.0022774497
-0.03419739 -0.00031750329 -0.00035196356
-0.032887712 -0.00031749441 0.0012549022
-0.025757186 -0.0012700034 -0.0012284303
-0.026339266 0.00079374405 -0.0022509862
0.0098954216 0.00031749698 -0.0037117628
0.0112051 -0.0012699985 -0.00079020113
0.0112051 0.00084666291 -0.00040064752
0.010186455 0.00015875348 0.00081666652
0.010186454 0.0001587514 -0.0032735299
0.0091678137 0.0012699971 -0.0018127393
-0.023283333 -0.00031750114 -0.017735299
-0.027940003 0.0012700016 -0.017443139
-0.027794484 -0.00063499669 -0.017443135
-0.025611661 -0.00031750201 -0.021679409
-0.025320621 -0.0003175051 -0.020802945
-0.015279689 0.00015875498 -0.012330398
-0.015279694 -0.00031750055 -0.012768628
-0.015279691 -0.00031749753 -0.01233039
-0.015279685 0.00015874847 -0.010723531
-0.020275902 0.00010582985 -0.011746079
-0.025320623 -0.00031749508 -0.014229416
-0.020227395 0.00015875479 -0.017297052
-0.019790839 0.00015874558 -0.017443134
-0.019354271 0.00015874587 -0.017443135
-0.021682609 -0.00031749759 -0.017735288
-0.021682607 0.00015874543 -0.017443135
-0.021246038 0.00015874408 -0.019342158
-0.020227393 0.0012699994 -0.018757842
-0.038126461 0.00015874679 -0.020802945
-0.038271975 0.0006350021 -0.019342162
-0.037253343 0.00063499354 -0.019342164
-0.036816776 0.00015874593 -0.019342154
-0.035216041 -1.4333636e-09 -0.015982356
-0.036234688 0.00063500612 -0.018757842
-0.030268328 0.00010582992 -0.022312412
-0.033178758 -0.00063499727 -0.01978039
-0.034051873 0.00063499412 -0.018027455
-0.027940003 -0.00031749849 -0.0047343113
-0.027940007 0.00015875373 -0.0053186291
-0.030559378 -0.00031749791 -0.0082402006
-0.02430198 -0.0012699994 -0.0018127412
-0.038854063 0.00063500553 -0.018903926
-0.038126457 -0.00031749933 -0.021679416
-0.035652604 0.00079374568 -0.017735289
-0.037835423 -4.1945896e-09 -0.01627451
-0.035604093 0.00010583129 -0.022848034
-0.017753543 0.0001587499 -0.02430883
-0.022846771 0.00015874612 -0.024308829
-0.0098954188 -5.2350515e-09 -0.021241181
-0.012660307 -0.000317503 -0.020802936
-0.030268328 0.00015875114 -0.016712748
-0.029249689 0.0001587469 -0.017443137
0.0052387537 -0.00031749732 -0.013791176
0.0026193711 -0.00031749514 -0.010285292
0.0026193711 -0.00031749377 -0.011746075
0.0023283348 0.00015875294 -0.011746084
0.002328333 0.0001587468 -0.011161763
0.0026193804 -0.00031749895 -0.011161766
0.0076640993 0.00010583973 -0.011746071
0.0049477085 0.00015875368 -0.012330398
0.012805838 -0.00031750335 -0.014667653
0.017753547 -0.00031749543 -0.012768631
0.015279693 -0.0003174986 -0.013206868
0.0097498903 0.0012700045 -0.019342154
0.0098954141 0.00015875019 -0.020218622
0.013824485 -0.00031750079 -0.019342154
0.010186455 0.00015874756 -0.0082401987
0.010186465 0.00015874622 -0.0067794141
0.012805833 -0.00031749668 -0.0097009735
0.010186456 -0.00031749555 -0.010723527
0.010186453 0.00015875653 -0.010723536
0.0076640989 0.00010582764 -0.010285296
0.0075670783 -0.0003175032 -0.010285291
0.0075670863 -0.00031749773 -0.0097009782
0.0052387537 0.00015874708 -0.0097009744
0.0049477047 0.00015875128 -0.0088245133
0.0076641045 0.0001058287 -0.0076558879
0.010186456 -0.00031749974 -0.0082402006
0.012660309 0.00015875504 -0.0076558776
0.009895415 3.3542165e-09 -0.014667651
0.010186462 0.00015875624 -0.013206858
0.010186463 0.00015875547 -0.015836271
0.0052387472 0.00015875351 -0.0053186333
0.010186456 0.0001587506 -0.0092627499
0.010186461 0.00015875544 -0.0097009838
0.010186464 -0.00031749555 -0.0097009744
0.010186461 0.00015875303 -0.010285297
0.010186455 -0.00031749977 -0.010285291
0.011787184 0.0012699958 -0.017735297
0.012223751 0.0012699941 -0.017735293
0.011787188 0.00015874478 -0.017443132
0.012223744 0.00015874917 -0.017443139
0.011205103 0.00015874379 -0.017443132
0.012660312 0.0012699991 -0.017735295
