# .PCD v0.7 - Point Cloud Data file format
VERSION 0.7
FIELDS x y z
SIZE 4 4 4
TYPE F F F
COUNT 1 1 1
WIDTH 1187
HEIGHT 1
VIEWPOINT 0 0 0 1 0 0 0
POINTS 1187
DATA ascii
0.0032084212 0.00076199998 -0.0022176476
0.0051828343 0.00025400001 -0.0022176476
0.015721695 -0.00075308769 -0.010275231
0.016371174 -0.00016933335 -0.0092176469
0.01883919 -8.4666674e-05 -0.00872353
0.017679967 -0.00026169699 -0.010243314
0.015713036 0.00076200016 -0.010205882
0.020171918 0.00074506662 -0.0107
0.018181054 -0.0011571111 -0.010260784
0.019104974 0.00016282051 -0.0077352943
0.017687446 -0.0007789334 -0.00038117636
0.0056764376 -0.0011853334 -0.011688234
0.0088025918 0.00016933336 -0.016794119
0.0091316598 0.00016933335 -0.016794117
0.016330039 0.00014816667 -0.015311765
0.016617976 0.00016933335 -0.014323532
-0.014725829 -0.0011853334 -0.012182354
-0.011599676 -0.0001524 -0.018243531
-0.012751416 -0.0011853334 -0.011688234
-0.012257814 -0.00076200016 -0.012182354
-0.013820889 -0.00016933335 -0.016299998
-0.013820889 -0.00016933335 -0.016794117
-0.014067692 -0.00016933335 -0.0163
-0.010777003 -0.0011853334 -0.012182354
-0.019135352 0.0001524 -0.0092176478
-0.019135352 -0.00015240001 -0.00872353
-0.016617976 0.00016933335 -0.0092176469
-0.017687447 0.00025400004 -0.010288234
-0.017687446 -0.00026811109 -0.010226469
-0.0201966 -0.00071966666 -0.0022176472
-0.019826392 -0.00076200004 -0.0022176472
-0.020196596 -0.00071966671 -0.0018058824
-0.017687447 -0.0011853334 -0.00032352936
-0.017687447 -0.00078316685 -0.00034411764
-0.016700242 -0.0011853334 -0.0008176472
-0.017687447 -0.0011853334 -0.0013117651
0.0091316598 -0.00012699999 -0.015270589
0.0088354982 -0.00015240001 -0.015311765
-0.0063345749 -0.00016933336 -0.015805883
-0.0040310924 -0.00016933335 -0.014817648
-0.0066636433 -0.00016933335 -0.017288236
0.0097897956 -0.00076200016 -0.012182354
-0.0097897975 -0.0011853334 -0.010370589
-0.0097897975 -0.0011853334 -0.011194121
-0.0097897975 -0.0011853334 -0.0107
-0.0092961947 -0.0011853334 -0.011194117
-0.0092961928 -0.0011853334 -0.010700001
-0.0063345749 0.00016933336 -0.013829412
-0.0063345754 0.00016933336 -0.014323531
-0.0063345749 0.00016933336 -0.0032882353
-0.0063345758 -0.00016933336 -0.0032882355
-0.0051828339 -0.00025400001 -0.0022176472
-0.0088025909 -0.00016933336 -0.0082294112
-0.0088354973 0.00015240001 -0.0082294121
-0.00880259 -0.00016933336 -0.0077352948
-0.0091316598 -0.00016933335 -0.0082294121
-0.0091316598 0.00016933335 -0.00872353
-0.0091316598 0.00016933335 -0.0082294121
-0.0092961937 0.0011006667 -0.010370589
-0.0091316598 -0.0001524 -0.0086905891
-0.010283402 -0.00025399998 -0.012182355
-0.011369327 -0.00022013337 -0.013252942
-0.011599676 0.00016933333 -0.013252942
-0.011599676 0.00016933335 -0.013829413
-0.011352874 0.00016933332 -0.013829413
-0.011352874 0.00016933335 -0.01432353
-0.011599676 0.00016933335 -0.014817648
-0.010283402 -0.00076200016 -0.012182356
-0.0097897956 -0.00076200016 -0.012182353
0.0012340081 0.00016933336 -0.015805883
0.00074040482 0.0011853334 -0.012182353
0.00074040488 0.0011853334 -0.011688234
0.0012340081 0.00016933336 -0.016794115
-0.006252307 0.0011853334 -0.012182354
-0.0063345749 0.00016933336 -0.01580588
-0.0063345754 -0.00016933336 -0.015311766
-0.0091316598 0.00016933335 -0.016794117
-0.0088354973 0.00015240001 -0.016794115
-0.0091316598 0.00016933335 -0.016299998
-0.0091316598 -0.00016933335 -0.0163
-0.0091316598 -0.00016933335 -0.016794117
-0.0088354973 0.00015240001 -0.016299998
-0.0088354973 0.00015240001 -0.015805885
-0.0088025909 -0.00016933336 -0.016794117
-0.0063345749 0.00019755558 -0.013243791
-0.0066636438 0.00016933333 -0.012511765
-0.011352874 -0.00016933335 -0.016794117
-0.011599676 0.00016933335 -0.015805883
0.0027148174 0.00025400001 -0.0022176476
-0.014067692 -0.00016933335 -0.016794117
-0.014067692 0.00016933335 -0.016300002
-0.014067692 0.00016933335 -0.016794117
-0.013820889 -0.00016933335 -0.017782355
-0.01883919 -0.00016933335 -0.017288236
-0.016617974 0.00016933335 -0.0163
-0.016617976 -0.00016933335 -0.015311765
-0.016617976 0.00016933336 -0.014817648
-0.016617974 -0.00016933335 -0.017288236
-0.016371174 -0.00016933335 -0.016794117
-0.016371174 -0.00016933335 -0.0163
-0.014232227 0.0011853334 -0.011688233
-0.014232227 0.0011853334 -0.011194119
-0.01382089 0.00016933335 -0.013829411
-0.014725829 0.0011853334 -0.011194119
-0.015219433 0.0011853334 -0.011194119
-0.015713036 0.0011853334 -0.011194118
-0.013828368 0.00016163637 -0.01730321
-0.01883919 0.00016933335 -0.017782353
-0.013837345 0.0001524 -0.015311765
-0.014108825 0.00016933333 -0.014776471
-0.014067692 -0.00016933335 -0.015311765
0.01883919 0.00016933335 0.0013235295
0.01883919 -8.4666681e-05 0.0023117643
-0.015713036 -0.0011853334 -0.011194117
-0.017193846 -0.0011853334 -0.011688234
-0.017183563 -0.00117475 -0.012161765
-0.017193846 -0.0011853334 -0.01119412
-0.017687446 0.00025399998 -0.012182354
-0.018181054 0.00025399998 -0.012182355
-0.019124959 0.00015596495 -0.013265944
-0.01913535 0.00015240003 -0.013829411
-0.019121248 0.0001572381 -0.014335296
-0.01631633 0.0001411111 -0.014817647
-0.02020609 -0.00072292308 -0.011206787
-0.017193846 -0.0011853334 -0.010205882
-0.01883919 -0.00016933335 -0.00872353
-0.01883919 -0.00016933335 -0.0092176469
-0.017687444 -0.00076199998 -0.010205882
-0.017207561 -0.00077611115 -0.01022647
-0.018173575 -0.00078509102 -0.010243314
-0.017193846 -0.0011853334 -0.0018058829
-0.018181054 -0.0011853334 -0.0107
-0.018674655 -0.0011853334 -0.011194119
-0.018664373 -0.00117475 -0.010226469
-0.018181056 0.00076200004 -0.0022176476
-0.01913535 -0.00015240001 -0.0032882355
-0.01883919 -0.00016933335 -0.0057588238
-0.01883919 -0.00016933335 -0.0052647055
-0.016316328 -0.00014111112 0.0013235295
-0.017217349 0.0011006667 -0.010252942
-0.01719385 0.0011853334 -0.0107
-0.015713038 0.0011006667 -0.010288236
-0.01631633 0.0001411111 -0.0067470595
-0.016617974 0.00016933335 -0.0072411769
-0.016617974 0.00016933335 -0.0067470591
-0.01382089 -0.00016933335 -0.0057588234
-0.014091198 -0.0001572381 -0.0052882354
-0.013820889 -0.00016933336 -0.0062529412
-0.013236791 -0.0007789334 -0.010263529
-0.013245018 -0.0011684 -0.010238823
-0.013837342 -0.00022013336 -0.0092176478
-0.011352874 -0.00016933335 -0.0032882355
-0.010777004 -0.00076199998 -0.0022176476
-0.011352874 -0.00016933332 -0.0037823534
-0.011352874 0.00016933332 -0.0032882355
-0.012751419 -0.00078619056 -0.01025294
-0.012751416 -0.00025399998 -0.010205882
-0.011352874 0.00016933332 -0.0037823534
-0.011599676 0.00016933335 -0.0037823527
-0.01631633 0.00014111113 -0.0047705881
-0.016617974 0.00016933335 -0.0042764707
-0.016617976 0.00016933335 -0.0047705886
-0.014067692 -0.00016933335 -0.0047705886
-0.014067692 0.00016933335 -0.0047705886
-0.016316328 0.00014111112 -0.0057588238
-0.016371174 -0.00016933335 -0.0057588238
-0.016617974 -0.00016933335 -0.0057588234
-0.015713036 -0.0011853334 -0.0018058829
-0.016700244 -0.0011853334 -0.0022176472
-0.016371174 -0.00016933335 -0.0052647055
-0.016371174 -0.00016933335 -0.0047705881
-0.015713038 -0.0011853334 -0.010252942
-0.015209754 -0.001180353 -0.010215571
-0.015219434 -0.0007861905 -0.01025294
-0.015704809 -0.0007789334 -0.010263529
-0.014747767 -0.001179689 -0.010238823
-0.014067693 -0.00020561906 -0.0092176469
-0.013725965 -0.0011788205 -0.01026923
-0.014067692 -0.00016933335 -0.0082294121
-0.014067692 -0.00016933335 -0.0077352938
-0.014067692 0.00016933335 -0.0077352948
-0.014067692 0.00016933335 -0.0082294121
0.015219435 0.0011853334 -0.0107
0.015219435 0.0011853334 -0.011194119
0.013820889 0.00016933332 -0.015805883
0.011599676 -0.00016933335 -0.0163
0.011599676 -0.00016933335 -0.015805883
0.011599676 0.00016933335 -0.015805883
0.01382089 0.00016933335 -0.016300002
0.01382089 -0.00016933335 -0.016794117
0.012257813 0.0011853334 -0.011688234
0.013738623 0.0011853334 -0.011688234
0.013245018 0.00076200016 -0.012182354
0.011599676 0.00015240001 -0.018243531
0.0097897956 0.0011853334 -0.01119412
0.0102834 0.0011853334 -0.01119412
0.011270608 0.0011853334 -0.011194119
0.011270607 0.0011853334 -0.012182354
0.010777004 0.0011853334 -0.012182353
0.011303512 0.00015240001 -0.014817647
0.011599676 0.00016933335 -0.01432353
0.010777002 0.0011853334 -0.011688234
0.011325452 0.00019755554 -0.01325294
0.012751419 0.00076200027 -0.012182355
0.011599676 0.00016933335 -0.013829413
0.014149961 0.00016933336 -0.013252939
0.015219431 0.00025399998 -0.012182355
0.016347669 0.0001572381 -0.01434706
0.016617974 0.00016933335 -0.013829411
0.01414996 0.00016933335 -0.013829413
0.014149961 0.00016933335 -0.014323532
0.0092961937 0.0011853334 -0.011688235
0.0091316598 0.00059266668 -0.012511765
0.0097897947 0.00076200016 -0.012182351
0.0073217787 0.00076200016 -0.012182354
0.0068281787 0.0011853334 -0.011688235
0.0063345749 0.00016933336 -0.014817647
0.0063345754 -0.00016933336 -0.015311765
0.0063345749 -0.00016933336 -0.015805883
0.0066636433 0.00016933335 -0.015805883
0.0066636433 0.00016933335 -0.015311764
0.0062523074 0.0011853334 -0.012182355
0.0066636433 0.00016933335 -0.01432353
0.0063345749 0.00016933336 -0.013829411
0.0097897965 0.0011853334 -0.0013117651
0.010283399 0.0011853334 -0.0013117646
0.0097897965 0.0011853334 -0.0008176472
0.010283399 0.0011853334 -0.0018058829
0.010777003 0.0011853334 -0.0013117651
0.0091316598 0.00016933335 0.0018176474
0.0088025909 0.0011853334 -0.0022176472
0.0083089881 0.0011853334 -0.0018058829
0.0088025909 0.0011853334 -0.0018058829
0.0073217805 0.0011853334 -0.0008176472
0.0073217805 0.0011853334 -0.0013117651
0.0078153852 0.0011853334 -0.0013117651
0.0068281787 0.0011853334 -0.0013117646
0.012257813 0.0011853334 -0.0013117651
0.0083089881 0.0011853334 -0.011194118
0.0083089871 0.0011853334 -0.0107
0.0097897965 0.0011853334 -0.010700001
0.0092961937 0.0011853334 -0.0107
0.0092961947 0.0011853334 -0.010288236
0.0097994749 0.001180353 -0.010215571
0.0091316598 0.00016933335 -0.0067470595
0.0091316598 -8.4666674e-05 -0.0067470595
0.0091316598 0.00016933335 -0.0062529412
0.0091316598 -8.4666681e-05 -0.0072411764
0.0097897975 -0.00076199998 -0.010288234
0.011303514 0.0001524 -0.00872353
0.0088025909 -0.0011788205 -0.0022366517
0.00880259 -0.0011853334 -0.0018058829
0.0092961947 -0.0011853335 -0.0022176472
0.0097897965 -0.00076200004 -0.0022176476
0.0102834 -0.00076199998 -0.0022176472
0.010283401 -0.00025400001 -0.0022176476
0.0097897965 -0.00025400001 -0.0022176476
0.0083089881 -0.00076199998 -0.0022176476
0.0088354973 -0.00015240001 -0.0037823536
0.0091316598 -8.4666674e-05 -0.0037823531
0.011352875 -0.00016933336 -0.0057588234
0.011599676 -0.00016933335 -0.0057588238
0.011599676 -0.00016933335 -0.0052647055
0.011352874 -0.00016933335 -0.0052647064
0.011599676 0.00016933335 -0.0072411769
0.011599676 0.00016933335 -0.0077352938
0.011599676 0.00016933335 -0.0067470591
-0.0012340082 -0.00016933336 -0.014817649
0.017193846 0.0011853334 -0.011194118
0.016700242 0.0011853334 -0.0107
0.016206641 0.0011853334 -0.011194119
0.0012340081 -0.0011853334 -0.011194117
0.00074040488 -0.0011853334 -0.0107
-0.00024680156 -0.00025399996 -0.010205882
-0.00024680159 -0.0011853334 -0.0107
-0.00024680162 -0.0011853334 -0.011688233
-0.00074040488 -0.0011853334 -0.011194119
0.00024680153 -0.00076200016 -0.012182356
-0.00024680156 0.00076200016 -0.012182355
-0.00074040482 0.00076200016 -0.012182353
0.0015630769 0.00016933333 -0.018111765
0.0015630769 0.00016933335 -0.017782355
0.0015630769 -8.4666674e-05 -0.014817648
0.0037020247 0.00016933336 -0.014323531
0.0015630769 -8.4666674e-05 -0.01432353
0.0015630769 0.00016933335 -0.01432353
0.0015630769 0.00016933335 -0.013829413
0.0012340082 0.0011853334 -0.012182355
0.0012340081 0.00016933336 -0.014817649
0.0046892301 0.0011853334 -0.012182353
0.0046892306 0.0011853334 -0.011688234
0.0015630769 0.00016933333 -0.013252942
0.0022212153 -0.00025399998 -0.012182354
0.0027148174 0.00025400001 -0.012182354
0.0032084214 0.00076200016 -0.012182356
0.0040310924 0.00016933335 -0.015311765
-0.0073217787 0.00025399998 -0.012182354
-0.0083089881 -0.0011853334 -0.012182353
-0.0078153852 -0.0011853334 -0.012182354
-0.0078153852 -0.0011853334 -0.011688234
-0.0078153852 -0.0011853334 -0.010700001
-0.0074863154 -0.0011853334 -0.010370589
-0.0073217815 -0.0011853334 -0.011194117
-0.0078153843 -0.0011853334 -0.011194118
-0.0088122692 -0.00016435295 -0.0072411769
-0.0091316598 -0.00016933335 -0.0072411769
-0.0040310924 -0.00016933335 -0.016794117
-0.0041956273 -0.0011853334 -0.011688234
-0.0046892306 -0.0011853334 -0.011194119
-0.0037020247 -0.00016933336 -0.017782351
-0.0040310929 -0.0001524 -0.018243531
-0.0066636438 -0.00021166667 -0.014817648
-0.0073217805 -0.0011853335 -0.011688233
-0.0068281787 -0.0011853334 -0.011194119
-0.0068281787 -0.0011853334 -0.011688235
-0.0062523074 -0.0011853334 -0.011194118
-0.0056764367 -0.0011853334 -0.0107
-0.0051828343 -0.0011853334 -0.011194118
-0.0051828343 -0.0011853334 -0.011688234
-0.0068281787 -0.0011853334 -0.010700001
-0.0063488828 0.00022455073 -0.0097189276
-0.0063345744 0.00019473335 -0.0092258835
-0.0051828343 -0.00025399996 -0.010205882
-0.0063345749 -0.00016933336 -0.0092176478
-0.0056764367 -0.00025399998 -0.010205882
-0.0063345749 -0.00016933336 -0.014323531
-0.0012340081 0.00017949339 -0.013243059
-0.00024680156 0.00025399998 -0.012182355
-0.0015630769 8.4666666e-05 -0.013252942
-0.0027148174 -0.0011853334 -0.01119412
-0.016617974 0.00016933335 -0.0077352952
-0.016617974 -0.00016933332 -0.0067470591
-0.016371174 -0.00016933335 -0.0072411769
-0.01883919 -0.00016933335 -0.0082294121
-0.016617974 -0.00016933335 -0.0072411778
-0.0063345749 -0.00021551517 -0.0097342264
-0.013848312 0.00014111113 0.0018176464
-0.01382089 -0.00016933332 0.0013235295
-0.014067692 -0.00016933335 0.00082941167
-0.0097897975 0.001143 -0.010741175
-0.0097897975 0.0011006667 -0.010370589
-0.0091316598 0.0001524 -0.0092176478
0.013820889 0.00016933335 -0.017288236
-0.015219431 -0.00076200016 -0.012182354
-0.01719385 -0.00076200016 -0.012182355
-0.017693775 -0.0007620001 -0.012176021
-0.018181054 -0.00076199998 -0.012182353
0.0078153852 -0.00023283334 -0.00034411764
0.012751416 0.00023283334 -0.00034411764
0.012751418 -0.00023283336 -0.00034411764
0.014149961 0.00016933335 0.00082941167
0.016617974 -0.00016933335 0.00082941167
0.014091198 -0.00015723809 -0.0032882355
0.014725829 -0.00076200004 -0.0022176476
0.015219435 0.0011853334 -0.0008176472
0.015713036 0.0011853334 -0.00032352936
0.015219433 0.0011853334 -0.00032352936
0.014232229 0.0011853334 -0.00032352936
0.012751415 0.0011853334 -0.00032352936
0.012751416 0.0011853334 -0.0008176472
0.012257814 0.00078316685 -0.00034411764
0.013245018 0.0011853334 -0.0008176472
0.012257813 0.0011853335 -0.0008176472
0.012751416 0.0011853334 -0.0013117646
0.017687447 0.0011853334 -0.0008176472
0.018181054 0.00078316667 -0.00034411764
0.016606223 0.00013304761 0.0027352944
0.016371174 0.00012699999 0.0027647056
0.016617974 0.00016933335 0.0023117643
0.014091198 -0.0001572381 0.0018176474
0.014108826 -0.00014816665 0.0013235295
0.013820889 -0.00016933332 0.0023117643
0.013820889 0.00016933332 0.0023117643
0.01883919 0.00016933335 -0.016794117
0.016371174 0.00016933335 -0.016794117
0.016617974 -0.00016933335 -0.017288236
0.013820889 -0.00016933335 -0.015805883
0.013820889 0.00016933335 -0.014817648
0.014149961 0.00016933335 -0.014817648
-0.0040310924 -0.00016933335 0.00082941167
-0.0046892301 -0.00078316667 -0.00034411764
-0.0051828339 0.00023283334 -0.00034411764
-0.0051828343 -0.00023283336 -0.00034411764
-0.0063345754 0.00016933336 0.0018176474
-0.0068281791 0.0011853334 -0.00032352936
-0.006252307 0.0011853334 -0.00032352936
-0.0063345749 0.00016933335 0.00082941167
-0.0073217805 0.0011853334 -0.00032352936
-0.011599676 -0.00014111112 0.0026960783
-0.011599676 -0.00016933335 0.0023117643
-0.011352874 -0.00016933335 0.0023117643
-0.014725829 0.0011853334 -0.0008176472
-0.0078153843 0.0011006667 -0.010370589
-0.0088354973 0.00015240001 -0.00872353
-0.015229113 0.001180353 -0.01070969
-0.015219432 0.0011006667 -0.010288236
-0.016700244 0.0011853334 -0.0022176472
-0.016617974 0.00016933335 -0.0037823534
-0.011764212 0.0011853334 -0.011688234
-0.010283399 0.0011853334 -0.011194119
-0.010777004 0.0011853334 -0.011194117
-0.012247529 0.00117475 -0.012161765
-0.0022212148 0.0011853334 -0.0022176472
-0.0017276113 0.0011853334 -0.0022176472
-0.0015630769 8.4666666e-05 -0.0032882355
-0.0022212148 0.0011853334 -0.0018058829
-0.0017276113 0.0011853334 -0.0018058829
-0.0022212148 0.0011853334 -0.011194118
-0.0022212148 0.0011853334 -0.012182353
-0.017687447 0.0011853334 -0.011688235
-0.017687447 0.0011853334 -0.011194119
-0.017193846 0.0011853334 -0.012100001
-0.018181054 0.0011853334 -0.011194119
-0.017687447 0.0011853334 -0.010700001
-0.016700244 0.0011853334 -0.011688234
-0.016700242 0.0011853334 -0.011194118
-0.016700244 0.0011853334 -0.0107
-0.0056764367 0.0011853334 -0.0013117651
-0.0046892301 0.0011853334 -0.0008176472
-0.0037020238 -0.0011853334 -0.011688234
-0.0032084207 -0.00076200016 -0.012182353
-0.0091316598 -0.00016933335 -0.0067470591
-0.015219433 0.0011853334 -0.0008176472
-0.015219435 0.0011853334 -0.00032352936
-0.015713036 0.00078316685 -0.00034411764
-0.0022212146 0.00127 -0.010370589
-0.0022212146 0.0011853334 -0.0013117651
-0.0022212151 0.00025399996 -0.010205882
-0.0037349313 0.0001524 -0.0067470591
-0.013245018 0.0011853334 -0.00032352936
-0.0092961947 0.0011853334 -0.0008176472
-0.00880259 0.0011853334 -0.00032352936
-0.0092961947 0.0011853334 -0.00032352936
-0.0041956273 0.0011853334 -0.0022176472
-0.0088354973 0.0001524 -0.0057588238
-0.00880259 -0.00016933336 -0.0057588238
-0.00024680156 0.00023283334 -0.00034411764
-0.0015630769 -0.00016933335 -0.0072411769
-0.0037020242 -0.00127 -0.010370589
-0.0037020242 -0.0011853334 -0.011194119
-0.0032084212 -0.0011853334 -0.0107
-0.0015630769 -0.00016933335 -0.0082294121
-0.0015630769 8.4666681e-05 -0.0077352948
-0.0037431582 0.00016933338 -0.0092279417
-0.0037431575 0.00021166669 -0.0097282371
-0.0040310924 -0.00016933335 -0.0072411769
-0.0063345749 0.00016933336 -0.00872353
-0.0063345749 -0.00016933336 -0.0087235291
-0.0040310924 -0.00016933335 -0.0092176469
-0.0040310924 -0.00020561904 -0.0097352946
-0.0015630769 8.4666666e-05 -0.0062529407
-0.0015630769 8.4666681e-05 -0.0057588238
-0.0012340081 0.00016933336 -0.0057588238
-0.019104976 0.00016282054 -0.0057588238
0.01472583 -0.0011853334 -0.0013117651
0.015219433 -0.0011853334 -0.0018058829
0.015713036 -0.0011853334 -0.0018058824
0.016206639 -0.0011853334 -0.0022176472
0.015713038 -0.0011853334 -0.0022176472
0.017687449 -0.0011853334 -0.0022176472
0.017687447 -0.0011853334 -0.0018058829
0.017193846 -0.0011853334 -0.0013117646
0.019195681 -0.0011571111 -0.0018058829
0.011352874 -0.00016933335 0.00082941167
0.014232229 0.0011853334 -0.0018058829
0.014232229 0.0011853334 -0.0022176472
0.013738624 0.0011853334 -0.0022176472
0.01472583 0.0011853334 -0.0022176472
0.014091198 -0.0001572381 0.00082941167
0.015219433 0.0011853334 -0.0018058829
0.015219432 0.0011853334 -0.0022176472
0.014725829 -0.0011684 -0.0003564707
0.014725829 -0.00078316685 -0.00034411764
0.014138209 -0.00015723812 0.00025294116
0.016206637 0.0011853334 -0.0013117646
0.016206637 0.0011853334 -0.0008176472
0.016206639 0.0011853334 -0.0022176472
-0.00074040476 -0.0011853334 -0.0008176472
-0.0051828339 -0.0011853334 -0.00032352936
-0.0046892306 -0.0011853334 -0.0013117646
-0.0088231573 -0.00015875002 0.0008191173
-0.0078153862 -0.0011853334 -0.0013117646
-0.0068281777 -0.00078316685 -0.00034411764
-0.0068281782 -0.0011853334 -0.0013117651
-0.0091316598 -0.00016933335 0.0023117643
-0.0088122692 -0.00016435298 0.0018273359
-0.0091316598 0.00016933335 0.0018176464
-0.0066636433 -0.00016933335 0.0023117643
0.011599676 -0.00016933335 0.0018176474
0.013820889 -0.00016933332 0.0013235295
0.0063345749 -0.00016933336 0.00082941167
0.0056764372 -0.0011853335 -0.00032352936
0.0056764372 -0.00078316667 -0.00034411764
0.0068281782 -0.00078316667 -0.00034411764
0.0083089881 -0.00078316685 -0.00034411764
0.0037349311 -0.0001524 0.0018176474
0.0040310924 -0.00016933335 0.0018176464
0.0040310924 0.00016933335 0.0023117643
0.0066636433 0.00016933335 0.0013235295
0.0032084209 -0.0011853334 -0.0018058829
0.0027148172 -0.00025400001 -0.0022176472
0.0041956278 -0.0011853334 -0.0008176472
0.0051828339 -0.0011853334 -0.0018058829
0.004689231 -0.0011853334 -0.0022176472
0.0046892301 -0.0011853334 -0.0018058824
0.0051828339 -0.0011853334 -0.0008176472
0.0063345749 -0.00016933336 -0.005264706
-0.00024680156 -0.00078316667 -0.00034411764
0.0012340081 -0.00016933336 0.0018176474
0.0012340081 -0.00016933336 0.0013235286
0.0017276111 -0.0011853334 -0.0013117646
0.0037020242 0.00016933336 0.00082941167
0.0022212148 -0.00023283332 -0.00034411764
0.0073217805 -0.0011853334 -0.0008176472
0.0068281787 -0.0011853332 -0.0008176472
0.0068281787 -0.0011853334 -0.0013117646
0.0062523079 -0.0011853334 -0.0008176472
0.0062523079 -0.0011853334 -0.0013117651
0.0092961947 -0.0011853334 -0.0018058829
0.0097897965 -0.0011853334 -0.0018058829
0.0083089881 -0.0011853334 -0.0013117646
0.0078153852 -0.0011853334 -0.0022176472
0.0073217805 -0.0011853334 -0.0018058824
0.0078153862 -0.0011853334 -0.0018058824
0.0097897975 -0.0011853334 -0.0022176472
0.0097897965 -0.0011853335 -0.0013117651
0.0092961937 -0.0011853334 -0.0013117651
0.0092961937 -0.0011853334 -0.0008176472
0.0046892306 -0.00076199998 -0.0022176476
-0.014133507 -0.00016933333 0.0023117643
-0.014108826 -0.00016933333 0.0018176474
-0.015713038 -0.0011853334 -0.00032352936
-0.013738623 -0.0011853332 -0.0018058829
-0.013738622 -0.0011853334 -0.0013117651
-0.014232227 -0.0011853332 -0.0013117651
-0.013738625 -0.0011853334 -0.00032352936
-0.013738623 -0.0011853334 -0.0008176472
-0.012257813 -0.0011853334 -0.0013117646
-0.012751418 -0.0011853334 -0.0008176472
-0.01176421 -0.0011853334 -0.011194119
-0.012257814 -0.0011853334 -0.011688234
-0.0083089881 0.0011853334 -0.012182354
-0.0078153852 0.0011853334 -0.012182354
-0.0091316598 0.00016933335 -0.013829413
-0.0088354973 0.00015240003 -0.014323532
-0.0088354973 0.0001524 -0.013829411
-0.0091316598 0.00016933335 -0.013252941
-0.012257813 -0.00076199998 -0.0022176476
-0.012751416 -0.00076199998 -0.0022176472
-0.010283401 0.00078316667 -0.00034411764
-0.0102834 0.00023283334 -0.00034411764
-0.0097897965 0.0011853334 -0.00032352936
-0.011352874 -0.00016933335 0.00082941167
-0.0102834 -0.00023283334 -0.00034411764
-0.011352874 -0.00016933335 0.0013235295
-0.011352874 0.00016933335 0.0013235295
-0.010777004 -0.00078316685 -0.00034411764
-0.011599676 0.00016933335 0.00082941167
-0.01176421 0.0011853334 -0.00032352936
-0.012257813 0.0011853334 -0.00032352936
-0.011599676 0.00016933335 0.0013235295
-0.01176421 -0.0011853334 -0.00032352936
-0.010777005 -0.0011571111 -0.010260785
-0.0091316598 -0.00016933335 -0.0077352938
-0.010777003 -0.0011853334 -0.0107
-0.010283401 -0.0011853334 -0.0107
-0.0097897965 -0.0011853334 -0.011688234
-0.0083089881 -0.0011853334 -0.011194119
-0.0068281782 -0.0011853334 -0.0022176472
-0.0083089871 -0.0011853334 -0.0018058829
-0.0088354973 -0.00015240001 -0.0032882355
-0.0088354973 0.0001524 -0.0037823536
-0.0088354973 0.00015240001 -0.0042764707
-0.0091316598 0.00016933335 -0.0042764707
-0.0091316598 -0.00016933335 -0.0057588238
-0.0091316598 -0.00016933335 -0.0052647064
-0.00880259 -0.00016933336 -0.005264705
-0.011751553 -0.0011788205 -0.0022366517
-0.0102834 -0.00076200004 -0.0022176472
0.020155465 0.00076199998 -0.0013117651
0.01908599 0.00016933335 -0.0037823534
0.019104976 0.00016282054 -0.0032755658
0.01883919 -8.4666666e-05 -0.0072411764
0.01883919 0.00016933335 -0.0067470591
0.01883919 -8.4666666e-05 -0.0062529407
-0.0062523079 0.0011430001 -0.010741176
-0.0056764372 0.0011853334 -0.011688235
-0.0073217805 0.0011853334 -0.011688235
-0.0083089881 0.0011853334 -0.01119412
-0.0078153852 0.0011853334 -0.011194118
-0.0083089881 0.001143 -0.010741175
-0.0068281777 0.0011853334 -0.01119412
-0.011352875 -0.00016933332 -0.015805885
-0.0091316598 -0.00016933335 -0.015805883
-0.011352874 -0.00016933335 -0.0163
-0.0088122701 -0.00016435297 -0.015805885
-0.0041956268 -0.0011853334 -0.012182352
0.0051828343 -0.00025399998 -0.012182353
0.0032084212 -0.00076200016 -0.012182353
0.0040310924 -0.00016933333 -0.01325294
0.0051828343 0.00025399996 -0.012182354
0.0040310924 0.00016933333 -0.013252941
0.0037184774 0.00022013333 -0.013236471
0.0040310924 -0.00016933335 -0.015311765
0.0015630769 -8.4666674e-05 -0.017782353
0.0012340081 0.00016933335 -0.017782353
0.0063345749 0.00016933336 -0.017288236
0.0027148172 0.0011853334 -0.011194118
0.0027148174 -0.0011853334 -0.011194118
0.0027148174 -0.0011853334 -0.0107
0.0046892301 -0.0011853334 -0.011194118
0.0051828348 -0.0011853334 -0.01119412
0.0032084212 0.0011853334 -0.0107
0.0037020242 0.0011853334 -0.0107
0.0037020242 0.00059266668 -0.010205883
0.0032084212 0.00025399998 -0.010205883
0.0037151873 0.00024045333 -0.0097183539
0.0040310924 0.00016933335 -0.0082294121
0.0040310924 0.00016933335 -0.00872353
0.0063345754 0.00019473338 -0.0092258835
0.0056764367 0.0006942667 -0.010271764
0.0066636433 0.00016933335 -0.0082294121
0.0062523074 0.0011853334 -0.011688235
0.0062523074 0.0011853334 -0.01119412
0.0040310924 0.00016933335 -0.0062529407
0.0041956273 0.0011853334 -0.011194119
0.004689231 0.0011853334 -0.011194119
-0.0041956268 -0.0011853334 -0.0022176472
-0.0037020242 -0.0011853334 -0.0022176472
-0.0017276111 0.0011853334 -0.0013117651
-0.001234008 0.0011853334 -0.0013117646
-0.0012340081 0.0011853334 -0.0018058829
-0.0012340082 0.0011853334 -0.0022176472
-0.00074040488 0.0011853334 -0.0018058829
-0.00074040476 0.0011853334 -0.0022176472
-0.0012340079 0.0011853334 -0.0008176472
-0.0022212146 -0.00076199998 -0.0022176476
-0.0027148176 -0.0011853334 -0.0022176472
0.00024680159 0.0011853334 -0.011194118
0.001234008 0.0011853334 -0.011688234
-0.00024680159 0.0011853334 -0.0018058829
0.00074040482 0.0011853334 -0.0013117651
0.00074040476 0.0011853334 -0.0018058829
0.00024680159 0.0011853334 -0.0018058824
0.0022212146 0.0011853334 -0.0018058829
0.0015630769 0.00016933335 -0.0042764707
-0.0012340081 0.00018270178 -0.0092263157
-0.0015630769 0.00012700001 -0.0097529413
0.0042255423 0.00063884852 -0.01023583
0.0037102513 0.00019473337 -0.0092341183
0.0040310924 -0.00016933335 -0.00872353
0.0022212148 -0.00025399998 -0.010205883
0.0032084209 -0.00025399998 -0.010205882
0.0063345749 -0.00016933336 -0.0042764712
0.0088354982 -0.0001524 -0.0062529412
0.0088354973 -0.00015240001 -0.0067470586
0.0088354973 -0.00015240001 -0.0072411764
0.0088354973 -0.0001524 -0.0077352943
0.0073217801 -0.0011853334 -0.011194118
0.0068281782 -0.0011853334 -0.011688234
0.0083089881 -0.0011853334 -0.012182353
0.0040310924 -0.00016933335 -0.01432353
0.0040310924 0.00016933335 -0.01432353
0.0087861363 -0.0011684 -0.010255295
0.0091316598 -8.4666674e-05 -0.0092176469
0.0102834 -0.00025399998 -0.010205882
0.0102834 0.00025399998 -0.010205883
0.0083089871 0.00076200016 -0.012182354
0.0068281787 0.0011853334 -0.011194118
0.0078153852 0.0011853334 -0.011688235
0.007321781 -0.00071966671 -0.010329412
0.0078153843 -0.00025399996 -0.010205881
0.0073217801 -0.00025399996 -0.010205882
-0.016617976 -0.00016933335 -0.0163
-0.01883919 0.00012699999 -0.015764706
0.011599676 -0.00016933335 -0.017782353
0.011599676 -0.00016933335 -0.017288236
0.011599676 0.00016933335 -0.016794117
0.011303515 0.00015240003 -0.016794117
0.014122537 -0.00014111112 -0.0052647064
0.013820889 -0.00016933336 -0.0052647064
0.013820889 -0.00016933335 -0.0042764707
0.013820889 0.00016933335 -0.0042764703
0.013738624 -0.0011853334 -0.011194118
0.01324502 -0.0011853334 -0.011194119
0.014122537 -0.00014111113 -0.014817647
0.01382089 -0.00016933332 -0.014817647
0.011599676 -0.00016933335 -0.016794117
0.011352874 -0.00016933332 -0.016794117
0.012751417 -0.0011853334 -0.0107
0.012751416 -0.0011853334 -0.011688234
0.016371174 -0.00016933335 -0.0077352938
0.015219433 -0.0011853334 -0.011688234
0.014725829 -0.0011853334 -0.012182353
0.011599676 0.00016933335 -0.00872353
0.014232229 0.0011853334 -0.0107
0.014122537 -0.0001411111 -0.0072411769
0.011599676 -0.00016933335 -0.0072411769
0.006252307 -0.0011853334 -0.010700001
0.0051828343 0.00076199998 -0.0022176476
0.0063345749 0.00016933336 -0.005264706
0.0066636433 0.00016933335 -0.0062529412
0.0088025909 0.00016933336 -0.0062529417
0.0051828339 0.0011853335 -0.0013117646
0.0083089881 0.0011853334 -0.00032352936
0.0083089881 0.0011853334 -0.0008176472
-0.00024680162 0.00076199998 -0.0022176476
-0.00074040482 0.00076199998 -0.0022176472
0.0037020247 0.00016933336 -0.005264705
0.0032084212 0.0011853334 -0.0018058829
0.0027148174 0.0011853334 -0.0013117646
0.0012340081 -0.00016933336 0.00082941167
0.0012340081 0.00016933336 0.00082941167
0.0012340081 0.0011853334 -0.0022176472
-0.0041956273 0.0011853334 -0.0013117646
-0.0022212153 -0.00078316679 -0.00034411764
-0.0027148172 -0.0011853334 -0.0008176472
-0.0027148174 -0.0011853334 -0.0013117651
-0.0032084209 -0.0011853334 -0.0018058829
-0.0032084212 -0.0011853334 -0.0022176472
-0.0027148172 -0.0011853334 -0.0018058829
-0.0017276113 -0.0011853334 -0.0018058829
-0.0022212148 -0.0011853334 -0.0013117646
-0.00074040488 -0.0011853334 -0.0018058829
-0.0012340081 -0.00016933336 -0.0057588238
-0.00024680162 -0.0011853334 -0.0022176472
0.015219431 0.00025399998 -0.010205882
0.014149961 0.00016933335 -0.0092176469
0.014122537 -0.00014111112 -0.00872353
0.014122537 -0.0001411111 -0.0082294121
0.012257814 -0.00076199998 -0.010288235
0.0102834 0.00076200016 -0.012182353
0.010283401 0.00076199998 -0.010288234
0.0097897975 0.00076199998 -0.010288234
0.0097897965 0.00025399996 -0.010205882
0.011599676 -0.00016933335 -0.013252941
0.012751418 -0.00076200016 -0.012182351
0.011369328 -0.00022013337 -0.013252941
0.011599676 -0.00016933335 -0.013829411
0.0063345749 -0.00016933336 -0.0082294112
0.012751416 0.0011853334 -0.0018058824
0.013245018 0.0011853334 -0.0018058824
0.012751415 0.0011853334 -0.0022176472
0.013837343 0.00016933333 -0.0057588243
0.012751416 -0.0011853334 -0.0018058829
0.013245018 -0.0011853334 -0.0013117646
0.012751416 -0.0011853334 -0.0008176472
0.0027148174 0.00076200004 -0.0022176476
0.0022212148 0.0011853334 -0.0022176472
0.0022212146 0.00076199998 -0.0022176476
0.015713036 -0.00025400001 -0.010205882
0.020196596 0.00025400004 -0.0107
0.018174199 -0.00076905562 -0.010226469
0.017687447 -0.0011853334 -0.0013117651
0.0051828343 -0.0011853334 -0.011688233
0.0056764367 -0.0011853334 -0.011194118
0.0088025909 0.00016933336 -0.015311765
0.0091316598 0.00016933335 -0.015311764
0.0088354973 -0.0001524 -0.015805885
0.0088025909 0.00016933336 -0.0163
0.016347671 0.0001572381 -0.014817648
0.016617976 0.00016933335 -0.014817647
0.01883919 -8.4666681e-05 -0.014817648
-0.016617976 -0.00016933336 -0.013829411
-0.016330041 -0.00014816665 -0.013829412
-0.016338266 -0.00015240001 -0.013236472
-0.016371174 -0.00016933335 -0.01432353
-0.016617974 -0.00016933332 -0.014323532
-0.01631633 0.0001411111 -0.014323529
-0.01913535 -0.00015240001 -0.013829412
-0.016617976 0.00016933335 -0.014323532
-0.017177396 0.00075353339 -0.012124708
-0.016617974 0.00016933335 -0.01325294
-0.01472583 -0.0011853334 -0.011688234
-0.011599676 -0.00016933335 -0.0163
-0.010777002 -0.00076200016 -0.012182355
-0.011352875 -0.00016933335 -0.014817648
-0.015219432 -0.00025400001 -0.010205882
-0.017687446 0.00078509096 -0.010243313
-0.016347669 -0.0001572381 -0.00872353
-0.016330041 -0.00014816665 -0.0092176469
-0.017193846 -0.0011853334 -0.00032352936
-0.016617974 -0.00016933335 0.0013235295
-0.017687447 -0.0011853334 -0.0008176472
0.0091316598 -0.0001524 -0.015805881
0.0091316598 0.00016933335 -0.014817648
-0.0066636438 -0.00021166667 -0.015805883
-0.0063345754 0.00016933338 -0.017782353
-0.0066636438 -0.00016933333 -0.018111765
-0.0066636433 -0.00016933335 -0.017782353
-0.0102834 -0.00025399998 -0.010205882
-0.0102834 0.00025399996 -0.010205882
-0.0092961937 -0.0011853334 -0.010370589
-0.0078153862 -0.00025400001 -0.012182355
-0.0073217801 0.00076199998 -0.0022176476
-0.0066636438 -0.00016933333 -0.0032882355
-0.0063345749 0.00016933336 -0.0037823534
-0.0063345749 -0.00016933336 -0.0082294103
-0.011599676 0.00059266668 -0.012511765
-0.011599676 -0.00016933333 -0.013252942
-0.012751416 -0.00025399998 -0.012182356
-0.011599676 0.00016933335 -0.01432353
0.0015630769 0.00016933335 -0.015805883
0.00024680162 0.0011853334 -0.012182354
0.0012340081 0.000635 -0.012511765
-0.0088122711 -0.00016435295 -0.016309686
-0.011599676 0.00016933335 -0.016794117
-0.01631633 0.00014111112 -0.0163
-0.016330039 -0.00014816667 -0.017802941
-0.014067692 -0.00016933335 -0.01432353
-0.013827218 -0.00018887181 -0.013816743
-0.015713038 0.0011853334 -0.011688235
-0.015219434 0.0011853334 -0.0121
-0.01472583 0.0011853334 -0.011688235
-0.013820889 -0.00016933335 -0.017288238
-0.01883919 -0.00016933335 -0.017782353
0.016617976 -0.00016933335 0.0018176474
-0.015713036 -0.0011853334 -0.011688234
-0.017193848 -0.0011853334 -0.010700001
-0.016700244 -0.0011853334 -0.011194118
-0.01883919 0.00012699999 -0.015311765
-0.01883919 0.0001524 -0.014817648
-0.019817732 0.00077091233 -0.012113006
-0.019135352 0.00015240001 -0.014817647
-0.016700242 -0.0011853332 -0.010205881
-0.016617974 -0.00016933332 -0.0092176469
-0.01913535 -0.00015240001 -0.0047705891
-0.01883919 -0.00016933335 -0.0047705881
-0.01883919 0.00012699999 -0.0047705886
-0.01883919 -0.00016933335 -0.0042764707
-0.015219435 -0.00076200004 -0.0022176472
-0.016330041 -0.00014816667 -0.0032882355
-0.017193848 -0.00078316667 -0.00034411764
-0.016617974 -0.00016933336 0.00082941167
-0.018181054 -0.00078316667 -0.00034411764
-0.014108826 -0.00016933333 0.0013647061
-0.01382089 0.00016933332 -0.0057588234
-0.01382089 0.00016933335 -0.0062529412
-0.011599676 0.00016933335 -0.0062529407
-0.011599676 -0.00016933335 -0.0062529407
-0.011599676 0.00016933335 -0.0057588238
-0.017193846 0.00077006343 -0.01025294
-0.016700244 0.0011006667 -0.010288236
-0.015219435 0.00076200004 -0.010288235
-0.011369327 0.00022013337 -0.0092176469
-0.011229474 0.0011006667 -0.010288236
-0.011723077 0.0011006667 -0.010288236
-0.010777004 0.0011006667 -0.010205883
-0.010777003 0.00079586665 -0.010238823
-0.010308714 0.00078805129 -0.010269231
-0.011352874 -0.00016933335 -0.00872353
-0.011599676 0.00016933335 -0.00872353
-0.011599676 0.00016933335 -0.0082294121
-0.011599676 -0.00016933335 -0.00872353
-0.011599676 0.00016933335 -0.0092176469
-0.011352874 0.00016933335 -0.0082294112
-0.011352875 0.00016933332 -0.0077352948
-0.011599676 0.00016933335 -0.0077352938
-0.011352874 -0.00016933335 -0.0077352938
-0.011352875 -0.00016933335 -0.0082294112
-0.011599676 0.00016933335 -0.0032882355
-0.011599676 -0.00016933335 -0.0032882355
-0.012751415 0.00025400001 -0.0022176476
-0.012751416 -0.0011684 -0.010238823
-0.012285234 -0.00079022232 -0.010260783
-0.012257814 -0.00025399998 -0.010205881
-0.0091316598 0.00016933335 -0.0047705881
-0.0091316598 0.00016933335 -0.0037823531
-0.014091196 0.0001572381 -0.0052882358
-0.013820889 0.00016933332 -0.0052647064
-0.016617974 -0.00016933335 -0.0047705881
-0.016617976 -0.00016933335 -0.0062529412
-0.016206639 -0.0011853334 -0.0018058829
-0.016617974 0.00016933335 -0.0052647064
-0.017687447 0.00025400001 -0.0022176476
-0.016617976 0.00016933335 -0.0032882355
-0.016617974 -0.00016933335 -0.0037823531
-0.01883919 -0.0001524 -0.0037823531
-0.016617976 -0.00016933335 -0.0032882355
-0.017687447 -0.00025400001 -0.0022176476
-0.01631633 0.00014111113 -0.0042764712
-0.016371174 -0.00016933335 -0.0037823531
-0.01631633 0.00014111112 -0.0032882355
-0.018181054 -0.00076199998 -0.0022176476
-0.013820889 0.00016933335 -0.0047705886
-0.013820889 -0.00016933336 -0.0042764707
-0.013837343 0.0001524 -0.0042764703
-0.013820889 -0.00016933335 -0.0047705881
-0.014067692 0.00016933335 -0.0042764707
-0.014725829 -0.00078619056 -0.01025294
-0.014067692 0.00016933335 -0.00872353
-0.013820889 0.00016933332 -0.00872353
-0.014255731 0.0011006667 -0.010252942
-0.013828368 -0.00017703032 -0.0082294112
-0.014705263 0.0011006667 -0.010226471
-0.016316328 0.00014111112 -0.0072411769
-0.014067692 0.00016933335 -0.0072411769
-0.014067692 0.00016933335 -0.0067470591
0.015713036 0.0011853334 -0.0107
0.013245018 0.0011853334 -0.011688234
0.01176421 0.0011853334 -0.011194118
0.010777002 0.00076200016 -0.012182354
0.0102834 0.0011853334 -0.011688234
0.011435142 0.00059266668 -0.012511765
0.011311742 0.00016933338 -0.013819117
0.016338266 0.0001524 -0.013269411
0.0092961947 0.0011853334 -0.011194119
0.0088025909 0.0011853334 -0.011194119
0.0063345749 0.00016933336 -0.015805885
0.0066636433 0.00016933335 -0.014817648
0.0097897975 0.0011853334 -0.0018058829
0.0097897975 0.0011853334 -0.0022176472
0.0097897965 0.00076199998 -0.0022176476
0.010283399 0.00076200004 -0.0022176476
0.0088025909 0.00016933336 -0.0057588243
0.0088354982 -0.00015240001 -0.0057588243
0.0078153862 0.0011853334 -0.0018058824
0.0066636433 0.00016933335 -0.0052647055
0.0066636433 0.00016933335 -0.0042764712
0.008308989 0.0011853334 -0.0022176472
0.0078153852 0.0011853334 -0.0022176472
0.010777004 0.0011853334 -0.0008176472
0.011303514 0.00015240001 0.00082941167
0.0078153843 0.0011853334 -0.0008176472
0.0083089881 0.0011853334 -0.0013117651
0.012257813 0.0011853334 -0.0018058829
0.012257813 0.0011853334 -0.0022176472
0.0088025918 0.00016933336 -0.0067470586
0.0091316598 0.00016933335 -0.0072411769
0.0091316598 0.00016933335 -0.0077352938
0.0091316598 0.00016933335 -0.00872353
0.0088025918 0.00016933336 -0.00872353
0.0088025909 0.00019473338 -0.0092258826
0.011369329 -0.00022013338 -0.0092176469
0.011303515 0.0001524 -0.0077352943
0.011303514 0.0001524 -0.0082294112
0.011599676 0.00016933335 -0.0082294121
0.011303513 0.00015240001 -0.005264706
0.0088025918 0.00016933336 -0.0032882355
0.0078153852 0.00025399998 -0.010205881
0.0078153852 0.0011853334 -0.010205883
0.017193848 0.0011853334 -0.010700001
0.0012340082 -0.0011853332 -0.0107
0.00024680156 -0.00025399998 -0.010205883
0.00024680153 -0.00025399998 -0.012182353
0.00090493925 0.00033866666 -0.012511765
-0.00024680153 -0.00025399998 -0.012182354
0.0012340081 0.00016933336 -0.014323533
0.0046892297 0.00076200016 -0.012182353
0.0051828334 0.00076200016 -0.012182351
0.0051828343 0.0011853334 -0.012182354
0.0056764376 0.0011853334 -0.012182354
0.0056764372 0.00076200016 -0.012182354
0.0040310924 0.00016933335 -0.014817648
-0.0046892292 0.00076200016 -0.012182354
-0.0051828343 0.0011853334 -0.011688235
-0.0027148172 -0.00025399996 -0.012182355
-0.0088231573 -0.00015875002 -0.014333825
-0.0088354973 -0.00015240001 -0.014817647
-0.0091316598 -0.00016933335 -0.014817648
-0.0088354964 0.00015240001 -0.014817649
-0.0073217801 -0.0011853334 -0.010700001
-0.0091316598 0.00016933335 -0.0077352948
-0.0091316598 0.00016933335 -0.014817648
-0.0091316598 -0.00016933335 -0.015311765
-0.0091316598 0.00016933335 -0.015311765
-0.0088122701 -0.00016435297 -0.015311765
-0.0062523079 -0.0011853334 -0.010700001
-0.0051828339 -0.0011853334 -0.0107
-0.0041956268 -0.0011853334 -0.011194119
-0.0063345754 -0.00016933336 -0.014817647
-0.0066636438 -0.00018626667 -0.01432353
-0.0027251011 -0.0011959167 -0.010720589
-0.016617974 -0.00016933332 -0.0077352938
-0.014067692 -0.00016933335 -0.0072411769
-0.01382089 -0.00016933335 -0.0072411764
-0.01913535 -0.00015240003 -0.0082294103
-0.0066636438 -0.00016933333 -0.0088882353
-0.014108826 0.00016933333 0.0018176474
-0.010316307 0.0011006667 -0.010238824
-0.0092961947 0.0011430001 -0.010741177
0.01382089 -0.00016933335 -0.017288236
0.017193848 -0.00078619056 -0.00037058815
0.013245018 0.00076199998 -0.0022176472
0.012751417 0.00076199998 -0.0022176476
0.01382089 0.00016933335 -0.0032882355
0.015219433 0.0011853334 -0.0013117646
0.015713036 0.0011853334 -0.0008176472
0.016206637 0.0011853334 -0.00032352936
0.014149961 0.00016933335 0.0013235295
0.012751418 0.00078316679 -0.00034411764
0.016371174 -0.00016933335 0.00082941167
0.017193848 0.0011853334 -0.0008176472
0.017193846 0.0011853334 -0.00032352936
0.016700244 0.0011853334 -0.00032352936
0.017687446 0.00078316679 -0.00034411764
0.016617974 0.00016933335 0.00082941167
0.018181054 -0.00023283334 -0.00034411764
0.01631633 0.00014111112 0.0023117643
0.016330039 0.00014816667 0.0018382352
0.0088025909 0.0011853334 -0.00032352936
0.0092961937 0.0011853334 -0.0008176472
0.0088025909 0.0011853334 -0.0008176472
0.00880259 0.0011853334 -0.0013117646
0.01883919 0.00016933335 -0.017288236
0.01382089 0.00016933335 -0.01432353
-0.0027148174 0.00023283334 -0.00034411764
-0.0051828343 0.00078316667 -0.00034411764
-0.011599676 -0.00016933335 0.0013235295
-0.011599676 -0.00016933335 0.0018176474
-0.013820889 -0.00016933335 0.0018176474
-0.011352874 -0.00016933335 0.0018176474
-0.0088354973 0.00015240001 -0.0032882355
-0.016206639 0.0011853334 -0.0008176472
-0.016206637 0.0011853334 -0.0013117646
-0.015713036 0.0011853334 -0.0013117646
-0.014232227 0.0011853334 -0.0008176472
-0.015713036 0.0011853334 -0.0018058829
-0.013738622 0.0011006667 -0.010288236
-0.013738623 0.0011684 -0.010732942
-0.013245019 0.0011006667 -0.010288236
-0.014232228 0.0011684 -0.01073294
-0.012257813 0.0011853334 -0.0022176472
-0.01176421 0.0011853334 -0.0022176472
-0.011764211 0.0011853334 -0.01119412
-0.010283399 0.0011853334 -0.011688235
-0.012257814 0.00076200016 -0.012182354
-0.001234008 0.00016933336 -0.0052647064
-0.0012340082 -0.00016933336 -0.0052647055
-0.0027148176 0.0011853334 -0.0018058829
-0.018181056 0.0011853332 -0.010700001
-0.017193846 0.0011853334 -0.011688235
-0.0056764367 0.0011853334 -0.0008176472
-0.0062523074 0.0011853334 -0.0008176472
-0.0056764372 0.0011853334 -0.0022176472
-0.006252307 0.0011853334 -0.0022176472
-0.0051828343 0.00025400001 -0.0022176476
-0.0051828343 0.00076199998 -0.0022176476
-0.0040310924 -0.00016933335 -0.0032882355
-0.0041956278 0.0011853334 -0.0107
-0.0038254252 -0.000635 -0.012552941
-0.0032084209 -0.0011853334 -0.011194119
-0.0032084207 0.00076200027 -0.012182356
-0.015219434 0.00078316679 -0.00034411764
-0.0032084209 0.00127 -0.010370589
-0.001234008 0.00016933336 -0.0077352948
-0.0012340081 0.00016933336 -0.0067470586
-0.0015630769 8.4666674e-05 -0.0067470595
-0.001234008 0.00016933336 -0.0072411769
-0.012751416 0.0011853334 -0.0018058829
-0.013245019 0.0011853334 -0.0022176472
-0.012751418 0.0011853334 -0.0022176472
-0.0097897975 0.0011853335 -0.0008176472
-0.0088025918 0.0011853334 -0.0008176472
-0.0088025909 0.0011853334 -0.0013117646
-0.0040310924 0.00016933335 -0.0057588238
-0.0037020242 0.0011853334 -0.0022176472
-0.0032084212 0.0011853334 -0.0022176472
-0.0037349313 0.0001524 -0.0037823536
-0.0037349311 0.00015240001 -0.0032882355
-0.0040310924 0.00016933335 -0.0052647064
-0.0040310924 0.00016933335 -0.0037823531
-0.0037349309 0.0001524 -0.0047705891
-0.0040310924 0.00016933335 -0.0047705886
-0.004689231 0.0011853334 -0.0022176472
-0.0015630769 -0.00016933335 -0.0067470595
-0.0037349313 0.00015240001 -0.0072411774
-0.0037020242 -0.0011853334 -0.0008176472
-0.0037020247 -0.0011853334 -0.0107
-0.0041956268 -0.0011853334 -0.0107
-0.0015630769 8.4666666e-05 -0.0082294121
-0.0040310924 -0.00016933335 -0.0082294121
-0.0037020247 -0.00016933336 -0.0077352948
-0.0037020247 -0.00016933336 -0.0082294112
-0.0037020242 -0.00016933336 -0.00872353
-0.0040310924 0.00016933335 -0.0082294121
-0.0037349313 0.0001524 -0.0087235291
-0.0037102513 -0.00019473337 -0.0092341183
-0.0032084212 0.00025399998 -0.010205881
-0.0037020233 -0.00016933338 -0.0067470586
-0.0040310924 0.00016933335 -0.00872353
-0.0063345749 0.00016933336 -0.0062529412
-0.0063345749 0.00016933336 -0.0057588238
-0.01913535 0.00015240001 -0.0062529412
0.015219432 -0.0011853334 -0.0022176472
0.015713036 -0.00076199998 -0.0022176476
0.016700242 -0.0011853334 -0.0018058824
0.01908599 0.00016933335 -0.0047705881
0.01908599 -0.00016933336 -0.0047705886
0.019104974 -0.00016282054 -0.0052773757
0.01908599 -0.00016933336 -0.0037823531
0.018674659 -0.0011853334 -0.0022176472
0.017193846 -0.0011853334 -0.0018058829
0.017193845 -0.0011853334 -0.0022176472
0.010777004 -0.00078316685 -0.00034411764
0.01324502 0.0011853334 -0.0022176472
0.014232228 -0.0011684 -0.0003564707
0.015219435 -0.00078316685 -0.00034411764
0.014725829 0.00076199998 -0.0022176476
0.015219435 0.00076200004 -0.0022176472
0.015219435 0.00025400001 -0.0022176476
0.01472583 0.0011853334 -0.0018058824
0.01382089 0.00016933332 -0.0037823534
0.014149961 0.00016933332 -0.0037823534
0.01414996 0.00016933335 -0.0042764707
0.014122537 -0.0001411111 -0.0042764707
0.01670024 0.0011853334 -0.0018058829
-0.0051828339 -0.00078316685 -0.00034411764
-0.0046892306 -0.0011853334 -0.0018058829
-0.0083089881 0.0011853334 -0.0008176472
-0.0083089881 0.0011853334 -0.00032352936
-0.0073217805 -0.00076199998 -0.0022176476
-0.0068281787 0.0011853334 -0.0008176472
-0.0066636438 -0.00016933333 5.8822334e-06
-0.0073217801 0.00023283332 -0.00034411764
-0.0091316598 0.00016933335 0.00082941167
-0.0097897965 0.00078316667 -0.00034411764
-0.008308989 -0.00078316685 -0.00034411764
-0.0073217805 -0.00078316679 -0.00034411764
-0.0078153843 0.00078316685 -0.00034411764
-0.0078153862 0.00023283334 -0.00034411764
-0.0073217801 0.00078316685 -0.00034411764
-0.0088122692 -0.00016435295 0.0023117643
-0.0088354973 0.00015240001 0.0018176474
-0.0088354973 0.00015240001 0.0013235295
0.01382089 -0.00016933335 0.0018176474
0.0073217801 -0.00078316685 -0.00034411764
0.0037349318 -0.00015240001 0.0023117643
0.0032084212 -0.0011853334 -0.0022176472
0.0037020242 -0.0011853334 -0.0022176472
0.0032084212 -0.0011853334 -0.0008176472
0.0051828339 -0.0011853334 -0.0022176472
0.0051828343 -0.0011853334 -0.0013117646
0.0015630769 0.00016933335 0.0013235295
0.0040310924 0.00016933335 0.0018176464
0.0037349311 -0.0001524 0.0013235295
0.0068281782 -0.0011853334 -0.0018058829
0.0073217805 -0.0011853334 -0.0013117646
0.0083089881 -0.0011853334 -0.0018058829
0.0088025909 -0.0011853334 -0.0013117651
0.008308989 -0.0011853334 -0.0022176472
0.0073217801 -0.0011853334 -0.0022176472
0.0088354973 -0.00015240001 -0.005264706
-0.013245018 -0.0011853334 -0.0018058829
-0.01324502 -0.0011853334 -0.0022176472
-0.012751416 -0.0011853334 -0.00032352936
-0.012751418 -0.00078316685 -0.00034411764
-0.01382089 -0.00016933335 0.00082941167
-0.012257813 -0.0011853334 -0.0008176472
-0.013245018 -0.00076199998 -0.0022176476
-0.013245019 -0.00078316679 -0.00034411764
-0.012751416 -0.00025400001 -0.0022176476
-0.010283401 0.00025400001 -0.0022176476
-0.0102834 -0.00078316685 -0.00034411764
-0.010777004 0.00078316667 -0.00034411764
-0.011764211 -0.0011571111 -0.010260785
-0.011270608 -0.0011571111 -0.010260785
-0.011599676 -0.00016933335 -0.0082294121
-0.0088025909 -0.0011853334 -0.011688235
-0.0088025918 -0.0011853334 -0.0107
-0.008308989 -0.0011853334 -0.0022176472
-0.0083089881 -0.00076199998 -0.0022176472
-0.0078153852 -0.00076200004 -0.0022176472
-0.0063345754 0.00016933336 -0.0047705891
-0.0063345754 -0.00016933336 -0.0047705891
-0.0063345749 0.00016933336 -0.0042764707
-0.0091316598 -0.00016933335 -0.0062529412
-0.0063345749 -0.00016933336 -0.0052647055
-0.0066636438 -0.00016933333 -0.0042764707
-0.011599676 -0.00016933335 -0.0077352938
-0.011599676 -0.00016933335 -0.0072411769
-0.011352874 -0.00016933335 -0.0072411769
-0.011352874 -0.00016933335 -0.0067470595
-0.011599676 -0.00016933335 -0.0057588238
0.018181054 -0.00076199998 -0.0022176476
0.018181054 -0.00025400001 -0.0022176476
0.017687449 -0.00025400001 -0.0022176472
0.016617974 0.00016933335 -0.0057588234
0.01883919 0.00016933335 -0.0052647055
0.01883919 0.00016933335 -0.0047705881
-0.0062523074 0.0011853334 -0.011194118
-0.0078153843 0.001143 -0.010741177
-0.0078153852 0.0011853334 -0.011688235
-0.0088025909 0.0011853334 -0.01119412
-0.0092961937 0.0011853334 -0.01119412
-0.0073217805 0.0011853334 -0.011194118
-0.0040310924 -0.00016933335 -0.015311764
