# .PCD v0.7 - Point Cloud Data file format
VERSION 0.7
FIELDS x y z
SIZE 4 4 4
TYPE F F F
COUNT 1 1 1
WIDTH 1163
HEIGHT 1
VIEWPOINT 0 0 0 1 0 0 0
POINTS 1163
DATA ascii
0.002217277 -0.0011437886 -0.00023497175
0.00078087812 -0.0011490473 -0.00022717472
0.00012013511 -0.00018142859 0.0012076087
0.00024027018 -0.0011490476 -0.00022717472
0.0051658116 -0.00018142858 0.00072934758
0.0037842554 0.0011490473 -0.0017815223
0.0042647994 0.0011490473 -0.0017815223
0.0037842554 0.0011490476 -0.0012434786
0.0032436501 0.0011490475 -0.0017815214
0.0032436487 0.0011490483 -0.0012434786
0.0027030411 0.0011490475 -0.0012434786
0.0027030408 0.0011490474 -0.0017815214
0.0037842563 0.0011490474 -0.0022000005
0.0032413818 0.0011467652 -0.0022360962
0.0047453367 0.0011490473 -0.00022717472
0.0052258805 0.0011490474 -0.00022717472
0.0057064164 0.0011490473 -0.00070543494
0.0074483785 0.00016126984 0.0026623188
0.0057064164 0.0011490473 -0.00022717472
0.0048826351 0.00013823131 0.0027021738
-0.0057064164 0.0011490473 -0.016248921
-0.0077323304 -0.00017043292 -0.012243478
-0.0074483776 -0.00018142856 -0.012781523
-0.0074483771 -0.00018142856 -0.012243479
-0.0086627193 -0.00074696279 -0.00028695725
-0.0074333614 0.00012095238 0.0026872279
-0.0067876372 -0.0011380516 -0.00024347845
-0.0074483776 -0.00018142856 0.0012076087
-0.0074483785 0.00012095238 0.00072934758
-0.0072681755 -0.0011490473 -0.00070543494
-0.0076886476 0.00012095238 0.00072934758
-0.0085295951 0.0010280953 -0.00034673978
-0.0074483785 0.00012095238 0.0012076087
-0.0074483776 -0.00018142856 -0.005248914
-0.0074483776 -0.00018142856 -0.0057271747
-0.0074483785 6.0476188e-05 -0.0047706529
-0.0074483776 -0.00018142858 -0.0047706524
-0.0074483776 -0.00018142855 -0.0062054358
-0.0074483771 -0.00018142856 -0.0067434786
-0.0076886471 0.00012095238 -0.0092543485
-0.0076886471 0.00012095238 -0.0087163048
-0.0077323331 -0.00017043293 -0.0087163076
-0.0051507945 0.00016630953 -0.0087163057
-0.0051658121 -0.00018142856 -0.0087163066
-0.005165813 -0.00018142856 -0.0092543447
-0.0051507954 0.00016630953 -0.0092543466
-0.0076886471 0.00012095238 -0.0082380446
-0.0049036983 0.00012645022 -0.0047978275
-0.0049255411 0.00012095238 -0.0042923917
-0.0051507945 0.00016630955 -0.0042923922
-0.005150795 0.00016630955 -0.0047706524
-0.0076886476 0.00012095238 -0.0067434786
-0.0085295951 0.0010280953 -0.0012434786
-0.0086388113 0.00070922083 -0.0017815214
-0.0082241083 0.00074126542 -0.00033136643
-0.0037842549 0.00072571414 -0.017205426
-0.0037842551 0.00024190472 -0.017205428
-0.0049135275 0.00013304764 -0.018269565
-0.0042647971 0.0007257142 -0.017205426
0.0077323313 0.00017043293 -0.0077597816
0.0086257057 -0.00070152374 -0.0012434786
0.0076886476 -0.00012095238 -0.01373804
0.0086154062 -0.00070411566 -0.015356446
0.007748716 -0.0011339283 -0.015367121
0.0086257029 -0.00070152379 -0.015770653
0.0086977873 0.00025399998 -0.016248923
0.0077323304 0.00017043293 -0.011705434
0.0077323322 0.00017043295 -0.011227173
0.0074483776 0.00018142856 -0.011227175
0.0051658121 0.00018142859 -0.0097923893
0.0074483776 0.00018142856 -0.0097923912
0.0077323318 0.00017043293 -0.010270653
0.0074483776 0.00018142856 -0.010270652
0.0074483785 -0.00012095238 -0.0097923921
0.0048955074 -0.00015119046 -0.0092543494
0.0051658112 -0.00018142859 -0.0097923903
0.0077323322 0.00017043293 0.00072934758
0.005165813 0.00018142856 0.0017456515
0.0074483776 -0.00015119048 0.0017257249
0.0072681759 -0.0011490473 -0.00070543494
-0.00078087818 -0.0011490474 -0.015770657
-0.00030033771 -0.0011490473 -0.015292399
-0.00078087818 -0.0011490473 -0.0152924
-0.001261419 -0.0011490473 -0.016727166
-0.001261419 -0.0011490473 -0.016248917
0.0037842563 -0.0011490473 -0.016727166
0.0042647989 -0.0011490473 -0.016727166
0.0042647975 -0.0011490473 -0.016248919
0.0067876377 -0.0011490473 -0.015770657
0.0057064164 -0.0011380516 -0.015308702
0.0001201351 -0.00018142859 -0.018759785
0.00022024773 -0.0011188095 -0.017504349
0.0026429733 -0.00018142858 -0.018281519
0.0051658121 -0.00018142858 -0.02127065
0.0048955074 -0.00015119048 -0.021270657
0.0030634459 0.0010280953 -0.017504349
0.0032436482 0.0011490476 -0.017205426
0.0037842554 0.0011490473 -0.01720543
0.0051658116 -0.00018142859 -0.018759785
0.0048955074 -0.00015119048 -0.019238047
0.0048955074 -0.00015119047 -0.018759783
0.0047453367 -0.0011369521 -0.017169563
-0.0007808783 0.0011490473 -0.015292399
-0.00030033771 0.0011490473 -0.015770657
-0.0007808783 0.0011490473 -0.016248917
-0.00030033771 0.0011490473 -0.016248921
-0.00028532094 0.0011036906 -0.017504349
-0.00018020265 0.00018142856 -0.019238047
0.00012013511 0.00018142859 -0.02127065
0.00012013511 0.00018142858 -0.020792387
-0.0017419592 0.0011490473 -0.01720543
0.00078087818 -0.0011490473 -0.01720543
0.00024027014 -0.0011490476 -0.017205428
0.0026429736 0.00018142859 -0.019716309
0.00012013511 0.00018142859 -0.019716308
-0.00018020264 0.00018142856 -0.020254351
0.00012013509 -0.00018142856 -0.020254359
0.0001201351 -0.00018142859 -0.019716309
0.0023706667 -0.00014111113 -0.01971232
0.0026429736 -0.00018142859 -0.020254359
0.0023693321 -0.00013439154 -0.020247703
0.0057064164 -0.00072571426 -0.0022000005
0.0077487133 -0.0011490473 -0.016727166
0.0077487165 -0.0011339283 -0.01713071
0.0067809629 -0.0007122751 -0.015325611
0.0068717301 -0.00020561903 -0.014993479
0.0067821746 -0.0011307212 -0.015359424
0.0074483785 -0.00012095238 -0.014216304
0.007688649 -0.00012095239 -0.014216304
-0.0076777264 0.00013744591 -0.020250728
-0.0051057432 0.00054428569 -0.017504349
-0.005150795 0.00016630953 -0.018759785
-0.0048955074 0.0001511905 -0.018759785
-0.0048955074 0.00015119047 -0.019238047
-0.0082272561 -0.00072772999 -0.017193472
-0.0087061217 -0.00024560737 -0.017150529
-0.0026362992 0.00016462963 -0.023196988
-0.0048955074 -0.00018142858 -0.018281519
-0.0042647985 -0.0011490473 -0.01720543
0.0017419596 0.0011490473 -0.016248921
0.0022225 0.0011490473 -0.016248921
0.0022224998 0.0011490473 -0.015770657
0.0023683782 -0.00012959183 -0.014199223
0.0010812163 -0.00090714288 -0.014993479
0.0017037347 -0.00018142858 -0.014993478
0.0072733988 0.0011437886 -0.017197633
0.0067876372 0.0011490473 -0.016727166
0.0057064169 0.0011490473 -0.015770657
-0.0067876372 0.0011490473 -0.016727166
-0.0072681755 0.0011490474 -0.015770657
-0.0067876386 0.0011490473 -0.015770657
0.0012614189 -0.0011490473 -0.01720543
0.001261419 -0.0011490473 -0.016727166
0.0007808783 -0.0011490473 -0.016727166
0.0023657379 -0.00011630038 -0.019242642
0.0012614187 -0.0011490473 -0.016248919
0.00078087818 -0.0011490473 -0.016248913
0.00024027015 -0.0011490476 -0.016248921
-0.0051658121 -0.00018142856 -0.021270648
-0.0051658121 -0.00018142859 -0.021748908
-0.0048774877 -0.0001572381 -0.021270655
-0.0048774877 -0.00015723807 -0.020792393
-0.0051658121 -0.00018142859 -0.020792386
-0.0055262162 -0.00054428569 -0.014993479
-0.0015617568 -0.0011490476 -0.014993479
-0.0027631081 -0.0011490476 -0.014993479
-0.0017059188 -0.00061685714 -0.014993479
-0.0026429733 -0.00018142858 -0.01373804
-0.0014416217 -0.00024190475 -0.014993479
-0.0055262162 -0.00090714288 -0.017504349
-0.0072733993 -0.0011437886 -0.017197631
-0.0072321347 -0.00056847616 -0.017504349
-0.0026279567 0.00016630953 -0.010748914
-0.0026429733 -0.00018142858 -0.010748917
-0.0026279564 0.00016630955 -0.010270653
-0.0049055186 0.00014111113 -0.010748913
-0.0049135275 0.00013304762 -0.010258696
-0.0048854966 -0.00016798942 -0.010270652
-0.00018020267 0.00018142856 -0.010748913
-0.00018020267 0.00018142856 -0.011227175
-0.00018020265 0.00018142856 -0.0077597834
-0.00018020267 0.00018142856 -0.0082380446
-0.0023546487 -0.00015723809 -0.0082380455
-0.0023626576 0.00010079365 -0.0082380436
-0.0023626576 0.00010079365 -0.0077597834
-0.0023546487 -0.0001572381 -0.0087163048
-0.0023626576 0.00010079366 -0.0087163048
-0.0026279564 0.00016630956 -0.0092543466
-0.00018020264 0.00018142858 -0.0092543503
-0.00018020265 -0.00018142855 -0.0097923903
-0.00018020264 -0.00018142858 -0.0092543494
-0.00018020267 0.00018142856 -0.0087163039
-0.0048955074 0.00015119048 -0.014216306
-0.0052859462 0.00054428569 -0.014993479
-0.0055862837 0.00018142856 -0.014993479
-0.0057064155 0.00072571408 -0.015292402
-0.0062424066 0.0011420692 -0.01531999
-0.0051457901 0.00019486771 -0.01422959
-0.005150795 0.00016630953 -0.012781528
-0.0085896635 -0.0010885713 -0.0017815223
-0.0085896635 -0.0010885715 -0.015770651
-0.0082292566 -0.0010885712 -0.01577065
-0.0077323322 -0.00017043293 -0.0047706524
-0.0086840568 -0.00070843549 -0.0022
-0.0023626576 0.00010079366 -0.005248914
-0.0076886476 0.00012095238 -0.011227176
-0.0077323318 -0.0001704329 -0.011227175
-0.0076886471 0.00012095238 -0.010748912
-0.0076886476 0.00012095238 -0.010270654
-0.0074483776 -0.00018142858 -0.0097923921
-0.0074483776 -0.00018142856 -0.011227175
-0.0077323313 -0.00017043292 -0.011705431
0.0007808783 0.0011490473 -0.00070543494
0.00078087836 0.0011490476 -0.0012434786
0.001261419 0.0011490477 -0.0012434786
0.0012614189 0.0011490473 -0.00070543494
0.0022225 0.0011490476 -0.0012434786
0.0022225 0.0011490473 -0.00070543494
-0.00078087818 0.00072571426 -0.0022000005
-0.001261419 0.00072571426 -0.0022000005
-0.00078087812 0.0011490473 -0.0022000005
0.0023426353 0.00018142858 -0.003754349
0.0022273704 0.0011457783 -0.0022064638
0.0023626576 -0.00010079366 0.00072934758
0.0023426348 0.00018142858 0.0017456515
0.0001201351 -0.00018142856 0.0017456515
0.0026429733 0.00018142859 0.0022836952
0.0048774877 0.00015723807 -0.0062054358
-0.00018020267 0.00018142858 -0.0062054358
0.0023426351 0.00018142859 -0.0067434767
0.0023683782 -0.00012959186 -0.0072815232
0.0023710884 -0.00014323308 -0.0067434795
0.00012013508 -0.00018142859 -0.0067434786
-0.0026429733 -0.00018142859 -0.0057271738
-0.0072681755 -0.0011490473 -0.0017815214
-0.0067876377 -0.0011490473 -0.0017815223
-0.0067876372 -0.0011490476 -0.0012434786
-0.0049135275 0.00013304762 -0.0077478271
-0.0049055186 0.00014111112 -0.0072815232
-0.005150795 0.00016630953 -0.0077597816
-0.0026429736 -0.00018142856 -0.0037543485
-0.0023546489 -0.0001572381 -0.0042923917
-0.0026429736 -0.00018142858 -0.0042923922
-0.0022224998 -0.0011490474 -0.0022000005
-0.0027030406 -0.0011490473 -0.0022000005
0.0052258787 -0.0011339283 -0.0021850551
0.0047435169 -0.0011307212 -0.0021927543
0.0042647985 -0.0011490473 -0.0017815223
0.0074483785 -0.00012095238 -0.0082380436
0.001261419 -0.0011490473 -0.015770657
0.00024027015 -0.0011490476 -0.015770661
-0.0026279567 0.00016630953 -0.0042923912
-0.00018020265 -0.00018142858 -0.0032163044
-0.001261419 -0.00072571443 -0.0022000005
-0.001261419 -0.00024190477 -0.0022000005
-0.00077847554 -0.00073055224 -0.0022095661
-0.0012614192 -0.0011490474 -0.0022000005
0.0082292557 -0.0010885712 -0.016727176
0.0085295951 -0.0010684128 -0.0017815223
0.0051658126 -0.00018142859 -0.0067434777
0.0086840577 0.00070843531 -0.0017815223
0.0047453358 -0.0011490473 -0.015770657
0.0052316003 -0.0011317683 -0.015312325
0.0047453372 -0.0011248568 -0.015316309
0.0074483785 -0.00012095238 -0.0057271742
0.007688649 -0.00012095238 -0.005248914
0.0074483785 -0.00012095237 -0.0052489135
0.0076886467 -0.00012095238 -0.0047706529
0.0074483785 -0.00012095238 -0.0047706529
-0.0051507945 0.00016630953 -0.011227178
-0.0049135275 0.00013304761 -0.011239132
-0.0051507945 0.00016630953 -0.010748914
0.0026429733 -0.00018142859 -0.010270654
0.00012013511 -0.00018142859 -0.0097923903
0.0001201351 -0.00018142859 -0.0092543447
0.0026429733 0.00018142859 -0.0097923903
0.0026429733 0.00018142859 -0.0087163066
0.0026320517 -0.0001704329 -0.0087217391
0.0023626576 -0.00010079365 -0.010748913
0.00012013511 0.00018142858 -0.010748917
0.0023426353 0.00018142856 -0.011227175
0.0023426353 0.00018142856 -0.010748914
0.0001201351 -0.00018142858 -0.011705432
0.0012253785 -0.0011248572 -0.014993479
-0.00018020267 -0.00018142856 -0.013259786
-0.00018020267 0.00018142858 -0.013259783
-0.00018020265 -0.00018142856 -0.012781523
0.0026429733 -0.00018142859 -0.014216304
0.0026429736 0.00018142856 -0.0067434767
0.0026429733 0.00018142856 -0.0072815223
0.0076886485 -0.00012095238 -0.022227174
0.004881856 0.00015393937 -0.023210872
-0.0077487133 0.0011490473 -0.016727166
0.0077487133 0.0011490473 -0.016248921
0.0042647985 0.0011490473 -0.016727166
0.0047453381 0.0010280953 -0.017504349
0.0047453362 0.0011380516 -0.017189128
0.0052297139 0.0011464738 -0.017201614
0.0077323322 0.0001704329 -0.020792387
0.0077323308 0.00017043292 -0.020254361
-0.0026429736 -0.00018142859 -0.022227172
-0.0023546487 -0.00015723809 -0.021270657
-0.0023546489 -0.00015723809 -0.020792393
-0.0026429733 -0.00018142858 -0.021270648
-0.0023546489 -0.00015723812 -0.020254347
-0.0026429733 -0.00018142859 -0.020254357
-0.0023706667 0.00014111113 -0.020788407
-0.0048774872 -0.00015723809 -0.019238047
-0.0026429733 -0.00018142858 -0.020792386
-0.0024027028 -0.00012095238 -0.023602175
-0.0051507945 0.00016630953 -0.022705436
-0.0048955078 0.00015119047 -0.022705436
-0.0048955078 0.00015119047 -0.02222717
0.00012013511 -0.00018142858 -0.022705436
0.0023706667 -0.00014111113 -0.022231158
0.0023426353 0.00018142856 -0.022227174
0.0026429738 -0.00018142858 -0.02222717
0.0026429733 -0.00018142859 -0.021748908
0.0026429733 0.00018142856 -0.02222717
0.0023426353 0.00018142856 -0.018759785
0.0022224998 0.0011490473 -0.016727166
0.0037842551 0.0011490473 -0.015770657
0.0027030408 0.0011490473 -0.015770657
0.0027030406 0.0011490474 -0.016727166
0.0027030406 0.0011490473 -0.01720543
0.0027871353 0.0010764763 -0.017504349
0.0049255406 0.00054428569 -0.014993479
0.0074483771 0.00018142858 -0.020254346
0.0076886485 -0.00012095238 -0.020254349
0.0074483785 -0.00012095238 -0.020792393
0.0032436494 -0.00072571391 -0.017205425
0.0037842556 -0.0007257142 -0.017205426
0.0076886471 -0.00012095238 -0.018759785
0.0074483785 -0.00012095238 -0.018759783
0.0072681764 -0.0011490474 -0.017145654
0.0074483785 -0.00012095237 -0.019238044
0.006242123 -0.0011441105 -0.017165169
0.0067828321 -0.00073297141 -0.017155213
0.006235763 -0.00072571402 -0.017160591
-0.0026429733 -0.00018142858 -0.018759785
-0.0026429733 -0.00018142859 -0.018281519
-0.0026359067 0.00017431373 -0.018278003
-0.0026429731 0.00057452376 -0.017504349
-0.0023626576 0.00010079364 -0.018281519
-0.0023683782 0.00012959183 -0.019229503
0.0007808783 0.0011490473 -0.016727166
0.00078087818 0.0011490473 -0.01720543
0.00024027015 0.0011490476 -0.017205428
0.00078087812 0.0011490473 -0.016248917
0.001261419 0.0011490473 -0.016248917
0.00016818919 0.0011248572 -0.014993479
0.0082292557 0.0011339283 -0.0021850551
0.0082292585 0.0011490473 -0.0017815223
0.0085696401 0.0010684127 -0.0022000005
0.0082255788 0.00072201167 -0.0022048806
0.0077323313 0.00017043293 -0.0032163039
0.0082292585 0.0011490476 -0.0012434786
0.0074483776 0.00018142856 -0.014216306
0.0077487133 -0.0011490473 -0.015770657
-0.0026343926 0.00017278914 -0.012249174
-0.0026429733 -0.00018142858 -0.012781526
-0.0026429736 -0.00018142859 -0.012243481
-0.0017419588 0.0011490473 -0.0152924
-0.0030834684 0.0001411111 -0.014993479
-0.0017419589 0.00072571414 -0.017205428
-0.0022224998 0.0011490473 -0.016248919
-0.0030434234 0.00010079364 -0.017504349
-0.0037001621 -0.00037495239 -0.017504349
-0.0077323322 -0.00017043293 -0.018759785
-0.0048774877 -0.00015723807 0.0022836952
-0.0032436487 -0.00076603168 -0.00026702974
-0.0032436487 -0.0011490476 -0.00022717472
-0.0037842561 -0.0011490473 -0.00022717472
-0.0037842558 -0.00076603168 -0.00026702974
-0.0072681755 -0.0011490476 -0.0012434786
-0.0062470278 -0.00024190484 -0.00022717472
-0.0067876382 -0.00024190477 -0.00022717472
-0.0023651605 -0.00015119048 0.0027245916
-0.00263096 -0.00016933333 0.0027300715
-0.0026429733 -0.00018142859 0.0022836961
-0.0023546487 -0.0001572381 0.0022836952
-0.0042647975 0.0011490476 -0.0012434786
-0.0037842561 0.0011490473 -0.00070543494
-0.0037842556 0.0011490476 -0.0012434786
-0.0047453367 0.0011490473 -0.0017815214
-0.0047453376 0.0011490476 -0.0012434786
-0.0042647985 0.0011490473 -0.0017815214
-0.0037842561 0.0011490474 -0.0017815223
-0.0042553134 0.0011363155 -0.00027122442
-0.0037798611 0.0011372471 -0.00025779475
-0.0048955074 0.00015119047 0.00072934758
-0.0042590769 0.00076315209 -0.00029265042
-0.0048955069 0.00015119048 0.0022836952
0.0077487137 0.0011490473 -0.00022717472
-0.0026265907 0.00015393939 0.0026967395
-0.0026320519 0.00017043292 0.0022818837
-0.0042647994 0.0011490473 -0.00070543494
-0.0052310289 0.0011455916 -0.00029037334
-0.0027030406 0.0011490473 -0.00022717472
-0.0062384466 0.0011404079 -0.00029549748
-0.0057064169 0.0011490474 -0.00028695725
0.0012614189 0.0011490473 -0.0017815223
0.00024027015 0.0011490476 -0.0017815223
-0.0007808783 -0.0011490473 -0.00022717472
-0.00030033771 -0.0011490473 -0.00022717472
-0.00018020264 -0.00018142859 0.0017456515
0.00024027015 0.0011490475 -0.00070543494
0.00024027015 0.0011490476 -0.00022717472
0.00078087806 0.0011490473 -0.00022717472
-0.0022225005 0.0011490473 -0.00022717472
-0.0017419588 0.0011490473 -0.00022717472
-0.0022224998 0.0011490473 -0.00070543494
0.0001201351 0.00018142859 0.0012076087
-0.00030033771 0.0011490473 -0.00022717472
-0.001261419 -0.0011490473 -0.00070543494
0.0027030411 -0.0011380516 -0.00024347845
0.0001201351 -0.00018142858 0.0022836952
0.00078087818 -0.0011490473 -0.00070543494
0.00078087818 -0.00076603168 -0.00026702974
0.00078087818 -0.0011490476 -0.0012434786
0.00024027015 -0.0011490476 -0.00070543494
0.00024027015 -0.0011490483 -0.0012434786
0.0051658121 0.00018142859 0.00072934758
0.0057064164 0.00076419918 -0.00028695725
0.0062470282 0.0011490476 -0.00022717472
0.0062470278 0.00022980951 -0.00023115985
0.0027030411 0.0011464179 -0.0022519855
0.0026429733 0.00018142858 -0.0042923926
0.0023426353 0.00018142856 -0.0047706519
0.0023426355 0.00018142856 -0.0042923922
0.0062506143 0.00072300626 -0.0022249836
0.0062470278 0.0011490473 -0.0022000005
0.0074391365 0.00018142856 -0.0032025091
0.0067876345 0.0011490473 -0.0022000005
0.0051658121 0.00018142858 -0.0062054377
-0.0042647989 0.0011490473 -0.016248917
-0.0037842558 0.0011490473 -0.016248921
-0.0047453367 0.0011490473 -0.015770657
-0.0047453358 0.0011490473 -0.016248917
-0.0047404664 0.0011457783 -0.017152114
-0.0052258801 0.0011490473 -0.016248921
-0.0062470287 0.0011490476 -0.016248917
-0.0049055186 0.00014111112 -0.0062054358
-0.0048854961 -0.0001679894 -0.0062054358
-0.0048902072 -0.00017431371 -0.005723658
-0.0051507945 0.00016630953 -0.0072815241
-0.0074283555 0.00014111113 0.0023235502
-0.0042647985 -0.00076603174 -0.00026702974
-0.0048774877 -0.00015723809 0.00072934758
-0.0042647989 -0.0011490473 -0.00022717472
-0.0074342438 -0.00016719886 0.0017667515
-0.0051658121 -0.00018142858 0.0012076087
-0.0067876372 -0.00076603185 -0.00026702974
-0.0077487156 0.0011144895 -0.00030403771
-0.0072601666 0.0011248569 -0.0003028987
-0.0067876349 0.0011339284 -0.00030190218
-0.0067805685 0.00073638663 -0.00033618975
-0.0062470259 0.0007499049 -0.00031086989
-0.0051507945 0.00016630953 0.00072934758
-0.0074483776 -0.00018142858 -0.0032163048
-0.0067876359 -0.00072571426 -0.0022
-0.0077323313 -0.0001704329 -0.0032163057
-0.0076886481 0.00012095238 -0.0037543485
-0.0076886495 0.00012095238 -0.0032163048
-0.0082292557 0.00072571432 -0.0022000005
-0.0072681755 -0.0011380517 -0.0022434792
-0.0074483785 6.0476188e-05 -0.005248914
-0.005150795 0.00016630955 -0.0082380446
-0.0085295951 0.0010280953 -0.00070543494
-0.0085295951 0.0010280953 -0.0022000005
-0.0086347144 0.00070681551 -0.002196264
-0.0032436487 0.0011490476 -0.016727163
-0.0067876386 0.0011490473 -0.016248917
0.0077323331 0.00017043293 -0.0082380464
0.0077323322 0.00017043292 -0.0057271738
0.0086888466 0.00025456256 -0.0021944391
0.0086169662 -0.00069272722 -0.0021565221
0.0086497329 -0.00024190477 -0.0017815223
0.0086342292 -0.00023605223 -0.002180716
0.0086257057 -0.00070152385 -0.0017815223
0.0082292566 0.00072974613 -0.015304357
0.0086257057 -0.00070152379 -0.016248915
0.0086497329 -0.00024190474 -0.016248917
0.0051658121 -0.00018142856 -0.013738042
0.0051626503 -0.00019416043 -0.014225744
0.0074483785 -0.00012095238 -0.013738044
0.0077323294 0.00017043292 -0.012243474
0.0077323313 0.00017043293 -0.010748916
0.0074483776 0.00018142858 -0.010748913
0.0048774877 0.00015723809 -0.0097923903
0.0076886476 -0.00012095238 -0.011227175
0.007448378 -0.00012095238 -0.0092543485
0.0074483785 -0.00012095237 -0.010270652
0.0076886467 -0.0001209524 -0.010270653
0.0048955074 -0.00015119047 -0.0097923903
0.0048955074 -0.00015119048 -0.0087163057
0.0077323318 0.00017043293 0.0012076087
0.0051658121 0.00018142856 0.0012076087
0.0051658126 -0.00018142859 0.0017456515
0.0074312151 0.00018142858 0.00072934758
0.0067876368 0.00076419918 -0.00028695725
0.0067876368 0.0011490473 -0.00022717472
0.0067876382 0.00022980951 -0.00023115985
0.0072681755 0.0011490473 -0.00070543494
0.0057064169 0.0011490473 -0.0017815223
0.0062470273 0.0011490476 -0.0017815223
0.0067876368 -0.0011490473 -0.00070543494
-0.00078087812 -0.0011490473 -0.016248923
0.0047453362 -0.0011490474 -0.016727166
0.0052337144 -0.0011464178 -0.017197631
0.0052258796 -0.0011490473 -0.016727166
0.0042606071 -0.001137796 -0.017184576
0.0048955074 -0.00015119047 -0.018281521
0.0051658121 -0.00018142859 -0.019238049
0.005702226 -0.001137796 -0.017184578
0.0062470259 -0.0011490476 -0.0017815223
0.0048955074 -0.00015119047 -0.022227174
0.0023706665 -0.00014111112 -0.020788407
0.0023426353 0.00018142858 -0.020254351
0.0023426355 0.00018142858 -0.020792395
0.0026429736 0.00018142858 -0.021748908
0.0017419594 -0.0011490473 -0.016727166
0.001261419 0.0001411111 -0.017504349
0.0077082599 -0.00017649173 -0.017728832
-0.00018020265 -0.00018142858 -0.018281519
-0.00078087853 -0.0007257142 -0.017504349
0.0001201351 -0.00018142858 -0.018281521
0.0001201351 0.00018142858 -0.018281521
-0.00030033771 0.0011490473 -0.016727166
0.0001201351 0.00018142858 -0.021748908
-0.0023657379 0.00011630037 -0.018773582
-0.0074483785 0.00012095238 -0.018759783
-0.0074483785 0.00012095238 -0.019238044
-0.0074483776 -0.00018142858 -0.018759785
-0.0074483785 0.00012095238 -0.018281521
-0.0076886485 0.00012095238 -0.018759785
0.0026429738 0.00018142859 -0.020254357
0.0001201351 0.00018142859 -0.020254357
-0.00018020264 -0.00018142858 -0.020254351
-0.00018020265 -0.00018142856 -0.014216304
-0.00072081084 -0.00054428569 -0.014993479
0.00048054053 -0.0010280953 -0.014993479
-0.00030033771 0.0011490473 -0.015292399
0.00078087812 0.0011490473 -0.015292399
0.0012947898 0.00019486774 -0.014993479
0.0016218245 0.00060476188 -0.014993479
0.0062470296 0.00076419901 -0.00028695725
0.0067876368 0.0011490473 -0.00070543494
0.0037842547 0.00022980952 -0.00023115985
-0.007448378 0.00012095238 -0.020254347
-0.0074483785 0.00012095238 -0.019716304
-0.0077323308 -0.00017043292 -0.020254361
-0.0076752994 0.0001411111 -0.019714089
-0.0067837639 0.00072181248 -0.017199641
-0.0069678379 0.00018142856 -0.017504349
-0.0051507945 0.00016630955 -0.018281519
-0.005706416 0.0007257142 -0.017205428
-0.0069077704 -0.00060476188 -0.017504349
-0.0060067568 -6.0476195e-05 -0.017504349
-0.0068477029 -0.00030238094 -0.017504349
-0.0048955074 0.00015119048 -0.019716304
-0.0048955074 0.00015119047 -0.020254346
-0.0048774872 -0.0001572381 -0.020254346
-0.0051507954 0.00016630955 -0.020254355
-0.0051658126 -0.00018142859 -0.020254357
-0.00018020265 0.00018142856 -0.020792393
-0.0048955074 0.00015119048 -0.021270655
-0.0026395409 0.00017797282 -0.02126894
-0.0026359067 0.00017431373 -0.020792386
-0.0048955074 0.0001511905 -0.020792393
0.0026429731 0.00054428569 -0.014993479
0.0067876359 0.0011380516 -0.017189128
0.0061268918 0.00090714288 -0.017504349
0.0072681755 0.0011490473 -0.015770657
0.0067876372 0.0011490473 -0.016248919
0.0067876359 0.0011490473 -0.015770657
0.0062421258 0.0011218947 -0.015315577
0.0062470282 0.0011490476 -0.015770661
-0.0057064164 0.0011490473 -0.016727166
-0.0072579202 0.0011401973 -0.015323019
-0.0069077704 0.00024190478 -0.014993479
0.0023426355 0.00018142856 -0.019716304
0.00024027018 -0.0011490476 -0.016727163
-0.00030033771 -0.0011490473 -0.016727166
-0.0037842558 -0.0011490473 -0.01720543
-0.0037842554 -0.0011490473 -0.016727166
-0.0052258801 -0.0011490473 -0.016727166
-0.0057064164 -0.0011490473 -0.016248921
-0.0052258796 -0.0011490473 -0.016248919
-0.0062470278 -0.0011490476 -0.016727163
-0.0047453367 -0.0011490473 -0.01720543
-0.0047453358 -0.0011490473 -0.016727166
-0.0052258801 -0.0011490473 -0.01720543
-0.0047453362 -0.0011490473 -0.016248919
-0.0042647975 -0.0011490473 -0.016727166
-0.0037842558 -0.0011490474 -0.016248919
-0.0068586241 -0.00025839827 -0.014993478
-0.001261419 -0.0011490473 -0.015292395
-0.0026429733 -0.00018142858 -0.0087163066
-0.0026429736 -0.00018142859 -0.0092543457
-0.0023546487 -0.00015723809 -0.010270654
-0.0051507945 0.00016630953 -0.0097923903
-0.0051658116 -0.00018142859 -0.0097923893
-0.0051658126 -0.00018142859 -0.010270653
-0.0049135275 0.00013304762 -0.0098043475
-0.0062470273 -0.00072571391 -0.015292389
-0.0067876382 -0.00072571426 -0.015292402
-0.0057064164 -0.0011490473 -0.015770657
-0.0062470282 -0.0011490475 -0.015770661
-0.0062421239 -0.0011218947 -0.015315577
-0.0067876368 -0.0011490473 -0.015770657
-0.0048873164 -0.0001704329 -0.0092597837
-0.0023546487 -0.00015723809 -0.011227175
-0.0023657379 0.00011630038 -0.011700835
-0.00018020267 0.00018142858 -0.011705433
-0.0017419591 -0.0011490473 -0.016727166
-0.0032436496 -0.0011490476 -0.016727163
-0.0026429733 -0.00018142858 -0.014216304
-0.0032136149 -0.0011188096 -0.014993479
-0.0026429733 -0.00018142856 -0.013259784
-0.0023546489 -0.0001572381 -0.012781523
-0.0048955069 0.00015119048 -0.012781521
-0.0074483776 -0.00018142856 -0.019238045
-0.0023626576 0.00010079366 -0.0097923912
-0.0026279567 0.00016630953 -0.0097923893
-0.0062355069 0.00071660109 -0.015309593
0.0023706667 -0.00014111113 -0.0087123197
0.0023426355 0.00018142855 -0.0087163029
0.0023683782 -0.00012959185 -0.0082380446
0.0026279564 -0.00016630952 -0.0082380455
0.0023426353 0.00018142856 -0.0072815232
0.00012013513 0.00018142858 -0.0082380455
0.0001201351 -0.00018142858 -0.0087163057
0.0001201351 -0.00018142856 -0.0082380446
-0.00018020265 -0.00018142858 -0.0082380464
0.0001201351 0.00018142859 -0.0092543447
-0.0042647966 0.00072571408 -0.0152924
-0.0048955074 0.00015119047 -0.013738045
-0.0074483785 0.00012095238 -0.013259783
-0.0074483785 0.00010079364 -0.012781523
-0.0074483785 0.00012095238 -0.013738044
-0.0076886485 0.00012095238 -0.013738044
-0.0085896635 -0.0010885714 -0.016248912
-0.0085856589 -0.0010845397 -0.015304349
-0.0077487165 -0.0011087297 -0.015312321
-0.0082292575 -0.00072168227 -0.015304359
-0.0082292566 -0.0010885712 -0.0022000005
-0.0076886476 0.00012095238 -0.005248914
-0.0076886476 0.00012095238 -0.0047706524
-0.0077323318 -0.00017043293 -0.0042923931
-0.0082292585 -0.00072571443 -0.0022000005
-0.0077323322 -0.00017043293 -0.0082380464
-0.0074483776 -0.00018142858 -0.0077597843
-0.0074483776 -0.00018142856 -0.0072815213
-0.0077323318 -0.00017043293 -0.0077597816
-0.00018020265 0.00018142856 -0.0047706524
-0.00018020265 0.00018142856 -0.0042923922
-0.00018020267 -0.00018142856 -0.0047706524
-0.00018020267 -0.00018142856 -0.005248914
0.0001201351 -0.00018142858 -0.0047706529
-0.00018020265 0.00018142856 -0.005248914
-0.0076886476 0.00012095238 -0.011705432
-0.0074483785 6.0476195e-05 -0.010270652
-0.0074483776 -0.00018142856 -0.010270652
-0.0074483771 -0.00018142856 -0.0092543485
0.0017419589 0.0011490473 -0.00070543494
0.0017419591 0.0011490473 -0.00022717472
0.0017419589 0.0011490476 -0.0012434786
-0.00018020265 0.00018142856 -0.0032163044
0.0023626576 -0.00010079366 -0.0042923922
0.0023626576 -0.00010079365 0.0012076087
0.0001201351 -0.00018142859 0.00072934758
-0.00018020267 -0.00018142856 0.00072934758
0.0017419589 -0.00076603168 -0.00026702974
0.0022225 0.0011490473 -0.00022717472
0.0023706667 -0.00014111112 -0.0057311594
0.0026395409 -0.0001779728 -0.0062037287
0.0026395409 -0.00017797279 -0.0057322979
0.0026395407 -0.0001779728 -0.0052506207
0.0023706667 -0.00014111112 -0.0052449284
0.0032436484 -0.0011490474 -0.0022000005
0.0026429733 -0.00018142858 -0.0032163048
0.0032436489 -0.0007257142 -0.0022000009
0.0001201351 -0.00018142858 -0.0062054377
0.00012013511 0.00018142858 -0.0077597816
0.0026279569 -0.00016630955 -0.0067434786
0.0026279564 -0.00016630952 -0.0072815232
-0.00077925465 -0.0011457783 -0.0022064634
0.0001201351 -0.00018142859 -0.0072815232
-0.00030033771 -0.0011490473 -0.0017815223
0.00024027018 -0.0011490473 -0.0022000005
-0.0048854961 -0.00016798942 -0.0072815223
-0.0048902072 -0.00017431373 -0.0052524307
-0.0051658121 -0.00018142859 -0.0057271733
-0.0051658121 -0.00018142858 -0.0052489145
-0.0012614188 -0.0011490473 -0.0017815214
-0.0026429733 -0.00018142856 -0.0062054377
-0.0026429731 -0.00018142856 -0.0047706524
-0.0023546489 -0.00015723809 -0.0047706529
-0.0023626576 0.00010079364 -0.0047706524
-0.0026279562 0.00016630955 -0.0047706524
-0.0023546487 -0.00015723809 -0.0052489135
-0.00018020267 -0.00018142858 -0.0057271742
-0.00018020267 0.00018142856 -0.0057271738
-0.0051658121 -0.00018142858 -0.0047706519
-0.0026279564 0.00016630955 -0.0082380455
-0.00378303 -0.00072941685 -0.0022048806
-0.0037827163 -0.0011521487 -0.0022183955
-0.0032436482 -0.00072667404 -0.0022113882
-0.0026429733 -0.00018142856 -0.0032163048
0.0048997975 -0.00014687076 -0.0032077646
0.0042763506 -0.0007233881 -0.0022183955
0.0051658126 -0.00018142856 -0.0037543494
0.0074483785 -0.00012095238 -0.0077597834
0.00078087818 -0.0011490473 -0.015770657
-0.00030033771 -0.0011490473 -0.015770657
-0.0023626576 0.00010079365 -0.0032163048
-0.001756157 0.00072901289 -0.0022304356
-0.001261419 0.00024190472 -0.0022000005
0.00012013512 0.00018142858 -0.0032163048
-0.00018020264 0.00018142858 -0.0037543494
-0.00018020264 -0.00018142856 -0.003754349
0.007448378 -0.00012095238 -0.0037543485
0.0074483785 -0.00014111113 -0.0031963773
0.0082292594 -0.00072571426 -0.0022
0.0085696401 0.0010684127 -0.0017815223
0.0052258787 -0.0011490473 -0.016248917
-0.0074483785 6.0476181e-05 -0.010748914
0.0001201351 0.00018142858 -0.0097923893
0.0026429733 0.00018142858 -0.0047706529
0.0026395407 -0.00017797279 -0.0047723604
0.0026395407 -0.00017797279 -0.0042906832
0.0023426353 0.00018142856 -0.010270654
0.0023426355 0.00018142856 -0.0097923903
0.0026429733 0.00018142859 -0.0082380455
0.0023683782 -0.00012959185 -0.010262112
0.0026429736 0.00018142859 -0.010748915
0.0001201351 -0.00018142859 -0.012243476
0.00012013511 -0.00018142858 -0.012781525
-0.00018020264 -0.00018142858 -0.012243479
0.0001201351 0.00018142861 -0.012243479
0.0001201351 0.00018142856 -0.011705432
0.00012013512 0.00018142859 -0.011227179
0.0026429733 -0.00018142859 -0.011705432
0.0023683782 -0.00012959186 -0.011705437
-0.00018020265 -0.00018142856 -0.011705435
0.0001201351 -0.00018142856 -0.01373804
0.0023683782 -0.00012959183 -0.013738044
0.0026429733 -0.00018142859 -0.013738042
0.0048774877 0.00015723807 -0.0067434786
0.0048774867 0.00015723809 -0.0057271752
0.0048955074 -0.00015119048 -0.0057271738
0.0048955074 -0.00015119047 -0.0052489135
0.0086533725 -0.00021808078 -0.017134784
0.007749992 0.0011464738 -0.017201614
0.0037842554 0.0011490473 -0.016727166
0.0052258796 0.0011490473 -0.016727166
0.0074483785 -0.00012095237 -0.021270651
0.0051658121 0.00018142856 -0.021748908
0.0048774877 0.0001572381 -0.021748912
0.0051658116 -0.00018142858 -0.021748908
0.0042609642 0.0011464738 -0.017201615
-0.0026429733 -0.00018142859 -0.02174891
-0.0023546489 -0.00015723809 -0.021748917
-0.0023683782 0.00012959185 -0.021748913
-0.0023546487 -0.00015723809 -0.022227172
-0.00018020265 -0.00018142856 -0.021270657
-0.0023693321 0.00013439154 -0.020247703
-0.0031955945 -0.00071361905 -0.017504349
-0.0048774872 -0.00015723809 -0.019716302
0.0026429736 -0.00018142859 -0.022705436
0.0048774872 0.00015723809 -0.022227172
0.0048774867 0.00015723809 -0.021270655
0.0022225 0.0011490473 -0.01720543
0.0032436482 0.0011490475 -0.015770661
0.0032436496 0.0011490476 -0.016248919
0.0042647985 0.0011490473 -0.015770657
0.0027030406 0.0011490473 -0.016248917
0.0051658121 0.00018142858 -0.018281521
0.0056463517 0.00090714288 -0.017504349
0.0048774872 0.00015723809 -0.019238045
0.0048774872 0.00015723812 -0.018759785
0.0048774867 0.00015723809 -0.018281521
0.0051658135 0.00018142858 -0.018759785
0.0074483785 -0.00012095238 -0.019716306
0.0076886485 -0.00012095239 -0.019716302
0.0074483776 0.00018142856 -0.019716306
0.0067876359 -0.0011490474 -0.017145654
0.0067876377 -0.0011490473 -0.016727166
-0.0023546489 -0.0001572381 -0.018281521
0.0082292547 0.0011087299 -0.015312323
0.0077323313 0.00017043292 -0.0097923884
0.0077323331 0.00017043293 -0.0047706519
0.0077487137 -0.0011490473 -0.016248921
0.0072681759 -0.0011490473 -0.016248915
-0.0026320522 0.00017043289 -0.011710866
-0.0026429733 -0.00018142856 -0.011705432
-0.0042948308 9.0714282e-05 -0.014993479
-0.0017591213 0.0011490474 -0.0022341623
-0.0012614192 0.0011490474 -0.0022000005
-0.0017419591 0.0011490473 -0.0017815214
-0.0037842558 -0.00024190478 -0.00022717472
-0.0026429738 -0.00018142858 0.00072934758
-0.0037842554 0.00022980951 -0.00023115985
-0.0047497316 0.0011460973 -0.002229163
-0.0052163941 0.0011458644 -0.0022125859
-0.0051507954 0.00016630955 -0.003754349
-0.0051507945 0.00016630953 -0.0032163053
-0.0049135275 0.00013304761 -0.0032043485
-0.0042647971 0.0011490474 -0.0022000005
-0.0042647985 0.00072571426 -0.0022000005
-0.0032436489 0.0011490473 -0.0022000005
-0.0027030408 0.0011490473 -0.0017815223
-0.0027030406 0.0011490474 -0.0022000005
-0.0047453372 0.0011339283 -0.00030190218
-0.0051507954 0.00016630956 0.0017456524
-0.00078087836 0.0011490476 -0.0012434786
-0.00078087818 0.0011490473 -0.0017815214
-0.0048955074 0.00015119047 0.0017456515
0.0072681755 0.0011490473 -0.00022717472
-0.0032436487 0.0011380516 -0.00024347845
-0.0032436489 0.0011490476 -0.00070543494
-0.0027030408 0.0011490473 -0.00070543494
-0.0052258801 0.0011490473 -0.00070543494
-0.0047453367 0.0011490473 -0.00070543494
0.00012013511 0.00018142859 -0.003754349
-0.00030033776 0.0011490474 -0.0022000005
0.00024027018 0.0011490473 -0.0022
0.0001201351 0.00018142859 -0.0042923908
0.00077600777 0.0011457783 -0.0022064634
-0.00018020267 -0.00018142856 0.0012076087
-0.00018020267 0.00018142856 0.0012076087
-0.00018020265 0.00018142856 0.00072934758
-0.00078087818 0.0011490473 -0.00022717472
-0.001261419 0.0011490473 -0.00022717472
0.0012614188 0.0011490473 -0.00022717472
0.0017419589 0.0007641993 -0.00028695725
-0.0007808783 -0.00076603174 -0.00026702974
-0.00030033771 -0.0011490473 -0.00070543494
0.0048955074 -0.00015119048 0.00072934758
0.0026429733 0.00018142859 -0.0037543485
0.0026429733 0.00018142856 -0.0057271728
0.0026429733 0.00018142858 -0.0062054368
0.0023426355 0.00018142856 -0.0057271742
0.0062470264 0.0011490476 -0.00070543494
0.0072681755 0.0011490476 -0.0012434786
0.0042647985 0.0011490474 -0.0022000005
0.0047453362 0.0011490473 -0.0017815214
0.0067876372 0.0007257142 -0.0022000005
0.0042609638 -0.00076302944 -0.00027169287
-0.0042647985 0.0011490473 -0.015770657
-0.004264798 0.0011490473 -0.016727166
-0.0047453372 0.0011490473 -0.016727166
-0.004256607 0.0011408005 -0.017189128
-0.0048955078 0.00015119046 -0.021748917
-0.0051507945 0.00016630953 -0.021748908
-0.0062470287 0.0011490476 -0.015770661
-0.0049135275 0.00013304764 -0.0057152179
-0.007448378 6.0476188e-05 -0.0067434786
-0.0037842558 0.00072571432 -0.0022
-0.0037842558 0.00024190469 -0.0022000005
-0.0026279564 0.00016630956 -0.0032163053
-0.0032436496 0.00072571443 -0.0022000005
-0.0023626576 0.00010079364 -0.0037543485
-0.0049255411 0.00012095239 -0.0037543485
-0.0057064169 0.0011490474 -0.0022000005
-0.0062470278 0.0011490473 -0.0022000005
-0.0067876368 0.0011490473 -0.0017815223
-0.0062470236 0.0011490476 -0.0017815223
-0.0067876359 0.0011490474 -0.0022000005
-0.0037842554 -0.0011490473 -0.0017815223
-0.004264798 -0.0011490474 -0.0022000005
-0.0047453362 -0.0011490473 -0.00022717472
-0.0051658116 -0.00018142858 0.00072934758
-0.0067876372 -0.0011490473 -0.00070543494
-0.0067876377 0.00021598641 -0.00024425518
-0.0051658116 -0.00018142858 -0.0032163044
-0.0057064164 -0.0007257142 -0.0022000005
-0.0057064178 -0.0011490474 -0.0022000005
-0.0052216896 -0.001137796 -0.0022389288
-0.0074483785 0.00011231292 -0.0032248455
-0.0049083792 0.00013823129 -0.0092714289
-0.0048854961 -0.0001679894 -0.0098056756
-0.0049055186 0.00014111113 -0.0082380446
-0.0086388104 0.00070922077 -0.00070543494
0.0086840577 0.00070843543 -0.0022000005
0.0086977882 0.00025399998 -0.015770661
0.0051658112 -0.00054428569 -0.014993479
0.005706416 -0.00072571408 -0.0152924
0.0062439851 -0.00072341738 -0.015294662
0.0048955074 -0.00015119048 -0.013738045
0.0076886471 -0.0001209524 -0.0092543485
0.0076886476 -0.00012095237 -0.010748912
0.0048774872 0.0001572381 -0.0087163057
0.0057127406 0.0011458644 -0.0022125863
0.0057143494 0.00072913745 -0.0022225599
0.0067876368 0.0011490473 -0.0017815223
0.0037802514 -0.0011409838 -0.017193472
0.0042647975 -0.00072571426 -0.017205426
0.0047453362 -0.0011490473 -0.016248921
0.0049255406 -0.00054428569 -0.017504349
0.0044450001 -0.00012095238 -0.017504349
0.0067876368 -0.0011490473 -0.016248919
0.0062470268 -0.0011490476 -0.016248917
0.0027230631 -0.00058460317 -0.017504349
0.0023706667 -0.00014111114 -0.021274637
0.0023426353 0.00018142856 -0.021270657
0.0037241892 0.00030238094 -0.017504349
0.0074483785 -0.0001411111 -0.018261595
-0.0006006757 0.0010280953 -0.017504349
-0.00078087806 0.0011490473 -0.017205428
0.00024027015 0.0011490475 -0.016727163
0.00015016891 0.0010583334 -0.017504349
0.0006006757 0.0010280953 -0.017504349
0.00077229732 0.00076891156 -0.017504349
-0.0062470273 0.00072571391 -0.017205425
-0.00044049553 -0.0010684127 -0.014993479
0.00012013511 -0.00018142858 -0.013259783
0.00024027015 0.0011490476 -0.0152924
0.00078087812 0.0011490473 -0.015770657
0.0052258796 0.0011490473 -0.0017815223
0.0062470264 -0.00024190474 -0.0022000005
0.0062450576 0.00024487902 -0.0022039204
0.0062470268 -0.00024190475 -0.017205425
0.0062470264 -0.0011490476 -0.015770661
0.0057064164 -0.0011490473 -0.015770657
0.0062470273 -0.0011490476 -0.016727163
-0.007688649 0.00012095238 -0.019238049
-0.0051658126 -0.00018142856 -0.018281519
-0.0067876354 -0.0011380516 -0.017189126
-0.0074483776 -0.00018142856 -0.018281521
-0.0023706667 0.00014111112 -0.021274639
-0.0026429733 0.00018142859 -0.022705436
-0.0026402434 0.00017867968 -0.020254357
0.0027030406 -0.00054428569 -0.014993479
0.005706416 0.00072571414 -0.015292399
0.0074483776 0.00018142856 -0.018281521
0.0062470259 0.0011490476 -0.016727163
0.0067876349 0.0011087299 -0.01531232
0.0067846845 0.00071679143 -0.01530122
-0.0052258796 0.0011490473 -0.016727166
0.0023426355 0.00018142856 -0.019238051
0.0012547447 -0.00019486772 -0.014993479
-0.0057064169 -0.0011490473 -0.016727166
-0.0062470254 -0.0011490476 -0.016248923
-0.0042647975 -0.0011490473 -0.016248921
-0.0022825676 -0.00066523813 -0.014993479
-0.0023546487 -0.0001572381 -0.010748912
-0.0051507945 0.00016630953 -0.010270655
-0.0047453367 -0.0011490473 -0.015770657
-0.0067821741 -0.0011160604 -0.015330436
-0.0074391365 -0.00017212455 -0.0142301
-0.0048812814 -0.00016233082 -0.012778375
-0.0026429731 -0.00018142856 -0.010270653
-0.0026429733 -0.00018142859 -0.011227173
-0.003604054 -0.00042333335 -0.014993479
-0.0043935133 -0.00025054422 -0.014993479
-0.0042569633 -0.0011437886 -0.015297595
-0.0037842554 -0.0011490473 -0.015292399
-0.0023546484 -0.00015723809 -0.011705435
-0.0017419591 -0.0011490473 -0.017205428
-0.0022225 -0.0011490473 -0.0152924
-0.0012614188 -0.0011490473 -0.015770657
-0.0022225 -0.0011490473 -0.016248919
-0.0022225 -0.0011490473 -0.015770657
-0.0027030406 -0.0011490474 -0.016248921
-0.0032436487 -0.0011490476 -0.015292402
-0.0032436484 -0.0011490476 -0.015770661
-0.0027030408 -0.0011490473 -0.015770657
-0.0037842554 -0.0011490473 -0.015770657
-0.0032436496 -0.0011490476 -0.016248925
-0.0023657379 0.00011630038 -0.010275251
-0.00018020265 0.00018142856 -0.0097923903
0.0023426353 0.00018142858 -0.0092543485
-0.00018020267 -0.00018142856 -0.0087163029
0.0001201351 0.00018142858 -0.0087163066
-0.007679407 0.00013490842 -0.014216304
-0.0074350294 0.00011423281 -0.014236232
-0.0077323304 -0.00017043295 -0.013259778
-0.0082292557 -0.0010885712 -0.015292393
-0.0077323318 -0.00017043293 -0.0052489149
-0.0076886467 0.00012095238 -0.0042923912
-0.0077323318 -0.0001704329 -0.0072815204
-0.0023626576 0.00010079364 -0.0042923922
0.00012013511 -0.00018142859 -0.005248914
0.0001201351 0.00018142859 -0.0052489135
-0.0076886481 0.00012095238 -0.012243479
-0.0074483785 6.0476195e-05 -0.011227174
-0.0074483785 6.0476188e-05 -0.0097923912
-0.0022225003 0.0011490476 -0.0012434786
-0.0027030406 0.0011490476 -0.0012434786
-0.001741959 0.0011490476 -0.0012434786
-0.0017419591 0.0011490473 -0.00070543494
0.0023626576 -0.00010079366 -0.0037543485
0.0012614187 -0.00024190475 -0.00022717472
0.001261419 -0.00076603168 -0.00026702974
0.0032436489 -0.00076603156 -0.00026702974
0.0023426353 0.00018142856 0.00072934758
0.0032436482 -0.0011490476 -0.0017815223
0.0027030406 -0.0011490474 -0.0022000005
0.0022224996 -0.0011490473 -0.00070543494
0.0022225003 -0.0011490476 -0.0012434786
0.0017419584 -0.0011490473 -0.0017815223
0.0017468297 -0.0011490474 -0.0022064634
0.0012614192 -0.0011490474 -0.0022000005
0.0001201351 0.00018142859 -0.0057271738
0.0023683782 -0.00012959186 -0.0062054358
0.0023706665 -0.00014111113 -0.0077637685
-0.00029546741 -0.0011457783 -0.0022064634
0.00012013511 -0.00018142856 -0.0077597816
0.00024027015 -0.0011490476 -0.0017815214
0.00078087812 -0.0011490474 -0.0022
-0.0051658116 -0.00018142859 -0.0062054368
-0.0026429733 -0.00018142856 -0.0067434786
-0.0032436489 -0.0011490473 -0.0022000005
-0.0023546487 -0.00015723809 -0.0062054349
-0.0026429736 -0.00018142859 -0.005248914
-0.0023546489 -0.00015723807 -0.0057271742
-0.0051658121 -0.00018142858 -0.0042923912
-0.0048854961 -0.00016798943 -0.0047772955
-0.0062470273 -0.0011490483 -0.0012434786
-0.0062470282 -0.0011490476 -0.00070543494
-0.0026279564 0.00016630953 -0.0087163057
0.0037842549 -0.00072571443 -0.0022000005
0.0037842558 -0.00024190475 -0.0022000005
0.0049030157 -0.00014363097 -0.0037394026
0.0051658121 -0.00018142856 -0.0047706529
0.0051658126 -0.00018142858 -0.0042923922
0.0051658116 0.00018142859 -0.0047706524
0.0051658112 0.00018142859 -0.0042923926
0.0051658121 -0.00018142859 -0.0057271733
0.007688649 -0.0001209524 -0.0077597825
-0.00030033771 -0.0011490473 -0.016248917
-0.0067876372 0.00072571432 -0.0022000005
-0.0067876386 0.00024190475 -0.0022
-0.0023546487 -0.00015723809 -0.0032163048
-0.0017419591 -0.00072571426 -0.0022000005
-0.0017419592 -0.0011490474 -0.0022000005
-0.00018020267 -0.00018142856 -0.0042923922
0.0082292585 -0.00072571426 -0.01535218
0.0067876359 -0.0007257142 -0.0022
0.0076886485 -0.00012095238 -0.0032163053
0.008569641 0.0010684127 -0.0012434786
0.0052258796 -0.0011490473 -0.015770657
0.0057064169 -0.0011490473 -0.016248921
0.00012013511 0.00018142859 -0.010270654
0.0023683782 -0.00012959185 -0.0047706529
0.0026429733 0.00018142856 -0.0077597825
0.0026429733 0.00018142858 -0.011227172
0.0026429733 0.00018142856 -0.010270654
-0.00018020265 0.00018142856 -0.012781524
0.0023710884 -0.00014323308 -0.012243479
0.0026429738 -0.00018142859 -0.012243476
0.0023426351 0.00018142858 -0.012243479
0.0023683782 -0.00012959183 -0.01278152
-0.00018020265 -0.00018142856 -0.013738044
0.00012013512 0.00018142856 -0.01325978
0.0023426351 0.00018142856 -0.013738044
0.0023426355 0.00018142858 -0.013259784
0.0023726691 -0.00015119047 -0.013259783
0.0023426355 0.00018142856 -0.012781523
0.0037842558 0.0011490473 -0.016248921
0.0032436496 0.0011490476 -0.016727163
0.0055262162 -6.0476188e-05 -0.017504349
0.0057032546 -0.00072465325 -0.017183403
0.0051658116 -0.00018796655 -0.018276673
0.0048955074 -0.00015119048 -0.021748912
-0.0023626576 0.00010079367 -0.022227174
-0.0048774872 -0.00015723809 -0.022705436
-0.0051658116 -0.00018142856 -0.02222717
-0.005150795 0.00016630952 -0.022227172
-0.0036641215 -0.00090714288 -0.017504349
-0.0051658116 -0.00018142858 -0.019716309
-0.0026395412 0.00017797282 -0.02175403
0.0048774877 0.0001572381 -0.022705436
0.0026429733 0.00018142856 -0.02127065
0.0024027028 0.0010280953 -0.017504349
0.0018620945 0.00054428569 -0.017504349
0.0051658112 0.00054428569 -0.014993479
0.0038142907 0.00027214285 -0.014993479
0.0030834684 -0.0001411111 -0.014993479
0.0051658116 0.00018142858 -0.019238049
0.0076886476 -0.0001209524 -0.019238049
0.0077323318 0.00017043292 -0.019238053
0.0077323313 0.00017043292 -0.019716311
0.007448378 -0.00012095238 -0.020254347
-0.0023546487 -0.0001572381 -0.018759785
0.0074483771 0.00018142858 -0.0037543485
0.0077323294 0.00017043289 -0.003754348
0.0074483776 0.00018142858 -0.0057271742
-0.0032436487 0.0011490476 -0.016248923
-0.0032436489 0.00072571397 -0.017205426
-0.0037842554 -0.0011490473 -0.00070543494
-0.0052258787 -0.0011490473 -0.00022717472
-0.0052258801 -0.0011490473 -0.00070543494
-0.0057064164 -0.0011490473 -0.00022717472
-0.0062470273 -0.0011490476 -0.00022717472
-0.0057064164 -0.00076603162 -0.00026702974
-0.0022225003 0.0011426815 -0.0022125863
-0.0032436487 -0.0011490476 -0.00070543494
-0.0032436489 -0.0011490483 -0.0012434786
-0.0037842563 0.0007641993 -0.00028695725
-0.0032436489 0.00076419901 -0.00028695725
-0.0051507954 0.00016630956 -0.0067434786
-0.0049155299 0.00013103175 -0.0067434786
-0.0051658126 -0.00018142856 -0.0067434786
-0.0032436501 0.0011490476 -0.0017815214
-0.0037842568 0.0011490474 -0.0022000005
-0.002366662 9.6761905e-05 0.0027260873
-0.0023626576 0.00010079367 0.0022836952
-0.00030033768 0.0011490473 -0.00070543494
-0.001261419 0.0011490473 -0.00070543494
-0.0048955074 0.00015119047 0.0012076087
-0.0032436484 0.0011490483 -0.0012434786
0.0001201351 -0.00018142859 -0.003754349
0.00078087818 0.0011490473 -0.0017815214
0.00012013511 0.00018142856 -0.0072815213
-0.0012614193 -0.00076603168 -0.00026702974
-0.001261419 -0.00024190477 -0.00022717472
-0.0027030406 -0.0011490473 -0.00022717472
-0.0022225 -0.0011490473 -0.00022717472
0.0007702781 0.00072927173 -0.0022140667
0.0048774872 0.00015723809 0.00072934758
0.0037842561 0.00072571426 -0.0022
0.0032309089 0.00073121203 -0.0022217394
0.0026429736 0.00018142858 -0.0032163048
0.0037842558 0.00024190472 -0.0022000005
0.0026429733 0.00018142859 -0.0052489149
0.0057064164 0.0011490476 -0.0012434786
0.0048774872 0.00015723809 -0.0032163048
0.0042647985 0.00072571426 -0.0022
0.0048774872 0.0001572381 -0.003754349
0.0047437139 0.0011490474 -0.0022064638
0.0048774877 0.00015723809 -0.0042923917
0.0048774872 0.00015723809 -0.0047706529
-0.0051507945 0.00016630955 -0.020792395
-0.0051507945 0.00016630955 -0.021270651
-0.0057064164 0.00072571426 -0.0022
-0.0057064164 0.0011490473 -0.0017815214
-0.0049135275 0.00013304762 -0.0052608703
-0.005150795 0.00016630953 -0.0057271733
-0.0074483785 6.0476195e-05 -0.0072815223
-0.0052258805 0.0011490476 -0.0012434786
-0.0052258805 0.0011490473 -0.0017815223
-0.0057064169 0.00074990495 -0.00031086989
-0.0062470264 0.0011490483 -0.0012434786
-0.0062470273 0.0011490476 -0.00070543494
-0.005706416 0.0011490476 -0.0012434786
-0.0017419589 -0.0011490473 -0.0017815223
-0.0022224998 -0.0011490473 -0.0017815214
-0.0022225003 -0.0011490476 -0.0012434786
-0.0027030408 -0.0011490473 -0.0017815214
-0.0062420201 0.00022174607 -0.00023879856
-0.0049135275 0.00013304762 -0.0087282611
-0.0048854966 -0.0001679894 -0.0082380436
0.0077323318 0.00017043292 -0.0052489145
0.0086497338 -0.00024190477 -0.015770657
0.0055662612 -0.00010079364 -0.014993479
0.0056313346 0.00021166667 -0.014993479
0.0026429733 -0.00018142859 -0.013259782
0.0026429733 0.00018142859 -0.013259784
0.0043248646 0.00054428569 -0.014993479
0.0051658121 -0.00018142858 -0.010270654
