# .PCD v0.7 - Point Cloud Data file format
VERSION 0.7
FIELDS x y z
SIZE 4 4 4
TYPE F F F
COUNT 1 1 1
WIDTH 1164
HEIGHT 1
VIEWPOINT 0 0 0 1 0 0 0
POINTS 1164
DATA ascii
0.0065337336 -0.00017212455 -0.0097761983
0.0062493761 0.00017043293 -0.010255035
0.0061363913 -0.0010684128 -0.0085679246
0.012583483 -0.00024190475 -0.0067644645
0.012583486 -0.00060476188 -0.0067062895
-0.010769201 0.00076027226 -0.00031522894
-0.010253212 0.0011369521 -0.00028364779
0.010777519 0.0011380516 -0.0002646083
-0.0027380735 0.0011490473 -0.00024874182
-0.0027380732 0.0007641993 -0.00030691829
-0.0034954126 6.0476192e-05 0.00071116351
-0.0037866964 0.00018142861 0.0012638364
-0.0034954126 6.0476188e-05 0.0016710693
-0.0037866968 0.00018142858 0.0017292448
0.0017477063 0.0011490476 -0.00024874182
0.0017477064 0.0011490476 -0.00071415119
0.00093211007 0.00018142856 0.0023303987
-0.0072821104 0.0011490476 -0.0012377356
-0.0077481656 0.0011490473 -0.00176132
-0.0072821118 0.0011490473 -0.00176132
-0.0067578 0.0011490483 -0.0012377361
-0.009262844 0.0011490476 -0.0012377354
-0.0087385327 0.0011490476 -0.0017613203
-0.0087385289 0.0011490483 -0.0012377359
-0.0097288983 0.0011490473 -0.00071415119
-0.011243578 0.0011490473 -0.00071415119
-0.0092671067 0.0011431472 -0.0021969324
-0.0097288964 0.0011490473 -0.0067644664
-0.0077481642 0.0011490473 -0.0067644659
-0.0082142185 0.0011490473 -0.00176132
-0.0082142204 0.0011490476 -0.0012377356
0.011301834 0.00018142859 -0.010720436
0.011325138 0.0010764763 -0.0085679246
0.011310157 0.00018142859 -0.011238486
0.0012233945 0.00018142856 0.0012638364
0.0012233944 0.00018142856 0.00074025197
-0.0015612846 -0.0001572381 0.0022528302
-0.0015146788 0.00012095238 0.0022528302
0.0027380732 -0.00024190478 -0.0085679246
0.0022137614 -0.00024190475 -0.0085679246
0.0027380735 0.0011490473 -0.0067644655
-0.00075733941 -0.0011490475 -0.0077534611
-0.00029128438 -0.0011490473 -0.0082770456
0.00088217563 -0.00026782314 -0.0085679246
0.00023302757 -0.00024190484 -0.0082770484
0.00089715596 0.00025400001 -0.0086261015
0.0027380735 -0.00024190475 -0.0063572302
0.002272018 -0.00024190475 -0.0063572316
0.010253211 -0.0011490476 -0.0067644669
0.010253214 -0.0011490476 -0.0072298739
0.0097288964 -0.0011490476 -0.0077534602
0.0057674306 -0.0011490473 -0.0067644664
0.0052431207 -0.0011490476 -0.0072298739
0.0032623857 -0.0011490476 -0.0082770428
0.010777523 -0.0011490473 -0.0072298725
0.0077481642 -0.0011490473 -0.0017613207
0.007282109 -0.00072571408 -0.0022267301
0.0072821085 -0.0011490473 -0.0072298739
0.0062334854 -0.0011490476 -0.0077534602
0.0062684417 -0.00016933335 -0.0052518868
0.0057674288 -0.00072571426 -0.0063572321
0.0052431198 -0.00024190475 -0.0063572293
0.0062334873 -0.0011339283 -0.006371778
0.0062493756 0.00017043292 -0.0052518877
0.0062493756 0.00017043293 -0.0047864779
0.0042422968 -0.0011490474 -0.006339333
0.0060975533 0.0010684128 -0.0085679246
0.0065830275 0.00018142856 -0.0097896224
0.0065830275 0.00018142856 -0.010720439
0.006524771 -0.00018142856 -0.011244025
0.0065830275 0.00018142859 -0.011244026
0.006524771 -0.00018142855 -0.010720439
0.0062493752 0.00017043292 -0.010720436
0.0062493742 0.00017043288 -0.011244025
-0.0040779817 -0.00054428569 -0.0025176101
-0.010773258 -0.0011431472 -0.002196932
-0.010777521 -0.00072571408 -0.0022267296
-0.011325134 0.0001427238 -0.003290189
-0.0087385317 0.0011339283 -0.0063717784
0.0022720175 0.0011490473 -0.0022267294
0.0027380735 0.0007257142 -0.0022267294
0.0022720175 0.00072571414 -0.0022267294
0.0032623855 0.0011490483 -0.0012377356
0.0027380737 0.0011490473 -0.0017613203
0.002738073 0.0011490476 -0.0012377354
0.0034954129 0.0001374459 -0.004241738
0.0015379817 -0.00010885714 -0.0052635213
0.0057742842 0.0011348177 -0.0063572335
0.0057674297 0.0011490473 -0.0067644664
0.0052431193 0.0011490476 -0.0067644687
0.0052431198 0.0011339283 -0.0063717766
0.0062334873 0.0011356083 -0.0063443054
0.0062684417 -0.00016933333 -0.003739309
0.0065830275 0.00018142858 -0.0042628935
0.0062493742 0.00017043289 -0.0042628921
0.0062334854 0.0011490473 -0.0067644664
0.0057674297 0.0011490473 -0.0072298734
0.0062684417 -0.00016933336 -0.0047864779
0.0062684403 -0.00016933335 -0.0042628916
0.0040779817 -0.00017043292 -0.0052571748
0.0032623855 0.0011490476 -0.0072298739
0.0052431202 0.00072571414 -0.0063572284
0.0067577991 0.0011490476 -0.0082770428
0.0073403665 0.0011490476 -0.0085679246
0.0072821118 -0.00024190475 -0.0063572307
0.0015146788 -0.00012095238 -0.0092660384
-0.0015146788 0.00012095238 -0.0097896224
-0.0034954126 -0.00018142856 -0.010255031
-0.0015146788 0.00012095237 -0.011244024
-0.0015146788 0.00012095237 -0.01176761
0.00093211007 0.00018142856 -0.011709434
0.0012325931 -0.00017506265 -0.012754557
0.001235046 -0.0001733651 -0.012231724
0.0012233943 0.00018142856 -0.012233019
0.0012233943 0.00018142855 -0.012756598
0.0015146788 -0.00012095238 -0.012233019
0.0012309932 -0.00017616979 -0.011765083
0.0012263566 -0.0001793785 -0.011242054
0.0015146788 -0.00012095238 -0.01176761
0.0012233944 -0.00018142858 -0.010720436
0.0015340978 -0.00011087301 -0.011234328
-0.0012233945 -0.0011490473 -0.0072298734
-0.0015612844 -0.00015723809 -0.0052518868
-0.0015612844 -0.00015723809 -0.0047864774
0.0027380735 0.0011490474 -0.006357234
0.0022720178 0.0011490473 -0.0067644645
0.0047188052 0.0011490473 -0.0067644655
0.0047188066 0.0011339283 -0.0063717766
0.0047188057 0.00072571432 -0.0063572302
0.0052431193 0.0011490476 -0.0072298734
0.0037866978 0.0011490473 -0.0072298758
0.0037866964 0.0011490476 -0.0077534597
0.0034954126 -6.0476184e-05 -0.0052518863
0.0040779817 0.00017043292 -0.0052571748
-0.0012233944 0.0011490476 -0.0077534607
-0.00075733929 0.0011490475 -0.0077534602
-0.0027380732 0.00024190475 -0.0063572302
-0.0015146788 0.00012095238 -0.0052518868
-0.0022720178 0.00072571432 -0.0063572316
-0.002272018 0.00024190475 -0.0063572321
-0.0034954126 6.0476195e-05 -0.0053100628
-0.002272018 0.0011490473 -0.0072298716
0.00075733935 -0.00072571443 -0.0063572321
0.00093211007 0.00018142856 -0.0051937108
0.00023302753 -0.00024190478 -0.0063572284
0.0012233946 0.00018142856 -0.0042628921
0.0012233946 -0.00018142856 -0.0042628925
0.0077481656 -0.0007641993 -0.00029634079
0.00023302747 -0.00076419895 -0.00029634079
0.00023302755 -0.0011490476 -0.00024874182
0.0012392828 -0.0001704329 0.0017292448
0.0038020285 -0.0001655138 0.0027396725
0.0040779817 -0.00012095238 0.0026600631
0.0022720178 -0.0011490473 -0.00024874182
0.0027380737 -0.0011490473 -0.00024874182
0.0027380735 -0.0007641993 -0.00029634079
0.0032623857 -0.0011490476 -0.00071415119
0.0032623857 -0.0011490483 -0.0012377359
0.003262385 -0.0011490476 -0.00024874182
0.0082142195 0.0011490473 -0.00071415072
0.0077481666 0.0011490473 -0.00071415119
0.00075733947 0.0011490476 -0.0077534607
0.00075733935 -0.0011490473 -0.0022267294
-0.00075733947 0.0011490473 -0.0072298739
-0.0012233945 0.0011490473 -0.0072298734
-0.00029128449 0.0011490476 -0.0077534611
-0.0020972476 -0.0010280953 -0.0085679246
0.0092628431 -0.0011369521 -0.0021918241
0.01170561 0.0011448768 -0.0012297113
0.011709633 0.0011490473 -0.00176132
0.012583486 0.0010280953 -0.0017613207
0.012583486 0.0010280953 -0.0012765198
0.012583483 0.00072571426 -0.0017613207
0.011709633 0.0011490473 -0.00071415072
0.012200654 0.0011123295 -0.001231502
0.0077481656 0.0011490473 -0.007229872
0.0077481666 0.0011490476 -0.0077534602
0.0077481638 0.0011490473 -0.0067644673
0.0082142185 0.0011490476 -0.0077534602
0.0077481656 0.0011490473 -0.0082770446
0.0077481656 -0.00024190475 -0.0063572307
0.010775858 -0.0011317685 -0.00030026957
0.010245776 -0.00075273559 -0.00033414923
0.010777522 -0.00074587308 -0.00034570228
0.010253211 -0.001134297 -0.00031543151
0.0097288983 -0.0007620001 -0.0003185533
0.0092628459 -0.0011490476 -0.0012377356
0.0092628421 -0.0011490473 -0.00071415072
0.0097288983 -0.0011490473 -0.00071415072
0.0097288974 -0.0011490474 -0.0021685539
0.0087385317 -0.0011490476 -0.0017613207
0.0097288946 -0.00072168239 -0.0022150946
0.010253212 -0.0011490473 -0.0021685536
-0.0042527532 -0.0011490473 -0.00024874182
-0.0042527532 -0.0011490473 -0.00071415072
-0.0037866968 -0.0011490474 -0.00024874182
-0.0037866975 -0.00018142858 0.00074025197
-0.0015612844 -0.0001572381 0.0017292453
-0.0017477067 -0.0011490476 -0.0017613203
-0.0022720175 -0.0011490473 -0.0022267299
-0.0017477068 -0.0011490476 -0.0022267289
-0.0017477064 -0.0011490476 -0.00024874182
-0.0022720178 -0.0011490473 -0.00024874182
-0.002272018 -0.0011490473 -0.00071415072
-0.0015612846 -0.0001572381 0.0007402515
-0.0015405709 -0.0001411111 0.0026794551
-0.0034954131 -0.00018142856 0.0007402515
-0.0034954129 -0.00018142856 0.0012638364
0.0088420995 -0.00015455029 -0.004786477
0.009088072 -0.00018142856 -0.0047864779
0.0022720178 -0.00024190472 -0.0022267294
0.0027380744 -0.00024190472 -0.0022267289
0.0034954129 0.00018142856 -0.0032738987
0.0027380735 0.00024190477 -0.0022267296
0.0027380742 -0.0011490476 -0.0012377354
0.0032623855 -0.0011490476 -0.0017613205
0.0032623855 -0.0011490476 -0.0022267299
0.00023302753 -0.0011490476 -0.0067644655
0.0047188047 -0.0011490473 -0.0017613205
0.0047188047 -0.0011490473 -0.0022267296
0.0017477064 -0.0011490476 -0.0022267296
0.001227113 -0.00017885509 -0.0037405454
0.0037866968 0.00018142858 0.0012638364
0.0077481652 0.00022980951 -0.00025262032
0.0065830275 0.00018142859 0.00074025197
-0.0062917443 0.00018142858 -0.011767612
0.006574065 0.00016282051 -0.0092749884
0.0075733941 0.0011490476 -0.0085679246
0.0083057666 0.00073435379 -0.0085679246
0.0077481652 0.00024190475 -0.0082770437
0.0065493002 -0.00015596491 -0.0092537897
0.0077481652 -0.00072571408 -0.0082770446
0.0062684417 -0.00016933336 -0.0137456
0.0040779817 -0.00017043292 -0.01419514
0.0038158256 -0.00014514285 -0.014571698
0.0037866971 -0.00018142856 -0.014211003
0.0015146788 -0.00012095238 -0.013745597
0.0012350458 -0.0001733651 -0.013284065
0.0012309933 -0.00017616979 -0.013750659
0.0012233944 0.00018142858 -0.013745602
-0.0012233945 -0.00018142858 -0.013745602
-0.0012233946 0.00018142856 -0.013745602
-0.0012233945 -0.00018142858 -0.014211003
0.0012233945 0.00018142861 -0.014211003
0.0012515831 0.00016582182 -0.014621997
0.0037866973 0.00018142861 -0.010720436
0.0052431193 0.00090714282 -0.0085679246
0.0047188075 0.00090714288 -0.0085679246
0.0047188052 0.0011490473 -0.0082770446
0.0015146788 -0.00012095238 -0.014211006
0.0015146788 -0.00012095238 -0.013280189
-0.0012271128 0.00017885513 -0.01420729
-0.0012508094 -0.00016364148 -0.014635352
-0.0012650064 0.00013535145 -0.014596077
-0.0022137612 0.00030238094 -0.0085679246
-0.0015146788 0.00012095239 -0.0092660375
-0.00084888597 -0.0011663266 -0.0085679246
-0.00011651375 -0.0010280953 -0.0085679246
-0.00029128441 -0.00084666663 -0.0085679246
-0.00082618854 -0.00070922083 -0.0085679237
-0.0057674297 -0.0011490476 -0.0077534602
-0.011316398 -0.00016630953 -0.0047864779
-0.0062493742 -0.00017043293 -0.011767611
0.0090880739 0.00014687073 0.0027016173
0.008851287 0.00015411676 0.0027407589
0.0089133028 6.0476195e-05 0.0030672955
0.0088126771 0.00017043288 0.0022528307
0.0064082565 -6.0476192e-05 0.0030672955
0.0063499995 6.0476188e-05 0.0030672955
0.0040779817 0.00018142858 0.0017292453
0.0040779817 -0.00014111113 0.0017227815
0.0047188052 -0.0011490473 -0.00071415119
0.011301834 0.00018142858 0.0017292448
0.011301835 -0.00018142859 0.0007402515
0.010253211 0.0011490476 -0.00071415119
0.0097288964 0.0011490473 -0.00071415119
0.0092628421 0.0011490476 -0.0077534597
0.0092628431 0.0011490473 -0.0082770428
0.0097288974 0.0011490476 -0.0077534607
0.010253211 0.0011490476 -0.0067644669
0.0097288983 0.0011339283 -0.006371777
0.010253211 0.0011339283 -0.0063717766
0.010777522 0.0011490473 -0.0017613205
0.010777524 0.0011490476 -0.0077534607
0.010777523 0.0011490473 -0.0072298725
0.0097288964 0.0011490473 -0.0082770437
0.0087385327 0.0011490476 -0.0017613203
0.0082142195 0.0011490473 -0.0017613203
0.0082142176 0.0011490474 -0.0021685536
0.0077428683 0.0011343864 -0.0063642845
0.0072821085 0.0011490476 -0.0012377356
0.0077481647 0.0011490476 -0.0012377356
0.0062334877 0.0011490473 -0.00176132
0.0057674292 0.0011490473 -0.00176132
0.0052431202 0.0011490476 -0.0022267292
0.012134076 -0.001079932 -0.0064070979
0.012583483 -0.00024190475 -0.0072298739
0.012583483 0.00024190477 -0.0072298739
0.012583483 0.00072571432 -0.007229873
0.012583486 0.0010280953 -0.006473585
0.012583486 -0.00019486772 -0.0063830893
0.012583484 0.00024190477 -0.0021685532
0.010253211 -0.00070555566 -0.006396017
0.010777522 -0.00070555555 -0.006396017
0.012583483 -0.00024190475 -0.0017613207
0.012583485 -0.00054428569 -0.0012377359
0.012583482 0.00024190475 -0.0012377354
0.0090880711 -0.00018142856 -0.0092660384
0.011243581 0.0011490473 -0.0072298744
-0.0072821085 -0.00072571432 -0.0063572298
-0.0090880729 0.00012095238 -0.0047864779
-0.006553899 0.00015119047 -0.0047864774
-0.0042527537 0.0011490473 -0.0022267294
-0.0042527528 0.0011490473 -0.00176132
-0.0037866959 0.0011490473 -0.0022267294
-0.0042477595 0.0011455916 -0.0063605574
-0.0037866968 0.00018142858 -0.0052518887
-0.0082142195 0.0011490473 -0.0072298739
-0.0072821099 0.0011380516 -0.0022108634
-0.0064082565 0.00054428569 -0.0025176101
-0.0062334868 0.0011380515 -0.0022108634
0.0062493752 0.00017043292 0.0012638364
0.0062684407 -0.00016933335 0.0017292448
0.0062493752 0.00017043292 0.0017292453
-0.00093211007 -0.00024190475 4.2138621e-05
-0.00029128441 -0.0011490473 -0.00024874182
-0.00029128444 -0.00076419918 -0.00029634079
-0.0012233945 -0.00018142856 0.00074025197
-0.00075733947 -0.0011490473 -0.00024874182
-0.0088126753 -0.00017043293 0.0012638364
-0.0088317413 0.00016933335 0.0017292448
-0.0082142185 0.0011369521 -0.00028364779
-0.009088072 -0.00018142856 0.0017292453
-0.0088317432 0.00016933335 0.00074025197
-0.0082142185 0.0007620001 -0.0003185533
-0.0077481656 0.0011380516 -0.0002646083
0.0065480741 0.00015723812 0.0026833336
0.0065414156 -0.00016414966 0.0017292453
0.0065830275 0.00018142856 0.0017292453
0.0065480736 -0.00015723809 0.0012677149
0.0067577981 -0.0011248569 -0.00027201232
0.002272018 0.0011490473 -0.00071415072
0.0072821095 0.0011490474 -0.00024874182
0.0067577977 0.0011490476 -0.00024874182
0.0067577986 0.0011490476 -0.00071415119
0.0038449541 6.0476195e-05 0.0030672955
-0.012583484 0.00072571432 -0.0021685532
-0.012583483 0.00024190475 -0.0017613207
-0.012583483 0.00069369748 -0.0012445801
-0.010249933 0.00021890677 -0.00026267162
-0.0091113746 -0.00015723807 -0.013749477
-0.0088126743 -0.00017043292 -0.013280189
-0.0040779817 -0.00012095238 -0.014501886
-0.0038041745 0.00013909524 -0.014565879
-0.010253212 0.00024190477 -0.0063572307
-0.011243579 0.0011490473 -0.0072298734
-0.0077481647 0.00018142856 -0.0085679237
-0.00046605503 0.00036285713 -0.0085679246
-0.00082618854 -0.00025839827 -0.0085679237
-0.007748168 -0.00021598637 -0.0002653636
-0.0015146788 0.00012095238 -0.012233019
-0.010253212 0.00072571391 -0.0082770465
-0.0097871553 -0.00090714288 -0.0085679246
-0.01222797 0.0007210623 -0.006416901
-0.0088756066 -0.00013873949 -0.014584016
-0.0062493738 -0.00017043293 -0.012756599
-0.0062493756 -0.00017043293 -0.013745602
-0.0062493742 -0.00017043293 -0.014211003
-0.0087385308 -0.0011144895 -0.0063738548
-0.0092688706 -0.0011115104 -0.0063652587
-0.0072821081 -0.00024190475 -0.0022267294
-0.0097288946 -0.00072571414 -0.0022267292
-0.0090880711 -0.00018142858 -0.0042628935
-0.009088072 -0.00018142858 -0.0037393076
-0.0088126771 -0.00017043292 -0.0037393076
-0.0065713762 -0.00015723809 -0.0052518873
-0.0072821099 -0.0011490473 -0.0067644655
-0.0077481642 -0.0011144896 -0.0063738548
-0.012583482 -0.00072571432 -0.0012377359
-0.0037866973 -0.00018142858 0.0017292453
-0.0040779817 -0.00012095238 0.0026600631
-0.0088126753 -0.00017043292 0.0017292448
-0.0088472785 -0.00015723812 0.0027298746
-0.01158147 -0.00015723809 -0.0052518873
-0.012198094 -0.0010653114 -0.006437785
-0.012602902 -0.00070555555 -0.0022073379
-0.011316398 -0.00016630955 -0.0037393081
-0.0037851229 -0.0011523163 -0.0063509429
-0.0062493756 -0.00017043293 -0.0037393086
-0.0062917443 0.00018142858 -0.0032738997
-0.0090880729 0.00012095237 -0.0032738992
-0.0062493728 -0.00017043292 0.00074025197
-0.0052431193 -0.00021598635 -0.0002653636
0.0034954129 0.00016282051 0.0022259797
0.0037866973 -0.00018142858 0.0017292453
0.0037866961 -0.00018142858 0.0012638364
0.0034954126 -6.0476184e-05 0.0007402515
0.0027380737 0.00022980951 -0.00025262032
0.0022720182 0.00022980951 -0.00025262032
0.0095541282 0.0010280953 -0.0085679246
0.0096123852 0.00090714288 -0.0085679246
0.0065480741 -0.00015723809 -0.013757233
0.006541416 -0.00016414966 -0.013296809
0.0065830275 0.00018142858 -0.013280187
0.0065830275 0.00018142858 -0.012756605
0.006524771 -0.00018142858 -0.012756604
0.0051848623 -0.00090714288 -0.0085679246
0.0057674311 -0.00090714288 -0.0085679246
0.0037866964 -0.00018142858 -0.0097896196
0.0088398466 -0.00015776399 -0.009263508
0.009088072 -0.00018142861 -0.0097896224
0.0088420995 -0.00015455029 -0.0097896224
0.0065830275 0.00018142856 -0.010255031
0.006524771 -0.00018142856 -0.01176761
0.0062684407 -0.00016933336 -0.013280185
0.0062684412 -0.00016933335 -0.012756598
0.006524771 -0.00018142858 -0.012233018
0.0057324772 -0.0011248572 -0.0085679246
0.0062684417 -0.00016933336 -0.01223302
-0.011310797 0.00013490842 0.0017337203
-0.0034954126 6.0476184e-05 0.0012056604
-0.0037866973 0.00018142858 0.00074025197
0.0012361826 0.00016962837 0.0027494552
-0.0067577981 0.0011490476 -0.00024874182
-0.0062334877 0.0011490473 -0.00024874182
0.0015612846 0.0001572381 0.0022528302
-0.0062334849 0.0011490476 -0.0012377356
-0.0057674297 0.0011490476 -0.0012377356
-0.0057674297 0.0011490473 -0.0017613205
-0.0057674297 0.0011490473 -0.00071415119
-0.009262844 0.0011490473 -0.00071415119
-0.0077481647 0.0011490476 -0.0012377354
-0.010253211 0.0011490476 -0.00071415119
-0.0082142185 0.0011380516 -0.0022108634
-0.0092628421 0.0011490473 -0.0017613207
0.011307253 0.00017580291 -0.0092687448
0.010923165 0.00021166666 -0.0085679246
0.01083578 0.00090714288 -0.0085679246
0.0095541282 0.00030238094 -0.0085679246
0.010835779 0.0010280953 -0.0085679246
0.009088072 0.00018142856 -0.0097896224
0.009088072 0.00018142858 -0.010255032
0.0088126771 0.00017043292 -0.010255035
0.009088072 -0.00018142856 -0.013745598
0.009088072 0.00018142856 -0.013745598
0.0065830275 0.00018142855 -0.012233019
0.0034954129 0.00016282054 -0.0092391865
0.0040779817 0.00018142856 -0.0092660375
0.0015612843 0.00015723809 -0.0097896224
0.0015612846 0.0001572381 -0.0092660384
0.0022914372 0.00070555555 -0.0085679246
0.0026506879 0.00072571426 -0.0085679246
0.0017865443 0.00066523807 -0.0085679246
0.0027031191 0.00015723809 -0.0085679246
5.4569682e-12 -0.00090714288 -0.0085679246
0.0097288964 -0.0011490473 -0.0072298734
0.010253214 -0.0011490483 -0.0077534611
0.0057674292 -0.0011490474 -0.0072298753
0.0057658553 -0.0011490474 -0.0063509438
0.0052431198 -0.0011490476 -0.0067644664
0.010777522 -0.0011490473 -0.0067644664
0.0072821085 -0.0011490473 -0.0017613205
0.0072821109 -0.0011490476 -0.0012377356
0.0072821099 -0.0011490475 -0.0077534602
0.0067577981 -0.0011339283 -0.0063717766
0.0042527528 -0.0011490473 -0.0022267299
0.0040779817 -0.00015723809 -0.0037393081
0.0040779817 -0.00014111113 -0.0032674349
0.0040779817 -0.00013744588 -0.0042628935
0.0037866966 -0.00018142855 -0.0042628925
-0.0047188052 0.0011490473 -0.0022267292
-0.0040779817 0.00012095238 -0.0037393086
-0.0040779817 0.00012095238 -0.0032738992
-0.0027380735 0.00072571432 -0.0063572307
-0.0032623855 0.00072571414 -0.0063572288
-0.01131848 0.00014687073 -0.0037393081
-0.0092628431 0.0011339283 -0.0063717766
-0.0097288992 -0.0011144895 -0.0063738558
0.0027380737 0.0011490473 -0.0022267292
0.002272018 0.0011490473 -0.00176132
0.0015612843 0.00015723809 -0.0037393076
0.0015612846 0.0001572381 -0.0042628935
0.0012233943 0.0011490473 -0.00071415072
0.0032623857 0.0011490476 -0.00071415119
0.0040779817 0.00016282054 -0.0042539435
0.0037866966 0.00018142856 -0.0042628916
0.0037866968 0.00018142858 -0.0037393086
0.0037866973 -0.00018142858 -0.0037393081
0.0034954126 -6.0476199e-05 -0.0037393081
0.0034954126 -6.0476192e-05 -0.004262893
0.0015464554 -0.00010445889 -0.0047917669
0.0042527532 0.0011490473 -0.0017613205
0.0047188057 0.0011490473 -0.0017613203
0.0047188061 0.0011490476 -0.0012377354
0.0047188047 0.0011490473 -0.0022267294
0.0038449541 0.00054428569 -0.0025176101
0.0047188057 -0.00072571414 -0.0022267296
0.0052431179 0.0011490483 -0.0012377361
0.006249377 0.00017043295 -0.0037393076
0.0065538995 -0.00015119047 -0.0042628935
0.0065804948 0.00017616976 -0.0052594752
0.0088126753 0.00017043292 -0.0037393076
0.0088126771 0.00017043289 -0.004262893
0.0067577991 0.0011490476 -0.0067644659
0.0067577986 0.0011490476 -0.0072298711
0.0067521129 0.001134297 -0.0063657472
0.0062334859 0.0011490473 -0.0072298734
0.0062334868 -0.0011490474 -0.0017613205
0.0040779817 -0.00018142856 -0.0047864784
0.0047158445 0.00025112991 -0.0063138437
0.0072821104 0.0011490473 -0.0072298734
0.0072821118 0.0011490473 -0.0067644655
0.0057674316 0.0011490476 -0.0077534602
-0.00075733935 -0.00072571426 -0.0063572307
-0.0022720185 0.00072571432 -0.0085679237
-0.0037866971 0.00018142858 -0.0097896187
-0.0015146788 0.00012095238 -0.010255031
0.0040779817 -0.00018142856 -0.010255031
0.0040779817 0.00018142856 -0.010720439
0.0040779817 -0.00018142858 -0.01072044
0.0062684412 -0.00016933336 -0.011244026
0.0012233943 0.00018142856 -0.010255034
0.0062493738 0.00017043292 -0.012756599
-0.0027380732 -0.0011490473 -0.0022267296
-0.0027380725 -0.0007257142 -0.0022267294
-0.0015612844 -0.00015723807 -0.0032738992
0.0027380737 0.00072571432 -0.0063572321
0.0047188057 0.0011490473 -0.0072298744
0.0037866959 -0.00018142856 -0.0052518887
0.0040779817 0.0001704329 -0.0047811894
-0.0047188047 0.0011490473 -0.0017613205
-0.0037866973 0.0011490473 -0.0017613205
-0.0017477068 0.0011490483 -0.0077534602
-0.0017477064 0.0011490476 -0.0072298725
-0.0015146788 0.00012095238 -0.0047864779
-0.0012233945 0.00018142856 -0.0047864788
-0.0012233945 -0.00018142856 -0.0047864788
-0.0012233948 0.00018142856 -0.0042628935
-0.002272018 -0.00024190475 -0.0063572298
-0.003262386 0.0011490483 -0.0077534597
-0.002272018 0.0011490474 -0.0063572326
-0.0037866968 0.0011490474 -0.006357233
-0.0027380732 0.0011490473 -0.0072298725
-0.0032623853 0.0011490476 -0.0072298711
0.00023302753 0.00024190475 -0.0063572288
0.0012233945 0.00018142858 -0.0047864784
0.0077481652 -0.00021598639 -0.0002653636
0.0072821099 -0.00076419913 -0.00029634079
0.0067577981 -0.0011490476 -0.00071415119
0.0072821085 0.00022980951 -0.00025262032
0.0072821081 -0.00021598638 -0.0002653636
0.0082142195 -0.0011490473 -0.00071415072
0.0082142185 -0.0011490476 -0.0012377356
0.0082142185 -0.0011490473 -0.0017613205
0.0077481652 -0.0011490476 -0.0012377356
-0.00029128444 -0.0011490473 -0.00071415119
0.00075733959 -0.0011490473 -0.0017613198
0.0012233945 -0.0011490476 -0.0012377354
0.00023302753 -0.0011490482 -0.0012377359
0.00023302752 -0.0011490476 -0.0017613203
0.00075733935 -0.0011490473 -0.00024874182
0.00075733947 -0.0007641993 -0.00029634079
0.0037866968 -0.0011490475 -0.0012377359
0.0022720178 -0.0007641993 -0.00029634079
0.0027380732 -0.0011490473 -0.00071415119
0.0022720178 -0.0011490476 -0.0012377354
-0.0057674297 0.00072571432 -0.0063572307
-0.00029128438 -0.0011490476 -0.0012377356
-0.0015612844 -0.00015723809 -0.0097896233
0.0097288964 0.00076419918 -0.00030691829
0.012205409 0.0011218947 -0.0017601331
0.012583486 0.0010280953 -0.0021685534
0.012204817 0.0011188092 -0.0021685539
0.011704909 0.0011457783 -0.0021748429
0.0082142195 0.0011490473 -0.0082770437
0.0097288992 -0.0011339283 -0.00032146228
0.0092628431 -0.001122169 -0.00029399013
0.0087385299 -0.0011490483 -0.0012377359
0.010777521 -0.0011490473 -0.00071415072
0.010253211 -0.0011490475 -0.00071415072
-0.0034954126 -0.00015119047 -0.0036520441
-0.0032623855 -0.0011490476 -0.0022267301
-0.0037866968 0.00018142858 -0.0047864779
-0.0040779817 0.00012095237 -0.0047864779
-0.0040779817 0.00012095238 -0.0042628935
-0.0034954124 -0.00015119047 -0.0048446544
-0.0037866966 -0.00018142855 -0.0042628925
-0.0027380737 -0.0011490473 -0.00024874182
-0.0027380732 -0.0011490473 -0.00071415119
-0.0027380732 -0.00076419913 -0.00029634079
-0.0027380732 -0.0011490476 -0.0012377356
-0.0032623857 -0.0011490483 -0.0012377359
-0.0067577981 -0.0011490476 -0.00071415119
-0.0067577986 -0.0011490476 -0.0022267294
-0.0057674297 -0.0011490473 -0.0017613203
-0.0047188057 -0.00076419918 -0.00029634079
-0.0040779817 0.00012095238 0.0012638364
-0.0042527528 0.0011490473 -0.00024874182
-0.0015146788 0.00012095238 0.0017292453
-0.0015146788 0.00012095238 0.0012638369
-0.0012233945 -0.0011490473 -0.00176132
-0.0017477063 -0.0011490483 -0.0012377356
-0.0012233945 -0.0011490473 -0.0022267294
-0.0017477066 -0.0011490476 -0.00071415119
0.0088421004 -0.0001545503 -0.0042628939
0.0072821109 -0.00024190475 -0.0022267289
0.007748167 -0.00072571402 -0.0022267294
0.0077490881 -0.00024478455 -0.0022239592
0.0037866959 -0.00018142861 -0.0032738997
0.002738073 -0.00072571414 -0.0022267296
0.0027380732 -0.0011490474 -0.0022267299
0.0037866954 0.00018142858 0.00074025197
0.0077481633 0.0007257142 -0.0022267289
0.0072821113 0.00072571408 -0.0022267294
0.0062493756 0.00017043292 0.00074025197
0.0065830275 0.00018142856 0.0012638364
-0.0040779817 0.00012095238 -0.01072044
-0.0040779817 -0.00018142856 -0.01072044
-0.0040779817 0.00012095238 -0.012756604
-0.0040779817 -0.00018142856 -0.013280187
-0.0040779817 -0.00018142856 -0.012756603
-0.0015146788 0.00012095238 -0.013745597
-0.0012233945 0.00018142858 -0.013280185
-0.0015146788 0.00012095238 -0.014211006
-0.0015535168 -0.00015455026 -0.01421747
-0.0040779817 0.00012095238 -0.013745597
-0.0040779817 -0.00018142856 -0.012233019
-0.0040779817 0.00012095237 -0.01176761
-0.0040779817 -0.00018142855 -0.01176761
-0.0040779817 -0.00018142858 -0.011244025
-0.003786698 -0.00018142858 -0.010720436
0.0065830275 0.00054428569 -0.0085679246
0.0062684412 -0.00016933335 -0.0092660375
0.0032769495 0.0011414881 -0.0085751964
0.0059422017 0.00078619045 -0.0085679246
0.0015612844 0.00015723809 -0.013745598
-0.0015146788 0.00012095238 -0.014501886
-0.0037866964 0.00018142858 -0.014211003
-0.0034954126 6.0476195e-05 -0.014036477
-0.0012233946 -0.00018142855 -0.0092660366
-0.00075733941 -0.0011490473 -0.0082770446
-0.00029128446 -0.0011490476 -0.0077534597
0.0088684894 -0.00014886446 0.0027361396
0.0090880729 -0.00010885714 0.0026949686
0.008812678 0.00017043293 0.0017292453
0.0082142195 0.0011380516 -0.0002646083
0.0087445583 0.0011448768 -0.00025476003
0.0047188052 -0.0011490473 -0.00024874182
0.0052431184 -0.0011490476 -0.00024874182
0.0042527532 -0.0011490473 -0.00071415072
0.011301834 -0.00018142858 0.0012638364
0.011581469 -0.0001572381 0.0007402515
0.0097288983 0.0011490476 -0.0012377356
0.0082142185 0.0011490476 -0.0012377354
0.0087385308 0.0011490483 -0.0077534588
0.0097288974 0.0011490473 -0.007229872
0.011243578 0.0011490473 -0.0017613205
0.009262844 0.0011490473 -0.00176132
0.0092628421 0.0011490474 -0.0021685539
0.0067578 0.0011490483 -0.0012377361
0.0062334859 0.0011490476 -0.0012377356
0.0062334868 0.0011490473 -0.00071415072
0.0062393132 0.0011429997 -0.0021918244
0.0047188057 0.0011490473 -0.00071415072
0.0052431202 0.0011490476 -0.00071415119
0.0037866961 0.0011490473 -0.00024874182
0.0042527528 0.0011490473 -0.00024874182
0.011682745 -0.0011164832 -0.006375134
0.012205984 0.0011248568 -0.0067691202
0.012224234 0.0011036902 -0.006381474
0.012225769 -0.00023872181 -0.0063633532
0.012226775 0.00072292297 -0.0021864541
0.012583483 0.00024190477 -0.0017613207
0.012583486 -0.00054428569 -0.0017613207
0.012583483 0.00072571426 -0.00071415072
0.0083889905 0.00018142856 -0.0085679246
0.0088134343 0.00017494897 -0.0092618838
0.012583485 0.0010280953 -0.0077534593
0.011704567 0.0011437886 -0.0072324015
0.012212101 0.0011188091 -0.0072371471
0.012583482 -0.00024190478 -0.0077534593
-0.0057674288 0.0011380516 -0.0022108634
-0.0057674316 0.0007257142 -0.0022267292
-0.0057674302 0.0011339284 -0.006371777
-0.0077481642 0.0011380516 -0.0022108634
0.00093211007 0.00018142856 0.00068207551
-0.0022720178 0.00022980951 -0.00025262032
-0.0022720178 0.00076419918 -0.00030691829
-0.0012233946 -0.00018142861 0.0012638364
-0.0012233945 0.00018142858 0.0012638364
-0.0012233944 0.00018142856 0.0017292453
-0.0012233943 0.00018142855 0.00074025197
-0.0077481661 0.0007641993 -0.00030691829
0.0062493756 0.00017043289 0.0022528302
0.0065493002 -0.00015596491 0.0022528302
0.0065810187 0.00017725781 0.0022448055
0.0072821109 0.00076419918 -0.00030691829
0.0072821085 0.0011490473 -0.00071415119
-0.0091047157 -0.00016414965 -0.014211006
-0.010777521 -0.0011490473 -0.0017613205
-0.0097288955 -0.0011490476 -0.0077534602
-0.010253214 -0.0011490482 -0.0077534588
-0.0097288974 -0.0011490473 -0.0072298734
-0.010253214 -0.0011490475 -0.0082770428
-0.010777521 -0.0011490476 -0.0077534602
-0.011243578 0.0011490473 -0.0067644659
-0.00037284399 0.00070152379 -0.0085679237
0.0012233945 0.00018142856 -0.0092660366
-0.0037866975 -0.00018142856 -0.012756599
-0.0034954126 -0.00016933333 -0.013245283
-0.0034954126 -0.00018142859 -0.012213628
-0.0034954126 -0.00016933335 -0.013733963
-0.0097288964 0.00072571402 -0.0082770437
-0.010253211 0.00024190483 -0.0082770474
-0.011686329 -0.0011248568 -0.0077534588
-0.011686331 -0.0011248568 -0.0072298734
-0.011243579 -0.0011490473 -0.0072298753
-0.011690214 0.00073147402 -0.0063738548
-0.0062917424 -0.00013686717 -0.014605992
-0.0065247705 -0.00012095238 -0.014560062
-0.0065713762 -0.00015723807 -0.013745598
-0.0077481638 -0.0011490473 -0.00024874182
-0.0092628449 -0.0011490473 -0.00071415119
-0.0087385308 -0.0011490476 -0.00071415119
-0.0087385327 -0.0011490482 -0.0012377356
-0.0092628449 -0.0011490473 -0.0017613205
-0.0087385299 -0.0011490476 -0.0017613205
-0.0092683928 -0.001140408 -0.0022017974
-0.0072821099 -0.0011490473 -0.0072298739
-0.012583482 -0.00024190475 -0.0012377359
-0.0034954126 -0.00016933335 0.0017641508
-0.0037941665 -0.00016902322 0.0027391226
-0.0090880739 -0.00014687073 0.0027016178
-0.011318477 0.00014687075 -0.0052518873
-0.012226663 -0.00073075405 -0.0063863192
-0.01158147 -0.00015723809 -0.0037393076
-0.0040779817 -0.00018142856 -0.0042628935
0.0040779817 -0.00017278912 0.0022528302
0.0037866968 0.00018142856 0.0017292448
0.0034954126 -6.0476192e-05 0.0012638364
0.0092744948 0.0010764763 -0.0085679246
0.0037866959 -0.00018142855 -0.0092660356
0.0065480741 -0.00015723809 -0.014199372
0.0062684407 -0.00016933335 -0.011767609
0.0062493752 0.00017043292 -0.011767614
0.0062684417 -0.00016933335 -0.010255035
-0.0097288974 -0.00076419918 -0.00029634079
-0.0015612844 -0.00015723812 0.0012638364
-0.0037866973 -0.00018142858 0.0012638364
-0.0052431212 0.0011490475 -0.00024874182
-0.0072821113 0.0011490473 -0.00071415072
-0.0067577991 0.0011490476 -0.00071415119
-0.0062334877 0.0011490473 -0.0017613207
-0.0062334868 0.0011490473 -0.00071415119
-0.0087385308 0.0011490476 -0.00071415119
-0.0082142195 0.0011490473 -0.00071415072
-0.010777521 0.0011490473 -0.00071415119
-0.0087385299 0.0011380515 -0.0022108634
-0.0082142195 0.00072571397 -0.0022267296
0.0090880711 0.00018142856 -0.0092660384
0.009088072 -0.00018142856 -0.013280187
0.008833644 -0.00016661812 -0.012756599
0.0090880711 -0.00018142858 -0.012756603
0.0088126762 0.00017043292 -0.013745602
0.0015276248 -0.00011423279 -0.0098090144
0.0015612843 0.00015723807 -0.01025503
0.009262844 -0.0011490473 -0.0072298744
0.0057674292 0.0007257142 -0.0063572316
-0.0047116508 -0.00025569761 -0.0063204877
-0.0097288992 0.0011339283 -0.006371777
0.0017477068 0.0011490483 -0.0012377356
0.0012233944 0.0011490476 -0.0012377356
0.0012233945 0.00018142856 -0.0037393076
0.0015464554 -0.00010445888 -0.0037445966
-0.00029128441 0.0011490473 -0.0067644664
-0.00075733941 0.0011490474 -0.0063572335
-0.0012233942 0.0011490474 -0.0063572321
-0.0012233943 0.00018142858 -0.0052518882
-0.0015146788 0.00054428569 -0.0025176101
-0.0015146788 0.00012095238 -0.0032738992
-0.0022720178 0.00072571402 -0.0022267292
0.0027380735 0.0011490473 -0.00071415072
0.00023302753 -0.0011490476 -0.0022267294
-0.00029128435 -0.0011490473 -0.0022267296
0.0034954126 0.0001572381 -0.0037160376
0.0042527532 0.0011490476 -0.0012377356
0.0047188071 0.00072571402 -0.0022267296
0.0037866978 0.00018142856 -0.0032738997
0.0062684417 -0.00016933335 -0.0032739001
0.005767432 -0.00072571414 -0.0022267296
0.0057674302 0.0011490476 -0.0012377356
0.0072786836 0.00024546217 -0.0063435417
0.0072821081 0.00072571426 -0.0063572307
0.0065830275 0.00018142856 -0.0032738997
0.0065830275 0.00018142858 -0.0037393081
0.0065538995 -0.00015119047 -0.0047864784
0.0072889649 0.0011348176 -0.0063572326
0.0077481642 0.0007257142 -0.0063572307
0.0052431207 -0.0011490476 -0.00071415119
0.0057674297 -0.0011490473 -0.00071415119
0.0052564363 0.00025227215 -0.0063239862
0.0072821095 0.0011490473 -0.0082770446
0.0065636081 -0.00058460311 -0.0085679246
0.008812679 0.00017043292 -0.0052518877
-0.0015146788 0.00012095238 -0.01072044
0.0015612844 0.0001572381 -0.01176761
0.0015612846 0.0001572381 -0.011244025
0.0012233944 0.00018142858 -0.01124403
0.0015612843 0.00015723809 -0.010720441
0.0037866968 -0.00018142856 -0.010255035
0.0034954126 -6.0476192e-05 -0.01176761
0.0037866954 -0.00018142858 -0.011767612
0.0034954126 -6.0476199e-05 -0.012233019
0.0037866966 -0.00018142855 -0.011244025
0.0040779817 -0.00018142858 -0.011767611
0.0037866973 -0.00018142858 -0.012233019
0.0062493756 0.00017043293 -0.012233019
0.006249377 0.00017043293 -0.013280187
0.0037866971 -0.00018142856 -0.004786477
-0.0052431193 0.0011490476 -0.0017613205
-0.0037866971 0.0011490476 -0.0012377354
-0.0032623855 0.0011490476 -0.00024874182
-0.0052431198 0.00024190478 -0.0022267287
-0.0052431193 0.00072571397 -0.0022267301
-0.0015612846 -0.00015723807 -0.0042628935
-0.0015146788 0.00012095238 -0.004262893
-0.0012233948 -0.00018142856 -0.0042628921
-0.0012233944 -0.00018142861 -0.0037393086
-0.0012233945 0.00018142858 -0.0037393076
-0.0037866959 0.0011490476 -0.0077534602
-0.0047188052 0.0011490473 -0.0067644664
-0.0032623857 0.0011490473 -0.0063572312
0.0015415667 -0.00010699635 -0.0042718435
0.0072821099 -0.0011490473 -0.00071415072
0.0067578 -0.0011490476 -0.0017613207
0.0062334873 -0.0011490473 -0.00071415119
0.00075733959 -0.0011490473 -0.00071415072
0.0022720178 -0.0011490474 -0.00071415072
0.0017477063 -0.0011490483 -0.0012377359
-0.00075733947 -0.0011490473 -0.00071415119
0.012583484 0.00072571432 -0.0021685532
0.011301834 -0.00018142858 -0.0052518882
0.010253212 0.00024190477 -0.0063572293
0.010253211 -0.00024190472 -0.0063572293
0.011308689 0.00017787114 -0.0052553099
0.01158147 -0.00015723807 -0.0047864774
0.010779287 0.0011380517 -0.0063678101
0.011243577 0.0011339284 -0.0063717766
0.011308688 0.00017787114 -0.0047830553
0.010777521 0.00072571426 -0.0063572307
0.010777522 0.0011490473 -0.0067644659
0.0115848 0.00016414966 -0.0032711285
0.011301835 -0.00018142859 -0.0042628925
0.011581469 -0.0001572381 -0.004262893
0.011313201 0.00017552848 -0.004257218
0.011312427 0.00017776337 -0.0037445961
0.011301833 -0.00018142858 -0.0032738997
0.010773956 -0.00072694849 -0.0021733027
0.0082142185 0.00072571432 -0.0063572302
0.010253211 -0.00021598637 -0.0002653636
0.0097288983 -0.00070555561 -0.0063960184
0.0087385317 -0.0011275447 -0.00029399013
0.0092628459 -0.0011490473 -0.0017613203
0.010253212 -0.0011490476 -0.0017613203
0.010240083 -0.00025297792 -0.0022046058
0.009088072 0.00018142858 -0.0032738987
-0.0038449541 -0.00054428569 -0.0025176101
-0.001557605 -0.0001559649 -0.0037484933
-0.0034954126 -0.00018142856 -0.0032157232
-0.0037866973 -0.00018142861 -0.0032738992
-0.0027380735 0.00024190474 -0.0022267292
-0.002738073 0.00072571414 -0.0022267296
-0.0037866968 -0.00018142856 -0.003739309
-0.0034954126 -0.00016933333 -0.0052867923
-0.0034954126 6.0476192e-05 -0.0049028303
-0.0032623855 -0.0011490476 -0.00071415119
-0.0037866971 -0.0011490476 -0.0012377356
-0.0032623855 -0.0011490476 -0.0017613205
-0.0027380735 -0.0011490473 -0.00176132
-0.0022720178 -0.0011490476 -0.0012377354
-0.0082142185 -0.0011490473 -0.00071415072
-0.0082142195 -0.0011490473 -0.0017613205
-0.0062334873 -0.0011490473 -0.0017613203
-0.00523917 -0.0011469976 -0.0022237713
-0.0052431198 -0.00072571397 -0.0022267294
-0.0040779817 0.00012095238 0.0007402515
-0.0047188061 0.00022980952 -0.00025262032
-0.0047188047 0.00076419918 -0.00030691829
-0.002738073 -0.00021598638 -0.0002653636
-0.0022720175 -0.00021598638 -0.0002653636
0.009088072 0.00018142856 -0.0052518863
0.0087385327 0.0011339283 -0.0063717775
0.009088072 0.00018142855 -0.0037393076
0.0090880711 0.00018142856 -0.0042628935
0.0052431212 0.0011490476 -0.0017613205
0.0022720178 -0.0011490473 -0.0017613203
0.002272018 0.00024190475 -0.0022267289
0.0034954126 -6.0476192e-05 -0.0032738992
0.0037866964 -0.00018142855 0.00074025197
0.0062684412 -0.00016933333 0.00074025197
0.0057674292 -0.00076419918 -0.00029634079
0.002272018 0.00076419913 -0.00030691829
-0.0062917429 0.00018142859 -0.012756601
-0.0012233945 -0.00018142856 -0.013280187
-0.0015612843 -0.00015723809 -0.01176761
-0.0015612843 -0.00015723809 -0.01223302
-0.0034954126 6.0476195e-05 -0.012213628
-0.0012233944 -0.00018142858 -0.012233019
-0.0012233944 0.00018142856 -0.012756598
-0.0012233943 0.00018142858 -0.012233019
-0.0040779817 0.00012095238 -0.013280189
-0.0037866973 0.00018142858 -0.013280189
-0.0040779817 0.00012095238 -0.011244024
-0.0037866959 0.00018142856 -0.011767612
-0.0037866964 0.00018142858 -0.012233019
-0.0040779817 0.00012095238 -0.012233019
-0.0037866971 -0.00018142858 -0.012233019
-0.0037866973 -0.00018142858 -0.011767612
-0.0037866973 -0.00018142858 -0.010255034
-0.0037866959 -0.00018142858 -0.011244026
0.0077481652 -0.00024190475 -0.0082770456
0.0085637607 -0.00054428569 -0.0085679246
0.0040779817 -0.0001572381 -0.013745598
0.0040779817 0.00015723807 -0.014187735
0.0040779817 0.0001572381 -0.013745598
0.0040779817 -0.00018142858 -0.012233018
0.0040779817 -0.00017278912 -0.012748293
0.0040779817 0.00017043292 -0.012238308
0.0037866973 -0.00018142858 -0.013745602
0.0040779817 -0.00017043292 -0.013264321
0.0037866973 0.0011490476 -0.0085679237
0.0032623855 0.0011490476 -0.0082770428
0.0012233945 0.00018142858 -0.013280191
0.0015612844 0.00015723809 -0.014211006
0.0034954126 -6.0476192e-05 -0.014152829
0.0015146788 -0.00012095238 -0.012756604
0.0015612844 0.0001572381 -0.012756605
0.0027769112 0.0011490476 -0.0085679246
-0.0034954126 -0.00012095238 -0.014152829
-0.0040779817 0.00012095237 -0.014211005
0.0089715598 -6.0476199e-05 0.0030672955
0.0040779817 -0.00014111112 0.0012703007
0.010253216 0.0011490476 -0.0017613207
0.011243579 0.0011490473 -0.0067644659
0.0087385317 0.0011490476 -0.0082770446
0.0092628431 0.0011490473 -0.0067644655
0.011245001 0.0011372472 -0.0021969324
0.0097288983 0.0011490473 -0.0017613198
0.0087482398 0.0011465274 -0.0021830976
0.009262844 0.0011339283 -0.0063717766
0.0047188052 0.0011490474 -0.00024874182
0.0062334868 0.0011490473 -0.00024874182
0.0057674292 0.0011490473 -0.00024874182
0.0062729516 0.00015411673 0.0027257456
0.011243581 0.0011490476 -0.0077534597
0.011705615 0.0011448768 -0.0077494481
0.011709633 0.0011490473 -0.0067644664
0.011685901 0.0011176893 -0.0063701612
0.012225816 0.00071305654 -0.0064032334
0.012211394 -0.00070815667 -0.0064323004
0.012583482 0.00072571432 -0.0012377359
0.012583486 0.0010280953 -0.00071415072
0.012583482 0.00072571426 -0.0077534588
-0.0052431212 0.0011339283 -0.0063717784
-0.0062334882 0.0011339283 -0.0063717775
-0.0077481652 0.00072571414 -0.0022267296
-0.00029128446 0.00022980952 -0.00025262032
-0.010777521 0.0011490473 -0.0067644659
-0.0037866964 -0.00018142861 -0.013280187
-0.0034954126 6.0476195e-05 -0.01271782
-0.012208053 -0.0010818514 -0.0077534588
-0.011243578 -0.0011490476 -0.0077534607
-0.0065247701 0.00010079364 -0.014540669
-0.0065713762 -0.00015723812 -0.014211008
-0.0087385299 -0.0011380516 -0.0002646083
-0.0087342169 -0.001137848 -0.0022073376
-0.010777521 -0.0011490473 -0.00071415072
-0.010253211 -0.0011490476 -0.00071415119
-0.010253211 -0.0011490483 -0.0012377359
-0.0097288964 -0.0011490473 -0.00071415072
-0.0092628449 -0.0011490476 -0.0012377356
-0.010253212 -0.0011490476 -0.0017613205
-0.012583483 -0.00024190475 -0.00071415072
-0.012583483 -0.00024190475 -0.0017613207
-0.012583482 0.00024190475 -0.0012377356
-0.0034954131 -0.00018142858 0.0022528302
-0.0037866957 -0.00018142855 0.0022528307
-0.0090880711 -0.00018142858 0.0022528307
-0.011316398 -0.00016630953 -0.0052518877
-0.010777521 -0.00072571432 -0.0063572316
-0.010777524 -0.0011144895 -0.0063738548
-0.010253214 -0.00072571414 -0.0063572302
-0.012208051 -0.0010818515 -0.0067644641
-0.003786698 -0.00018142856 -0.0047864784
0.0088126762 0.00017043292 -0.0097896196
0.0088126753 0.00017043292 -0.01223302
0.0088126762 0.00017043292 -0.012756599
0.009088072 0.00018142858 -0.01223302
0.0088341339 -0.00016592187 -0.011769103
0.0088126762 0.00017043292 -0.011244027
0.0088356277 -0.00016378972 -0.01124645
0.0082724765 0.0010280953 -0.0085679246
0.0051848618 -0.00018142858 -0.0085679246
0.0090880711 -0.00018142858 -0.011244025
0.009088072 -0.00018142856 -0.011767611
0.009088072 0.00018142856 -0.01176761
0.009088072 -0.00018142858 -0.01072044
0.0088126771 0.00017043293 -0.010720436
0.009088072 -0.00018142856 -0.010255031
0.0088366475 -0.00016233086 -0.010720436
0.0062684417 -0.00016933333 -0.010720437
-0.010253214 -0.00021598635 -0.0002653636
-0.0057674306 0.0011490473 -0.00024874182
-0.0077481647 0.0011490473 -0.00071415072
-0.0067577986 0.0011490476 -0.0017613198
-0.011243578 0.0011490474 -0.00030691829
0.009088072 0.00018142858 -0.013280187
0.0088341329 -0.00016592187 -0.013744108
-0.0015438073 -0.00072571432 -0.0025176101
0.0092628431 -0.0011490473 -0.0067644664
0.0092628431 -0.0011490476 -0.0077534607
-0.0047188061 0.00072571408 -0.0022267299
-0.010253212 -0.0011490476 -0.007229873
-0.010253211 -0.0011380515 -0.0022108634
-0.009262844 -0.0011490474 -0.0067644673
-0.0097288983 -0.0011490473 -0.0067644664
-0.010777522 -0.0011490473 -0.0072298725
-0.011243579 -0.0011490473 -0.0067644659
-0.0097288964 -0.0007257142 -0.0063572307
0.0017477063 0.0011490476 -0.0017613205
0.0022720178 0.0011490476 -0.0012377356
-0.0017477067 0.0011490476 -0.0067644683
-0.0012233945 0.0011490473 -0.0067644659
-0.002272018 0.0011490473 -0.0067644673
0.00023302757 0.0011490476 -0.0067644673
-0.00029128438 -0.00024190475 -0.0063572307
-0.00029128438 0.00024190475 -0.0063572316
-0.0012233945 -0.00018142856 -0.0052518868
-0.00075733924 0.0011490473 -0.0022267294
-0.00079229363 0.0010764762 -0.0025176101
-0.0012233943 0.0011490473 -0.0022267296
-0.00029128441 0.0011490473 -0.0022267296
-0.00029128452 0.0007257142 -0.0022267299
-0.00029128441 0.0011490474 -0.0063572321
-0.00075733941 0.0011490473 -0.0067644664
0.00023302756 0.0011490475 -0.0022267294
0.00023302752 0.0011490476 -0.0017613205
0.00023302746 0.0011490483 -0.0012377356
0.00075733935 0.0011490473 -0.00176132
-0.00081559632 0.00077275129 -0.0025176101
0.00023302753 0.00024190478 -0.0022267294
0.00023302757 -0.00024190478 -0.0022267296
0.00093211007 0.00018142856 -0.0025176101
0.0027380732 0.0007641993 -0.00030691829
0.0011185321 -0.00066523801 -0.0025176101
0.0037866968 0.0011490473 -0.00071415072
0.0052431202 -0.0011490476 -0.0022267289
0.0062493761 0.00017043293 -0.0032738997
0.0059422017 -0.00012095238 -0.0025176101
0.0059422017 6.0476195e-05 -0.0025176101
0.0057674306 0.0011490473 -0.00071415072
0.0088126753 0.00017043292 -0.0032738987
0.0082114451 0.00072859396 -0.0022239594
0.0065830275 0.00018142856 -0.0047864774
0.0072821099 -0.00024190475 -0.0082770437
0.0067578 0.0011490483 -0.0077534602
0.0077470224 0.00024783376 -0.0063435421
-0.0012233945 0.00018142858 -0.010720438
0.0012233945 0.00018142861 -0.011767614
0.0012233945 0.00018142858 -0.010720438
0.0034954129 0.00013744588 -0.012746027
0.0034954126 0.0001411111 -0.012239482
0.0034954126 -6.0476199e-05 -0.011244025
0.0037866961 -0.00018142858 -0.010720436
0.0040779817 -0.00017278911 -0.011252335
0.0040779817 0.0001704329 -0.013285479
-0.00523896 0.001140408 -0.0022142634
-0.0032623855 0.0011490483 -0.0012377359
-0.0037866971 0.0011490473 -0.00071415072
-0.0037866964 0.0011490473 -0.00024874182
-0.0052431193 -0.00024190481 -0.0022267294
-0.0042527528 0.0011490476 -0.0077534593
-0.0037866971 0.0011490473 -0.0072298744
-0.0017477062 0.0011490474 -0.0063572302
-0.0017477066 0.0011490476 -0.0022267294
-0.002272018 0.0011490473 -0.0022267299
-0.0027380728 0.0011490473 -0.0022267294
-0.0032623857 0.0011490476 -0.0067644669
0.0057674302 -0.0011490476 -0.0012377354
0.0067577991 -0.0011490483 -0.0012377354
-0.0012233945 -0.0011490473 -0.00071415119
-0.00029128446 0.00024190474 -0.0022267301
-0.00088550459 -0.00015723809 -0.0025176101
-0.00029128446 -0.00024190475 -0.0022267294
-0.00088217563 0.00021598639 -0.0025176101
0.010253214 0.0011490476 -0.0072298734
0.010256857 0.00071626477 -0.0021830979
0.0097219059 0.00072087615 -0.002177862
0.011591112 0.00017725781 -0.0042669056
0.01158147 -0.00015723809 -0.0052518873
0.011581469 -0.00015723809 -0.0032738992
0.011301835 -0.00018142858 -0.0047864784
0.0090880711 -0.00018142858 -0.0042628935
0.011308687 0.00017787116 -0.0032773213
0.010253214 -0.00024190478 -0.0082770493
0.0082142195 0.0011339283 -0.0063717766
0.0087385327 -0.0011490475 -0.00071415119
0.010245007 -0.0007214552 -0.0022046065
-0.0027380737 -0.00024190475 -0.0022267299
-0.002272018 -0.00024190475 -0.0022267296
-0.0040779817 -0.00018142858 -0.0032738987
-0.0047188057 -0.00072571402 -0.0022267292
-0.0040779817 -0.00018142855 -0.0037393076
-0.003786698 0.00018142858 -0.0032739001
-0.0037866954 0.00018142861 -0.0037393086
-0.003262385 0.00072571408 -0.0022267301
-0.0037866961 -0.00018142858 -0.0052518877
-0.0037866954 0.00018142856 -0.0042628925
-0.0034954126 -6.0476192e-05 -0.0042241085
-0.0032623857 -0.0011490476 -0.00024874182
-0.0042527528 -0.0011490476 -0.0012377356
-0.0037866959 -0.0011490473 -0.00071415072
-0.002272018 -0.0011490473 -0.0017613205
-0.0077481642 -0.0011490473 -0.00071415119
-0.0077481647 -0.0011490476 -0.0012377354
-0.0072821099 -0.0011490473 -0.00071415072
-0.0067578 -0.0011490483 -0.0012377356
-0.0072821085 -0.0011490476 -0.0012377356
-0.0077481656 -0.0011490474 -0.0017613203
-0.0072821095 -0.0011490473 -0.0022267299
-0.0082142185 -0.0011490475 -0.0012377359
-0.0052431198 -0.0011490476 -0.0017613203
-0.0052431193 -0.0011490483 -0.0012377361
-0.0052431198 -0.0011490476 -0.00071415119
-0.0067577991 -0.0011490476 -0.0017613205
-0.0062334863 -0.0011490476 -0.0012377354
-0.0052431198 -0.00076419907 -0.00029634032
-0.0057674292 -0.0007641993 -0.00029634079
-0.00075733947 -0.0011490473 -0.0022267296
-0.00075733935 -0.0011490473 -0.00176132
-0.00075733953 -0.0011490476 -0.0012377354
-0.0027380737 0.00022980952 -0.00025262032
-0.0022720175 0.00024190477 -0.0022267287
-0.0022720178 -0.00076419913 -0.00029634079
0.010253211 0.0007257142 -0.0063572293
0.0097288964 0.00072571426 -0.0063572307
0.009088072 -0.00018142858 -0.0052518868
0.009088072 0.00018142858 -0.0047864779
0.0097288964 0.0011490473 -0.0067644645
0.010260495 0.0011490473 -0.0021830976
0.010780819 0.0007108805 -0.002190507
0.0057637109 0.0011464738 -0.0022230165
0.0057674311 0.00072571414 -0.0022267296
0.0027380728 -0.0011490473 -0.0017613205
0.0065538995 -0.00015119048 0.0007402515
0.0052431212 -0.00076419901 -0.00029634032
0.002272018 0.0011490473 -0.00024874182
-0.0037866959 0.00018142856 -0.012756596
-0.0015146788 0.00012095238 -0.012756604
-0.0015146788 0.00012095238 -0.013280187
-0.0015612844 -0.0001572381 -0.012756602
-0.0037866961 0.00018142856 -0.010720436
-0.0037866975 0.00018142856 -0.011244029
-0.0034954126 -0.00018142858 -0.01176761
